ncols 443
nrows 30
xllcorner    455022
yllcorner    91788
cellsize     2
NODATA_value -9999
24.423 24.618 24.788 24.931 25.071 25.156 25.288 25.468 25.618 25.778 25.878 26.028 26.113 26.218 26.316 26.443 26.526 26.646 26.738 26.763 26.866 26.953 27.038 27.128 27.211 27.248 27.681 28.071 28.491 30.171 29.296 31.706 31.521 28.186 28.211 28.271 28.308 28.373 28.448 28.503 28.618 28.691 28.793 28.886 28.998 29.071 29.163 29.243 29.308 29.388 29.438 29.516 29.588 29.688 29.773 29.878 29.978 30.088 30.201 30.268 30.351 30.441 30.516 30.623 30.723 30.788 30.921 31.023 31.111 31.221 31.328 31.413 31.498 31.581 31.663 31.761 31.838 31.923 31.996 32.078 32.153 32.461 33.168 34.333 34.571 34.061 32.936 32.956 33.006 32.988 33.046 33.116 33.213 33.293 33.358 33.403 33.498 33.546 33.571 33.621 33.693 33.748 33.793 33.843 33.883 33.908 33.943 33.978 34.001 34.011 34.031 34.086 34.103 34.166 34.203 34.243 34.283 34.311 34.323 34.353 34.371 34.366 34.351 34.391 34.383 34.378 34.358 34.318 34.303 34.296 34.313 34.348 34.378 34.398 34.428 34.453 34.461 34.458 34.456 34.453 34.453 34.443 34.458 34.486 34.513 34.541 34.563 34.611 34.656 34.688 34.726 34.741 34.736 34.746 34.756 34.781 34.823 34.841 34.878 34.916 34.923 34.936 35.001 35.026 35.041 35.066 35.068 35.101 35.121 35.168 35.211 35.266 35.341 35.366 35.426 35.488 35.528 35.576 35.616 35.663 35.683 35.736 35.818 35.856 35.891 35.948 36.008 36.023 36.063 36.156 36.243 36.281 36.268 36.196 36.543 37.891 37.266 36.751 36.823 36.856 36.871 36.928 36.978 37.036 37.138 37.228 37.306 37.378 37.463 37.513 37.576 37.646 37.723 37.778 37.811 37.881 37.963 38.021 38.091 38.196 38.248 38.318 38.401 38.473 38.538 38.626 38.708 38.798 38.866 38.948 39.018 39.123 39.186 39.296 39.411 39.521 39.616 39.703 39.763 39.811 39.876 39.926 40.001 40.096 40.178 40.261 40.376 40.441 40.513 40.573 40.613 40.701 40.751 40.826 40.881 40.956 41.053 41.118 41.193 41.276 41.311 41.413 41.456 41.501 41.568 41.608 41.646 41.716 41.771 41.843 41.908 41.968 42.031 42.083 42.158 42.228 42.313 42.358 42.426 42.466 42.508 42.578 42.638 42.691 42.766 42.803 42.886 42.921 42.993 43.061 43.146 43.178 43.276 43.323 43.421 43.486 43.538 43.591 43.683 43.748 43.823 43.893 43.976 44.063 44.141 44.241 44.306 44.393 44.458 44.543 44.616 44.698 44.743 44.801 44.851 44.928 44.978 45.036 45.073 45.131 45.211 45.263 45.328 45.401 45.461 45.506 45.578 45.631 45.676 45.763 45.836 45.891 45.976 46.026 46.101 46.763 48.343 47.466 46.343 46.418 46.511 46.593 46.583 46.683 46.716 46.783 46.856 46.898 46.941 47.003 47.026 47.068 47.138 47.131 47.201 47.198 47.228 47.266 47.308 47.328 47.391 47.403 47.448 47.503 47.581 47.596 47.633 47.678 47.713 47.731 47.793 47.856 47.888 47.906 47.963 48.006 48.048 48.028 48.088 48.098 48.101 48.126 48.121 48.121 48.131 48.148 48.141 48.158 48.143 48.153 48.138 48.118 48.133 48.148 48.148 48.123 48.141 48.113 48.111 48.078 48.061 48.076 48.066 48.053 48.093 48.086 48.076 48.073 48.086 48.058 48.076 48.066 48.056 48.051 48.056 48.049 47.998 48.008 48 47.971 47.924 47.922 47.876 47.868 47.866 47.851 47.873 47.864 47.85 47.879 47.88 47.881 47.796 47.766 47.756 47.718 47.666 47.666 47.658 47.601 47.558 47.498 47.446
24.358 24.526 24.716 24.858 24.981 25.128 25.291 25.463 25.598 25.748 25.881 26.036 26.133 26.253 26.341 26.406 26.491 26.603 26.706 26.783 26.858 26.938 27.028 27.111 27.203 27.268 27.308 27.926 28.113 28.758 30.448 30.123 29.251 28.436 28.261 28.323 28.371 28.408 28.446 28.521 28.601 28.723 28.803 28.906 28.991 29.101 29.161 29.233 29.306 29.378 29.436 29.518 29.616 29.703 29.786 29.886 29.971 30.083 30.176 30.278 30.358 30.433 30.508 30.588 30.663 30.781 30.866 30.971 31.068 31.163 31.268 31.351 31.441 31.521 31.618 31.708 31.786 31.883 31.968 32.308 32.838 33.958 34.316 34.133 33.288 32.926 32.813 32.848 32.868 32.953 33.096 33.163 33.221 33.306 33.346 33.401 33.438 33.521 33.573 33.656 33.711 33.758 33.838 33.871 33.903 33.916 33.953 33.978 34.011 34.016 34.083 34.093 34.106 34.146 34.203 34.233 34.278 34.326 34.351 34.371 34.383 34.376 34.403 34.406 34.396 34.398 34.386 34.381 34.326 34.331 34.338 34.351 34.391 34.426 34.468 34.476 34.463 34.456 34.466 34.473 34.478 34.456 34.453 34.501 34.548 34.616 34.613 34.651 34.691 34.701 34.736 34.771 34.763 34.783 34.786 34.813 34.836 34.888 34.913 34.941 34.963 34.991 35.008 35.051 35.076 35.078 35.126 35.143 35.178 35.206 35.246 35.311 35.393 35.421 35.481 35.536 35.573 35.606 35.651 35.703 35.748 35.801 35.851 35.873 35.891 35.988 36.063 36.081 36.148 36.198 36.258 36.296 36.243 36.221 37.718 38.811 37.213 36.756 36.826 36.861 36.903 36.973 37.026 37.073 37.176 37.271 37.361 37.416 37.496 37.543 37.608 37.678 37.736 37.776 37.821 37.911 37.991 38.076 38.133 38.213 38.293 38.358 38.436 38.503 38.578 38.671 38.751 38.858 38.931 39.021 39.068 39.151 39.243 39.343 39.476 39.566 39.646 39.736 39.773 39.883 39.943 39.988 40.063 40.133 40.216 40.333 40.416 40.493 40.551 40.611 40.666 40.728 40.806 40.863 40.913 40.996 41.103 41.168 41.251 41.341 41.383 41.453 41.513 41.548 41.606 41.646 41.683 41.753 41.818 41.871 41.943 42.018 42.076 42.151 42.221 42.278 42.341 42.388 42.461 42.503 42.553 42.643 42.678 42.751 42.813 42.873 42.933 42.988 43.063 43.138 43.198 43.246 43.336 43.391 43.458 43.528 43.611 43.666 43.751 43.791 43.873 43.921 43.996 44.096 44.158 44.266 44.358 44.406 44.486 44.568 44.641 44.708 44.783 44.821 44.888 44.923 44.993 45.028 45.096 45.143 45.208 45.271 45.348 45.423 45.451 45.533 45.581 45.628 45.706 45.778 45.866 45.913 46.008 46.043 46.136 46.616 47.676 46.901 46.426 46.451 46.548 46.638 46.668 46.733 46.741 46.828 46.848 46.933 46.988 47.041 47.058 47.116 47.141 47.196 47.211 47.226 47.248 47.298 47.316 47.371 47.398 47.413 47.483 47.548 47.586 47.618 47.673 47.731 47.761 47.788 47.811 47.886 47.896 47.956 48.013 48.033 48.056 48.088 48.131 48.156 48.148 48.176 48.173 48.161 48.178 48.213 48.191 48.216 48.193 48.156 48.176 48.171 48.173 48.188 48.206 48.203 48.168 48.186 48.163 48.173 48.151 48.138 48.166 48.143 48.183 48.161 48.096 48.148 48.143 48.131 48.136 48.111 48.138 48.093 48.101 48.103 48.091 48.071 48.061 48.029 47.977 47.96 47.937 47.927 47.922 47.908 47.927 47.926 47.919 47.927 47.943 47.926 47.863 47.811 47.828 47.773 47.741 47.713 47.711 47.653 47.641 47.571 47.508
24.251 24.408 24.613 24.816 24.941 25.128 25.316 25.458 25.571 25.738 25.871 26.011 26.118 26.243 26.358 26.371 26.408 26.523 26.661 26.773 26.853 26.951 27.028 27.093 27.196 27.276 27.358 27.408 27.901 28.353 27.556 28.543 28.938 29.418 28.488 28.356 28.396 28.401 28.463 28.558 28.626 28.726 28.803 28.888 29.003 29.076 29.156 29.236 29.278 29.358 29.446 29.553 29.626 29.733 29.831 29.893 29.988 30.106 30.198 30.306 30.383 30.418 30.463 30.581 30.658 30.748 30.831 30.906 31.013 31.116 31.203 31.293 31.371 31.493 31.571 31.643 31.736 31.846 32.091 33.588 34.083 34.168 33.558 32.593 32.638 32.703 32.708 32.798 32.913 33.018 33.076 33.158 33.226 33.278 33.326 33.376 33.441 33.528 33.593 33.676 33.726 33.761 33.828 33.853 33.908 33.923 33.953 33.983 34.003 34.041 34.051 34.063 34.106 34.151 34.193 34.216 34.266 34.311 34.353 34.388 34.386 34.378 34.398 34.416 34.423 34.441 34.431 34.378 34.373 34.373 34.356 34.376 34.371 34.411 34.446 34.491 34.461 34.478 34.468 34.463 34.488 34.483 34.501 34.543 34.578 34.626 34.646 34.691 34.706 34.751 34.788 34.813 34.813 34.798 34.816 34.833 34.868 34.911 34.928 34.948 34.998 35.021 35.051 35.073 35.096 35.103 35.143 35.171 35.198 35.233 35.266 35.336 35.408 35.456 35.511 35.576 35.628 35.658 35.696 35.733 35.801 35.816 35.876 35.913 35.958 36.026 36.096 36.133 36.168 36.228 36.276 36.316 36.278 36.246 36.573 37.906 37.053 36.761 36.848 36.873 36.953 37.041 37.071 37.136 37.231 37.311 37.396 37.481 37.558 37.616 37.633 37.711 37.758 37.843 37.876 37.951 38.001 38.106 38.188 38.256 38.328 38.398 38.476 38.543 38.616 38.693 38.806 38.881 38.958 39.031 39.126 39.193 39.281 39.378 39.486 39.598 39.683 39.768 39.858 39.918 39.973 40.021 40.108 40.181 40.258 40.356 40.446 40.511 40.573 40.638 40.723 40.791 40.846 40.913 40.966 41.053 41.136 41.203 41.288 41.343 41.443 41.508 41.541 41.606 41.658 41.691 41.761 41.801 41.868 41.923 41.993 42.051 42.126 42.193 42.266 42.323 42.398 42.446 42.501 42.561 42.621 42.686 42.746 42.803 42.881 42.921 42.983 43.061 43.128 43.213 43.268 43.336 43.396 43.466 43.518 43.608 43.666 43.723 43.808 43.866 43.911 43.983 44.068 44.156 44.211 44.311 44.381 44.451 44.503 44.603 44.676 44.736 44.803 44.851 44.911 44.966 45.021 45.046 45.116 45.173 45.246 45.306 45.343 45.403 45.471 45.556 45.611 45.683 45.718 45.818 45.868 45.928 46.006 46.081 46.171 47.251 47.146 46.608 46.481 46.483 46.566 46.666 46.686 46.753 46.778 46.863 46.921 46.981 47.046 47.081 47.096 47.141 47.178 47.238 47.236 47.248 47.291 47.333 47.351 47.386 47.443 47.486 47.523 47.561 47.621 47.673 47.688 47.771 47.803 47.803 47.866 47.923 47.951 47.976 48.028 48.108 48.098 48.146 48.173 48.196 48.188 48.216 48.233 48.216 48.258 48.251 48.278 48.233 48.246 48.233 48.223 48.223 48.246 48.251 48.241 48.236 48.256 48.251 48.241 48.228 48.228 48.221 48.201 48.213 48.216 48.206 48.211 48.213 48.206 48.196 48.198 48.171 48.228 48.141 48.171 48.151 48.137 48.14 48.122 48.07 48.053 48.026 47.998 47.983 47.984 47.975 47.989 47.996 47.997 48.008 48.007 47.978 47.933 47.896 47.893 47.826 47.803 47.796 47.763 47.728 47.693 47.621 47.591
24.233 24.363 24.553 24.741 24.951 25.126 25.291 25.441 25.573 25.733 25.871 25.998 26.091 26.196 26.316 26.351 26.438 26.513 26.648 26.766 26.868 26.958 27.023 27.083 27.161 27.261 27.358 27.436 27.481 28.071 28.331 27.658 27.738 28.633 29.288 28.421 28.433 28.441 28.508 28.576 28.661 28.743 28.826 28.921 28.976 29.058 29.118 29.186 29.288 29.371 29.426 29.543 29.621 29.743 29.823 29.923 30.021 30.121 30.208 30.303 30.351 30.393 30.473 30.528 30.616 30.721 30.796 30.866 30.983 31.081 31.168 31.248 31.351 31.426 31.508 31.596 31.696 32.483 33.546 33.533 33.398 32.743 32.526 32.508 32.558 32.603 32.728 32.818 32.933 33.006 33.073 33.141 33.206 33.233 33.298 33.363 33.463 33.538 33.593 33.671 33.733 33.781 33.833 33.901 33.911 33.941 33.993 34.028 34.028 34.036 34.073 34.086 34.106 34.156 34.181 34.206 34.253 34.296 34.336 34.401 34.401 34.416 34.448 34.438 34.448 34.448 34.443 34.411 34.376 34.381 34.373 34.356 34.371 34.406 34.463 34.491 34.483 34.493 34.521 34.498 34.503 34.513 34.521 34.568 34.611 34.651 34.666 34.711 34.763 34.798 34.831 34.841 34.843 34.808 34.831 34.876 34.893 34.948 34.976 34.981 35.018 35.051 35.096 35.091 35.108 35.151 35.181 35.221 35.216 35.258 35.313 35.358 35.453 35.511 35.568 35.628 35.666 35.693 35.733 35.761 35.821 35.873 35.888 35.931 36.033 36.091 36.133 36.181 36.193 36.266 36.331 36.366 36.343 36.296 36.621 38.418 37.153 36.776 36.876 36.933 36.998 37.071 37.141 37.203 37.296 37.378 37.451 37.531 37.573 37.653 37.691 37.761 37.821 37.868 37.911 37.986 38.058 38.126 38.218 38.286 38.376 38.458 38.536 38.598 38.673 38.758 38.821 38.921 38.993 39.091 39.156 39.263 39.338 39.453 39.516 39.643 39.743 39.816 39.883 39.951 39.998 40.073 40.133 40.208 40.296 40.393 40.461 40.553 40.596 40.701 40.761 40.813 40.873 40.941 40.993 41.091 41.181 41.256 41.343 41.398 41.468 41.518 41.583 41.636 41.688 41.731 41.788 41.858 41.893 41.958 42.028 42.101 42.158 42.256 42.318 42.361 42.426 42.493 42.561 42.631 42.656 42.728 42.808 42.848 42.943 42.988 43.033 43.118 43.206 43.251 43.296 43.386 43.456 43.518 43.606 43.681 43.721 43.801 43.851 43.921 43.993 44.061 44.136 44.203 44.266 44.346 44.421 44.501 44.551 44.633 44.733 44.786 44.828 44.888 44.933 44.993 45.041 45.083 45.146 45.208 45.286 45.341 45.383 45.438 45.478 45.568 45.631 45.676 45.731 45.811 45.883 45.923 46.008 46.096 46.161 47.711 47.216 46.531 46.501 46.526 46.626 46.703 46.706 46.758 46.796 46.898 46.946 47.018 47.081 47.098 47.138 47.173 47.206 47.231 47.251 47.286 47.321 47.346 47.396 47.406 47.461 47.523 47.563 47.608 47.658 47.713 47.726 47.801 47.836 47.841 47.893 47.948 47.993 48.031 48.063 48.146 48.116 48.181 48.211 48.248 48.218 48.293 48.263 48.288 48.303 48.308 48.316 48.321 48.321 48.321 48.296 48.321 48.318 48.313 48.306 48.313 48.291 48.293 48.278 48.286 48.293 48.286 48.258 48.246 48.246 48.293 48.273 48.288 48.268 48.248 48.248 48.273 48.266 48.208 48.231 48.183 48.186 48.202 48.18 48.137 48.115 48.088 48.071 48.05 48.042 48.033 48.042 48.048 48.052 48.067 48.082 48.031 47.963 47.953 47.938 47.916 47.861 47.846 47.833 47.798 47.738 47.698 47.643
24.118 24.296 24.488 24.706 24.928 25.113 25.293 25.431 25.561 25.728 25.873 25.993 26.098 26.213 26.298 26.383 26.428 26.536 26.641 26.753 26.831 26.941 27.018 27.083 27.151 27.233 27.346 27.416 27.488 27.571 28.313 27.923 27.826 28.061 28.576 29.203 28.616 28.503 28.543 28.606 28.673 28.778 28.841 28.901 28.958 29.016 29.106 29.171 29.283 29.376 29.461 29.553 29.628 29.751 29.821 29.931 30.016 30.131 30.193 30.271 30.331 30.383 30.466 30.528 30.613 30.686 30.786 30.868 30.976 31.056 31.116 31.206 31.291 31.371 31.461 32.021 32.206 32.548 32.613 32.283 32.293 32.333 32.393 32.433 32.526 32.646 32.746 32.813 32.906 32.968 33.043 33.096 33.171 33.233 33.298 33.396 33.471 33.523 33.591 33.663 33.731 33.786 33.833 33.906 33.926 33.958 34.008 34.031 34.041 34.051 34.066 34.098 34.106 34.168 34.201 34.233 34.276 34.323 34.361 34.386 34.438 34.466 34.468 34.473 34.491 34.466 34.468 34.461 34.423 34.433 34.428 34.398 34.411 34.431 34.493 34.521 34.546 34.543 34.531 34.523 34.533 34.551 34.573 34.618 34.673 34.701 34.728 34.736 34.801 34.836 34.856 34.866 34.871 34.846 34.843 34.876 34.923 34.978 34.988 35.006 35.058 35.096 35.128 35.146 35.158 35.188 35.213 35.231 35.241 35.301 35.356 35.411 35.483 35.573 35.593 35.631 35.686 35.728 35.783 35.818 35.878 35.886 35.933 36.008 36.076 36.103 36.153 36.221 36.226 36.288 36.353 36.386 36.366 36.366 36.826 38.321 37.121 36.788 36.931 36.983 37.048 37.146 37.226 37.273 37.348 37.448 37.538 37.611 37.636 37.718 37.753 37.826 37.841 37.918 37.983 38.053 38.118 38.193 38.291 38.361 38.438 38.531 38.593 38.653 38.726 38.836 38.908 38.998 39.061 39.158 39.233 39.316 39.383 39.491 39.601 39.691 39.768 39.856 39.911 39.986 40.051 40.126 40.198 40.253 40.336 40.403 40.471 40.578 40.626 40.698 40.776 40.816 40.908 40.963 41.031 41.111 41.168 41.266 41.321 41.406 41.493 41.533 41.586 41.658 41.686 41.746 41.813 41.861 41.923 41.983 42.053 42.106 42.193 42.268 42.333 42.426 42.486 42.546 42.586 42.641 42.711 42.768 42.838 42.901 42.973 43.026 43.106 43.171 43.251 43.323 43.388 43.453 43.513 43.566 43.671 43.713 43.788 43.826 43.906 43.971 44.033 44.116 44.193 44.258 44.331 44.406 44.468 44.521 44.583 44.676 44.758 44.806 44.863 44.923 44.976 45.016 45.061 45.126 45.188 45.263 45.313 45.393 45.423 45.481 45.536 45.603 45.648 45.708 45.776 45.828 45.898 45.968 46.043 46.113 46.346 48.621 47.383 46.511 46.516 46.546 46.638 46.721 46.766 46.808 46.841 46.911 46.963 47.036 47.083 47.136 47.153 47.188 47.243 47.283 47.251 47.313 47.341 47.373 47.423 47.436 47.491 47.553 47.616 47.663 47.686 47.743 47.763 47.843 47.876 47.886 47.921 47.971 48.031 48.066 48.118 48.158 48.198 48.223 48.266 48.291 48.283 48.316 48.316 48.341 48.336 48.376 48.368 48.366 48.363 48.371 48.353 48.363 48.373 48.373 48.343 48.363 48.373 48.346 48.336 48.311 48.353 48.343 48.321 48.331 48.348 48.338 48.318 48.346 48.353 48.311 48.288 48.348 48.316 48.286 48.286 48.251 48.249 48.267 48.228 48.176 48.159 48.123 48.118 48.105 48.107 48.101 48.116 48.122 48.125 48.127 48.138 48.088 48.058 48.023 48.003 47.978 47.943 47.888 47.878 47.853 47.806 47.741 47.693
24.058 24.263 24.443 24.683 24.891 25.108 25.281 25.436 25.571 25.738 25.881 26.003 26.113 26.211 26.303 26.401 26.476 26.576 26.643 26.751 26.838 26.923 26.998 27.076 27.131 27.211 27.333 27.431 27.528 27.573 27.671 28.483 28.253 28.858 27.866 29.408 29.416 28.641 28.591 28.636 28.713 28.796 28.863 28.906 28.941 28.988 29.096 29.183 29.301 29.363 29.466 29.561 29.661 29.786 29.863 29.933 30.021 30.093 30.166 30.241 30.306 30.388 30.458 30.503 30.608 30.686 30.773 30.841 30.946 31.031 31.081 31.156 31.268 31.683 32.658 32.376 32.066 31.991 32.083 32.193 32.256 32.263 32.376 32.481 32.581 32.661 32.751 32.811 32.878 32.941 32.993 33.081 33.148 33.241 33.318 33.388 33.441 33.511 33.583 33.673 33.728 33.786 33.823 33.898 33.946 33.998 34.011 34.036 34.053 34.076 34.071 34.093 34.128 34.176 34.188 34.236 34.281 34.333 34.373 34.421 34.451 34.463 34.531 34.526 34.538 34.518 34.503 34.478 34.496 34.463 34.446 34.426 34.461 34.488 34.528 34.566 34.556 34.576 34.598 34.603 34.588 34.586 34.626 34.661 34.726 34.751 34.776 34.801 34.846 34.873 34.896 34.908 34.896 34.881 34.886 34.906 34.951 34.993 34.993 35.043 35.053 35.078 35.126 35.176 35.216 35.233 35.238 35.266 35.283 35.326 35.363 35.463 35.528 35.603 35.646 35.696 35.741 35.771 35.806 35.823 35.888 35.946 35.986 36.028 36.088 36.138 36.191 36.256 36.268 36.321 36.391 36.436 36.408 36.408 36.848 38.333 36.846 36.846 36.976 37.031 37.128 37.233 37.283 37.328 37.443 37.516 37.603 37.658 37.696 37.768 37.798 37.861 37.926 37.971 38.021 38.096 38.171 38.271 38.346 38.421 38.503 38.583 38.681 38.748 38.803 38.908 38.983 39.036 39.141 39.213 39.288 39.361 39.448 39.563 39.631 39.741 39.858 39.906 39.973 40.043 40.086 40.178 40.236 40.283 40.388 40.456 40.528 40.613 40.683 40.756 40.816 40.853 40.916 40.988 41.063 41.148 41.221 41.293 41.358 41.416 41.491 41.563 41.606 41.663 41.716 41.773 41.828 41.896 41.958 42.008 42.091 42.131 42.196 42.311 42.348 42.431 42.503 42.566 42.596 42.658 42.723 42.798 42.848 42.928 42.991 43.063 43.133 43.208 43.281 43.333 43.411 43.483 43.546 43.618 43.691 43.743 43.828 43.881 43.926 44.023 44.073 44.146 44.223 44.298 44.386 44.441 44.526 44.573 44.643 44.696 44.793 44.838 44.888 44.946 45.021 45.066 45.093 45.156 45.231 45.303 45.341 45.398 45.451 45.508 45.568 45.601 45.706 45.751 45.801 45.896 45.928 45.988 46.081 46.128 46.473 48.993 49.086 46.553 46.548 46.596 46.686 46.758 46.781 46.838 46.873 46.941 46.991 47.056 47.103 47.148 47.191 47.213 47.273 47.288 47.286 47.336 47.366 47.388 47.428 47.471 47.523 47.573 47.628 47.693 47.716 47.796 47.803 47.888 47.893 47.926 47.973 48.028 48.068 48.093 48.168 48.191 48.223 48.263 48.283 48.326 48.323 48.363 48.376 48.398 48.386 48.426 48.403 48.413 48.403 48.416 48.403 48.418 48.406 48.421 48.436 48.406 48.433 48.403 48.396 48.428 48.406 48.416 48.406 48.373 48.376 48.383 48.403 48.386 48.396 48.386 48.358 48.383 48.338 48.318 48.331 48.283 48.328 48.302 48.26 48.233 48.206 48.2 48.185 48.159 48.157 48.155 48.162 48.176 48.179 48.206 48.201 48.155 48.131 48.071 48.053 48.016 47.986 47.958 47.933 47.898 47.836 47.786 47.758
24.056 24.201 24.391 24.626 24.853 25.041 25.238 25.378 25.548 25.691 25.856 25.986 26.106 26.228 26.311 26.378 26.471 26.576 26.668 26.731 26.826 26.926 27.006 27.063 27.156 27.241 27.311 27.416 27.543 27.591 27.661 27.788 28.466 29.493 32.661 29.971 29.563 29.433 28.653 28.688 28.723 28.746 28.828 28.901 28.953 29.003 29.118 29.216 29.286 29.376 29.493 29.593 29.671 29.766 29.841 29.933 29.998 30.066 30.143 30.208 30.293 30.361 30.451 30.506 30.596 30.701 30.791 30.851 30.901 30.968 31.063 31.561 32.281 33.088 33.201 32.218 31.858 31.933 32.048 32.131 32.226 32.328 32.408 32.506 32.598 32.673 32.738 32.788 32.856 32.918 33.006 33.103 33.151 33.236 33.301 33.376 33.441 33.528 33.601 33.638 33.698 33.778 33.841 33.903 33.951 33.981 34.023 34.066 34.061 34.073 34.088 34.141 34.171 34.193 34.221 34.248 34.296 34.356 34.393 34.426 34.481 34.511 34.541 34.571 34.596 34.598 34.571 34.548 34.501 34.493 34.483 34.496 34.481 34.506 34.561 34.598 34.621 34.638 34.626 34.651 34.648 34.653 34.678 34.741 34.781 34.808 34.821 34.841 34.863 34.916 34.928 34.931 34.923 34.926 34.923 34.956 34.981 35.038 35.033 35.073 35.086 35.091 35.151 35.203 35.228 35.238 35.273 35.308 35.333 35.386 35.451 35.501 35.548 35.603 35.686 35.728 35.773 35.816 35.833 35.871 35.931 35.976 36.036 36.073 36.143 36.171 36.211 36.268 36.311 36.361 36.423 36.498 36.458 36.438 37.076 38.303 36.868 36.911 37.021 37.091 37.206 37.296 37.328 37.388 37.483 37.566 37.628 37.696 37.761 37.811 37.858 37.906 37.971 37.998 38.083 38.161 38.216 38.303 38.381 38.473 38.566 38.658 38.726 38.808 38.888 38.983 39.048 39.131 39.208 39.256 39.378 39.451 39.533 39.638 39.723 39.796 39.898 39.973 40.038 40.116 40.158 40.228 40.306 40.356 40.438 40.516 40.586 40.673 40.733 40.781 40.876 40.891 40.956 41.053 41.096 41.166 41.236 41.323 41.398 41.478 41.546 41.603 41.656 41.673 41.753 41.811 41.846 41.898 41.981 42.016 42.091 42.151 42.208 42.306 42.386 42.468 42.536 42.593 42.651 42.686 42.746 42.828 42.878 42.931 43.026 43.076 43.158 43.231 43.298 43.388 43.438 43.508 43.566 43.643 43.696 43.758 43.843 43.908 43.953 44.026 44.126 44.183 44.246 44.333 44.398 44.458 44.543 44.603 44.681 44.743 44.808 44.863 44.906 44.976 45.033 45.103 45.131 45.193 45.236 45.306 45.356 45.423 45.461 45.513 45.578 45.661 45.708 45.788 45.838 45.916 45.973 46.021 46.086 46.171 46.661 47.753 46.853 46.561 46.561 46.611 46.721 46.778 46.796 46.846 46.901 46.968 47.028 47.073 47.133 47.161 47.196 47.253 47.278 47.301 47.311 47.358 47.373 47.423 47.473 47.511 47.581 47.608 47.678 47.706 47.766 47.793 47.838 47.901 47.911 47.956 47.973 48.056 48.088 48.151 48.208 48.243 48.251 48.293 48.328 48.371 48.381 48.396 48.418 48.431 48.436 48.471 48.488 48.451 48.483 48.471 48.441 48.458 48.456 48.493 48.463 48.463 48.481 48.463 48.446 48.468 48.448 48.441 48.433 48.418 48.431 48.426 48.401 48.431 48.408 48.406 48.436 48.416 48.416 48.351 48.378 48.383 48.361 48.355 48.335 48.291 48.252 48.25 48.234 48.213 48.217 48.216 48.22 48.23 48.234 48.252 48.265 48.206 48.163 48.126 48.093 48.071 48.053 48.036 47.993 47.966 47.908 47.843 47.803
23.971 24.143 24.338 24.581 24.846 25.033 25.208 25.383 25.551 25.723 25.836 25.953 26.096 26.221 26.313 26.381 26.468 26.576 26.653 26.741 26.841 26.896 26.968 27.058 27.141 27.241 27.311 27.401 27.501 27.596 27.686 27.818 29.351 32.673 29.983 32.803 28.203 29.656 29.566 28.698 28.716 28.751 28.828 28.888 28.946 29.028 29.116 29.191 29.318 29.406 29.486 29.591 29.688 29.758 29.833 29.896 29.966 30.033 30.078 30.163 30.271 30.323 30.391 30.486 30.613 30.718 30.791 30.861 30.906 30.963 32.368 32.873 33.473 32.561 31.723 31.753 31.818 31.903 31.966 32.123 32.266 32.378 32.453 32.536 32.608 32.661 32.726 32.803 32.878 32.966 33.043 33.118 33.183 33.238 33.306 33.386 33.426 33.518 33.576 33.643 33.733 33.781 33.841 33.903 33.963 33.998 34.036 34.078 34.086 34.108 34.143 34.171 34.203 34.218 34.248 34.288 34.326 34.378 34.431 34.441 34.506 34.536 34.566 34.623 34.631 34.631 34.596 34.603 34.573 34.558 34.528 34.528 34.518 34.546 34.583 34.636 34.653 34.686 34.681 34.703 34.706 34.721 34.736 34.778 34.816 34.833 34.871 34.873 34.913 34.941 34.966 34.976 34.963 34.951 34.956 34.976 35.028 35.073 35.086 35.091 35.123 35.138 35.181 35.213 35.243 35.286 35.308 35.318 35.361 35.418 35.473 35.521 35.561 35.636 35.716 35.763 35.786 35.843 35.871 35.896 35.941 36.021 36.068 36.078 36.136 36.186 36.246 36.298 36.338 36.403 36.488 36.521 36.503 36.446 37.391 38.533 37.063 36.976 37.083 37.146 37.251 37.321 37.383 37.426 37.513 37.596 37.686 37.721 37.773 37.828 37.891 37.936 38.001 38.046 38.126 38.203 38.263 38.363 38.443 38.536 38.638 38.686 38.768 38.868 38.953 39.058 39.118 39.186 39.236 39.316 39.413 39.496 39.593 39.693 39.758 39.863 39.953 40.003 40.093 40.173 40.216 40.271 40.358 40.421 40.491 40.558 40.643 40.723 40.801 40.886 40.918 40.958 41.021 41.081 41.163 41.241 41.308 41.368 41.446 41.531 41.593 41.658 41.703 41.751 41.788 41.836 41.896 41.958 41.996 42.081 42.138 42.193 42.271 42.363 42.431 42.513 42.571 42.651 42.698 42.721 42.791 42.861 42.941 42.998 43.056 43.118 43.201 43.256 43.343 43.403 43.473 43.533 43.576 43.686 43.728 43.801 43.866 43.931 43.971 44.088 44.126 44.208 44.266 44.351 44.406 44.491 44.556 44.621 44.691 44.756 44.826 44.891 44.941 44.973 45.011 45.091 45.128 45.161 45.238 45.308 45.348 45.418 45.468 45.516 45.578 45.673 45.708 45.786 45.861 45.918 45.963 46.046 46.121 46.188 47.466 47.738 48.231 46.498 46.593 46.638 46.741 46.781 46.806 46.843 46.926 46.956 47.021 47.068 47.133 47.158 47.221 47.271 47.311 47.338 47.323 47.386 47.426 47.441 47.481 47.548 47.593 47.631 47.708 47.746 47.796 47.843 47.871 47.951 47.946 47.986 48.058 48.081 48.153 48.171 48.198 48.253 48.293 48.331 48.393 48.406 48.413 48.453 48.461 48.463 48.488 48.488 48.506 48.503 48.498 48.508 48.496 48.496 48.553 48.536 48.501 48.503 48.513 48.498 48.503 48.491 48.511 48.513 48.476 48.498 48.491 48.466 48.478 48.481 48.478 48.503 48.496 48.483 48.468 48.451 48.423 48.408 48.413 48.396 48.385 48.346 48.31 48.296 48.293 48.275 48.256 48.254 48.285 48.266 48.297 48.307 48.303 48.276 48.216 48.181 48.158 48.103 48.093 48.083 48.033 48.013 47.943 47.908 47.841
23.921 24.131 24.323 24.558 24.828 24.996 25.188 25.378 25.551 25.696 25.843 25.956 26.058 26.206 26.288 26.393 26.491 26.568 26.651 26.761 26.826 26.893 26.948 27.048 27.141 27.223 27.311 27.423 27.506 27.581 27.673 27.753 27.858 28.271 30.806 31.781 30.333 28.183 29.693 29.436 28.783 28.786 28.831 28.913 28.973 29.038 29.143 29.238 29.348 29.433 29.518 29.593 29.678 29.741 29.796 29.851 29.888 29.953 30.051 30.131 30.221 30.286 30.373 30.471 30.601 30.731 30.788 30.963 30.981 31.766 33.096 32.601 32.018 31.421 31.561 31.656 31.743 31.878 32.021 32.131 32.261 32.366 32.436 32.516 32.573 32.658 32.733 32.848 32.923 33.008 33.073 33.123 33.203 33.253 33.316 33.363 33.443 33.506 33.593 33.658 33.733 33.806 33.871 33.928 33.983 34.018 34.053 34.068 34.111 34.123 34.151 34.176 34.201 34.238 34.266 34.286 34.336 34.388 34.436 34.463 34.511 34.566 34.608 34.641 34.658 34.668 34.646 34.633 34.628 34.576 34.561 34.541 34.578 34.606 34.633 34.688 34.711 34.718 34.748 34.753 34.758 34.763 34.801 34.818 34.833 34.888 34.916 34.916 34.936 34.988 35.006 35.021 35.016 34.983 34.998 35.028 35.056 35.116 35.138 35.111 35.153 35.203 35.216 35.248 35.278 35.298 35.296 35.336 35.371 35.418 35.508 35.546 35.628 35.658 35.741 35.803 35.826 35.883 35.916 35.923 35.991 36.023 36.061 36.136 36.171 36.223 36.283 36.306 36.386 36.433 36.531 36.548 36.528 36.488 37.433 38.656 36.931 37.021 37.161 37.218 37.281 37.371 37.416 37.473 37.523 37.591 37.666 37.743 37.821 37.853 37.913 37.973 38.023 38.093 38.171 38.256 38.323 38.416 38.506 38.586 38.648 38.733 38.818 38.918 39.008 39.096 39.163 39.236 39.293 39.373 39.446 39.541 39.611 39.723 39.818 39.898 39.998 40.056 40.158 40.201 40.236 40.333 40.408 40.503 40.571 40.661 40.736 40.771 40.851 40.906 40.938 41.016 41.086 41.131 41.213 41.301 41.388 41.421 41.531 41.581 41.653 41.711 41.766 41.808 41.851 41.886 41.956 42.013 42.068 42.151 42.216 42.263 42.346 42.408 42.493 42.581 42.643 42.691 42.748 42.778 42.851 42.921 42.976 43.046 43.131 43.196 43.288 43.328 43.388 43.461 43.543 43.586 43.646 43.711 43.776 43.838 43.926 43.973 44.038 44.098 44.143 44.223 44.293 44.363 44.443 44.508 44.591 44.656 44.716 44.781 44.833 44.896 44.963 44.996 45.033 45.106 45.138 45.193 45.271 45.311 45.351 45.418 45.456 45.541 45.583 45.661 45.693 45.766 45.863 45.936 45.981 46.068 46.171 47.763 47.431 47.853 47.973 46.553 46.586 46.676 46.763 46.808 46.848 46.878 46.931 46.971 47.036 47.071 47.156 47.196 47.271 47.301 47.313 47.331 47.338 47.401 47.431 47.458 47.496 47.571 47.613 47.666 47.748 47.778 47.808 47.846 47.926 47.971 47.961 48.036 48.076 48.108 48.178 48.223 48.263 48.281 48.348 48.366 48.426 48.418 48.436 48.481 48.486 48.506 48.498 48.513 48.573 48.551 48.541 48.568 48.553 48.566 48.591 48.583 48.581 48.566 48.558 48.556 48.538 48.568 48.541 48.523 48.543 48.561 48.533 48.538 48.531 48.546 48.498 48.523 48.523 48.533 48.478 48.471 48.458 48.448 48.458 48.456 48.413 48.392 48.356 48.328 48.337 48.328 48.309 48.309 48.321 48.328 48.35 48.36 48.341 48.3 48.265 48.241 48.211 48.171 48.163 48.128 48.073 48.058 48.003 47.953 47.893
23.963 24.108 24.293 24.561 24.768 24.958 25.161 25.383 25.571 25.706 25.848 25.946 26.078 26.193 26.306 26.388 26.483 26.578 26.648 26.728 26.801 26.873 26.953 27.016 27.113 27.213 27.301 27.391 27.483 27.596 27.646 27.748 27.911 27.936 28.186 29.203 28.598 28.148 28.486 29.971 29.371 28.886 28.878 28.951 29.028 29.103 29.186 29.266 29.336 29.446 29.513 29.578 29.646 29.691 29.738 29.821 29.881 29.933 29.998 30.071 30.171 30.256 30.343 30.456 30.591 30.723 31.288 32.113 32.771 33.498 31.511 31.151 31.228 31.326 31.503 31.646 31.753 31.916 32.026 32.141 32.256 32.328 32.413 32.483 32.551 32.666 32.771 32.876 32.931 33.011 33.078 33.143 33.221 33.278 33.343 33.393 33.463 33.523 33.593 33.653 33.726 33.811 33.861 33.931 33.993 34.048 34.076 34.101 34.121 34.143 34.183 34.203 34.258 34.273 34.301 34.306 34.371 34.403 34.433 34.458 34.501 34.566 34.631 34.661 34.686 34.678 34.691 34.676 34.643 34.616 34.633 34.608 34.611 34.628 34.663 34.701 34.736 34.756 34.761 34.786 34.813 34.781 34.803 34.836 34.883 34.916 34.951 34.968 34.988 35.028 35.041 35.041 35.053 35.028 35.051 35.083 35.091 35.151 35.168 35.178 35.186 35.223 35.248 35.276 35.301 35.303 35.353 35.376 35.403 35.453 35.528 35.581 35.651 35.698 35.751 35.796 35.843 35.898 35.946 35.971 36.003 36.058 36.118 36.168 36.206 36.266 36.313 36.358 36.426 36.476 36.576 36.601 36.558 36.536 37.661 39.023 37.126 37.066 37.193 37.281 37.311 37.403 37.451 37.526 37.573 37.638 37.706 37.781 37.846 37.901 37.936 38.018 38.071 38.126 38.208 38.298 38.368 38.443 38.548 38.618 38.716 38.788 38.858 38.956 39.053 39.123 39.196 39.266 39.333 39.423 39.506 39.598 39.688 39.778 39.848 39.968 40.036 40.091 40.196 40.241 40.301 40.393 40.441 40.521 40.623 40.676 40.756 40.836 40.941 40.993 41.003 41.058 41.103 41.203 41.291 41.356 41.421 41.486 41.568 41.666 41.753 41.781 41.841 41.841 41.903 41.946 42.006 42.053 42.123 42.178 42.251 42.346 42.398 42.486 42.586 42.676 42.718 42.738 42.776 42.838 42.913 42.966 43.038 43.096 43.191 43.258 43.311 43.391 43.468 43.518 43.593 43.626 43.711 43.766 43.843 43.898 43.961 44.031 44.096 44.166 44.206 44.273 44.363 44.433 44.516 44.581 44.626 44.708 44.773 44.843 44.888 44.941 45.016 45.038 45.068 45.126 45.156 45.213 45.271 45.311 45.366 45.438 45.486 45.556 45.623 45.668 45.708 45.776 45.886 45.961 46.023 46.113 46.198 47.518 49.873 48.993 47.911 46.563 46.591 46.676 46.776 46.808 46.873 46.876 46.951 46.958 47.011 47.046 47.163 47.221 47.271 47.301 47.341 47.368 47.371 47.421 47.446 47.496 47.516 47.611 47.661 47.696 47.768 47.806 47.853 47.896 47.963 48.003 47.998 48.063 48.111 48.153 48.226 48.261 48.283 48.348 48.376 48.411 48.453 48.448 48.468 48.498 48.526 48.548 48.563 48.576 48.596 48.591 48.558 48.606 48.588 48.616 48.638 48.621 48.616 48.618 48.603 48.628 48.596 48.601 48.598 48.581 48.561 48.598 48.581 48.571 48.558 48.576 48.566 48.573 48.548 48.551 48.501 48.503 48.501 48.503 48.493 48.503 48.474 48.439 48.424 48.4 48.41 48.365 48.351 48.379 48.378 48.378 48.393 48.417 48.409 48.342 48.316 48.278 48.251 48.216 48.203 48.201 48.128 48.083 48.041 47.996 47.918
23.921 24.113 24.326 24.548 24.743 24.963 25.186 25.371 25.553 25.703 25.843 25.976 26.108 26.218 26.306 26.383 26.466 26.571 26.643 26.728 26.778 26.863 26.956 27.013 27.121 27.201 27.301 27.396 27.458 27.588 27.666 27.753 27.863 28.778 28.553 28.236 29.306 28.283 28.256 28.793 30.058 29.278 28.923 28.996 29.051 29.126 29.191 29.263 29.333 29.418 29.513 29.561 29.598 29.653 29.726 29.781 29.841 29.908 29.991 30.053 30.146 30.226 30.318 30.461 30.893 31.738 32.711 32.681 32.123 31.378 31.073 31.126 31.233 31.408 31.543 31.666 31.803 31.893 32.016 32.126 32.208 32.283 32.376 32.443 32.578 32.668 32.753 32.863 32.951 33.028 33.098 33.171 33.211 33.306 33.351 33.408 33.471 33.568 33.641 33.698 33.761 33.831 33.881 33.968 34.003 34.068 34.098 34.126 34.156 34.153 34.191 34.231 34.248 34.271 34.323 34.321 34.371 34.416 34.428 34.488 34.536 34.563 34.628 34.676 34.698 34.731 34.716 34.706 34.698 34.666 34.618 34.626 34.641 34.663 34.711 34.723 34.758 34.758 34.803 34.813 34.798 34.783 34.826 34.881 34.918 34.961 34.976 35.018 35.043 35.046 35.071 35.091 35.088 35.078 35.068 35.111 35.148 35.186 35.198 35.213 35.218 35.236 35.281 35.301 35.308 35.318 35.373 35.398 35.448 35.498 35.556 35.588 35.648 35.728 35.781 35.818 35.868 35.926 35.938 36.011 36.048 36.113 36.163 36.208 36.243 36.303 36.361 36.411 36.481 36.511 36.613 36.618 36.608 36.581 37.778 38.953 37.036 37.126 37.278 37.323 37.361 37.418 37.478 37.536 37.581 37.666 37.738 37.818 37.883 37.941 37.993 38.061 38.126 38.178 38.276 38.353 38.421 38.508 38.596 38.666 38.761 38.843 38.923 39.013 39.086 39.163 39.253 39.306 39.403 39.473 39.566 39.628 39.743 39.818 39.891 40.003 40.076 40.158 40.223 40.291 40.353 40.426 40.481 40.598 40.646 40.733 40.803 40.881 40.956 41.021 41.053 41.131 41.186 41.253 41.333 41.416 41.488 41.546 41.618 41.693 41.773 41.856 41.871 41.906 41.963 41.983 42.068 42.123 42.191 42.248 42.323 42.386 42.453 42.546 42.636 42.713 42.768 42.806 42.851 42.931 42.983 43.058 43.118 43.186 43.248 43.326 43.393 43.471 43.521 43.576 43.661 43.713 43.758 43.813 43.898 43.968 44.038 44.101 44.153 44.203 44.281 44.338 44.413 44.478 44.553 44.636 44.708 44.768 44.843 44.878 44.953 45.008 45.048 45.091 45.118 45.183 45.223 45.281 45.311 45.371 45.423 45.483 45.536 45.603 45.651 45.706 45.753 45.823 45.913 45.968 46.021 46.141 46.241 46.556 48.523 48.696 47.076 46.558 46.616 46.711 46.778 46.808 46.886 46.868 46.958 46.956 46.976 47.076 47.166 47.213 47.276 47.313 47.333 47.378 47.391 47.428 47.478 47.501 47.546 47.621 47.691 47.721 47.778 47.841 47.908 47.926 48.013 48.043 48.028 48.126 48.166 48.186 48.251 48.303 48.351 48.398 48.416 48.438 48.483 48.458 48.523 48.541 48.556 48.568 48.573 48.601 48.616 48.641 48.631 48.633 48.633 48.648 48.671 48.671 48.653 48.648 48.653 48.656 48.631 48.656 48.641 48.628 48.613 48.636 48.626 48.618 48.633 48.623 48.626 48.578 48.606 48.573 48.583 48.528 48.518 48.553 48.543 48.536 48.521 48.48 48.481 48.439 48.439 48.412 48.391 48.424 48.423 48.415 48.438 48.464 48.444 48.405 48.356 48.361 48.308 48.258 48.251 48.226 48.203 48.136 48.106 48.051 47.976
23.966 24.133 24.336 24.523 24.736 24.961 25.178 25.383 25.543 25.696 25.841 25.958 26.076 26.203 26.286 26.391 26.461 26.538 26.613 26.693 26.788 26.868 26.953 27.071 27.113 27.201 27.276 27.326 27.441 27.553 27.621 27.728 27.858 27.943 28.076 28.118 28.186 29.048 28.338 28.298 28.946 30.036 29.268 29.016 29.063 29.126 29.201 29.256 29.338 29.403 29.508 29.556 29.598 29.621 29.676 29.768 29.826 29.891 29.961 30.038 30.113 30.221 30.466 31.363 32.303 32.693 32.118 31.138 30.891 30.951 31.058 31.198 31.321 31.466 31.571 31.658 31.793 31.876 31.963 32.081 32.178 32.286 32.371 32.468 32.558 32.646 32.766 32.853 32.938 33.038 33.086 33.158 33.238 33.313 33.373 33.418 33.483 33.556 33.631 33.701 33.761 33.856 33.901 33.973 34.046 34.076 34.096 34.111 34.158 34.163 34.193 34.226 34.263 34.296 34.328 34.343 34.398 34.433 34.428 34.496 34.521 34.566 34.638 34.681 34.708 34.718 34.708 34.721 34.711 34.713 34.678 34.641 34.651 34.698 34.723 34.751 34.743 34.788 34.808 34.818 34.791 34.823 34.841 34.908 34.961 34.966 35.018 35.041 35.058 35.096 35.113 35.121 35.108 35.098 35.121 35.143 35.186 35.198 35.241 35.248 35.261 35.283 35.311 35.318 35.338 35.361 35.373 35.436 35.466 35.508 35.568 35.641 35.676 35.733 35.803 35.866 35.913 35.931 35.988 36.046 36.078 36.148 36.188 36.221 36.293 36.356 36.393 36.443 36.501 36.571 36.636 36.668 36.636 36.611 37.393 38.646 37.101 37.181 37.326 37.388 37.411 37.443 37.508 37.568 37.628 37.713 37.753 37.811 37.896 37.976 38.038 38.098 38.148 38.211 38.308 38.376 38.456 38.541 38.643 38.741 38.801 38.898 38.948 39.016 39.128 39.218 39.286 39.376 39.426 39.513 39.598 39.683 39.801 39.851 39.968 40.043 40.111 40.206 40.288 40.338 40.421 40.468 40.573 40.641 40.668 40.808 40.863 40.916 40.991 41.056 41.101 41.153 41.216 41.276 41.381 41.451 41.521 41.606 41.703 41.758 41.836 41.873 41.936 41.963 41.998 42.063 42.121 42.168 42.266 42.308 42.393 42.478 42.541 42.631 42.688 42.738 42.803 42.856 42.896 42.973 43.031 43.096 43.138 43.243 43.313 43.378 43.441 43.511 43.561 43.628 43.713 43.756 43.816 43.871 43.948 44.008 44.066 44.133 44.178 44.251 44.341 44.386 44.471 44.538 44.616 44.676 44.756 44.826 44.871 44.931 44.993 45.058 45.093 45.158 45.208 45.246 45.296 45.338 45.396 45.431 45.481 45.523 45.593 45.671 45.698 45.758 45.803 45.856 45.966 46.013 46.068 46.176 46.258 46.348 48.056 48.173 47.081 46.543 46.648 46.723 46.791 46.823 46.883 46.886 46.993 46.988 47.023 47.116 47.206 47.233 47.273 47.331 47.361 47.388 47.411 47.456 47.498 47.516 47.581 47.646 47.696 47.748 47.826 47.888 47.936 47.973 48.033 48.071 48.073 48.143 48.196 48.238 48.268 48.333 48.361 48.408 48.476 48.491 48.526 48.538 48.561 48.556 48.578 48.621 48.646 48.668 48.676 48.658 48.686 48.691 48.688 48.693 48.723 48.723 48.691 48.666 48.703 48.686 48.671 48.686 48.693 48.683 48.686 48.671 48.681 48.636 48.651 48.663 48.651 48.646 48.626 48.638 48.606 48.593 48.573 48.586 48.613 48.611 48.549 48.541 48.507 48.483 48.478 48.454 48.446 48.468 48.459 48.469 48.492 48.483 48.474 48.438 48.401 48.378 48.358 48.321 48.298 48.291 48.256 48.168 48.123 48.088 48.038
24.006 24.203 24.386 24.573 24.771 24.998 25.203 25.396 25.533 25.703 25.826 25.966 26.066 26.198 26.288 26.388 26.448 26.533 26.593 26.686 26.788 26.903 26.983 27.078 27.161 27.243 27.298 27.391 27.476 27.571 27.631 27.706 27.813 27.936 28.068 28.158 28.208 28.523 29.208 28.458 28.351 28.898 30.158 29.278 29.116 29.156 29.231 29.271 29.333 29.396 29.486 29.538 29.581 29.636 29.678 29.746 29.801 29.876 29.948 30.031 30.293 31.361 32.141 32.588 32.031 31.266 30.746 30.831 30.896 31.018 31.143 31.271 31.371 31.456 31.558 31.678 31.768 31.853 31.941 32.068 32.161 32.293 32.383 32.466 32.573 32.661 32.748 32.828 32.938 33.033 33.108 33.201 33.253 33.323 33.373 33.438 33.526 33.561 33.658 33.711 33.763 33.831 33.901 33.968 34.043 34.101 34.133 34.136 34.176 34.186 34.216 34.246 34.256 34.303 34.341 34.383 34.403 34.423 34.473 34.493 34.526 34.563 34.628 34.698 34.731 34.741 34.731 34.728 34.698 34.703 34.696 34.671 34.708 34.721 34.756 34.791 34.798 34.813 34.838 34.846 34.841 34.866 34.881 34.938 34.971 35.016 35.026 35.073 35.081 35.098 35.118 35.163 35.148 35.141 35.138 35.178 35.211 35.228 35.253 35.283 35.283 35.303 35.308 35.326 35.346 35.366 35.386 35.438 35.486 35.513 35.611 35.648 35.683 35.771 35.836 35.913 35.946 35.988 36.033 36.073 36.136 36.173 36.231 36.278 36.331 36.383 36.441 36.491 36.558 36.631 36.676 36.713 36.698 36.681 37.526 38.981 37.126 37.228 37.358 37.408 37.448 37.486 37.533 37.603 37.671 37.731 37.796 37.866 37.933 37.998 38.053 38.121 38.193 38.281 38.338 38.396 38.496 38.581 38.683 38.756 38.836 38.933 39.008 39.088 39.186 39.266 39.308 39.403 39.476 39.556 39.648 39.738 39.818 39.888 40.021 40.071 40.168 40.241 40.313 40.398 40.443 40.523 40.603 40.668 40.736 40.823 40.871 40.966 41.036 41.088 41.168 41.191 41.256 41.341 41.393 41.493 41.578 41.631 41.696 41.771 41.846 41.918 41.978 42.021 42.066 42.121 42.178 42.238 42.313 42.381 42.448 42.521 42.593 42.648 42.746 42.796 42.833 42.886 42.956 43.011 43.076 43.146 43.206 43.293 43.363 43.426 43.491 43.558 43.626 43.696 43.751 43.813 43.873 43.941 43.998 44.071 44.128 44.181 44.223 44.296 44.368 44.421 44.513 44.573 44.651 44.716 44.808 44.866 44.928 44.978 45.028 45.106 45.148 45.208 45.231 45.271 45.338 45.388 45.423 45.466 45.531 45.581 45.656 45.716 45.768 45.833 45.858 45.923 45.988 46.058 46.128 46.231 46.303 46.453 47.383 48.618 47.536 46.556 46.668 46.758 46.796 46.856 46.908 46.948 47.026 47.021 47.101 47.141 47.216 47.273 47.298 47.333 47.391 47.391 47.446 47.466 47.491 47.528 47.591 47.668 47.698 47.801 47.833 47.911 47.968 47.988 48.046 48.101 48.106 48.156 48.226 48.266 48.313 48.358 48.421 48.438 48.488 48.501 48.563 48.553 48.581 48.606 48.621 48.658 48.688 48.718 48.728 48.713 48.718 48.723 48.753 48.748 48.766 48.756 48.728 48.746 48.738 48.736 48.723 48.726 48.731 48.713 48.711 48.708 48.673 48.678 48.706 48.721 48.686 48.691 48.663 48.656 48.668 48.653 48.651 48.643 48.631 48.643 48.593 48.578 48.546 48.544 48.514 48.497 48.488 48.501 48.509 48.513 48.531 48.533 48.526 48.489 48.442 48.44 48.398 48.371 48.353 48.333 48.283 48.228 48.188 48.123 48.093
24.116 24.288 24.486 24.653 24.811 24.983 25.188 25.371 25.521 25.643 25.788 25.943 26.068 26.183 26.283 26.376 26.441 26.528 26.586 26.671 26.803 26.913 27.008 27.081 27.163 27.233 27.336 27.393 27.493 27.551 27.618 27.723 27.823 27.933 28.028 28.136 28.221 28.266 28.928 29.141 28.406 28.461 29.138 30.173 29.283 29.188 29.246 29.298 29.361 29.398 29.468 29.506 29.568 29.591 29.656 29.728 29.773 29.888 29.946 30.626 31.951 32.211 31.658 30.976 30.548 30.661 30.723 30.846 30.986 31.123 31.208 31.301 31.388 31.461 31.578 31.651 31.748 31.841 31.941 32.056 32.171 32.298 32.388 32.488 32.558 32.653 32.746 32.828 32.921 33.046 33.118 33.193 33.258 33.328 33.401 33.441 33.516 33.558 33.613 33.706 33.741 33.818 33.883 33.971 34.048 34.096 34.123 34.141 34.166 34.201 34.211 34.266 34.273 34.303 34.351 34.376 34.408 34.451 34.481 34.511 34.531 34.588 34.638 34.676 34.726 34.736 34.753 34.743 34.741 34.751 34.726 34.721 34.733 34.771 34.783 34.823 34.818 34.828 34.863 34.863 34.908 34.903 34.901 34.958 35.006 35.041 35.056 35.071 35.108 35.128 35.186 35.188 35.183 35.171 35.173 35.206 35.241 35.266 35.256 35.263 35.296 35.298 35.336 35.343 35.328 35.361 35.411 35.431 35.496 35.551 35.603 35.671 35.731 35.838 35.896 35.948 35.981 36.046 36.071 36.121 36.158 36.206 36.266 36.333 36.383 36.448 36.471 36.518 36.593 36.651 36.758 36.756 36.746 36.746 38.726 40.376 37.341 37.273 37.406 37.461 37.501 37.531 37.596 37.651 37.711 37.776 37.833 37.913 37.986 38.041 38.088 38.166 38.241 38.313 38.393 38.468 38.536 38.626 38.741 38.791 38.898 38.971 39.038 39.136 39.206 39.301 39.366 39.443 39.521 39.598 39.666 39.781 39.866 39.941 40.031 40.113 40.226 40.298 40.378 40.458 40.488 40.531 40.641 40.683 40.786 40.848 40.918 41.018 41.053 41.131 41.176 41.236 41.313 41.378 41.441 41.528 41.586 41.676 41.756 41.813 41.898 41.948 41.973 42.056 42.131 42.176 42.226 42.311 42.368 42.431 42.481 42.548 42.631 42.723 42.756 42.848 42.898 42.953 43.023 43.066 43.138 43.206 43.263 43.331 43.406 43.476 43.521 43.601 43.643 43.723 43.801 43.858 43.941 43.978 44.051 44.103 44.173 44.231 44.271 44.338 44.413 44.506 44.561 44.621 44.696 44.788 44.833 44.878 44.951 45.016 45.078 45.126 45.171 45.221 45.276 45.306 45.378 45.428 45.448 45.498 45.581 45.633 45.681 45.751 45.818 45.868 45.908 45.966 46.046 46.123 46.173 46.263 46.346 46.458 47.958 48.938 46.733 46.611 46.701 46.788 46.848 46.896 46.943 46.993 47.058 47.086 47.153 47.191 47.251 47.271 47.311 47.386 47.393 47.406 47.438 47.451 47.478 47.581 47.638 47.671 47.738 47.821 47.878 47.938 48.001 48.051 48.111 48.118 48.161 48.193 48.238 48.293 48.341 48.391 48.421 48.461 48.501 48.551 48.593 48.596 48.643 48.663 48.656 48.693 48.738 48.776 48.766 48.753 48.773 48.778 48.803 48.793 48.808 48.773 48.778 48.786 48.773 48.741 48.766 48.786 48.768 48.758 48.751 48.753 48.728 48.726 48.751 48.743 48.721 48.713 48.728 48.716 48.728 48.676 48.691 48.693 48.686 48.693 48.663 48.615 48.597 48.59 48.576 48.554 48.566 48.554 48.562 48.546 48.575 48.577 48.578 48.529 48.503 48.48 48.431 48.401 48.388 48.351 48.318 48.261 48.256 48.183 48.116
24.211 24.363 24.563 24.758 24.901 25.023 25.191 25.363 25.498 25.623 25.778 25.931 26.053 26.161 26.271 26.356 26.421 26.491 26.586 26.696 26.813 26.913 27.031 27.093 27.183 27.246 27.338 27.421 27.486 27.553 27.603 27.703 27.836 27.931 27.998 28.108 28.228 28.291 28.311 28.816 29.081 28.441 28.516 29.878 30.096 29.221 29.208 29.231 29.323 29.398 29.463 29.493 29.543 29.606 29.688 29.721 29.766 30.201 31.168 32.081 31.868 30.681 30.388 30.443 30.526 30.653 30.771 30.898 31.011 31.121 31.213 31.298 31.383 31.478 31.553 31.636 31.728 31.826 31.933 32.066 32.181 32.296 32.416 32.493 32.581 32.673 32.756 32.836 32.916 33.003 33.116 33.206 33.271 33.316 33.401 33.431 33.533 33.573 33.621 33.686 33.738 33.821 33.891 33.968 34.046 34.083 34.121 34.148 34.186 34.223 34.238 34.258 34.283 34.336 34.378 34.408 34.426 34.468 34.523 34.543 34.588 34.611 34.646 34.703 34.743 34.758 34.786 34.801 34.781 34.768 34.741 34.776 34.768 34.788 34.828 34.858 34.861 34.893 34.923 34.941 34.928 34.931 34.938 34.976 35.043 35.066 35.098 35.118 35.131 35.186 35.226 35.226 35.211 35.206 35.211 35.236 35.281 35.291 35.266 35.281 35.281 35.326 35.338 35.336 35.376 35.378 35.441 35.451 35.483 35.553 35.626 35.701 35.791 35.876 35.931 35.973 36.026 36.103 36.093 36.143 36.221 36.241 36.316 36.356 36.413 36.471 36.511 36.556 36.606 36.708 36.801 36.791 36.773 36.796 38.296 39.153 37.426 37.308 37.456 37.518 37.571 37.598 37.631 37.681 37.758 37.801 37.891 37.966 38.016 38.068 38.148 38.233 38.313 38.376 38.438 38.508 38.586 38.673 38.791 38.851 38.911 39.008 39.101 39.186 39.261 39.351 39.438 39.508 39.573 39.671 39.738 39.811 39.891 39.986 40.071 40.183 40.263 40.298 40.406 40.451 40.496 40.588 40.661 40.728 40.816 40.878 40.958 41.048 41.093 41.173 41.228 41.273 41.361 41.413 41.496 41.561 41.638 41.713 41.768 41.846 41.931 41.988 42.026 42.078 42.131 42.188 42.253 42.326 42.396 42.458 42.508 42.606 42.668 42.733 42.803 42.893 42.926 43.013 43.076 43.128 43.188 43.263 43.326 43.401 43.466 43.533 43.593 43.648 43.713 43.788 43.858 43.911 43.998 44.051 44.121 44.203 44.226 44.298 44.373 44.411 44.486 44.541 44.608 44.711 44.756 44.806 44.868 44.951 44.996 45.041 45.118 45.136 45.216 45.268 45.303 45.356 45.401 45.438 45.491 45.536 45.583 45.661 45.713 45.776 45.858 45.893 45.943 46.006 46.091 46.181 46.216 46.303 46.373 46.558 47.131 47.733 46.706 46.641 46.708 46.788 46.841 46.906 46.961 47.033 47.096 47.111 47.168 47.231 47.273 47.318 47.323 47.388 47.406 47.423 47.478 47.498 47.528 47.573 47.633 47.708 47.731 47.833 47.871 47.948 47.993 48.056 48.101 48.123 48.188 48.213 48.273 48.313 48.376 48.401 48.478 48.513 48.561 48.586 48.641 48.623 48.668 48.691 48.706 48.718 48.761 48.808 48.813 48.806 48.798 48.816 48.833 48.843 48.866 48.841 48.841 48.843 48.823 48.823 48.811 48.813 48.803 48.786 48.808 48.771 48.773 48.766 48.776 48.798 48.783 48.778 48.771 48.763 48.741 48.736 48.728 48.748 48.761 48.721 48.706 48.68 48.679 48.656 48.647 48.62 48.618 48.595 48.603 48.599 48.616 48.627 48.612 48.58 48.541 48.515 48.473 48.453 48.451 48.436 48.373 48.323 48.261 48.206 48.171
24.283 24.453 24.646 24.816 24.981 25.091 25.213 25.333 25.471 25.628 25.758 25.891 26.038 26.156 26.231 26.338 26.388 26.471 26.608 26.703 26.811 26.906 27.013 27.066 27.168 27.246 27.351 27.406 27.451 27.538 27.646 27.721 27.803 27.908 27.986 28.093 28.181 28.296 28.353 28.338 29.058 29.088 28.528 28.603 29.993 30.363 29.378 29.158 29.288 29.406 29.471 29.496 29.546 29.603 29.643 29.953 30.841 31.623 31.886 31.028 30.301 30.206 30.316 30.458 30.598 30.716 30.821 30.926 31.023 31.123 31.223 31.296 31.378 31.458 31.538 31.653 31.753 31.868 31.971 32.083 32.171 32.306 32.408 32.503 32.588 32.688 32.753 32.853 32.908 33.043 33.121 33.193 33.256 33.326 33.393 33.451 33.523 33.588 33.641 33.681 33.756 33.828 33.883 33.966 34.021 34.076 34.133 34.156 34.208 34.216 34.236 34.271 34.301 34.361 34.398 34.408 34.456 34.498 34.526 34.571 34.601 34.636 34.656 34.696 34.758 34.783 34.798 34.801 34.796 34.818 34.831 34.806 34.816 34.831 34.871 34.891 34.931 34.913 34.981 35.003 34.986 34.963 35.011 35.038 35.078 35.116 35.136 35.136 35.178 35.201 35.246 35.266 35.246 35.188 35.223 35.233 35.256 35.283 35.268 35.286 35.283 35.303 35.326 35.311 35.358 35.366 35.413 35.468 35.516 35.561 35.641 35.711 35.791 35.868 35.958 35.996 36.051 36.118 36.116 36.168 36.238 36.276 36.321 36.376 36.426 36.483 36.518 36.586 36.636 36.741 36.828 36.876 36.841 36.853 37.831 38.691 37.518 37.391 37.528 37.583 37.613 37.646 37.668 37.703 37.776 37.851 37.946 37.986 38.053 38.106 38.186 38.283 38.331 38.408 38.473 38.566 38.648 38.721 38.796 38.898 38.968 39.051 39.126 39.206 39.298 39.393 39.481 39.558 39.641 39.723 39.791 39.873 39.948 40.028 40.141 40.198 40.308 40.346 40.446 40.508 40.563 40.621 40.688 40.761 40.848 40.908 41.001 41.073 41.138 41.216 41.263 41.316 41.386 41.448 41.533 41.603 41.653 41.773 41.823 41.876 41.906 42.001 42.058 42.103 42.173 42.236 42.278 42.338 42.426 42.473 42.531 42.611 42.696 42.741 42.838 42.906 42.966 43.018 43.071 43.168 43.223 43.308 43.358 43.443 43.508 43.571 43.636 43.686 43.743 43.833 43.891 43.966 44.053 44.106 44.166 44.241 44.311 44.336 44.388 44.458 44.531 44.598 44.671 44.748 44.813 44.861 44.926 45.001 45.036 45.103 45.151 45.196 45.266 45.298 45.346 45.388 45.416 45.468 45.526 45.571 45.628 45.693 45.768 45.821 45.886 45.936 45.986 46.036 46.128 46.186 46.261 46.333 46.386 46.593 47.731 50.503 47.066 46.668 46.753 46.803 46.843 46.903 46.953 47.036 47.106 47.148 47.206 47.268 47.286 47.293 47.323 47.386 47.413 47.416 47.451 47.488 47.543 47.593 47.661 47.706 47.731 47.846 47.906 47.968 48.036 48.051 48.136 48.156 48.208 48.238 48.303 48.363 48.408 48.433 48.508 48.551 48.568 48.613 48.658 48.648 48.701 48.713 48.741 48.771 48.823 48.853 48.851 48.861 48.868 48.863 48.891 48.913 48.921 48.903 48.906 48.901 48.876 48.871 48.861 48.883 48.856 48.841 48.861 48.813 48.813 48.811 48.816 48.816 48.803 48.808 48.851 48.813 48.788 48.771 48.781 48.793 48.816 48.801 48.771 48.737 48.716 48.716 48.692 48.659 48.672 48.687 48.67 48.671 48.689 48.696 48.668 48.627 48.572 48.573 48.528 48.521 48.481 48.456 48.413 48.371 48.341 48.268 48.203
24.331 24.466 24.676 24.821 25.008 25.118 25.241 25.341 25.471 25.606 25.738 25.871 25.993 26.096 26.196 26.276 26.376 26.476 26.608 26.721 26.821 26.913 26.976 27.083 27.161 27.276 27.341 27.416 27.411 27.536 27.638 27.703 27.818 27.916 27.976 28.088 28.168 28.258 28.376 28.383 28.433 29.093 29.143 28.638 28.881 30.026 30.598 29.306 29.271 29.393 29.456 29.483 29.521 29.753 30.596 31.318 31.366 30.558 30.163 30.036 30.121 30.221 30.383 30.546 30.646 30.743 30.853 30.941 31.053 31.131 31.206 31.311 31.366 31.488 31.601 31.708 31.778 31.888 31.993 32.081 32.186 32.291 32.398 32.506 32.603 32.671 32.766 32.858 32.918 33.016 33.123 33.201 33.268 33.318 33.386 33.456 33.536 33.568 33.643 33.683 33.741 33.801 33.896 33.966 34.048 34.118 34.151 34.183 34.208 34.241 34.278 34.273 34.321 34.348 34.401 34.443 34.458 34.501 34.546 34.586 34.633 34.668 34.703 34.721 34.756 34.813 34.813 34.848 34.856 34.866 34.853 34.853 34.858 34.866 34.893 34.938 34.946 34.956 34.981 35.018 35.033 35.001 35.028 35.073 35.128 35.133 35.153 35.143 35.181 35.218 35.261 35.286 35.243 35.213 35.223 35.258 35.268 35.281 35.261 35.266 35.266 35.281 35.316 35.301 35.331 35.381 35.401 35.433 35.488 35.536 35.621 35.721 35.818 35.886 35.993 36.018 36.058 36.118 36.141 36.198 36.248 36.288 36.321 36.368 36.438 36.463 36.526 36.588 36.668 36.758 36.858 36.918 36.938 36.918 37.786 39.061 37.443 37.466 37.576 37.613 37.651 37.686 37.708 37.766 37.816 37.888 37.941 38.026 38.101 38.163 38.231 38.326 38.383 38.458 38.513 38.603 38.676 38.756 38.848 38.948 39.018 39.098 39.181 39.268 39.353 39.433 39.523 39.628 39.691 39.753 39.858 39.913 40.003 40.076 40.163 40.263 40.326 40.403 40.493 40.543 40.633 40.643 40.751 40.823 40.881 40.953 41.046 41.113 41.176 41.213 41.298 41.376 41.398 41.473 41.531 41.596 41.686 41.758 41.838 41.916 41.968 42.021 42.076 42.128 42.203 42.251 42.291 42.361 42.441 42.476 42.563 42.626 42.698 42.758 42.833 42.913 42.971 43.046 43.093 43.203 43.243 43.303 43.396 43.468 43.513 43.596 43.648 43.713 43.783 43.848 43.936 43.981 44.043 44.131 44.211 44.251 44.326 44.371 44.426 44.493 44.546 44.611 44.698 44.763 44.836 44.891 44.926 45.011 45.073 45.133 45.183 45.243 45.271 45.318 45.373 45.413 45.473 45.528 45.578 45.618 45.671 45.731 45.806 45.861 45.918 45.966 46.006 46.078 46.171 46.208 46.301 46.361 46.423 46.943 47.613 49.393 46.601 46.676 46.746 46.828 46.856 46.921 46.958 47.061 47.136 47.168 47.211 47.281 47.308 47.328 47.338 47.388 47.443 47.438 47.473 47.511 47.553 47.608 47.701 47.706 47.771 47.863 47.931 47.993 48.023 48.068 48.151 48.151 48.221 48.276 48.308 48.398 48.446 48.473 48.518 48.556 48.601 48.671 48.663 48.713 48.751 48.746 48.801 48.831 48.846 48.903 48.906 48.886 48.933 48.916 48.946 48.933 48.968 48.941 48.948 48.943 48.951 48.943 48.933 48.933 48.898 48.886 48.873 48.878 48.868 48.868 48.876 48.881 48.861 48.866 48.888 48.846 48.836 48.843 48.826 48.851 48.868 48.811 48.841 48.818 48.783 48.786 48.772 48.728 48.738 48.743 48.738 48.732 48.741 48.747 48.722 48.658 48.64 48.623 48.567 48.558 48.561 48.503 48.463 48.401 48.368 48.333 48.243
24.326 24.498 24.668 24.856 25.023 25.171 25.258 25.356 25.481 25.596 25.716 25.828 25.958 26.061 26.178 26.273 26.386 26.466 26.601 26.688 26.818 26.903 26.973 27.061 27.176 27.256 27.338 27.361 27.383 27.573 27.643 27.728 27.866 27.926 27.996 28.083 28.188 28.251 28.338 28.423 28.468 28.538 29.608 28.903 28.698 28.783 30.123 30.381 29.426 29.368 29.431 29.481 29.868 30.963 31.303 30.751 29.948 29.898 29.988 30.056 30.173 30.303 30.431 30.558 30.668 30.746 30.836 30.933 31.016 31.116 31.203 31.308 31.423 31.501 31.611 31.698 31.798 31.903 32.006 32.108 32.206 32.296 32.421 32.513 32.598 32.671 32.773 32.861 32.938 33.001 33.093 33.193 33.263 33.348 33.418 33.473 33.541 33.601 33.671 33.703 33.771 33.836 33.903 33.988 34.061 34.113 34.151 34.173 34.223 34.241 34.293 34.286 34.316 34.388 34.416 34.453 34.488 34.511 34.553 34.616 34.621 34.686 34.688 34.756 34.793 34.813 34.846 34.868 34.888 34.881 34.903 34.898 34.898 34.918 34.931 34.961 35.001 34.991 35.006 35.031 35.023 35.018 35.028 35.068 35.131 35.138 35.143 35.188 35.198 35.236 35.266 35.268 35.266 35.241 35.261 35.248 35.271 35.266 35.271 35.261 35.238 35.283 35.283 35.313 35.328 35.353 35.391 35.433 35.508 35.563 35.636 35.751 35.831 35.908 35.973 36.033 36.116 36.118 36.133 36.208 36.258 36.283 36.333 36.388 36.461 36.501 36.558 36.623 36.701 36.801 36.928 36.966 36.981 36.988 37.811 39.201 37.708 37.493 37.611 37.636 37.691 37.723 37.728 37.806 37.868 37.921 37.991 38.086 38.128 38.198 38.293 38.351 38.431 38.498 38.556 38.658 38.731 38.811 38.901 38.976 39.028 39.156 39.243 39.311 39.411 39.488 39.571 39.666 39.761 39.823 39.913 39.993 40.048 40.123 40.238 40.326 40.388 40.481 40.556 40.576 40.673 40.711 40.783 40.871 40.946 41.036 41.106 41.143 41.203 41.256 41.308 41.383 41.426 41.528 41.581 41.616 41.711 41.773 41.846 41.933 41.993 42.066 42.106 42.138 42.231 42.268 42.331 42.411 42.466 42.483 42.548 42.631 42.703 42.758 42.843 42.913 42.973 43.046 43.111 43.173 43.268 43.336 43.406 43.473 43.546 43.601 43.648 43.736 43.808 43.858 43.943 44.016 44.056 44.146 44.208 44.251 44.318 44.381 44.451 44.491 44.556 44.621 44.708 44.761 44.831 44.878 44.928 44.988 45.058 45.111 45.188 45.221 45.281 45.338 45.396 45.451 45.496 45.538 45.586 45.653 45.701 45.748 45.821 45.868 45.953 46.006 46.066 46.116 46.163 46.226 46.296 46.361 46.398 47.893 49.088 48.238 46.596 46.666 46.778 46.856 46.888 46.953 46.993 47.066 47.123 47.178 47.238 47.313 47.333 47.381 47.378 47.413 47.448 47.443 47.481 47.563 47.591 47.636 47.723 47.756 47.798 47.883 47.951 48.003 48.031 48.086 48.163 48.166 48.238 48.283 48.328 48.393 48.448 48.473 48.546 48.578 48.618 48.696 48.701 48.721 48.776 48.786 48.808 48.863 48.898 48.901 48.921 48.936 48.943 48.956 48.983 48.978 48.996 48.998 48.988 48.996 48.973 48.931 48.963 48.961 48.951 48.928 48.948 48.941 48.928 48.933 48.926 48.943 48.931 48.938 48.936 48.896 48.888 48.908 48.886 48.916 48.911 48.903 48.898 48.863 48.852 48.851 48.822 48.784 48.814 48.811 48.793 48.804 48.822 48.807 48.781 48.729 48.713 48.682 48.631 48.606 48.591 48.558 48.513 48.468 48.403 48.353 48.318
24.296 24.463 24.651 24.823 24.966 25.138 25.251 25.341 25.456 25.586 25.698 25.816 25.931 26.041 26.171 26.273 26.378 26.493 26.568 26.663 26.783 26.883 26.971 27.093 27.168 27.246 27.288 27.383 27.468 27.486 27.566 27.743 27.861 27.903 28.011 28.078 28.188 28.246 28.296 28.426 28.498 28.538 28.648 29.643 29.023 28.793 28.828 30.178 30.443 29.526 29.323 30.263 31.166 30.778 29.881 29.646 29.746 29.863 29.993 30.126 30.243 30.366 30.451 30.571 30.651 30.731 30.808 30.901 31.001 31.116 31.233 31.338 31.451 31.541 31.641 31.751 31.836 31.938 32.021 32.103 32.211 32.306 32.423 32.493 32.603 32.683 32.756 32.871 32.931 33.021 33.078 33.176 33.278 33.363 33.466 33.493 33.538 33.613 33.666 33.721 33.791 33.846 33.908 33.988 34.038 34.106 34.146 34.183 34.236 34.248 34.273 34.298 34.326 34.376 34.421 34.453 34.508 34.533 34.568 34.618 34.668 34.711 34.736 34.778 34.811 34.818 34.858 34.888 34.886 34.911 34.928 34.916 34.913 34.938 34.956 35.001 35.038 35.018 35.008 35.033 35.038 35.048 35.046 35.086 35.121 35.156 35.161 35.171 35.208 35.248 35.248 35.276 35.273 35.251 35.253 35.246 35.251 35.261 35.276 35.271 35.268 35.281 35.291 35.306 35.326 35.363 35.403 35.483 35.526 35.573 35.641 35.751 35.831 35.908 35.996 36.063 36.111 36.153 36.173 36.221 36.273 36.303 36.376 36.418 36.476 36.546 36.588 36.668 36.733 36.823 36.976 37.028 37.043 37.033 37.821 39.298 37.911 37.513 37.631 37.663 37.738 37.756 37.776 37.806 37.903 37.953 38.008 38.121 38.168 38.243 38.311 38.406 38.471 38.541 38.616 38.691 38.796 38.848 38.948 39.028 39.121 39.213 39.313 39.361 39.438 39.523 39.616 39.713 39.803 39.878 39.968 40.068 40.111 40.171 40.318 40.346 40.443 40.498 40.598 40.658 40.741 40.806 40.868 40.931 40.998 41.073 41.161 41.203 41.251 41.306 41.358 41.411 41.496 41.576 41.621 41.683 41.736 41.791 41.891 41.943 42.008 42.073 42.103 42.173 42.253 42.296 42.338 42.416 42.483 42.518 42.583 42.638 42.728 42.781 42.853 42.941 43.008 43.091 43.123 43.208 43.276 43.351 43.431 43.503 43.573 43.631 43.661 43.753 43.816 43.893 43.941 44.028 44.101 44.143 44.218 44.258 44.326 44.383 44.436 44.511 44.563 44.633 44.713 44.791 44.833 44.881 44.936 45.018 45.086 45.138 45.183 45.236 45.283 45.346 45.393 45.421 45.481 45.508 45.583 45.646 45.706 45.771 45.816 45.911 45.968 46.023 46.068 46.143 46.191 46.236 46.303 46.338 46.446 48.431 50.163 48.723 46.568 46.678 46.768 46.861 46.921 46.976 47.013 47.071 47.133 47.186 47.233 47.288 47.328 47.366 47.368 47.396 47.466 47.476 47.526 47.578 47.616 47.646 47.721 47.788 47.843 47.921 47.986 48.051 48.056 48.138 48.191 48.193 48.246 48.321 48.353 48.413 48.463 48.496 48.566 48.601 48.653 48.681 48.721 48.758 48.781 48.808 48.833 48.898 48.931 48.966 48.956 48.976 48.988 49.013 49.006 49.063 49.066 49.041 49.033 49.036 49.028 49.008 49.026 49.001 49.011 49.003 48.991 48.973 48.988 48.986 49.016 48.991 48.991 49.008 49.026 48.971 48.948 48.988 48.971 48.983 48.981 48.956 48.941 48.928 48.898 48.899 48.874 48.848 48.874 48.86 48.844 48.866 48.883 48.873 48.843 48.8 48.761 48.745 48.708 48.668 48.666 48.613 48.551 48.523 48.478 48.408 48.353
24.278 24.441 24.623 24.791 24.928 25.088 25.221 25.303 25.426 25.576 25.706 25.828 25.911 26.026 26.158 26.276 26.351 26.481 26.566 26.646 26.751 26.858 26.971 27.043 27.153 27.188 27.273 27.388 27.476 27.523 27.523 27.681 27.816 27.923 28.016 28.063 28.121 28.186 28.281 28.403 28.488 28.601 28.631 29.273 29.916 28.801 28.868 28.978 29.911 30.258 29.261 29.821 30.131 29.478 29.483 29.658 29.816 29.956 30.081 30.208 30.306 30.393 30.466 30.543 30.613 30.668 30.768 30.881 30.996 31.123 31.246 31.351 31.458 31.553 31.651 31.766 31.858 31.941 32.031 32.131 32.216 32.291 32.406 32.483 32.598 32.676 32.756 32.863 32.943 33.043 33.113 33.176 33.281 33.361 33.426 33.503 33.561 33.636 33.688 33.748 33.806 33.863 33.921 33.976 34.028 34.108 34.153 34.206 34.218 34.241 34.276 34.323 34.356 34.403 34.426 34.466 34.513 34.548 34.583 34.651 34.663 34.703 34.743 34.773 34.823 34.856 34.868 34.871 34.901 34.913 34.956 34.946 34.941 34.946 34.951 35.006 35.021 35.031 35.013 35.041 35.051 35.041 35.051 35.101 35.141 35.161 35.178 35.201 35.226 35.258 35.251 35.276 35.278 35.263 35.258 35.226 35.273 35.276 35.266 35.266 35.246 35.268 35.276 35.316 35.366 35.401 35.446 35.493 35.541 35.613 35.686 35.763 35.866 35.946 36.013 36.081 36.143 36.166 36.203 36.266 36.301 36.326 36.386 36.431 36.516 36.571 36.661 36.733 36.808 36.911 37.033 37.078 37.113 37.091 37.881 39.431 38.071 37.551 37.658 37.703 37.731 37.793 37.813 37.831 37.918 37.968 38.051 38.121 38.206 38.271 38.348 38.431 38.493 38.566 38.638 38.733 38.823 38.911 38.996 39.088 39.183 39.253 39.343 39.391 39.478 39.548 39.656 39.758 39.848 39.943 40.026 40.101 40.188 40.268 40.373 40.428 40.493 40.611 40.648 40.731 40.816 40.846 40.938 41.001 41.076 41.143 41.203 41.263 41.323 41.363 41.438 41.473 41.563 41.586 41.661 41.721 41.801 41.858 41.916 41.991 42.046 42.111 42.161 42.208 42.278 42.341 42.406 42.448 42.516 42.543 42.596 42.681 42.736 42.808 42.903 42.961 43.041 43.106 43.168 43.238 43.298 43.363 43.456 43.531 43.591 43.658 43.711 43.773 43.838 43.883 43.966 44.046 44.108 44.173 44.241 44.281 44.346 44.388 44.458 44.513 44.581 44.641 44.723 44.821 44.861 44.911 44.981 45.028 45.078 45.141 45.158 45.228 45.271 45.328 45.358 45.393 45.453 45.496 45.568 45.613 45.663 45.741 45.831 45.868 45.968 46.003 46.078 46.143 46.201 46.243 46.306 46.371 46.453 48.003 48.846 47.901 46.643 46.721 46.791 46.858 46.903 46.963 47.036 47.118 47.131 47.188 47.223 47.326 47.361 47.368 47.403 47.436 47.481 47.503 47.543 47.606 47.648 47.653 47.743 47.803 47.863 47.921 47.996 48.091 48.071 48.166 48.221 48.213 48.276 48.328 48.371 48.443 48.503 48.526 48.583 48.621 48.681 48.726 48.751 48.778 48.806 48.826 48.876 48.933 48.956 48.968 48.988 48.998 49.011 49.046 49.033 49.076 49.091 49.056 49.073 49.076 49.083 49.048 49.063 49.068 49.066 49.043 49.051 49.038 49.046 49.053 49.053 49.021 49.063 49.058 49.068 48.988 49.021 49.033 49.058 49.036 49.073 49.031 49.021 48.983 48.988 48.956 48.951 48.932 48.927 48.918 48.922 48.93 48.939 48.947 48.898 48.859 48.848 48.797 48.785 48.74 48.718 48.691 48.636 48.583 48.526 48.483 48.396
24.223 24.413 24.583 24.738 24.893 25.051 25.186 25.308 25.436 25.566 25.683 25.791 25.886 25.986 26.086 26.211 26.323 26.451 26.523 26.613 26.723 26.841 26.986 27.028 27.088 27.053 27.211 27.358 27.433 27.523 27.651 27.686 27.751 27.883 27.948 28.006 28.091 28.153 28.291 28.371 28.488 28.578 28.653 28.863 28.943 28.821 28.846 28.916 29.048 29.916 29.373 29.098 29.176 29.276 29.558 29.758 29.898 30.033 30.151 30.236 30.348 30.411 30.493 30.536 30.598 30.688 30.796 30.876 31.018 31.131 31.233 31.358 31.453 31.561 31.653 31.781 31.886 31.971 32.056 32.158 32.241 32.321 32.441 32.506 32.601 32.686 32.776 32.871 32.938 33.036 33.106 33.208 33.283 33.358 33.438 33.511 33.601 33.648 33.703 33.771 33.816 33.868 33.926 34.011 34.051 34.103 34.156 34.201 34.241 34.261 34.296 34.333 34.358 34.428 34.433 34.468 34.516 34.541 34.588 34.641 34.663 34.706 34.736 34.781 34.833 34.866 34.856 34.891 34.941 34.943 34.931 34.946 34.953 34.958 34.968 35.001 35.016 35.023 35.053 35.031 35.048 35.053 35.058 35.111 35.161 35.181 35.203 35.223 35.256 35.248 35.271 35.286 35.278 35.278 35.266 35.263 35.293 35.288 35.288 35.298 35.273 35.266 35.278 35.318 35.383 35.413 35.443 35.511 35.573 35.638 35.701 35.798 35.911 35.988 36.031 36.106 36.183 36.211 36.233 36.283 36.336 36.366 36.423 36.496 36.563 36.626 36.686 36.761 36.826 36.943 37.076 37.143 37.166 37.141 38.346 39.556 37.918 37.571 37.701 37.741 37.783 37.813 37.846 37.881 37.956 38.013 38.088 38.161 38.253 38.303 38.403 38.458 38.528 38.608 38.683 38.761 38.853 38.956 39.028 39.111 39.206 39.291 39.358 39.433 39.528 39.591 39.681 39.808 39.868 39.991 40.051 40.143 40.218 40.281 40.381 40.473 40.573 40.623 40.678 40.773 40.848 40.896 41.001 41.058 41.131 41.183 41.263 41.328 41.353 41.418 41.491 41.516 41.596 41.661 41.721 41.786 41.833 41.916 41.971 42.041 42.111 42.168 42.213 42.283 42.336 42.368 42.438 42.473 42.551 42.583 42.666 42.708 42.766 42.836 42.911 42.973 43.086 43.143 43.211 43.273 43.366 43.418 43.508 43.568 43.616 43.681 43.771 43.818 43.876 43.943 44.016 44.083 44.143 44.218 44.258 44.288 44.363 44.416 44.471 44.518 44.608 44.681 44.728 44.818 44.881 44.936 44.978 45.016 45.081 45.111 45.188 45.236 45.278 45.341 45.381 45.396 45.448 45.503 45.558 45.596 45.658 45.736 45.798 45.868 45.926 45.983 46.046 46.158 46.208 46.243 46.316 46.373 46.493 48.066 49.171 47.858 46.706 46.731 46.813 46.883 46.931 46.953 47.018 47.116 47.156 47.216 47.283 47.356 47.363 47.378 47.438 47.466 47.488 47.503 47.568 47.606 47.666 47.698 47.771 47.831 47.893 47.953 47.998 48.101 48.106 48.173 48.216 48.246 48.286 48.358 48.398 48.451 48.496 48.531 48.576 48.651 48.703 48.733 48.743 48.808 48.836 48.861 48.891 48.976 48.963 48.996 49.026 49.021 49.043 49.096 49.106 49.098 49.116 49.133 49.141 49.128 49.123 49.111 49.108 49.141 49.123 49.088 49.111 49.101 49.086 49.116 49.113 49.118 49.113 49.116 49.131 49.103 49.093 49.123 49.123 49.136 49.108 49.106 49.088 49.058 49.031 49.047 49.018 49.028 49.025 49.012 49.003 49.011 49.022 49.008 48.96 48.943 48.9 48.878 48.848 48.8 48.771 48.743 48.686 48.638 48.568 48.533 48.461
24.216 24.376 24.543 24.713 24.853 25.016 25.156 25.283 25.406 25.521 25.638 25.738 25.846 25.948 26.051 26.136 26.288 26.416 26.498 26.601 26.723 26.858 26.941 27.031 27.063 27.098 27.203 27.336 27.401 27.558 27.611 27.663 27.741 27.838 27.893 28.001 28.076 28.163 28.253 28.376 28.436 28.516 28.601 28.688 28.758 28.806 28.896 28.906 28.981 29.001 29.083 29.091 29.178 29.376 29.641 29.816 29.926 30.048 30.158 30.246 30.308 30.376 30.476 30.543 30.608 30.716 30.816 30.926 31.038 31.168 31.256 31.368 31.446 31.581 31.673 31.791 31.911 31.993 32.093 32.193 32.271 32.353 32.421 32.536 32.603 32.696 32.788 32.861 32.956 33.071 33.143 33.193 33.286 33.366 33.441 33.513 33.596 33.661 33.731 33.766 33.823 33.871 33.948 33.973 34.061 34.123 34.131 34.208 34.226 34.263 34.286 34.318 34.363 34.408 34.423 34.461 34.523 34.553 34.571 34.651 34.663 34.718 34.753 34.803 34.851 34.871 34.896 34.906 34.916 34.948 34.973 34.938 34.953 34.986 34.986 35.016 35.031 35.031 35.056 35.028 35.058 35.061 35.086 35.116 35.148 35.181 35.221 35.228 35.268 35.278 35.303 35.306 35.288 35.263 35.258 35.258 35.293 35.273 35.271 35.273 35.261 35.278 35.298 35.361 35.396 35.411 35.468 35.511 35.578 35.641 35.716 35.818 35.911 35.971 36.056 36.128 36.201 36.218 36.256 36.298 36.346 36.393 36.431 36.518 36.596 36.661 36.736 36.806 36.861 36.986 37.101 37.193 37.196 37.203 38.421 39.453 37.753 37.618 37.713 37.763 37.808 37.836 37.871 37.903 37.978 38.058 38.106 38.186 38.276 38.356 38.418 38.493 38.558 38.633 38.726 38.808 38.878 38.978 39.063 39.161 39.233 39.328 39.388 39.473 39.543 39.641 39.728 39.836 39.903 40.001 40.068 40.168 40.266 40.323 40.416 40.493 40.591 40.678 40.721 40.811 40.866 40.946 41.031 41.101 41.151 41.203 41.306 41.383 41.418 41.493 41.521 41.578 41.643 41.701 41.778 41.846 41.898 41.976 42.041 42.083 42.151 42.203 42.266 42.326 42.381 42.438 42.481 42.518 42.573 42.621 42.686 42.751 42.798 42.896 42.941 43.031 43.108 43.168 43.228 43.306 43.383 43.451 43.536 43.603 43.671 43.713 43.773 43.846 43.926 43.986 44.056 44.116 44.188 44.236 44.286 44.333 44.386 44.441 44.471 44.563 44.623 44.706 44.773 44.831 44.908 44.956 44.981 45.036 45.063 45.128 45.163 45.216 45.286 45.318 45.351 45.408 45.441 45.503 45.548 45.616 45.661 45.733 45.781 45.856 45.921 45.996 46.063 46.151 46.173 46.238 46.318 46.391 46.501 48.296 47.613 47.213 46.686 46.751 46.828 46.893 46.943 47.003 47.023 47.133 47.168 47.226 47.256 47.343 47.361 47.421 47.456 47.483 47.501 47.531 47.588 47.636 47.683 47.708 47.791 47.851 47.921 47.978 48.031 48.108 48.136 48.201 48.243 48.256 48.301 48.363 48.401 48.463 48.513 48.571 48.613 48.656 48.703 48.768 48.758 48.813 48.853 48.853 48.918 48.983 49.011 49.041 49.048 49.063 49.078 49.108 49.126 49.153 49.138 49.146 49.181 49.171 49.161 49.171 49.178 49.176 49.143 49.158 49.176 49.171 49.161 49.183 49.193 49.166 49.178 49.196 49.178 49.143 49.168 49.183 49.186 49.211 49.196 49.168 49.153 49.148 49.161 49.119 49.098 49.095 49.084 49.081 49.074 49.078 49.095 49.075 49.03 48.978 48.981 48.913 48.891 48.878 48.853 48.793 48.756 48.718 48.641 48.581 48.533
24.116 24.321 24.501 24.666 24.831 24.951 25.096 25.221 25.373 25.481 25.611 25.711 25.831 25.938 26.021 26.126 26.201 26.348 26.473 26.566 26.683 26.803 26.906 26.978 27.068 27.173 27.198 27.308 27.421 27.521 27.543 27.643 27.703 27.793 27.903 28.021 28.048 28.146 28.228 28.353 28.413 28.503 28.598 28.623 28.786 28.853 28.923 28.961 28.966 29.036 29.091 29.563 29.883 29.481 29.683 29.798 29.936 30.021 30.146 30.223 30.283 30.376 30.496 30.591 30.683 30.738 30.841 30.931 31.031 31.148 31.248 31.348 31.466 31.546 31.666 31.791 31.893 32.008 32.096 32.191 32.288 32.373 32.451 32.536 32.643 32.703 32.781 32.871 32.951 33.056 33.158 33.236 33.293 33.361 33.426 33.493 33.581 33.646 33.731 33.798 33.823 33.888 33.938 33.998 34.058 34.111 34.148 34.186 34.231 34.253 34.273 34.306 34.373 34.401 34.438 34.488 34.523 34.571 34.606 34.646 34.686 34.711 34.758 34.808 34.858 34.876 34.906 34.933 34.968 34.953 34.971 34.976 34.961 34.973 35.001 35.053 35.033 35.063 35.066 35.058 35.073 35.091 35.096 35.126 35.148 35.198 35.231 35.258 35.281 35.303 35.283 35.286 35.298 35.293 35.273 35.258 35.276 35.273 35.273 35.246 35.271 35.281 35.323 35.341 35.371 35.401 35.486 35.533 35.603 35.653 35.733 35.811 35.906 35.988 36.058 36.141 36.198 36.251 36.271 36.303 36.363 36.421 36.496 36.521 36.601 36.686 36.771 36.818 36.903 37.023 37.133 37.231 37.243 37.258 38.701 39.588 37.646 37.623 37.756 37.796 37.843 37.876 37.898 37.956 38.028 38.106 38.183 38.253 38.321 38.388 38.473 38.543 38.606 38.663 38.741 38.831 38.921 39.013 39.108 39.181 39.263 39.346 39.413 39.513 39.596 39.656 39.766 39.848 39.941 40.033 40.111 40.173 40.266 40.353 40.458 40.533 40.611 40.693 40.773 40.833 40.893 40.986 41.043 41.123 41.176 41.273 41.353 41.403 41.488 41.523 41.573 41.616 41.693 41.756 41.788 41.873 41.938 42.003 42.063 42.113 42.173 42.241 42.296 42.348 42.408 42.446 42.496 42.571 42.588 42.631 42.711 42.783 42.828 42.903 42.978 43.076 43.133 43.203 43.283 43.366 43.443 43.498 43.581 43.658 43.691 43.753 43.831 43.866 43.953 44.016 44.091 44.163 44.208 44.263 44.296 44.366 44.411 44.458 44.508 44.586 44.663 44.738 44.781 44.848 44.901 44.956 45.006 45.043 45.111 45.133 45.176 45.241 45.301 45.328 45.358 45.413 45.453 45.501 45.558 45.598 45.656 45.728 45.798 45.851 45.926 45.986 46.041 46.143 46.176 46.231 46.311 46.368 46.496 48.386 48.008 47.983 46.666 46.738 46.846 46.918 46.958 47.023 47.038 47.111 47.186 47.236 47.283 47.346 47.403 47.411 47.466 47.501 47.528 47.586 47.611 47.623 47.703 47.741 47.813 47.858 47.931 48.008 48.061 48.153 48.158 48.228 48.238 48.273 48.328 48.381 48.446 48.488 48.533 48.563 48.616 48.696 48.731 48.791 48.781 48.841 48.868 48.888 48.933 48.981 49.016 49.033 49.081 49.088 49.101 49.146 49.163 49.176 49.178 49.186 49.201 49.211 49.203 49.178 49.201 49.196 49.191 49.208 49.198 49.218 49.228 49.231 49.241 49.253 49.248 49.266 49.228 49.213 49.248 49.248 49.281 49.273 49.276 49.243 49.246 49.213 49.216 49.193 49.167 49.142 49.15 49.143 49.14 49.163 49.146 49.141 49.09 49.068 49.046 49 48.975 48.931 48.903 48.858 48.818 48.761 48.716 48.673 48.568
24.021 24.246 24.481 24.636 24.791 24.938 25.088 25.196 25.308 25.441 25.553 25.678 25.788 25.886 25.998 26.091 26.206 26.313 26.456 26.558 26.641 26.748 26.808 26.953 27.076 27.171 27.246 27.326 27.446 27.501 27.561 27.686 27.733 27.816 27.893 27.976 28.018 28.113 28.178 28.228 28.393 28.488 28.553 28.581 28.728 29.026 28.958 28.986 28.986 29.046 29.133 29.266 30.076 29.803 29.663 29.763 29.858 29.981 30.096 30.176 30.288 30.418 30.526 30.596 30.691 30.761 30.831 30.948 31.036 31.123 31.223 31.341 31.426 31.541 31.646 31.758 31.898 32.001 32.103 32.208 32.298 32.388 32.491 32.558 32.646 32.706 32.791 32.878 32.971 33.061 33.151 33.231 33.301 33.383 33.446 33.521 33.601 33.663 33.748 33.821 33.843 33.908 33.963 34.021 34.081 34.098 34.143 34.211 34.228 34.256 34.283 34.331 34.393 34.423 34.471 34.498 34.531 34.566 34.596 34.636 34.668 34.711 34.781 34.848 34.876 34.891 34.923 34.951 34.953 34.981 35.001 34.996 35.023 34.998 35.008 35.058 35.058 35.081 35.088 35.093 35.111 35.098 35.091 35.143 35.203 35.208 35.236 35.268 35.291 35.308 35.301 35.301 35.288 35.286 35.258 35.238 35.258 35.266 35.263 35.256 35.251 35.268 35.313 35.306 35.346 35.411 35.463 35.531 35.606 35.678 35.746 35.823 35.963 36.016 36.076 36.158 36.208 36.251 36.273 36.301 36.386 36.431 36.493 36.568 36.616 36.701 36.778 36.848 36.921 37.048 37.183 37.248 37.276 37.306 38.826 39.703 37.986 37.673 37.771 37.826 37.876 37.926 37.951 38.013 38.066 38.138 38.241 38.286 38.386 38.461 38.538 38.593 38.646 38.738 38.786 38.876 38.973 39.058 39.151 39.231 39.316 39.381 39.466 39.546 39.631 39.701 39.798 39.866 39.981 40.073 40.151 40.256 40.316 40.421 40.478 40.563 40.671 40.726 40.816 40.856 40.931 41.013 41.083 41.126 41.221 41.276 41.381 41.458 41.501 41.583 41.611 41.666 41.703 41.776 41.841 41.903 41.981 42.041 42.093 42.168 42.228 42.273 42.321 42.373 42.451 42.483 42.528 42.563 42.623 42.683 42.731 42.793 42.878 42.926 43.023 43.091 43.156 43.243 43.331 43.406 43.486 43.541 43.593 43.691 43.738 43.801 43.863 43.921 43.996 44.058 44.116 44.161 44.241 44.281 44.343 44.373 44.423 44.468 44.533 44.576 44.671 44.748 44.793 44.843 44.921 44.946 45.031 45.063 45.113 45.158 45.208 45.241 45.301 45.341 45.381 45.431 45.471 45.501 45.563 45.616 45.668 45.723 45.766 45.863 45.923 45.988 46.036 46.131 46.178 46.243 46.333 46.406 46.593 48.141 47.993 46.753 46.701 46.768 46.851 46.903 46.958 47.028 47.066 47.141 47.176 47.236 47.306 47.353 47.383 47.418 47.493 47.513 47.506 47.603 47.608 47.653 47.711 47.766 47.841 47.878 47.933 48.038 48.096 48.148 48.173 48.223 48.286 48.301 48.356 48.418 48.466 48.486 48.566 48.608 48.633 48.701 48.758 48.786 48.818 48.886 48.886 48.916 48.953 49.006 49.056 49.053 49.101 49.126 49.133 49.161 49.208 49.221 49.226 49.206 49.221 49.253 49.228 49.243 49.231 49.248 49.288 49.281 49.271 49.286 49.273 49.266 49.316 49.326 49.323 49.323 49.306 49.313 49.321 49.341 49.351 49.368 49.373 49.338 49.338 49.313 49.328 49.288 49.246 49.242 49.233 49.22 49.238 49.233 49.227 49.198 49.166 49.134 49.11 49.062 49.035 48.995 48.976 48.906 48.876 48.833 48.763 48.713 48.658
24.101 24.123 24.423 24.588 24.728 24.883 25.031 25.161 25.296 25.378 25.521 25.658 25.783 25.886 25.976 26.098 26.198 26.283 26.411 26.543 26.648 26.701 26.738 26.963 27.081 27.121 27.186 27.333 27.421 27.473 27.566 27.633 27.746 27.828 27.903 27.951 28.073 28.156 28.243 28.306 28.413 28.453 28.526 28.601 30.156 29.466 28.991 28.976 29.013 29.043 29.081 29.158 29.418 30.263 29.793 29.771 29.883 30.001 30.083 30.166 30.283 30.408 30.521 30.621 30.711 30.786 30.843 30.958 31.043 31.131 31.218 31.321 31.426 31.543 31.646 31.753 31.866 31.983 32.086 32.206 32.298 32.391 32.483 32.556 32.628 32.711 32.791 32.866 32.933 33.051 33.128 33.203 33.298 33.378 33.446 33.516 33.586 33.641 33.751 33.806 33.868 33.913 33.971 34.036 34.071 34.098 34.173 34.213 34.208 34.243 34.273 34.341 34.378 34.438 34.453 34.478 34.521 34.558 34.578 34.641 34.683 34.721 34.783 34.826 34.886 34.926 34.946 34.956 34.966 34.978 34.998 35.021 34.991 35.008 35.038 35.098 35.111 35.106 35.123 35.126 35.123 35.133 35.136 35.168 35.211 35.236 35.231 35.258 35.281 35.291 35.303 35.286 35.281 35.276 35.251 35.226 35.213 35.228 35.236 35.211 35.233 35.263 35.266 35.301 35.373 35.406 35.453 35.516 35.568 35.678 35.776 35.846 35.941 36.001 36.088 36.166 36.213 36.261 36.283 36.323 36.378 36.423 36.511 36.571 36.648 36.721 36.773 36.878 36.971 37.083 37.221 37.283 37.326 37.333 38.248 39.608 37.803 37.691 37.783 37.851 37.931 37.958 38.006 38.063 38.118 38.181 38.268 38.356 38.428 38.503 38.576 38.643 38.711 38.776 38.853 38.941 39.036 39.118 39.186 39.268 39.363 39.443 39.511 39.581 39.656 39.761 39.848 39.921 39.991 40.086 40.191 40.258 40.336 40.446 40.513 40.613 40.673 40.718 40.841 40.911 40.961 41.018 41.083 41.178 41.261 41.323 41.406 41.478 41.516 41.601 41.646 41.708 41.768 41.816 41.881 41.921 41.966 42.046 42.113 42.171 42.241 42.308 42.358 42.398 42.466 42.508 42.568 42.608 42.646 42.708 42.766 42.826 42.863 42.968 43.036 43.108 43.203 43.268 43.343 43.433 43.478 43.543 43.638 43.716 43.751 43.826 43.883 43.938 44.013 44.058 44.121 44.176 44.246 44.296 44.363 44.396 44.441 44.478 44.558 44.611 44.688 44.756 44.793 44.841 44.906 44.973 45.011 45.076 45.126 45.181 45.218 45.271 45.293 45.348 45.388 45.418 45.466 45.523 45.583 45.636 45.681 45.741 45.783 45.861 45.931 45.988 46.018 46.113 46.181 46.261 46.356 46.431 46.591 48.206 48.983 46.881 46.691 46.786 46.883 46.913 46.966 47.011 47.053 47.148 47.173 47.253 47.321 47.358 47.411 47.438 47.496 47.521 47.548 47.608 47.653 47.656 47.723 47.783 47.853 47.911 47.981 48.048 48.118 48.188 48.206 48.243 48.281 48.348 48.363 48.418 48.461 48.536 48.578 48.608 48.668 48.726 48.773 48.781 48.803 48.891 48.918 48.951 48.978 49.053 49.083 49.066 49.123 49.121 49.158 49.178 49.213 49.238 49.273 49.236 49.271 49.288 49.271 49.286 49.263 49.296 49.336 49.318 49.331 49.343 49.338 49.368 49.383 49.373 49.403 49.401 49.353 49.401 49.403 49.428 49.453 49.456 49.416 49.423 49.438 49.378 49.401 49.353 49.34 49.328 49.312 49.301 49.304 49.302 49.301 49.272 49.218 49.199 49.173 49.129 49.091 49.072 49.054 48.981 48.933 48.868 48.831 48.781 48.713
24.023 23.978 24.286 24.561 24.713 24.861 24.981 25.143 25.271 25.356 25.486 25.616 25.763 25.868 25.993 26.103 26.193 26.253 26.358 26.523 26.608 26.648 26.766 26.861 27.038 27.086 27.236 27.296 27.358 27.466 27.538 27.603 27.736 27.826 27.908 27.981 28.066 28.173 28.281 28.346 28.438 28.431 28.476 29.343 29.858 28.941 28.993 29.051 29.133 29.101 29.151 29.146 29.213 29.933 30.308 29.793 29.831 29.981 30.076 30.188 30.271 30.408 30.516 30.618 30.711 30.768 30.881 30.963 31.061 31.138 31.228 31.321 31.423 31.498 31.608 31.738 31.853 31.971 32.091 32.201 32.296 32.393 32.481 32.558 32.641 32.696 32.768 32.843 32.941 33.031 33.116 33.201 33.293 33.368 33.431 33.506 33.603 33.686 33.741 33.813 33.911 33.933 33.966 34.036 34.081 34.118 34.166 34.196 34.226 34.248 34.271 34.311 34.353 34.396 34.458 34.483 34.518 34.561 34.578 34.623 34.691 34.741 34.773 34.841 34.901 34.921 34.961 34.968 34.998 35.008 35.013 35.013 35.008 35.006 35.061 35.091 35.123 35.136 35.128 35.143 35.131 35.123 35.136 35.173 35.203 35.216 35.243 35.251 35.266 35.291 35.296 35.278 35.271 35.238 35.226 35.196 35.196 35.198 35.196 35.216 35.206 35.228 35.273 35.306 35.356 35.418 35.443 35.538 35.601 35.673 35.766 35.856 35.951 36.006 36.103 36.166 36.223 36.276 36.298 36.356 36.396 36.438 36.508 36.576 36.658 36.741 36.813 36.896 36.993 37.138 37.261 37.328 37.361 37.368 38.198 39.118 37.956 37.743 37.831 37.878 37.976 38.006 38.031 38.091 38.141 38.211 38.296 38.386 38.468 38.536 38.593 38.686 38.736 38.818 38.891 39.001 39.086 39.168 39.256 39.333 39.423 39.471 39.573 39.653 39.706 39.801 39.863 39.976 40.043 40.128 40.213 40.306 40.406 40.486 40.553 40.643 40.708 40.778 40.881 40.941 40.998 41.048 41.118 41.213 41.288 41.343 41.436 41.503 41.571 41.641 41.706 41.723 41.793 41.858 41.886 41.966 42.013 42.073 42.136 42.211 42.253 42.338 42.401 42.431 42.491 42.546 42.611 42.646 42.691 42.733 42.786 42.853 42.918 42.993 43.061 43.121 43.211 43.283 43.333 43.451 43.553 43.586 43.646 43.708 43.773 43.843 43.888 43.966 44.018 44.063 44.148 44.191 44.243 44.308 44.358 44.396 44.453 44.501 44.548 44.611 44.688 44.731 44.786 44.858 44.906 44.978 45.036 45.053 45.128 45.191 45.236 45.271 45.326 45.373 45.416 45.448 45.483 45.521 45.581 45.648 45.711 45.758 45.783 45.861 45.931 45.983 46.041 46.118 46.178 46.486 46.921 46.468 46.658 47.178 46.986 46.803 46.718 46.793 46.851 46.906 46.958 47.006 47.068 47.153 47.191 47.251 47.333 47.373 47.401 47.451 47.488 47.516 47.548 47.606 47.651 47.701 47.718 47.821 47.876 47.908 47.996 48.088 48.123 48.176 48.211 48.286 48.301 48.336 48.383 48.446 48.488 48.571 48.596 48.643 48.701 48.743 48.783 48.813 48.868 48.931 48.913 48.941 48.998 49.078 49.091 49.096 49.108 49.153 49.161 49.191 49.238 49.263 49.256 49.258 49.328 49.291 49.311 49.328 49.316 49.336 49.348 49.361 49.396 49.376 49.418 49.458 49.426 49.451 49.481 49.466 49.448 49.488 49.488 49.478 49.511 49.563 49.513 49.508 49.521 49.491 49.458 49.428 49.394 49.391 49.38 49.356 49.368 49.373 49.366 49.325 49.299 49.276 49.249 49.204 49.159 49.148 49.1 49.058 48.998 48.928 48.896 48.823 48.771
23.666 23.823 24.151 24.498 24.716 24.843 24.968 25.113 25.253 25.341 25.451 25.603 25.733 25.838 25.978 26.081 26.181 26.268 26.336 26.478 26.498 26.611 26.733 26.876 27.018 27.118 27.201 27.286 27.368 27.438 27.523 27.596 27.686 27.773 27.851 27.988 28.101 28.166 28.271 28.306 28.381 28.376 28.891 30.413 28.796 28.888 28.988 29.073 29.418 29.353 30.726 29.756 29.221 29.293 30.243 30.611 29.908 29.971 30.083 30.181 30.273 30.383 30.501 30.611 30.723 30.796 30.888 30.966 31.053 31.148 31.243 31.323 31.421 31.486 31.583 31.721 31.863 31.986 32.073 32.188 32.278 32.413 32.491 32.563 32.606 32.678 32.773 32.848 32.913 32.983 33.103 33.196 33.281 33.356 33.461 33.506 33.573 33.673 33.731 33.811 33.888 33.941 33.996 34.048 34.086 34.136 34.166 34.188 34.203 34.211 34.256 34.273 34.326 34.388 34.423 34.446 34.516 34.533 34.566 34.636 34.691 34.753 34.793 34.858 34.901 34.958 34.981 34.981 35.001 35.026 35.056 35.048 35.043 35.033 35.046 35.083 35.126 35.153 35.148 35.158 35.133 35.141 35.133 35.176 35.201 35.223 35.266 35.223 35.266 35.281 35.281 35.261 35.258 35.221 35.198 35.198 35.181 35.158 35.176 35.173 35.198 35.218 35.261 35.286 35.381 35.421 35.466 35.536 35.598 35.653 35.746 35.841 35.971 36.043 36.096 36.171 36.216 36.256 36.296 36.333 36.406 36.458 36.528 36.608 36.676 36.756 36.861 36.936 37.038 37.181 37.288 37.371 37.391 37.398 37.913 39.273 37.693 37.796 37.868 37.926 37.993 38.028 38.053 38.106 38.171 38.261 38.331 38.403 38.498 38.568 38.633 38.716 38.768 38.863 38.936 39.023 39.116 39.231 39.286 39.383 39.453 39.523 39.618 39.671 39.756 39.836 39.918 39.986 40.078 40.171 40.253 40.343 40.436 40.498 40.591 40.683 40.733 40.821 40.876 40.963 41.043 41.083 41.148 41.248 41.311 41.381 41.441 41.516 41.576 41.638 41.718 41.756 41.806 41.873 41.906 41.968 42.016 42.088 42.143 42.211 42.268 42.323 42.393 42.478 42.493 42.546 42.611 42.631 42.686 42.753 42.816 42.876 42.953 43.013 43.093 43.158 43.243 43.326 43.426 43.476 43.538 43.606 43.668 43.738 43.798 43.853 43.901 43.976 44.043 44.081 44.146 44.188 44.268 44.288 44.343 44.388 44.436 44.491 44.536 44.603 44.661 44.721 44.796 44.838 44.888 44.938 45.011 45.046 45.111 45.171 45.233 45.278 45.308 45.371 45.406 45.456 45.486 45.541 45.596 45.651 45.696 45.761 45.806 45.873 45.926 45.978 46.061 46.126 46.196 47.083 47.391 46.498 46.628 49.323 47.196 46.691 46.681 46.738 46.848 46.911 46.976 47.001 47.068 47.158 47.208 47.261 47.341 47.363 47.411 47.451 47.518 47.538 47.571 47.621 47.661 47.723 47.743 47.836 47.886 47.936 48.001 48.106 48.158 48.203 48.236 48.311 48.298 48.356 48.398 48.466 48.528 48.566 48.603 48.676 48.716 48.761 48.818 48.861 48.881 48.933 48.936 48.993 49.016 49.086 49.131 49.143 49.158 49.193 49.191 49.223 49.266 49.291 49.291 49.318 49.351 49.341 49.358 49.391 49.378 49.391 49.391 49.418 49.471 49.426 49.473 49.533 49.508 49.536 49.548 49.518 49.531 49.571 49.593 49.578 49.606 49.641 49.581 49.571 49.543 49.541 49.521 49.513 49.471 49.457 49.458 49.441 49.44 49.438 49.439 49.415 49.363 49.347 49.304 49.254 49.233 49.199 49.156 49.097 49.051 48.996 48.941 48.891 48.808
22.836 23.396 25.121 24.371 24.673 24.836 24.978 25.103 25.218 25.338 25.443 25.568 25.728 25.828 25.918 26.038 26.153 26.243 26.336 26.428 26.551 26.588 26.691 26.826 27.003 27.101 27.151 27.271 27.358 27.418 27.503 27.531 27.663 27.743 27.846 28.011 28.081 28.131 28.241 28.253 28.323 28.408 30.098 29.283 28.728 28.828 28.926 29.071 29.818 29.793 30.161 31.396 29.608 29.338 29.383 30.531 30.886 30.186 30.088 30.176 30.296 30.373 30.471 30.586 30.723 30.813 30.886 30.978 31.071 31.166 31.228 31.341 31.438 31.506 31.596 31.716 31.826 31.958 32.063 32.193 32.301 32.408 32.468 32.561 32.618 32.703 32.781 32.846 32.953 32.996 33.073 33.173 33.248 33.316 33.431 33.501 33.566 33.648 33.726 33.806 33.861 33.928 33.963 34.031 34.073 34.131 34.141 34.181 34.193 34.181 34.216 34.246 34.308 34.361 34.386 34.443 34.471 34.506 34.581 34.616 34.686 34.761 34.813 34.871 34.931 34.953 35.008 34.983 35.033 35.056 35.071 35.063 35.063 35.033 35.051 35.076 35.111 35.158 35.161 35.171 35.131 35.131 35.138 35.181 35.226 35.233 35.253 35.273 35.263 35.246 35.258 35.258 35.231 35.188 35.173 35.163 35.146 35.156 35.196 35.193 35.201 35.243 35.251 35.323 35.376 35.428 35.498 35.558 35.616 35.661 35.768 35.856 35.966 36.063 36.128 36.183 36.273 36.298 36.318 36.363 36.433 36.511 36.566 36.643 36.723 36.821 36.893 37.011 37.111 37.251 37.358 37.433 37.421 37.413 38.603 39.408 37.998 37.823 37.906 37.966 38.016 38.043 38.073 38.138 38.208 38.291 38.346 38.451 38.546 38.616 38.688 38.763 38.831 38.898 38.983 39.071 39.158 39.228 39.341 39.411 39.466 39.563 39.636 39.696 39.791 39.863 39.951 40.041 40.096 40.188 40.276 40.373 40.476 40.536 40.638 40.681 40.758 40.836 40.936 41.001 41.043 41.123 41.211 41.263 41.328 41.406 41.458 41.536 41.596 41.651 41.721 41.768 41.823 41.876 41.933 41.986 42.048 42.111 42.146 42.236 42.298 42.353 42.403 42.471 42.513 42.561 42.591 42.628 42.678 42.753 42.833 42.883 42.953 43.036 43.091 43.178 43.276 43.338 43.418 43.503 43.566 43.648 43.693 43.746 43.803 43.851 43.906 43.971 44.026 44.071 44.126 44.183 44.246 44.311 44.341 44.396 44.433 44.466 44.536 44.571 44.638 44.723 44.781 44.798 44.873 44.938 44.986 45.051 45.098 45.141 45.211 45.256 45.316 45.368 45.398 45.428 45.473 45.511 45.573 45.633 45.693 45.753 45.831 45.888 45.923 45.983 46.061 46.121 46.188 47.106 48.476 51.083 49.611 49.206 46.883 46.683 46.658 46.756 46.841 46.918 46.973 47.021 47.078 47.138 47.201 47.258 47.336 47.393 47.441 47.441 47.541 47.546 47.556 47.621 47.688 47.713 47.756 47.831 47.891 47.956 48.046 48.121 48.178 48.221 48.266 48.326 48.318 48.368 48.433 48.463 48.551 48.598 48.628 48.691 48.741 48.776 48.833 48.871 48.911 48.973 48.951 48.998 49.046 49.103 49.126 49.156 49.163 49.201 49.213 49.263 49.333 49.328 49.321 49.343 49.383 49.396 49.398 49.428 49.418 49.478 49.453 49.493 49.503 49.516 49.556 49.588 49.603 49.601 49.596 49.656 49.618 49.646 49.626 49.668 49.666 49.683 49.663 49.673 49.633 49.631 49.606 49.586 49.536 49.527 49.497 49.493 49.506 49.503 49.526 49.478 49.423 49.41 49.368 49.324 49.281 49.248 49.229 49.181 49.116 49.056 49.011 48.966 48.866
22.076 22.906 24.318 24.011 24.628 24.816 24.958 25.113 25.213 25.326 25.448 25.558 25.683 25.803 25.911 26.021 26.151 26.246 26.338 26.433 26.533 26.631 26.723 26.821 26.976 27.033 27.103 27.228 27.301 27.381 27.461 27.523 27.626 27.766 27.881 27.978 28.056 28.126 28.816 28.263 28.291 29.176 29.481 28.651 28.731 28.816 28.906 29.066 29.218 29.443 29.493 30.876 30.956 29.771 29.368 29.688 30.598 30.868 30.248 30.166 30.271 30.388 30.478 30.576 30.706 30.796 30.926 31.018 31.088 31.171 31.248 31.348 31.448 31.513 31.608 31.713 31.803 31.933 32.076 32.198 32.291 32.373 32.473 32.553 32.648 32.698 32.758 32.838 32.923 32.993 33.073 33.181 33.243 33.301 33.386 33.483 33.546 33.633 33.703 33.781 33.858 33.916 33.958 34.003 34.056 34.091 34.096 34.136 34.141 34.176 34.176 34.203 34.268 34.281 34.356 34.408 34.433 34.491 34.543 34.606 34.673 34.743 34.816 34.886 34.936 34.971 35.018 35.036 35.048 35.073 35.073 35.083 35.088 35.046 35.076 35.076 35.118 35.131 35.181 35.161 35.141 35.131 35.133 35.166 35.211 35.223 35.256 35.268 35.268 35.246 35.246 35.238 35.218 35.173 35.136 35.133 35.128 35.158 35.168 35.176 35.193 35.221 35.248 35.323 35.366 35.451 35.518 35.573 35.628 35.696 35.756 35.871 35.956 36.051 36.136 36.216 36.263 36.301 36.306 36.378 36.478 36.546 36.603 36.673 36.758 36.858 36.953 37.068 37.143 37.286 37.391 37.466 37.476 37.446 38.626 39.806 37.926 37.831 37.903 37.963 38.021 38.068 38.106 38.178 38.241 38.326 38.381 38.506 38.571 38.671 38.711 38.781 38.886 38.921 39.008 39.108 39.176 39.291 39.358 39.451 39.521 39.601 39.678 39.746 39.828 39.928 40.011 40.071 40.141 40.223 40.301 40.393 40.491 40.553 40.631 40.708 40.798 40.878 40.956 41.018 41.083 41.148 41.211 41.288 41.358 41.428 41.488 41.576 41.613 41.696 41.741 41.801 41.838 41.891 41.951 42.003 42.053 42.113 42.163 42.221 42.283 42.338 42.416 42.476 42.513 42.581 42.611 42.641 42.706 42.746 42.818 42.898 42.953 43.041 43.118 43.191 43.286 43.321 43.411 43.498 43.578 43.646 43.681 43.753 43.808 43.881 43.916 43.978 44.041 44.076 44.138 44.173 44.221 44.288 44.331 44.396 44.418 44.463 44.508 44.581 44.633 44.703 44.751 44.823 44.873 44.898 44.961 45.018 45.081 45.138 45.208 45.263 45.293 45.358 45.378 45.388 45.463 45.498 45.558 45.608 45.671 45.746 45.821 45.863 45.928 45.988 46.058 46.116 46.173 46.286 47.508 46.466 47.393 46.896 47.193 46.713 46.671 46.738 46.866 46.896 46.941 47.023 47.093 47.161 47.213 47.293 47.331 47.383 47.423 47.468 47.526 47.556 47.613 47.643 47.701 47.746 47.786 47.851 47.918 47.988 48.061 48.118 48.176 48.218 48.276 48.316 48.343 48.391 48.463 48.476 48.548 48.616 48.646 48.691 48.746 48.793 48.858 48.866 48.928 48.958 48.973 49.001 49.076 49.118 49.128 49.171 49.173 49.238 49.221 49.268 49.343 49.336 49.353 49.373 49.413 49.416 49.431 49.466 49.516 49.506 49.498 49.563 49.563 49.583 49.626 49.638 49.676 49.646 49.648 49.696 49.673 49.691 49.708 49.708 49.738 49.733 49.736 49.756 49.706 49.706 49.668 49.668 49.611 49.595 49.556 49.578 49.556 49.585 49.573 49.528 49.488 49.468 49.444 49.367 49.344 49.331 49.272 49.234 49.186 49.131 49.071 48.996 48.936
22.856 23.486 23.176 23.343 24.336 24.771 24.903 25.076 25.188 25.316 25.458 25.558 25.671 25.808 25.913 25.998 26.123 26.243 26.366 26.431 26.491 26.613 26.718 26.851 26.956 27.028 27.118 27.221 27.296 27.373 27.446 27.518 27.611 27.778 27.838 27.943 28.018 28.183 28.381 28.238 28.796 29.521 28.598 28.633 28.721 28.791 28.938 29.128 29.358 29.241 29.288 29.483 30.486 31.071 29.828 29.466 29.726 31.091 30.796 30.221 30.261 30.376 30.473 30.591 30.696 30.778 30.908 30.991 31.103 31.211 31.261 31.353 31.443 31.533 31.636 31.701 31.801 31.923 32.036 32.156 32.266 32.376 32.468 32.538 32.616 32.688 32.778 32.826 32.916 32.988 33.063 33.176 33.238 33.303 33.386 33.496 33.583 33.641 33.703 33.756 33.848 33.891 33.923 33.988 34.008 34.066 34.098 34.093 34.108 34.141 34.146 34.156 34.208 34.238 34.311 34.348 34.421 34.466 34.528 34.581 34.658 34.728 34.798 34.886 34.933 34.988 34.998 35.033 35.048 35.078 35.093 35.086 35.096 35.056 35.053 35.078 35.111 35.133 35.186 35.166 35.163 35.133 35.138 35.186 35.213 35.273 35.268 35.263 35.268 35.256 35.263 35.241 35.213 35.166 35.131 35.111 35.111 35.143 35.136 35.163 35.201 35.206 35.256 35.323 35.381 35.451 35.521 35.568 35.643 35.706 35.776 35.888 35.986 36.048 36.128 36.193 36.246 36.298 36.331 36.393 36.463 36.531 36.593 36.663 36.778 36.878 36.991 37.081 37.213 37.348 37.398 37.486 37.473 37.448 38.991 39.648 38.003 37.886 37.918 37.968 38.031 38.081 38.116 38.181 38.246 38.331 38.428 38.516 38.608 38.688 38.766 38.836 38.898 38.968 39.046 39.138 39.226 39.323 39.398 39.473 39.566 39.651 39.708 39.793 39.866 39.946 40.023 40.088 40.176 40.241 40.363 40.446 40.528 40.603 40.686 40.743 40.826 40.888 40.958 41.023 41.108 41.186 41.248 41.331 41.401 41.446 41.488 41.598 41.663 41.726 41.756 41.798 41.876 41.923 41.961 42.016 42.083 42.141 42.168 42.243 42.311 42.388 42.433 42.503 42.543 42.586 42.616 42.668 42.716 42.766 42.833 42.916 42.991 43.068 43.138 43.216 43.298 43.343 43.436 43.526 43.601 43.671 43.711 43.771 43.813 43.868 43.943 43.996 44.056 44.078 44.111 44.186 44.221 44.276 44.346 44.386 44.413 44.443 44.523 44.583 44.626 44.681 44.743 44.813 44.843 44.906 44.943 44.996 45.038 45.113 45.186 45.253 45.283 45.326 45.371 45.383 45.438 45.473 45.526 45.573 45.676 45.736 45.801 45.843 45.908 45.966 46.028 46.116 46.183 46.281 46.368 46.463 47.073 50.501 47.386 46.631 46.673 46.753 46.858 46.891 46.976 47.001 47.088 47.158 47.198 47.263 47.348 47.393 47.428 47.511 47.533 47.558 47.603 47.661 47.718 47.768 47.818 47.881 47.946 47.986 48.088 48.156 48.196 48.228 48.266 48.321 48.348 48.418 48.458 48.491 48.543 48.638 48.636 48.708 48.761 48.816 48.861 48.873 48.931 48.946 48.966 49.031 49.096 49.118 49.143 49.156 49.173 49.223 49.258 49.306 49.328 49.366 49.383 49.376 49.408 49.441 49.478 49.506 49.546 49.563 49.596 49.618 49.646 49.658 49.696 49.723 49.743 49.726 49.753 49.743 49.743 49.776 49.771 49.788 49.783 49.813 49.793 49.806 49.791 49.753 49.726 49.706 49.668 49.673 49.617 49.646 49.657 49.638 49.64 49.573 49.542 49.522 49.486 49.442 49.41 49.384 49.355 49.282 49.253 49.196 49.141 49.061 48.993
