ncols 447
nrows 32
xllcorner    455070
yllcorner    85546
cellsize     2
NODATA_value -9999
8.431 8.456 8.411 8.409 8.286 8.184 8.184 8.111 8.074 8.124 8.214 8.199 8.289 8.224 8.191 8.164 8.114 8.059 7.977 7.947 7.974 7.904 7.802 7.722 7.609 7.527 7.499 7.504 7.467 7.409 7.442 7.422 7.432 7.447 7.422 7.424 7.392 7.409 7.444 7.389 7.367 7.329 7.387 7.434 7.412 7.414 7.439 7.444 7.377 7.402 7.402 7.384 7.362 7.334 7.349 7.314 7.354 7.394 7.379 7.357 7.299 7.287 7.292 7.324 7.339 7.369 7.339 7.347 7.362 7.387 7.417 7.389 7.434 7.434 7.442 7.432 7.407 7.437 7.442 7.467 7.439 7.419 7.362 7.369 7.367 7.434 7.362 8.674 7.897 7.492 7.304 7.282 7.297 7.382 7.337 7.357 7.369 7.372 7.399 7.379 7.419 7.384 7.324 7.419 7.404 7.399 7.407 7.364 7.322 7.372 7.354 7.389 7.399 7.367 7.327 7.319 7.357 7.279 7.262 7.297 7.292 7.279 7.354 7.307 7.342 7.317 7.402 7.359 7.357 7.357 7.359 7.357 7.377 7.319 7.327 7.324 7.309 7.327 7.32 7.312 7.286 7.301 7.283 7.248 7.196 7.217 7.207 7.16 7.196 7.148 7.152 7.081 7.118 7.106 7.109 7.104 7.112 7.09 7.1 7.134 7.081 7.089 7.098 7.088 7.106 7.058 7.064 7.034 7.073 7.032 7.014 6.96 7.003 7.011 7.009 6.961 6.814 6.84 6.849 6.912 6.889 6.899 6.929 6.902 6.85 6.873 6.896 6.879 6.838 6.878 6.908 6.907 6.89 6.885 6.842 6.829 6.773 6.824 6.814 6.799 6.816 6.793 6.805 6.803 6.772 6.762 6.758 6.787 6.741 6.698 6.698 6.748 6.749 6.758 6.796 6.821 6.819 6.825 6.863 6.972 7.015 7.076 7.109 7.08 7.147 7.142 7.204 7.119 7.047 6.868 6.636 6.458 6.205 5.874 6.495 7.671 8.005 7.659 7.669 7.712 8.062 8.363 8.603 9.014 11.478 10.96 10.97 10.917 10.924 10.881 10.617 10.561 10.439 10.311 10.334 10.491 10.318 10.095 10.007 9.862 9.938 9.76 9.577 9.419 8.881 8.322 8.896 10.897 12.525 12.396 8.617 7.949 7.776 7.767 8.57 9.257 9.333 9.387 9.53 9.425 9.451 9.532 9.734 9.978 10.079 10.284 10.49 10.71 10.926 11.162 11.409 11.663 11.933 12.233 12.499 12.801 13.099 13.336 13.615 13.904 14.146 14.402 14.648 14.838 14.98 15.087 15.179 15.256 15.311 15.388 15.447 15.483 15.554 15.583 15.611 15.643 15.689 15.683 15.667 15.587 15.544 15.443 15.404 15.395 15.348 15.243 15.19 15.136 15.109 15.047 14.979 14.889 14.802 14.722 14.598 14.497 14.404 14.317 14.238 14.189 14.116 14.026 13.964 13.918 13.823 13.796 13.739 13.665 13.653 13.641 13.633 13.648 13.668 13.767 13.814 13.887 13.962 14.049 14.239 14.444 14.637 14.669 14.772 14.507 14.272 14.052 14.014 14.037 13.772 13.529 13.144 12.599 12.202 12.337 11.527 12.904 10.602 10.237 9.542 9.287 9.002 8.724 8.547 8.389 8.299 8.149 7.792 7.944 8.172 8.062 7.922 7.737 7.657 7.814 7.739 7.352 7.089 7.067 7.077 7.279 6.949 6.799 6.807 6.904 7.882 8.037 7.922 8.244 8.587 8.914 9.207 9.509 9.912 10.342 10.764 11.192 11.707 12.539 13.757 14.707 16.094 17.262 17.439 18.837 19.559 20.259 20.612 21.274 21.932 22.429 22.339 22.322 22.397 22.374 22.364 22.397 22.252 22.352 22.544 22.604 22.597 22.687 22.767 22.872 23.034 23.229 23.332
9.031 8.979 8.771 8.626 8.636 9.786 8.549 8.349 8.266 8.329 8.449 8.429 8.421 8.349 8.299 8.272 8.252 8.204 8.089 8.099 8.104 8.007 7.899 7.809 7.729 7.647 7.627 7.617 7.592 7.519 7.479 7.439 7.434 7.422 7.427 7.404 7.389 7.367 7.394 7.339 7.312 7.319 7.317 7.394 7.387 7.377 7.374 7.352 7.364 7.329 7.337 7.339 7.309 7.294 7.307 7.287 7.282 7.277 7.339 7.279 7.259 7.247 7.264 7.252 7.307 7.257 7.284 7.314 7.332 7.337 7.297 7.254 7.297 7.334 7.369 7.337 7.334 7.357 7.409 7.424 7.404 7.392 7.352 7.339 7.327 7.297 7.314 7.977 7.989 7.322 7.287 7.244 7.272 7.274 7.252 7.289 7.309 7.299 7.299 7.319 7.327 7.377 7.362 7.339 7.344 7.414 7.397 7.372 7.342 7.372 7.307 7.344 7.322 7.304 7.249 7.244 7.229 7.124 7.142 7.187 7.234 7.234 7.234 7.249 7.257 7.304 7.342 7.329 7.309 7.349 7.274 7.292 7.302 7.322 7.369 7.324 7.321 7.311 7.261 7.241 7.252 7.238 7.192 7.205 7.163 7.139 7.091 7.103 7.13 7.071 7.056 7.068 7.051 7.097 7.067 7.087 7.038 7.073 7.098 7.116 7.092 7.059 7.074 7.107 7.024 7.031 7.022 7.001 6.974 7.01 6.979 6.926 6.977 6.927 6.855 6.827 6.852 6.931 6.961 6.932 6.924 6.925 6.879 6.852 6.855 6.857 6.874 6.891 6.897 6.914 6.903 6.899 6.832 6.843 6.847 6.8 6.804 6.839 6.814 6.876 6.849 6.917 6.864 6.779 6.771 6.733 6.739 6.745 6.716 6.71 6.748 6.728 6.722 6.758 6.801 6.771 6.893 6.987 6.918 6.97 6.953 7.086 7.154 7.121 7.145 7.127 7.056 7.04 6.848 6.424 6.337 6.329 6.039 6.597 7.621 7.962 7.68 8.396 7.794 8.035 8.507 8.624 8.847 9.716 13.598 13.908 11.435 11.159 11.131 10.975 10.833 10.69 10.511 10.496 10.534 10.62 10.266 10.159 9.93 9.875 9.803 9.796 9.812 9.61 9.395 9.114 8.709 8.57 11.009 14.366 11.264 8.023 7.731 7.851 8.05 8.984 9.085 9.154 9.177 9.394 9.272 9.306 9.522 9.814 9.958 10.117 10.316 10.555 10.784 11.02 11.267 11.511 11.767 12.027 12.342 12.671 12.948 13.239 13.535 13.818 14.093 14.375 14.63 14.828 15.007 15.13 15.23 15.291 15.362 15.402 15.456 15.503 15.558 15.588 15.613 15.63 15.683 15.69 15.687 15.661 15.589 15.48 15.449 15.409 15.371 15.33 15.264 15.182 15.134 15.113 15.022 14.939 14.865 14.777 14.687 14.576 14.539 14.471 14.393 14.361 14.295 14.234 14.172 14.135 14.049 13.984 13.975 13.944 13.935 13.93 13.93 13.957 14.014 14.084 14.154 14.189 14.232 14.289 14.384 14.574 14.854 15.214 15.182 15.172 14.647 14.462 14.327 14.294 14.217 14.029 13.772 13.447 12.982 12.557 12.202 11.852 11.392 10.764 10.309 9.769 9.217 9.007 8.849 8.612 8.419 8.322 7.979 8.082 7.904 8.002 8.289 7.982 7.834 7.657 7.434 7.554 7.422 7.357 7.894 8.252 7.152 6.904 6.812 7.162 8.442 8.232 8.039 8.364 8.694 9.012 9.294 9.634 10.059 10.444 10.772 11.267 12.097 13.027 14.202 14.839 16.137 17.847 19.444 19.072 19.787 19.599 21.004 21.569 22.019 22.362 22.324 22.667 22.597 22.919 22.437 22.512 22.399 22.487 22.629 22.744 22.784 22.844 22.947 23.037 23.197 23.384 23.539
10.091 10.924 10.569 9.729 9.361 9.084 9.284 9.649 8.441 8.514 8.609 8.531 8.464 8.489 8.444 8.354 8.292 8.277 8.289 8.194 8.214 8.142 8.047 7.969 7.897 7.854 8.104 7.982 7.764 7.704 7.637 7.632 7.544 7.499 7.457 7.394 7.367 7.329 7.337 7.342 7.339 7.312 7.342 7.342 7.362 7.364 7.322 7.297 7.319 7.299 7.294 7.314 7.274 7.282 7.279 7.262 7.257 7.239 7.277 7.257 7.229 7.197 7.197 7.242 7.289 7.289 7.299 7.247 7.234 7.284 7.302 7.294 7.247 7.287 7.267 7.264 7.272 7.264 7.327 7.257 7.339 7.352 7.342 7.269 7.247 7.239 7.269 7.429 7.349 7.262 7.219 7.227 7.224 7.277 7.247 7.284 7.279 7.244 7.277 7.274 7.299 7.347 7.272 7.287 7.337 7.369 7.349 7.314 7.262 7.317 7.257 7.299 7.294 7.242 7.177 7.157 7.159 7.089 7.084 7.089 7.142 7.174 7.179 7.259 7.229 7.284 7.269 7.259 7.267 7.259 7.309 7.314 7.239 7.254 7.232 7.254 7.225 7.244 7.188 7.168 7.214 7.159 7.136 7.156 7.165 7.109 7.072 7.082 7.053 7.067 7.014 7.099 7.077 7.035 7.039 7.072 7.051 7.088 7.106 7.073 7.075 7.04 7.042 7.04 7.029 7.057 7.003 7.005 7.017 7.022 6.992 6.937 6.848 6.828 6.857 6.894 6.897 6.905 6.991 6.93 6.919 6.915 6.93 6.873 6.856 6.855 6.842 6.881 6.933 6.937 6.881 6.889 6.827 6.833 6.809 6.837 6.961 6.964 6.895 6.964 6.918 6.882 6.841 6.774 6.747 6.722 6.8 6.73 6.74 6.8 6.822 6.808 6.745 6.726 6.784 6.911 7.041 7.037 6.977 6.869 6.892 7.053 7.121 7.156 7.154 7.031 6.842 6.404 6.285 6.264 6.366 6.462 6.985 7.752 7.88 7.582 7.522 9.434 8.624 8.232 8.643 8.945 9.334 10.035 10.674 12.238 11.753 11.375 11.239 11.025 10.91 10.762 10.677 10.651 10.457 10.41 10.207 10.162 10.051 10.003 9.864 9.777 9.754 9.694 9.653 9.554 9.223 8.84 9.43 11.257 10.367 10.001 8.383 7.987 7.932 8.153 8.624 8.85 8.958 9.103 9.288 9.243 9.336 9.588 9.871 10.053 10.167 10.384 10.603 10.853 11.085 11.369 11.613 11.866 12.181 12.504 12.843 13.131 13.422 13.718 14.016 14.298 14.572 14.816 14.982 15.14 15.242 15.331 15.398 15.434 15.476 15.52 15.56 15.577 15.594 15.618 15.671 15.681 15.7 15.705 15.665 15.573 15.496 15.465 15.397 15.369 15.284 15.251 15.163 15.153 15.087 14.991 14.95 14.858 14.786 14.703 14.665 14.621 14.567 14.513 14.443 14.428 14.375 14.345 14.299 14.268 14.233 14.228 14.203 14.207 14.225 14.25 14.347 14.429 14.447 14.522 14.624 14.647 14.692 14.842 14.869 15.412 15.759 15.707 15.124 14.759 14.704 14.657 14.534 14.554 14.324 14.054 13.829 13.342 12.927 12.614 12.544 11.677 10.922 10.197 9.614 9.377 9.129 8.987 8.672 8.587 8.342 8.074 7.922 7.882 7.844 7.724 7.512 7.334 7.187 8.274 9.444 7.632 8.474 7.259 7.174 7.382 7.317 7.642 8.489 8.104 8.157 8.504 8.827 9.117 9.397 9.732 10.122 10.494 10.844 11.334 12.752 12.799 13.944 15.279 16.864 18.089 18.184 19.229 19.842 20.332 21.802 22.674 22.732 22.499 22.672 22.947 22.574 22.662 22.684 22.599 22.547 22.647 22.764 22.874 22.984 23.044 23.137 23.247 23.367 23.547 23.717
11.579 12.351 12.709 10.529 9.871 9.796 9.531 8.704 8.561 8.461 8.561 8.526 8.541 8.579 8.504 8.547 8.372 8.469 8.444 8.519 8.464 8.444 8.227 8.212 8.164 8.137 8.959 8.212 9.314 8.822 7.957 7.787 7.732 7.672 7.634 7.604 7.604 7.434 7.364 7.282 7.302 7.302 7.302 7.322 7.352 7.344 7.342 7.317 7.302 7.289 7.247 7.257 7.229 7.209 7.219 7.204 7.197 7.177 7.209 7.217 7.207 7.149 7.149 7.229 7.234 7.227 7.224 7.207 7.204 7.219 7.199 7.219 7.177 7.257 7.234 7.219 7.232 7.217 7.209 7.232 7.277 7.279 7.259 7.259 7.214 7.277 7.252 7.402 7.197 7.152 7.204 7.194 7.214 7.257 7.252 7.254 7.234 7.227 7.254 7.262 7.279 7.287 7.269 7.307 7.377 7.282 7.299 7.249 7.274 7.232 7.222 7.154 7.177 7.129 7.089 7.087 7.082 7.094 7.134 7.089 7.072 7.062 7.112 7.187 7.189 7.174 7.162 7.197 7.167 7.182 7.252 7.244 7.192 7.197 7.224 7.202 7.222 7.171 7.167 7.127 7.158 7.097 7.125 7.134 7.088 7.059 7.063 7.065 7.057 7.057 7.054 7.084 7.077 7.038 7.042 7.038 7.071 7.044 6.998 7.058 7.075 7.09 7.068 7.068 7.021 7.027 7.012 6.992 7.002 6.958 6.92 6.877 6.909 6.958 6.975 6.934 6.959 6.948 6.939 6.917 6.936 6.902 6.917 6.922 6.874 6.87 6.904 6.899 6.971 6.874 6.887 6.864 6.842 6.818 6.834 6.905 6.877 6.916 6.916 6.969 6.957 6.914 6.856 6.709 6.705 6.76 6.733 6.783 6.745 6.794 6.766 6.684 6.731 6.748 6.881 7.055 7.193 7.088 7.005 6.877 6.844 6.929 7.055 7.077 6.97 6.56 6.204 5.96 5.955 6.312 6.826 7.397 7.68 7.769 7.535 7.343 7.648 7.848 8.149 8.629 8.821 9.334 9.892 10.491 11.049 11.487 11.564 11.373 11.314 11.163 11.015 10.882 10.776 10.684 10.508 10.372 10.336 10.332 10.108 10.014 9.954 9.872 9.805 9.749 9.746 9.727 9.613 9.541 9.805 8.829 8.565 8.361 8.167 8.549 8.585 7.896 8.392 8.723 8.876 9.019 9.246 9.415 9.28 9.371 9.64 9.883 10.078 10.293 10.451 10.678 10.934 11.195 11.445 11.694 12 12.324 12.625 12.947 13.283 13.603 13.885 14.208 14.484 14.734 14.966 15.143 15.249 15.329 15.42 15.428 15.488 15.521 15.564 15.607 15.578 15.604 15.647 15.668 15.69 15.707 15.706 15.654 15.566 15.479 15.451 15.398 15.341 15.298 15.248 15.212 15.168 15.064 14.999 14.938 14.917 14.854 14.833 14.782 14.727 14.686 14.66 14.6 14.552 14.545 14.525 14.492 14.477 14.472 14.505 14.497 14.538 14.568 14.687 14.719 14.792 14.837 14.949 15.014 15.089 15.162 15.254 15.929 16.294 16.502 15.949 15.512 15.257 15.069 14.884 14.859 14.779 14.539 14.434 14.067 13.467 13.052 12.959 12.414 11.669 10.769 10.264 9.804 9.399 9.154 8.904 8.784 8.537 8.262 8.012 7.869 7.769 7.607 7.492 7.402 7.514 7.759 9.667 8.859 8.274 7.309 7.354 7.494 7.999 8.269 7.952 8.112 8.262 8.579 8.922 9.212 9.499 9.827 10.214 10.619 11.027 11.514 12.544 13.584 14.282 15.069 16.539 17.912 18.412 20.134 20.494 20.799 21.794 22.489 22.999 23.089 23.094 23.054 22.729 22.852 22.889 22.912 22.709 22.807 22.922 23.032 23.169 23.264 23.347 23.449 23.547 23.714 23.904
12.134 13.021 12.966 10.959 10.471 10.279 10.486 9.559 8.831 8.641 8.566 8.491 8.499 8.474 8.396 8.429 8.849 8.432 8.482 8.649 8.607 8.539 8.419 8.452 8.292 8.432 8.354 8.579 9.217 9.374 8.412 8.127 8.062 7.994 7.974 7.804 7.822 7.864 8.257 7.747 7.292 7.274 7.334 7.322 7.319 7.332 7.319 7.339 7.312 7.279 7.314 7.277 7.244 7.219 7.212 7.199 7.177 7.162 7.159 7.222 7.199 7.159 7.177 7.169 7.209 7.202 7.202 7.169 7.194 7.172 7.174 7.142 7.194 7.144 7.199 7.149 7.132 7.169 7.164 7.159 7.184 7.124 7.132 7.124 7.174 7.237 7.299 7.334 7.194 7.109 7.192 7.202 7.242 7.189 7.239 7.242 7.227 7.172 7.184 7.152 7.232 7.274 7.242 7.252 7.269 7.239 7.204 7.269 7.294 7.247 7.139 7.129 7.069 7.077 7.092 7.137 7.127 7.127 7.117 7.107 7.092 7.102 7.034 7.072 7.137 7.182 7.124 7.184 7.087 7.172 7.187 7.162 7.162 7.124 7.162 7.149 7.128 7.132 7.178 7.151 7.076 7.098 7.145 7.081 7.086 7.019 6.982 6.968 6.976 7.007 7.014 7.055 6.955 6.934 6.897 6.946 6.969 6.903 6.873 6.95 7.029 7.002 7.056 7.047 7.027 6.994 6.991 7.002 6.926 6.957 6.942 6.951 6.968 6.921 6.919 6.934 6.945 6.936 6.913 6.888 6.876 6.885 6.936 6.963 6.939 6.923 6.881 6.85 6.866 6.846 6.84 6.847 6.798 6.833 6.848 6.884 6.89 6.921 6.937 6.885 6.878 6.842 6.806 6.764 6.715 6.723 6.735 6.763 6.757 6.753 6.793 6.728 6.822 6.807 6.927 7.043 7.089 7.043 7.063 6.991 6.923 6.837 6.866 6.601 6.364 6.336 6.102 5.981 6.612 7.332 7.496 7.57 7.346 7.245 7.256 7.421 7.697 8.05 8.553 8.843 9.194 9.697 10.353 11.027 11.36 11.688 11.622 11.442 11.374 11.24 11.223 11.056 10.928 10.749 10.629 10.498 10.478 10.375 10.2 10.077 10.046 10.008 9.873 9.839 9.808 9.807 9.758 9.675 9.739 9.371 8.647 8.767 9.259 9.968 11.952 8.265 8.525 8.743 9.069 9.032 9.123 9.418 9.377 9.259 9.427 9.706 9.961 10.175 10.36 10.561 10.795 11.035 11.275 11.559 11.854 12.126 12.464 12.786 13.133 13.458 13.783 14.101 14.367 14.623 14.849 15.062 15.234 15.349 15.403 15.445 15.475 15.527 15.545 15.59 15.597 15.612 15.619 15.628 15.645 15.692 15.694 15.675 15.636 15.558 15.504 15.439 15.385 15.335 15.278 15.246 15.188 15.131 15.075 15.041 15.003 14.982 14.983 14.948 14.908 14.876 14.831 14.78 14.729 14.744 14.726 14.727 14.715 14.746 14.783 14.78 14.846 14.877 14.969 15.079 15.149 15.217 15.309 15.399 15.527 15.582 15.707 15.817 16.269 17.529 16.444 16.102 16.049 15.834 15.547 15.339 14.977 14.764 14.482 14.297 14.009 13.697 13.364 12.734 12.114 11.484 10.929 10.484 9.894 9.479 9.272 8.972 8.737 8.439 8.284 8.142 8.117 7.872 7.574 7.684 7.984 7.992 9.217 10.069 7.702 7.292 7.169 7.369 7.787 7.754 8.099 8.134 8.382 8.717 9.017 9.264 9.584 9.924 10.349 10.759 11.154 11.669 12.484 13.234 14.047 15.092 16.577 17.994 18.677 20.229 21.252 20.792 21.567 22.452 22.624 22.627 22.614 23.472 22.879 24.464 24.009 22.959 22.854 22.959 23.064 23.212 23.349 23.464 23.552 23.672 23.772 23.914 24.114
13.336 12.094 11.721 11.384 11.081 10.791 11.236 11.079 10.391 8.889 8.496 8.504 8.651 8.761 8.441 8.359 8.449 8.329 8.282 8.479 8.292 8.284 8.287 8.247 8.224 8.267 9.032 8.084 8.482 8.899 8.232 8.407 8.217 8.262 8.117 7.924 8.249 7.842 8.382 8.124 7.582 7.302 7.297 7.294 7.324 7.322 7.292 7.289 7.319 7.324 7.274 7.259 7.252 7.267 7.232 7.194 7.159 7.157 7.142 7.134 7.127 7.107 7.104 7.112 7.167 7.174 7.162 7.119 7.152 7.137 7.134 7.117 7.109 7.097 7.132 7.144 7.134 7.149 7.124 7.139 7.097 7.084 7.072 7.074 7.132 7.122 7.372 7.252 7.137 7.087 7.144 7.194 7.219 7.172 7.207 7.197 7.152 7.134 7.172 7.182 7.149 7.237 7.187 7.234 7.277 7.247 7.207 7.237 7.214 7.197 7.092 7.067 6.969 6.982 7.097 7.104 7.132 7.092 7.087 7.119 7.089 7.109 7.002 7.069 7.069 7.087 7.084 7.059 7.079 7.099 7.082 7.087 7.119 7.142 7.139 7.099 7.103 7.071 7.056 7.049 7.002 7.012 7.002 6.986 6.894 6.974 6.99 6.932 6.957 6.968 6.917 6.965 6.935 6.92 6.967 6.972 6.987 6.996 7.002 6.876 6.963 7.01 7.037 7.053 7.008 6.953 6.956 6.975 7.017 6.996 6.946 6.959 6.967 6.961 6.97 6.923 6.911 6.954 6.884 6.835 6.854 6.895 6.951 6.969 6.944 6.933 6.856 6.865 6.814 6.83 6.805 6.82 6.87 6.869 6.897 6.886 6.86 6.87 6.875 6.857 6.82 6.862 6.844 6.805 6.863 6.769 6.778 6.846 6.858 6.79 6.878 6.933 6.978 6.918 6.924 6.916 7.031 7.079 7.114 7.144 6.962 6.615 6.274 5.972 6.077 6.208 6.57 6.755 7.133 7.562 7.295 7.153 7.1 7.284 7.4 7.676 8.134 8.402 8.79 9.475 10.083 10.4 11 11.573 11.952 11.881 11.826 11.576 11.455 11.345 11.256 11.199 11.094 10.861 10.778 10.621 10.461 10.452 10.386 10.276 10.138 10.038 9.979 9.928 9.902 9.903 9.866 9.844 9.791 9.642 9.078 8.479 10.073 10.222 11.201 10.412 8.804 8.834 9.02 9.163 9.182 9.194 9.412 9.329 9.352 9.623 9.786 10.115 10.301 10.427 10.645 10.916 11.141 11.413 11.705 11.983 12.275 12.625 12.966 13.272 13.602 13.904 14.235 14.519 14.797 14.98 15.158 15.308 15.354 15.453 15.475 15.519 15.542 15.572 15.576 15.563 15.588 15.611 15.658 15.637 15.67 15.661 15.648 15.606 15.509 15.46 15.415 15.39 15.313 15.291 15.279 15.216 15.191 15.15 15.141 15.131 15.128 15.107 15.071 15.046 15.009 14.978 14.949 14.964 14.97 14.969 14.977 15.003 15.049 15.072 15.165 15.211 15.322 15.412 15.512 15.604 15.709 15.817 15.962 16.094 16.192 16.264 16.907 20.099 17.352 16.734 16.574 16.492 16.212 16.037 15.527 15.209 14.769 14.534 14.604 14.499 13.974 13.184 12.694 12.182 11.589 11.032 10.537 9.954 9.599 9.234 8.939 8.812 8.584 8.384 8.322 8.069 7.674 7.439 7.527 8.559 9.017 8.104 8.387 7.309 6.932 7.179 7.712 7.942 8.262 8.214 8.512 8.827 9.122 9.379 9.682 10.024 10.447 10.844 11.287 11.892 12.574 13.327 14.117 15.312 17.239 18.064 19.389 20.044 20.964 21.447 22.022 22.987 23.069 22.554 22.794 23.462 22.914 23.117 23.427 23.102 23.057 23.152 23.227 23.372 23.499 23.647 23.742 23.869 23.982 24.097 24.292
13.294 12.736 12.926 12.109 11.599 11.239 11.156 11.616 10.601 8.866 8.729 8.929 8.834 8.744 8.596 8.562 8.504 8.672 8.277 8.247 8.309 8.322 8.264 11.892 8.554 8.224 8.347 8.029 8.159 8.239 8.112 8.282 8.692 8.497 8.302 8.062 8.067 7.912 8.129 8.524 7.804 7.749 7.352 7.342 7.332 7.282 7.279 7.304 7.324 7.289 7.274 7.234 7.222 7.192 7.204 7.187 7.174 7.174 7.129 7.139 7.134 7.109 7.032 7.119 7.144 7.154 7.119 7.159 7.124 7.129 7.129 7.122 7.107 7.147 7.134 7.117 7.144 7.112 7.112 7.147 7.109 7.054 7.069 7.062 7.079 7.097 7.234 7.202 7.147 7.074 7.114 7.089 7.137 7.147 7.117 7.094 7.104 7.147 7.067 7.107 7.152 7.232 7.229 7.232 7.257 7.237 7.229 7.214 7.134 7.072 7.047 6.984 6.992 7.022 7.014 7.039 7.087 7.044 7.034 7.097 7.129 7.094 7.059 6.974 7.019 6.967 6.927 6.969 6.964 6.882 7.059 6.997 7.017 7.052 7.067 7.004 7.01 6.988 7.011 7.026 6.97 6.993 6.973 6.962 6.982 6.989 6.909 6.917 7.043 7.004 7.001 6.978 7.006 7.018 6.98 6.941 6.999 7.028 7.012 6.93 6.986 7.017 7.002 6.98 6.984 7.007 6.991 7.026 7.035 6.995 6.946 6.974 6.952 6.93 6.961 6.943 6.904 6.95 6.942 6.945 6.886 6.921 6.922 6.9 6.866 6.888 6.858 6.809 6.851 6.877 6.861 6.819 6.847 6.828 6.878 6.893 6.86 6.882 6.847 6.869 6.85 6.793 6.82 6.751 6.784 6.776 6.822 6.903 6.966 6.965 6.978 6.929 6.867 6.859 6.864 6.94 7.131 7.246 7.231 7.044 6.548 6.117 6.044 5.896 6.167 6.96 7.395 7.597 7.233 7.018 7.013 7.02 7.096 7.244 7.552 7.945 8.398 8.818 9.625 10.248 10.79 11.05 11.618 11.933 12.062 11.996 11.803 11.743 11.661 11.55 11.46 11.28 11.138 11.053 10.888 10.757 10.655 10.569 10.467 10.339 10.256 10.128 10.071 9.972 9.983 9.997 9.998 9.998 9.947 9.858 9.599 9.286 10.412 10.667 11.713 8.871 9.013 8.938 9.109 9.125 9.203 9.248 9.288 9.397 9.379 9.56 9.738 10.047 10.284 10.355 10.499 10.745 10.988 11.25 11.542 11.843 12.132 12.445 12.792 13.098 13.42 13.753 14.07 14.366 14.652 14.864 15.067 15.241 15.35 15.412 15.477 15.499 15.526 15.547 15.528 15.568 15.576 15.585 15.622 15.607 15.656 15.63 15.661 15.627 15.581 15.507 15.435 15.39 15.377 15.319 15.323 15.319 15.315 15.271 15.27 15.239 15.27 15.245 15.232 15.228 15.206 15.181 15.171 15.163 15.203 15.258 15.284 15.325 15.369 15.402 15.486 15.549 15.702 15.799 15.867 16.017 16.154 16.262 16.407 16.554 16.669 16.749 16.984 18.997 18.397 17.292 17.222 17.037 16.607 16.599 16.309 15.502 15.159 14.932 14.719 14.617 14.077 13.602 13.187 12.812 12.437 11.774 11.189 10.539 10.034 9.439 9.199 8.989 8.747 8.642 8.527 8.154 7.824 7.459 7.764 7.732 7.667 7.412 7.234 7.172 7.309 7.139 7.699 8.747 8.262 8.312 8.614 8.959 9.222 9.464 9.812 10.117 10.532 10.889 11.404 12.232 12.852 13.522 14.279 15.324 16.547 17.747 19.997 20.472 21.419 21.767 22.537 22.874 23.154 22.717 23.079 23.607 23.107 23.144 23.262 23.264 23.227 23.277 23.394 23.512 23.677 23.812 23.919 24.052 24.154 24.297 24.469
14.229 15.841 14.764 12.686 12.169 11.831 11.471 11.226 10.816 10.054 9.799 9.471 9.511 9.466 9.449 9.297 9.072 9.079 8.844 9.042 9.162 9.249 9.407 10.622 9.504 9.459 9.357 8.957 8.692 8.342 8.779 7.957 8.087 8.337 8.087 8.117 8.152 7.934 8.274 8.662 8.457 8.017 7.757 7.412 7.299 7.287 7.274 7.289 7.274 7.229 7.224 7.247 7.254 7.214 7.174 7.179 7.179 7.182 7.109 7.124 7.149 7.147 7.034 7.069 7.104 7.144 7.169 7.142 7.069 7.052 7.054 7.052 7.074 7.072 7.102 7.092 7.054 7.104 7.109 7.094 7.082 6.999 7.014 7.017 7.062 7.062 7.287 7.169 7.267 7.097 7.149 7.079 7.049 7.042 7.107 7.094 7.119 7.102 7.124 7.142 7.029 7.187 7.102 7.159 7.187 7.179 7.137 7.089 7.084 7.057 7.054 6.989 6.934 6.922 6.884 6.897 6.857 6.849 6.847 6.879 6.949 6.934 6.939 6.887 6.832 6.869 6.874 6.907 6.854 6.894 6.974 7.052 7.042 7.039 7.027 7.027 7.046 7.027 6.983 6.933 6.876 6.9 6.823 6.775 6.85 6.82 6.82 6.826 6.893 6.853 6.887 6.877 6.845 6.921 6.872 6.899 6.925 6.946 6.971 6.882 6.94 6.912 7.015 7.053 7.037 7.066 7.019 7.01 7.012 6.985 6.984 6.991 6.981 6.951 6.953 6.997 6.967 6.982 6.934 6.923 6.935 6.914 6.973 6.923 6.899 6.855 6.852 6.852 6.826 6.834 6.862 6.791 6.807 6.85 6.852 6.893 6.911 6.844 6.864 6.838 6.819 6.804 6.788 6.809 6.857 6.829 6.88 6.93 7.101 7.188 6.96 6.871 6.778 6.864 7.113 7.231 7.129 7.135 7.025 6.479 6.039 6.097 6.29 6.692 7.174 7.438 7.308 7.559 7.687 7.176 7.167 7.075 7.183 7.413 7.699 8.141 8.802 9.503 10.108 10.926 11.343 11.388 12.207 12.473 12.266 12.04 11.954 11.926 11.89 11.783 11.506 11.343 11.27 11.171 10.988 10.884 10.735 10.62 10.554 10.441 10.329 10.233 10.146 10.121 10.134 10.174 10.154 10.094 10.061 10.006 9.892 9.764 9.442 9.371 9.247 9.062 9.151 9.154 9.19 9.227 9.297 9.302 9.286 9.376 9.532 9.534 9.768 9.987 10.192 10.325 10.453 10.657 10.845 11.112 11.403 11.684 11.968 12.286 12.592 12.93 13.25 13.571 13.898 14.186 14.452 14.74 14.953 15.116 15.262 15.377 15.428 15.495 15.497 15.536 15.517 15.541 15.557 15.559 15.576 15.588 15.617 15.623 15.648 15.651 15.6 15.573 15.464 15.414 15.399 15.396 15.399 15.42 15.422 15.409 15.406 15.428 15.409 15.401 15.394 15.399 15.385 15.386 15.395 15.438 15.445 15.52 15.608 15.622 15.677 15.743 15.831 15.927 16.067 16.147 16.274 16.414 16.539 16.677 16.807 16.967 17.109 17.254 17.344 17.717 17.769 17.832 17.602 17.457 17.057 16.864 16.627 16.142 15.849 15.434 15.039 14.722 14.449 14.024 13.734 13.377 12.919 12.539 11.869 11.127 10.439 9.764 9.382 9.147 8.944 8.817 8.659 8.372 8.042 7.957 8.737 7.502 7.514 7.849 7.474 7.379 7.607 7.167 7.949 8.682 8.254 8.414 8.709 9.049 9.289 9.584 9.942 10.207 10.639 10.982 11.577 12.354 12.974 13.644 14.454 15.447 17.432 18.397 19.559 20.922 21.529 22.069 22.274 22.744 22.367 22.764 23.074 23.287 23.252 23.232 23.604 23.524 23.402 23.452 23.557 23.667 23.824 23.982 24.087 24.239 24.349 24.494 24.637
14.424 16.194 14.976 12.896 12.424 12.609 11.831 11.511 11.191 10.686 10.581 10.061 9.951 10.071 9.744 9.564 9.294 9.312 9.452 9.924 10.119 10.167 10.727 12.322 10.654 10.429 10.314 10.012 9.694 9.424 9.194 8.694 8.179 7.779 7.802 8.019 8.164 8.069 8.089 8.999 8.822 8.144 8.884 8.617 7.547 7.352 7.349 7.359 7.312 7.237 7.172 7.194 7.227 7.184 7.157 7.164 7.184 7.157 7.112 7.087 7.067 7.117 7.044 7.034 7.089 7.107 7.112 7.112 7.099 7.052 7.037 7.037 7.157 7.072 7.132 7.094 7.079 7.094 7.079 7.082 7.062 6.987 7.039 6.992 7.014 7.017 7.234 7.102 7.124 7.097 7.129 7.044 7.072 7.079 7.017 6.982 7.029 6.987 7.059 7.094 6.972 7.117 7.147 7.122 7.134 7.147 7.067 6.964 6.957 6.922 7.034 6.892 7.022 6.979 6.922 6.972 6.884 6.849 6.872 6.912 6.882 6.899 6.929 6.907 6.887 6.894 6.894 6.897 6.914 6.924 6.962 7.012 7.007 7.037 6.999 6.974 6.967 6.923 6.85 6.845 6.814 6.831 6.798 6.782 6.8 6.824 6.808 6.814 6.85 6.831 6.828 6.788 6.817 6.844 6.854 6.874 6.878 6.953 6.959 6.844 6.91 6.936 7.01 7.038 7.067 7.02 7.035 7.002 6.996 7.023 6.985 6.967 6.894 6.945 7.007 6.957 6.96 6.937 6.941 6.95 6.94 6.935 6.936 6.917 6.874 6.847 6.809 6.788 6.812 6.822 6.795 6.851 6.851 6.909 6.878 6.873 6.872 6.893 6.832 6.854 6.814 6.799 6.83 6.836 6.799 6.845 6.932 7.053 7.094 7.061 6.904 6.936 6.966 6.973 7.125 7.034 7.005 6.764 6.25 6.011 6.053 6.81 7.418 7.394 7.282 7.071 7.16 7.332 7.267 7.401 7.361 7.723 7.453 7.72 8.125 9.094 10.012 10.361 10.959 12.044 11.862 12.715 12.618 12.403 12.293 12.184 12.11 12.118 11.897 11.733 11.573 11.48 11.361 11.197 11.032 10.915 10.759 10.693 10.612 10.528 10.419 10.329 10.259 10.264 10.325 10.272 10.264 10.208 10.165 10.075 10.02 9.83 9.651 9.415 9.283 9.22 9.201 9.3 9.305 9.356 9.423 9.427 9.489 9.647 9.724 9.717 9.826 9.966 10.135 10.291 10.425 10.551 10.739 10.991 11.272 11.552 11.817 12.117 12.42 12.734 13.038 13.38 13.726 14.011 14.275 14.59 14.832 15.006 15.152 15.294 15.384 15.422 15.473 15.496 15.513 15.528 15.51 15.512 15.554 15.555 15.571 15.601 15.617 15.613 15.632 15.613 15.565 15.478 15.463 15.458 15.485 15.519 15.563 15.564 15.581 15.552 15.575 15.568 15.577 15.572 15.554 15.618 15.646 15.693 15.755 15.811 15.898 15.983 16.062 16.138 16.21 16.367 16.464 16.559 16.729 16.852 16.992 17.122 17.259 17.369 17.542 17.699 17.857 17.954 18.024 17.992 18.029 18.114 17.699 17.437 17.232 16.907 16.519 16.002 15.557 15.182 14.977 14.759 14.372 13.749 13.352 13.064 12.342 11.777 10.979 10.312 9.939 9.477 9.107 9.064 8.797 8.542 8.187 8.424 8.447 7.437 7.979 7.797 7.557 7.419 7.407 8.559 8.842 8.367 8.349 8.524 8.819 9.122 9.367 9.662 10.012 10.342 10.884 11.274 11.704 12.437 13.182 14.149 15.279 16.449 18.394 19.284 19.867 21.282 22.037 22.294 22.832 23.704 22.522 23.494 23.219 23.277 23.317 23.429 23.594 23.637 23.597 23.629 23.722 23.837 23.987 24.149 24.262 24.387 24.524 24.682 24.844
13.304 13.396 13.316 12.684 12.384 12.259 11.851 11.671 11.424 11.239 10.994 10.726 10.346 10.376 10.169 10.132 10.094 10.149 10.329 10.854 11.449 13.067 11.582 12.957 11.492 11.074 11.052 10.892 10.572 10.324 10.077 9.767 9.444 8.799 8.167 7.864 7.727 8.174 8.099 8.222 8.324 7.989 8.322 8.742 7.699 7.609 7.479 7.482 7.429 7.294 7.222 7.214 7.234 7.192 7.174 7.174 7.202 7.184 7.119 7.077 7.069 7.049 7.019 6.959 7.037 7.119 7.099 7.077 7.084 7.069 7.107 7.022 7.042 7.037 6.997 7.087 7.044 7.054 7.047 7.052 7.039 7.049 7.094 6.989 6.979 7.019 7.152 7.117 7.174 7.084 7.082 7.057 7.052 7.039 6.984 6.934 6.954 6.947 6.967 6.924 6.979 7.034 7.047 7.067 7.097 7.019 7.002 6.962 7.009 7.157 7.082 6.942 7.179 7.194 7.004 6.919 6.882 6.929 6.977 7.009 6.982 6.902 6.879 6.877 6.902 6.889 6.949 6.909 6.914 6.907 6.884 6.959 7.024 6.999 7.019 6.944 6.998 6.924 6.871 6.844 6.845 6.815 6.8 6.843 6.876 6.828 6.828 6.855 6.834 6.846 6.828 6.841 6.817 6.851 6.842 6.955 6.963 6.925 6.926 6.866 6.975 6.997 7.1 7.074 7.025 7.005 7.06 6.989 6.951 6.96 6.985 6.877 6.865 6.918 6.992 6.9 6.907 6.875 6.952 6.92 6.909 6.936 6.878 6.903 6.833 6.806 6.943 6.915 6.865 6.858 6.854 6.858 6.772 6.828 6.837 6.812 6.843 6.827 6.754 6.785 6.818 6.804 6.816 6.824 6.853 6.88 6.977 7.099 7.178 7.321 7.111 7.118 7.079 6.942 6.778 6.446 6.859 6.568 6.32 6.82 7.112 7.777 7.78 7.24 6.96 6.967 7.65 7.611 7.208 8.075 7.78 7.649 7.789 8.392 8.853 10.115 11.098 11.337 11.714 13.804 14.516 13.488 12.717 12.506 12.511 12.387 12.414 12.328 11.967 11.785 11.69 11.545 11.415 11.241 11.058 10.934 10.902 10.783 10.671 10.617 10.495 10.413 10.331 10.286 10.331 10.36 10.357 10.309 10.261 10.178 10.043 9.85 9.657 9.459 9.425 9.31 9.332 9.376 9.397 9.445 9.543 9.632 9.776 9.743 9.764 9.843 9.913 9.995 10.103 10.275 10.388 10.493 10.698 10.887 11.134 11.449 11.713 11.967 12.23 12.538 12.859 13.194 13.511 13.823 14.123 14.404 14.639 14.861 15.005 15.19 15.227 15.35 15.421 15.446 15.499 15.493 15.497 15.477 15.498 15.519 15.558 15.545 15.605 15.596 15.607 15.628 15.617 15.598 15.543 15.552 15.605 15.606 15.681 15.728 15.738 15.731 15.775 15.776 15.798 15.811 15.845 15.888 15.935 15.968 16.03 16.116 16.218 16.303 16.418 16.501 16.608 16.757 16.864 16.992 17.139 17.264 17.432 17.542 17.669 17.832 17.982 18.124 18.339 18.457 18.502 18.389 18.327 18.407 18.442 19.217 17.919 17.629 17.314 16.797 16.449 15.642 16.309 18.069 17.202 14.607 13.704 13.289 12.874 12.414 11.702 10.987 10.339 9.859 9.387 9.117 8.954 8.737 8.407 9.069 8.532 8.139 9.412 9.199 7.967 7.927 8.364 8.427 8.639 8.334 8.489 8.622 8.934 9.219 9.444 9.774 10.072 10.457 11.024 11.329 11.837 12.684 13.632 14.859 15.694 17.127 19.084 19.474 19.337 20.997 22.189 22.664 23.209 23.867 23.584 23.014 23.274 23.354 23.517 23.594 23.729 23.724 23.752 23.817 23.899 23.964 24.112 24.262 24.409 24.552 24.734 24.862 25.039
13.301 13.006 12.811 12.521 12.234 11.986 11.739 11.489 11.344 11.224 11.244 11.236 10.981 11.056 10.984 10.947 11.219 11.324 11.564 12.649 13.597 13.477 14.397 14.977 12.377 11.932 12.012 11.862 11.607 11.382 11.117 10.639 11.467 9.959 9.284 8.397 7.934 8.077 7.822 8.037 8.109 8.159 8.167 8.082 7.797 8.119 8.262 7.974 7.574 7.464 7.337 7.264 7.237 7.247 7.244 7.224 7.242 7.214 7.192 7.144 7.102 7.127 7.109 6.999 6.987 7.094 7.104 7.159 7.164 7.069 7.059 7.029 7.054 7.037 7.047 7.042 7.029 7.039 7.009 6.984 7.012 7.057 7.079 6.974 6.889 6.874 7.129 7.144 7.117 7.084 7.022 7.062 6.997 6.944 6.924 6.922 6.949 6.939 6.922 7.009 7.027 7.014 7.127 7.149 7.102 7.037 6.979 7.029 7.029 7.012 6.999 7.059 7.139 7.102 7.079 7.039 6.859 6.954 6.927 6.942 6.937 6.934 6.927 6.919 6.919 6.884 6.922 6.959 6.957 6.934 6.907 6.904 7.007 6.947 6.957 6.904 6.872 6.835 6.82 6.832 6.794 6.768 6.775 6.829 6.819 6.836 6.821 6.817 6.806 6.822 6.789 6.815 6.847 6.92 6.875 6.9 6.862 6.936 6.92 6.829 6.938 6.938 6.968 7.018 6.985 6.991 6.945 6.929 6.892 6.924 6.912 6.932 6.9 6.804 6.804 6.814 6.876 6.862 6.847 6.912 6.874 6.822 6.802 6.778 6.727 6.76 6.864 6.843 6.738 6.791 6.837 6.771 6.747 6.766 6.752 6.757 6.796 6.786 6.774 6.817 6.892 6.83 6.905 6.924 7.023 7.099 7.135 7.145 7.21 7.245 7.213 7.034 6.796 6.589 6.174 6.11 7.493 7.628 7.315 7.788 7.588 7.386 7.272 6.915 6.941 7.046 7.789 7.653 7.391 7.602 7.918 7.956 8.288 9.246 10.011 11.207 11.522 13.599 15.055 13.724 14.426 13.177 12.83 12.769 12.684 12.59 12.63 12.4 12.106 11.923 11.771 11.624 11.486 11.332 11.145 11.027 10.957 10.808 10.764 10.701 10.656 10.52 10.472 10.384 10.432 10.497 10.446 10.395 10.339 10.228 10.054 9.81 9.794 9.739 9.542 9.565 9.67 9.614 9.604 9.635 9.649 9.707 9.706 9.765 9.815 9.927 9.936 10.065 10.115 10.22 10.383 10.482 10.66 10.841 11.021 11.285 11.582 11.858 12.11 12.39 12.694 13.004 13.31 13.622 13.935 14.245 14.469 14.672 14.909 15.061 15.085 15.267 15.322 15.377 15.451 15.451 15.447 15.456 15.472 15.491 15.509 15.518 15.569 15.594 15.589 15.638 15.654 15.673 15.661 15.675 15.713 15.782 15.836 15.915 15.912 15.92 15.986 16.013 16.01 16.077 16.118 16.189 16.243 16.322 16.347 16.432 16.524 16.635 16.746 16.817 16.92 17.177 17.302 17.444 17.599 17.739 17.877 18.027 18.162 18.287 18.434 18.567 18.729 18.942 19.059 19.082 18.884 18.792 18.744 18.704 18.514 18.194 17.889 17.529 17.177 18.132 18.169 21.674 22.662 19.029 14.482 13.889 13.347 12.804 12.327 11.709 10.934 10.319 9.812 9.432 9.109 8.914 8.657 8.442 8.277 8.252 9.899 9.734 8.489 7.572 7.667 8.072 8.589 8.419 8.549 8.759 9.054 9.302 9.559 9.879 10.182 10.562 13.064 12.459 11.939 12.864 14.059 15.499 16.224 17.404 18.659 19.242 19.767 21.314 21.774 22.339 22.894 23.372 23.072 23.189 23.344 23.444 23.627 23.727 23.917 23.842 23.942 23.982 24.037 24.102 24.289 24.419 24.587 24.752 24.937 25.084 25.224
13.359 13.094 12.799 12.544 12.259 12.026 11.761 11.514 11.384 11.266 11.191 11.176 11.164 11.169 11.169 11.284 11.582 11.922 12.629 13.019 13.754 14.299 15.112 14.124 14.132 13.647 14.387 14.772 12.702 12.274 12.214 12.044 12.554 10.842 10.062 9.712 9.004 8.189 7.822 7.699 7.992 8.064 8.192 7.932 7.919 8.099 8.467 8.252 7.924 7.642 7.692 7.282 7.282 7.262 7.262 7.207 7.209 7.229 7.204 7.194 7.162 7.144 7.322 7.142 7.014 7.077 7.107 7.187 7.097 7.072 7.017 7.012 7.067 7.057 7.074 7.067 7.047 7.052 7.004 6.997 7.029 7.062 7.027 6.909 6.817 7.047 7.214 7.152 7.087 7.077 6.964 6.919 7.012 6.957 7.519 6.967 6.994 7.002 6.949 7.182 7.127 7.017 7.062 7.067 6.999 7.017 7.122 7.059 7.027 6.917 6.947 7.034 7.087 6.929 6.989 6.947 6.932 6.989 6.984 6.969 6.932 6.969 6.969 6.887 6.927 7.037 6.982 6.932 6.909 6.952 6.927 6.922 7.027 6.969 6.932 6.859 6.829 6.813 6.785 6.74 6.776 6.783 6.817 6.866 6.879 6.86 6.852 6.842 6.851 6.803 6.806 6.835 6.865 6.825 6.834 6.818 6.802 6.81 6.826 6.776 6.841 6.874 6.828 6.798 6.789 6.826 6.788 6.779 6.731 6.753 6.775 6.802 6.757 6.701 6.736 6.786 6.87 6.892 6.85 6.937 6.953 6.891 6.84 6.798 6.793 6.777 6.797 6.807 6.825 6.81 6.84 6.772 6.792 6.821 6.871 6.814 6.818 6.864 6.809 6.775 6.84 6.872 6.985 7.13 7.191 7.199 7.218 7.227 7.186 7.144 6.894 6.602 6.988 6.459 6.049 6.433 6.882 7.578 7.587 7.565 7.201 7.057 7.123 7.01 7.031 7.042 7.609 7.655 8.132 7.742 7.884 8.327 8.784 9.931 14.227 17.096 12.341 15.255 16.39 15.607 13.789 13.096 13.056 12.986 12.88 12.874 12.836 12.419 12.23 12.071 11.919 11.712 11.589 11.483 11.219 11.122 11.001 10.949 10.821 10.832 10.827 10.663 10.592 10.537 10.579 10.521 10.516 10.46 10.4 10.27 10.247 10.034 9.832 9.789 9.996 9.753 9.825 9.848 9.697 9.67 9.663 9.723 9.732 9.787 9.877 9.953 10.06 10.084 10.136 10.238 10.411 10.506 10.629 10.808 11.002 11.212 11.419 11.701 11.994 12.255 12.542 12.849 13.127 13.44 13.743 14.025 14.253 14.468 14.719 14.936 14.998 15.174 15.209 15.298 15.372 15.372 15.4 15.447 15.445 15.48 15.497 15.495 15.532 15.562 15.614 15.648 15.707 15.732 15.799 15.833 15.868 15.898 15.975 16.06 16.12 16.114 16.177 16.237 16.294 16.346 16.39 16.503 16.583 16.652 16.734 16.794 16.908 17.022 17.106 17.224 17.363 17.579 17.772 17.902 18.074 18.179 18.319 18.474 18.629 18.747 18.892 19.047 19.182 19.387 19.549 19.727 19.989 20.159 19.577 19.034 19.004 18.802 18.372 17.997 17.759 18.387 17.864 22.339 22.209 18.747 15.384 14.372 13.842 13.364 12.857 12.234 11.427 10.652 10.317 9.807 9.204 8.989 8.809 8.572 8.249 8.397 9.287 9.164 8.249 7.814 8.077 8.152 8.814 8.589 8.712 8.907 9.199 9.417 9.679 9.954 10.247 10.682 13.307 12.997 12.039 12.794 14.339 15.474 16.054 17.784 18.209 19.332 19.934 21.004 22.519 23.254 23.589 23.909 24.912 24.384 23.449 23.584 23.709 23.849 24.119 24.004 24.109 24.169 24.187 24.249 24.417 24.594 24.779 24.957 25.124 25.272 25.414
13.501 13.204 12.994 12.726 12.429 12.176 11.949 11.729 11.574 11.376 11.271 11.199 11.139 11.154 11.209 11.262 11.389 11.677 12.167 12.722 13.244 13.997 14.674 14.604 15.759 14.362 14.372 14.782 13.912 13.302 13.082 12.572 12.067 11.549 10.964 10.662 10.914 9.199 8.572 8.717 7.917 7.757 7.899 8.427 8.144 8.024 8.037 8.042 8.127 8.089 8.497 8.182 7.377 7.302 7.242 7.269 7.234 7.217 7.219 7.194 7.149 7.162 7.117 7.094 7.067 7.069 7.097 7.084 7.072 7.064 7.077 7.022 6.997 7.039 7.067 7.064 7.052 7.052 7.042 7.002 6.997 7.004 6.992 6.922 6.807 6.944 7.227 7.167 7.097 6.962 6.912 6.904 6.924 6.947 7.994 7.504 6.994 7.012 6.999 6.987 6.954 7.079 7.044 7.067 6.997 7.034 7.087 6.957 6.984 7.034 6.959 6.962 7.017 6.962 7.034 6.972 7.032 7.004 6.969 6.939 6.937 6.952 6.897 6.967 6.939 6.947 6.879 6.864 6.917 6.882 6.862 6.869 6.877 6.862 6.829 6.897 6.936 6.829 6.827 6.854 6.87 6.831 6.848 6.856 6.857 6.844 6.847 6.881 6.86 6.843 6.891 6.841 6.844 6.811 6.821 6.738 6.774 6.778 6.866 6.794 6.813 6.791 6.774 6.776 6.781 6.754 6.793 6.793 6.776 6.829 6.868 6.898 6.813 6.807 6.752 6.753 6.804 6.809 6.871 6.931 6.932 6.9 6.83 6.759 6.833 6.78 6.774 6.769 6.811 6.819 6.815 6.801 6.825 6.843 6.877 6.855 6.95 6.987 6.887 6.86 6.79 6.854 6.997 7.216 7.299 7.251 7.236 7.208 7.011 6.789 6.39 6.38 7.075 6.324 6.928 7.475 7.531 7.42 7.166 7.075 7.117 7.224 7.268 7.15 7.176 7.233 7.653 7.712 7.844 8.054 8.286 8.797 9.661 12.674 12.886 17.327 13.006 13.316 14.295 14.217 13.586 13.354 13.332 13.281 13.195 13.099 12.702 12.528 12.389 12.189 12.01 11.92 11.67 11.564 11.295 11.251 11.111 11.052 10.904 10.944 10.865 10.757 10.733 10.637 10.595 10.613 10.6 10.535 10.488 10.346 10.388 10.226 10.108 9.957 9.918 9.836 9.767 9.736 9.776 9.708 9.71 9.757 9.796 9.835 9.891 10.004 10.094 10.165 10.203 10.297 10.44 10.519 10.63 10.773 10.952 11.072 11.299 11.576 11.862 12.166 12.442 12.734 12.98 13.247 13.537 13.805 14.052 14.309 14.521 14.79 14.916 15.009 15.137 15.223 15.284 15.338 15.373 15.376 15.422 15.452 15.477 15.473 15.535 15.54 15.623 15.685 15.75 15.826 15.911 15.995 16.05 16.076 16.15 16.242 16.332 16.363 16.398 16.505 16.562 16.653 16.715 16.81 16.899 16.994 17.094 17.194 17.334 17.391 17.511 17.652 17.829 18.004 18.179 18.387 18.554 18.654 18.769 18.937 19.089 19.224 19.362 19.522 19.649 19.802 19.964 20.152 20.402 20.989 21.667 20.842 19.342 19.199 18.964 18.544 18.029 17.557 17.649 19.619 18.267 15.959 14.992 14.524 14.302 14.184 13.784 12.709 11.819 11.144 10.579 9.914 9.427 9.052 8.919 8.654 8.557 8.929 8.459 8.107 7.974 8.089 12.312 9.779 8.619 8.742 8.842 9.072 9.327 9.499 9.779 10.064 10.344 10.754 11.097 11.592 12.227 12.907 13.954 15.919 16.864 17.569 18.747 19.934 20.229 21.137 22.249 22.984 23.519 23.109 24.169 23.427 23.507 23.654 23.847 23.949 24.162 24.152 24.237 24.309 24.364 24.434 24.562 24.727 24.924 25.099 25.269 25.414 25.594
13.606 13.389 13.106 12.879 12.616 12.389 12.121 11.919 11.776 11.569 11.474 11.319 11.299 11.301 11.321 11.394 11.504 11.692 11.984 12.289 12.624 12.932 13.334 13.662 13.889 14.334 14.717 14.517 14.362 14.049 13.637 13.144 12.789 12.297 11.747 11.239 10.884 10.034 9.462 9.037 8.559 8.092 7.734 7.694 8.074 7.852 7.989 8.227 7.929 7.867 8.082 8.232 7.749 7.474 7.389 7.314 7.249 7.239 7.272 7.297 7.219 7.107 7.009 6.997 6.977 7.004 6.987 6.987 7.022 7.102 7.174 7.044 7.032 6.964 6.994 7.004 7.024 7.049 7.059 7.044 6.999 7.019 7.027 6.902 6.829 6.829 7.447 7.204 7.082 6.922 6.919 6.914 6.844 6.887 7.402 7.584 6.944 7.017 7.062 6.999 7.042 7.024 7.077 6.959 7.052 7.059 7.034 6.939 6.954 6.962 6.949 6.994 7.037 7.029 7.012 6.974 6.929 6.912 6.912 6.919 6.934 6.887 6.937 6.964 6.964 6.992 6.862 6.874 6.919 6.942 6.912 6.904 6.867 6.904 6.849 6.874 6.859 6.841 6.858 6.83 6.983 6.86 6.894 6.839 6.812 6.814 6.862 6.865 6.875 6.838 6.827 6.795 6.831 6.811 6.795 6.774 6.768 6.738 6.789 6.765 6.743 6.737 6.779 6.802 6.759 6.718 6.74 6.744 6.782 6.705 6.716 6.763 6.798 6.794 6.782 6.787 6.747 6.71 6.817 6.872 6.847 6.812 6.837 6.777 6.77 6.777 6.867 6.852 6.877 6.802 6.772 6.797 6.802 6.832 6.877 6.93 6.968 6.98 7.093 7.169 6.975 6.822 6.9 7.04 7.172 7.152 7.062 6.859 6.431 6.5 6.411 6.502 6.89 7.434 7.617 7.435 7.115 7.084 7.02 7.117 7.223 7.298 7.376 7.368 7.434 7.597 7.767 8.403 8.221 8.536 8.986 10.125 10.606 12.756 12.91 14.072 14.373 14.597 14.865 14.422 13.76 13.504 13.441 13.474 13.441 13.139 12.813 12.721 12.569 12.376 12.238 12.026 11.777 11.534 11.374 11.286 11.207 11.13 10.953 10.929 10.881 10.891 10.819 10.807 10.724 10.679 10.729 10.624 10.603 10.532 10.494 10.304 10.092 10.025 9.955 9.912 9.874 9.794 9.774 9.77 9.767 9.804 9.852 9.922 9.972 10.074 10.121 10.256 10.305 10.364 10.389 10.548 10.615 10.754 10.928 11.051 11.254 11.479 11.734 12.032 12.308 12.567 12.832 13.071 13.359 13.615 13.888 14.123 14.341 14.587 14.762 14.89 15.03 15.128 15.201 15.269 15.317 15.346 15.384 15.417 15.429 15.486 15.522 15.577 15.656 15.736 15.817 15.924 16.039 16.153 16.236 16.298 16.349 16.431 16.516 16.605 16.66 16.739 16.831 16.954 17.043 17.162 17.272 17.382 17.495 17.606 17.734 17.84 17.964 18.102 18.274 18.492 18.609 18.829 19.019 19.117 19.229 19.414 19.534 19.699 19.832 19.979 20.094 20.207 20.364 20.509 20.702 20.947 21.362 20.784 20.057 19.737 19.542 19.154 18.657 18.104 17.532 17.042 16.627 16.512 15.469 16.857 15.187 15.484 15.192 13.407 12.134 11.484 10.839 10.299 9.782 9.312 9.012 8.829 8.654 8.519 8.697 8.249 8.274 8.382 11.469 9.784 8.689 8.877 9.022 9.242 9.459 9.654 9.869 10.149 10.444 10.834 11.184 11.674 12.499 13.299 14.937 15.392 16.402 17.557 18.599 20.032 20.747 21.424 22.322 23.104 23.154 24.089 23.694 23.484 23.627 23.739 24.014 24.139 24.249 24.254 24.364 24.472 24.534 24.627 24.724 24.837 25.037 25.247 25.429 25.579 25.719
13.664 13.429 13.201 12.966 12.784 12.556 12.326 12.119 11.904 11.789 11.601 11.459 11.501 11.529 11.556 11.642 11.762 11.947 12.187 12.397 12.639 12.879 13.184 13.442 13.689 13.904 14.192 14.559 14.794 14.774 14.622 14.057 13.439 13.064 12.704 12.137 11.489 10.864 10.372 10.792 10.354 9.292 8.829 7.839 7.624 7.554 7.579 7.769 7.817 7.984 8.077 8.304 7.997 7.737 7.497 7.584 7.342 7.304 7.309 7.329 7.284 7.229 7.132 7.087 7.062 7.072 7.049 7.047 7.169 7.179 7.067 7.092 6.914 7.127 7.039 6.984 7.099 7.052 6.994 7.007 6.987 6.944 6.947 6.867 6.794 6.984 7.821 7.167 7.104 6.982 7.062 6.977 6.962 7.022 7.112 6.937 6.962 6.909 7.067 6.979 6.932 7.022 6.994 6.989 6.964 6.992 7.004 7.014 7.084 7.024 7.034 7.032 6.999 7.099 7.059 7.064 6.967 6.914 6.892 6.942 6.972 6.912 7.004 6.952 6.854 6.924 6.859 6.827 6.869 6.917 6.919 6.939 6.899 6.884 6.914 6.9 6.845 6.883 6.925 6.996 6.96 6.978 6.927 6.856 6.884 6.849 6.907 6.871 6.843 6.858 6.814 6.834 6.817 6.797 6.738 6.746 6.77 6.697 6.776 6.727 6.764 6.778 6.719 6.808 6.827 6.755 6.741 6.739 6.779 6.765 6.732 6.777 6.815 6.813 6.801 6.775 6.769 6.857 6.816 6.809 6.863 6.796 6.787 6.813 6.798 6.808 6.829 6.882 6.898 6.903 6.789 6.846 6.792 6.848 6.866 6.951 7.086 7.239 7.421 7.406 7.339 7.08 6.745 6.776 6.977 6.818 6.56 6.368 6.358 6.326 6.68 7.268 7.613 7.426 7.162 7.059 7.011 6.938 7.14 7.187 7.303 7.35 7.592 7.638 7.779 7.878 8.198 8.819 8.903 9.24 10.475 14.586 13.548 14.743 15.611 18.119 17.533 16.645 15.875 14.28 13.794 13.698 13.715 13.746 13.616 13.216 13.043 12.916 12.732 12.536 12.371 12.092 11.874 11.655 11.429 11.374 11.324 11.19 11.158 11.017 11.022 10.974 10.969 10.863 10.809 10.83 10.835 10.775 10.735 10.554 10.448 10.33 10.251 10.174 10.103 10.018 9.941 9.874 9.829 9.842 9.852 9.866 9.905 10 10.061 10.124 10.216 10.341 10.415 10.406 10.441 10.561 10.644 10.753 10.937 11.05 11.214 11.397 11.644 11.904 12.172 12.409 12.694 12.97 13.189 13.459 13.727 13.956 14.159 14.394 14.609 14.724 14.859 14.992 15.077 15.185 15.252 15.294 15.332 15.378 15.397 15.452 15.531 15.604 15.72 15.814 15.961 16.037 16.174 16.302 16.421 16.55 16.601 16.653 16.748 16.868 16.917 17.038 17.151 17.267 17.386 17.508 17.649 17.79 17.909 18.047 18.177 18.296 18.421 18.556 18.714 18.892 19.049 19.259 19.422 19.577 19.687 19.857 19.987 20.157 20.287 20.412 20.542 20.617 20.749 20.864 20.989 21.162 21.262 21.499 20.682 20.262 20.077 19.657 19.174 18.637 18.104 17.579 16.962 16.457 15.824 16.319 15.647 16.074 15.867 14.627 12.617 11.954 11.192 10.587 9.979 9.372 9.127 8.914 8.742 8.507 8.402 8.329 8.284 8.897 12.292 8.772 8.902 9.074 9.197 9.424 9.612 9.802 9.987 10.252 10.522 10.884 11.267 11.769 12.987 13.527 15.619 15.474 16.454 17.929 18.742 19.499 20.364 21.462 22.274 22.449 23.064 23.647 23.902 23.507 23.787 23.874 24.057 24.232 24.352 24.377 24.487 24.647 24.737 24.812 24.877 24.997 25.192 25.374 25.524 25.719 25.869
13.766 13.551 13.264 13.084 12.841 12.629 12.431 12.259 12.064 11.949 11.789 11.689 11.719 11.751 11.809 11.919 12.037 12.187 12.422 12.627 12.849 13.069 13.324 13.589 13.822 14.017 14.174 14.407 14.637 14.874 15.032 14.802 14.492 14.237 13.589 13.004 12.307 11.792 11.379 11.107 10.714 10.277 10.082 8.742 8.077 8.102 7.917 7.762 7.622 7.614 7.492 7.939 7.837 7.644 7.504 7.607 7.359 7.409 7.332 7.382 7.354 7.297 7.349 7.384 7.354 7.317 7.262 7.477 7.172 7.147 7.099 7.144 6.949 6.987 6.977 6.949 6.917 6.989 6.974 7.007 6.984 6.974 6.877 6.809 6.812 6.944 7.679 7.147 7.104 7.107 7.569 7.369 6.952 6.967 7.189 7.127 7.067 6.999 6.959 6.999 6.999 6.999 7.047 6.924 6.904 7.002 6.974 7.029 7.057 7.069 7.087 7.107 6.984 7.017 7.047 7.029 6.974 6.969 6.884 6.932 6.987 7.009 6.887 6.832 6.829 6.862 6.824 6.844 6.862 6.907 6.844 6.872 6.967 6.897 6.892 6.884 6.848 6.845 6.958 6.938 6.906 6.938 6.963 6.891 6.899 6.887 6.866 6.872 6.861 6.827 6.85 6.849 6.817 6.815 6.75 6.762 6.802 6.712 6.719 6.702 6.722 6.718 6.738 6.69 6.758 6.751 6.766 6.732 6.805 6.686 6.751 6.769 6.837 6.883 6.82 6.818 6.802 6.802 6.839 6.827 6.763 6.785 6.78 6.836 6.797 6.811 6.767 6.799 6.825 6.753 6.783 6.916 6.869 6.906 7.053 7.145 7.369 7.446 7.544 7.485 7.452 7.286 6.901 6.578 6.557 6.411 6.547 6.499 6.458 6.971 7.54 7.51 7.239 6.962 6.969 6.986 7.091 7.087 7.106 7.226 7.392 7.609 7.874 7.964 8.537 8.586 9.186 10.152 10.691 10.45 11.118 16.419 18.972 19.085 15.796 15.211 14.28 14.559 14.267 14.117 14.076 13.972 13.893 13.9 13.7 13.447 13.264 13.013 12.875 12.673 12.408 12.188 11.983 11.8 11.598 11.49 11.394 11.366 11.307 11.234 11.16 11.111 11.066 11.004 10.905 10.864 10.856 10.822 10.68 10.651 10.575 10.493 10.366 10.309 10.213 10.146 10.075 10.038 10.012 9.985 9.95 9.946 9.971 10.016 10.085 10.198 10.249 10.373 10.436 10.45 10.482 10.551 10.658 10.759 10.937 11.08 11.233 11.41 11.589 11.84 12.068 12.322 12.576 12.836 13.043 13.275 13.562 13.802 14.001 14.225 14.449 14.604 14.736 14.841 14.969 15.079 15.182 15.241 15.286 15.344 15.407 15.455 15.559 15.679 15.817 15.942 16.072 16.21 16.332 16.486 16.632 16.77 16.867 16.936 16.991 17.154 17.26 17.365 17.504 17.616 17.751 17.909 18.058 18.192 18.364 18.488 18.617 18.758 18.868 19.018 19.167 19.362 19.484 19.644 19.829 20.012 20.164 20.324 20.444 20.582 20.762 20.874 20.974 21.054 21.132 21.222 21.284 21.347 21.434 21.319 21.294 21.167 20.412 20.134 19.722 19.109 18.604 18.124 17.454 16.827 16.269 15.809 15.402 15.687 15.384 15.344 14.444 13.504 11.847 10.894 10.214 9.584 9.337 9.059 10.174 10.784 8.487 9.032 8.614 8.609 9.089 8.912 9.162 9.279 9.442 9.589 9.742 9.949 10.149 10.344 10.594 10.924 11.337 11.802 13.689 13.487 15.497 15.452 16.909 18.027 18.737 19.807 20.482 21.712 22.544 22.947 23.094 24.162 24.014 23.704 23.964 23.974 24.162 24.284 24.457 24.524 24.649 24.772 24.877 24.954 25.042 25.117 25.347 25.509 25.654 25.854 26.027
13.856 13.631 13.381 13.221 12.994 12.731 12.534 12.339 12.176 12.069 11.911 11.851 11.906 11.996 12.069 12.189 12.307 12.482 12.652 12.839 13.057 13.292 13.539 13.739 13.959 14.144 14.297 14.394 14.499 14.689 14.924 15.064 15.119 15.267 14.987 14.109 13.379 12.732 12.337 11.914 11.424 10.934 10.897 9.784 9.937 8.984 8.762 8.304 8.109 7.889 7.982 7.667 7.327 7.382 7.287 7.329 7.299 7.457 7.482 7.412 7.452 7.402 7.512 7.997 7.399 7.407 7.412 7.429 7.229 7.127 7.149 7.102 7.057 7.007 7.044 7.037 6.939 6.924 6.997 6.962 7.107 7.092 6.974 6.832 6.762 7.327 7.264 7.112 7.324 6.947 6.932 7.144 7.052 7.009 6.899 6.899 6.892 6.952 6.882 6.974 7.049 7.032 7.172 6.969 6.989 6.967 6.937 6.992 7.094 7.089 7.042 6.982 6.972 6.972 7.029 7.009 6.904 6.982 6.947 7.014 6.934 6.854 6.819 6.902 6.899 7.044 6.879 6.902 6.859 6.857 6.882 6.937 6.884 6.852 6.847 6.857 6.81 6.792 6.915 7.009 6.963 6.852 6.932 6.909 6.957 6.979 6.99 6.966 6.886 6.921 6.849 6.914 6.839 6.8 6.758 6.756 6.756 6.788 6.728 6.737 6.719 6.699 6.712 6.696 6.717 6.774 6.77 6.759 6.782 6.757 6.777 6.816 6.756 6.738 6.758 6.754 6.758 6.741 6.728 6.766 6.75 6.777 6.784 6.804 6.785 6.774 6.804 6.823 6.843 6.799 6.831 6.94 6.976 7.114 7.328 7.393 7.529 7.523 7.577 7.512 7.347 7.131 6.787 6.294 6.179 6.241 6.543 6.868 7.413 7.401 7.171 7.016 6.936 6.999 7.12 7.076 7.116 7.161 7.196 7.376 7.848 8.115 8.243 8.475 11.049 11.014 10.802 12.685 12.797 12.847 12.189 17.378 21.897 16.212 15.796 15.44 14.785 14.71 14.533 14.415 14.415 14.246 14.137 13.988 13.758 13.576 13.39 13.166 12.95 12.763 12.476 12.307 12.053 11.888 11.749 11.61 11.532 11.537 11.406 11.383 11.242 11.223 11.128 11.077 10.984 10.944 10.904 10.867 10.844 10.778 10.738 10.68 10.589 10.513 10.397 10.347 10.287 10.237 10.165 10.103 10.117 10.09 10.113 10.115 10.169 10.23 10.319 10.387 10.476 10.482 10.47 10.563 10.713 10.806 10.923 11.104 11.224 11.395 11.58 11.737 11.966 12.247 12.495 12.76 12.944 13.133 13.397 13.623 13.851 14.065 14.278 14.458 14.589 14.74 14.862 14.966 15.063 15.171 15.238 15.316 15.401 15.492 15.631 15.777 15.906 16.067 16.213 16.345 16.485 16.659 16.795 16.948 17.101 17.205 17.306 17.409 17.572 17.675 17.872 17.993 18.176 18.341 18.483 18.635 18.776 18.935 19.062 19.197 19.355 19.495 19.614 19.762 19.934 20.112 20.277 20.434 20.604 20.777 20.879 21.022 21.172 21.294 21.364 21.452 21.497 21.532 21.589 21.619 21.654 21.667 21.704 21.614 20.827 20.504 20.124 19.604 19.019 18.477 17.959 17.209 16.537 15.997 15.362 14.719 14.164 13.917 14.237 15.142 12.119 11.199 10.482 9.964 9.469 9.124 10.217 9.337 9.034 8.657 9.704 8.657 8.962 9.207 9.384 9.532 9.732 9.822 9.887 10.059 10.254 10.499 10.707 10.982 11.364 11.844 14.287 14.022 14.764 15.727 16.932 17.499 18.457 19.972 20.704 22.024 22.924 23.254 23.362 23.312 23.492 23.749 24.082 24.194 24.307 24.462 24.844 24.639 24.772 24.862 24.982 25.089 25.172 25.264 25.454 25.639 25.807 25.997 26.167
13.954 13.744 13.501 13.304 13.084 12.891 12.651 12.494 12.309 12.194 12.066 11.996 12.071 12.164 12.249 12.364 12.514 12.667 12.847 13.054 13.279 13.537 13.734 13.937 14.117 14.294 14.442 14.529 14.584 14.694 14.792 15.029 15.184 15.309 15.479 15.099 14.512 13.867 13.394 12.932 12.374 12.097 11.442 10.917 10.974 10.532 10.174 9.239 8.849 8.617 8.334 7.919 7.787 7.639 7.727 7.524 7.409 7.274 7.249 7.234 7.392 7.384 7.404 7.922 7.532 7.374 7.309 7.259 7.214 7.234 7.242 7.229 7.114 7.087 7.139 7.109 7.044 7.027 7.022 7.042 7.087 7.134 7.004 6.912 6.822 7.407 7.199 7.187 7.267 7.952 6.984 7.344 7.117 7.579 8.474 7.454 6.942 6.942 6.887 6.879 6.947 6.959 7.039 6.922 6.902 6.904 6.949 7.059 7.049 7.034 7.054 7.027 7.047 7.037 7.012 6.934 6.889 6.907 6.942 6.917 6.869 6.882 6.932 7.032 6.922 6.864 6.844 6.862 6.832 6.839 6.819 6.929 6.842 6.932 6.854 6.862 6.844 6.843 6.865 6.876 6.924 6.926 6.942 6.869 6.866 6.927 6.945 6.864 7.003 6.893 6.885 6.932 6.982 6.873 6.746 6.738 6.772 6.753 6.701 6.74 6.692 6.669 6.769 6.727 6.768 6.837 6.748 6.839 6.792 6.789 6.77 6.767 6.719 6.729 6.713 6.746 6.705 6.797 6.767 6.782 6.801 6.791 6.8 6.835 6.829 6.833 6.815 6.899 6.948 7.089 7.009 7.107 7.144 7.314 7.408 7.519 7.524 7.576 7.475 7.246 6.891 6.527 6.222 6.192 6.304 6.945 7.447 7.546 7.284 7.014 7.011 7.077 7.122 7.346 7.381 7.256 7.316 7.334 7.496 7.976 8.508 8.465 8.485 9.01 10.314 10.667 11.485 14.051 13.367 13.299 13.294 13.985 17.075 18.848 17.461 15.855 14.859 14.95 14.748 14.591 14.44 14.4 14.205 14.07 13.889 13.735 13.482 13.274 13.155 12.885 12.612 12.418 12.234 12.091 11.907 11.809 11.734 11.64 11.456 11.389 11.321 11.258 11.17 11.083 11.045 10.993 10.985 10.969 10.947 10.92 10.909 10.873 10.826 10.732 10.629 10.575 10.475 10.396 10.317 10.304 10.251 10.23 10.283 10.278 10.294 10.353 10.408 10.465 10.529 10.593 10.565 10.547 10.689 10.899 10.992 11.151 11.282 11.401 11.55 11.715 11.945 12.175 12.427 12.65 12.86 13.044 13.268 13.508 13.719 13.899 14.132 14.348 14.495 14.63 14.758 14.856 14.982 15.085 15.18 15.293 15.443 15.565 15.707 15.865 16.043 16.198 16.37 16.533 16.688 16.826 16.978 17.148 17.34 17.5 17.655 17.775 17.913 18.072 18.244 18.402 18.602 18.782 18.954 19.078 19.226 19.38 19.528 19.66 19.791 19.951 20.089 20.207 20.397 20.559 20.697 20.869 21.037 21.172 21.324 21.439 21.547 21.682 21.737 21.799 21.832 21.852 21.847 21.879 21.892 21.909 21.829 22.024 21.674 20.799 20.409 19.924 19.449 18.887 18.349 17.662 16.914 16.299 15.632 14.974 14.349 14.237 14.089 14.144 12.219 11.357 10.669 10.139 9.607 9.174 10.292 10.344 9.619 8.727 8.749 9.069 9.309 9.489 9.632 9.797 10.072 10.137 10.079 10.232 10.409 10.622 10.814 11.137 11.542 11.939 13.072 13.754 14.409 15.504 16.777 17.482 18.882 19.739 20.447 21.862 22.869 23.469 23.074 23.392 23.734 23.842 24.139 24.352 24.499 24.549 24.839 24.787 24.877 25.004 25.112 25.249 25.332 25.384 25.517 25.747 25.947 26.114 26.304
13.989 13.819 13.579 13.384 13.184 12.989 12.769 12.601 12.446 12.326 12.214 12.144 12.196 12.306 12.424 12.554 12.672 12.829 13.009 13.229 13.447 13.677 13.897 14.102 14.267 14.447 14.564 14.709 14.762 14.832 14.872 14.952 15.034 15.207 15.414 15.492 15.127 14.799 14.584 14.087 13.339 12.702 12.047 11.682 11.362 11.077 10.994 10.434 9.942 9.572 9.199 8.727 8.584 8.307 8.024 7.827 7.767 7.752 7.672 7.377 7.427 7.192 7.172 7.112 7.272 7.332 7.354 7.344 7.337 7.307 7.354 7.314 7.302 7.287 7.279 7.244 7.189 7.134 7.097 7.159 7.159 7.134 7.092 6.989 6.887 7.034 7.264 7.224 7.297 6.957 6.912 7.197 7.014 7.359 7.192 7.229 7.132 7.257 7.362 7.314 7.119 7.124 7.012 6.914 6.947 6.982 6.957 7.034 7.024 6.994 7.017 7.002 6.967 6.949 6.957 6.904 6.892 6.904 6.977 6.929 6.862 6.902 6.922 7.032 7.019 6.859 6.832 6.867 6.799 6.814 6.794 6.832 6.864 6.944 6.875 6.841 6.903 6.827 6.936 6.87 6.889 6.84 6.896 6.852 6.869 6.819 6.873 6.999 6.972 6.876 6.885 6.876 6.883 6.807 6.809 6.763 6.783 6.777 6.67 6.669 6.695 6.664 6.781 6.675 6.723 6.706 6.79 6.745 6.704 6.753 6.776 6.779 6.767 6.765 6.76 6.765 6.787 6.801 6.784 6.752 6.882 6.94 6.875 6.924 6.913 7.06 7.093 7.143 7.183 7.223 7.217 7.222 7.293 7.364 7.469 7.44 7.431 7.374 7.051 6.642 6.237 6.266 6.358 6.557 6.988 7.624 7.613 7.16 6.949 6.946 7.11 7.249 7.586 7.898 7.942 7.68 8.368 7.877 8.053 8.481 8.779 8.939 9.36 9.823 10.346 11.603 16.174 13.462 14.834 17.093 16.943 14.417 15.454 16.189 15.636 15.428 14.982 15.149 15.176 14.807 14.681 14.454 14.367 14.226 14.07 13.838 13.563 13.352 13.267 13.007 12.737 12.502 12.352 12.22 12.063 11.903 11.793 11.671 11.568 11.494 11.37 11.332 11.245 11.2 11.155 11.087 11.082 11.097 11.101 11.089 11.054 11.026 10.962 10.893 10.832 10.757 10.695 10.608 10.534 10.488 10.446 10.433 10.425 10.46 10.485 10.505 10.529 10.601 10.616 10.693 10.704 10.687 10.708 10.894 11.006 11.184 11.355 11.466 11.61 11.739 11.914 12.074 12.301 12.562 12.801 12.989 13.175 13.411 13.624 13.78 13.97 14.218 14.37 14.514 14.654 14.774 14.915 15.03 15.176 15.314 15.491 15.626 15.829 15.981 16.153 16.313 16.526 16.703 16.861 17.04 17.214 17.363 17.556 17.787 17.988 18.151 18.307 18.468 18.662 18.827 19.049 19.217 19.361 19.509 19.7 19.851 19.985 20.127 20.242 20.374 20.557 20.689 20.822 20.969 21.124 21.264 21.452 21.574 21.692 21.817 21.907 22.007 22.069 22.107 22.127 22.124 22.114 22.127 22.094 22.097 22.072 22.432 22.532 21.502 20.739 20.272 19.717 19.224 18.524 17.982 17.289 16.684 15.797 15.349 14.739 13.892 13.092 15.242 16.189 14.779 12.109 10.439 9.627 9.532 9.399 9.619 9.374 10.422 9.197 9.409 9.607 9.737 9.849 9.992 10.177 10.327 10.324 10.374 10.542 10.777 10.969 11.297 11.822 12.239 12.932 13.769 14.772 16.037 16.702 17.689 18.697 19.472 20.332 21.187 22.394 23.122 22.879 23.372 24.117 24.267 24.484 24.642 24.699 24.664 24.884 24.929 25.014 25.124 25.259 25.349 25.462 25.524 25.667 25.834 26.044 26.199 26.419
14.089 13.871 13.681 13.461 13.274 13.104 12.891 12.746 12.566 12.426 12.359 12.291 12.339 12.446 12.574 12.697 12.817 12.964 13.177 13.384 13.609 13.814 14.024 14.219 14.394 14.577 14.714 14.832 14.939 14.999 15.029 15.082 15.114 15.189 15.314 15.509 15.497 15.392 15.184 14.832 14.389 13.877 13.674 15.542 13.174 11.584 11.357 11.019 10.949 10.577 10.037 9.724 9.577 9.319 8.939 8.674 8.482 8.257 8.107 8.049 7.977 7.774 7.539 7.267 7.214 7.077 7.099 7.344 7.434 7.409 7.487 7.859 7.424 7.677 7.794 7.657 7.319 7.252 7.232 7.319 7.317 7.272 7.187 7.047 7.067 7.237 7.247 7.244 6.999 6.814 6.979 7.082 6.992 7.019 6.977 6.977 7.004 8.989 9.219 7.062 7.004 7.032 7.059 6.929 6.887 6.967 6.969 6.884 6.937 6.969 6.937 6.912 6.912 6.992 6.864 6.834 6.854 6.844 6.869 6.889 6.942 7.014 6.899 6.947 6.917 6.859 6.777 6.762 6.762 6.747 6.749 6.839 6.887 6.907 6.844 6.821 6.832 6.866 6.85 6.839 6.87 6.948 6.971 6.945 6.922 6.928 6.958 6.921 6.914 6.854 6.953 6.911 6.919 6.789 6.814 6.754 6.741 6.697 6.68 6.684 6.699 6.717 6.67 6.742 6.749 6.841 6.798 6.784 6.805 6.755 6.75 6.796 6.84 6.814 6.847 6.856 6.805 6.843 6.892 6.897 6.887 6.99 7.085 7.11 7.137 7.22 7.287 7.186 7.282 7.271 7.369 7.413 7.398 7.382 7.421 7.269 7.062 6.607 6.271 6.272 6.26 6.398 7.088 7.678 7.744 7.277 7.124 7.09 7.259 7.444 7.542 7.661 8.037 8.35 8.267 8.143 9.422 8.289 8.57 9.335 9.345 9.851 10.579 11.263 13.367 13.138 13.429 14.065 16.097 17.563 17.678 15.413 16.007 15.777 15.839 15.679 15.148 15.108 15.28 14.944 14.808 14.671 14.52 14.429 14.194 13.935 13.645 13.488 13.252 13.103 12.826 12.638 12.474 12.249 12.162 11.998 11.912 11.819 11.725 11.615 11.544 11.455 11.401 11.378 11.274 11.276 11.296 11.286 11.256 11.255 11.23 11.214 11.142 11.052 10.989 10.932 10.882 10.84 10.758 10.732 10.69 10.65 10.617 10.618 10.64 10.678 10.733 10.78 10.773 10.731 10.813 10.92 10.876 10.851 11.009 11.208 11.367 11.519 11.637 11.809 11.929 12.08 12.242 12.487 12.731 12.941 13.109 13.32 13.511 13.708 13.844 14.092 14.281 14.43 14.56 14.71 14.848 15.028 15.183 15.404 15.579 15.754 15.94 16.132 16.302 16.491 16.681 16.867 17.05 17.224 17.424 17.612 17.823 18.044 18.29 18.511 18.71 18.886 19.087 19.278 19.501 19.663 19.809 19.997 20.154 20.268 20.409 20.561 20.687 20.799 20.984 21.119 21.267 21.397 21.552 21.692 21.832 21.969 22.094 22.209 22.269 22.297 22.347 22.394 22.387 22.404 22.369 22.337 22.287 22.282 22.262 22.287 22.332 21.659 21.059 20.599 19.994 19.519 18.934 18.299 17.669 16.992 16.147 15.457 14.654 14.082 14.712 16.244 18.882 18.094 13.364 11.197 9.949 9.709 9.544 9.377 9.259 9.759 9.592 9.732 9.867 9.952 10.064 10.164 10.264 10.404 10.457 10.554 10.699 10.897 11.119 11.437 12.577 12.507 13.149 13.932 14.787 15.984 16.532 17.689 18.702 19.669 20.824 21.072 22.244 22.417 22.967 23.354 24.197 25.837 25.172 24.554 24.659 24.952 24.969 25.092 25.117 25.237 25.379 25.512 25.617 25.697 25.797 25.949 26.124 26.309 26.522
14.234 14.001 13.794 13.574 13.426 13.216 13.036 12.849 12.689 12.559 12.489 12.459 12.474 12.606 12.709 12.842 12.982 13.179 13.352 13.529 13.727 13.934 14.149 14.342 14.554 14.714 14.824 14.972 15.079 15.157 15.209 15.242 15.247 15.317 15.367 15.454 15.492 15.757 15.852 15.729 16.027 14.472 13.804 14.102 12.567 12.272 12.139 11.927 11.684 11.362 11.164 11.152 10.612 10.347 10.079 9.812 9.494 9.204 9.097 8.974 8.714 8.679 8.454 8.212 8.012 7.907 7.482 7.244 7.019 7.029 7.414 7.434 7.459 7.509 7.807 7.507 7.464 7.357 7.337 7.294 7.264 7.267 7.222 7.087 7.017 7.237 7.319 7.269 7.012 6.924 7.509 7.882 7.132 7.084 7.067 7.102 6.994 7.714 7.234 7.029 7.017 7.022 6.974 6.932 6.984 7.159 7.007 6.887 6.917 6.967 6.914 6.849 6.939 6.972 6.952 6.829 6.909 6.874 6.857 6.882 6.932 6.952 6.964 6.917 6.949 6.882 6.784 6.799 6.804 6.772 6.887 6.837 6.827 6.824 6.86 6.806 6.819 6.837 6.887 6.854 6.954 6.933 6.887 6.885 6.908 6.914 6.861 6.97 6.884 6.864 6.901 6.876 6.821 6.694 6.776 6.722 6.745 6.763 6.73 6.705 6.676 6.656 6.76 6.727 6.715 6.806 6.821 6.818 6.795 6.772 6.839 6.896 6.911 6.963 7.044 7.063 7.073 7.041 7.105 7.117 7.06 7.12 7.196 7.146 7.172 7.289 7.253 7.297 7.317 7.251 7.236 7.142 7.095 6.997 6.819 6.66 6.318 6.277 6.116 6.294 6.901 7.65 7.798 7.539 7.303 7.383 7.434 7.601 7.792 7.873 7.865 8.031 8.628 8.778 8.862 9.116 9.38 8.985 9.27 9.853 11.764 11.4 12.068 13.101 14.3 14.379 14.41 14.81 15.628 18.475 15.622 16.105 16.293 16.222 16.123 15.745 15.399 15.473 15.155 15.146 14.933 14.868 14.715 14.499 14.355 14.098 13.836 13.627 13.407 13.175 12.944 12.706 12.508 12.397 12.346 12.208 12.1 12.005 11.894 11.795 11.718 11.681 11.628 11.559 11.443 11.454 11.475 11.463 11.461 11.454 11.417 11.387 11.314 11.241 11.183 11.113 11.083 11.04 10.989 10.929 10.901 10.856 10.832 10.859 10.876 10.898 10.956 10.953 10.948 10.959 10.989 11.084 11.071 11.059 11.094 11.21 11.414 11.568 11.724 11.879 11.959 12.097 12.262 12.473 12.692 12.916 13.102 13.254 13.441 13.649 13.745 13.977 14.208 14.345 14.503 14.665 14.835 15.041 15.221 15.45 15.676 15.88 16.084 16.303 16.489 16.683 16.862 17.045 17.261 17.445 17.667 17.877 18.115 18.337 18.635 18.886 19.132 19.33 19.532 19.686 19.901 20.106 20.272 20.429 20.574 20.688 20.828 20.98 21.071 21.232 21.404 21.534 21.662 21.784 21.937 22.049 22.174 22.304 22.439 22.522 22.559 22.604 22.622 22.639 22.649 22.629 22.574 22.494 22.464 22.407 22.387 22.287 22.289 22.239 21.274 20.879 20.254 19.707 19.204 18.562 17.972 17.174 16.484 15.544 14.959 14.112 14.129 17.592 18.514 16.574 14.592 12.832 10.349 9.954 9.664 9.442 9.567 9.792 9.874 9.989 10.059 10.124 10.224 10.327 10.422 10.507 10.589 10.722 10.894 11.074 11.274 11.727 12.127 12.529 13.022 13.567 14.802 16.214 16.444 18.374 19.154 19.922 20.722 21.759 22.484 23.104 23.422 23.579 24.394 25.504 25.494 25.157 24.752 24.884 25.037 25.227 25.307 25.324 25.467 25.612 25.784 25.859 25.937 26.044 26.222 26.447 26.637
14.354 14.169 13.989 13.764 13.594 13.389 13.194 13.016 12.846 12.741 12.679 12.666 12.646 12.754 12.854 12.987 13.144 13.314 13.502 13.687 13.867 14.077 14.284 14.464 14.652 14.827 14.984 15.114 15.209 15.292 15.362 15.424 15.442 15.477 15.509 15.542 15.629 15.719 15.862 16.237 16.574 15.139 14.359 14.012 13.377 13.099 12.937 12.704 12.559 12.372 12.264 12.167 11.747 11.437 11.169 10.939 10.799 10.489 10.292 9.929 9.882 9.844 9.484 9.267 9.087 9.044 8.879 8.622 8.819 7.939 9.267 7.334 7.042 7.109 7.296 7.392 7.494 7.527 7.502 7.347 7.309 7.254 7.214 6.967 7.197 7.492 7.394 7.387 7.672 7.524 7.662 8.607 7.292 7.142 7.089 7.097 7.047 6.934 7.052 7.164 6.999 6.999 7.017 6.959 7.029 7.169 7.149 6.934 6.917 7.007 6.894 6.867 6.867 6.919 6.957 6.892 6.854 6.854 7.049 6.982 7.012 7.009 7.039 6.974 6.949 6.864 6.824 6.759 6.769 6.764 6.827 6.797 6.862 6.852 6.85 6.854 6.871 6.879 6.899 6.933 6.894 6.871 6.85 6.881 6.832 6.799 6.794 6.856 6.837 6.845 6.858 6.86 6.742 6.699 6.713 6.745 6.742 6.714 6.676 6.69 6.644 6.671 6.742 6.675 6.785 6.836 6.824 6.852 6.765 6.796 6.936 6.96 6.989 7.032 7.139 7.136 7.123 7.11 7.126 7.148 7.128 7.124 7.156 7.179 7.103 7.077 6.994 7.022 6.87 6.755 6.535 6.435 6.374 6.318 6.237 6.348 6.294 6.402 6.86 7.554 7.816 7.787 7.666 7.492 7.574 7.643 7.86 8.154 8.096 8.185 8.394 8.933 9.343 9.414 9.862 10.989 10.33 10.183 10.46 14.236 14.199 15.421 14.744 14.308 14.569 14.754 15.104 16.695 17.431 17.159 16.226 16.409 16.337 16.086 15.93 15.826 15.658 15.466 15.304 15.18 15.085 15.005 14.889 14.612 14.398 14.218 13.949 13.719 13.421 13.224 13.02 12.86 12.722 12.618 12.524 12.409 12.31 12.216 12.126 12.049 11.944 11.885 11.81 11.729 11.582 11.605 11.657 11.62 11.62 11.598 11.57 11.529 11.453 11.4 11.366 11.309 11.266 11.218 11.188 11.199 11.173 11.121 11.036 11.051 11.121 11.172 11.181 11.186 11.156 11.177 11.17 11.19 11.23 11.233 11.243 11.246 11.411 11.659 11.844 11.949 12.032 12.114 12.28 12.463 12.672 12.886 13.047 13.212 13.411 13.574 13.731 13.866 14.079 14.246 14.464 14.644 14.856 15.07 15.292 15.529 15.809 16.023 16.235 16.459 16.674 16.869 17.058 17.255 17.467 17.707 17.95 18.196 18.456 18.697 18.948 19.231 19.512 19.765 19.999 20.135 20.293 20.501 20.682 20.842 20.992 21.091 21.241 21.364 21.503 21.644 21.819 21.944 22.049 22.179 22.274 22.397 22.529 22.602 22.709 22.794 22.842 22.869 22.852 22.857 22.844 22.827 22.774 22.682 22.612 22.552 22.497 22.389 22.397 22.077 21.424 20.944 20.434 19.924 19.354 18.649 18.022 17.147 16.594 15.744 15.054 14.309 13.627 14.109 14.687 12.107 13.774 10.832 10.639 10.932 10.079 9.687 9.952 10.022 10.114 10.162 10.219 10.277 10.359 10.474 10.564 10.694 10.782 10.897 11.064 11.252 11.454 11.812 12.289 12.667 13.247 13.729 14.702 15.872 16.647 17.569 18.997 20.327 21.014 21.719 22.447 22.947 23.152 24.042 24.869 25.292 25.527 25.172 25.327 25.007 25.234 25.299 25.394 25.422 25.584 25.742 25.884 25.987 26.092 26.177 26.334 26.527 26.769
14.524 14.339 14.129 13.954 13.771 13.596 13.364 13.184 13.009 12.914 12.826 12.816 12.796 12.909 12.976 13.092 13.282 13.479 13.642 13.807 13.999 14.219 14.409 14.642 14.779 14.934 15.097 15.229 15.324 15.432 15.504 15.579 15.639 15.682 15.724 15.732 15.769 15.839 15.912 16.057 16.302 15.839 15.182 15.157 14.862 13.827 13.827 13.692 13.669 13.682 13.524 13.169 12.699 12.494 12.217 12.297 14.147 11.997 11.669 11.332 11.139 11.014 10.827 10.564 12.239 10.652 10.342 9.919 9.754 9.509 9.977 8.949 8.404 7.907 7.429 7.157 7.114 6.967 7.032 6.977 6.974 6.809 6.667 6.544 7.932 7.512 7.557 8.662 7.629 7.247 8.882 7.907 7.284 7.152 7.149 7.137 7.089 7.019 6.944 7.057 7.027 7.034 7.059 6.969 7.072 7.169 7.079 7.199 7.084 6.979 6.874 6.854 6.884 6.937 7.032 6.892 6.847 6.889 7.032 6.942 6.962 6.864 6.859 6.907 6.924 6.884 6.834 6.772 6.727 6.704 6.772 6.789 6.859 6.864 6.862 6.851 6.866 6.904 6.882 6.831 6.784 6.754 6.771 6.756 6.782 6.793 6.744 6.748 6.779 6.79 6.741 6.864 6.81 6.805 6.707 6.74 6.705 6.685 6.612 6.693 6.713 6.677 6.694 6.681 6.735 6.759 6.797 6.809 6.83 6.868 6.906 6.94 6.997 7.056 7.095 7.109 7.137 7.055 7.05 6.997 6.98 6.984 6.886 6.842 6.705 6.631 6.433 6.35 6.229 6.156 6.208 6.181 6.347 6.318 6.42 6.474 6.828 7.57 7.789 7.674 7.587 7.64 7.846 7.961 8.062 8.152 8.329 8.941 9.424 9.545 9.665 10.1 10.684 11.854 11.397 12.095 12.017 12.334 11.508 16.668 15.021 14.609 15.073 15.412 15.06 15.652 16.185 17.686 18.294 16.716 16.676 16.555 16.316 16.301 16.144 16.006 15.708 15.609 15.51 15.379 15.226 15.116 14.957 14.718 14.419 14.161 13.928 13.715 13.539 13.365 13.197 13.052 12.913 12.819 12.72 12.623 12.55 12.439 12.317 12.201 12.117 12.043 11.969 11.894 11.767 11.818 11.809 11.781 11.765 11.745 11.692 11.668 11.61 11.606 11.551 11.493 11.454 11.426 11.401 11.377 11.362 11.372 11.311 11.286 11.347 11.357 11.379 11.368 11.373 11.394 11.38 11.383 11.431 11.437 11.461 11.453 11.47 11.724 11.858 11.998 12.109 12.21 12.352 12.473 12.635 12.804 13.012 13.194 13.378 13.525 13.691 13.786 13.995 14.235 14.427 14.658 14.875 15.11 15.391 15.652 15.888 16.144 16.404 16.601 16.837 17.05 17.274 17.504 17.706 17.975 18.235 18.528 18.761 19.058 19.308 19.583 19.861 20.163 20.384 20.625 20.742 20.912 21.073 21.237 21.362 21.504 21.637 21.782 21.903 22.053 22.219 22.312 22.437 22.557 22.622 22.754 22.842 22.904 22.999 23.044 23.082 23.079 23.094 23.084 23.047 22.969 22.934 22.852 22.767 22.647 22.514 22.417 22.227 21.942 21.417 21.002 20.604 20.059 19.504 18.722 18.117 17.289 16.529 15.707 15.142 14.497 13.849 13.274 12.549 11.982 14.807 12.337 11.224 10.669 10.189 10.214 10.274 10.259 10.304 10.312 10.379 10.464 10.514 10.579 10.707 10.812 10.937 11.077 11.222 11.404 11.629 11.937 12.469 12.849 13.377 13.874 14.592 15.614 16.237 18.072 19.452 19.822 20.774 22.179 21.937 23.019 23.747 24.369 24.294 24.912 26.012 25.719 25.214 25.104 25.529 25.414 25.692 25.567 25.669 25.859 25.972 26.092 26.244 26.359 26.472 26.667 26.992
14.664 14.464 14.261 14.104 13.924 13.729 13.544 13.369 13.216 13.114 13.031 13.016 12.994 13.054 13.186 13.309 13.454 13.594 13.784 13.957 14.124 14.319 14.559 14.737 14.907 15.084 15.207 15.327 15.434 15.552 15.642 15.717 15.779 15.837 15.899 15.917 15.949 15.964 16.004 16.054 16.192 16.237 15.767 16.254 16.109 15.034 14.712 14.812 14.712 14.834 14.792 14.467 14.194 13.537 13.277 13.494 14.112 14.492 14.729 13.872 12.599 12.154 12.209 12.969 14.472 12.234 11.752 11.209 11.257 11.017 11.222 11.221 10.754 9.157 8.892 8.629 8.232 8.052 7.667 7.539 7.912 6.924 6.934 6.979 7.607 7.584 7.477 7.069 7.064 7.447 7.434 7.349 7.127 7.164 7.274 7.167 7.129 7.127 7.052 6.979 6.959 6.999 6.992 6.967 6.974 7.124 7.114 7.084 7.127 7.049 6.919 6.962 6.929 6.867 6.882 6.877 6.844 6.832 6.794 6.807 6.809 6.847 6.862 6.867 7.019 6.877 6.872 6.814 6.769 6.727 6.752 6.802 6.802 6.884 6.87 6.865 6.883 6.862 6.837 6.805 6.813 6.797 6.818 6.843 6.764 6.759 7.282 7.02 6.709 6.698 6.678 6.896 7.015 7.004 6.801 6.804 6.756 6.758 6.672 6.689 6.718 6.656 6.631 6.682 6.678 6.719 6.736 6.697 6.792 6.792 6.883 6.856 6.899 6.9 6.918 6.962 6.901 6.851 6.739 6.8 6.624 6.507 6.449 6.31 6.517 6.389 6.383 6.257 6.122 6.354 6.782 7.016 7.151 7.377 7.626 7.719 7.631 7.512 7.408 7.421 7.698 7.877 8.149 8.326 8.529 8.566 8.684 9.976 11.438 11.865 11.214 10.897 11.011 12.098 12.425 12.962 13.921 12.582 12.827 15.666 15.524 16.517 16.29 16.281 15.747 16.163 17.259 17.146 16.993 16.846 16.785 16.591 16.617 16.587 16.365 16.014 15.872 15.754 15.649 15.491 15.298 15.149 14.961 14.676 14.395 14.222 14.028 13.864 13.667 13.517 13.37 13.255 13.16 13.026 12.938 12.827 12.725 12.623 12.501 12.378 12.271 12.149 12.095 12.008 11.963 12.006 11.996 11.964 11.92 11.908 11.862 11.804 11.798 11.76 11.721 11.659 11.663 11.644 11.599 11.572 11.553 11.563 11.581 11.533 11.555 11.564 11.562 11.588 11.563 11.571 11.546 11.565 11.631 11.659 11.652 11.662 11.61 11.702 11.914 12.071 12.204 12.334 12.414 12.512 12.637 12.775 12.966 13.178 13.338 13.512 13.657 13.772 13.931 14.182 14.432 14.688 14.924 15.189 15.463 15.728 15.999 16.269 16.514 16.732 16.956 17.217 17.466 17.698 17.987 18.254 18.541 18.855 19.121 19.419 19.666 19.915 20.225 20.502 20.779 21.019 21.182 21.282 21.449 21.591 21.739 21.883 22.019 22.13 22.26 22.413 22.599 22.694 22.804 22.877 22.937 23.014 23.117 23.197 23.224 23.277 23.304 23.312 23.292 23.257 23.217 23.149 23.082 23.007 22.894 22.744 22.569 22.387 22.192 21.897 21.552 21.132 20.609 20.034 19.564 18.944 18.044 17.424 16.572 15.952 15.224 15.242 14.124 13.412 12.799 12.202 11.617 11.244 10.862 11.559 10.397 10.682 10.557 10.547 10.484 10.469 10.532 10.574 10.632 10.724 10.837 10.957 11.062 11.217 11.382 11.567 11.784 12.044 12.634 13.052 13.367 13.834 14.622 15.404 16.274 18.167 19.462 20.019 20.799 21.259 22.912 23.207 23.652 24.009 23.984 24.632 25.657 25.359 25.172 25.717 25.324 25.582 25.704 25.704 25.769 25.939 26.069 26.204 26.349 26.514 26.657 26.927 27.287
14.809 14.571 14.396 14.231 14.069 13.891 13.734 13.524 13.389 13.271 13.209 13.184 13.181 13.214 13.386 13.539 13.612 13.767 13.922 14.092 14.257 14.444 14.624 14.809 14.997 15.164 15.279 15.407 15.557 15.664 15.762 15.854 15.932 16.014 16.032 16.087 16.144 16.129 16.147 16.197 16.234 16.307 16.374 16.574 16.719 16.684 15.744 15.714 15.689 15.739 15.592 15.689 16.662 14.922 14.597 15.617 14.579 14.459 14.377 14.397 14.212 13.789 13.557 13.694 13.742 13.247 13.049 12.759 12.354 14.097 13.007 11.662 11.902 10.592 10.082 9.564 9.327 9.167 8.944 8.634 8.492 7.859 7.747 7.884 7.747 7.694 7.069 6.479 7.684 7.809 7.569 7.242 7.219 7.199 7.232 7.202 7.094 7.127 7.094 7.017 6.964 7.044 7.054 7.029 6.989 7.029 7.074 7.079 7.154 7.069 6.944 6.989 6.904 6.829 6.894 6.917 6.839 6.779 6.767 6.804 6.847 6.904 6.902 7.024 6.904 6.899 6.937 6.764 6.744 6.754 6.777 6.817 6.797 6.927 6.912 6.897 6.848 6.8 6.785 6.778 6.791 6.964 6.974 6.92 6.746 6.727 7.325 7.394 7.213 6.801 6.772 6.883 7.012 7.066 6.96 6.985 6.914 6.913 6.843 6.822 6.83 6.713 6.63 6.663 6.626 6.691 6.679 6.672 6.689 6.715 6.717 6.694 6.759 6.532 6.497 6.413 6.339 6.266 6.735 7.234 6.391 6.216 6.303 6.205 6.333 6.472 6.593 6.915 7.198 7.406 7.562 7.642 7.7 7.541 7.485 7.478 7.428 7.364 7.603 7.757 7.954 8.141 8.43 8.714 8.851 8.98 9.315 11.025 13.046 12.962 12.585 12.1 11.725 12.435 13.185 14.529 14.404 13.667 13.889 16.729 16.579 17.788 16.478 16.034 16.676 17.089 17.361 17.459 16.979 16.948 16.852 16.789 16.77 16.699 16.371 16.135 16.03 15.91 15.748 15.562 15.334 15.132 14.924 14.742 14.534 14.356 14.165 13.996 13.838 13.708 13.575 13.441 13.322 13.197 13.101 12.982 12.873 12.726 12.617 12.508 12.38 12.304 12.212 12.117 12.128 12.136 12.113 12.099 12.091 12.073 12.031 12.012 11.975 11.94 11.874 11.849 11.847 11.803 11.776 11.769 11.717 11.744 11.76 11.77 11.754 11.761 11.769 11.772 11.747 11.77 11.736 11.734 11.788 11.848 11.886 11.833 11.847 11.794 11.935 12.161 12.292 12.411 12.508 12.595 12.686 12.802 12.961 13.128 13.306 13.436 13.597 13.74 13.908 14.173 14.437 14.714 14.989 15.243 15.521 15.826 16.088 16.334 16.622 16.844 17.133 17.406 17.681 17.961 18.237 18.554 18.867 19.188 19.475 19.757 20.006 20.265 20.521 20.803 21.092 21.354 21.527 21.66 21.775 21.914 22.094 22.254 22.388 22.51 22.625 22.812 22.927 23.047 23.159 23.202 23.264 23.302 23.377 23.429 23.447 23.474 23.507 23.494 23.439 23.417 23.382 23.327 23.237 23.164 23.027 22.822 22.607 22.354 22.114 21.874 21.567 21.422 20.802 19.927 19.352 18.799 18.142 17.699 16.879 15.912 15.314 16.204 14.857 13.472 13.144 12.482 11.874 11.389 10.874 10.972 11.197 11.047 10.812 10.832 10.654 10.619 10.662 10.684 10.777 10.842 10.937 11.057 11.177 11.327 11.499 11.722 11.957 12.167 12.649 13.247 13.502 13.992 14.562 15.274 16.394 17.637 19.382 19.892 21.042 21.709 22.314 23.077 23.067 24.184 24.424 24.884 25.419 25.914 25.332 25.314 25.919 25.714 25.659 25.824 25.859 25.994 26.144 26.317 26.459 26.639 26.894 27.267 27.654
14.906 14.711 14.559 14.364 14.176 14.026 13.854 13.684 13.574 13.449 13.389 13.356 13.361 13.429 13.539 13.679 13.809 13.934 14.054 14.214 14.397 14.559 14.719 14.879 15.052 15.204 15.372 15.507 15.632 15.757 15.857 15.952 16.074 16.157 16.199 16.237 16.297 16.312 16.357 16.349 16.357 16.374 16.422 16.604 16.407 16.174 15.959 16.304 16.297 16.114 16.094 15.892 15.874 15.669 15.542 15.572 15.522 15.199 15.007 14.779 14.679 14.267 14.199 14.037 13.814 13.609 13.342 13.079 12.762 12.637 12.217 11.987 11.657 11.469 11.092 10.602 10.317 9.902 9.589 9.224 8.972 8.597 8.552 8.184 7.899 7.782 7.129 6.839 8.299 7.734 7.034 7.197 7.269 7.264 7.232 7.202 7.267 7.747 7.809 7.339 6.977 7.059 7.057 6.979 6.962 6.964 7.034 7.082 7.029 7.062 7.032 6.889 6.842 6.869 6.864 6.862 6.767 6.802 6.829 6.837 6.932 6.979 6.929 6.942 6.864 6.864 6.892 6.822 6.789 6.912 6.834 6.879 6.839 6.889 6.912 6.879 6.88 6.911 6.875 6.773 6.784 6.943 6.945 6.822 6.897 6.756 6.906 7.479 8.21 6.97 6.928 6.94 7.022 6.95 6.963 7.037 6.985 6.861 6.858 6.805 6.808 6.754 6.647 6.554 6.585 6.606 6.755 6.598 6.554 6.558 6.324 6.258 6.361 6.282 6.325 6.258 6.201 6.188 6.202 6.346 6.433 6.45 6.622 6.881 7.158 7.211 7.28 7.263 7.336 7.286 7.208 7.359 7.459 7.462 7.672 7.719 7.613 7.716 7.935 8.213 8.407 8.643 8.883 9.257 9.369 9.989 12.483 14.188 14.466 14.231 14.663 14.537 13.436 13.511 14.169 15.122 15.349 15.302 15.086 15.337 15.851 16.205 16.832 17.29 17.532 17.849 17.497 17.375 17.156 17.007 16.953 16.945 16.78 16.585 16.393 16.251 16.117 15.934 15.746 15.541 15.385 15.197 15.032 14.844 14.669 14.486 14.308 14.172 14.018 13.859 13.714 13.596 13.457 13.344 13.256 13.129 13.006 12.853 12.739 12.632 12.523 12.438 12.346 12.283 12.31 12.328 12.285 12.252 12.23 12.197 12.167 12.142 12.122 12.081 12.036 12.014 11.967 11.96 11.961 11.932 11.91 11.931 11.939 11.96 11.97 11.968 11.943 11.946 11.93 11.933 11.92 11.907 11.909 11.918 12.023 11.98 12.027 12.015 12.036 12.204 12.345 12.475 12.59 12.686 12.747 12.817 12.972 13.097 13.26 13.415 13.574 13.75 13.902 14.146 14.439 14.722 15.015 15.324 15.612 15.894 16.161 16.448 16.737 17.022 17.302 17.607 17.911 18.197 18.53 18.859 19.163 19.494 19.783 20.071 20.353 20.558 20.802 21.029 21.336 21.587 21.855 22.027 22.113 22.234 22.433 22.581 22.725 22.866 22.973 23.159 23.267 23.387 23.462 23.502 23.562 23.589 23.609 23.639 23.664 23.637 23.657 23.644 23.627 23.572 23.549 23.484 23.377 23.297 23.117 22.902 22.657 22.342 21.979 21.754 21.507 20.947 20.272 19.629 19.002 18.462 18.609 17.829 16.647 15.879 15.797 16.122 15.847 13.814 13.357 12.729 12.137 11.669 11.272 11.217 11.059 11.287 10.892 10.739 10.702 10.712 10.759 10.784 10.884 10.997 11.067 11.142 11.304 11.459 11.634 11.857 12.107 12.347 12.687 13.272 13.629 14.102 14.674 15.199 16.057 17.712 19.247 20.389 21.482 20.769 22.054 23.214 23.322 24.112 24.729 24.617 25.554 26.224 26.042 25.664 25.812 25.784 26.032 25.897 26.019 26.072 26.257 26.474 26.637 26.887 27.224 27.644 28.009
15.009 14.866 14.686 14.499 14.344 14.206 13.989 13.824 13.691 13.614 13.526 13.511 13.531 13.599 13.649 13.774 13.949 14.087 14.242 14.329 14.529 14.689 14.854 15.007 15.137 15.297 15.457 15.594 15.742 15.879 15.994 16.087 16.177 16.262 16.314 16.382 16.439 16.462 16.509 16.514 16.529 16.492 16.482 16.537 16.522 16.502 16.404 16.384 16.399 16.209 16.164 16.037 15.987 15.769 15.649 15.517 15.324 15.067 14.854 14.617 14.352 14.132 13.872 13.602 13.352 13.107 12.902 12.639 12.377 12.124 11.897 11.682 11.442 11.194 11.052 11.037 10.739 10.492 10.637 9.812 9.334 8.967 8.634 8.187 8.144 7.762 7.502 7.137 7.292 7.132 6.814 6.832 6.997 7.207 7.197 7.104 7.292 7.852 7.824 7.424 7.082 7.029 7.089 6.987 6.957 7.007 7.049 7.052 6.997 6.989 7.027 6.879 6.887 6.879 6.884 6.932 6.867 6.802 6.807 6.834 7.117 7.059 7.007 7.037 7.027 7.029 7.067 7.282 7.224 7.069 6.967 6.944 6.939 6.867 6.903 6.871 6.863 6.854 6.86 6.79 6.843 6.845 6.912 6.857 6.977 6.847 6.922 6.982 6.93 6.952 6.944 6.945 6.839 6.807 6.838 6.942 6.945 6.816 6.797 6.806 6.745 6.725 6.678 6.589 8.009 7.237 8.488 8.516 7.686 6.623 6.273 6.41 6.272 6.167 6.207 6.434 6.515 6.578 6.704 6.788 6.977 7.026 7.13 7.191 7.152 7.112 7.083 7.055 7.076 7.141 7.406 7.62 7.749 7.836 7.973 8.019 7.958 8.092 8.525 8.78 8.923 9.263 9.472 10.621 10.952 12.817 14.836 16.207 15.91 15.63 15.546 16.166 14.856 14.983 15.58 16.194 15.747 16.056 15.97 16.205 16.377 17.937 17.862 17.899 17.75 17.631 17.5 17.386 17.282 17.203 17.185 17.072 16.835 16.638 16.458 16.288 16.097 15.968 15.804 15.658 15.475 15.326 15.173 14.978 14.79 14.64 14.477 14.308 14.114 13.958 13.819 13.703 13.586 13.469 13.333 13.24 13.117 12.988 12.852 12.725 12.653 12.558 12.481 12.47 12.483 12.466 12.461 12.412 12.364 12.328 12.271 12.215 12.202 12.192 12.205 12.153 12.135 12.103 12.092 12.062 12.079 12.081 12.082 12.099 12.142 12.123 12.136 12.119 12.142 12.127 12.106 12.075 12.081 12.061 12.178 12.169 12.193 12.212 12.169 12.266 12.424 12.553 12.626 12.728 12.785 12.899 12.991 13.108 13.246 13.376 13.533 13.689 13.887 14.147 14.438 14.762 15.058 15.342 15.64 15.925 16.225 16.528 16.847 17.159 17.464 17.802 18.159 18.462 18.806 19.121 19.446 19.762 20.09 20.363 20.622 20.857 21.068 21.294 21.544 21.78 22.075 22.307 22.42 22.546 22.717 22.881 23.043 23.172 23.31 23.462 23.584 23.667 23.739 23.797 23.812 23.867 23.847 23.849 23.824 23.822 23.792 23.802 23.774 23.742 23.704 23.617 23.522 23.392 23.217 23.029 22.682 22.319 21.914 21.454 21.044 20.399 20.237 19.939 19.059 18.277 18.464 17.687 16.662 16.797 16.387 15.882 15.657 14.587 13.549 12.729 12.257 11.879 11.597 11.214 10.932 11.119 11.359 11.039 10.762 10.812 10.867 10.922 11.004 11.077 11.182 11.274 11.399 11.574 11.757 11.979 12.242 12.504 12.779 13.369 13.832 14.224 14.737 15.182 15.979 17.064 18.382 19.647 20.539 20.784 21.474 22.507 23.717 24.749 24.562 24.574 25.769 26.109 25.729 25.449 25.664 25.764 26.052 26.004 26.129 26.202 26.384 26.617 26.839 27.179 27.512 27.989 28.394
15.154 14.969 14.786 14.574 14.459 14.316 14.121 13.959 13.816 13.719 13.689 13.656 13.671 13.756 13.791 13.897 14.064 14.184 14.332 14.439 14.619 14.784 14.939 15.119 15.257 15.394 15.554 15.704 15.822 15.962 16.114 16.204 16.287 16.379 16.434 16.499 16.579 16.582 16.632 16.649 16.657 16.697 16.617 16.567 16.527 16.477 16.384 16.324 16.229 16.164 16.089 15.999 15.882 15.769 15.584 15.429 15.242 15.017 14.817 14.589 14.337 14.122 13.862 13.622 13.399 13.147 12.954 12.709 12.452 12.222 11.964 11.702 11.477 11.232 10.997 10.767 10.577 10.524 10.482 10.077 9.749 9.427 8.637 8.344 8.574 8.114 7.644 7.117 7.492 7.569 7.987 8.192 6.514 6.834 7.077 7.364 7.804 7.487 7.794 7.889 7.582 7.369 7.199 7.014 6.962 6.974 7.002 7.049 7.007 6.922 6.914 6.892 6.994 7.017 6.999 7.042 7.004 6.924 6.927 6.974 7.064 7.009 7.019 7.144 7.187 6.997 6.969 7.304 7.294 6.967 6.954 7.122 7.344 7.279 7.858 6.956 6.917 6.98 6.892 6.903 6.943 6.91 6.865 6.826 6.846 6.869 6.803 6.873 6.941 6.835 6.892 6.878 6.874 6.827 6.867 7.246 6.956 6.813 6.562 6.543 6.86 8.16 8.67 7.624 10.249 9.445 10.083 8.108 10.064 6.95 6.301 6.604 6.402 6.829 6.868 7.072 7.073 6.96 6.79 6.8 7.004 6.95 6.964 7.033 7.108 7.101 7.145 7.135 7.282 7.374 7.651 7.876 8.185 8.245 8.21 8.288 8.396 8.588 9 9.352 9.671 9.859 10.29 11.278 13.425 15.018 15.435 17.574 16.843 15.482 16.231 16.569 17.511 16.396 16.861 17.066 17.162 16.655 16.912 17.405 17.896 17.964 18.008 17.96 17.793 17.66 17.61 17.551 17.406 17.387 17.278 17.07 16.803 16.65 16.502 16.353 16.184 16.057 15.899 15.748 15.58 15.463 15.303 15.123 14.949 14.739 14.571 14.385 14.236 14.066 13.944 13.828 13.712 13.578 13.47 13.35 13.236 13.097 12.992 12.867 12.767 12.681 12.641 12.635 12.662 12.608 12.569 12.52 12.482 12.491 12.445 12.396 12.35 12.313 12.296 12.292 12.286 12.271 12.228 12.219 12.202 12.206 12.237 12.235 12.253 12.278 12.268 12.318 12.298 12.286 12.278 12.255 12.246 12.242 12.366 12.35 12.36 12.357 12.383 12.408 12.497 12.617 12.705 12.808 12.885 12.973 13.026 13.133 13.254 13.387 13.491 13.652 13.875 14.109 14.439 14.761 15.04 15.361 15.662 15.968 16.294 16.612 16.95 17.306 17.644 18.008 18.375 18.733 19.085 19.388 19.722 20.049 20.347 20.612 20.869 21.098 21.326 21.536 21.739 21.979 22.234 22.499 22.725 22.865 22.988 23.165 23.355 23.52 23.63 23.779 23.877 23.947 23.994 24.032 24.044 24.064 24.064 24.019 23.997 23.964 23.957 23.914 23.927 23.899 23.852 23.747 23.622 23.502 23.299 23.049 22.734 22.359 21.932 21.474 20.979 20.634 20.467 19.842 18.999 18.212 18.619 18.142 17.567 17.444 16.224 16.064 15.507 13.832 13.017 12.772 12.377 12.027 11.737 11.467 11.227 11.139 11.369 11.059 10.872 10.864 10.969 11.027 11.124 11.214 11.304 11.402 11.537 11.659 11.859 12.092 12.349 12.604 12.907 13.472 13.982 14.239 14.752 15.284 15.999 16.784 17.719 18.999 20.069 20.619 21.439 22.559 23.539 23.357 24.312 24.422 24.844 25.454 25.759 25.574 25.557 25.702 26.234 26.164 26.177 26.359 26.562 26.862 27.139 27.474 28.229 28.274 28.647
15.259 15.084 14.881 14.729 14.556 14.424 14.259 14.079 14.001 13.886 13.826 13.796 13.786 13.874 13.941 14.032 14.147 14.342 14.464 14.554 14.707 14.882 15.064 15.234 15.362 15.517 15.664 15.807 15.944 16.072 16.197 16.287 16.372 16.459 16.539 16.617 16.692 16.739 16.767 16.797 16.809 16.802 16.792 16.739 16.659 16.612 16.519 16.459 16.344 16.279 16.217 16.139 15.999 15.889 15.742 15.567 15.374 15.167 14.934 14.699 14.474 14.242 14.019 13.789 13.527 13.319 13.037 12.772 12.502 12.287 12.059 11.819 11.552 11.324 11.077 10.827 10.584 10.414 10.199 9.967 9.964 9.319 8.787 8.609 8.764 9.204 7.854 7.612 7.372 7.887 7.867 8.352 7.694 7.759 6.487 7.242 7.622 7.174 7.224 7.722 7.389 7.669 7.104 7.059 6.994 6.969 7.059 6.974 6.952 7.069 6.932 7.234 7.092 7.037 7.044 7.087 7.042 6.989 6.987 7.064 7.134 7.072 6.959 7.244 7.497 7.339 7.037 7.227 7.127 7.049 7.214 7.474 7.579 7.258 7.224 7.266 7.168 7.143 6.946 6.925 6.948 6.963 6.892 6.874 6.83 6.828 6.797 6.804 6.861 6.916 6.863 6.819 6.998 6.564 7.82 7.232 6.799 6.343 6.579 7.51 9.407 10.419 8.678 8.887 7.651 8.913 10.019 7.489 6.976 6.782 6.814 6.637 6.622 7.491 6.989 6.99 6.94 6.761 6.814 6.919 6.972 7.043 7.105 7.034 7.106 7.086 7.149 7.23 7.363 7.621 7.756 8.113 8.418 8.418 8.444 8.774 9.004 9.214 9.493 10.013 11.003 10.565 11.474 13.751 16.779 14.231 15.094 18.312 17.257 16.028 16.041 16.944 18.114 17.572 17.353 17.278 17.464 17.631 18.021 18.29 18.138 18.145 18.199 17.954 17.911 17.894 17.887 17.565 17.438 17.226 17.079 16.954 16.813 16.709 16.598 16.442 16.266 16.19 16.036 15.895 15.723 15.605 15.412 15.209 15.014 14.814 14.65 14.485 14.319 14.152 14.066 13.933 13.829 13.709 13.578 13.46 13.319 13.214 13.104 12.992 12.869 12.814 12.79 12.798 12.791 12.722 12.683 12.661 12.633 12.608 12.592 12.549 12.531 12.503 12.464 12.438 12.393 12.373 12.356 12.352 12.369 12.36 12.349 12.395 12.42 12.438 12.433 12.438 12.436 12.399 12.415 12.406 12.43 12.431 12.474 12.436 12.491 12.478 12.509 12.504 12.538 12.645 12.758 12.846 12.959 13.049 13.104 13.179 13.268 13.371 13.464 13.653 13.841 14.074 14.383 14.718 15.051 15.332 15.673 15.996 16.325 16.698 17.049 17.45 17.842 18.219 18.589 18.97 19.292 19.632 19.972 20.27 20.577 20.825 21.078 21.33 21.543 21.756 21.948 22.174 22.399 22.682 22.929 23.145 23.293 23.471 23.63 23.791 23.925 24.069 24.157 24.194 24.229 24.264 24.229 24.222 24.219 24.199 24.137 24.134 24.104 24.054 24.069 24.039 23.967 23.867 23.744 23.552 23.359 23.107 22.807 22.387 21.934 21.454 21.024 20.914 21.119 20.494 19.292 18.172 18.612 19.019 18.129 17.262 16.137 15.404 14.644 13.527 13.069 12.759 12.399 12.119 11.817 11.572 11.404 11.259 11.204 11.292 11.134 11.012 11.027 11.112 11.194 11.312 11.407 11.497 11.647 11.799 11.949 12.204 12.462 12.717 13.017 13.397 14.064 14.467 14.942 15.282 15.774 16.394 17.272 18.944 19.882 20.167 21.242 21.977 22.904 23.414 23.972 24.577 24.497 25.472 25.749 25.879 25.852 25.854 26.067 26.394 26.219 26.407 26.762 27.142 27.462 27.789 28.519 28.452 28.747
15.346 15.174 15.041 14.859 14.706 14.534 14.379 14.204 14.111 14.034 13.961 13.934 13.951 14.016 14.104 14.167 14.247 14.427 14.562 14.684 14.817 14.962 15.119 15.304 15.462 15.607 15.794 15.914 16.019 16.152 16.272 16.367 16.459 16.542 16.629 16.709 16.787 16.849 16.904 16.912 16.927 16.939 16.912 16.872 16.832 16.787 16.734 16.639 16.554 16.447 16.357 16.252 16.139 16.004 15.894 15.737 15.524 15.312 15.092 14.879 14.649 14.407 14.172 13.942 13.719 13.454 13.184 12.909 12.632 12.369 12.117 11.869 11.722 11.454 11.204 10.997 10.759 10.524 10.257 10.019 9.792 9.289 9.112 8.759 8.674 8.757 7.679 8.959 8.062 7.399 6.954 6.952 6.829 8.347 7.409 6.734 6.849 7.032 6.924 7.129 7.197 7.229 7.469 7.137 6.942 6.952 7.002 7.067 7.042 7.229 7.184 7.154 7.217 7.107 7.009 7.072 7.102 7.057 7.047 7.102 7.069 7.162 7.244 7.649 7.717 7.722 7.434 7.562 7.237 7.104 7.364 7.637 7.799 7.499 7.28 7.313 7.605 7.158 6.87 6.887 6.957 6.914 6.949 6.896 6.869 6.948 6.806 7.341 6.945 7.006 6.988 6.554 8.131 6.95 8.348 9.563 8.59 6.813 7.829 9.423 9.267 7.524 7.133 6.594 7.018 6.85 8.061 6.822 6.646 6.711 6.908 6.638 6.699 6.914 6.776 7.479 7.122 7.287 7.018 7.015 6.987 7.014 7.026 7.088 7.207 7.332 7.357 7.589 7.562 7.738 8.231 8.516 8.577 8.81 9.088 9.282 9.572 9.807 10.157 10.703 11.34 12.614 16.759 20.362 21.883 20.477 19.468 17.485 16.452 18.396 18.126 19.606 19.384 18.319 17.849 17.72 18.095 18.59 18.575 18.414 18.371 18.272 18.304 18.175 18.111 17.925 17.688 17.51 17.365 17.272 17.134 17.043 16.917 16.813 16.685 16.536 16.444 16.327 16.138 15.995 15.844 15.64 15.455 15.27 15.069 14.889 14.731 14.555 14.413 14.27 14.182 14.046 13.944 13.812 13.696 13.568 13.431 13.338 13.224 13.073 12.963 12.971 12.93 12.923 12.899 12.868 12.832 12.8 12.809 12.769 12.715 12.708 12.702 12.679 12.678 12.632 12.57 12.541 12.498 12.529 12.548 12.53 12.539 12.552 12.596 12.599 12.586 12.556 12.543 12.573 12.591 12.557 12.543 12.545 12.575 12.579 12.624 12.607 12.596 12.612 12.616 12.692 12.785 12.868 12.986 13.052 13.112 13.179 13.258 13.373 13.474 13.6 13.805 14.018 14.358 14.676 14.994 15.349 15.676 16.025 16.373 16.761 17.174 17.597 17.998 18.39 18.79 19.17 19.523 19.846 20.165 20.468 20.772 21.042 21.293 21.545 21.751 21.955 22.159 22.364 22.595 22.85 23.101 23.339 23.571 23.747 23.882 24.043 24.169 24.304 24.352 24.404 24.417 24.412 24.399 24.379 24.362 24.344 24.284 24.262 24.244 24.229 24.159 24.117 24.049 23.959 23.804 23.639 23.437 23.187 22.862 22.437 21.964 21.449 20.957 20.374 20.419 20.804 20.119 19.332 18.827 18.772 17.704 16.967 15.487 14.664 14.164 13.529 13.127 12.757 12.369 12.094 11.852 11.652 11.487 11.399 11.332 11.299 11.362 11.177 11.132 11.187 11.247 11.362 11.507 11.617 11.754 11.914 12.097 12.309 12.544 12.802 13.084 13.434 13.984 14.564 14.927 15.207 15.704 16.189 16.804 17.694 19.314 20.199 20.869 21.452 22.329 23.074 23.607 24.027 24.512 24.789 25.254 25.737 25.934 25.914 26.179 26.269 26.229 26.507 26.889 27.549 27.754 27.949 28.244 28.472 28.874
15.481 15.281 15.124 14.959 14.814 14.654 14.501 14.341 14.251 14.166 14.094 14.041 14.074 14.129 14.211 14.314 14.369 14.534 14.674 14.799 14.912 15.064 15.197 15.362 15.517 15.692 15.844 16.002 16.149 16.264 16.374 16.459 16.529 16.602 16.702 16.802 16.879 16.927 16.974 16.999 16.994 17.007 17.017 16.997 16.949 16.919 16.874 16.819 16.722 16.609 16.509 16.402 16.304 16.144 15.974 15.862 15.687 15.449 15.227 15.027 14.807 14.572 14.327 14.079 13.852 13.584 13.332 13.094 12.829 12.559 12.282 12.002 11.787 11.582 11.372 11.139 10.902 10.659 10.317 10.059 9.759 9.509 9.529 9.544 9.777 9.192 8.224 9.954 10.052 7.069 6.664 6.904 8.167 7.894 7.587 6.907 7.592 6.767 7.029 7.919 7.369 7.004 7.344 7.269 7.054 6.959 7.002 7.034 7.079 7.272 7.677 7.487 7.472 7.537 7.327 7.097 7.457 7.232 7.084 7.062 7.154 7.304 7.887 7.997 7.844 7.879 7.722 7.677 7.522 7.244 7.112 7.284 7.257 7.467 7.237 7.246 7.126 6.985 6.842 6.851 6.894 6.851 6.761 6.671 6.525 6.602 6.599 7.176 9.667 8.601 10.411 10.464 10.472 9.493 9.471 8.48 6.97 6.607 6.599 6.941 7.28 6.662 6.51 6.534 6.592 6.645 6.601 6.442 6.532 6.715 7.025 6.997 6.501 6.683 7.263 8.2 8.022 7.517 7.092 7.044 7.039 7.063 7.073 7.207 7.279 7.52 7.558 7.751 7.877 8.106 8.508 8.754 8.903 9.201 9.478 9.872 10.17 10.506 10.891 11.446 12.464 13.406 17.313 20.613 22.15 24.136 23.717 19.648 17.002 19.006 20.488 20.923 19.645 19.035 18.606 18.513 18.664 18.583 18.539 18.557 18.518 18.39 18.385 18.181 17.96 17.792 17.685 17.559 17.46 17.343 17.218 17.133 17.039 16.921 16.815 16.705 16.565 16.421 16.248 16.046 15.893 15.71 15.506 15.352 15.163 14.971 14.807 14.653 14.512 14.389 14.259 14.163 14.043 13.903 13.762 13.669 13.555 13.441 13.335 13.185 13.155 13.128 13.089 13.071 13.003 12.955 12.928 12.92 12.923 12.911 12.9 12.887 12.844 12.825 12.822 12.787 12.766 12.777 12.712 12.694 12.7 12.655 12.678 12.696 12.702 12.733 12.739 12.72 12.759 12.741 12.713 12.693 12.703 12.701 12.686 12.71 12.72 12.738 12.736 12.693 12.72 12.731 12.826 12.89 12.971 13.033 13.105 13.143 13.235 13.333 13.475 13.604 13.786 13.97 14.262 14.614 14.934 15.288 15.627 16.028 16.411 16.824 17.269 17.727 18.158 18.562 18.985 19.375 19.715 20.065 20.348 20.662 20.962 21.226 21.474 21.734 21.958 22.169 22.363 22.58 22.814 23.028 23.267 23.543 23.773 24.007 24.135 24.271 24.393 24.489 24.542 24.572 24.597 24.587 24.552 24.527 24.502 24.452 24.422 24.392 24.374 24.324 24.279 24.214 24.112 24.012 23.872 23.704 23.494 23.232 22.862 22.472 21.982 21.457 20.879 20.329 19.989 19.982 19.807 19.604 18.844 17.714 17.147 16.502 15.609 15.022 14.002 13.509 13.074 12.654 12.367 12.104 11.897 11.734 11.612 11.489 11.419 11.377 11.367 11.407 11.347 11.247 11.297 11.419 11.572 11.729 11.862 12.032 12.217 12.429 12.594 12.877 13.207 13.474 13.864 14.504 14.979 15.254 15.607 16.139 16.627 17.384 18.509 20.512 20.609 20.909 21.974 23.002 23.689 24.142 24.734 24.494 25.112 25.457 26.332 26.987 26.022 26.264 26.269 26.642 27.089 27.409 27.629 27.937 28.262 28.654 29.067
15.554 15.394 15.259 15.091 14.931 14.819 14.639 14.489 14.389 14.294 14.219 14.181 14.219 14.264 14.346 14.467 14.482 14.589 14.739 14.879 15.017 15.134 15.292 15.467 15.609 15.777 15.949 16.104 16.234 16.374 16.442 16.547 16.632 16.682 16.734 16.857 16.937 17.004 17.009 17.077 17.057 17.082 17.104 17.089 17.042 16.992 16.952 16.909 16.819 16.727 16.642 16.572 16.467 16.302 16.257 16.122 15.747 15.629 15.359 15.152 14.942 14.707 14.464 14.244 14.014 13.714 13.434 13.172 12.892 12.642 12.389 12.139 11.884 11.647 11.492 11.239 11.009 10.764 10.424 10.182 9.879 9.677 9.722 9.289 9.554 8.719 8.117 9.922 7.704 8.899 7.029 7.282 7.034 7.754 7.057 7.299 8.704 6.984 6.589 6.782 6.879 6.967 7.094 7.457 7.114 6.947 7.069 7.144 7.132 7.257 8.069 7.974 7.944 7.809 7.799 7.859 7.912 7.717 7.332 7.207 7.267 7.387 7.739 8.219 8.024 7.857 7.852 7.692 7.364 7.064 6.982 7.042 7.102 7.149 7.131 7.059 7.019 6.9 6.748 6.702 6.54 6.518 6.374 6.989 6.45 6.378 6.43 6.51 7.815 7.224 6.732 7.43 7.234 7.846 9.222 7.46 6.691 6.604 6.709 6.966 7.232 6.5 6.44 6.399 6.472 6.88 7.005 6.441 6.98 6.552 6.77 6.854 6.648 6.747 7.58 8.336 8.08 8.172 7.274 7.058 7.056 7.159 7.306 7.49 7.567 7.621 7.752 8.085 8.283 8.614 8.848 9.111 9.333 9.608 10.015 10.476 10.872 11.357 11.996 12.797 13.471 14.366 17.557 21.01 22.088 23.656 23.887 20.515 19.226 19.08 19.786 19.994 19.31 19.025 18.859 18.912 18.778 18.677 18.77 18.673 18.503 18.267 18.217 18.167 18.047 17.88 17.775 17.68 17.563 17.483 17.392 17.249 17.131 17.047 16.931 16.796 16.671 16.507 16.329 16.157 15.965 15.77 15.596 15.425 15.239 15.081 14.918 14.758 14.626 14.496 14.359 14.242 14.133 14 13.888 13.775 13.655 13.556 13.407 13.351 13.304 13.251 13.224 13.166 13.18 13.139 13.098 13.082 13.102 13.093 13.079 13.039 13.017 13.012 12.969 12.953 12.912 12.896 12.877 12.875 12.833 12.847 12.854 12.844 12.863 12.865 12.9 12.915 12.894 12.884 12.846 12.844 12.828 12.818 12.815 12.806 12.838 12.81 12.781 12.815 12.821 12.856 12.914 12.977 13.017 13.077 13.13 13.183 13.234 13.356 13.448 13.592 13.754 13.932 14.164 14.511 14.862 15.221 15.598 16.016 16.438 16.894 17.359 17.834 18.272 18.697 19.118 19.546 19.926 20.252 20.53 20.826 21.102 21.413 21.673 21.895 22.147 22.37 22.596 22.797 23.031 23.253 23.468 23.689 23.973 24.214 24.393 24.5 24.566 24.657 24.727 24.747 24.734 24.722 24.674 24.629 24.612 24.587 24.567 24.514 24.489 24.437 24.372 24.264 24.189 24.089 23.924 23.752 23.539 23.239 22.889 22.472 21.989 21.462 20.847 20.282 19.624 19.024 18.639 18.129 18.089 17.307 16.439 15.784 15.382 14.619 13.889 13.427 12.977 12.684 12.414 12.154 11.974 11.804 11.722 11.617 11.574 11.484 11.494 11.602 11.519 11.447 11.397 11.482 11.644 11.814 11.984 12.139 12.309 12.539 12.739 12.967 13.259 13.577 13.909 14.337 15.034 15.427 15.672 15.952 16.537 17.119 17.782 18.747 19.514 20.149 21.292 22.542 23.274 24.242 24.239 24.667 24.542 25.352 26.569 26.282 26.344 26.514 27.142 26.637 27.134 27.334 27.494 27.987 28.332 28.707 29.069
