ncols 456
nrows 31
xllcorner    455036
yllcorner    90266
cellsize     2
NODATA_value -9999
20.987 20.922 20.852 20.807 20.805 20.802 20.785 20.645 20.547 20.575 20.715 20.655 20.535 20.352 20.272 20.217 20.187 20.25 20.115 20.095 19.955 19.86 19.96 19.952 19.882 19.84 19.762 19.812 19.79 22.01 28.735 26.44 27.237 24.617 19.23 21.935 28.827 20.975 19.15 19.245 19.045 18.865 18.742 18.602 18.537 18.425 18.352 18.45 18.22 18.19 18.132 18.067 18.015 17.905 17.855 17.957 17.77 19.55 18.1 23.492 26.655 23.66 17.585 17.275 17.212 17.25 17.05 17.822 23.302 20.927 18.08 20.072 19.427 21.005 16.617 19.7 21.082 17.397 16.622 16.165 16.252 16.082 15.917 17.645 15.842 15.785 15.797 15.792 15.737 15.665 15.69 15.602 15.422 15.395 15.357 15.88 18.755 15.207 15.095 22.475 21.162 20.057 16.09 14.757 14.757 18.867 15.597 16.515 17.112 15.035 14.452 14.415 14.345 14.175 14.1 14.025 14.005 13.912 13.957 13.82 14.5 13.752 13.6 13.525 13.49 13.3 13.15 13.05 13.2 13.21 13.147 13.087 13.26 13.385 13.195 12.992 12.9 12.905 12.975 12.915 12.492 12.157 11.955 11.885 11.977 11.945 11.94 11.455 10.997 10.452 10.012 9.592 9.265 8.932 8.602 8.277 8.055 10.115 15.085 14.712 6.847 6.542 9.405 6.2 5.972 5.682 5.4 5.062 4.962 4.702 4.51 8.512 3.5 3.81 3.19 3.012 3.88 6.627 7.01 6.115 3.075 3.055 2.957 2.91 2.83 2.802 2.782 2.745 2.757 2.757 3.092 4.74 5.802 3.61 2.867 2.987 3.225 3.43 3.635 3.932 4.222 4.485 4.735 5.022 5.297 5.61 5.89 6.192 6.492 6.772 6.997 7.255 7.537 7.792 8.072 8.347 8.652 8.947 9.26 9.64 10.035 10.412 10.755 11.045 11.33 11.577 11.807 12.105 12.37 12.61 13.252 13.485 15.762 14.942 14.262 14.395 14.455 14.55 14.71 14.73 14.88 15.165 15.185 15.445 15.522 15.64 15.515 15.51 15.577 15.707 15.91 16.022 16.17 16.31 16.522 16.665 16.765 16.917 17.087 17.252 17.425 17.545 17.675 17.73 18.017 18.065 18.212 18.4 18.567 18.792 18.987 19.137 19.267 19.46 19.625 19.8 19.985 20.195 20.4 20.532 20.647 20.762 20.95 21.137 21.295 21.462 21.627 21.762 21.875 22.017 22.112 22.235 22.36 22.45 22.57 22.677 22.762 22.862 22.99 23.06 23.147 23.222 23.342 23.405 23.48 23.57 23.637 23.72 23.812 23.852 23.97 24.032 24.08 24.132 24.215 24.245 24.28 24.3 24.327 24.415 24.457 24.447 24.462 24.477 24.47 24.505 24.542 24.535 24.527 24.575 24.58 24.595 24.587 24.58 24.587 24.605 24.655 24.702 24.747 24.787 24.79 24.802 24.782 24.767 24.735 24.78 24.777 24.747 24.755 24.722 24.705 24.695 24.657 24.63 24.58 24.547 24.517 24.472 24.45 24.417 24.412 24.4 24.397 24.402 24.365 24.362 24.332 24.302 24.295 24.297 24.237 24.202 24.21 24.225 24.22 24.247 24.227 24.247 24.23 24.247 24.247 24.267 24.305 24.33 24.33 24.35 24.347 24.345 24.365 24.362 24.37 24.367 24.345 24.345 24.347 24.372 24.357 24.372 24.425 24.485 24.557 24.557 24.565 24.562 24.607 24.667 24.725 24.785 24.797 24.797 24.755 24.707 24.69 24.715 24.68 24.662 24.68 24.69 24.642 24.637 24.665 24.615 24.762 24.802 24.955 25.09 25.01 25.145 25.257 25.367 25.437 25.46 25.482 26.97 27.977 28.042 27.282 25.707 26.702 27.225 27.032 29.835 28.927 28.705 28.435 28.137 28.775 28.03 27.26 27.392 27.58 27.815 28.37 28.452 28.48 28.6
21.03 20.972 20.872 20.855 20.907 20.902 20.847 20.697 20.645 20.552 20.632 20.67 20.612 20.39 20.315 20.275 20.31 20.262 20.185 20.172 20.105 19.905 19.89 19.995 19.942 19.89 19.855 19.84 24.93 30.592 30.965 23.45 20.975 30.09 19.6 19.687 19.475 19.255 19.175 19.147 18.957 18.9 18.855 18.627 18.55 18.445 18.417 18.3 18.292 18.242 18.162 18.092 17.982 18.152 19.747 17.99 17.84 18.007 18.025 26.96 23.282 20.245 22.207 17.392 17.645 17.622 17.167 17.077 17.045 17.045 18.372 16.822 20.447 16.83 16.61 19.555 22.54 23.705 18.945 16.24 16.347 16.1 16.027 16.145 15.767 15.737 15.75 15.81 15.675 15.7 15.645 15.577 15.455 15.445 15.365 15.307 15.23 18.982 22.562 21.927 19.505 22.822 20.125 14.767 14.697 14.645 14.645 15.157 14.52 14.515 15.005 14.347 14.335 15.937 14.445 14.085 13.947 13.885 13.862 14.432 14.17 13.747 14.777 13.495 13.502 13.402 13.197 13.12 13.395 13.405 13.3 13.235 13.39 13.47 16.045 18.377 13.107 14.52 13.12 13.032 12.647 12.39 12.17 12.035 11.972 11.97 11.892 11.475 10.95 10.462 10.03 9.552 9.21 8.88 8.6 8.23 8.01 9.37 16.902 15.372 14.972 13.532 9.387 6.212 6.027 5.69 5.362 5.055 4.832 4.612 5.647 7.562 3.265 3.212 4.595 5 5.155 6.207 5.39 5.807 3.085 3.05 2.965 2.895 2.845 2.792 2.767 2.772 2.737 2.742 3.235 4.092 4.01 3.327 2.93 2.977 3.217 3.427 3.647 3.88 4.162 4.455 4.715 4.967 5.252 5.565 5.862 6.122 6.407 6.647 6.93 7.237 7.495 7.772 8.075 8.345 8.605 8.895 9.245 9.605 9.95 10.322 10.702 10.977 11.287 11.51 11.732 12.05 12.377 12.585 12.995 13.132 14.555 14.077 14.282 14.28 14.41 14.585 14.62 14.777 14.87 15.042 15.027 15.255 15.365 15.672 15.605 15.657 15.757 15.822 15.91 16.07 16.235 16.382 16.545 16.712 16.86 17.01 17.16 17.325 17.48 17.652 17.83 17.907 17.94 18.222 18.31 18.447 18.59 18.772 19 19.185 19.317 19.472 19.632 19.835 20.022 20.165 20.365 20.545 20.652 20.792 20.92 21.117 21.292 21.452 21.595 21.732 21.855 21.965 22.125 22.217 22.297 22.405 22.497 22.597 22.732 22.825 22.91 23.007 23.117 23.207 23.285 23.357 23.427 23.51 23.6 23.662 23.77 23.827 23.88 23.962 24.032 24.092 24.122 24.185 24.205 24.232 24.262 24.302 24.335 24.352 24.357 24.36 24.355 24.425 24.407 24.437 24.445 24.46 24.477 24.48 24.485 24.48 24.512 24.547 24.61 24.63 24.632 24.692 24.667 24.662 24.652 24.662 24.65 24.635 24.635 24.625 24.617 24.622 24.615 24.597 24.552 24.492 24.467 24.407 24.405 24.362 24.317 24.275 24.27 24.252 24.225 24.255 24.222 24.222 24.215 24.18 24.15 24.13 24.112 24.09 24.042 24.08 24.045 24.03 24.06 24.077 24.067 24.065 24.085 24.097 24.09 24.122 24.127 24.145 24.16 24.157 24.15 24.187 24.175 24.205 24.197 24.192 24.202 24.2 24.212 24.227 24.27 24.357 24.41 24.455 24.49 24.522 24.567 24.63 24.69 24.717 24.76 24.78 24.782 24.712 24.687 24.635 24.622 24.652 24.652 24.652 24.647 24.695 24.692 24.597 24.647 24.762 24.845 24.92 25.002 25.12 25.237 25.305 25.36 25.38 25.522 26.145 27.385 26.302 26.17 26.025 26.92 28.892 29.075 30.212 29.52 29.542 29.14 28.28 29.225 30.622 29.13 27.537 27.852 27.865 27.935 28.175 28.66 28.857
21.11 21.11 21.11 20.995 20.977 21.027 21.835 26.537 21.7 20.672 20.705 20.755 20.672 20.462 20.327 20.37 20.452 20.38 20.312 20.255 20.185 20.03 19.922 19.922 19.905 19.935 19.907 19.92 19.78 19.842 20.772 21.375 21.975 28.517 27.132 21.417 19.62 19.275 19.18 19.112 19.02 18.947 18.815 18.725 18.657 18.522 18.457 18.412 18.347 18.307 18.177 18.1 18.082 26.077 20.005 21.172 18.007 17.767 18.41 22.175 25.187 24.117 23.262 17.497 17.415 20.66 21.325 17.28 17.17 17.05 18.43 16.892 16.767 16.79 17.11 18.412 22.755 20.417 19.442 16.152 16.12 16.03 17.91 15.947 15.79 15.782 15.797 15.645 15.735 15.75 15.63 15.672 15.477 15.447 15.38 15.505 15.247 15.122 15.037 22.197 20.912 22.14 18.06 14.812 14.745 14.712 14.655 14.6 14.59 14.517 14.465 14.327 14.19 19.242 20.492 22.29 15.595 14.055 13.977 14.1 13.827 13.765 13.57 13.43 13.475 13.437 13.85 13.445 13.33 13.217 13.58 13.88 13.622 17.285 13.585 20.447 16.387 18.532 13.137 12.885 12.565 12.497 12.477 12.342 12.15 12.005 11.957 11.655 11.085 10.595 10.145 9.582 9.235 8.977 8.787 8.292 8.015 7.722 7.49 8.272 10.747 8.967 6.925 6.252 6.07 5.802 5.342 5.085 4.812 4.507 4.19 6.09 3.38 3.207 3.805 5.687 4.45 4.937 7.572 4.542 3.097 3.06 2.985 2.905 2.872 2.797 2.757 2.745 2.752 2.787 3.597 4.595 4.065 3.21 2.942 2.95 3.137 3.345 3.607 3.845 4.12 4.417 4.705 4.957 5.18 5.475 5.777 6.125 6.395 6.667 6.95 7.205 7.455 7.797 8.092 8.36 8.627 8.887 9.242 9.602 9.927 10.327 10.657 10.905 11.182 11.417 11.642 12.04 12.312 12.565 13.032 16.307 16.39 14.632 14.277 14.347 14.375 14.56 14.752 14.76 15.05 14.897 15.005 15.217 15.41 15.537 15.665 15.785 15.877 15.785 15.942 16.097 16.182 16.407 16.637 16.792 16.885 17.072 17.19 17.325 17.517 17.68 17.87 18.097 18.08 18.207 18.452 18.482 18.63 18.765 18.967 19.185 19.392 19.557 19.687 19.872 20.052 20.195 20.38 20.482 20.632 20.8 20.95 21.087 21.26 21.427 21.592 21.74 21.855 21.967 22.09 22.202 22.297 22.367 22.47 22.59 22.69 22.782 22.882 22.967 23.055 23.175 23.247 23.327 23.412 23.475 23.535 23.63 23.675 23.79 23.85 23.93 23.982 24.017 24.072 24.132 24.142 24.175 24.195 24.202 24.19 24.225 24.25 24.257 24.28 24.282 24.31 24.325 24.335 24.35 24.335 24.335 24.382 24.375 24.41 24.465 24.502 24.517 24.525 24.54 24.54 24.535 24.527 24.542 24.497 24.52 24.492 24.51 24.532 24.51 24.497 24.477 24.455 24.395 24.352 24.322 24.277 24.235 24.2 24.16 24.115 24.092 24.087 24.1 24.115 24.095 24.075 24.06 24.01 23.967 23.922 23.925 23.91 23.9 23.925 23.877 23.87 23.927 23.915 23.907 23.912 23.905 23.9 23.907 23.927 23.932 23.97 23.972 23.995 24.015 24 24.002 24.022 24.05 24.047 24.027 24.035 24.067 24.112 24.182 24.242 24.31 24.387 24.42 24.49 24.555 24.6 24.657 24.677 24.705 24.722 24.707 24.65 24.63 24.615 24.63 24.632 24.682 24.77 24.765 24.73 24.735 24.637 24.697 24.835 24.93 25 25.09 25.162 25.252 25.267 25.422 25.515 27.135 28.09 26.11 25.56 26.28 29.005 28.422 27.615 27.617 28.387 29.18 29.39 28.875 28.412 28.35 28.865 28.51 27.73 27.815 27.995 28.2 28.397 28.9
21.267 21.145 21.18 21.062 21.125 21.045 27.227 31.757 22.222 20.772 20.707 20.77 20.73 20.477 20.367 20.372 20.397 20.412 20.34 20.277 20.242 20.25 20.05 19.922 19.905 20.132 21.177 20.855 19.757 19.667 19.595 20.835 21.497 22.287 28.102 28.537 20.93 19.28 19.255 19.12 19.01 18.972 18.86 18.76 18.737 18.632 18.445 18.52 18.442 18.367 18.227 18.11 18.075 20.552 21.88 17.915 17.99 18.01 17.777 17.682 17.607 17.605 18.007 17.58 17.4 17.337 17.312 17.282 17.155 17.1 16.952 16.912 16.735 16.817 16.705 18.215 18.345 19.637 21.345 16.337 16.117 16.12 16.01 15.892 15.792 15.772 15.82 15.772 15.76 15.672 15.71 18.12 16.275 16.302 17.755 23.542 16.5 15.275 15.252 16.377 18.387 17.38 14.927 14.83 14.75 14.85 14.795 14.882 14.572 14.485 14.36 14.335 14.97 22.535 20.32 24.135 14.362 13.937 13.975 13.937 13.837 13.817 13.735 13.637 13.92 13.772 13.78 13.532 13.39 13.2 13.677 13.765 13.577 20.15 21.925 21.652 17.81 16.05 16.83 12.935 12.617 12.56 12.477 12.395 12.242 12.132 16.045 13.777 11.197 10.882 10.41 10.002 9.46 9.025 8.6 8.342 8.15 7.797 7.622 7.23 7.095 6.802 6.53 6.445 6.187 6.042 5.527 5.382 4.875 4.605 4.415 4.237 3.352 3.27 3.372 3.957 4.037 3.19 6.205 5.07 3.137 3.07 3.01 2.925 2.895 2.86 2.79 2.755 2.735 2.82 3.545 5.837 6.71 4.04 2.937 2.965 3.11 3.307 3.505 3.805 4.062 4.55 4.772 4.907 5.112 5.355 6.78 7.297 9.912 8.325 6.96 8.602 8.452 7.72 7.997 8.345 8.59 8.915 9.182 9.555 9.93 10.255 10.547 10.82 11.105 11.382 11.635 11.977 12.297 12.575 13.197 13.64 15.352 15.282 14.405 14.25 14.232 14.25 14.855 14.76 14.65 14.832 14.952 15.107 15.345 15.547 15.55 15.69 15.797 15.795 15.91 16.042 16.205 16.45 16.675 16.807 16.97 17.087 17.267 17.417 17.605 17.71 17.862 18.01 18.247 18.285 18.392 18.585 18.665 18.807 18.957 19.157 19.385 19.585 19.752 19.88 20.045 20.182 20.38 20.502 20.65 20.78 20.932 21.06 21.217 21.377 21.537 21.697 21.857 21.962 22.05 22.16 22.242 22.335 22.427 22.525 22.612 22.732 22.825 22.932 23.01 23.092 23.217 23.3 23.367 23.437 23.505 23.562 23.63 23.717 23.775 23.827 23.91 23.952 24.005 24.047 24.105 24.132 24.095 24.107 24.117 24.15 24.155 24.165 24.185 24.177 24.185 24.202 24.197 24.215 24.217 24.22 24.24 24.292 24.317 24.33 24.367 24.402 24.405 24.387 24.412 24.402 24.392 24.395 24.365 24.392 24.387 24.375 24.407 24.387 24.372 24.355 24.327 24.29 24.265 24.225 24.182 24.112 24.06 24.032 23.995 23.95 23.93 23.927 23.927 23.937 23.915 23.927 23.897 23.855 23.82 23.795 23.787 23.765 23.732 23.732 23.717 23.712 23.732 23.732 23.742 23.74 23.722 23.69 23.72 23.76 23.78 23.8 23.802 23.825 23.847 23.847 23.86 23.872 23.892 23.897 23.88 23.902 23.985 24.06 24.135 24.195 24.272 24.347 24.375 24.45 24.487 24.552 24.597 24.625 24.665 24.695 24.675 24.65 24.62 24.635 24.667 24.74 24.762 24.775 24.68 24.712 24.74 24.722 24.737 24.87 24.937 25.045 25.107 25.147 25.275 25.62 25.707 25.972 26.42 25.725 28.685 27.232 28.885 29.577 27.797 27.052 27.37 27.887 27.737 28.275 28.07 27.865 28.03 28.985 29.317 28.45 28.105 28.295 28.457 28.632
21.327 21.265 21.217 21.14 21.23 21.232 21.895 23.012 20.862 20.752 20.757 20.807 20.727 20.532 20.462 20.395 20.432 20.355 20.357 20.307 20.36 20.202 20.122 20.155 19.917 22.697 21.447 21.02 19.84 19.805 19.702 19.612 19.855 22.862 31.795 29.277 20.41 19.272 19.215 19.107 19.022 19.13 18.952 18.785 18.755 18.617 18.645 18.515 18.44 18.35 18.275 18.212 18.177 18.112 18.152 17.967 17.962 17.957 17.772 17.645 20.665 20.257 17.492 17.435 17.352 17.372 17.337 20.077 17.18 17.08 16.945 16.967 16.875 16.667 16.647 16.572 16.475 16.42 17.25 17.652 17.352 16.137 16.045 15.882 15.812 15.847 15.802 15.787 15.722 15.865 15.64 15.562 15.962 16.762 20.852 16.557 15.387 15.252 15.27 17.187 18.812 15.075 14.842 14.892 14.73 14.735 14.685 14.707 14.577 14.407 14.315 14.462 18.2 21.447 25.42 23.84 18.337 13.952 13.935 13.892 14.047 14.052 13.88 13.84 13.88 13.865 13.82 13.682 13.657 13.667 13.55 13.707 18.06 13.495 20.4 20.682 18.307 22.922 13.697 12.87 12.745 12.575 12.43 12.292 22.527 20.09 20.172 13.36 12.945 11.02 10.4 9.92 9.395 8.987 8.562 8.282 8.167 7.987 7.585 7.31 7.347 7.13 6.865 6.85 6.53 6.23 5.737 10.715 8.142 4.73 4.432 3.92 4.91 3.172 3.265 3.3 3.185 3.49 3.86 2.56 3.087 3.065 2.992 2.94 2.872 2.882 2.8 2.77 2.782 2.777 3.567 5.607 7.3 4.222 3.005 2.985 3.112 3.98 4.735 5.087 4.03 6.612 9.845 7.605 5.96 6.737 9.112 12.192 11.19 6.917 10.01 8.862 9.782 10.342 9.617 11.107 8.992 9.07 9.567 10.155 10.247 10.617 11.207 11.067 11.42 12.387 11.942 12.155 12.797 13.185 13.762 14.452 15.695 16.297 15.167 13.865 14.472 14.522 18.462 17.727 14.995 15.447 14.965 15.385 16.712 17.032 16.225 15.542 15.732 15.977 15.962 16.102 16.372 16.452 16.62 16.827 16.99 17.18 17.32 17.47 17.657 17.775 17.91 18.062 18.21 18.382 18.487 18.597 18.822 18.827 18.985 19.135 19.362 19.565 19.78 19.907 20.04 20.16 20.312 20.467 20.625 20.752 20.885 21.052 21.227 21.345 21.515 21.662 21.792 21.922 22.01 22.112 22.235 22.317 22.377 22.465 22.572 22.672 22.767 22.907 22.995 23.057 23.142 23.222 23.31 23.375 23.455 23.51 23.582 23.635 23.717 23.785 23.86 23.925 23.927 23.977 23.997 24 24.005 24.017 24.032 24.065 24.092 24.062 24.087 24.085 24.085 24.07 24.077 24.085 24.112 24.15 24.157 24.18 24.202 24.23 24.242 24.247 24.26 24.242 24.237 24.245 24.237 24.242 24.25 24.267 24.265 24.265 24.25 24.25 24.257 24.232 24.19 24.177 24.145 24.102 24.06 24.01 23.945 23.907 23.885 23.845 23.78 23.775 23.762 23.772 23.777 23.75 23.727 23.73 23.67 23.66 23.595 23.587 23.542 23.525 23.565 23.56 23.542 23.557 23.547 23.562 23.565 23.552 23.565 23.582 23.592 23.63 23.647 23.655 23.685 23.705 23.7 23.707 23.735 23.77 23.755 23.815 23.91 23.98 24.027 24.08 24.145 24.225 24.272 24.32 24.312 24.312 24.44 24.517 24.54 24.577 24.627 24.652 24.647 24.637 24.717 24.815 24.88 24.787 24.822 24.72 24.772 24.735 24.765 24.847 24.907 25.272 25.092 25.215 25.31 26.97 28.13 27.067 25.715 26.507 28.44 27.16 27.322 28.382 27.055 27.027 27.14 27.485 27.467 27.517 27.557 27.65 27.695 27.81 28.27 29.132 29.657 28.807 28.482 28.7
21.332 21.317 21.27 21.307 21.217 21.127 20.93 20.957 20.855 20.82 20.85 20.835 20.662 20.58 20.75 20.57 20.48 20.42 20.385 20.385 20.367 20.312 20.25 20.117 27.645 32.407 19.822 19.817 19.89 19.855 19.652 19.772 20.057 22.33 31.502 28.227 20.692 19.34 19.245 19.1 19.065 19.095 18.967 18.832 18.732 18.697 18.635 18.542 18.555 18.36 18.397 18.262 18.2 18.09 18.065 18.077 17.967 17.882 17.725 17.74 18.577 17.807 17.535 17.617 17.345 17.265 17.232 17.952 17.08 17.015 16.992 16.907 16.877 16.697 16.65 16.515 16.457 16.362 16.732 17.512 21.2 16.16 17.105 16.03 15.925 15.94 15.86 15.742 16.315 15.7 15.582 19.21 16.53 16.362 23.815 24.112 19.975 16.945 16.57 15.292 15.052 14.9 14.857 14.847 14.785 14.692 14.69 16.355 20.617 16.395 14.357 14.272 14.56 20.485 19.887 23.177 20.012 15.042 13.815 14.347 14.232 14.295 14.17 14.33 13.895 13.99 13.82 13.94 14.092 13.855 13.522 13.462 14.042 13.675 17.88 22.025 22.585 15.15 13.135 13.172 12.9 15.325 12.55 12.277 16.067 20.247 20.26 15.885 17.117 11.057 10.532 9.985 9.395 8.89 8.562 8.367 8.177 8 7.675 7.395 7.155 6.895 6.965 6.867 6.57 6.387 9.202 10.552 7.567 9.875 4.84 5.252 3.437 3.34 3.312 3.487 3.325 2.905 3.99 2.775 3.14 3.04 2.992 2.96 2.912 2.887 2.815 2.787 2.83 2.862 3.587 4.497 4.8 3.825 3.132 3.015 3.472 6.522 6.07 5.617 7.24 12.972 13.505 12.065 8.16 12.06 14.7 15.757 13.2 13.96 13.737 15.802 16.027 14.802 11.085 13.427 10.862 12.852 14.972 13.18 11.135 10.687 13.295 13.565 12.3 13.442 14.855 15.017 15.13 14.865 14.667 14.957 15.62 16.047 13.742 14.185 16.04 18.567 19.815 17.007 18.832 17.902 15.94 16.132 16.902 18.907 16.315 15.692 15.76 15.835 16.085 16.152 16.46 16.502 16.647 16.847 17.065 17.185 17.392 17.545 17.66 17.8 17.917 18.065 18.172 18.342 18.55 18.655 18.755 18.92 19.015 19.167 19.327 19.502 19.725 19.897 20.025 20.15 20.342 20.467 20.612 20.757 20.875 21.04 21.182 21.327 21.455 21.612 21.735 21.86 21.98 22.07 22.187 22.27 22.362 22.455 22.555 22.635 22.7 22.825 22.945 23.01 23.085 23.18 23.26 23.347 23.387 23.482 23.53 23.592 23.62 23.725 23.785 23.835 23.845 23.875 23.907 23.93 23.93 23.922 23.932 23.962 23.99 23.977 23.955 23.95 23.942 23.925 23.94 23.975 24.007 24.042 24.06 24.05 24.077 24.097 24.1 24.095 24.102 24.11 24.092 24.08 24.072 24.075 24.12 24.132 24.12 24.107 24.12 24.095 24.102 24.1 24.072 24.08 24.027 23.962 23.91 23.882 23.82 23.775 23.735 23.695 23.657 23.61 23.6 23.59 23.612 23.587 23.565 23.577 23.532 23.507 23.487 23.44 23.4 23.352 23.385 23.395 23.402 23.395 23.397 23.392 23.41 23.412 23.385 23.397 23.42 23.472 23.497 23.542 23.53 23.55 23.557 23.56 23.57 23.615 23.667 23.752 23.805 23.852 23.942 23.997 24.032 24.077 24.14 24.16 24.155 24.197 24.297 24.387 24.43 24.497 24.507 24.592 24.657 24.73 24.702 24.702 24.665 24.67 24.715 24.76 24.735 24.727 24.822 24.907 25.12 25.057 25.115 25.262 25.707 27.24 26.85 27.977 26.142 26.055 28.432 28.132 27.962 28.032 27.402 27.102 27.262 27.277 27.712 27.635 27.527 27.675 27.75 27.852 28.035 28.25 29.107 29.895 28.962 28.692
21.35 21.37 21.315 21.37 21.38 21.265 21.115 20.97 20.882 20.845 20.83 20.855 20.71 20.652 20.59 20.535 20.47 20.522 20.687 20.447 20.39 20.365 20.235 20.205 31.035 22.972 20.005 19.86 19.805 19.757 19.797 20.935 20.297 19.685 20.822 21.442 19.405 19.32 19.25 19.115 19.162 19.11 19.042 18.937 18.812 18.765 18.705 18.612 18.555 18.442 18.365 18.405 18.54 18.13 18.092 18 17.915 17.847 17.807 17.722 17.632 17.607 17.512 17.387 17.31 17.235 17.132 17.037 18.375 16.85 18.43 16.855 16.76 16.712 16.69 16.562 16.485 16.335 16.282 16.295 17.222 16.202 16.092 24.362 17.862 16.197 15.872 15.71 15.687 15.672 15.56 20.782 20.44 21.475 18.895 21.782 21.21 17.002 16.742 15.137 15.012 14.9 14.885 15.357 15.002 14.697 14.61 14.745 19.085 18.875 14.46 14.487 14.37 20.127 18.56 16.93 17.752 14.692 14.505 15.595 14.635 14.295 14.25 15.052 14.077 13.86 13.827 14.212 14.21 13.917 13.622 13.692 13.645 13.65 13.83 17.467 18.905 20.592 13.072 13.045 13.72 14.695 15.772 27.085 25.137 23.67 27.922 21.712 12.03 11.077 10.797 9.91 9.407 8.845 8.64 8.365 8.187 7.942 7.797 7.487 7.555 6.965 6.905 6.725 6.612 8.307 6.272 7.45 6.717 6.005 4.36 4.682 3.487 3.79 3.237 3.537 3.245 2.945 2.957 4.075 4.192 3.087 2.985 2.967 2.925 2.872 2.81 2.762 2.785 2.812 3.407 5.857 5.655 4.522 4.155 3.295 5.407 6.96 6.597 6.802 8.122 10.387 10.652 11.205 10.162 13.332 14.912 15.625 15.632 13.412 14.21 15.357 13.837 9.047 9.492 13.07 12.002 10.115 10.46 11.255 10.11 11.53 12.472 14.917 12.325 12.815 13.34 14.44 14.922 14.692 14.647 15.285 14.425 14.412 13.335 14.862 15.8 15.932 16.507 17.62 18.732 18.86 16.232 15.227 16 16.172 17.392 16.642 16.857 17.467 19.315 16.9 16.632 16.562 16.697 16.89 17.045 17.23 17.427 17.575 17.682 17.815 17.942 18.08 18.22 18.375 18.535 18.775 18.785 18.895 19.187 19.165 19.302 19.46 19.677 19.835 20.025 20.167 20.325 20.452 20.592 20.755 20.89 21.007 21.167 21.31 21.43 21.537 21.672 21.835 21.952 22.067 22.145 22.252 22.337 22.44 22.52 22.597 22.68 22.762 22.87 22.99 23.052 23.132 23.222 23.285 23.345 23.382 23.425 23.487 23.557 23.62 23.692 23.707 23.757 23.79 23.81 23.86 23.842 23.837 23.847 23.857 23.857 23.862 23.822 23.82 23.812 23.817 23.842 23.877 23.912 23.935 23.942 23.932 23.917 23.94 23.97 23.977 23.962 23.96 23.927 23.927 23.965 23.967 23.962 23.96 23.967 23.962 23.967 23.967 23.965 23.967 23.945 23.93 23.885 23.86 23.802 23.755 23.695 23.645 23.587 23.52 23.51 23.482 23.447 23.43 23.435 23.425 23.405 23.395 23.385 23.362 23.315 23.29 23.255 23.23 23.217 23.247 23.237 23.217 23.255 23.237 23.24 23.245 23.24 23.24 23.262 23.307 23.327 23.355 23.36 23.402 23.43 23.427 23.442 23.537 23.567 23.655 23.725 23.78 23.85 23.872 23.922 23.915 23.955 24.017 24.077 24.137 24.197 24.24 24.315 24.387 24.447 24.52 24.565 24.615 24.605 24.597 24.587 24.632 24.682 24.695 24.68 24.71 24.827 24.92 25.002 25.05 25.147 25.29 25.597 27.025 27.047 27.117 25.925 25.907 26.687 29.177 29.865 28.06 27.35 27.065 27.202 27.257 27.497 27.505 27.622 27.755 27.902 27.97 28.162 28.27 28.327 29.715 32.54 31.707
21.422 21.425 21.325 21.345 21.347 21.282 21.15 21.007 20.935 20.875 20.91 20.895 20.732 20.66 20.632 20.587 20.535 20.575 20.5 20.48 20.49 20.432 20.235 20.21 20.157 36.01 31.595 22.692 19.77 19.707 19.85 20.742 19.837 19.662 23.287 19.485 19.385 19.332 19.237 19.175 19.382 19.145 19.095 18.905 18.902 18.842 18.722 18.632 18.495 18.41 18.41 18.315 18.187 18.145 18.22 18.062 17.852 17.905 17.845 17.742 17.562 17.53 17.46 17.365 17.347 17.212 17.25 17.935 20.35 16.877 16.857 16.915 16.815 16.667 16.722 16.595 16.597 16.405 16.332 16.342 16.375 16.097 19.257 22.717 26.67 16.64 18.267 16.105 15.722 15.652 15.56 17.23 19.812 15.592 18.575 16.162 16.655 16.35 16.505 15.17 15.045 15.665 14.902 15.22 15.85 15.287 15.3 14.61 19.217 17.02 14.587 14.997 14.325 14.31 16.595 17.527 15.135 14.02 14.122 14.315 14.895 14.615 14.502 14.942 14.717 14.067 13.95 14.295 14.26 13.945 13.69 13.455 13.575 13.56 13.522 13.295 13.252 13.43 13.055 14.595 19.82 22.225 21.365 18.185 24.077 30.045 17.977 20.765 11.74 11.025 10.405 9.927 9.367 8.83 8.58 8.295 8.025 7.887 7.765 8.267 7.485 7.142 6.947 6.68 6.62 12.232 6.42 5.407 4.977 4.527 4.237 3.887 3.612 3.255 3.17 3.837 3.33 3.55 3.997 2.93 3.107 3.107 3.06 2.995 2.91 2.842 2.802 2.74 2.737 2.94 3.475 4.292 4.94 5.03 3.245 4.227 5.71 6.3 4.602 5.335 6.815 10.435 9.192 8.38 7.395 11.535 15.237 14.377 11.795 11.147 12.682 12.972 11.21 10.917 10.842 13.977 15.595 11.435 13.097 13.235 11.37 12.305 15.767 13.75 13.865 13.425 14.177 13.925 13.172 12.815 12.552 12.847 12.97 13.1 13.265 13.837 13.915 14.61 14.385 17.392 20.247 18.142 18.035 16.825 17.005 16.615 16.8 15.53 15.82 17.512 18.547 17.02 16.95 17.237 19.345 17.565 17.065 17.275 17.425 17.585 17.735 17.835 17.95 18.092 18.202 18.367 18.545 18.687 18.925 18.932 19.067 19.232 19.252 19.4 19.572 19.75 19.947 20.122 20.267 20.407 20.585 20.732 20.862 20.995 21.13 21.262 21.367 21.497 21.645 21.77 21.905 22.04 22.135 22.225 22.287 22.397 22.475 22.53 22.597 22.687 22.84 22.915 23.005 23.09 23.16 23.217 23.272 23.312 23.365 23.437 23.492 23.545 23.58 23.635 23.652 23.687 23.732 23.757 23.747 23.737 23.777 23.78 23.745 23.715 23.705 23.697 23.727 23.74 23.78 23.805 23.792 23.782 23.782 23.757 23.775 23.815 23.83 23.817 23.825 23.802 23.797 23.83 23.81 23.797 23.8 23.805 23.817 23.817 23.855 23.845 23.822 23.822 23.8 23.812 23.78 23.727 23.662 23.627 23.587 23.51 23.457 23.412 23.357 23.317 23.28 23.275 23.267 23.257 23.23 23.232 23.245 23.202 23.142 23.115 23.082 23.065 23.05 23.057 23.112 23.07 23.067 23.095 23.08 23.097 23.105 23.115 23.127 23.14 23.175 23.207 23.24 23.245 23.275 23.28 23.34 23.402 23.445 23.53 23.647 23.702 23.767 23.81 23.812 23.792 23.852 23.917 23.997 24.037 24.065 24.125 24.225 24.32 24.432 24.477 24.46 24.44 24.437 24.442 24.455 24.502 24.542 24.637 24.712 25 25.53 25.242 25.085 25.155 25.232 25.377 25.48 26.025 26.735 26.125 29.225 28.595 27.407 28.04 28.27 27.665 27.287 27.125 27.24 27.675 27.4 27.512 27.785 27.84 28.032 28.222 28.177 28.272 29.01 32.255 35.96 35.902
21.692 21.535 21.43 21.387 21.39 21.332 21.157 21.142 20.99 20.917 20.9 20.867 20.842 20.722 20.712 20.65 20.62 20.722 20.622 20.555 20.575 20.425 20.4 20.312 20.225 24.79 21.705 21.832 19.872 19.927 19.867 19.78 19.73 19.735 19.625 19.512 19.46 19.435 19.375 19.327 19.597 19.297 19.135 18.995 18.985 18.895 18.74 18.602 18.525 18.435 18.55 18.435 18.63 18.197 18.137 18.01 17.892 17.855 17.785 17.687 17.715 17.52 18.285 17.217 17.292 17.172 17.07 17.677 16.95 16.897 16.877 16.895 16.83 16.645 16.607 16.615 16.597 16.467 16.292 16.287 16.207 16.182 16.63 16.595 19.05 17.932 20.412 20.925 16.187 15.84 15.702 15.582 15.592 16.33 15.417 15.435 15.455 15.27 14.965 15.175 15.037 15.125 14.947 14.915 15.527 18.437 14.745 17.215 15.225 14.697 17.235 14.52 14.28 14.287 16.047 18.955 21.17 22.077 18.982 14.45 15.477 14.647 15.92 14.86 15.737 14.49 14.05 16.382 14.56 14.465 13.705 13.762 13.777 13.555 13.46 13.402 13.647 13.832 14.382 15.377 24.45 22.935 18.155 19.08 13.422 20.592 23.09 14.455 18.43 11.382 10.715 9.977 9.407 8.965 8.92 8.457 11.032 8.922 7.71 9.332 11.2 7.207 6.895 6.762 7.68 13.01 13.387 12.567 8.542 4.605 4.262 3.77 3.69 3.33 3.335 3.937 3.36 3.595 3.607 4.322 3.54 3.177 3.115 3.047 2.955 2.847 2.837 2.792 2.747 2.745 3.207 3.255 3.757 4.447 4.492 5.997 4.222 5.602 3.732 4.185 6.142 5.845 7.725 9.847 7.885 8.932 8.922 8.447 8.537 9.73 9.785 11.82 11.427 11.367 14.52 13.915 15.785 15.682 12.37 13.782 12.327 12.91 13.12 13.16 13.252 13.177 12.502 12.232 12.045 12.315 12.52 12.71 13.012 13.21 13.337 13.567 13.745 13.865 14.095 14.537 14.887 16.375 16.122 16.632 16.96 17.017 17.425 16.11 15.52 18.465 16.07 18.847 18.8 19.197 17.655 17.572 17.082 17.262 17.45 17.585 17.74 17.85 17.957 18.072 18.217 18.37 18.527 18.627 18.777 19.05 19.027 19.127 19.372 19.37 19.487 19.677 19.88 20.072 20.25 20.382 20.53 20.71 20.852 20.985 21.1 21.197 21.35 21.47 21.607 21.752 21.862 21.99 22.082 22.185 22.27 22.365 22.442 22.512 22.557 22.65 22.757 22.857 22.945 23.025 23.057 23.132 23.187 23.24 23.295 23.357 23.415 23.437 23.472 23.522 23.577 23.61 23.647 23.647 23.66 23.637 23.63 23.66 23.622 23.615 23.607 23.617 23.647 23.662 23.682 23.68 23.672 23.652 23.642 23.66 23.675 23.675 23.682 23.667 23.67 23.682 23.665 23.655 23.655 23.652 23.655 23.655 23.652 23.65 23.68 23.655 23.63 23.617 23.615 23.667 23.6 23.547 23.515 23.46 23.425 23.377 23.322 23.282 23.222 23.185 23.122 23.102 23.062 23.055 23.047 23.047 23.037 23.037 23 22.96 22.937 22.93 22.91 22.9 22.89 22.93 22.905 22.93 22.947 22.962 22.965 22.98 22.982 22.995 23.027 23.067 23.102 23.102 23.152 23.177 23.207 23.29 23.342 23.407 23.547 23.605 23.692 23.745 23.772 23.76 23.795 23.827 23.882 23.932 23.992 24.095 24.165 24.167 24.197 24.21 24.247 24.28 24.31 24.392 24.52 24.615 24.647 24.795 24.892 25.332 25.41 25.205 25.192 25.28 25.35 26.242 27.265 26.292 25.585 26.047 28.397 27.702 28.825 27.615 27.522 27.165 27.202 27.175 27.432 27.39 27.545 27.575 27.74 27.915 28.047 28.415 28.42 28.577 31.807 34.495 36.237 34.86
21.577 21.567 21.505 21.447 21.437 21.417 21.28 21.297 21.112 21.157 20.93 20.905 20.862 20.79 20.765 20.782 20.74 20.657 20.607 20.54 20.45 20.46 20.402 20.282 20.2 20.282 20.117 19.995 20.262 20.327 20.17 19.842 19.652 19.567 19.662 19.682 19.587 20.665 19.872 19.422 19.357 19.315 19.115 19.215 18.992 18.82 18.74 18.692 18.622 18.47 19.4 18.642 18.6 18.1 18.017 17.97 17.935 17.85 17.825 17.695 17.59 17.395 17.85 17.252 17.117 17.12 17.022 17.362 17.067 17.07 16.985 16.9 16.825 16.652 16.62 16.57 16.547 16.542 16.415 16.425 16.302 16.29 16.195 16.13 16.097 16.052 15.895 15.805 15.74 15.722 15.632 15.59 16.43 15.802 18.532 15.472 15.405 15.305 15.247 15.322 15.12 15 15.74 14.907 14.857 14.68 19.84 14.662 14.535 14.472 14.435 14.432 14.41 14.33 17.177 15.995 20.675 18.057 14.6 14.775 14.477 14.98 15.482 14.83 14.487 14.66 14.302 13.99 16.185 16.227 13.745 13.62 13.99 13.872 13.472 13.375 13.352 13.335 13.25 22.49 13.01 12.987 15.695 12.647 15.3 16.077 13.425 16.622 11.832 11.465 11.187 13.085 9.587 9.025 8.622 8.315 8.157 7.867 7.672 7.5 9.83 12.117 14.76 13.705 13.057 8.935 16.622 14.177 5.765 4.777 4.362 3.712 3.445 3.587 3.572 3.985 3.972 3.517 4.062 4.767 7.395 4.72 3.087 3.017 2.97 2.877 2.832 2.807 2.78 2.75 2.86 2.86 2.75 3.39 2.982 4.092 3.47 7.997 6.68 4.422 4.93 5.785 7.255 7.71 8.65 7.642 7.33 7.562 8.085 8.72 8.982 9.44 11.397 15.41 13.027 13.36 13.14 12.912 11.785 11.365 11.347 11.82 12.207 12.062 11.632 11.43 11.505 11.7 12.007 12.272 12.482 12.627 12.927 13.217 13.392 13.565 13.735 13.885 14.017 14.15 14.367 15.127 15.617 15.922 15.287 15.407 16.11 15.465 15.552 16.975 17.47 18.855 18.135 16.322 17.637 18.765 17.135 17.317 17.442 17.61 17.775 17.857 17.937 18.06 18.185 18.36 18.475 18.615 18.752 18.87 19.027 19.092 19.247 19.382 19.457 19.617 19.792 19.975 20.152 20.307 20.467 20.607 20.79 20.942 21.07 21.165 21.287 21.407 21.577 21.732 21.787 21.92 22.052 22.132 22.225 22.297 22.4 22.515 22.527 22.61 22.68 22.787 22.885 22.94 22.99 23.047 23.11 23.187 23.225 23.28 23.29 23.337 23.39 23.42 23.492 23.547 23.545 23.557 23.56 23.55 23.545 23.54 23.532 23.52 23.535 23.547 23.56 23.547 23.57 23.557 23.535 23.54 23.535 23.537 23.53 23.537 23.54 23.535 23.54 23.515 23.56 23.547 23.515 23.507 23.502 23.5 23.5 23.507 23.497 23.495 23.465 23.465 23.435 23.43 23.397 23.382 23.332 23.292 23.257 23.255 23.202 23.122 23.07 23.015 22.96 22.907 22.887 22.882 22.86 22.867 22.852 22.847 22.837 22.81 22.81 22.777 22.77 22.745 22.725 22.735 22.795 22.787 22.802 22.84 22.827 22.855 22.852 22.855 22.855 22.942 22.977 22.997 23.05 23.08 23.102 23.167 23.247 23.327 23.42 23.525 23.617 23.662 23.69 23.742 23.765 23.77 23.822 23.82 23.912 23.925 24.01 24.045 24.147 24.24 24.305 24.385 24.525 24.972 25.302 25.207 25.265 25.14 25.1 25.037 25.262 25.255 25.257 25.317 25.322 26.72 27.25 27.645 27.085 28.027 30.345 29.002 29.322 27.287 27.33 27.367 27.407 27.485 27.537 27.58 27.65 27.682 27.805 28.025 28.015 28.14 28.352 28.8 32.327 34.452 35.35 29.575
21.595 21.612 21.54 21.54 21.547 21.407 21.33 21.257 21.182 21.102 20.995 20.932 20.867 20.877 20.867 20.795 20.742 20.747 20.655 20.555 20.515 20.467 20.392 20.35 20.27 20.2 20.022 20.107 20.312 20.302 20.12 20.155 19.915 19.552 19.537 19.665 19.585 20.95 23.232 19.432 19.532 19.342 19.49 19.342 19.075 18.977 18.757 18.76 18.612 18.442 18.387 18.27 18.197 18.145 18.06 18.027 17.895 17.835 17.822 17.712 17.52 17.37 17.34 17.265 17.135 17.05 17.182 17.215 17.022 17.095 16.98 16.927 16.785 16.65 16.675 16.575 16.545 16.387 16.392 16.28 16.272 16.322 16.225 16.34 16.115 16.065 16.352 15.83 19.617 20.047 15.852 15.692 17.945 17.99 20.95 15.435 15.437 15.267 15.235 15.25 15.155 15.112 15.042 14.92 14.85 15.61 16.427 14.612 14.622 14.642 14.465 14.47 14.372 14.637 14.407 15.105 14.32 14.44 14.837 14.337 14.565 14.397 14.555 19.93 15.402 15.86 14.535 14.14 13.97 13.94 13.657 13.517 13.577 13.672 13.402 13.447 13.4 13.45 13.317 13.265 15.61 19.237 15.967 17.797 16.027 12.79 18.182 14.667 11.957 11.555 11.145 11.015 9.697 9.095 8.765 8.46 8.107 8.73 14.955 20.805 12.135 7.127 6.935 12.282 8.765 8.242 6.972 7.625 5.205 5.37 4.462 3.637 3.595 3.26 3.545 3.665 3.42 3.695 3.67 2.582 3.725 3.157 3.102 3.04 2.99 2.942 2.865 2.83 2.795 2.797 2.84 2.81 2.722 2.767 2.862 2.995 3.02 3.367 3.79 4.21 4.595 5.02 5.58 6.57 7.23 6.797 7.057 6.96 7.462 7.887 7.9 8.332 8.47 8.785 7.645 11.672 12.755 9.115 9.292 9.622 9.827 10.342 10.457 10.702 10.912 11.182 11.422 11.617 11.935 12.227 12.455 12.582 12.84 13.16 13.395 13.562 13.687 13.817 13.955 14.067 14.222 14.39 14.592 14.667 14.8 14.965 15.127 15.28 15.88 17.732 18.43 16.76 19.007 18.967 18.345 20.582 18.44 17.347 17.415 17.555 17.675 17.782 17.925 18.022 18.147 18.305 18.435 18.577 18.677 18.745 18.927 19.155 19.17 19.325 19.485 19.565 19.712 19.885 20.055 20.277 20.435 20.577 20.697 20.86 21.015 21.157 21.252 21.392 21.555 21.67 21.772 21.85 21.967 22.09 22.185 22.275 22.367 22.48 22.512 22.515 22.61 22.697 22.772 22.835 22.912 22.975 23.037 23.102 23.12 23.16 23.222 23.255 23.302 23.345 23.405 23.452 23.475 23.495 23.467 23.43 23.437 23.432 23.42 23.44 23.445 23.455 23.422 23.435 23.43 23.417 23.402 23.41 23.41 23.39 23.38 23.422 23.415 23.407 23.387 23.387 23.397 23.377 23.37 23.365 23.35 23.377 23.357 23.35 23.317 23.31 23.302 23.285 23.255 23.242 23.225 23.207 23.155 23.127 23.127 23.077 23.05 22.995 22.92 22.86 22.8 22.755 22.712 22.707 22.685 22.657 22.68 22.677 22.667 22.68 22.675 22.632 22.622 22.587 22.592 22.58 22.627 22.662 22.682 22.685 22.717 22.71 22.757 22.777 22.762 22.772 22.827 22.885 22.927 22.962 23.017 23.08 23.162 23.237 23.332 23.41 23.527 23.557 23.615 23.627 23.645 23.65 23.667 23.68 23.96 24.807 24.59 24.9 25.072 25.007 25.212 25.487 25.845 26.19 26.285 26.44 26.322 26.23 25.86 25.347 25.26 25.577 25.492 25.375 25.842 26.49 25.91 26.792 27.265 25.65 26.66 30.02 28.05 27.525 27.357 27.512 27.46 27.47 27.56 27.602 27.642 27.882 27.977 28.147 28.135 28.175 28.292 28.367 31.645 34.712 31.83 29.605
21.627 21.595 21.55 21.585 21.592 21.532 21.4 21.29 21.182 21.172 21.01 20.945 20.912 21.052 20.887 20.902 20.942 20.747 20.667 20.67 20.525 20.52 20.387 20.337 20.317 20.21 20.095 20.285 20.437 20.192 20.027 19.997 19.99 19.8 19.74 19.592 19.515 19.55 19.525 19.57 19.432 19.34 19.835 19.282 19.122 19.337 18.852 18.722 18.557 18.497 18.37 18.455 18.16 18.2 18.727 18.97 18.077 18.645 17.825 17.762 17.68 17.44 17.39 17.632 17.262 17.287 17.202 17.112 17.12 17.097 16.972 16.857 16.765 16.74 16.645 16.647 16.512 16.505 16.402 16.325 16.325 16.302 16.292 16.19 16.155 16.92 19.412 18.06 24.415 28.57 18.007 23.065 24.315 24.005 21.145 15.465 15.415 15.35 15.272 15.212 15.212 15.217 14.967 14.972 14.775 17.922 14.682 14.707 14.642 14.735 14.572 14.422 14.477 14.492 14.462 14.535 17.085 14.57 14.257 14.217 14.965 15.54 14.45 15.627 20.247 15.265 19.56 14.192 14.005 13.817 13.682 13.547 13.54 13.505 13.542 13.512 13.44 13.41 13.39 13.247 13.095 17.6 16.042 15.272 16.175 20.162 23.062 14.96 20.275 11.382 11.037 10.34 9.825 9.215 8.805 8.597 8.297 10.51 12.502 10.38 9.522 8.017 6.942 6.792 7.72 6.347 5.895 5.672 5.43 5.01 4.357 3.535 3.165 3.13 3.455 4.465 3.132 3.502 3.117 2.405 2.895 3.187 3.15 3.065 2.975 2.952 2.895 2.82 2.822 2.81 2.837 2.857 2.747 2.717 2.817 2.917 2.97 3.305 3.847 4.257 4.56 4.775 4.972 5.455 5.76 6.12 6.222 6.31 6.66 6.935 7.265 7.362 7.447 7.582 7.722 7.82 8.177 8.43 8.847 9.222 9.62 9.965 10.297 10.52 10.785 11.097 11.33 11.572 11.83 12.13 12.35 12.5 12.687 13.025 13.29 13.447 13.595 13.707 13.845 13.967 14.155 14.31 14.47 14.627 14.78 14.95 15.142 15.282 15.43 16.152 17.04 17.287 18.262 19.647 19.92 17.925 20.25 17.552 17.34 17.44 17.497 17.675 17.847 17.955 18.062 18.17 18.3 18.465 18.577 18.63 18.76 18.962 19.125 19.172 19.395 19.602 19.652 19.8 19.965 20.185 20.345 20.517 20.652 20.79 20.95 21.085 21.212 21.36 21.505 21.592 21.72 21.81 21.895 22.052 22.135 22.22 22.307 22.377 22.427 22.49 22.547 22.61 22.665 22.747 22.835 22.892 22.935 22.995 23.05 23.077 23.155 23.197 23.23 23.285 23.322 23.34 23.387 23.392 23.367 23.367 23.337 23.377 23.362 23.36 23.35 23.345 23.33 23.33 23.312 23.302 23.292 23.272 23.26 23.245 23.255 23.267 23.262 23.28 23.25 23.237 23.235 23.227 23.227 23.232 23.225 23.202 23.185 23.16 23.145 23.147 23.117 23.102 23.11 23.11 23.072 23.045 23.017 22.975 22.952 22.935 22.895 22.812 22.755 22.7 22.67 22.635 22.602 22.547 22.492 22.467 22.48 22.51 22.502 22.497 22.507 22.497 22.502 22.487 22.455 22.475 22.447 22.525 22.547 22.595 22.727 22.625 22.62 22.662 22.695 22.665 22.715 22.76 22.807 22.867 22.89 22.96 23.062 23.16 23.245 23.307 23.42 23.455 23.512 23.497 23.495 23.522 24.03 24.792 26.745 28.12 27.195 26.58 26.327 26.17 26.237 26.292 26.107 25.747 26.025 26.272 26.727 26.977 27.042 27.69 27.452 26.75 26.57 25.98 25.73 25.652 25.555 25.915 26.692 27.365 27.922 29.23 27.48 27.25 27.255 27.295 27.35 27.377 27.442 27.592 27.73 27.757 27.932 28.03 28.147 28.292 28.302 29.492 30.435 29.677 28.7 28.762
21.71 21.612 21.592 21.602 21.625 21.55 21.467 21.432 21.355 21.212 21.082 21.022 20.972 21.03 21 20.905 20.955 20.797 20.645 20.615 20.592 20.612 20.562 20.385 20.3 20.22 20.317 20.562 20.347 20.117 20.055 19.922 20.057 19.905 19.817 19.745 19.605 19.567 19.48 19.502 19.442 19.532 19.26 19.15 19.105 18.837 18.81 18.715 18.575 18.607 18.37 18.287 18.44 18.46 18.367 18.155 18.885 17.91 17.815 19.142 18.48 17.422 17.505 17.355 17.332 17.767 17.322 17.222 17.12 17.017 16.997 16.957 16.855 16.722 16.567 16.635 16.692 16.552 16.502 16.362 16.37 16.372 16.107 16.265 16.077 16.055 16.695 19.237 24.152 24.525 20.71 22.057 16.28 21.245 20.175 15.442 15.342 15.315 15.275 15.252 15.162 15.112 15.06 14.95 14.842 14.817 14.83 14.722 14.625 14.507 14.452 14.482 14.49 15.39 14.36 14.575 14.642 14.435 14.33 14.76 14.512 14.46 14.31 14.057 14.237 14.435 14.18 14.217 14.087 13.755 13.677 13.755 13.602 13.587 13.645 13.615 13.405 13.485 13.432 13.187 16.78 13.507 13.147 13.242 16.117 16.39 15.827 19.4 16.947 15.302 11.27 10.51 10.05 9.352 8.857 8.69 8.405 10.087 9.997 7.465 9.922 9.575 6.955 6.69 6.517 6.265 5.862 5.632 6.522 5.362 4.247 3.492 3.117 2.96 3.88 4.397 3.122 3.455 3.317 2.422 3.122 3.325 3.537 3.13 3.015 2.967 2.895 2.842 2.825 2.812 2.847 2.805 2.722 2.667 2.782 2.877 2.977 3.19 3.75 4.225 4.56 4.847 5.025 5.21 5.36 5.572 5.865 6.272 6.575 6.875 7.112 7.262 7.36 7.56 7.705 7.8 8.03 8.392 8.742 9.04 9.415 9.872 10.227 10.477 10.637 10.937 11.225 11.485 11.752 12.017 12.225 12.337 12.517 12.87 13.1 13.272 13.425 13.537 13.67 13.827 14.027 14.207 14.36 14.532 14.682 14.875 15.05 15.217 15.337 15.582 16.367 17.182 17.34 18.065 18.375 17.59 19.717 18.915 17.177 17.252 17.375 17.48 17.682 17.832 17.955 18.075 18.142 18.247 18.37 18.492 18.625 18.712 18.977 19.227 19.272 19.452 19.685 19.722 19.875 20.05 20.267 20.45 20.597 20.77 20.89 21.03 21.167 21.287 21.425 21.552 21.65 21.742 21.862 21.982 22.07 22.177 22.3 22.327 22.407 22.462 22.495 22.532 22.592 22.637 22.73 22.792 22.837 22.887 22.96 23 23.065 23.11 23.157 23.192 23.217 23.24 23.267 23.28 23.315 23.305 23.27 23.295 23.26 23.27 23.255 23.25 23.22 23.22 23.232 23.197 23.172 23.135 23.147 23.152 23.132 23.11 23.097 23.102 23.112 23.095 23.087 23.092 23.077 23.075 23.062 23.045 23.035 23.012 22.99 22.96 22.952 22.965 22.935 22.905 22.885 22.87 22.86 22.83 22.78 22.75 22.69 22.655 22.592 22.572 22.535 22.472 22.44 22.38 22.345 22.3 22.322 22.335 22.38 22.365 22.385 22.365 22.357 22.365 22.342 22.362 22.367 22.35 22.42 22.455 22.53 22.495 22.53 22.56 22.582 22.567 22.607 22.647 22.717 22.762 22.82 22.877 22.94 23.042 23.125 23.242 23.287 23.332 23.337 23.407 23.485 24.052 25.252 26.902 26.86 27.085 26.897 25.697 25.11 24.265 24.352 24.707 24.512 24.46 24.545 24.65 24.952 25.41 26.072 27.095 26.937 27.155 27.185 27.105 26.845 27.087 25.932 26.3 25.545 30.612 28.11 27.99 27.39 27.147 27.257 27.23 27.322 27.465 27.515 27.525 27.557 27.647 27.842 27.95 28.13 28.3 28.927 29.76 31.527 28.685 28.692 28.782
21.787 21.687 21.692 21.655 21.802 21.682 21.53 21.457 21.302 21.23 21.14 21.142 21.037 21.05 21.015 20.94 20.897 20.79 20.652 20.625 20.557 20.58 20.61 20.467 20.28 20.305 20.49 20.475 20.205 20.047 20.11 19.995 19.93 19.917 19.902 19.86 19.74 19.627 19.51 19.342 19.387 19.417 19.372 19.16 19.122 18.9 18.847 18.702 18.642 18.537 18.42 18.325 18.42 18.227 18.202 23.352 21.282 19.515 17.805 17.74 17.93 17.447 17.452 17.472 17.44 17.43 17.415 17.23 17.215 17.985 17.32 17.002 16.902 16.805 16.615 16.635 16.595 16.442 16.41 16.27 16.237 16.185 16.187 16.12 16.052 15.97 15.86 15.812 15.782 15.757 15.745 15.767 15.645 15.572 15.59 15.39 15.452 15.387 15.317 15.297 15.187 15.127 15.187 15.102 14.955 14.957 14.815 14.735 14.615 14.622 14.607 14.5 14.72 14.55 15.107 14.5 14.645 14.535 14.632 14.737 14.53 14.337 14.097 14.33 14.622 14.592 14.46 14.225 13.95 13.817 13.872 13.705 13.742 16.227 14.965 13.582 13.44 14.132 13.615 13.27 13.577 13.16 15.522 13.255 17.325 15.41 18.65 17.55 17.105 11.572 13.997 10.805 10.34 13.895 12.555 9.57 8.68 9.592 14.855 17.072 9.2 7.015 6.887 6.7 6.42 6.405 5.907 5.667 5.185 5.785 8.23 6.647 7.012 4.175 3.235 3.362 3.015 3.227 2.667 2.552 3.227 3.427 3.34 3.172 3 2.952 2.907 2.835 2.81 2.83 2.845 2.832 2.75 2.63 2.762 2.902 3.022 3.255 3.615 4.035 4.44 4.72 4.985 5.245 5.445 5.625 5.77 6.072 6.462 6.665 6.907 7.14 7.285 7.442 7.62 7.785 8 8.347 8.637 8.962 9.215 9.592 9.967 10.317 10.537 10.785 11.06 11.295 11.597 11.85 12.052 12.165 12.312 12.65 12.877 13.067 13.212 13.357 13.52 13.7 13.91 14.1 14.265 14.432 14.62 14.79 14.937 15.065 15.197 15.352 15.51 16.437 16.375 18.82 17.16 16.757 16.712 18.292 17.01 17.082 17.162 17.295 17.457 17.622 17.795 17.895 17.985 18.05 18.162 18.287 18.442 18.6 18.752 18.98 19.212 19.295 19.555 19.667 19.772 19.962 20.152 20.36 20.532 20.702 20.852 20.962 21.115 21.235 21.367 21.47 21.57 21.682 21.825 21.902 21.997 22.077 22.202 22.257 22.34 22.415 22.455 22.485 22.515 22.58 22.617 22.672 22.722 22.797 22.9 22.94 22.977 23.032 23.045 23.09 23.135 23.13 23.152 23.17 23.21 23.23 23.21 23.212 23.177 23.162 23.155 23.142 23.137 23.117 23.107 23.082 23.035 23.042 23.022 23.01 22.995 22.975 22.957 22.947 22.942 22.967 22.962 22.96 22.947 22.93 22.902 22.862 22.86 22.845 22.817 22.817 22.792 22.745 22.755 22.757 22.735 22.732 22.67 22.61 22.577 22.575 22.485 22.477 22.462 22.425 22.357 22.317 22.255 22.225 22.182 22.182 22.142 22.16 22.165 22.22 22.22 22.22 22.225 22.232 22.242 22.24 22.26 22.255 22.242 22.35 22.37 22.407 22.447 22.455 22.475 22.502 22.53 22.565 22.615 22.682 22.725 22.755 22.852 23.007 23.102 23.152 23.2 23.22 23.315 23.952 25.065 26.582 26.642 26.437 25.675 25.127 24.11 23.975 23.922 23.975 24.047 24.135 24.215 24.35 24.622 24.705 24.752 24.807 24.897 24.992 25.255 25.385 25.707 26.645 28.215 27.73 25.92 26.395 27.057 27.192 27.245 28.562 27.85 27.19 27.132 27.305 27.372 27.452 27.527 27.57 27.64 27.777 27.935 28.095 28.292 28.362 31.545 31.73 31.025 28.662 28.767 29.025
21.895 21.777 21.725 21.707 21.705 21.742 21.632 21.572 21.422 21.307 21.212 21.15 21.147 21.107 21.06 20.99 21.077 20.832 20.752 20.7 20.645 20.612 20.685 20.522 20.335 20.535 20.545 20.44 20.207 20.087 20.11 20.015 20.005 19.945 19.847 19.855 19.852 19.815 19.565 19.44 19.437 19.285 19.17 19.165 19.12 19.047 18.915 18.777 18.672 20.445 20.447 20.155 18.642 18.342 18.205 24.342 27.465 19.502 17.932 17.747 17.577 17.47 17.43 17.467 17.51 17.462 17.285 17.15 19.917 22.835 20.905 17.252 16.842 16.87 16.65 16.712 16.615 16.537 16.382 16.235 16.182 16.122 16.2 16.077 16.075 16.177 16.115 15.94 16.097 15.827 15.705 15.642 15.667 15.612 15.52 17.102 17.487 15.397 15.4 15.26 15.245 15.187 15.232 15.117 15.042 14.997 14.872 14.86 14.997 14.625 14.632 14.587 14.515 16.202 19.135 16.822 14.68 14.77 14.962 14.945 15.707 14.637 14.3 14.545 14.615 14.74 14.45 14.14 14.017 14.082 14.227 13.745 13.745 13.762 13.655 13.745 13.627 13.857 13.752 13.567 13.482 13.342 13.252 13.075 18.442 21.807 20.007 29.77 16.365 11.72 19.327 10.98 12.492 16.752 15.865 9.005 11.055 8.835 10.865 13.75 10.5 7.85 6.79 6.597 6.447 6.407 6.04 5.622 5.702 5.605 5.81 5.087 3.205 5.227 3.152 3.542 2.802 2.68 2.322 3.007 3.15 3.302 3.257 3.105 2.935 2.922 2.902 2.822 2.807 2.832 2.847 2.85 2.77 2.645 2.722 2.887 3.04 3.292 3.54 3.865 4.205 4.557 4.92 5.227 5.465 5.66 5.772 5.915 6.242 6.535 6.687 6.912 7.135 7.342 7.55 7.725 7.957 8.26 8.505 8.81 9.13 9.35 9.6 9.952 10.287 10.532 10.807 11.107 11.465 11.75 11.922 12.04 12.122 12.42 12.657 12.842 13.002 13.172 13.375 13.57 13.795 13.987 14.135 14.252 14.397 14.542 14.672 14.75 14.86 15.005 15.122 15.317 15.85 16.525 17.185 16.207 17.7 19.095 17.032 16.885 16.917 17.112 17.262 17.415 17.565 17.682 17.775 17.897 17.96 18.142 18.285 18.425 18.6 18.805 18.995 19.242 19.34 19.6 19.757 19.875 20.01 20.22 20.44 20.625 20.757 20.97 21.067 21.195 21.315 21.41 21.482 21.61 21.755 21.862 21.977 22.037 22.087 22.187 22.247 22.302 22.342 22.385 22.442 22.467 22.51 22.572 22.665 22.72 22.8 22.857 22.872 22.935 22.952 22.982 23.03 23.037 23.017 23.072 23.122 23.137 23.12 23.117 23.1 23.067 23.067 23.04 23.03 23.005 22.985 22.957 22.945 22.907 22.885 22.872 22.872 22.85 22.822 22.842 22.83 22.837 22.83 22.82 22.795 22.777 22.762 22.737 22.707 22.67 22.655 22.642 22.605 22.567 22.577 22.58 22.54 22.49 22.43 22.402 22.387 22.377 22.337 22.3 22.287 22.225 22.185 22.155 22.105 22.075 22.062 22.055 22.002 22.002 22.01 22.007 22.067 22.107 22.122 22.112 22.132 22.125 22.132 22.17 22.162 22.17 22.285 22.31 22.342 22.38 22.402 22.437 22.45 22.505 22.537 22.572 22.632 22.705 22.805 22.93 22.997 23.072 23.132 23.292 24.097 25.532 25.792 26.03 25.377 24.357 23.962 23.757 23.787 23.84 23.885 23.97 24.082 24.14 24.235 24.332 24.465 24.587 24.8 24.98 24.952 25.032 25.115 25.19 25.317 25.412 26.51 27.735 26.917 27.852 28.61 26.96 25.877 28.065 27.632 27.427 27.535 27.405 27.382 27.36 27.457 27.542 27.58 27.762 28.012 28.157 29.24 32.947 34.205 33.942 29.037 28.787 28.83 28.935
21.997 21.86 21.812 21.81 21.762 21.757 21.662 21.545 21.45 21.295 21.24 21.185 21.152 21.115 21.03 20.985 20.902 20.79 20.772 20.77 20.745 20.687 20.575 20.385 20.507 20.735 20.555 20.315 20.21 20.162 20.175 20.105 20.07 19.987 19.91 19.915 20.097 19.86 19.567 19.73 19.51 19.335 19.15 19.085 19.017 19.07 18.942 18.922 18.82 18.672 24.155 25.07 19.192 18.462 18.287 18.662 19.547 18.1 17.972 17.802 17.625 17.587 17.555 17.445 17.505 17.47 17.312 18.675 20.275 25.767 21.072 17.685 17.01 16.862 16.625 16.64 16.49 16.532 16.352 16.267 16.205 16.167 16.17 16.125 16.022 16.3 16.202 16.022 15.96 15.817 15.68 15.717 15.705 17.75 16.075 21.77 23.757 17.33 15.325 15.417 15.282 15.255 15.165 15.192 15.122 14.95 14.842 15.162 15.262 14.742 14.785 14.702 14.737 16.432 22.067 18.205 14.692 14.735 14.92 15.392 16.632 14.92 14.507 14.76 15.14 15.225 14.85 14.487 14.135 14.002 13.902 13.835 13.747 13.69 13.647 13.732 13.76 14.015 13.822 13.77 13.812 13.64 13.962 13.402 18.51 17.835 13.757 18.902 11.91 15.585 16.537 12.17 13.285 9.862 14.537 14.032 8.925 8.39 7.997 8.75 9.545 7.077 6.845 6.787 7.617 6.377 6.145 5.62 5.24 5.035 4.012 3.96 3.122 3.197 3.115 3.045 3.102 2.437 3.412 3.262 3.137 3.245 3.592 3.275 2.937 2.95 2.907 2.857 2.835 2.845 2.865 2.867 2.795 2.682 2.73 2.89 3.057 3.3 3.5 3.765 4.075 4.397 4.78 5.157 5.47 5.687 5.865 5.95 6.11 6.39 6.577 6.765 6.995 7.247 7.402 7.59 7.84 8.14 8.372 8.682 8.99 9.252 9.412 9.61 9.83 10.082 10.362 10.82 11.255 11.522 11.74 11.902 11.952 12.202 12.46 12.647 12.805 12.957 13.132 13.37 13.622 13.792 13.955 14.077 14.175 14.24 14.26 14.32 14.407 14.612 14.87 15.025 15.33 15.7 16.91 17.377 16.897 20.575 20.117 17.522 16.705 16.837 17.027 17.28 17.36 17.487 17.64 17.762 17.85 18 18.102 18.292 18.482 18.645 18.852 19.07 19.305 19.387 19.637 19.84 19.97 20.095 20.307 20.517 20.707 20.887 21.02 21.145 21.242 21.332 21.425 21.505 21.59 21.727 21.852 21.965 22.005 22.062 22.127 22.177 22.3 22.285 22.31 22.367 22.412 22.5 22.552 22.635 22.69 22.737 22.79 22.825 22.865 22.902 22.917 22.937 22.977 23.04 23.052 23.065 23.007 23.022 23.02 22.96 22.967 22.95 22.917 22.892 22.862 22.835 22.815 22.787 22.777 22.75 22.752 22.742 22.712 22.725 22.742 22.72 22.707 22.66 22.642 22.625 22.592 22.56 22.54 22.512 22.482 22.44 22.417 22.42 22.392 22.395 22.327 22.312 22.26 22.217 22.222 22.205 22.187 22.155 22.115 22.062 22.025 22.005 21.985 21.947 21.922 21.91 21.892 21.845 21.87 21.902 21.932 21.975 21.982 21.99 22.045 22.037 22.04 22.055 22.09 22.082 22.112 22.197 22.237 22.292 22.33 22.36 22.38 22.432 22.46 22.532 22.632 22.72 22.805 22.847 22.932 23.02 23.457 24.827 25.435 25.687 25.352 24.547 23.632 23.572 23.607 23.67 23.757 23.852 23.925 23.985 24.097 24.175 24.245 24.347 24.46 24.557 24.682 24.845 25.052 25.112 25.132 25.302 25.425 25.527 25.607 25.627 25.822 26.5 27.14 28.387 29.165 28.417 29.417 27.997 27.605 27.465 27.342 27.375 27.4 27.445 27.557 27.712 27.877 28.195 31.632 35.622 35.027 34.57 29.412 29.285 29.12 29.022
21.97 21.89 21.82 21.785 21.772 21.715 21.68 21.63 21.527 21.715 21.392 21.305 21.217 21.16 21.057 21.027 21.002 20.887 20.83 20.725 20.68 20.655 20.54 20.462 20.822 20.827 20.417 20.277 20.282 20.195 20.137 20.175 20.092 19.982 19.92 19.86 19.842 19.725 19.665 19.755 19.59 19.45 19.48 19.132 19.08 18.99 18.922 18.917 21.67 19.07 18.917 18.955 18.855 18.61 18.517 18.505 18.272 18.15 18.222 17.997 17.79 18.435 21.48 17.455 17.517 17.377 17.34 17.185 17.135 17.182 19.427 16.867 16.837 16.827 16.637 16.607 16.567 16.495 19.065 19.977 16.212 16.145 16.322 16.27 16.122 16.172 16.135 15.942 15.982 15.822 15.772 15.655 15.685 17.05 15.575 16.232 15.365 15.312 15.325 15.37 15.357 15.4 15.265 15.185 15.19 15.002 14.917 14.842 14.717 14.722 14.972 14.767 14.682 17.085 19.287 20.055 14.635 14.612 14.69 15.06 15.625 14.865 14.722 14.915 15.05 14.877 14.695 15.337 15.027 14.255 14.085 13.837 13.802 13.745 13.765 13.597 13.67 14.127 14.017 13.842 13.805 13.535 13.492 13.395 13.292 13.327 17.742 17.322 13.28 22.135 15.592 15.567 15.212 13.147 9.655 11.222 8.975 8.587 14.467 7.755 10.712 10.247 7.717 6.69 6.677 6.755 6.87 5.737 5.137 4.557 4.835 3.495 3.055 3.215 3.147 3.71 6.685 3.2 3.775 3.272 3.172 3.125 3.135 3.04 2.96 2.912 2.862 2.855 2.84 2.862 2.895 2.837 2.775 2.677 2.732 2.895 3.052 3.277 3.465 3.78 4.077 4.285 4.685 5.075 5.437 5.71 5.867 5.97 6.112 6.23 6.41 6.592 6.777 7.027 7.222 7.37 7.587 7.887 8.15 8.452 8.822 9.062 9.305 9.47 9.672 9.875 10.062 10.43 10.992 11.27 11.497 11.705 11.785 11.995 12.297 12.515 12.68 12.802 12.967 13.192 13.415 13.595 13.732 13.885 13.995 14.037 14.042 14.08 14.215 14.4 14.657 14.827 15.03 15.37 15.88 17.42 19.215 19.107 19.922 16.727 16.607 16.642 16.822 17.04 17.082 17.225 17.467 17.582 17.672 17.815 17.96 18.125 18.33 18.515 18.697 18.857 19.187 19.36 19.46 19.737 19.892 20.02 20.21 20.422 20.652 20.81 20.97 21.11 21.2 21.26 21.355 21.45 21.517 21.595 21.732 21.81 21.897 22.002 22.035 22.09 22.155 22.23 22.202 22.262 22.332 22.41 22.47 22.535 22.597 22.642 22.682 22.717 22.772 22.812 22.822 22.872 22.882 22.887 22.897 22.932 22.925 22.927 22.91 22.867 22.837 22.837 22.812 22.785 22.75 22.727 22.707 22.667 22.662 22.62 22.617 22.615 22.63 22.61 22.577 22.56 22.537 22.512 22.477 22.46 22.437 22.427 22.39 22.327 22.302 22.27 22.257 22.227 22.217 22.207 22.12 22.127 22.092 22.047 22.007 21.977 21.985 21.967 21.922 21.872 21.84 21.835 21.83 21.815 21.8 21.785 21.762 21.715 21.725 21.73 21.772 21.85 21.862 21.912 21.935 21.945 21.967 21.987 21.995 22.012 21.99 22.067 22.155 22.21 22.27 22.285 22.33 22.35 22.417 22.517 22.627 22.722 22.76 22.82 22.985 24.002 24.757 25.35 25.125 24.402 23.765 23.407 23.437 23.485 23.59 23.672 23.765 23.825 23.922 24.012 24.11 24.185 24.255 24.32 24.452 24.512 24.68 24.792 24.9 25.155 25.275 25.46 25.5 25.56 25.685 25.735 25.71 25.715 25.742 27.13 27.555 29.03 28.88 27.712 27.587 27.562 27.442 27.45 27.537 27.507 27.677 27.732 27.962 28.547 32.552 36.437 35.277 30.902 29.435 29.5 29.49 29.402
22.047 22.007 21.98 21.905 21.852 21.807 21.812 21.747 21.657 21.58 21.425 21.367 21.577 21.27 21.15 21.085 21.047 20.947 20.88 20.84 20.762 20.662 20.545 20.742 21.03 20.695 20.397 20.362 20.342 20.237 20.165 20.092 20.025 19.992 19.967 19.885 19.78 19.912 19.677 19.662 19.535 19.49 19.442 19.27 19.297 20.675 20.055 18.85 18.842 18.81 18.847 18.81 19.305 20.227 18.482 18.265 18.767 18.265 18.317 18.017 17.797 17.847 17.63 17.59 17.565 17.45 17.31 17.33 17.292 16.992 17 17.005 16.89 16.707 16.735 16.647 16.637 16.515 17.155 20.355 18.232 16.232 16.19 16.295 16.262 16.14 16.027 15.922 15.845 15.79 15.997 15.77 15.585 15.64 17.557 16.665 15.402 15.305 15.302 15.447 15.472 15.312 15.252 15.27 15.305 15.037 15.022 14.85 14.857 15.077 14.777 14.69 14.747 14.822 15.85 21.937 16.902 14.937 14.767 14.6 14.91 14.617 14.74 15.147 14.782 15.037 14.87 14.715 15.695 14.09 14.192 13.975 14.12 13.875 13.785 13.765 13.875 14.192 14.24 14.017 14.047 13.795 13.372 13.417 13.352 13.607 12.897 12.545 11.922 13.62 14.627 14.125 11.997 10.137 17.787 11.185 11.225 13.665 17.117 12.367 9.205 7.425 7.035 6.887 6.457 6.305 6.88 6.05 5.247 4.622 3.995 3.437 3.21 3.567 3.075 4.547 5.605 4.74 3.32 3.372 3.2 3.16 3.107 3.012 2.962 2.902 2.877 2.88 2.902 2.892 2.895 2.867 2.83 2.737 2.667 2.872 3.037 3.197 3.425 3.732 4.052 4.26 4.53 4.94 5.352 5.657 5.847 6.005 6.087 6.205 6.317 6.447 6.63 6.827 7.047 7.225 7.372 7.622 7.915 8.195 8.547 8.855 9.122 9.385 9.617 9.867 9.992 11.19 12.55 12.42 11.29 11.545 11.662 11.82 12.09 12.37 12.54 12.672 12.805 12.992 13.205 13.37 13.5 13.632 13.755 13.83 13.895 13.96 14.072 14.26 14.455 14.607 14.812 15.04 15.355 16.577 17.255 18.187 21.212 17.547 16.487 16.472 16.547 16.685 16.775 16.83 17.02 17.345 17.477 17.625 17.782 17.972 18.115 18.35 18.59 18.712 18.905 19.165 19.4 19.537 19.805 20.015 20.125 20.325 20.512 20.707 20.88 21.04 21.102 21.2 21.28 21.38 21.442 21.517 21.597 21.67 21.765 21.865 21.912 21.955 22.07 22.067 22.117 22.192 22.26 22.285 22.362 22.422 22.485 22.535 22.595 22.625 22.675 22.707 22.782 22.81 22.762 22.782 22.81 22.8 22.812 22.815 22.81 22.772 22.707 22.7 22.69 22.675 22.637 22.59 22.562 22.55 22.525 22.455 22.475 22.497 22.477 22.447 22.387 22.397 22.37 22.352 22.32 22.307 22.272 22.245 22.207 22.18 22.152 22.11 22.097 22.052 22.01 21.992 21.975 21.96 21.912 21.887 21.847 21.825 21.797 21.755 21.73 21.72 21.71 21.69 21.685 21.657 21.685 21.662 21.66 21.612 21.6 21.612 21.662 21.7 21.757 21.8 21.832 21.865 21.887 21.907 21.925 21.987 21.97 21.96 22.07 22.135 22.182 22.2 22.25 22.325 22.422 22.52 22.557 22.612 22.792 23.297 24.385 25.037 24.662 24.325 23.455 23.28 23.3 23.362 23.407 23.472 23.585 23.672 23.745 23.807 23.897 23.992 24.092 24.185 24.255 24.34 24.417 24.547 24.697 24.797 24.915 25.03 25.195 25.502 25.555 25.57 25.675 25.767 25.875 25.85 25.872 25.895 26.125 27.085 27.825 29.61 28.057 28.572 27.672 27.592 27.48 27.55 27.697 27.77 27.827 29.24 30.715 33.907 33.817 30.71 29.477 29.52 30.075 29.637
22.04 22.022 21.962 21.957 21.91 21.902 21.862 21.757 21.715 21.62 21.607 21.417 21.95 21.32 21.227 21.155 21.077 20.987 20.907 20.892 20.715 20.62 20.685 20.915 20.857 20.597 20.467 20.385 20.305 20.27 20.265 20.13 20.03 20.002 20.027 19.897 19.782 19.74 19.712 19.657 19.517 19.407 19.322 19.257 22.445 23.805 28.935 22.92 19.112 18.652 18.597 18.612 18.777 18.797 18.497 18.397 18.387 18.172 18.155 17.885 17.922 17.787 17.632 18.735 18.087 17.447 17.55 17.467 17.19 16.997 16.995 17.16 16.945 16.757 16.715 16.61 16.512 16.442 16.357 16.347 17.185 16.3 16.39 16.305 16.25 16.19 15.96 15.867 15.895 15.852 15.78 15.65 15.577 15.5 15.557 15.41 15.392 15.4 15.337 15.34 15.31 15.277 15.347 15.307 15.182 15.065 15.015 14.94 14.915 14.9 15.002 14.84 14.987 15.01 16.347 20.987 14.815 14.84 14.805 14.7 14.577 14.615 14.905 14.755 15.037 15.037 14.832 14.797 14.522 14.252 14.24 14.07 14 14.03 13.867 14.112 14.22 14.45 14.355 14.112 13.977 14.357 13.87 13.292 13.36 12.965 12.83 12.525 12.097 11.64 11.46 12.272 11.085 10.422 14.92 12.19 12.222 10.46 12.752 22.53 17.072 7.495 8.297 8.775 7.68 6.27 6.042 5.775 5.332 4.73 4.032 3.437 3.387 3.41 3.457 3.597 3.702 5.482 3.855 3.352 3.242 3.147 3.11 3.05 2.977 2.927 2.937 2.915 2.92 2.92 2.917 2.922 2.902 2.777 2.705 2.86 3.01 3.142 3.357 3.62 4.01 4.305 4.49 4.827 5.205 5.545 5.822 5.967 6.06 6.195 6.3 6.45 6.605 6.782 6.985 7.165 7.27 7.425 7.637 7.94 8.275 8.6 8.897 9.145 9.385 9.63 9.842 12.63 14.375 13.03 11.205 11.367 11.5 11.62 11.885 12.34 12.822 12.645 12.68 12.862 13.062 13.21 13.345 13.472 13.592 13.667 13.715 13.805 13.942 14.075 14.235 14.445 14.612 14.777 15.072 16.007 15.632 17.712 20.65 16.78 16.197 16.212 16.367 16.502 16.597 16.562 16.667 16.965 17.237 17.422 17.632 17.797 17.987 18.192 18.42 18.58 18.795 18.925 19.25 19.465 19.622 19.915 20.125 20.26 20.44 20.612 20.777 20.942 21.075 21.145 21.21 21.287 21.352 21.42 21.47 21.535 21.595 21.67 21.775 21.872 21.922 21.975 22.037 22.11 22.152 22.192 22.24 22.285 22.347 22.43 22.477 22.54 22.585 22.667 22.67 22.68 22.665 22.655 22.69 22.695 22.697 22.685 22.667 22.66 22.64 22.605 22.567 22.532 22.492 22.457 22.422 22.41 22.395 22.357 22.342 22.365 22.337 22.292 22.29 22.27 22.23 22.197 22.18 22.157 22.087 22.065 22.042 22.002 21.992 21.94 21.91 21.88 21.835 21.835 21.845 21.817 21.772 21.725 21.672 21.66 21.6 21.587 21.602 21.57 21.58 21.535 21.522 21.527 21.527 21.537 21.542 21.522 21.522 21.51 21.54 21.592 21.617 21.68 21.727 21.75 21.807 21.835 21.865 21.892 21.935 21.917 21.957 22.05 22.107 22.16 22.245 22.347 22.427 22.415 22.465 22.86 23.652 25.592 24.612 24.027 23.467 23.052 23.125 23.162 23.242 23.31 23.375 23.487 23.547 23.622 23.722 23.802 23.892 23.982 24.075 24.15 24.255 24.365 24.452 24.582 24.76 24.87 24.98 25.085 25.23 25.345 25.49 25.71 25.82 25.847 25.94 25.98 26.015 26.145 26.187 26.247 26.965 28.047 28.72 29.627 28.66 28.22 27.817 27.507 27.565 27.792 29.712 33.285 33.18 34.942 31.077 29.455 29.467 29.645 29.695 29.582
22.192 22.05 22.032 22.03 22.02 21.915 21.962 21.812 21.747 21.617 21.585 21.5 21.447 21.402 21.25 21.225 21.122 21.057 20.942 20.897 20.68 20.69 20.992 21.112 20.732 20.602 20.55 20.45 20.357 20.305 20.202 20.112 20.087 20 19.965 19.927 19.8 19.807 19.732 19.617 19.597 20.057 20.847 22.465 23.762 25.392 23.75 25.37 19.98 20.092 18.78 18.47 18.422 18.465 18.432 18.337 18.217 18.187 18.192 17.995 17.91 17.842 18.802 18.362 18.022 18.137 17.53 17.257 17.065 16.965 16.925 17.03 17.03 16.77 16.74 16.637 16.577 16.455 16.407 16.442 16.325 16.292 16.352 16.28 16.08 16.08 15.917 15.982 16.1 15.8 15.712 15.625 15.495 15.567 15.422 15.435 15.425 15.392 15.47 15.39 15.31 15.282 15.26 15.357 15.152 15.07 14.98 14.91 15.177 15.17 14.9 15.06 15.277 14.93 14.852 14.83 14.86 14.96 14.815 14.742 14.497 14.705 14.912 15.467 14.99 14.707 15.18 15.052 14.837 14.5 14.355 14.357 14.177 14.612 14.447 14.2 14.217 14.245 14.38 14.345 14.225 14.32 14.3 13.372 14.035 12.892 12.732 12.547 12.152 11.79 11.55 11.385 11.317 10.865 14.392 9.692 9.817 9.257 9.747 18.467 17.812 18.147 15.472 8.39 6.582 6.31 6.025 5.807 6.215 5.485 4.11 3.475 3.295 2.892 3.212 3.497 4.355 3.695 4.607 3.177 3.285 3.212 3.215 3.095 2.977 2.957 2.94 2.932 2.955 2.93 2.965 2.935 2.945 2.837 2.73 2.84 3.007 3.127 3.285 3.547 3.922 4.23 4.457 4.707 5.042 5.375 5.675 5.877 6.035 6.187 6.28 6.432 6.61 6.812 7.007 7.18 7.282 7.362 7.55 7.75 8.082 8.367 8.61 8.86 9.132 9.35 10.07 11.05 13.732 12.42 10.902 11.12 11.242 11.392 11.942 12.685 12.872 12.945 12.867 12.957 13.002 13.095 13.15 13.275 13.402 13.58 13.612 13.632 13.712 13.837 14.045 14.327 14.465 14.597 16.265 17.885 15.337 16.552 18.935 17.052 16.042 16.077 16.242 16.345 16.42 16.472 16.525 16.662 16.96 17.225 17.517 17.685 17.877 18.12 18.332 18.435 18.687 18.887 19.08 19.397 19.525 19.747 20.077 20.157 20.36 20.547 20.695 20.845 20.972 21.087 21.142 21.197 21.25 21.332 21.402 21.455 21.44 21.52 21.622 21.672 21.78 21.852 21.937 22.02 22.032 22.075 22.102 22.162 22.222 22.295 22.35 22.42 22.485 22.532 22.57 22.58 22.58 22.552 22.57 22.567 22.577 22.577 22.542 22.545 22.547 22.517 22.45 22.41 22.357 22.32 22.272 22.275 22.245 22.212 22.19 22.165 22.142 22.12 22.107 22.095 22.075 22.035 21.995 21.985 21.935 21.917 21.88 21.842 21.827 21.777 21.752 21.702 21.69 21.685 21.687 21.652 21.635 21.57 21.507 21.48 21.447 21.46 21.427 21.417 21.402 21.397 21.41 21.395 21.395 21.412 21.415 21.417 21.402 21.41 21.447 21.482 21.52 21.605 21.65 21.69 21.732 21.772 21.8 21.827 21.907 21.892 21.897 21.952 22.087 22.14 22.237 22.292 22.287 22.37 23.387 24.37 25.012 24.975 23.167 22.98 22.907 22.972 23.027 23.122 23.21 23.275 23.37 23.445 23.52 23.61 23.677 23.777 23.87 23.965 24.037 24.13 24.232 24.382 24.505 24.642 24.765 24.897 25.022 25.157 25.235 25.352 25.45 25.557 25.782 25.875 26.042 26.057 26.102 26.295 26.312 26.372 26.835 26.627 26.712 26.957 27.815 28.572 28.61 27.602 27.475 27.675 32.667 36.875 34.29 33.222 30.145 29.475 29.505 29.512 29.545 29.567
22.23 22.095 22.017 22.017 22.005 22.055 21.965 21.84 22.377 21.675 23.062 22.272 21.472 21.415 21.28 21.252 21.187 21.127 21.022 20.872 20.737 20.9 21.11 20.915 20.707 20.655 20.545 20.502 20.41 20.387 20.265 20.14 20.115 20.07 19.95 19.932 19.837 19.892 19.727 19.647 19.522 19.49 23.715 23.505 22.262 21.182 19.177 19.115 20.402 23.547 22.817 18.597 18.46 18.287 18.195 18.31 18.385 18.152 25.282 23.302 19.907 17.922 17.922 17.755 18.302 19.54 17.377 17.26 17.177 17.287 16.965 17.007 16.91 16.875 16.937 16.757 16.505 16.475 16.392 16.31 16.25 16.365 16.27 16.337 16.06 15.98 16 15.89 15.962 15.792 15.737 15.605 15.595 15.582 15.557 15.52 15.51 15.405 15.53 15.432 15.335 15.322 15.29 15.335 15.275 15.1 15.055 15.197 14.992 15.03 15.475 15.252 15.53 15.267 15.64 15.035 14.955 14.91 14.765 14.685 14.627 14.652 14.692 14.88 15.03 14.69 14.752 14.887 14.815 14.45 14.352 14.3 14.245 15.04 14.242 14.002 14.06 14.25 14.245 14.09 14.015 13.977 14.02 13.715 13.39 13.02 12.727 12.592 12.252 11.977 11.695 11.425 14.075 11.442 10.682 10.002 11.68 14.302 12.915 13.805 12.64 11.555 16.897 7.072 6.732 7.99 17.745 7.447 9.217 5.01 4.112 3.54 3.095 3.782 3.285 4.225 6.255 4.635 3.342 3.417 3.302 3.15 3.09 3.052 3.002 2.985 2.99 2.965 2.972 2.997 3.01 2.992 2.932 2.865 2.715 2.802 2.945 3.057 3.187 3.417 3.925 4.21 4.417 4.632 4.915 5.262 5.55 5.83 6.01 6.147 6.275 6.427 6.597 6.812 7.007 7.172 7.312 7.402 7.537 7.717 7.905 8.142 8.352 8.552 8.74 9.617 10.587 11.16 10.877 10.38 10.397 10.692 10.912 11.165 11.795 12.305 12.707 13.137 12.82 13.127 13.297 13.405 13.077 13.055 13.09 13.292 13.417 13.415 13.477 13.617 13.787 14.007 14.052 14.125 16.59 20.29 17.025 16.837 17.357 17.695 15.997 16.085 16.167 16.252 16.347 16.402 16.495 16.567 16.745 17.037 17.327 17.545 17.715 17.967 18.21 18.365 18.53 18.805 19.01 19.23 19.495 19.705 19.902 20.16 20.292 20.467 20.607 20.75 20.882 20.972 21.077 21.135 21.187 21.225 21.28 21.325 21.352 21.412 21.46 21.55 21.637 21.727 21.805 21.867 21.87 21.892 22.02 22.045 22.12 22.19 22.242 22.317 22.402 22.41 22.452 22.462 22.46 22.467 22.45 22.455 22.445 22.44 22.437 22.43 22.4 22.36 22.32 22.28 22.232 22.16 22.147 22.115 22.082 22.06 22.03 21.995 21.98 21.977 21.945 21.91 21.897 21.862 21.857 21.81 21.8 21.767 21.697 21.685 21.635 21.607 21.565 21.537 21.517 21.515 21.505 21.472 21.427 21.377 21.367 21.35 21.32 21.292 21.28 21.247 21.257 21.252 21.267 21.29 21.297 21.297 21.307 21.335 21.317 21.35 21.365 21.392 21.405 21.477 21.55 21.602 21.642 21.72 21.742 21.777 21.807 21.847 21.892 21.96 22.095 22.152 22.13 22.155 22.632 23.797 24.462 24.307 23.647 22.96 22.767 22.797 22.842 22.917 23.03 23.137 23.212 23.27 23.367 23.452 23.512 23.595 23.685 23.76 23.865 23.98 24.037 24.135 24.242 24.382 24.512 24.667 24.797 24.912 25.03 25.147 25.307 25.42 25.502 25.605 25.74 25.842 26.107 26.242 26.322 26.39 26.427 26.777 26.73 26.772 26.842 26.937 27.03 27.37 28.49 28.977 29.515 29.42 28.965 34.502 33.962 29.865 29.472 29.487 29.49 29.52 29.542 29.575
22.342 22.3 22.165 22.165 22.097 22.07 21.992 21.91 21.91 21.847 21.657 21.59 21.575 21.485 21.362 21.297 21.22 21.19 21.047 20.86 20.85 21.237 21.132 20.797 20.747 20.692 20.655 20.57 20.46 20.372 20.367 20.265 20.182 20.105 20.055 20.012 19.895 19.795 19.76 19.585 19.522 19.457 19.372 19.372 19.185 19.18 19.1 19.152 18.995 24.015 27.222 19.222 18.83 18.477 18.212 18.157 18.672 19.517 22.987 22.23 24.257 17.93 17.697 17.622 17.512 18.087 17.367 17.765 17.18 17.022 16.955 16.917 16.972 16.95 16.975 16.845 16.552 16.57 16.44 16.375 16.385 16.285 16.247 16.21 16.132 16.002 16.012 15.895 15.902 15.815 15.81 15.692 15.755 15.702 15.555 15.557 15.447 15.52 15.422 15.392 15.352 15.367 15.332 15.285 15.215 15.115 15.13 15.16 14.982 15.19 15.472 15.33 15.582 15.342 16.315 15.337 14.882 14.75 14.652 14.795 15.247 14.7 14.612 14.585 15.022 14.952 14.697 14.735 14.657 14.672 14.547 14.487 14.475 14.27 14.012 14.005 14.005 14.012 14.53 14.465 13.837 13.682 13.785 13.697 13.375 13.04 12.887 12.45 12.192 12.07 11.812 11.527 18.63 18.325 16.865 10.405 11.762 9.977 11.132 13.68 17.637 14.92 10.03 7.262 6.815 7.465 8.632 10.225 15.94 9.772 4.207 6.182 7.612 7.925 7.54 4.197 5.205 4.535 3.465 3.527 3.237 3.162 3.207 3.117 3.087 3.03 3.025 3.012 3 2.987 3.035 3.005 2.977 2.93 2.75 2.717 2.902 3.01 3.137 3.402 3.885 4.167 4.332 4.497 4.727 5.027 5.362 5.635 5.895 6.092 6.21 6.32 6.5 6.735 6.942 7.125 7.282 7.395 7.53 7.735 7.882 8.005 8.207 8.35 8.445 9.132 9.297 10.112 10.045 9.74 9.86 10.192 10.515 11.052 11.712 11.862 12.155 12.51 13.05 12.897 12.99 13.332 13.275 13.105 12.81 13.017 13.147 13.235 13.317 13.4 13.41 13.377 13.45 13.69 14.922 17.512 15.147 18.457 17.607 16.672 15.935 16 16.107 16.265 16.317 16.382 16.475 16.565 16.722 16.94 17.127 17.365 17.577 17.882 18.112 18.275 18.49 18.69 18.967 19.152 19.322 19.615 19.827 19.995 20.317 20.387 20.532 20.655 20.782 20.905 20.977 21.04 21.092 21.145 21.155 21.2 21.25 21.275 21.332 21.422 21.492 21.585 21.657 21.702 21.74 21.795 21.865 21.902 21.972 22.067 22.13 22.195 22.247 22.305 22.302 22.327 22.337 22.362 22.312 22.277 22.322 22.332 22.307 22.31 22.262 22.245 22.177 22.107 22.057 22.035 22.012 21.965 21.922 21.875 21.875 21.835 21.835 21.785 21.77 21.737 21.727 21.682 21.667 21.647 21.617 21.577 21.542 21.507 21.45 21.41 21.375 21.357 21.342 21.342 21.322 21.312 21.265 21.245 21.235 21.2 21.185 21.155 21.122 21.125 21.1 21.117 21.157 21.182 21.177 21.202 21.195 21.205 21.227 21.242 21.28 21.33 21.36 21.397 21.455 21.535 21.595 21.632 21.66 21.7 21.74 21.827 21.885 22 21.977 22.007 22.097 22.94 24.075 24.407 23.715 22.93 22.63 22.68 22.715 22.757 22.855 22.935 23.032 23.107 23.197 23.265 23.355 23.435 23.51 23.592 23.667 23.78 23.862 23.95 24.062 24.165 24.297 24.405 24.552 24.702 24.85 24.97 25.042 25.175 25.327 25.487 25.557 25.66 25.785 25.89 26.025 26.182 26.355 26.425 26.617 26.96 26.825 26.907 27.007 27.097 27.182 27.242 27.275 27.537 29.052 30.875 30.75 32.297 32.732 30.487 29.68 29.585 29.507 29.552 29.547 29.582
22.33 22.305 22.33 22.272 22.137 22.092 22.072 22.03 21.902 21.807 21.81 21.7 21.652 21.492 21.472 21.325 21.232 21.222 21.062 20.872 21.002 21.227 20.977 20.835 20.772 20.742 20.695 20.637 20.602 20.42 20.307 20.24 20.167 20.037 20.087 19.995 19.887 19.775 19.785 19.662 19.547 19.525 19.357 19.297 19.327 19.19 19.092 19.135 19.017 18.945 18.767 18.78 19.132 18.635 19.747 18.415 18.237 17.995 17.925 17.935 18.107 17.935 17.925 17.657 17.625 17.522 17.51 17.822 17.192 17.285 17.045 17.08 17.137 16.887 16.952 16.682 16.642 16.567 16.455 16.352 16.3 16.217 16.235 16.17 16.147 16.105 16.047 15.982 15.895 15.895 15.745 15.785 15.702 15.62 15.607 15.655 15.52 15.505 15.425 15.475 15.422 15.44 15.375 15.277 15.245 15.117 15.497 15.07 15.097 15.045 15.475 15.872 15.64 15.59 15.867 14.925 14.747 14.702 15.76 16.46 14.812 14.822 14.64 15.127 15.28 15.225 14.855 14.8 14.705 14.527 14.495 14.652 14.49 14.68 14.272 13.89 14.015 14.017 14.412 14.107 13.655 13.545 13.832 13.74 13.237 13.19 12.875 12.49 12.237 14.545 12.39 11.71 13.902 11.427 15.162 10.715 11.045 10.91 9.43 8.885 8.34 11.122 7.762 7.365 6.9 6.665 10.975 15.405 8.675 6.392 8.1 7.14 10.497 13.045 9.55 6.672 3.692 4.882 6.18 4.357 3.205 3.19 3.235 3.212 3.07 3.03 3.017 3.055 3.02 3.035 3.027 3.062 3.062 2.962 2.8 2.685 2.825 2.967 3.112 3.362 3.777 4.037 4.207 4.365 4.51 4.8 5.117 5.457 5.69 5.932 6.09 6.215 6.367 6.577 6.852 7.057 7.265 7.447 7.58 7.757 7.892 8.007 8.18 8.295 8.37 8.667 9.467 10.882 10.957 10.035 10.42 9.777 10.105 10.912 11.185 11.91 12.382 12.305 12.27 12.44 12.852 12.707 12.812 12.907 12.805 13.385 13.197 13.052 13.135 13.195 13.122 12.992 13.02 13.367 14.265 17.02 18.422 18.825 15.905 15.8 15.872 16 16.085 16.21 16.305 16.37 16.4 16.57 16.762 16.89 16.977 17.272 17.522 17.805 17.95 18.2 18.427 18.6 18.88 19.072 19.265 19.455 19.802 19.932 20.15 20.4 20.475 20.612 20.705 20.807 20.907 20.955 20.985 21.017 21.052 21.072 21.09 21.17 21.207 21.252 21.337 21.425 21.48 21.525 21.605 21.66 21.76 21.787 21.857 21.965 22 22.057 22.105 22.177 22.2 22.205 22.207 22.23 22.182 22.185 22.19 22.187 22.165 22.147 22.115 22.077 22.035 21.967 21.925 21.887 21.84 21.855 21.755 21.742 21.702 21.672 21.657 21.617 21.602 21.56 21.52 21.512 21.502 21.465 21.432 21.4 21.372 21.315 21.275 21.247 21.21 21.197 21.205 21.17 21.145 21.137 21.13 21.102 21.092 21.047 21.037 20.995 20.995 20.995 20.96 20.99 21.015 21.037 21.05 21.075 21.09 21.097 21.112 21.155 21.202 21.245 21.287 21.312 21.38 21.442 21.51 21.562 21.56 21.627 21.765 21.9 21.887 21.875 21.88 22.165 23.262 24.212 24.325 23.372 22.61 22.542 22.582 22.647 22.687 22.765 22.847 22.93 23.012 23.09 23.152 23.257 23.357 23.425 23.527 23.595 23.7 23.78 23.87 23.975 24.105 24.225 24.332 24.465 24.597 24.732 24.87 24.96 25.072 25.215 25.337 25.47 25.58 25.675 25.81 25.93 26.047 26.175 26.292 26.737 27.827 27.922 28.017 28.352 27.392 27.247 27.28 27.39 27.452 27.565 27.79 30.625 32.5 32.885 31.02 29.317 29.385 29.647 29.5 29.557 29.557 29.612
22.402 22.487 22.402 22.292 22.277 22.162 22.102 22.04 21.94 21.855 21.857 21.78 21.655 21.56 21.522 21.387 21.27 21.172 21.025 20.99 21.335 21.207 20.872 20.815 20.787 20.757 20.642 20.555 20.587 20.47 20.34 20.255 20.117 20.09 20.05 19.93 19.942 19.765 19.767 19.69 19.572 19.495 19.417 19.49 19.39 19.277 19.027 19.372 19.067 19.152 19.022 19.215 19.627 18.76 23.885 26.965 18.55 18.325 18.037 17.922 17.85 17.75 17.977 17.712 22.58 17.69 17.505 17.712 17.495 17.475 17.542 17.062 17.1 17.08 16.887 16.75 16.762 16.662 16.517 16.422 16.295 16.272 16.285 16.265 16.215 16.167 16.065 15.982 15.9 15.93 15.827 15.82 15.855 15.7 15.76 15.665 15.542 15.627 15.5 15.527 15.502 15.402 15.487 15.265 15.245 15.55 15.567 15.097 15.35 15.305 15.6 15.735 15.572 15.802 15.487 14.78 14.727 14.98 15.355 14.942 14.762 14.695 14.65 14.6 14.687 14.76 14.832 14.74 14.642 14.962 14.87 14.24 14.235 14.072 14 14.162 14.17 14.097 14.012 14.232 13.662 13.672 13.71 13.712 13.262 17.752 19.822 12.947 19.31 17.665 16.432 11.862 11.61 11.47 11.312 11.012 10.53 9.905 9.477 9.025 8.52 8.185 8.165 7.565 7.252 6.707 6.555 6.27 9.372 9.18 6.962 3.4 5.585 8.037 14.295 6.602 5.182 5.45 5.565 3.282 3.242 3.19 3.37 3.262 3.082 3.075 3.072 3.105 3.052 3.052 3.05 3.08 3.09 3.025 2.837 2.67 2.72 2.905 3.14 3.377 3.665 3.925 4.157 4.317 4.367 4.54 4.9 5.22 5.51 5.757 5.977 6.122 6.305 6.46 6.712 6.995 7.227 7.447 7.615 7.74 7.902 8.007 8.16 8.267 8.33 9.012 9.13 11.97 9.977 9.62 13.175 9.995 9.48 10.562 10.675 11.117 11.782 11.977 11.657 12.527 14.217 12.69 12.462 12.615 12.77 13.585 13.465 13.127 12.735 12.84 12.942 12.882 12.86 13.105 13.8 14.865 17.587 16.792 17.907 16.917 15.89 15.917 16.062 16.22 16.275 16.332 16.442 16.63 16.807 16.862 17 17.212 17.437 17.64 17.855 18.102 18.317 18.56 18.8 19.04 19.207 19.417 19.652 19.96 20.047 20.297 20.487 20.542 20.63 20.702 20.792 20.847 20.92 20.907 20.91 20.95 20.975 21.022 21.102 21.15 21.182 21.262 21.335 21.385 21.437 21.477 21.54 21.617 21.787 21.787 21.847 21.897 21.945 22.017 22.035 22.062 22.1 22.127 22.122 22.077 22.025 22.037 22.025 21.987 21.947 21.92 21.887 21.837 21.787 21.742 21.71 21.662 21.627 21.587 21.52 21.5 21.472 21.407 21.397 21.375 21.352 21.34 21.287 21.255 21.23 21.19 21.152 21.135 21.095 21.067 21.035 21.035 21.007 20.98 20.96 21.007 20.985 20.975 20.945 20.942 20.89 20.877 20.872 20.857 20.88 20.867 20.882 20.902 20.92 20.945 20.992 21.017 21.05 21.082 21.147 21.157 21.235 21.297 21.34 21.372 21.445 21.475 21.572 21.665 21.76 21.775 21.765 21.862 22.717 23.96 23.725 23.327 22.66 22.402 22.457 22.47 22.522 22.6 22.68 22.767 22.815 22.912 23 23.067 23.15 23.207 23.32 23.39 23.512 23.587 23.692 23.79 23.902 24.01 24.157 24.28 24.37 24.52 24.66 24.78 24.872 24.977 25.12 25.23 25.347 25.472 25.602 25.745 25.862 25.995 26.117 26.252 26.345 26.997 27.547 27.387 27.615 27.95 27.32 27.35 27.327 27.445 27.5 27.73 27.99 28.127 28.385 29.61 28.695 28.965 29.122 29.242 29.695 29.985 29.695 29.617
22.48 22.447 22.48 22.332 22.317 22.247 22.132 22.08 21.965 21.96 21.882 21.805 21.765 21.642 21.565 21.42 21.347 21.237 21.007 21.237 21.407 21.135 20.867 20.862 20.8 20.762 20.595 20.56 20.52 20.405 20.347 20.29 20.195 20.13 20.032 19.912 19.83 19.797 19.782 19.69 19.802 19.522 19.482 19.397 19.487 19.627 19.127 19.31 19.99 19.437 20.037 18.857 19.052 19.415 23.192 22.852 18.65 18.425 18.402 18.317 17.997 17.742 19.682 21.937 23.13 17.617 17.457 17.602 18.222 17.537 17.382 17.182 17.28 17.477 17.337 16.812 16.817 17.175 16.54 16.527 16.34 16.327 16.432 16.605 16.262 16.21 16.145 16.032 16 17.262 17.485 15.785 16.482 15.85 15.927 15.682 15.622 15.57 15.487 15.732 15.422 15.38 15.415 15.35 15.327 15.252 15.125 15.41 15.225 15.297 15.595 15.805 15.85 15.727 15.1 14.967 15.025 15.322 14.925 14.987 14.832 14.697 14.712 14.665 14.947 14.742 15.105 14.682 14.697 14.61 14.505 14.41 14.14 14.552 14.31 14.02 14.055 14.567 13.865 13.62 13.5 13.66 13.57 13.527 13.427 16.975 19.1 20.237 15.38 19.39 17.167 11.915 11.777 11.665 11.452 11.13 11.042 10.122 9.905 9.162 8.687 9.942 9.28 8.45 7.145 6.775 6.685 6.062 5.472 9.69 9.037 3.512 2.987 3.175 6.302 5.632 4.145 4.015 5.22 3.257 3.185 3.25 3.235 3.142 3.117 3.075 3.097 3.147 3.145 3.107 3.082 3.087 3.242 3.447 2.872 2.695 2.632 2.837 3.14 3.337 3.572 3.81 4.085 4.305 4.382 4.437 4.732 5.077 5.362 5.62 5.872 6.07 6.262 6.412 6.61 6.897 7.152 7.367 7.56 7.732 7.842 7.982 8.12 8.207 8.297 8.607 8.935 8.865 8.567 9.345 11.682 9.632 8.945 9.845 9.94 10.227 10.635 10.92 11.287 11.662 12.59 11.897 12.02 12.102 13.045 13.6 12.817 13.035 12.475 12.552 12.722 12.712 12.777 13.12 13.81 14.697 17.362 16.21 15.965 16.46 16.405 15.825 15.99 16.157 16.25 16.312 16.422 16.597 16.79 16.892 17.137 17.295 17.467 17.58 17.677 17.88 18.19 18.515 18.785 18.925 19.18 19.38 19.567 19.807 20.045 20.142 20.445 20.537 20.557 20.642 20.675 20.745 20.807 20.83 20.86 20.837 20.865 20.902 20.937 20.98 21.06 21.117 21.18 21.257 21.275 21.305 21.38 21.457 21.545 21.622 21.7 21.737 21.797 21.837 21.915 21.917 21.977 21.98 21.98 21.92 21.892 21.862 21.827 21.837 21.807 21.8 21.732 21.695 21.64 21.59 21.54 21.49 21.445 21.395 21.365 21.335 21.287 21.245 21.222 21.215 21.187 21.14 21.1 21.072 21.047 20.995 20.985 20.96 20.932 20.93 20.89 20.875 20.832 20.827 20.815 20.837 20.832 20.812 20.79 20.777 20.75 20.74 20.765 20.73 20.747 20.732 20.747 20.75 20.797 20.835 20.857 20.932 20.992 21.047 21.075 21.152 21.187 21.242 21.295 21.332 21.405 21.515 21.627 21.577 21.615 21.717 22.32 23.207 24.222 23.33 23.167 22.257 22.29 22.342 22.402 22.455 22.525 22.58 22.677 22.772 22.847 22.915 22.977 23.057 23.142 23.235 23.31 23.407 23.502 23.59 23.712 23.832 23.952 24.092 24.187 24.32 24.445 24.582 24.7 24.805 24.91 25.02 25.152 25.29 25.395 25.545 25.642 25.775 25.892 26.025 26.167 26.282 26.402 27.92 28.585 27.25 27.327 27.797 27.78 27.755 27.432 27.48 27.592 28.03 28.405 28.572 28.717 28.777 28.835 30.347 29.127 29.232 29.872 30.717 30.29 29.802
22.455 22.507 22.43 22.36 22.342 22.322 22.32 22.177 22.032 21.942 21.927 21.89 21.817 21.762 21.65 21.487 21.29 21.14 21.187 21.415 21.29 21.1 20.93 20.925 20.817 20.755 20.712 20.71 20.49 20.432 20.395 20.387 20.237 20.127 20.042 19.975 19.86 19.852 19.797 19.787 19.747 19.575 19.83 19.422 19.4 20.055 19.37 19.387 19.437 19.087 19.38 19.042 18.792 18.72 18.482 18.42 18.465 18.277 18.19 24.157 18.055 17.892 19.412 18.74 19.19 17.427 17.49 18.097 18.75 18.695 17.317 17.11 17.312 17.142 18.072 17.472 16.707 16.72 16.512 16.525 16.392 16.427 16.322 16.247 16.187 16.165 16.272 16.265 17.575 16.427 15.965 15.827 15.93 15.78 16.64 15.917 15.62 15.627 15.622 15.755 15.505 15.462 15.417 15.415 15.427 15.297 15.662 15.737 15.357 15.432 15.342 15.442 15.21 15.057 14.957 14.95 15.14 15.042 14.932 14.825 14.992 14.815 14.807 17.777 16.907 14.875 20.995 22.75 15.21 15.347 14.53 14.327 14.12 14.25 14.08 14.145 14.012 14.392 13.662 13.73 13.757 13.8 13.45 13.287 17.812 22.052 25.707 18.742 18.777 16.372 15.587 11.942 11.877 11.895 11.595 11.465 10.682 10.22 9.932 9.37 8.927 9.962 16.477 14.31 8.74 9.92 6.712 6.2 5.56 5.152 4.432 3.5 3.037 3.12 3.77 6.997 8.665 5.942 6.455 3.222 3.18 3.145 3.142 3.127 3.105 3.09 3.115 3.155 3.265 3.197 3.107 3.087 3.03 3.975 2.99 2.697 2.612 2.73 2.982 3.26 3.532 3.775 4.03 4.21 4.4 4.425 4.612 4.937 5.267 5.522 5.752 5.997 6.18 6.367 6.55 6.805 7.085 7.297 7.44 7.63 7.8 7.905 8.015 8.105 8.187 8.24 8.227 8.247 8.255 8.31 8.437 8.6 8.727 9.427 9.412 9.41 9.655 10.262 11.27 10.89 10.715 11.292 11.09 11.697 11.925 12.267 12.172 12.137 12.217 12.515 12.657 12.645 12.737 13.2 13.925 14.37 15.242 17.19 16.45 16.627 16.562 15.76 15.88 16.02 16.117 16.22 16.305 16.475 16.68 16.857 17.115 17.355 17.525 17.59 17.59 17.717 17.967 18.317 18.672 18.862 19.08 19.355 19.53 19.675 19.937 20.162 20.297 20.46 20.527 20.54 20.58 20.635 20.697 20.755 20.777 20.76 20.757 20.792 20.8 20.867 20.937 20.992 21.02 21.062 21.107 21.135 21.227 21.257 21.337 21.477 21.537 21.585 21.627 21.665 21.742 21.807 21.835 21.82 21.837 21.805 21.727 21.722 21.707 21.66 21.647 21.62 21.555 21.505 21.507 21.44 21.37 21.337 21.312 21.265 21.21 21.145 21.122 21.097 21.04 21.005 20.977 20.937 20.912 20.885 20.84 20.825 20.8 20.787 20.785 20.752 20.71 20.692 20.702 20.667 20.68 20.665 20.667 20.662 20.667 20.655 20.657 20.66 20.632 20.615 20.615 20.637 20.63 20.645 20.697 20.727 20.78 20.867 20.962 20.995 21.067 21.115 21.122 21.155 21.227 21.347 21.455 21.51 21.495 21.54 21.732 22.45 23.765 23.912 23.35 22.102 22.14 22.205 22.245 22.31 22.387 22.447 22.51 22.572 22.667 22.747 22.855 22.902 22.962 23.06 23.137 23.232 23.337 23.425 23.517 23.632 23.77 23.88 24.025 24.132 24.26 24.38 24.502 24.635 24.722 24.837 24.955 25.077 25.177 25.312 25.437 25.565 25.685 25.81 25.947 26.102 26.21 26.342 26.702 29.325 29.187 27.515 27.247 27.612 27.667 27.902 28.072 28.197 27.77 28.2 28.627 28.845 28.992 28.942 29.79 33.305 31.85 30.447 29.357 29.48 31.072 30.457
22.527 22.592 22.357 22.505 22.407 22.45 22.377 22.23 22.14 22.007 21.985 21.965 21.927 21.757 21.65 21.482 21.357 21.18 21.43 21.447 21.205 21.045 20.985 20.93 20.845 20.812 20.712 20.617 20.53 20.422 20.44 20.36 20.285 20.275 20.087 20.087 19.975 20.085 20.1 19.83 19.7 19.68 19.542 19.482 19.377 19.26 19.36 19.142 19.052 18.955 18.92 19.06 18.81 18.72 18.757 18.535 18.377 18.437 18.155 18.1 18.02 18.035 18.727 17.732 17.617 17.512 17.387 17.36 17.35 17.515 17.18 17.07 17.107 17.227 17.025 16.685 16.67 16.695 16.47 16.537 16.44 16.297 16.25 16.267 16.227 16.345 17.172 19.237 21.77 24.02 22.772 16.477 16.047 15.892 15.725 15.632 20.905 18.435 19.405 15.527 15.555 15.475 15.507 15.5 15.467 15.452 15.825 15.885 15.52 15.415 15.537 15.19 14.932 14.927 15.055 15.015 15.13 15.172 14.977 15.002 14.712 15.14 14.927 18.57 16.045 20.942 27.15 17.415 14.427 14.675 15.11 14.29 14.155 14.132 14.047 14.072 14.142 13.802 13.705 13.642 14.407 13.512 13.322 13.255 18.475 17.255 22.162 21.292 22.132 18.04 12.26 12.077 12.042 11.907 11.825 12.06 11.182 10.582 10.02 9.655 9.42 8.64 10.042 16.297 10.46 7.067 6.687 6.11 5.792 5.655 4.92 4.547 3.077 3.027 5.21 6.52 5.475 4.28 3.697 3.237 3.185 3.222 3.17 3.16 3.155 3.132 3.155 3.155 3.177 3.197 3.102 3.052 2.972 3.282 3.502 2.83 2.657 2.667 2.91 3.125 3.372 3.695 3.945 4.16 4.372 4.442 4.532 4.777 5.112 5.382 5.632 5.882 6.09 6.27 6.432 6.64 6.9 7.137 7.37 7.477 7.652 7.797 7.887 7.982 8.042 8.097 8.117 8.152 8.235 8.292 8.382 8.522 8.71 8.872 8.835 8.867 8.825 9.055 10.442 10.92 10.925 10.82 10.675 11.34 11.715 11.745 12.275 12.702 12.645 12.67 12.717 12.62 12.745 13.285 13.83 14.25 14.802 16.14 17.495 15.577 17.395 15.872 15.817 15.987 16.05 16.145 16.2 16.382 16.547 16.727 16.96 17.23 17.455 17.612 17.637 17.757 17.922 18.142 18.435 18.682 19.005 19.332 19.542 19.667 19.85 20.1 20.24 20.335 20.537 20.51 20.527 20.575 20.62 20.67 20.697 20.69 20.672 20.665 20.695 20.75 20.802 20.845 20.872 20.9 20.912 20.975 21.012 21.075 21.17 21.265 21.345 21.367 21.442 21.495 21.56 21.612 21.68 21.677 21.652 21.61 21.582 21.557 21.53 21.507 21.502 21.447 21.41 21.355 21.325 21.297 21.227 21.187 21.142 21.102 21.062 21.005 20.962 20.927 20.887 20.822 20.785 20.745 20.717 20.685 20.66 20.647 20.615 20.602 20.59 20.57 20.535 20.547 20.552 20.507 20.5 20.51 20.497 20.52 20.535 20.52 20.535 20.525 20.515 20.472 20.485 20.51 20.517 20.567 20.61 20.677 20.717 20.807 20.905 20.957 20.997 21.02 21.03 21.1 21.29 21.375 21.37 21.407 21.497 22.06 23.212 23.845 23.547 22.195 21.995 22.027 22.085 22.187 22.22 22.302 22.372 22.44 22.53 22.587 22.662 22.765 22.85 22.885 23.005 23.052 23.142 23.282 23.332 23.44 23.527 23.66 23.787 23.945 24.06 24.177 24.315 24.45 24.555 24.632 24.752 24.867 24.972 25.092 25.222 25.35 25.5 25.63 25.717 25.865 26 26.15 26.275 26.475 27.215 27.62 27.087 27.005 27.107 27.192 27.795 28.437 29.482 28.895 28.082 28.095 28.625 29.077 29.125 29.185 33.38 35.812 35.395 33.475 30.39 29.44 29.595 30.245
22.587 22.56 22.49 22.502 22.435 22.515 22.31 22.25 22.195 22.175 22.017 21.952 21.995 21.82 21.587 21.445 21.31 21.45 21.55 21.355 21.16 21.092 21.092 20.965 20.925 20.97 20.815 20.62 20.472 20.487 20.56 20.35 20.275 20.162 20.082 20.005 19.967 19.905 20.085 19.897 19.957 19.69 19.59 19.535 19.395 19.26 19.232 19.082 19.042 18.965 18.915 18.84 18.752 18.682 18.645 18.472 24.717 24.505 24.077 18.12 18.182 17.982 17.86 17.735 17.715 17.662 17.53 17.47 17.455 17.24 17.07 17.082 16.972 16.997 17.685 16.82 16.757 19.88 16.652 16.582 16.487 16.342 16.375 16.292 16.222 16.207 16.645 21.077 22.28 22.475 17.1 15.917 15.967 15.98 15.785 16.927 23.195 21.025 22.055 15.637 15.607 15.522 15.425 15.467 15.51 15.73 15.607 15.8 15.582 15.357 15.31 14.995 14.962 20.33 22.08 15.462 15.117 15.217 15.02 14.955 14.757 14.85 18.315 23.092 25.807 23.815 19.072 19.232 14.625 14.34 14.692 14.192 14.235 14.212 14.162 14.217 13.985 13.772 13.735 13.67 16.527 15.855 13.277 13.227 13.137 12.917 12.81 15.085 14.257 12.522 12.27 12.145 12.047 12.092 11.957 11.772 11.5 10.697 10.137 9.697 9.372 8.88 12.71 18.842 11.805 7.38 6.965 6.53 5.687 5.09 6.337 6.235 3.03 3.037 6.125 8.885 6.15 3.31 3.352 3.285 3.24 3.202 3.167 3.247 3.195 3.177 3.187 3.197 3.2 3.152 3.1 3.072 2.997 2.99 3.035 2.965 2.765 2.67 2.837 3.042 3.192 3.587 3.867 4.082 4.312 4.482 4.51 4.642 4.912 5.217 5.485 5.75 5.967 6.157 6.355 6.537 6.745 6.935 7.125 7.312 7.48 7.672 7.74 7.815 7.88 7.967 8.007 8.082 8.192 8.297 8.405 8.52 8.72 8.86 8.847 8.857 8.885 9.03 9.407 10.545 11.39 11.245 11.077 11.125 11.49 11.762 12.17 12.245 12.417 12.562 12.66 12.537 12.677 13.147 13.542 13.94 14.275 14.835 17.017 17.822 18.927 17.85 15.847 16.017 16.017 16.2 16.182 16.332 16.455 16.63 16.83 17.117 17.385 17.65 17.732 17.85 17.967 18.065 18.275 18.507 18.865 19.31 19.597 19.697 19.842 19.992 20.24 20.26 20.347 20.565 20.512 20.502 20.512 20.58 20.6 20.605 20.577 20.565 20.555 20.615 20.655 20.667 20.662 20.68 20.765 20.782 20.842 20.892 20.942 20.995 21.105 21.23 21.28 21.325 21.35 21.387 21.452 21.472 21.467 21.437 21.425 21.387 21.367 21.357 21.335 21.28 21.25 21.202 21.175 21.11 21.075 21.027 20.982 20.942 20.93 20.86 20.795 20.745 20.68 20.65 20.612 20.567 20.532 20.522 20.505 20.482 20.452 20.43 20.397 20.395 20.382 20.372 20.362 20.347 20.357 20.377 20.372 20.38 20.382 20.38 20.397 20.385 20.37 20.377 20.37 20.37 20.432 20.482 20.555 20.615 20.687 20.755 20.85 20.867 20.885 20.925 21.062 21.177 21.195 21.202 21.272 21.897 22.845 23.695 23.622 22.917 22.017 21.907 21.957 22.02 22.087 22.162 22.205 22.295 22.362 22.467 22.54 22.64 22.715 22.767 22.827 22.897 22.997 23.055 23.157 23.265 23.365 23.467 23.562 23.685 23.85 23.98 24.087 24.232 24.38 24.515 24.577 24.68 24.815 24.922 25.032 25.147 25.275 25.407 25.542 25.642 25.785 25.925 26.072 26.232 26.337 27.05 27.64 27.132 26.92 27.067 27.17 27.237 28.315 27.907 28.79 28.772 30.115 30.202 28.582 29.295 29.135 32.28 35.86 36.245 36.105 35.55 30.212 29.66 29.57 29.74
22.622 22.635 22.61 22.575 22.492 22.445 22.392 22.27 22.2 22.102 22.147 22.115 22.01 21.807 21.725 21.472 21.6 21.617 21.537 21.245 21.735 21.5 21.042 21.012 20.987 20.935 20.802 20.565 20.497 20.575 20.552 20.402 20.255 20.215 20.125 20.002 19.995 19.945 19.897 19.92 19.92 19.752 19.64 19.535 19.49 19.362 19.197 19.137 19.052 19.127 18.997 18.857 18.777 18.677 18.675 18.617 22.562 20.432 18.177 21.387 20.177 18.005 17.882 17.725 17.595 17.592 17.547 17.507 17.372 17.317 17.145 16.997 16.947 16.867 17.135 16.725 16.707 16.625 16.637 16.532 16.507 16.41 16.362 16.297 16.207 16.315 16.45 16.077 17.242 16.042 16.065 15.895 16.082 15.97 15.877 15.815 15.805 17.437 19.47 15.575 15.635 15.497 15.427 15.445 15.585 15.787 16.042 16.265 15.645 15.347 15.155 14.99 15.132 15.022 15.057 15.217 15.16 15.06 14.92 14.792 14.952 16.485 22.17 20.827 24.767 25.192 22.772 20.827 16.047 14.91 14.157 14.255 14.48 14.237 14.172 14.035 13.91 13.85 20.357 20.607 21.832 23.202 17.465 13.21 13.112 12.955 12.867 13.027 12.877 12.68 12.345 12.137 12.03 12.025 11.937 11.62 11.84 11 10.397 9.987 9.742 9.057 16.332 14.387 7.51 7.012 7.225 7.782 5.837 4.917 4.832 3.57 3.987 3.85 3.4 4.24 8.49 5.16 3.43 3.3 3.26 3.285 3.302 3.28 3.28 3.24 3.23 3.215 3.222 3.17 3.107 3.117 3.105 3.04 3.052 3.032 2.895 2.732 2.775 2.992 3.135 3.495 3.805 3.957 4.242 4.442 4.457 4.597 4.795 5.052 5.352 5.65 5.92 6.125 6.287 6.497 6.65 6.832 7.002 7.175 7.355 7.57 7.64 7.732 7.805 7.877 7.967 8.065 8.16 8.287 8.425 8.572 8.722 8.827 8.832 8.85 8.94 9.075 9.32 9.837 10.14 10.727 11.412 12 11.98 12.045 12.065 12.442 12.095 12.235 12.402 12.345 12.435 12.802 13.11 13.427 13.78 14.05 15.607 17.815 16.6 18.297 16.375 15.842 16.05 16.232 16.185 16.187 16.42 16.617 16.725 16.897 17.235 17.535 17.742 17.902 18.037 18.137 18.257 18.592 18.957 19.377 19.65 19.752 19.855 19.955 20.077 20.287 20.297 20.432 20.54 20.46 20.452 20.467 20.512 20.53 20.522 20.47 20.452 20.487 20.49 20.492 20.48 20.52 20.52 20.607 20.647 20.705 20.73 20.792 20.922 21.035 21.09 21.155 21.155 21.18 21.217 21.262 21.29 21.275 21.255 21.222 21.212 21.192 21.172 21.145 21.092 21.047 20.987 20.93 20.927 20.87 20.807 20.787 20.762 20.69 20.625 20.552 20.517 20.45 20.42 20.407 20.39 20.367 20.35 20.3 20.262 20.232 20.227 20.235 20.255 20.247 20.212 20.21 20.232 20.217 20.242 20.242 20.265 20.287 20.28 20.26 20.275 20.27 20.3 20.322 20.367 20.427 20.482 20.577 20.637 20.687 20.725 20.757 20.852 21.002 21.052 21.045 21.1 21.34 22.445 23.56 23.63 23.535 22.017 21.775 21.847 21.875 21.917 22.017 22.102 22.16 22.245 22.31 22.4 22.515 22.58 22.637 22.712 22.792 22.847 22.915 22.992 23.07 23.17 23.257 23.367 23.465 23.59 23.725 23.882 23.997 24.127 24.297 24.42 24.56 24.64 24.76 24.882 24.97 25.072 25.207 25.352 25.48 25.6 25.715 25.847 25.992 26.14 26.29 26.507 27.895 28.405 27 27.007 27.127 27.232 27.49 27.53 27.895 28.352 30.7 31.88 31.785 31.105 29.855 29.162 32.32 33.745 35.617 36.02 34.627 30.492 29.627 29.66 29.75
22.737 22.725 22.695 22.692 22.552 22.497 22.46 22.377 22.232 22.16 22.3 22.227 22.08 21.787 21.585 21.637 24.82 25.222 22.815 21.32 21.222 21.13 21.075 21.085 21.015 20.905 20.887 20.557 20.512 20.567 20.522 20.502 20.347 20.245 20.197 20.042 19.985 20.002 20.295 20.25 19.915 19.74 19.635 19.595 19.67 20.03 19.347 19.317 19.25 19.352 19.285 19.112 18.815 18.655 18.592 18.542 18.352 20.797 19.087 19.775 22.297 19.147 17.887 17.722 17.592 17.552 17.485 17.605 17.445 17.282 17.457 17.255 17.107 16.987 16.822 16.682 16.577 16.527 16.57 16.657 16.55 16.445 16.34 16.337 16.252 16.217 16.485 16.18 16.04 16.037 15.985 15.935 16.005 15.937 16.045 15.942 15.81 15.747 15.74 15.607 15.577 15.647 15.5 15.652 15.597 15.685 15.595 15.66 15.51 15.24 15.16 15.29 15.335 15.035 14.952 15.03 15.095 14.86 14.9 18.392 15.015 16.707 23 21.615 22.337 21.87 18.632 20.015 16.135 14.842 14.277 14.352 14.445 14.39 14.347 16.725 18.942 20.392 24.805 25.015 24.072 23.005 24.445 14.32 13.075 13.017 12.827 12.852 12.927 12.865 12.512 12.27 12.08 11.982 11.777 11.565 11.265 11.237 11.102 10.275 10.407 9.515 8.695 8.04 7.467 6.872 6.69 7.017 5.875 5.152 4.032 4.977 3.382 3.625 3.237 6.31 3.91 2.862 3.437 3.34 3.277 3.365 3.395 3.27 3.255 3.282 3.255 3.235 3.237 3.225 3.165 3.157 3.14 3.105 3.115 3.065 3.012 2.882 2.74 2.887 3.09 3.4 3.712 3.887 4.087 4.327 4.41 4.492 4.727 4.967 5.272 5.545 5.81 6.055 6.255 6.402 6.572 6.72 6.892 7.097 7.255 7.43 7.527 7.642 7.757 7.85 7.975 8.08 8.162 8.247 8.397 8.557 8.69 8.777 8.802 8.827 8.887 9.027 9.285 9.445 9.555 9.92 10.455 11.042 11.29 12.017 11.942 11.557 11.517 11.81 12.007 12.107 12.265 12.407 12.53 12.72 13.067 13.38 13.78 16.11 16.872 19.235 18.11 16.557 15.862 16.012 16.157 16.082 16.31 16.522 16.597 16.72 17.012 17.335 17.595 17.82 18.002 18.137 18.275 18.6 19.047 19.317 19.56 19.68 19.74 19.957 20.097 20.232 20.375 20.307 20.517 20.462 20.402 20.422 20.442 20.47 20.442 20.415 20.375 20.315 20.307 20.322 20.285 20.327 20.342 20.4 20.41 20.452 20.53 20.617 20.73 20.785 20.88 20.927 20.967 20.967 21.022 21.095 21.087 21.102 21.057 21.052 21.055 21.022 21.007 20.975 20.912 20.87 20.832 20.8 20.757 20.725 20.67 20.615 20.57 20.507 20.462 20.395 20.33 20.29 20.275 20.225 20.202 20.185 20.17 20.12 20.105 20.082 20.092 20.105 20.097 20.085 20.08 20.102 20.112 20.14 20.147 20.142 20.122 20.16 20.13 20.115 20.182 20.177 20.232 20.277 20.345 20.387 20.47 20.507 20.535 20.58 20.65 20.792 20.892 20.882 20.89 21.072 21.597 22.425 23.432 23.15 22.702 21.867 21.69 21.757 21.805 21.852 21.94 22.002 22.077 22.15 22.237 22.32 22.397 22.49 22.555 22.617 22.722 22.757 22.822 22.922 23.012 23.092 23.207 23.3 23.37 23.482 23.612 23.752 23.91 24.057 24.207 24.33 24.45 24.577 24.692 24.825 24.947 25.04 25.14 25.292 25.422 25.552 25.67 25.807 25.94 26.082 26.225 26.33 26.485 27.87 27.192 26.892 27.077 27.197 27.33 27.497 27.677 27.62 28.767 31.997 32.545 32.085 31.71 31.455 30.33 29.737 29.65 34.385 35.327 32.932 30.59 29.587 30.245 29.825
22.87 22.765 22.712 22.73 22.695 22.547 22.467 22.37 22.407 22.232 22.305 22.26 22.032 21.775 21.632 21.862 26.7 31.645 27.93 21.445 21.325 21.167 21.135 21.097 21.262 20.945 20.817 20.66 20.62 20.627 20.512 20.452 20.367 22.232 20.332 20.085 20.007 20.037 20.55 20.23 19.93 19.69 19.64 19.642 19.622 19.965 19.695 19.455 19.375 19.447 19.342 19.02 18.837 18.742 18.64 18.492 18.315 18.222 18.15 24.265 25.6 24.122 17.91 17.76 17.71 17.617 17.637 17.545 17.485 17.337 17.527 17.582 17.157 17.025 16.882 16.775 16.667 16.53 16.43 16.412 16.392 16.537 16.407 16.432 16.367 16.61 16.62 16.127 16.185 16.317 16.012 15.98 15.952 15.847 15.945 15.965 15.885 15.765 15.735 15.89 20.882 19.595 15.562 15.575 15.565 15.775 15.84 15.767 15.555 15.29 15.237 15.457 15.405 15.21 15.037 14.962 15.457 15.605 24.337 21.772 16.192 15.72 17.27 20.975 19.542 17.855 15.147 15.832 14.747 14.41 14.252 14.435 14.435 14.652 17.327 22.022 19.452 22.345 24.637 23.43 23.377 21.94 24.422 19.947 15.772 13.002 12.822 12.792 12.83 12.86 12.542 12.352 12.135 11.992 11.82 11.647 11.53 11.52 11.315 10.652 10.182 9.632 8.952 8.37 7.375 6.635 6.897 5.717 6.21 6.55 9.602 5.98 3.072 2.85 3.32 4.36 3.947 5.877 4.28 3.442 3.342 3.362 3.352 3.33 3.31 3.357 3.277 3.295 3.295 3.247 3.215 3.202 3.21 3.147 3.11 3.077 3.055 2.977 2.8 2.845 3.025 3.22 3.515 3.777 3.895 4.082 4.27 4.4 4.62 4.865 5.127 5.457 5.715 5.935 6.137 6.3 6.442 6.592 6.747 6.917 7.122 7.26 7.422 7.55 7.632 7.727 7.882 7.99 8.115 8.222 8.33 8.492 8.655 8.782 8.792 8.825 8.827 8.89 9.13 9.365 9.435 9.615 10.03 10.412 10.67 10.905 10.95 11.072 11.35 11.567 11.715 11.955 12.292 12.427 12.467 12.482 12.697 12.97 13.207 14.105 16.895 19.177 19.63 18.527 16.21 15.695 15.72 15.707 15.892 16.155 16.41 16.635 16.845 17.152 17.452 17.687 17.962 18.175 18.31 18.55 18.917 19.227 19.462 19.567 19.757 19.915 20.11 20.212 20.32 20.34 20.315 20.465 20.392 20.347 20.387 20.365 20.335 20.282 20.27 20.202 20.135 20.157 20.152 20.107 20.147 20.165 20.22 20.237 20.357 20.415 20.475 20.577 20.66 20.682 20.747 20.795 20.805 20.86 20.85 20.92 20.887 20.902 20.912 20.88 20.845 20.827 20.765 20.717 20.682 20.635 20.607 20.57 20.487 20.437 20.385 20.32 20.272 20.25 20.162 20.122 20.1 20.065 20.052 19.975 19.977 19.972 19.965 19.957 19.945 19.94 19.932 19.952 19.982 19.995 20.01 20.057 20.035 20.015 20.015 20.007 20.032 20.055 20.457 22.09 21.585 20.222 20.302 20.352 20.387 20.41 20.462 20.572 20.695 20.657 20.717 20.81 21.232 21.87 23.157 23.242 22.89 21.752 21.572 21.607 21.665 21.735 21.8 21.862 21.957 22.022 22.09 22.145 22.227 22.292 22.397 22.465 22.535 22.592 22.662 22.745 22.852 22.922 23.02 23.132 23.242 23.317 23.415 23.517 23.657 23.805 23.95 24.095 24.23 24.347 24.497 24.622 24.775 24.915 25.002 25.125 25.215 25.342 25.495 25.62 25.757 25.895 25.995 26.152 26.282 26.365 27.327 30.317 27.692 28.022 27.405 27.337 27.392 27.637 27.662 27.965 29.665 32.367 32.977 32.96 32.467 31.902 31.655 30.89 30.465 30.27 30.865 31.92 29.507 29.78 30.065 30.042
