ncols 460
nrows 31
xllcorner    455014
yllcorner    94834
cellsize     2
NODATA_value -9999
-1.926 -1.893 -2.268 -2.278 -2.246 -2.328 -2.228 -2.216 -2.196 -2.248 -1.909 -1.846 -1.867 -2.266 -2.236 -2.181 -2.236 -2.223 -2.251 -2.151 -2.251 -2.188 -2.233 -2.283 -1.935 -1.882 -2.218 -2.203 -2.236 -2.218 -1.918 -1.531 -1.88 -2.251 -1.884 -1.729 -1.447 -1.211 -1.108 -0.869 -0.683 -0.714 -0.723 -0.605 -0.461 -0.356 -0.064 0.191 0.394 0.407 0.276 0.164 -0.04 -0.15 -0.067 -0.083 -0.082 -0.005 0.114 0.018 -0.116 -0.283 -0.34 -0.375 -0.37 -0.329 -0.446 -0.751 -0.945 -1.134 -1.39 -1.53 -1.63 -1.491 -1.391 -1.521 -1.582 -1.573 -1.525 -1.387 -1.154 -1.029 -0.885 -0.69 -0.506 -0.549 -0.858 -1.137 -1.393 -1.511 -1.588 -1.585 -1.571 -1.425 -1.184 -0.912 -0.589 -0.339 -0.009 0.254 0.554 0.851 1.152 1.466 1.743 2.071 2.307 2.292 2.324 2.317 2.254 2.209 2.279 2.237 2.227 2.239 2.247 2.314 2.324 2.329 2.329 2.304 2.284 2.287 2.287 2.227 2.242 2.254 2.274 2.222 2.224 2.242 2.317 2.244 2.204 2.264 2.312 2.242 2.289 2.247 2.254 2.249 2.254 2.227 2.237 2.252 2.229 2.304 2.272 2.247 2.244 2.237 2.279 2.232 2.207 2.214 2.192 2.172 2.209 2.222 2.219 2.209 2.242 2.204 2.239 2.309 2.252 2.217 2.199 2.199 2.242 2.237 2.219 2.244 2.232 2.217 2.249 2.244 2.259 2.242 2.199 2.279 2.239 2.247 2.207 2.277 2.222 2.242 2.232 2.259 2.254 2.237 2.247 2.267 2.289 2.214 2.297 2.262 2.254 2.232 2.197 2.224 2.292 2.244 2.222 2.242 2.309 2.314 2.292 2.292 2.297 2.259 2.274 2.247 2.267 2.257 2.254 2.222 2.199 2.197 2.182 2.202 2.224 2.222 2.234 2.227 2.317 2.184 2.259 2.302 2.254 2.312 2.294 2.277 2.329 2.292 2.319 2.264 2.214 2.292 2.324 2.204 2.174 2.219 2.212 2.224 2.272 2.302 2.162 2.187 2.237 2.319 2.307 2.317 2.187 1.899 1.533 1.233 0.981 0.714 0.425 0.221 -0.008 -0.275 -0.532 -0.813 -1.003 -1.228 -1.347 -1.348 -1.34 -1.261 -1.501 -1.838 -1.912 -1.925 -1.944 -1.79 -1.631 -1.951 -2.246 -2.193 2.384 -1.537 -1.246 -0.993 -0.762 -0.443 2.324 2.234 2.289 -0.695 -0.982 -1.313 2.327 2.292 -2.371 -2.318 -2.183 -2.246 -2.226 -2.263 -1.94 -2.188 -2.196 -1.925 -1.909 -2.268 -2.213 -2.159 -2.216 -2.243 -1.918 -1.884 -2.216 -2.228 -2.216 -1.922 -2.186 -2.181 -2.223 -2.208 -2.108 -2.141 -2.168 -2.188 -2.248 -1.878 -1.903 -1.792 -1.618 -1.883 -2.123 -2.256 -2.208 -2.118 -2.143 -2.193 -2.231 -2.131 -2.198 -2.278 -2.283 -2.183 -2.258 -2.261 -2.171 -2.173 -2.238 -2.228 -2.166 -2.193 -2.208 -2.201 -2.171 -2.123 -2.128 -2.226 -2.271 -2.248 -2.208 -2.186 -2.251 -2.303 -2.163 -2.116 -2.198 -2.206 -2.176 -2.211 -2.246 -2.231 -2.248 -2.163 -2.201 -2.213 -2.143 -2.186 -2.168 -2.206 -2.301 -2.243 -2.236 -2.258 -2.216 -2.141 -2.196 -2.186 -2.161 -2.201 -2.213 -2.233 -2.223 -2.131 -2.211 -2.163 -2.131 -2.221 -2.226 -2.201 -2.183 -2.183 -2.201 -2.161 -2.233 -2.151 -2.191 -2.211 -2.266 -2.251 -2.163 -2.206 -2.208 -2.178 -2.206 -2.208 -2.163 -2.176 -2.188 -2.218 -2.206 -2.158 -2.171 -2.146 -2.221 -2.188 -2.191 -2.248 -2.201 -2.266 -2.276 -2.141 -2.153 -2.153 -2.158 -2.096 -2.108 -2.228 -2.203 -2.183 -2.166 -2.196 -2.221 -2.216 -2.176 -2.171 -2.211 -2.206 -2.201 -2.173 -2.176 -2.166 -2.216 -2.176 -2.168 -2.198 -2.243 -2.211 -2.168 -2.198
-1.907 -1.92 -2.273 -2.273 -2.228 -2.276 -2.208 -2.191 -1.894 -1.946 -1.794 -1.953 -1.816 -2.253 -2.271 -2.213 -2.233 -2.196 -2.208 -2.176 -2.231 -2.193 -2.231 -2.246 -1.934 -2.183 -2.238 -2.191 -2.266 -1.898 -1.806 -1.563 -1.882 -2.266 -2.238 -1.875 -1.53 -1.23 -0.955 -0.831 -0.97 -1.003 -1.031 -0.876 -0.695 -0.5 -0.229 0.029 0.268 0.174 -0.008 -0.088 -0.234 -0.339 -0.383 -0.399 -0.343 -0.232 -0.088 -0.257 -0.467 -0.588 -0.707 -0.759 -0.723 -0.682 -0.564 -0.881 -1.104 -1.334 -1.59 -1.775 -1.913 -1.741 -1.59 -1.343 -1.251 -1.306 -1.268 -1.105 -0.925 -0.754 -0.562 -0.462 -0.394 -0.699 -0.972 -1.305 -1.582 -1.796 -1.957 -1.886 -1.783 -1.585 -1.293 -0.957 -0.67 -0.411 -0.093 0.237 0.512 0.829 1.095 1.417 1.749 2.004 2.289 2.337 2.314 2.297 2.277 2.249 2.247 2.259 2.214 2.257 2.244 2.282 2.312 2.262 2.322 2.332 2.252 2.297 2.382 2.302 2.259 2.287 2.182 2.244 2.259 2.254 2.249 2.207 2.234 2.244 2.277 2.224 2.259 2.259 2.254 2.272 2.267 2.279 2.257 2.294 2.224 2.239 2.247 2.199 2.242 2.299 2.264 2.259 2.237 2.224 2.194 2.189 2.297 2.207 2.177 2.237 2.242 2.207 2.249 2.282 2.244 2.232 2.199 2.204 2.242 2.259 2.199 2.207 2.204 2.239 2.249 2.257 2.294 2.249 2.227 2.204 2.232 2.292 2.244 2.282 2.249 2.234 2.224 2.247 2.244 2.202 2.227 2.247 2.264 2.284 2.267 2.267 2.282 2.244 2.204 2.264 2.249 2.262 2.277 2.242 2.309 2.437 2.304 2.292 2.299 2.297 2.262 2.252 2.267 2.272 2.257 2.242 2.207 2.224 2.307 2.202 2.197 2.229 2.214 2.267 2.289 2.239 2.217 2.274 2.239 2.364 2.317 2.219 2.274 2.267 2.314 2.354 2.222 2.244 2.222 2.192 2.207 2.332 2.202 2.267 2.287 2.317 2.242 2.229 2.342 2.249 2.357 2.222 2.057 1.801 1.539 1.168 0.93 0.648 0.375 0.11 -0.183 2.282 -0.751 -0.982 2.242 2.267 -1.552 -1.615 -1.641 -1.418 -1.373 -1.541 -1.571 -1.647 -1.618 -1.51 -1.531 -1.842 -2.017 -9999 2.324 2.294 -1.267 -0.97 -0.744 -0.465 -0.156 2.092 2.204 2.317 -0.997 -1.299 -1.607 2.352 -2.368 -2.278 -2.216 -2.211 -2.201 -2.228 -2.201 -1.823 -1.916 -1.817 -1.852 -1.965 -9999 -9999 -2.218 -2.253 -1.929 -1.94 -2.233 -2.253 -2.173 -1.854 -2.268 -2.221 -2.263 -2.251 -2.183 -2.273 -2.198 -2.126 -2.241 -1.853 -2.206 -1.938 -1.887 -1.905 -2.183 -2.206 -2.181 -2.148 -2.208 -2.163 -1.834 -2.138 -2.253 -2.223 -2.203 -2.226 -2.281 -2.248 -2.151 -2.193 -2.203 -2.213 -2.193 -2.221 -2.216 -2.191 -2.151 -2.183 -2.151 -2.176 -2.283 -2.251 -2.246 -2.211 -2.236 -2.243 -2.166 -2.221 -2.196 -2.188 -2.156 -2.161 -2.238 -2.166 -2.233 -2.178 -2.281 -2.306 -2.191 -2.158 -2.196 -2.221 -2.258 -2.226 -2.183 -2.253 -2.218 -2.166 -2.151 -2.138 -2.196 -2.226 -2.218 -2.241 -2.216 -2.201 -2.176 -2.228 -2.216 -2.181 -2.198 -2.201 -2.213 -2.176 -2.143 -2.173 -2.223 -2.113 -2.193 -2.173 -2.223 -2.236 -2.241 -2.236 -2.186 -2.191 -2.203 -2.218 -2.176 -2.133 -2.228 -2.243 -2.223 -2.218 -2.186 -2.121 -2.146 -2.211 -2.166 -2.221 -2.158 -2.263 -2.241 -2.211 -2.138 -2.163 -2.238 -2.116 -2.093 -2.228 -2.218 -2.176 -2.143 -2.228 -2.188 -2.191 -2.206 -2.226 -2.191 -2.158 -2.186 -2.173 -2.166 -2.173 -2.186 -2.173 -2.193 -2.213 -2.188 -2.206 -2.156 -2.223
-2.261 -1.997 -2.296 -2.273 -1.988 -2.298 -2.193 -2.178 -2.226 -2.266 -1.911 -2.161 -1.844 -2.216 -2.273 -1.875 -1.88 -1.921 -2.213 -2.163 -2.216 -2.236 -2.216 -2.243 -1.942 -2.246 -2.246 -2.193 -2.236 -1.882 -1.741 -1.542 -1.851 -2.211 -1.931 -1.813 -1.495 -1.247 -0.963 -1.077 -1.217 -1.306 -1.302 -1.122 -0.898 -0.671 -0.43 -0.16 0.106 -0.044 -0.235 -0.447 -0.554 -0.653 -0.74 -0.717 -0.662 -0.581 -0.417 -0.581 -0.749 -0.826 -0.981 -1.013 -0.977 -0.959 -0.897 -0.989 -1.297 -1.54 -1.833 -1.903 -2.163 -1.822 -1.795 -1.549 -1.254 -0.993 -0.989 -0.845 -0.699 -0.562 -0.337 -0.197 -0.425 -0.743 -1.003 -1.329 -1.642 -1.927 -2.208 -2.171 -1.966 -1.64 -1.281 -1.001 -0.697 -0.445 -0.106 0.195 0.509 0.798 1.144 1.45 1.707 1.978 2.244 2.294 2.299 2.269 2.249 2.264 2.244 2.244 2.212 2.247 2.234 2.277 2.324 2.299 2.334 2.344 2.317 2.334 2.302 2.244 2.217 2.234 2.289 2.279 2.207 2.209 2.262 2.242 2.234 2.239 2.237 2.252 2.289 2.254 2.264 2.264 2.264 2.239 2.224 2.197 2.257 2.267 2.237 2.282 2.274 2.382 2.262 2.239 2.197 2.204 2.162 2.167 2.254 2.179 2.197 2.237 2.229 2.217 2.254 2.262 2.267 2.219 2.199 2.197 2.237 2.272 2.222 2.217 2.212 2.207 2.234 2.284 2.272 2.267 2.229 2.192 2.204 2.262 2.284 2.297 2.294 2.264 2.237 2.262 2.234 2.209 2.279 2.267 2.257 2.252 2.247 2.332 2.264 2.254 2.277 2.289 2.284 2.297 2.317 2.302 2.282 2.299 2.309 2.287 2.257 2.294 2.249 2.259 2.227 2.257 2.284 2.247 2.217 2.207 2.232 2.204 2.184 2.192 2.229 2.224 2.277 2.309 2.267 2.252 2.224 2.414 2.337 2.282 2.262 2.304 2.234 2.272 2.244 2.289 2.167 2.214 2.232 2.214 2.184 2.264 2.254 2.239 2.267 2.324 2.244 2.339 2.389 2.262 2.014 1.741 1.424 1.133 0.837 0.561 0.271 0.028 2.239 2.239 2.294 -1.185 2.174 2.254 -1.83 -1.915 -1.786 -1.541 2.264 2.372 -1.264 -1.31 -1.281 -1.293 -1.4 -1.563 -1.831 -1.924 2.337 -1.542 -1.266 -0.96 -0.71 -0.477 -0.354 -0.529 -0.794 -0.92 -1.031 -1.315 -1.673 -1.958 -2.256 -2.293 -2.253 -2.196 -2.223 -2.226 -2.166 -2.166 -1.9 -1.654 -1.697 -1.967 -9999 -9999 -2.191 -2.156 -1.957 -1.942 -2.236 -2.201 -2.173 -2.298 -2.356 -2.268 -2.306 -2.163 -2.173 -2.273 -2.228 -2.178 -2.233 -2.238 -2.246 -2.273 -2.211 -2.218 -2.208 -2.218 -2.153 -2.163 -2.218 -2.241 -2.218 -2.178 -2.226 -2.193 -2.193 -2.206 -2.268 -2.228 -2.166 -2.201 -2.306 -2.246 -2.248 -2.176 -2.276 -2.268 -2.173 -2.106 -2.198 -2.183 -2.201 -2.228 -2.206 -2.166 -2.248 -2.253 -2.203 -2.203 -2.183 -2.178 -2.186 -2.163 -2.161 -2.221 -2.186 -2.221 -2.251 -2.241 -2.201 -2.253 -2.241 -2.241 -2.268 -2.223 -2.191 -2.243 -2.186 -2.228 -2.161 -2.161 -2.218 -2.188 -2.176 -2.238 -2.241 -2.213 -2.216 -2.226 -2.226 -2.218 -2.166 -2.198 -2.151 -2.213 -2.171 -2.163 -2.216 -2.173 -2.158 -2.223 -2.226 -2.178 -2.168 -2.203 -2.188 -2.201 -2.198 -2.221 -2.173 -2.216 -2.206 -2.308 -2.228 -2.196 -2.153 -2.113 -2.141 -2.208 -2.146 -2.198 -2.166 -2.206 -2.211 -2.193 -2.148 -2.208 -2.226 -2.193 -2.193 -2.156 -2.156 -2.213 -2.216 -2.181 -2.168 -2.146 -2.211 -2.176 -2.136 -2.188 -2.201 -2.178 -2.181 -2.198 -2.163 -2.216 -2.188 -2.216 -2.163 -2.186 -2.191 -2.241
-2.226 -2.268 -2.288 -2.301 -2.308 -2.238 -2.226 -2.181 -2.226 -2.253 -2.251 -2.116 -2.123 -1.912 -1.938 -1.747 -1.91 -1.906 -2.191 -2.216 -2.248 -1.925 -1.9 -1.92 -1.932 -2.253 -2.218 -2.248 -1.891 -2.203 -1.878 -1.554 -1.735 -1.883 -1.783 -1.546 -1.313 -1.103 -1.23 -1.305 -1.495 -1.646 -1.532 -1.391 -1.092 -0.825 -0.532 -0.306 0.006 -0.219 -0.461 -0.69 -0.801 -0.96 -0.996 -1.007 -0.988 -0.836 -0.676 -0.872 -1.008 -1.099 -1.248 -1.309 -1.299 -1.236 -1.103 -1.019 -1.279 -1.572 -1.891 -2.198 -2.143 -2.176 -1.928 -1.603 -1.288 -1.021 -0.698 -0.56 -0.485 -0.309 -0.087 -0.092 -0.397 -0.738 -0.995 -1.362 -1.642 -1.952 -2.136 -2.171 -1.964 -1.655 -1.276 -0.987 -0.672 -0.409 -0.071 0.174 0.438 0.692 1.146 1.431 1.717 2.027 2.299 2.322 2.307 2.239 2.277 2.317 2.302 2.264 2.282 2.282 2.272 2.357 2.282 2.317 2.302 2.299 2.272 2.297 2.274 2.262 2.184 2.224 2.237 2.252 2.244 2.157 2.217 2.244 2.219 2.274 2.219 2.244 2.232 2.269 2.267 2.222 2.264 2.264 2.234 2.232 2.232 2.242 2.207 2.244 2.292 2.267 2.282 2.297 2.207 2.184 2.222 2.152 2.172 2.184 2.212 2.209 2.262 2.249 2.259 2.274 2.257 2.222 2.222 2.164 2.189 2.242 2.269 2.219 2.244 2.212 2.249 2.259 2.292 2.247 2.237 2.219 2.259 2.254 2.332 2.342 2.329 2.222 2.264 2.244 2.239 2.282 2.287 2.232 2.249 2.232 2.252 2.257 2.249 2.244 2.222 2.232 2.202 2.264 2.219 2.267 2.259 2.337 2.312 2.279 2.379 2.282 2.289 2.264 2.234 2.239 2.262 2.232 2.274 2.232 2.172 2.194 2.197 2.232 2.192 2.247 2.257 2.259 2.289 2.289 2.289 2.224 2.294 2.284 2.307 2.302 2.282 2.207 2.247 2.357 2.167 2.249 2.272 2.187 2.207 2.249 2.322 2.232 2.207 2.212 2.259 2.297 2.287 2.317 1.972 1.648 1.338 1.07 0.758 0.489 0.231 -0.044 2.329 2.262 2.234 -1.282 2.204 2.204 -2.014 -2.153 -1.786 -1.547 2.309 2.367 -1.06 -1.03 -1.042 -0.994 -1.176 -1.371 -1.591 -1.606 -1.505 -1.314 -1.142 -0.901 -0.691 -0.415 -0.584 -0.69 -0.929 -1.152 -1.296 -1.34 -1.526 -1.774 -1.912 -1.845 -1.911 -2.176 -2.208 -2.183 -1.859 -1.883 -1.926 -1.93 -1.965 -1.95 -1.882 -2.239 -2.253 -2.151 -1.987 -1.841 -1.969 -2.301 -2.221 -2.261 -2.233 -2.243 -2.208 -1.867 -1.838 -1.986 -2.283 -2.216 -2.246 -2.291 -2.206 -2.178 -2.196 -2.221 -2.276 -2.238 -2.168 -2.186 -2.211 -2.208 -2.161 -2.188 -2.246 -2.258 -2.183 -2.166 -2.188 -2.226 -2.191 -2.246 -2.211 -2.166 -2.226 -2.203 -2.211 -2.218 -2.178 -2.106 -2.153 -2.261 -2.233 -2.213 -2.221 -2.216 -2.218 -2.273 -2.206 -2.228 -2.178 -2.181 -2.181 -2.226 -2.196 -2.218 -2.198 -2.181 -2.216 -2.226 -2.186 -2.203 -2.233 -2.151 -2.281 -2.168 -2.148 -2.218 -2.141 -2.191 -2.153 -2.128 -2.206 -2.196 -2.223 -2.181 -2.198 -2.221 -2.248 -2.191 -2.223 -2.248 -2.203 -2.236 -2.191 -2.213 -2.171 -2.153 -2.216 -2.193 -2.141 -2.201 -2.258 -2.201 -2.173 -2.153 -2.161 -2.163 -2.146 -2.193 -2.143 -2.221 -2.196 -2.263 -2.251 -2.191 -2.191 -2.151 -2.236 -2.143 -2.146 -2.188 -2.173 -2.203 -2.151 -2.206 -2.196 -2.233 -2.173 -2.158 -2.153 -2.203 -2.201 -2.251 -2.278 -2.168 -2.148 -2.223 -2.218 -2.181 -2.136 -2.161 -2.218 -2.183 -2.156 -2.208 -2.153 -2.201 -2.198 -2.166 -2.166 -2.173 -2.156 -2.198
-2.168 -2.206 -2.261 -2.246 -2.303 -2.301 -2.253 -1.939 -1.927 -1.925 -1.925 -2.161 -2.181 -1.934 -1.817 -1.929 -2.246 -2.058 -2.198 -2.203 -1.952 -1.798 -1.621 -1.603 -1.894 -2.228 -2.208 -2.256 -2.183 -2.191 -1.914 -1.617 -1.498 -1.542 -1.572 -1.374 -1.122 -1.388 -1.513 -1.543 -1.772 -1.959 -1.775 -1.547 -1.287 -0.926 -0.639 -0.297 -0.101 -0.367 -0.706 -0.931 -1.102 -1.26 -1.313 -1.31 -1.259 -1.095 -0.924 -1.126 -1.279 -1.356 -1.525 -1.626 -1.63 -1.492 -1.324 -1.117 -1.237 -1.5 -1.749 -1.883 -1.899 -1.873 -1.813 -1.517 -1.216 -0.97 -0.704 -0.361 -0.209 -0.075 0.091 -0.142 -0.43 -0.718 -0.974 -1.348 -1.642 -1.889 -2.138 -1.885 -1.813 -1.588 -1.231 -0.936 -0.64 -0.368 -0.045 0.147 0.509 0.773 1.164 1.448 1.705 2.002 2.362 2.344 2.314 2.322 2.274 2.302 2.234 2.272 2.292 2.224 2.252 2.337 2.214 2.312 2.267 2.309 2.284 2.267 2.292 2.254 2.277 2.257 2.304 2.227 2.302 2.272 2.262 2.264 2.232 2.252 2.282 2.234 2.272 2.257 2.222 2.254 2.264 2.249 2.247 2.284 2.239 2.267 2.177 2.252 2.297 2.364 2.304 2.267 2.247 2.199 2.172 2.184 2.154 2.157 2.239 2.247 2.247 2.264 2.262 2.232 2.249 2.222 2.222 2.157 2.239 2.224 2.277 2.287 2.229 2.254 2.267 2.259 2.307 2.279 2.272 2.222 2.204 2.252 2.282 2.249 2.299 2.299 2.269 2.252 2.237 2.287 2.279 2.294 2.267 2.269 2.259 2.239 2.274 2.304 2.264 2.237 2.209 2.237 2.239 2.274 2.272 2.282 2.332 2.304 2.334 2.287 2.279 2.232 2.302 2.249 2.279 2.264 2.262 2.257 2.197 2.234 2.199 2.227 2.257 2.257 2.229 2.249 2.282 2.257 2.262 2.294 2.344 2.314 2.277 2.327 2.319 2.192 2.217 2.259 2.219 2.229 2.202 2.157 2.217 2.249 2.217 2.259 2.319 2.229 2.269 2.327 2.344 2.312 1.994 1.725 1.369 0.979 0.782 0.522 0.267 -0.076 -0.377 -0.68 2.272 2.269 2.309 2.324 -2.311 -2.178 -1.769 -1.601 -1.233 -0.944 -0.728 -0.74 -0.751 -0.707 -0.98 -1.161 -1.333 -1.285 2.284 2.339 2.352 -0.755 -0.515 -0.485 -0.693 -0.991 -1.156 -1.288 -1.495 -1.578 -1.482 -1.529 -1.574 -1.88 -2.193 -2.228 -2.248 -2.218 -1.911 -1.88 -2.208 -2.186 -2.286 -2.226 -2.118 -1.876 -2.203 -2.196 -1.903 -1.581 -1.923 -2.166 -2.148 -2.153 -2.218 -2.251 -2.253 -2.153 -1.869 -1.831 -1.939 -1.895 -2.253 -2.251 -2.203 -2.246 -2.208 -2.283 -2.276 -2.203 -2.153 -2.183 -2.206 -2.208 -2.161 -2.258 -2.281 -2.223 -2.233 -2.343 -2.178 -2.143 -2.158 -2.221 -2.166 -2.211 -2.256 -2.263 -2.188 -2.206 -2.206 -2.153 -2.168 -2.226 -2.208 -2.243 -2.248 -2.206 -2.248 -2.198 -2.223 -2.208 -2.133 -2.186 -2.176 -2.156 -2.138 -2.218 -2.216 -2.196 -2.266 -2.228 -2.191 -2.258 -2.156 -2.116 -2.233 -2.146 -2.231 -2.208 -2.278 -2.171 -2.156 -2.138 -2.238 -2.163 -2.146 -2.203 -2.211 -2.263 -2.176 -2.201 -2.218 -2.246 -2.233 -2.206 -2.266 -2.236 -2.221 -2.201 -2.166 -2.186 -2.226 -2.216 -2.198 -2.223 -2.211 -2.231 -2.186 -2.201 -2.198 -2.221 -2.111 -2.203 -2.236 -2.198 -2.243 -2.211 -2.173 -2.203 -2.246 -2.128 -2.243 -2.286 -2.176 -2.173 -2.191 -2.183 -2.176 -2.208 -2.198 -2.181 -2.186 -2.181 -2.176 -2.298 -2.261 -2.138 -2.118 -2.176 -2.173 -2.223 -2.178 -2.161 -2.161 -2.198 -2.181 -2.206 -2.161 -2.248 -2.213 -2.181 -2.171 -2.153 -2.128 -2.143
-2.221 -2.233 -2.188 -1.946 -2.266 -2.248 -1.927 -2.203 -2.228 -2.208 -1.934 -1.903 -2.181 -1.914 -1.918 -2.231 -2.223 -2.178 -2.273 -2.281 -1.874 -1.592 -1.324 -1.526 -1.756 -1.903 -1.894 -1.902 -1.899 -2.153 -1.886 -1.604 -1.296 -1.321 -1.259 -1.134 -1.258 -1.549 -1.757 -1.863 -1.982 -2.251 -1.905 -1.56 -1.339 -0.978 -0.661 -0.377 -0.263 -0.496 -0.847 -1.119 -1.333 -1.534 -1.674 -1.659 -1.522 -1.346 -1.119 -1.349 -1.524 -1.589 -1.804 -1.936 -1.916 -1.743 -1.569 -1.241 -1.118 -1.324 -1.483 -1.588 -1.599 -1.573 -1.574 -1.324 -1.12 -0.889 -0.595 -0.294 -0.018 0.209 0.206 -0.033 -0.402 -0.658 -0.97 -1.269 -1.575 -1.733 -1.842 -1.739 -1.591 -1.395 -1.135 -0.833 -0.583 -0.309 0.072 0.262 0.566 0.815 1.177 1.454 1.729 2.034 2.294 2.277 2.317 2.262 2.319 2.314 2.189 2.287 2.322 2.294 2.299 2.229 2.284 2.282 2.282 2.339 2.257 2.269 2.192 2.227 2.277 2.274 2.239 2.242 2.289 2.264 2.289 2.249 2.242 2.247 2.257 2.262 2.249 2.274 2.279 2.272 2.237 2.239 2.259 2.289 2.287 2.264 2.254 2.277 2.339 2.294 2.319 2.247 2.214 2.149 2.204 2.189 2.167 2.192 2.194 2.222 2.264 2.264 2.267 2.224 2.277 2.249 2.212 2.172 2.167 2.237 2.249 2.237 2.234 2.232 2.252 2.274 2.294 2.282 2.257 2.249 2.209 2.252 2.284 2.277 2.232 2.237 2.252 2.257 2.247 2.287 2.282 2.262 2.202 2.134 2.272 2.267 2.237 2.277 2.204 2.257 2.219 2.257 2.214 2.279 2.279 2.299 2.244 2.342 2.327 2.329 2.272 2.294 2.229 2.229 2.204 2.262 2.209 2.219 2.222 2.302 2.209 2.217 2.227 2.209 2.257 2.284 2.317 2.269 2.279 2.282 2.329 2.319 2.317 2.297 2.282 2.219 2.244 2.314 2.317 2.332 2.334 2.147 2.277 2.264 2.192 2.289 2.234 2.199 2.249 2.277 2.254 2.227 1.993 1.705 1.381 0.993 0.86 0.532 0.22 -0.063 -0.357 -0.672 2.307 2.302 2.232 2.219 -1.957 -1.928 -1.83 -1.595 -1.26 -0.961 -0.655 -0.385 -0.422 -0.515 -0.728 -0.918 -0.998 -0.96 2.429 2.272 -0.774 -0.526 -0.627 -0.674 -0.801 -1.069 -1.403 -1.492 -1.778 -1.979 -1.851 -1.502 -1.509 -1.776 -1.901 -1.924 -2.233 -1.823 -1.725 -1.93 -2.191 -2.156 -2.208 -2.256 -2.121 -2.126 -2.181 -1.964 -1.85 2.252 2.317 -2.216 -2.146 -2.148 -2.181 -2.176 -2.198 -2.151 -2.281 -2.005 -1.895 -1.933 -2.261 -2.338 -2.281 -2.193 -2.161 -2.233 -2.236 -2.211 -2.156 -2.181 -2.226 -2.143 -2.163 -2.233 -2.266 -2.263 -2.278 -2.288 -2.216 -2.151 -2.241 -2.263 -2.156 -2.143 -2.178 -2.243 -2.228 -2.238 -2.231 -2.143 -2.166 -2.173 -2.206 -2.283 -2.216 -2.256 -2.193 -2.158 -2.263 -2.263 -2.121 -2.163 -2.206 -2.203 -2.198 -2.193 -2.216 -2.221 -2.266 -2.163 -2.181 -2.246 -2.128 -2.263 -2.266 -2.141 -2.253 -2.246 -2.193 -2.171 -2.163 -2.208 -2.218 -2.171 -2.221 -2.261 -2.261 -2.163 -2.213 -2.171 -2.226 -2.238 -2.201 -2.238 -2.258 -2.253 -2.191 -2.171 -2.123 -2.198 -2.168 -2.176 -2.193 -2.186 -2.236 -2.308 -2.203 -2.183 -2.221 -2.118 -2.121 -2.161 -2.213 -2.236 -2.258 -2.238 -2.183 -2.231 -2.251 -2.176 -2.223 -2.276 -2.198 -2.218 -2.226 -2.148 -2.171 -2.226 -2.153 -2.158 -2.168 -2.131 -2.171 -2.336 -2.268 -2.158 -2.161 -2.156 -2.183 -2.136 -2.113 -2.156 -2.151 -2.226 -2.091 -2.183 -2.123 -2.263 -2.228 -2.166 -2.176 -2.193 -2.193 -2.183
-1.897 -2.203 -2.198 -2.326 -2.301 -2.188 -2.233 -2.191 -2.248 -2.271 -1.948 -1.748 -1.94 -1.986 -1.96 -1.958 -1.919 -2.201 -2.228 -2.246 -1.919 -1.634 -1.285 -1.37 -1.529 -1.625 -1.597 -1.656 -1.791 -1.853 -1.763 -1.58 -1.286 -1.338 -1.289 -1.109 -1.338 -1.645 -1.877 -2.171 -2.308 -2.211 -1.865 -1.566 -1.387 -0.989 -0.673 -0.361 -0.37 -0.658 -0.96 -1.275 -1.536 -1.804 -1.915 -1.942 -1.775 -1.564 -1.371 -1.555 -1.781 -1.898 -1.902 -2.236 -2.211 -1.906 -1.638 -1.32 -0.977 -1.115 -1.218 -1.296 -1.329 -1.302 -1.227 -1.148 -0.929 -0.648 -0.492 -0.197 0.03 0.366 0.275 -0.021 -0.331 -0.567 -0.85 -1.194 -1.371 -1.514 -1.573 -1.517 -1.444 -1.131 -0.955 -0.726 -0.462 -0.245 0.072 0.38 0.589 0.9 1.242 1.536 1.861 2.107 2.309 2.314 2.302 2.267 2.259 2.277 2.194 2.277 2.287 2.297 2.344 2.269 2.279 2.304 2.279 2.264 2.294 2.277 2.247 2.282 2.184 2.229 2.252 2.249 2.317 2.319 2.279 2.297 2.334 2.247 2.269 2.292 2.247 2.254 2.217 2.234 2.262 2.249 2.229 2.274 2.264 2.239 2.257 2.239 2.232 2.309 2.282 2.252 2.202 2.212 2.204 2.134 2.137 2.207 2.247 2.199 2.177 2.129 2.222 2.262 2.287 2.269 2.239 2.194 2.174 2.179 2.237 2.232 2.214 2.239 2.234 2.272 2.272 2.257 2.244 2.237 2.227 2.247 2.232 2.279 2.252 2.264 2.292 2.262 2.289 2.267 2.292 2.277 2.224 2.209 2.229 2.224 2.199 2.217 2.244 2.207 2.222 2.229 2.192 2.242 2.264 2.299 2.249 2.184 2.309 2.289 2.332 2.267 2.257 2.252 2.212 2.209 2.234 2.227 2.217 2.202 2.227 2.237 2.219 2.222 2.272 2.304 2.274 2.274 2.344 2.332 2.259 2.234 2.259 2.339 2.277 2.234 2.282 2.369 2.307 2.264 2.297 2.239 2.244 2.204 2.234 2.329 2.322 2.327 2.247 2.344 2.264 2.194 1.99 1.716 1.468 1.133 0.871 0.563 0.246 -0.056 -0.253 -0.652 2.339 2.349 -1.387 -1.566 -1.632 -1.625 -1.521 -1.372 -1.079 -0.895 -0.556 -0.273 -0.512 -0.713 -0.902 -0.966 -1.025 -1.043 -0.941 -0.857 -0.757 -0.683 -0.833 -0.896 -0.851 -1.143 -1.538 -1.762 -1.946 -2.261 -1.89 -1.772 -1.555 -1.584 -1.608 -1.779 -1.888 -1.679 2.279 2.244 -2.288 -2.161 -2.226 -2.218 -1.895 -1.911 -1.874 -1.842 -1.606 2.262 2.329 -2.201 -2.123 -2.173 -2.226 -2.186 -2.153 -2.231 -2.228 -2.266 -2.193 -2.173 -2.206 -2.183 -2.211 -2.246 -2.161 -2.211 -2.253 -2.293 -2.213 -2.226 -2.153 -2.156 -2.223 -2.168 -2.218 -2.193 -2.236 -2.278 -2.183 -2.196 -2.208 -2.221 -2.216 -2.213 -2.226 -2.153 -2.186 -2.201 -2.216 -2.163 -2.158 -2.233 -2.198 -2.211 -2.188 -2.243 -2.248 -2.193 -2.171 -2.233 -2.176 -2.208 -2.246 -2.266 -2.243 -2.231 -2.271 -2.253 -2.193 -2.248 -2.236 -2.191 -2.141 -2.236 -2.151 -2.143 -2.231 -2.221 -2.216 -2.186 -2.146 -2.231 -2.261 -2.143 -2.186 -2.326 -2.228 -2.203 -2.176 -2.138 -2.213 -2.176 -2.161 -2.258 -2.283 -2.273 -2.231 -2.233 -2.171 -2.163 -2.228 -2.211 -2.133 -2.161 -2.226 -2.228 -2.153 -2.136 -2.208 -2.146 -2.136 -2.163 -2.236 -2.211 -2.263 -2.268 -2.183 -2.211 -2.248 -2.148 -2.171 -2.213 -2.213 -2.223 -2.171 -2.181 -2.208 -2.253 -2.178 -2.163 -2.236 -2.116 -2.211 -2.276 -2.131 -2.121 -2.193 -2.168 -2.208 -2.101 -2.108 -2.148 -2.231 -2.203 -2.128 -2.183 -2.206 -2.151 -2.188 -2.188 -2.166 -2.201 -2.216 -2.146
-2.263 -2.191 -2.166 -2.218 -2.236 -2.173 -2.241 -2.131 -2.233 -2.253 -1.958 -1.825 -1.92 -2.211 -2.243 -2.263 -1.939 -1.898 -2.266 -2.256 -1.942 -1.58 -1.593 -1.546 -1.31 -1.289 -1.289 -1.364 -1.546 -1.542 -1.492 -1.401 -1.597 -1.6 -1.583 -1.391 -1.335 -1.548 -1.768 -1.909 -2.233 -2.213 -1.871 -1.594 -1.34 -0.98 -0.658 -0.386 -0.365 -0.66 -1.024 -1.265 -1.604 -1.903 -2.238 -2.258 -1.916 -1.781 -1.608 -1.628 -1.919 -2.168 -2.223 -2.228 -2.243 -1.961 -1.629 -1.324 -1.28 -1.143 -0.937 -0.979 -1.04 -1.028 -0.978 -0.886 -0.727 -0.49 -0.289 -0.066 0.193 0.448 0.332 0.106 -0.207 -0.433 -0.705 -0.964 -1.167 -1.285 -1.271 -1.259 -1.175 -0.956 -0.708 -0.543 -0.282 -0.118 0.189 0.507 0.714 1.032 1.291 1.615 1.933 2.218 2.359 2.314 2.299 2.264 2.254 2.297 2.362 2.442 2.337 2.324 2.332 2.302 2.282 2.292 2.379 2.272 2.252 2.279 2.247 2.222 2.244 2.234 2.264 2.219 2.264 2.227 2.314 2.272 2.302 2.257 2.244 2.262 2.254 2.257 2.274 2.232 2.227 2.242 2.259 2.252 2.287 2.252 2.259 2.222 2.249 2.259 2.247 2.219 2.202 2.224 2.207 2.167 2.164 2.199 2.167 2.199 2.242 2.287 2.297 2.239 2.252 2.272 2.237 2.257 2.187 2.204 2.192 2.219 2.229 2.242 2.269 2.239 2.232 2.232 2.257 2.242 2.229 2.217 2.192 2.282 2.264 2.254 2.247 2.267 2.247 2.244 2.247 2.259 2.289 2.212 2.199 2.252 2.227 2.294 2.269 2.234 2.217 2.272 2.247 2.252 2.279 2.247 2.319 2.287 2.302 2.339 2.257 2.224 2.242 2.247 2.242 2.217 2.192 2.197 2.187 2.247 2.242 2.189 2.272 2.257 2.239 2.204 2.222 2.237 2.274 2.237 2.309 2.299 2.114 2.247 2.307 2.319 2.332 2.317 2.309 2.277 2.222 2.302 2.279 2.257 2.224 2.277 2.209 2.259 2.204 2.267 2.277 2.279 2.061 1.797 1.492 1.203 0.926 0.655 0.327 0.032 -0.179 -0.461 -0.747 -0.989 -1.119 -1.284 -1.352 -1.363 2.247 -1.136 -0.881 -0.71 -0.45 -0.473 -0.635 -0.841 -1.169 -1.281 -1.281 -1.361 -1.27 -1.11 -0.942 -0.904 -1.119 -1.284 -1.198 -1.242 -1.675 -1.89 -2.183 -2.163 -2.161 -1.994 -1.618 -1.342 -1.387 -1.547 -1.771 -1.878 2.277 2.267 -2.291 -1.869 -1.89 -1.922 -1.94 -1.753 -1.522 -1.793 -1.829 -1.875 -1.987 -2.198 -2.213 -2.198 -2.203 -2.198 -2.133 -2.198 -2.278 -2.183 -2.226 -2.201 -2.226 -2.236 -2.298 -2.203 -2.163 -2.146 -2.201 -2.223 -2.221 -2.256 -2.148 -2.131 -2.243 -2.171 -2.196 -2.231 -2.208 -2.276 -2.188 -2.193 -2.198 -2.226 -2.178 -2.176 -2.181 -2.193 -2.186 -2.156 -2.246 -2.138 -2.198 -2.246 -2.238 -2.186 -2.181 -2.341 -2.241 -2.191 -2.208 -2.186 -2.221 -2.211 -2.181 -2.228 -2.188 -2.206 -2.266 -2.221 -2.191 -2.206 -2.173 -2.188 -2.191 -2.181 -2.131 -2.233 -2.226 -2.183 -2.188 -2.141 -2.183 -2.278 -2.241 -2.206 -2.178 -2.256 -2.171 -2.198 -2.143 -2.108 -2.183 -2.176 -2.151 -2.268 -2.228 -2.246 -2.261 -2.213 -2.193 -2.103 -2.246 -2.243 -2.163 -2.201 -2.281 -2.223 -2.186 -2.191 -2.236 -2.113 -2.143 -2.173 -2.228 -2.153 -2.218 -2.241 -2.158 -2.171 -2.223 -2.118 -2.138 -2.246 -2.168 -2.238 -2.173 -2.196 -2.228 -2.211 -2.218 -2.148 -2.191 -2.108 -2.246 -2.273 -2.131 -2.121 -2.223 -2.116 -2.168 -2.143 -2.171 -2.183 -2.178 -2.158 -2.233 -2.188 -2.201 -2.246 -2.213 -2.163 -2.123 -2.208 -2.171 -2.153
-2.216 -2.198 -2.168 -2.208 -2.176 -2.191 -2.248 -2.143 -2.191 -2.241 -2.233 -1.921 -2.258 -2.206 -2.268 -2.288 -1.854 -1.79 -1.994 -1.916 -1.767 -1.814 -1.908 -1.815 -1.502 -1.332 -1.227 -1.305 -1.298 -1.271 -1.377 -1.569 -1.821 -1.925 -1.795 -1.664 -1.578 -1.369 -1.572 -1.767 -1.891 -1.883 -1.767 -1.549 -1.376 -0.963 -0.627 -0.352 -0.386 -0.698 -0.993 -1.285 -1.579 -1.969 -2.213 -2.263 -2.231 -1.856 -1.9 -1.893 -1.913 -2.243 -2.238 -2.246 -2.233 -1.974 -1.667 -1.635 -1.578 -1.367 -1.085 -0.865 -0.723 -0.749 -0.698 -0.575 -0.495 -0.31 -0.103 0.09 0.383 0.581 0.448 0.232 -0.033 -0.284 -0.489 -0.732 -0.897 -0.971 -1.021 -1 -0.915 -0.711 -0.507 -0.308 -0.095 0.155 0.38 0.575 0.918 1.179 1.435 1.734 1.975 2.289 2.299 2.249 2.257 2.329 2.374 2.294 2.324 2.377 2.344 2.294 2.252 2.259 2.329 2.302 2.334 2.367 2.299 2.252 2.169 2.312 2.259 2.252 2.239 2.244 2.249 2.264 2.289 2.237 2.249 2.249 2.252 2.282 2.294 2.267 2.242 2.209 2.244 2.234 2.244 2.244 2.249 2.267 2.234 2.269 2.269 2.269 2.237 2.272 2.207 2.207 2.242 2.247 2.197 2.227 2.189 2.202 2.222 2.347 2.252 2.247 2.259 2.249 2.232 2.207 2.204 2.194 2.212 2.192 2.197 2.247 2.294 2.217 2.219 2.262 2.247 2.252 2.232 2.237 2.234 2.267 2.302 2.299 2.249 2.259 2.229 2.244 2.297 2.267 2.172 2.262 2.174 2.189 2.219 2.219 2.257 2.237 2.282 2.234 2.244 2.239 2.252 2.237 2.362 2.304 2.297 2.252 2.279 2.307 2.282 2.254 2.219 2.277 2.227 2.189 2.252 2.199 2.177 2.224 2.247 2.217 2.199 2.294 2.224 2.257 2.239 2.264 2.277 2.284 2.267 2.269 2.234 2.334 2.254 2.244 2.319 2.274 2.229 2.299 2.287 2.217 2.204 2.207 2.177 2.314 2.222 2.252 2.264 2.302 2.163 1.835 1.57 1.372 0.97 0.762 0.484 0.151 -0.042 -0.247 2.219 -0.731 -0.859 -0.92 -1.035 -1.05 2.272 -0.875 -0.705 -0.521 -0.315 -0.581 -0.841 -1.146 -1.488 -1.507 -1.645 -1.651 -1.569 -1.34 -1.13 -1.134 -1.401 -1.55 -1.593 -1.605 -1.64 2.257 -9999 -2.148 -2.166 -1.941 -1.583 -1.332 -1.272 -1.631 -1.985 -9999 -9999 2.264 2.281 -1.752 -1.831 -2.233 -2.196 -1.85 -1.599 -1.972 -2.176 -2.196 -2.318 -2.163 -2.136 -2.261 -1.961 -2.218 -2.106 -2.158 -2.273 -2.186 -2.223 -2.178 -2.221 -2.298 -2.321 -2.211 -2.223 -2.236 -2.241 -2.216 -2.251 -2.221 -2.221 -2.216 -2.291 -2.208 -2.248 -2.203 -2.211 -2.248 -2.186 -2.198 -2.218 -2.211 -2.161 -2.216 -2.163 -2.178 -2.201 -2.238 -2.293 -2.113 -2.213 -2.216 -2.243 -2.171 -2.273 -2.283 -2.221 -2.216 -2.268 -2.226 -2.153 -2.136 -2.203 -2.208 -2.188 -2.143 -2.173 -2.211 -2.176 -2.193 -2.183 -2.218 -2.238 -2.208 -2.113 -2.196 -2.246 -2.236 -2.201 -2.083 -2.171 -2.181 -2.268 -2.181 -2.231 -2.346 -2.251 -2.241 -2.108 -2.123 -2.188 -2.151 -2.131 -2.251 -2.251 -2.148 -2.201 -2.193 -2.171 -2.153 -2.216 -2.226 -2.181 -2.243 -2.266 -2.231 -2.231 -2.223 -2.198 -2.188 -2.158 -2.241 -2.246 -2.186 -2.256 -2.193 -2.156 -2.188 -2.203 -2.146 -2.196 -2.218 -2.213 -2.263 -2.178 -2.186 -2.181 -2.193 -2.263 -2.178 -2.193 -2.116 -2.243 -2.166 -2.133 -2.136 -2.198 -2.161 -2.168 -2.138 -2.181 -2.221 -2.191 -2.181 -2.188 -2.141 -2.213 -2.171 -2.258 -2.221 -2.168 -2.228 -2.173 -2.166
-2.141 -2.171 -2.193 -2.186 -2.201 -2.208 -2.178 -2.186 -2.248 -2.133 -2.186 -1.937 -1.932 -2.188 -2.341 -2.208 -2.226 -1.884 -1.64 -1.777 -1.936 -1.888 -2.281 -1.938 -1.754 -1.52 -1.579 -1.63 -1.591 -1.459 -1.54 -1.807 -1.98 -2.258 -1.892 -1.934 -1.931 -1.508 -1.313 -1.564 -1.645 -1.572 -1.492 -1.364 -1.211 -0.831 -0.542 -0.309 -0.355 -0.667 -0.964 -1.253 -1.535 -1.797 -1.919 -2.248 -1.9 -1.894 -2.236 -2.238 -2.231 -1.874 -2.243 -2.243 -2.221 -1.96 -1.963 -1.904 -1.82 -1.576 -1.272 -0.978 -0.712 -0.419 -0.412 -0.333 -0.187 -0.04 0.128 0.312 0.613 0.79 0.599 0.343 0.164 -0.049 -0.263 -0.514 -0.618 -0.677 -0.669 -0.645 -0.623 -0.477 -0.284 -0.074 0.113 0.319 0.544 0.739 1.118 1.365 1.525 1.9 2.117 2.359 2.337 2.294 2.302 2.274 2.164 2.297 2.329 2.344 2.269 2.339 2.309 2.264 2.332 2.334 2.267 2.304 2.249 2.249 2.217 2.299 2.269 2.224 2.267 2.234 2.249 2.257 2.234 2.279 2.289 2.264 2.239 2.219 2.247 2.247 2.284 2.242 2.234 2.229 2.274 2.264 2.254 2.224 2.232 2.267 2.264 2.274 2.214 2.217 2.237 2.224 2.222 2.252 2.222 2.194 2.187 2.217 2.219 2.239 2.242 2.249 2.234 2.267 2.262 2.189 2.274 2.207 2.187 2.219 2.227 2.244 2.259 2.279 2.249 2.229 2.294 2.194 2.214 2.284 2.309 2.282 2.262 2.259 2.274 2.267 2.312 2.264 2.289 2.249 2.239 2.242 2.252 2.212 2.182 2.224 2.197 2.222 2.239 2.217 2.242 2.257 2.257 2.279 2.344 2.289 2.299 2.309 2.214 2.344 2.284 2.229 2.239 2.307 2.204 2.219 2.269 2.154 2.207 2.259 2.232 2.199 2.194 2.242 2.209 2.247 2.304 2.319 2.319 2.254 2.342 2.329 2.267 2.287 2.272 2.312 2.249 2.257 2.314 2.207 2.222 2.224 2.214 2.212 2.227 2.249 2.369 2.247 2.302 2.289 2.199 1.963 2.342 2.394 1.215 0.872 0.663 0.327 0.11 2.287 2.259 2.304 -0.584 -0.667 -0.738 -0.748 -0.69 -0.566 -0.452 -0.297 -0.439 -0.663 -0.989 -1.339 -1.635 -1.792 -1.995 -2.005 -1.78 -1.384 -1.187 -1.209 -1.513 -1.817 -1.961 -1.982 2.277 2.297 2.239 -1.836 -1.859 -1.858 2.412 2.294 -1.25 2.274 -1.95 -9999 -9999 2.234 -1.834 -1.508 -1.826 -2.246 -2.148 -1.798 -1.598 -1.969 -2.241 -2.238 -2.246 -2.188 -2.141 -2.213 -2.178 -1.876 -1.8 -2.156 -2.218 -2.083 -2.143 -2.176 -2.216 -2.206 -2.193 -2.183 -2.271 -2.276 -2.218 -2.161 -2.241 -2.266 -2.211 -2.246 -2.218 -2.191 -2.178 -2.266 -2.286 -2.183 -2.176 -2.231 -2.246 -2.223 -2.211 -2.258 -2.211 -2.211 -2.136 -2.208 -2.203 -2.153 -2.238 -2.168 -2.223 -2.178 -2.276 -2.271 -2.198 -2.173 -2.241 -2.236 -2.098 -2.121 -2.206 -2.183 -2.213 -2.248 -2.168 -2.173 -2.176 -2.211 -2.191 -2.198 -2.218 -2.168 -2.121 -2.158 -2.238 -2.213 -2.201 -2.086 -2.148 -2.213 -2.211 -2.176 -2.256 -2.301 -2.218 -2.226 -2.178 -2.161 -2.211 -2.203 -2.186 -2.226 -2.238 -2.196 -2.216 -2.213 -2.098 -2.193 -2.213 -2.178 -2.161 -2.238 -2.238 -2.193 -2.243 -2.193 -2.171 -2.161 -2.148 -2.221 -2.196 -2.213 -2.183 -2.153 -2.168 -2.191 -2.156 -2.153 -2.243 -2.236 -2.163 -2.143 -2.236 -2.208 -2.191 -2.188 -2.281 -2.248 -2.146 -2.223 -2.223 -2.168 -2.178 -2.156 -2.191 -2.158 -2.123 -2.181 -2.143 -2.193 -2.213 -2.193 -2.216 -2.261 -2.216 -2.186 -2.236 -2.158 -2.196 -2.148 -2.166 -2.168
-2.218 -2.191 -2.223 -2.251 -2.213 -2.178 -2.196 -2.201 -2.171 -2.156 -2.196 -1.927 -1.915 -2.148 -2.291 -2.241 -2.256 -1.947 -1.893 -1.907 -2.221 -2.133 -2.233 -2.263 -1.891 -1.62 -1.772 -1.938 -1.941 -1.739 -1.644 -1.947 -2.261 -2.228 -2.263 -2.238 -1.957 -1.716 -1.478 -1.218 -1.319 -1.305 -1.256 -1.137 -0.956 -0.708 -0.405 -0.189 -0.263 -0.605 -0.876 -1.133 -1.366 -1.547 -1.788 -1.937 -1.946 -2.216 -2.223 -2.246 -2.191 -2.196 -1.972 -1.914 -1.882 -1.924 -2.266 -2.248 -1.951 -1.612 -1.325 -1.019 -0.739 -0.395 -0.136 -0.021 0.074 0.213 0.331 0.535 0.781 0.953 0.79 0.48 0.295 0.188 0.011 -0.233 -0.269 -0.381 -0.4 -0.353 -0.325 -0.211 -0.01 0.169 0.322 0.56 0.7 0.953 1.276 1.472 1.733 2.007 2.291 2.322 2.314 2.244 2.269 2.252 2.239 2.237 2.347 2.334 2.324 2.307 2.272 2.262 2.312 2.322 2.277 2.289 2.242 2.257 2.254 2.239 2.302 2.269 2.339 2.264 2.287 2.317 2.304 2.269 2.297 2.274 2.219 2.257 2.234 2.252 2.259 2.277 2.279 2.232 2.262 2.284 2.282 2.279 2.237 2.247 2.214 2.209 2.177 2.202 2.224 2.237 2.219 2.232 2.172 2.187 2.187 2.222 2.229 2.212 2.229 2.224 2.232 2.274 2.257 2.262 2.277 2.249 2.167 2.234 2.182 2.232 2.214 2.179 2.259 2.252 2.267 2.317 2.214 2.234 2.337 2.242 2.224 2.259 2.207 2.242 2.264 2.264 2.257 2.279 2.297 2.222 2.249 2.262 2.207 2.224 2.197 2.164 2.214 2.192 2.244 2.314 2.302 2.302 2.287 2.357 2.284 2.284 2.257 2.252 2.287 2.234 2.342 2.307 2.244 2.202 2.242 2.234 2.309 2.287 2.209 2.207 2.229 2.264 2.242 2.252 2.252 2.279 2.277 2.309 2.234 2.307 2.317 2.282 2.277 2.329 2.262 2.279 2.292 2.312 2.174 2.267 2.219 2.249 2.339 2.352 2.304 2.214 2.077 2.204 2.302 2.082 2.304 2.294 1.34 1.033 0.793 0.543 0.365 0.151 -0.058 -0.234 -0.316 -0.373 -0.45 -0.403 -0.361 -0.249 -0.17 -0.125 -0.452 -0.723 -1.012 -1.36 -1.704 -1.906 -2.266 -9999 -1.88 -1.543 -1.239 -1.254 -1.62 -1.961 -2.276 -2.293 2.229 2.247 2.274 -1.591 -1.579 -1.588 2.307 2.369 -1.29 2.364 2.297 -1.828 -2.166 -2.258 -1.887 -1.543 -1.839 -2.233 -2.236 -1.849 -1.874 -1.93 -2.258 -2.266 -2.218 -2.166 -2.238 -2.323 -2.268 -1.954 -1.737 -1.84 -9999 2.274 -1.855 -2.208 -2.203 -2.201 -2.171 -2.193 -2.226 -2.238 -2.191 -2.196 -2.256 -2.256 -2.118 -2.263 -2.298 -2.266 -2.193 -2.273 -2.266 -2.216 -2.198 -2.176 -2.191 -2.128 -2.221 -2.253 -2.206 -2.238 -2.188 -2.158 -2.151 -2.151 -2.196 -2.183 -2.211 -2.153 -2.233 -2.243 -1.847 -2.178 -2.308 -2.253 -2.136 -2.123 -2.218 -2.258 -2.226 -2.248 -2.208 -2.203 -2.176 -2.196 -2.176 -2.198 -2.221 -2.191 -2.193 -2.203 -2.246 -2.193 -2.203 -2.101 -2.058 -2.208 -2.206 -2.198 -2.251 -2.296 -2.243 -2.176 -2.101 -2.153 -2.193 -2.153 -2.216 -2.258 -2.196 -2.183 -2.248 -2.191 -2.111 -2.173 -2.201 -2.173 -2.211 -2.238 -2.251 -2.191 -2.288 -2.301 -2.196 -2.131 -2.193 -2.226 -2.143 -2.233 -2.246 -2.166 -2.206 -2.236 -2.141 -2.201 -2.203 -2.166 -2.123 -2.156 -2.238 -2.221 -2.231 -2.186 -2.283 -2.196 -2.143 -2.208 -2.251 -2.196 -2.163 -2.188 -2.193 -2.168 -2.158 -2.163 -2.248 -2.203 -2.201 -2.203 -2.213 -2.216 -2.216 -2.211 -2.213 -2.171 -2.198 -2.146 -2.113 -2.238
-2.148 -2.196 -2.238 -2.223 -2.191 -2.211 -2.248 -2.158 -2.216 -2.173 -2.233 -2.236 -1.875 -2.181 -2.203 -2.221 -2.203 -2.238 -1.99 -2.213 -2.188 -2.186 -2.251 -2.236 -1.928 -1.641 -1.875 -2.191 -2.251 -1.888 -1.603 -1.98 -2.221 -2.243 -2.258 -2.256 -2.278 -1.905 -1.567 -1.275 -1.02 -0.962 -0.947 -0.832 -0.711 -0.535 -0.263 -0.029 -0.165 -0.511 -0.668 -0.917 -1.107 -1.355 -1.553 -1.612 -1.783 -1.933 -2.198 -2.246 -2.226 -2.228 -1.974 -1.96 -2.238 -2.248 -2.246 -2.253 -1.882 -1.617 -1.313 -1.038 -0.763 -0.443 -0.141 0.139 0.217 0.339 0.478 0.5 0.593 0.686 0.737 0.704 0.502 0.392 0.287 0.07 0.037 -0.051 -0.119 -0.088 0.011 0.034 0.177 0.395 0.518 0.74 0.946 1.118 1.392 1.67 1.929 2.119 2.332 2.304 2.352 2.259 2.337 2.249 2.262 2.289 2.357 2.279 2.339 2.337 2.287 2.329 2.317 2.292 2.272 2.264 2.277 2.262 2.259 2.302 2.272 2.314 2.312 2.299 2.319 2.284 2.299 2.287 2.282 2.262 2.279 2.252 2.239 2.277 2.292 2.224 2.262 2.264 2.292 2.269 2.254 2.312 2.252 2.257 2.232 2.242 2.209 2.217 2.212 2.214 2.214 2.234 2.227 2.224 2.204 2.217 2.217 2.267 2.257 2.207 2.232 2.262 2.194 2.229 2.204 2.207 2.202 2.219 2.262 2.202 2.274 2.184 2.234 2.257 2.249 2.219 2.254 2.217 2.277 2.294 2.247 2.254 2.217 2.184 2.269 2.287 2.242 2.234 2.272 2.239 2.222 2.199 2.174 2.219 2.172 2.194 2.237 2.187 2.237 2.279 2.297 2.312 2.257 2.267 2.294 2.277 2.294 2.272 2.242 2.287 2.307 2.257 2.204 2.292 2.247 2.252 2.252 2.319 2.259 2.239 2.242 2.284 2.247 2.352 2.264 2.247 2.279 2.337 2.314 2.304 2.374 2.279 2.267 2.354 2.242 2.342 2.259 2.214 2.227 2.259 2.207 2.302 2.304 2.244 2.232 2.177 2.174 2.237 2.267 2.23 2.294 1.725 1.433 1.206 0.932 0.701 0.546 2.249 2.269 2.279 -0.049 -0.111 -0.094 -0.128 -0.096 -0.023 0.08 2.259 2.279 -0.695 -0.998 2.354 -1.711 -1.943 -2.278 2.134 -1.811 2.282 2.329 -1.285 -1.652 -1.979 -2.286 -2.188 -1.958 -1.631 -1.32 -1.348 -1.304 -1.213 -1.101 -0.945 -1.175 2.322 -1.64 -1.975 -2.301 -2.163 -1.825 -1.728 -1.856 -1.862 -2.281 -2.191 -2.218 -1.945 -2.008 -2.029 -1.941 -2.198 -2.211 -2.193 -9999 -9999 -1.938 -1.737 2.287 2.249 -1.926 -2.251 -2.243 -1.949 -2.206 -2.193 -2.268 -2.283 -2.291 -2.268 -2.266 -2.231 -2.103 -2.336 -2.316 -2.201 -2.246 -2.271 -2.266 -2.243 -2.188 -2.181 -2.188 -2.161 -2.231 -2.196 -2.228 -2.228 -2.188 -2.201 -2.196 -2.231 -2.213 -2.258 -2.176 -2.161 -2.276 -1.925 -1.833 -2.191 -2.176 -2.138 -2.151 -2.198 -2.203 -2.233 -2.183 -2.203 -2.243 -2.248 -2.163 -2.193 -2.143 -2.213 -2.191 -2.156 -2.253 -2.243 -2.168 -2.198 -2.138 -2.103 -2.193 -2.276 -2.233 -2.186 -2.248 -2.228 -2.168 -2.163 -2.151 -2.226 -2.196 -2.126 -2.186 -2.246 -2.181 -2.148 -2.191 -2.143 -2.131 -2.203 -2.161 -2.183 -2.238 -2.226 -2.221 -2.176 -2.276 -2.183 -2.193 -2.201 -2.183 -2.193 -2.148 -2.223 -2.218 -2.128 -2.138 -2.258 -2.191 -2.196 -2.168 -2.198 -2.181 -2.176 -2.228 -2.153 -2.201 -2.166 -2.238 -2.218 -2.188 -2.256 -2.188 -2.186 -2.221 -2.201 -2.193 -2.196 -2.163 -2.231 -2.173 -2.231 -2.181 -2.198 -2.171 -2.168 -2.208 -2.246 -2.171 -2.186 -2.208 -2.131 -2.201 -2.181
-2.116 -2.231 -2.198 -2.186 -2.228 -1.966 -1.94 -1.922 -2.241 -2.248 -2.231 -2.223 -2.091 -2.208 -2.256 -2.243 -2.206 -2.238 -1.979 -2.188 -2.223 -2.293 -2.026 -1.922 -1.781 -1.606 -1.906 -2.218 -2.256 -1.915 -1.618 -1.966 -2.228 -2.156 -2.193 -2.233 -1.965 -1.769 -1.479 -1.172 -0.975 -0.655 -0.656 -0.591 -0.447 -0.316 -0.194 -0.014 -0.024 -0.356 -0.471 -0.683 -0.889 -1.097 -1.242 -1.353 -1.628 -1.922 -2.211 -2.223 -2.178 -2.218 -1.977 -1.941 -2.231 -2.181 -2.253 -1.933 -1.781 -1.499 -1.248 -1.034 -0.728 -0.438 -0.155 -0.157 -0.082 0.059 0.216 0.158 0.229 0.331 0.49 0.607 0.787 0.663 0.504 0.314 0.228 0.215 0.182 0.228 0.291 0.351 0.483 0.638 0.798 0.948 1.187 1.405 1.618 1.868 2.074 2.284 2.299 2.292 2.274 2.302 2.312 2.299 2.339 2.262 2.294 2.287 2.279 2.277 2.309 2.339 2.274 2.322 2.249 2.304 2.239 2.277 2.217 2.229 2.189 2.289 2.282 2.317 2.304 2.277 2.262 2.272 2.282 2.182 2.319 2.259 2.244 2.279 2.294 2.249 2.259 2.269 2.347 2.254 2.284 2.272 2.209 2.247 2.204 2.252 2.224 2.192 2.199 2.197 2.247 2.277 2.262 2.252 2.189 2.177 2.224 2.249 2.209 2.222 2.227 2.219 2.224 2.234 2.219 2.204 2.247 2.229 2.239 2.217 2.292 2.242 2.254 2.287 2.282 2.314 2.297 2.282 2.252 2.269 2.297 2.239 2.194 2.242 2.249 2.319 2.287 2.304 2.262 2.244 2.284 2.222 2.174 2.194 2.189 2.207 2.224 2.247 2.237 2.289 2.319 2.287 2.254 2.272 2.292 2.327 2.252 2.212 2.254 2.249 2.202 2.257 2.229 2.202 2.202 2.254 2.277 2.327 2.202 2.217 2.287 2.174 2.217 2.302 2.277 2.302 2.247 2.272 2.329 2.319 2.302 2.229 2.304 2.347 2.287 2.277 2.164 2.237 2.299 2.282 2.247 2.274 2.342 2.292 2.299 2.202 2.217 2.237 2.159 2.259 2.089 1.786 1.622 1.449 1.172 0.952 0.759 2.249 2.297 2.294 0.226 0.176 0.162 0.121 2.309 0.208 2.337 2.234 2.269 -0.711 -0.973 2.329 2.234 -1.868 -1.98 -1.809 -1.511 -1.429 2.242 2.267 -1.588 -1.945 -2.148 -1.872 -1.854 -1.545 -1.218 -1.035 -0.949 -0.991 -0.994 -1.059 -1.094 -1.365 -1.608 -1.916 -1.989 -2.211 -1.96 -1.857 -2.248 -2.286 -2.296 -2.286 -2.291 -1.966 -1.993 -1.995 -1.884 -2.183 -2.168 -2.163 -9999 -9999 -2.176 -1.86 -1.732 -1.88 -1.944 -2.003 -2.256 -2.206 -2.173 -2.156 -2.168 -2.181 -2.243 -2.226 -2.201 -2.218 -2.251 -2.341 -2.213 -2.248 -2.386 -2.293 -2.206 -2.183 -2.226 -2.243 -2.183 -2.133 -2.131 -2.243 -2.183 -2.188 -2.171 -2.233 -2.243 -2.148 -2.183 -2.248 -2.251 -2.216 -2.256 -2.266 -2.093 -2.153 -2.203 -2.201 -2.193 -2.173 -2.263 -2.246 -2.188 -2.243 -2.248 -2.196 -2.176 -2.198 -2.178 -2.208 -2.191 -2.188 -2.221 -2.226 -2.243 -2.213 -2.258 -2.141 -2.226 -2.258 -2.291 -2.268 -2.233 -2.236 -2.208 -2.161 -2.133 -2.236 -2.198 -2.113 -2.138 -2.248 -2.216 -2.208 -2.203 -2.178 -2.146 -2.153 -2.198 -2.156 -2.266 -2.236 -2.183 -2.218 -2.278 -2.223 -2.221 -2.186 -2.151 -2.208 -2.206 -2.271 -2.178 -2.181 -2.176 -2.233 -2.183 -2.166 -2.191 -2.233 -2.263 -2.141 -2.158 -2.163 -2.171 -2.198 -2.201 -2.153 -2.228 -2.271 -2.216 -2.258 -2.271 -2.248 -2.196 -2.133 -2.156 -2.208 -2.268 -2.273 -2.158 -2.266 -2.256 -2.201 -2.231 -2.273 -2.211 -2.143 -2.153 -2.128 -2.236 -2.193
-2.111 -2.196 -2.181 -2.223 -1.891 -1.759 -1.634 -1.943 -2.231 -2.186 -2.216 -2.216 -2.203 -2.216 -2.246 -2.198 -2.151 -2.238 -1.969 -2.216 -2.233 -1.943 -1.884 -1.632 -1.56 -1.565 -1.81 -1.93 -2.313 -1.936 -1.903 -1.969 -1.906 -2.163 -2.266 -1.928 -1.788 -1.537 -1.3 -1.118 -0.872 -0.637 -0.69 -0.706 -0.61 -0.595 -0.444 -0.222 -0.023 -0.067 -0.263 -0.509 -0.693 -0.861 -0.975 -1.296 -1.638 -1.884 -2.203 -2.218 -2.236 -1.907 -1.807 -1.785 -1.892 -1.908 -1.91 -1.775 -1.573 -1.339 -1.134 -0.891 -0.629 -0.359 -0.411 -0.452 -0.356 -0.225 -0.164 -0.103 -0.02 0.074 0.213 0.396 0.596 0.784 0.724 0.625 0.528 0.475 0.494 0.538 0.536 0.625 0.783 0.918 1.062 1.206 1.458 1.603 1.904 2.046 2.264 2.309 2.309 2.274 2.339 2.312 2.322 2.289 2.382 2.332 2.264 2.287 2.304 2.307 2.387 2.299 2.297 2.279 2.252 2.277 2.284 2.249 2.222 2.214 2.192 2.234 2.292 2.297 2.279 2.297 2.302 2.277 2.264 2.304 2.287 2.252 2.249 2.307 2.322 2.244 2.239 2.267 2.362 2.267 2.264 2.257 2.232 2.222 2.219 2.252 2.242 2.217 2.197 2.217 2.252 2.304 2.269 2.259 2.257 2.234 2.229 2.204 2.157 2.199 2.199 2.189 2.209 2.222 2.257 2.212 2.239 2.274 2.224 2.199 2.222 2.232 2.312 2.272 2.287 2.269 2.247 2.287 2.254 2.262 2.287 2.244 2.229 2.222 2.222 2.254 2.304 2.359 2.257 2.259 2.239 2.254 2.187 2.189 2.204 2.209 2.209 2.224 2.192 2.284 2.274 2.267 2.294 2.294 2.234 2.264 2.184 2.184 2.219 2.207 2.219 2.237 2.214 2.217 2.304 2.287 2.222 2.207 2.249 2.217 2.254 2.224 2.192 2.227 2.219 2.257 2.294 2.264 2.207 2.239 2.217 2.227 2.262 2.237 2.164 2.259 2.272 2.187 2.319 2.279 2.209 2.229 2.257 2.389 2.289 2.227 2.282 2.232 2.194 2.244 2.312 2.037 2.257 2.297 1.356 1.106 0.914 2.242 2.279 2.252 2.224 0.246 0.136 0.067 2.234 2.259 0.285 -0.015 -0.35 -0.61 -0.885 2.257 2.244 -1.538 -1.596 -1.548 -1.482 -1.372 2.277 -1.272 -1.522 -1.825 -1.848 -1.806 -1.629 -1.351 -1.069 -0.901 -1.125 -1.355 -1.308 -1.435 -1.385 -1.421 -1.734 -2.037 -2.333 -2.293 -1.899 -1.842 -9999 -9999 -9999 -2.163 -2.211 -2.238 -2.226 -2.213 -1.948 -2.188 -2.158 -2.196 -2.226 -2.271 -2.213 -1.85 -1.879 -2.208 -2.191 -2.183 -2.236 -2.173 -2.163 -2.096 -2.208 -2.186 -2.211 -2.251 -2.346 -2.303 -2.248 -2.243 -2.241 -2.211 -2.176 -2.308 -2.221 -2.243 -2.233 -2.286 -2.198 -2.188 -2.111 -2.231 -2.173 -2.138 -2.171 -2.201 -2.176 -2.156 -2.198 -2.213 -2.231 -2.231 -2.231 -2.241 -2.151 -2.226 -2.153 -2.223 -2.198 -2.168 -2.161 -2.188 -2.191 -2.248 -2.216 -2.153 -2.166 -2.173 -2.238 -2.251 -2.238 -2.206 -2.188 -2.176 -2.191 -2.216 -2.256 -2.158 -2.166 -2.278 -2.203 -2.221 -2.183 -2.208 -2.193 -2.148 -2.168 -2.191 -2.143 -2.218 -2.196 -2.213 -2.191 -2.248 -2.318 -2.218 -2.211 -2.138 -2.141 -2.188 -2.216 -2.316 -2.233 -2.181 -2.236 -2.193 -2.186 -2.136 -2.108 -2.236 -2.206 -2.193 -2.213 -2.248 -2.263 -2.213 -2.213 -2.191 -2.193 -2.168 -2.248 -2.196 -2.213 -2.153 -2.151 -2.178 -2.228 -2.171 -2.261 -2.233 -2.198 -2.168 -2.243 -2.301 -2.188 -2.193 -2.176 -2.168 -2.236 -2.258 -2.136 -2.193 -2.248 -2.216 -2.206 -2.226 -2.208 -2.188 -2.163 -2.168 -2.266 -2.158
-2.171 -2.278 -2.223 -1.909 -1.78 -1.689 -1.618 -1.987 -2.281 -2.253 -2.208 -2.216 -2.196 -2.188 -2.253 -2.186 -2.181 -2.181 -2.218 -2.173 -2.218 -2.196 -1.974 -1.627 -1.357 -1.57 -1.636 -1.758 -1.932 -1.87 -2.223 -2.248 -1.963 -2.156 -2.243 -1.909 -1.606 -1.32 -1.05 -0.952 -0.87 -0.949 -1.012 -1.044 -0.969 -0.88 -0.69 -0.458 -0.307 -0.103 -0.262 -0.434 -0.585 -0.663 -0.914 -1.224 -1.553 -1.795 -1.885 -1.878 -1.976 -1.814 -1.562 -1.496 -1.549 -1.615 -1.6 -1.53 -1.4 -1.112 -0.936 -0.706 -0.645 -0.671 -0.71 -0.686 -0.576 -0.506 -0.421 -0.419 -0.33 -0.199 -0.08 0.147 0.414 0.514 0.717 0.92 0.857 0.783 0.828 0.802 0.869 0.919 1.003 1.128 1.308 1.435 1.657 1.815 2.018 2.315 2.339 2.352 2.309 2.317 2.302 2.274 2.227 2.284 2.324 2.329 2.289 2.304 2.344 2.307 2.342 2.287 2.252 2.312 2.227 2.254 2.272 2.229 2.262 2.239 2.244 2.252 2.309 2.302 2.299 2.282 2.267 2.449 2.379 2.319 2.292 2.247 2.272 2.284 2.267 2.269 2.247 2.229 2.299 2.234 2.254 2.194 2.267 2.207 2.189 2.219 2.247 2.212 2.199 2.242 2.214 2.319 2.249 2.277 2.224 2.204 2.219 2.177 2.134 2.179 2.172 2.224 2.277 2.282 2.232 2.189 2.247 2.237 2.259 2.207 2.252 2.249 2.264 2.269 2.267 2.232 2.272 2.232 2.234 2.227 2.232 2.247 2.234 2.252 2.252 2.254 2.317 2.332 2.299 2.284 2.219 2.209 2.189 2.262 2.262 2.234 2.277 2.239 2.229 2.247 2.247 2.317 2.309 2.264 2.264 2.257 2.244 2.237 2.217 2.214 2.224 2.249 2.192 2.202 2.244 2.242 2.327 2.234 2.264 2.227 2.237 2.264 2.169 2.214 2.219 2.234 2.319 2.262 2.184 2.244 2.279 2.227 2.272 2.249 2.184 2.279 2.259 2.284 2.234 2.272 2.207 2.399 2.352 2.429 2.259 2.274 2.304 2.252 2.232 2.294 2.196 1.9 2.209 2.222 2.207 0.932 0.691 0.545 0.389 2.267 2.307 -0.051 -0.106 -0.099 -0.134 -0.126 -0.024 -0.046 -0.422 -0.719 -0.94 -1.225 -1.48 -1.761 -1.915 -1.914 -1.798 2.337 2.329 2.309 -1.397 -1.532 -1.602 -1.563 -1.412 -1.129 -0.909 -1.086 -1.322 -1.556 -1.614 -1.723 -1.642 -1.458 -1.595 -1.943 -2.286 -9999 2.394 -1.709 2.224 -9999 -9999 -9999 -2.246 -2.226 -2.216 -2.193 -1.855 -2.303 -2.243 -2.256 -2.256 -2.253 -2.211 -1.936 -1.978 -2.278 -2.291 -2.213 -2.213 -2.233 -2.203 -2.138 -2.158 -2.203 -2.208 -2.238 -2.236 -2.213 -2.186 -2.158 -2.238 -2.286 -2.181 -2.231 -2.193 -2.366 -2.193 -2.166 -2.151 -2.188 -2.313 -2.168 -2.233 -2.226 -2.183 -2.206 -2.136 -2.163 -2.233 -2.251 -2.261 -2.188 -2.173 -2.168 -2.151 -2.241 -2.093 -2.181 -2.216 -2.226 -2.266 -2.198 -2.241 -2.193 -2.241 -2.196 -2.206 -2.196 -2.181 -2.206 -2.236 -2.223 -2.198 -2.181 -2.173 -2.211 -2.236 -2.126 -2.196 -2.193 -2.233 -2.226 -2.203 -2.313 -2.196 -2.163 -2.161 -2.186 -2.143 -2.191 -2.138 -2.211 -2.211 -2.223 -2.273 -2.231 -2.201 -2.178 -2.131 -2.196 -2.256 -2.198 -2.186 -2.216 -2.246 -2.158 -2.226 -2.188 -2.161 -2.183 -2.208 -2.126 -2.188 -2.243 -2.201 -2.198 -2.193 -2.203 -2.141 -2.253 -2.206 -2.096 -2.193 -2.181 -2.153 -2.218 -2.191 -2.183 -2.246 -2.203 -2.168 -2.178 -2.253 -2.173 -2.108 -2.228 -2.208 -2.223 -2.228 -2.218 -2.183 -2.268 -2.198 -2.178 -2.171 -2.231 -2.143 -2.163 -2.183 -2.181 -2.241 -2.166
-2.218 -2.213 -2.303 -2.203 -1.977 -1.961 -1.914 -1.934 -2.233 -2.216 -2.243 -2.233 -2.261 -2.166 -2.231 -2.163 -1.88 -2.188 -2.248 -2.191 -2.148 -2.201 -1.99 -1.623 -1.625 -1.796 -1.883 -1.942 -1.912 -1.879 -2.306 -2.286 -1.967 -2.153 -1.893 -1.775 -1.588 -1.339 -1.08 -0.89 -1.098 -1.203 -1.374 -1.32 -1.286 -1.171 -0.877 -0.686 -0.558 -0.293 -0.489 -0.673 -0.816 -0.989 -0.954 -1.058 -1.393 -1.568 -1.567 -1.609 -1.595 -1.549 -1.365 -1.25 -1.248 -1.311 -1.314 -1.256 -1.162 -0.961 -0.7 -0.692 -0.892 -0.95 -1.032 -1.028 -0.866 -0.706 -0.733 -0.727 -0.602 -0.443 -0.303 -0.123 0.153 0.354 0.544 0.772 1.02 1.087 1.101 1.112 1.14 1.182 1.324 1.414 1.523 1.655 1.918 2.043 2.204 2.292 2.372 2.314 2.304 2.232 2.262 2.317 2.287 2.299 2.287 2.324 2.352 2.274 2.289 2.304 2.317 2.254 2.219 2.304 2.272 2.334 2.277 2.287 2.297 2.259 2.252 2.207 2.274 2.282 2.277 2.267 2.269 2.354 2.297 2.309 2.259 2.282 2.277 2.259 2.274 2.284 2.232 2.234 2.239 2.244 2.247 2.242 2.247 2.217 2.179 2.244 2.197 2.224 2.257 2.259 2.239 2.274 2.234 2.219 2.217 2.159 2.167 2.189 2.197 2.182 2.177 2.199 2.234 2.259 2.224 2.224 2.197 2.232 2.227 2.234 2.307 2.274 2.242 2.302 2.304 2.282 2.284 2.267 2.249 2.249 2.252 2.282 2.289 2.252 2.272 2.247 2.262 2.274 2.257 2.282 2.227 2.197 2.197 2.194 2.242 2.239 2.312 2.259 2.257 2.262 2.222 2.237 2.274 2.262 2.279 2.279 2.234 2.244 2.252 2.249 2.254 2.217 2.234 2.177 2.277 2.269 2.234 2.224 2.392 2.252 2.242 2.252 2.227 2.329 2.302 2.272 2.224 2.244 2.202 2.187 2.262 2.219 2.349 2.304 2.214 2.287 2.257 2.284 2.309 2.217 2.244 2.367 2.284 2.212 2.332 2.297 2.352 2.389 2.222 2.297 2.055 1.799 1.534 1.332 1.104 0.802 0.542 0.302 0.149 -0.023 -0.182 -0.297 -0.349 -0.389 -0.411 -0.436 -0.369 -0.196 -0.434 -0.735 -0.998 -1.262 -1.523 -1.96 -2.296 -2.228 -1.967 2.317 2.284 2.292 -1.163 -1.344 -1.359 -1.225 -1.143 -0.93 -0.995 -1.263 -1.518 -1.768 -1.883 -2.052 -1.829 -1.574 -1.596 -1.875 -2.186 -9999 2.384 2.274 -2.186 -9999 -9999 -9999 -2.336 -2.183 -2.188 -2.236 -1.954 -1.922 -2.186 -2.311 -9999 2.224 2.304 -2.191 -2.256 -2.328 -2.303 -2.273 -2.246 -2.241 -2.186 -2.301 -2.251 -2.158 -2.216 -2.226 -2.231 -2.248 -2.276 -2.266 -2.291 -2.266 -2.176 -2.211 -2.281 -2.331 -2.241 -2.166 -2.116 -2.181 -2.173 -2.158 -2.198 -2.216 -2.163 -2.276 -2.223 -2.168 -2.203 -2.216 -2.236 -2.211 -2.136 -2.151 -2.161 -2.161 -2.123 -2.198 -2.196 -2.211 -2.208 -2.201 -2.151 -2.181 -2.218 -2.201 -2.256 -2.246 -2.141 -2.193 -2.298 -2.306 -2.226 -2.203 -2.233 -2.208 -2.106 -2.128 -2.183 -2.223 -2.186 -2.266 -2.173 -2.276 -2.188 -2.111 -2.158 -2.181 -2.213 -2.186 -2.173 -2.193 -2.208 -2.248 -2.228 -2.261 -2.208 -2.211 -2.138 -2.188 -2.238 -2.128 -2.128 -2.158 -2.188 -2.213 -2.313 -2.221 -2.181 -2.236 -2.248 -2.238 -2.248 -2.218 -2.208 -2.148 -2.211 -2.183 -2.183 -2.216 -2.193 -2.146 -2.183 -2.236 -2.151 -2.223 -2.178 -2.161 -2.246 -2.231 -2.248 -2.181 -2.271 -2.196 -2.168 -2.156 -2.168 -2.193 -2.198 -2.211 -2.231 -2.211 -2.191 -2.153 -2.236 -2.261 -2.196 -2.131 -2.183 -2.213 -2.241 -2.293
-2.221 -2.203 -2.228 -2.201 -2.243 -2.243 -2.198 -2.281 -1.929 -2.243 -2.228 -2.226 -2.173 -1.898 -2.206 -2.186 -1.914 -2.188 -2.203 -2.231 -2.198 -2.228 -1.933 -1.812 -1.923 -1.917 -2.186 -2.236 -2.208 -1.92 -1.924 -2.293 -1.978 -1.896 -1.895 -1.97 -1.841 -1.517 -1.21 -1.142 -1.368 -1.488 -1.631 -1.654 -1.585 -1.371 -1.154 -0.901 -0.747 -0.533 -0.69 -0.918 -1.062 -1.279 -1.312 -1.227 -1.14 -1.271 -1.27 -1.255 -1.345 -1.292 -1.087 -0.912 -0.961 -1.004 -1.011 -0.983 -0.91 -0.758 -0.738 -0.955 -1.179 -1.302 -1.381 -1.331 -1.185 -0.957 -1.045 -0.97 -0.863 -0.681 -0.549 -0.321 -0.118 0.137 0.34 0.601 0.866 1.113 1.415 1.437 1.484 1.526 1.704 1.761 1.83 1.932 2.15 2.297 2.439 2.334 2.332 2.267 2.329 2.297 2.297 2.309 2.249 2.317 2.344 2.294 2.362 2.284 2.254 2.377 2.342 2.252 2.222 2.234 2.232 2.269 2.284 2.287 2.267 2.277 2.234 2.277 2.394 2.292 2.284 2.294 2.349 2.304 2.327 2.389 2.284 2.292 2.294 2.262 2.249 2.239 2.252 2.274 2.274 2.267 2.272 2.224 2.214 2.209 2.189 2.232 2.237 2.224 2.282 2.254 2.262 2.237 2.252 2.214 2.202 2.249 2.204 2.202 2.204 2.182 2.172 2.322 2.267 2.232 2.212 2.239 2.232 2.219 2.269 2.247 2.317 2.264 2.282 2.284 2.262 2.294 2.287 2.294 2.272 2.232 2.272 2.257 2.294 2.259 2.249 2.242 2.267 2.227 2.267 2.252 2.242 2.259 2.187 2.252 2.242 2.239 2.212 2.199 2.232 2.234 2.262 2.312 2.289 2.312 2.297 2.309 2.262 2.237 2.197 2.262 2.304 2.209 2.249 2.222 2.237 2.232 2.249 2.257 2.212 2.267 2.289 2.297 2.297 2.287 2.182 2.239 2.219 2.329 2.269 2.249 2.224 2.344 2.257 2.267 2.244 2.267 2.287 2.244 2.239 2.237 2.257 2.252 2.312 2.219 2.289 2.272 2.317 2.294 2.262 2.219 1.912 1.625 1.388 1.139 0.874 0.594 0.413 0.182 -0.013 -0.243 -0.489 -0.529 -0.701 -0.757 -0.729 -0.632 -0.577 -0.518 -0.442 -0.733 -0.979 -1.342 -1.65 -1.959 -2.246 -2.233 -1.988 -1.595 -1.31 -1.095 -0.919 -1.047 -1.102 -1.001 -0.903 -0.738 -1.001 -1.377 -1.627 -1.905 -2.153 -9999 2.374 -1.643 -1.765 -1.873 -2.118 2.214 2.209 2.292 -1.881 -2.246 -2.266 -2.211 -2.271 -2.128 -2.118 -2.168 -1.944 -1.856 -1.878 -2.213 -2.273 -9999 -9999 -2.211 -2.178 -2.226 -2.243 -2.236 -2.246 -2.163 -1.886 -2.276 -2.196 -2.131 -2.171 -2.191 -2.253 -2.216 -2.233 -2.291 -2.318 -2.273 -2.221 -2.163 -2.266 -2.248 -2.216 -2.141 -2.128 -2.241 -2.176 -2.166 -2.218 -2.221 -2.178 -2.286 -2.251 -2.186 -2.196 -2.191 -2.291 -2.251 -2.161 -2.211 -2.168 -2.138 -2.168 -2.163 -2.208 -2.208 -2.186 -2.173 -2.198 -2.198 -2.218 -2.203 -2.221 -2.228 -2.138 -2.228 -2.331 -2.283 -2.228 -2.226 -2.163 -2.218 -2.098 -2.118 -2.141 -2.173 -2.151 -2.273 -2.231 -2.248 -2.173 -2.208 -2.181 -2.178 -2.198 -2.171 -2.196 -2.146 -2.183 -2.261 -2.191 -2.206 -2.236 -2.241 -2.183 -2.211 -2.223 -2.213 -2.136 -2.223 -2.196 -2.196 -2.246 -2.151 -2.123 -2.246 -2.216 -2.251 -2.253 -2.228 -2.226 -2.193 -2.221 -2.148 -2.188 -2.296 -2.228 -2.211 -2.203 -2.191 -2.173 -2.226 -2.196 -2.086 -2.203 -2.218 -2.208 -2.156 -2.248 -2.206 -2.143 -2.156 -2.193 -2.136 -2.183 -2.176 -2.193 -2.228 -2.186 -2.206 -2.206 -2.251 -2.208 -2.271 -2.171 -2.186 -2.168 -2.236
-2.263 -2.226 -2.248 -2.243 -2.288 -2.253 -2.198 -2.321 -2.223 -2.153 -2.206 -2.243 -2.231 -1.941 -2.198 -2.226 -2.218 -2.268 -2.238 -2.276 -2.211 -1.955 -1.773 -1.93 -2.168 -2.223 -2.226 -2.226 -2.241 -2.281 -1.922 -1.956 -1.955 -2.191 -2.221 -2.246 -1.914 -1.592 -1.289 -1.338 -1.54 -1.771 -1.933 -1.914 -1.809 -1.546 -1.367 -1.115 -0.89 -0.703 -0.895 -1.068 -1.326 -1.548 -1.623 -1.516 -1.367 -1.163 -0.987 -0.938 -1.025 -1.001 -0.861 -0.73 -0.704 -0.673 -0.738 -0.672 -0.613 -0.732 -0.974 -1.154 -1.368 -1.55 -1.629 -1.56 -1.414 -1.277 -1.3 -1.243 -1.102 -0.928 -0.761 -0.53 -0.339 -0.042 0.194 0.459 0.687 1.031 1.373 1.62 1.72 1.786 1.937 1.985 2.117 2.235 2.284 2.294 2.282 2.309 2.359 2.424 2.392 2.342 2.259 2.272 2.309 2.297 2.347 2.284 2.269 2.352 2.309 2.294 2.287 2.269 2.234 2.199 2.224 2.247 2.264 2.314 2.282 2.249 2.219 2.257 2.344 2.279 2.252 2.274 2.307 2.307 2.342 2.352 2.312 2.307 2.324 2.302 2.339 2.274 2.324 2.274 2.262 2.244 2.227 2.264 2.207 2.242 2.217 2.192 2.249 2.192 2.257 2.249 2.237 2.259 2.237 2.219 2.192 2.169 2.227 2.227 2.207 2.262 2.194 2.194 2.182 2.237 2.224 2.247 2.279 2.239 2.252 2.239 2.234 2.222 2.237 2.254 2.239 2.259 2.304 2.269 2.294 2.257 2.249 2.244 2.289 2.264 2.277 2.227 2.247 2.249 2.259 2.249 2.269 2.249 2.237 2.214 2.232 2.267 2.292 2.254 2.287 2.292 2.262 2.279 2.277 2.259 2.214 2.247 2.269 2.289 2.257 2.252 2.234 2.247 2.264 2.239 2.237 2.222 2.234 2.247 2.282 2.259 2.309 2.182 2.267 2.259 2.257 2.217 2.202 2.212 2.237 2.252 2.252 2.269 2.272 2.362 2.274 2.219 2.182 2.157 2.259 2.284 2.227 2.247 2.302 2.314 2.247 2.212 2.247 2.147 2.232 2.122 1.728 1.521 1.273 1.014 0.691 0.433 0.162 -0.105 -0.258 -0.551 -0.751 -0.859 -1.034 -1.068 -1.053 -1.02 -0.92 -0.758 -0.715 -0.748 -1.009 -1.302 -1.547 -1.724 -1.911 -1.967 -1.863 -1.546 -1.231 -0.966 -0.711 -0.769 -0.808 -0.713 -0.634 -0.73 -1.011 -1.335 -1.654 2.207 -9999 -9999 2.394 -1.618 -1.9 -2.153 -2.128 -1.87 2.292 -1.508 -1.81 -1.928 -1.861 -2.221 -2.281 -2.213 -1.87 -1.882 -1.945 -2.176 -2.191 -2.251 -2.238 -2.246 -2.231 -2.261 -2.218 -2.191 -1.951 -2.221 -2.166 -2.153 -1.878 -2.163 -2.168 -2.163 -2.191 -2.236 -2.231 -2.161 -2.151 -2.213 -2.233 -2.243 -2.243 -2.176 -2.176 -2.198 -2.208 -2.141 -2.161 -2.271 -2.188 -2.178 -2.213 -2.228 -2.171 -2.221 -2.271 -2.211 -2.148 -2.213 -2.291 -2.251 -2.243 -2.163 -2.156 -2.081 -2.186 -2.171 -2.221 -2.213 -2.226 -2.251 -2.191 -2.141 -2.121 -2.143 -2.173 -2.206 -2.158 -2.208 -2.296 -2.256 -2.268 -2.186 -2.116 -2.178 -2.108 -2.181 -2.201 -2.143 -2.123 -2.218 -2.178 -2.261 -2.253 -2.266 -2.223 -2.111 -2.238 -2.153 -2.156 -2.101 -2.181 -2.236 -2.178 -2.216 -2.248 -2.251 -2.141 -2.181 -2.208 -2.216 -2.171 -2.196 -2.223 -2.201 -2.183 -2.143 -2.213 -2.253 -2.241 -2.198 -2.251 -2.218 -2.238 -2.181 -2.208 -2.213 -2.196 -2.268 -2.196 -2.178 -2.251 -2.178 -2.213 -2.228 -2.218 -2.088 -2.168 -2.253 -2.216 -2.191 -2.218 -2.218 -2.186 -2.121 -2.143 -2.123 -2.176 -2.198 -2.143 -2.158 -2.171 -2.191 -2.246 -2.296 -2.186 -2.213 -2.183 -2.258 -2.198 -2.208
-2.268 -2.196 -2.186 -2.231 -2.291 -2.266 -2.198 -2.301 -1.917 -2.181 -2.263 -2.281 -2.203 -1.955 -2.203 -2.188 -2.243 -2.258 -2.221 -1.954 -1.865 -1.848 -1.921 -2.231 -2.226 -2.188 -2.211 -2.206 -2.246 -1.899 -1.827 -1.645 -1.94 -2.236 -2.223 -2.228 -1.96 -1.636 -1.286 -1.517 -1.792 -1.895 -2.226 -2.156 -1.967 -1.772 -1.564 -1.231 -0.955 -0.897 -1.113 -1.332 -1.59 -1.825 -1.862 -1.733 -1.552 -1.371 -1.106 -0.784 -0.72 -0.671 -0.587 -0.457 -0.424 -0.425 -0.385 -0.442 -0.682 -0.949 -1.143 -1.357 -1.585 -1.746 -1.895 -1.83 -1.581 -1.563 -1.656 -1.531 -1.352 -1.135 -0.969 -0.751 -0.46 -0.194 0.07 0.31 0.576 0.977 1.177 1.55 1.732 2.077 2.157 2.246 2.277 2.407 2.274 2.234 2.292 2.252 2.379 2.317 2.259 2.297 2.212 2.264 2.402 2.327 2.284 2.252 2.322 2.279 2.322 2.324 2.307 2.272 2.249 2.254 2.244 2.292 2.282 2.357 2.274 2.222 2.224 2.247 2.319 2.314 2.347 2.259 2.299 2.334 2.342 2.362 2.274 2.274 2.317 2.254 2.277 2.292 2.247 2.267 2.252 2.282 2.229 2.229 2.234 2.234 2.222 2.234 2.272 2.257 2.244 2.252 2.252 2.269 2.284 2.262 2.239 2.209 2.247 2.182 2.222 2.199 2.199 2.237 2.147 2.229 2.209 2.212 2.237 2.277 2.239 2.204 2.227 2.217 2.274 2.239 2.277 2.304 2.309 2.214 2.289 2.279 2.272 2.244 2.279 2.249 2.249 2.267 2.249 2.304 2.269 2.204 2.214 2.227 2.239 2.217 2.229 2.252 2.357 2.217 2.247 2.267 2.312 2.329 2.292 2.317 2.327 2.219 2.257 2.322 2.274 2.324 2.284 2.242 2.177 2.232 2.309 2.227 2.222 2.219 2.287 2.212 2.287 2.234 2.257 2.302 2.297 2.244 2.237 2.302 2.307 2.212 2.267 2.277 2.224 2.224 2.272 2.327 2.339 2.274 2.232 2.277 2.259 2.269 2.269 2.257 2.247 2.179 2.297 2.179 2.279 2.082 1.697 1.439 1.188 0.878 0.569 0.352 0.076 -0.241 -0.475 -0.706 -0.997 -1.132 -1.294 -1.354 -1.313 -1.33 -1.177 -0.992 -1.002 -1.03 -0.999 -1.143 -1.354 -1.571 -1.694 -1.582 -1.544 -1.353 -1.1 -0.841 -0.591 -0.429 2.344 2.367 -0.43 -0.71 -0.903 -1.217 -1.512 -1.753 2.399 2.332 2.259 -1.557 -1.815 2.329 -9999 2.349 -1.532 -1.382 -1.688 -1.624 -1.84 -2.288 -2.308 -2.173 -1.897 -1.775 -1.919 -2.251 -2.273 -2.303 -2.243 -2.226 -2.246 -2.243 -2.276 -2.238 -2.303 -2.236 -2.191 -2.158 -2.178 -2.226 -2.153 -2.196 -2.263 -2.231 -2.213 -2.243 -2.278 -2.281 -2.261 -2.253 -2.223 -2.231 -2.188 -2.221 -2.238 -2.188 -2.181 -2.213 -2.138 -2.211 -2.188 -2.178 -2.186 -2.286 -2.228 -2.181 -2.168 -2.188 -2.241 -2.193 -2.191 -2.201 -2.136 -2.196 -2.148 -2.246 -2.281 -2.183 -2.233 -2.231 -2.278 -2.193 -2.193 -2.216 -2.213 -2.191 -2.131 -2.203 -2.211 -2.191 -2.196 -2.201 -2.166 -2.166 -2.163 -2.166 -2.226 -2.171 -2.118 -2.221 -2.191 -2.221 -2.238 -2.238 -2.213 -2.168 -2.208 -2.223 -2.128 -2.171 -2.258 -2.198 -2.223 -2.141 -2.226 -2.216 -2.173 -2.116 -2.193 -2.241 -2.198 -2.228 -2.208 -2.216 -2.233 -2.178 -2.208 -2.211 -2.198 -2.266 -2.208 -2.216 -2.183 -2.221 -2.206 -2.186 -2.231 -2.226 -2.191 -2.171 -2.236 -2.203 -2.216 -2.203 -2.146 -2.171 -2.176 -2.268 -2.213 -2.183 -2.248 -2.218 -2.176 -2.133 -2.236 -2.123 -2.221 -2.226 -2.118 -2.143 -2.213 -2.203 -2.236 -2.231 -2.223 -2.218 -2.143 -2.206 -2.136 -2.268
-2.198 -2.203 -2.206 -1.974 -2.291 -2.266 -2.153 -2.228 -1.948 -1.883 -2.308 -2.236 -2.206 -1.983 -2.208 -2.183 -2.236 -2.323 -2.191 -2.208 -2.251 -1.947 -1.915 -2.181 -2.213 -2.183 -2.176 -2.171 -1.887 -1.796 -1.932 -1.98 -1.804 -1.952 -2.238 -1.938 -1.839 -1.563 -1.302 -1.602 -1.877 -2.211 -2.238 -2.251 -2.258 -1.935 -1.668 -1.268 -0.976 -0.997 -1.313 -1.505 -1.835 -1.941 -2.196 -1.88 -1.823 -1.595 -1.237 -0.908 -0.677 -0.387 -0.288 -0.162 -0.071 -0.141 -0.358 -0.589 -0.855 -1.124 -1.413 -1.588 -1.864 -1.937 -2.268 -1.936 -1.826 -1.778 -1.928 -1.731 -1.552 -1.397 -1.155 -0.896 -0.568 -0.341 -0.009 0.232 0.508 0.848 1.1 1.499 1.779 2.074 2.324 2.324 2.272 2.274 2.352 2.344 2.277 2.249 2.257 2.227 2.299 2.224 2.237 2.237 2.389 2.392 2.269 2.264 2.262 2.299 2.262 2.302 2.302 2.269 2.274 2.172 2.217 2.242 2.264 2.287 2.232 2.269 2.284 2.304 2.262 2.229 2.289 2.304 2.242 2.394 2.324 2.307 2.279 2.297 2.257 2.237 2.232 2.259 2.287 2.267 2.242 2.257 2.264 2.252 2.217 2.217 2.297 2.274 2.259 2.284 2.252 2.282 2.247 2.267 2.277 2.227 2.219 2.229 2.224 2.209 2.209 2.202 2.227 2.177 2.184 2.209 2.189 2.287 2.239 2.252 2.232 2.244 2.239 2.212 2.262 2.194 2.289 2.357 2.282 2.274 2.287 2.244 2.274 2.224 2.287 2.219 2.239 2.252 2.234 2.227 2.267 2.272 2.232 2.254 2.249 2.189 2.224 2.259 2.257 2.227 2.237 2.237 2.209 2.162 2.272 2.264 2.272 2.274 2.262 2.287 2.269 2.192 2.217 2.257 2.209 2.269 2.289 2.214 2.244 2.207 2.279 2.262 2.267 2.264 2.222 2.234 2.197 2.207 2.247 2.264 2.219 2.232 2.224 2.254 2.257 2.289 2.252 2.344 2.269 2.204 2.224 2.247 2.254 2.319 2.232 2.227 2.249 2.194 2.344 2.252 2.234 2.033 1.681 1.297 1.073 0.805 0.54 0.285 -0.044 -0.312 -0.594 -0.934 -1.191 -1.436 -1.605 -1.603 -1.65 -1.605 -1.374 -1.181 -1.302 -1.311 -1.281 -1.142 -1.169 -1.256 -1.362 -1.339 -1.222 -1.066 -0.951 -0.768 -0.404 -0.429 2.307 2.214 -0.326 -0.58 -0.815 2.317 2.282 -1.561 -1.628 2.319 -1.614 -1.42 -1.56 -1.778 2.297 -1.82 -1.541 -1.588 -1.887 -2.042 -1.947 -2.041 -1.934 -1.89 -2.218 -1.917 -1.947 -2.238 -2.296 -2.338 -2.233 -2.303 -2.231 -2.193 -2.198 -2.231 -2.246 -2.221 -2.141 -2.183 -2.221 -2.236 -2.211 -2.188 -2.243 -2.223 -2.226 -2.236 -2.296 -1.945 -1.971 -2.223 -2.113 -2.213 -2.188 -2.273 -2.286 -2.246 -2.256 -2.226 -2.218 -2.253 -2.233 -2.266 -2.208 -2.266 -2.258 -2.273 -2.311 -2.256 -2.163 -2.178 -2.108 -2.161 -2.196 -2.166 -2.166 -2.251 -2.216 -2.188 -2.166 -2.216 -2.258 -2.161 -2.178 -2.223 -2.198 -2.153 -2.111 -2.141 -2.311 -2.161 -2.161 -2.206 -2.183 -2.261 -2.183 -2.176 -2.211 -2.313 -2.168 -2.186 -2.183 -2.186 -2.311 -2.241 -2.273 -2.221 -2.218 -2.193 -2.158 -2.121 -2.213 -2.216 -2.193 -2.176 -2.276 -2.211 -2.133 -2.096 -2.203 -2.211 -2.161 -2.243 -2.243 -2.243 -2.248 -2.213 -2.261 -2.246 -2.246 -2.251 -2.178 -2.193 -2.173 -2.263 -2.203 -2.136 -2.201 -2.193 -2.193 -2.201 -2.263 -2.201 -2.216 -2.278 -2.176 -2.201 -2.273 -2.196 -2.176 -2.198 -2.203 -2.233 -2.133 -2.141 -2.188 -2.111 -2.226 -2.246 -2.133 -2.211 -2.181 -2.188 -2.216 -2.208 -2.228 -2.146 -2.118 -2.138 -2.166 -2.256
-2.238 -2.168 -2.148 -2.276 -2.271 -2.208 -2.161 -1.927 -2.216 -1.866 -1.955 -2.216 -2.253 -1.977 -1.898 -2.243 -2.261 -2.238 -2.243 -2.268 -2.211 -2.286 -1.887 -1.909 -1.882 -2.181 -2.168 -2.198 -1.899 -1.921 -2.241 -2.313 -1.918 -1.781 -1.979 -1.772 -1.588 -1.397 -1.333 -1.598 -1.974 -2.268 -2.218 -2.223 -1.931 -1.83 -1.566 -1.227 -0.969 -1.004 -1.256 -1.546 -1.931 -2.203 -2.206 -2.208 -1.927 -1.628 -1.268 -0.956 -0.714 -0.368 -0.066 0.115 0.201 -0.08 -0.391 -0.69 -0.986 -1.298 -1.585 -1.819 -1.955 -2.253 -2.213 -2.198 -1.929 -1.92 -2.231 -1.936 -1.818 -1.611 -1.262 -0.993 -0.717 -0.431 -0.105 0.245 0.454 0.758 1.091 1.387 1.71 2.004 2.299 2.262 2.299 2.254 2.319 2.282 2.264 2.267 2.289 2.292 2.269 2.239 2.259 2.297 2.277 2.409 2.312 2.264 2.297 2.302 2.284 2.307 2.292 2.259 2.279 2.269 2.217 2.237 2.247 2.292 2.279 2.262 2.277 2.269 2.267 2.314 2.299 2.309 2.294 2.307 2.327 2.247 2.277 2.267 2.237 2.274 2.312 2.274 2.289 2.249 2.234 2.239 2.254 2.249 2.197 2.224 2.234 2.349 2.299 2.319 2.322 2.269 2.309 2.292 2.267 2.257 2.237 2.222 2.204 2.229 2.194 2.167 2.189 2.182 2.207 2.174 2.244 2.244 2.229 2.254 2.234 2.289 2.274 2.239 2.267 2.267 2.262 2.264 2.294 2.219 2.242 2.254 2.322 2.297 2.204 2.212 2.269 2.279 2.242 2.219 2.252 2.277 2.239 2.284 2.269 2.229 2.239 2.244 2.222 2.224 2.257 2.252 2.247 2.242 2.297 2.309 2.289 2.287 2.307 2.252 2.257 2.272 2.232 2.232 2.192 2.209 2.234 2.219 2.209 2.217 2.274 2.292 2.252 2.264 2.332 2.224 2.169 2.204 2.089 2.239 2.239 2.204 2.222 2.239 2.309 2.289 2.242 2.232 2.177 2.247 2.207 2.282 2.242 2.317 2.327 2.287 2.272 2.249 2.297 2.404 2.184 1.951 1.667 1.303 1 0.695 0.504 0.333 -0.154 -0.421 -0.68 -1.081 -1.333 -1.655 -1.836 -1.96 -2.007 -1.877 -1.547 -1.347 -1.533 -1.583 -1.581 -1.398 -1.166 -1.033 -1.053 -1.018 -0.882 -0.77 -0.741 -0.783 -0.741 -0.74 -0.681 2.234 -0.283 -0.437 -0.614 2.339 2.299 -1.313 2.297 2.332 2.319 -1.29 -1.358 -1.537 -1.68 -1.652 -1.329 -1.59 -1.878 -2.206 -2.273 -2.331 -1.932 -1.845 -2.251 -2.238 -2.286 -2.366 -2.263 -2.253 -1.959 -2.343 -2.226 -2.196 -2.133 -2.166 -2.241 -2.231 -2.203 -2.186 -2.171 -2.248 -2.248 -2.213 -2.211 -2.231 -2.166 -2.218 -2.283 -1.954 -1.997 -2.306 -2.116 -2.176 -2.231 -2.251 -2.296 -2.276 -2.251 -2.236 -2.303 -2.308 -2.148 -2.196 -2.211 -2.206 -2.211 -2.243 -2.333 -2.236 -2.118 -2.138 -2.111 -2.188 -2.206 -2.198 -2.238 -2.236 -2.181 -2.121 -2.138 -2.201 -2.188 -2.136 -2.151 -2.208 -2.236 -2.181 -2.141 -2.098 -2.203 -2.231 -2.218 -2.216 -2.226 -2.206 -2.183 -2.193 -2.201 -2.183 -2.218 -2.196 -2.176 -2.191 -2.308 -2.196 -2.203 -2.193 -2.216 -2.211 -2.163 -2.133 -2.228 -2.213 -2.218 -2.191 -2.188 -2.216 -2.171 -2.166 -2.221 -2.246 -2.133 -2.191 -2.223 -2.208 -2.198 -2.188 -2.243 -2.178 -2.211 -2.311 -2.236 -2.191 -2.181 -2.208 -2.211 -2.176 -2.231 -2.251 -2.206 -2.173 -2.201 -2.171 -2.198 -2.248 -2.206 -2.186 -2.218 -2.216 -2.166 -2.173 -2.211 -2.288 -2.141 -2.211 -2.203 -2.138 -2.181 -2.206 -2.126 -2.231 -2.216 -2.223 -2.176 -2.183 -2.226 -2.111 -2.148 -2.131 -2.146 -2.178
-2.266 -2.173 -2.218 -2.241 -2.221 -1.914 -1.853 -2.223 -2.223 -2.201 -1.907 -1.905 -2.231 -1.972 -1.914 -2.346 -2.301 -2.223 -2.248 -2.188 -2.208 -1.932 -2.236 -2.223 -1.879 -1.88 -1.88 -1.963 -2.003 -2.163 -2.183 -2.288 -1.934 -1.573 -1.609 -1.529 -1.431 -1.154 -1.345 -1.575 -1.955 -2.261 -2.248 -1.95 -1.788 -1.575 -1.371 -1.124 -0.868 -1.039 -1.307 -1.617 -1.906 -2.266 -2.246 -2.163 -1.916 -1.556 -1.254 -0.999 -0.706 -0.409 -0.138 0.223 0.165 -0.125 -0.413 -0.705 -1.008 -1.317 -1.646 -1.922 -2.228 -2.236 -2.221 -2.248 -1.949 -2.201 -2.228 -2.196 -1.92 -1.659 -1.327 -1.04 -0.775 -0.425 -0.129 0.149 0.464 0.732 1.059 1.388 1.696 2 2.314 2.254 2.272 2.299 2.194 2.292 2.254 2.254 2.242 2.282 2.259 2.267 2.274 2.277 2.242 2.269 2.224 2.339 2.399 2.352 2.299 2.239 2.307 2.267 2.244 2.264 2.254 2.234 2.249 2.284 2.302 2.249 2.242 2.224 2.277 2.317 2.259 2.289 2.304 2.264 2.322 2.287 2.269 2.312 2.292 2.237 2.277 2.332 2.259 2.234 2.269 2.249 2.272 2.249 2.222 2.197 2.239 2.244 2.254 2.274 2.254 2.222 2.222 2.289 2.267 2.237 2.254 2.247 2.217 2.204 2.212 2.217 2.177 2.167 2.174 2.194 2.217 2.252 2.254 2.304 2.267 2.292 2.284 2.239 2.292 2.269 2.279 2.294 2.289 2.252 2.272 2.277 2.317 2.277 2.204 2.277 2.237 2.234 2.257 2.287 2.177 2.219 2.227 2.204 2.232 2.204 2.237 2.214 2.227 2.257 2.259 2.252 2.272 2.267 2.269 2.312 2.327 2.269 2.269 2.254 2.202 2.259 2.214 2.207 2.227 2.232 2.204 2.277 2.322 2.284 2.252 2.307 2.282 2.257 2.279 2.199 2.209 2.207 2.202 2.179 2.142 2.299 2.192 2.239 2.274 2.287 2.242 2.219 2.239 2.242 2.307 2.292 2.247 2.197 2.259 2.277 2.277 2.302 2.264 2.292 2.217 1.917 1.639 1.342 0.968 0.652 0.417 0.18 -0.119 -0.363 -0.711 -1.09 -1.397 -1.691 -1.984 -2.201 -2.316 -1.958 -1.772 -1.585 -1.872 -2.003 -1.863 -1.537 -1.235 -0.971 -0.773 -0.742 -0.607 -0.789 -0.944 -1.053 -1.101 -1.051 -0.913 -0.764 -0.543 -0.314 -0.481 2.367 2.259 -1.187 2.272 2.392 2.327 -1.647 -1.646 -1.513 -1.384 -1.344 -1.432 -1.651 -1.98 -2.261 -2.273 -2.281 -1.941 -1.927 -2.256 -2.203 -2.243 -2.283 -2.283 -1.942 -2.246 -2.233 -2.153 -2.183 -2.208 -2.191 -2.101 -2.183 -2.206 -2.218 -2.248 -2.273 -2.281 -2.236 -2.206 -2.163 -2.183 -2.223 -2.193 -1.931 -1.997 -2.293 -2.158 -2.181 -2.198 -2.136 -2.251 -2.268 -2.243 -2.181 -2.206 -2.273 -2.201 -2.188 -2.188 -2.231 -2.186 -2.231 -2.256 -2.266 -2.186 -2.073 -2.161 -2.186 -2.196 -2.173 -2.181 -2.271 -2.261 -2.186 -2.161 -2.181 -2.221 -2.183 -2.188 -2.208 -2.196 -2.186 -2.186 -2.196 -2.168 -2.231 -2.221 -2.181 -2.236 -2.226 -2.178 -2.193 -2.221 -2.191 -2.216 -2.246 -2.228 -2.208 -2.236 -2.213 -2.261 -2.233 -2.221 -2.291 -2.136 -2.188 -2.226 -2.176 -2.241 -2.201 -2.223 -2.216 -2.153 -2.258 -2.186 -2.226 -2.118 -2.163 -2.201 -2.196 -2.198 -2.176 -2.256 -2.218 -2.248 -2.206 -2.208 -2.216 -2.156 -2.181 -2.183 -2.213 -2.151 -2.203 -2.163 -2.143 -2.178 -2.143 -2.173 -2.211 -2.191 -2.173 -2.221 -2.216 -2.153 -2.201 -2.223 -2.238 -2.261 -2.268 -2.213 -2.096 -2.228 -2.213 -2.186 -2.241 -2.253 -2.261 -2.213 -2.258 -2.216 -2.126 -2.148 -2.143 -2.176 -2.171
-2.238 -2.198 -2.198 -2.226 -2.201 -1.866 -2.188 -2.253 -2.248 -1.866 -1.806 -1.748 -1.915 -1.824 -1.819 -1.949 -2.313 -2.226 -2.173 -1.923 -1.94 -1.915 -2.216 -2.246 -2.181 -1.897 -1.843 -1.609 -1.844 -1.865 -2.246 -2.258 -1.941 -1.599 -1.25 -1.252 -1.302 -1.356 -1.531 -1.605 -1.849 -1.93 -1.939 -1.77 -1.56 -1.391 -1.331 -1.218 -1.117 -0.992 -1.3 -1.653 -1.953 -2.231 -2.236 -2.193 -1.899 -1.605 -1.3 -1.077 -0.733 -0.383 -0.088 0.216 0.211 -0.11 -0.387 -0.687 -1.012 -1.268 -1.54 -1.764 -1.893 -2.228 -2.198 -1.914 -1.94 -2.218 -2.243 -1.903 -1.85 -1.584 -1.267 -1.001 -0.697 -0.421 -0.11 0.292 0.515 0.785 1.045 1.436 1.662 2.061 2.299 2.259 2.264 2.297 2.212 2.324 2.204 2.339 2.359 2.267 2.269 2.314 2.312 2.392 2.302 2.264 2.279 2.277 2.347 2.292 2.269 2.344 2.229 2.289 2.257 2.254 2.237 2.189 2.214 2.299 2.244 2.284 2.204 2.282 2.327 2.289 2.299 2.292 2.347 2.307 2.319 2.337 2.302 2.244 2.219 2.257 2.279 2.262 2.257 2.267 2.277 2.239 2.259 2.252 2.257 2.242 2.254 2.232 2.282 2.242 2.289 2.227 2.249 2.259 2.264 2.237 2.252 2.229 2.217 2.264 2.204 2.209 2.142 2.149 2.152 2.202 2.232 2.234 2.247 2.284 2.302 2.317 2.272 2.224 2.287 2.252 2.234 2.294 2.254 2.259 2.227 2.242 2.287 2.294 2.242 2.232 2.267 2.307 2.257 2.272 2.249 2.187 2.202 2.182 2.242 2.204 2.209 2.217 2.244 2.267 2.287 2.274 2.254 2.244 2.299 2.249 2.302 2.314 2.274 2.297 2.319 2.252 2.239 2.264 2.219 2.239 2.244 2.242 2.314 2.272 2.289 2.324 2.242 2.297 2.254 2.239 2.269 2.232 2.247 2.204 2.217 2.169 2.244 2.257 2.239 2.254 2.239 2.224 2.227 2.244 2.264 2.267 2.304 2.224 2.222 2.307 2.319 2.272 2.252 2.199 2.192 1.929 1.651 1.464 1.016 0.715 0.521 0.152 -0.093 -0.325 -0.708 -1.021 -1.343 -1.763 -1.867 -2.188 -2.293 -2.316 -1.961 -1.84 -1.991 -2.313 -1.954 -1.658 -1.33 -1.031 -0.748 -0.788 -0.931 -1.117 2.467 2.429 2.244 -1.291 -1.116 -1.015 -0.795 -0.47 -0.359 -0.607 -0.982 -1.313 -1.569 -1.815 -2.004 -1.997 -1.876 -1.767 -1.536 -1.615 -1.577 -1.852 -1.952 -2.273 -2.271 -2.266 -1.873 -2.213 -9999 -9999 -2.221 -2.231 -2.233 -1.921 -2.236 -2.218 -2.181 -2.216 -2.178 -2.186 -2.078 -2.151 -9999 -9999 -2.283 -2.266 -2.313 -2.241 -2.248 -2.256 -2.281 -2.268 -2.243 -2.236 -1.94 -1.929 -2.211 -2.181 -2.201 -2.181 -2.216 -2.246 -2.226 -2.178 -2.203 -2.223 -2.276 -2.251 -2.221 -2.211 -2.178 -2.261 -2.191 -2.223 -2.283 -2.173 -2.163 -2.241 -2.158 -2.211 -2.143 -2.256 -2.268 -2.198 -2.153 -2.196 -2.231 -2.233 -2.266 -2.278 -2.188 -2.168 -2.193 -2.181 -2.218 -2.216 -2.226 -2.193 -2.231 -2.168 -2.208 -2.188 -2.211 -2.163 -2.191 -2.198 -2.221 -2.223 -2.191 -2.198 -2.253 -2.228 -2.228 -2.291 -2.168 -2.226 -2.241 -2.153 -2.213 -2.226 -2.313 -2.201 -2.201 -2.231 -2.193 -2.256 -2.118 -2.261 -2.243 -2.173 -2.153 -2.161 -2.231 -2.221 -2.236 -2.191 -2.223 -2.268 -2.193 -2.148 -2.128 -2.161 -2.133 -2.198 -2.151 -2.196 -2.181 -2.233 -2.193 -2.221 -2.238 -2.113 -2.221 -2.228 -2.143 -2.216 -2.256 -2.216 -2.318 -2.253 -2.216 -2.138 -2.173 -2.193 -2.198 -2.238 -2.233 -2.221 -2.196 -2.236 -2.133 -2.088 -2.123 -2.143 -2.171 -2.161
-2.223 -2.166 -2.213 -2.261 -2.218 -2.251 -2.193 -2.168 -2.246 -1.956 -1.623 -1.474 -1.61 -1.571 -1.663 -1.892 -2.253 -2.288 -2.231 -1.948 -1.684 -1.91 -2.206 -2.213 -2.228 -2.178 -1.918 -1.576 -1.545 -1.773 -1.884 -1.984 -1.84 -1.538 -1.212 -1.369 -1.561 -1.613 -1.769 -1.888 -1.86 -1.664 -1.575 -1.496 -1.358 -1.585 -1.594 -1.571 -1.378 -1.161 -1.307 -1.557 -1.784 -2.002 -1.913 -1.868 -1.731 -1.503 -1.254 -1.01 -0.73 -0.369 -0.034 0.216 0.245 -0.012 -0.281 -0.608 -0.877 -1.188 -1.41 -1.54 -1.74 -1.916 -1.922 -1.799 -1.787 -1.891 -1.912 -1.79 -1.628 -1.393 -1.13 -0.911 -0.666 -0.359 0.008 0.334 0.532 0.813 1.168 1.594 1.81 2.066 2.344 2.299 2.262 2.292 2.279 2.309 2.297 2.294 2.232 2.274 2.289 2.297 2.347 2.352 2.269 2.302 2.312 2.334 2.332 2.284 2.229 2.179 2.267 2.292 2.257 2.214 2.242 2.229 2.237 2.227 2.257 2.242 2.254 2.329 2.279 2.294 2.324 2.299 2.279 2.259 2.332 2.332 2.259 2.239 2.257 2.289 2.272 2.272 2.237 2.257 2.204 2.252 2.229 2.262 2.297 2.242 2.327 2.252 2.234 2.244 2.297 2.267 2.262 2.257 2.242 2.242 2.229 2.227 2.204 2.217 2.169 2.169 2.162 2.119 2.189 2.239 2.274 2.284 2.284 2.294 2.352 2.222 2.262 2.234 2.244 2.202 2.319 2.289 2.229 2.262 2.212 2.229 2.234 2.284 2.277 2.237 2.289 2.299 2.267 2.234 2.252 2.207 2.149 2.209 2.197 2.177 2.194 2.224 2.274 2.277 2.364 2.249 2.244 2.269 2.254 2.294 2.227 2.257 2.237 2.244 2.269 2.269 2.252 2.264 2.282 2.262 2.234 2.219 2.194 2.289 2.302 2.279 2.302 2.259 2.234 2.317 2.232 2.224 2.234 2.274 2.182 2.207 2.229 2.194 2.244 2.217 2.167 2.309 2.217 2.182 2.249 2.247 2.304 2.212 2.444 2.297 2.287 2.259 2.269 2.204 2.207 1.92 1.594 1.341 1.001 0.74 0.478 0.242 -0.123 -0.396 -0.692 -0.959 -1.37 -1.771 -1.765 -1.903 -1.922 -1.936 -1.779 -1.899 -2.213 -2.333 -1.982 -1.648 -1.369 -1.031 -0.725 -0.948 -1.104 2.279 2.339 2.284 -1.615 -1.526 -1.347 -1.175 -0.951 -0.724 -0.655 -0.717 -1.037 -1.33 -1.66 -1.999 -2.321 -2.263 -2.241 -1.934 -1.801 -1.95 -1.818 -1.911 -2.303 -1.981 -2.218 -1.968 -2.243 -2.286 -9999 -2.216 -9999 -2.329 -1.985 -1.772 -1.9 -2.213 -2.151 -2.198 -2.151 -2.213 -2.208 -9999 -9999 -9999 -2.326 -2.228 -2.266 -2.176 -2.286 -2.306 -1.952 -2.261 -2.276 -1.926 -1.932 -2.168 -2.143 -2.128 -2.251 -2.271 -2.216 -2.158 -2.211 -2.233 -2.206 -2.221 -2.211 -2.216 -2.238 -2.198 -2.143 -2.223 -2.273 -2.198 -2.221 -2.238 -2.253 -2.198 -2.208 -2.131 -2.151 -2.233 -2.256 -2.208 -2.168 -2.176 -2.173 -2.208 -2.303 -2.266 -2.248 -2.223 -2.201 -2.173 -2.136 -2.191 -2.181 -2.208 -2.251 -2.158 -2.213 -2.226 -2.143 -2.171 -2.173 -2.158 -2.171 -2.228 -2.178 -2.226 -2.271 -2.241 -2.173 -2.208 -2.178 -2.171 -2.178 -2.211 -2.191 -2.161 -2.336 -2.236 -2.178 -2.281 -2.213 -2.263 -2.226 -2.223 -2.196 -2.171 -2.181 -2.213 -2.238 -2.228 -2.228 -2.171 -2.191 -2.213 -2.238 -2.203 -2.148 -2.136 -2.196 -2.133 -2.198 -2.221 -2.203 -2.233 -2.216 -2.148 -2.173 -2.066 -2.153 -2.146 -2.191 -2.208 -2.238 -2.248 -2.263 -2.251 -2.176 -2.171 -2.231 -2.216 -2.198 -2.203 -2.243 -2.218 -2.181 -2.186 -2.113 -2.158 -2.181 -2.186 -2.121 -2.193
-2.161 -2.241 -1.97 -2.226 -2.223 -1.955 -2.263 -2.326 -2.236 -1.898 -1.599 -1.582 -1.587 -1.627 -1.818 -1.92 -2.218 -2.286 -2.288 -1.949 -1.659 -1.738 -1.88 -2.278 -2.246 -2.276 -1.868 -1.601 -1.554 -1.613 -1.584 -1.678 -1.6 -1.314 -1.282 -1.481 -1.807 -1.94 -1.949 -2.201 -1.963 -1.677 -1.349 -1.233 -1.524 -1.817 -1.937 -1.779 -1.553 -1.388 -1.091 -1.373 -1.531 -1.661 -1.605 -1.583 -1.47 -1.362 -1.047 -0.853 -0.606 -0.264 -0.032 0.238 0.369 0.108 -0.189 -0.51 -0.729 -0.951 -1.111 -1.317 -1.543 -1.603 -1.592 -1.546 -1.558 -1.636 -1.642 -1.561 -1.461 -1.176 -0.931 -0.762 -0.499 -0.222 0.097 0.377 0.646 0.923 1.185 1.533 1.818 2.096 2.352 2.337 2.282 2.262 2.289 2.309 2.257 2.227 2.284 2.219 2.259 2.279 2.279 2.257 2.302 2.294 2.299 2.279 2.287 2.264 2.197 2.219 2.192 2.217 2.244 2.284 2.279 2.279 2.229 2.257 2.264 2.219 2.229 2.282 2.264 2.277 2.277 2.254 2.289 2.272 2.284 2.262 2.254 2.209 2.247 2.257 2.254 2.302 2.249 2.227 2.239 2.237 2.277 2.244 2.292 2.252 2.259 2.239 2.217 2.272 2.297 2.262 2.289 2.279 2.224 2.272 2.219 2.197 2.207 2.202 2.164 2.164 2.209 2.192 2.277 2.249 2.259 2.244 2.254 2.317 2.267 2.257 2.319 2.264 2.249 2.264 2.247 2.289 2.269 2.247 2.277 2.264 2.289 2.259 2.274 2.277 2.247 2.252 2.264 2.302 2.252 2.169 2.157 2.244 2.217 2.187 2.239 2.227 2.239 2.289 2.324 2.264 2.289 2.242 2.274 2.322 2.202 2.257 2.242 2.247 2.272 2.274 2.274 2.277 2.254 2.224 2.227 2.244 2.224 2.287 2.344 2.282 2.307 2.319 2.272 2.242 2.224 2.159 2.267 2.219 2.222 2.289 2.239 2.234 2.242 2.252 2.242 2.304 2.232 2.117 2.247 2.212 2.259 2.269 2.284 2.299 2.297 2.289 2.217 2.264 2.267 1.958 1.701 1.406 1.11 0.782 0.58 0.26 -0.033 -0.311 -0.574 -0.84 -1.198 -1.458 -1.57 -1.587 -1.623 -1.635 -1.534 -1.793 -1.914 -2.283 -1.963 -1.611 -1.378 -1.037 -0.907 -1.183 -1.392 -1.553 -1.787 -1.93 -1.909 -1.778 -1.554 -1.322 -1.072 -1.031 -1.004 -0.934 -1.032 -1.312 -1.651 -1.99 -2.303 -2.268 -2.278 -1.945 -1.892 -9999 2.297 -2.263 -2.346 -2.218 -1.961 -1.972 -2.233 -2.258 -2.193 -9999 -9999 -2.381 -2.012 -1.965 -2.333 -2.271 -2.163 -2.213 -1.909 -2.298 -2.256 -9999 -9999 -9999 -2.406 -2.338 -2.253 -2.196 -2.281 -2.286 -2.231 -2.216 -1.996 -2.251 -1.879 -2.168 -2.158 -2.173 -2.243 -2.316 -2.251 -2.218 -2.273 -2.266 -2.228 -2.271 -2.253 -2.183 -2.258 -2.196 -2.148 -2.258 -2.288 -2.288 -2.271 -2.223 -2.171 -2.141 -2.223 -2.216 -2.253 -9999 -2.191 -2.183 -2.146 -2.191 -2.173 -2.158 -2.271 -2.218 -2.228 -2.261 -2.153 -2.108 -2.163 -2.186 -2.211 -2.228 -2.181 -2.261 -2.203 -2.341 -2.131 -2.136 -2.123 -2.063 -2.093 -2.171 -2.121 -2.221 -2.226 -2.246 -2.186 -2.248 -2.246 -2.143 -2.151 -2.216 -2.166 -2.148 -2.271 -2.163 -2.168 -2.253 -2.183 -2.238 -2.166 -2.283 -2.141 -2.158 -2.143 -2.193 -2.176 -2.278 -2.228 -2.171 -2.181 -2.233 -2.281 -2.186 -2.171 -2.141 -2.176 -2.171 -2.211 -2.243 -2.248 -2.203 -2.208 -2.126 -2.166 -2.198 -2.191 -2.151 -2.171 -2.226 -2.178 -2.208 -2.236 -2.226 -2.148 -2.148 -2.203 -2.196 -2.233 -2.243 -2.211 -2.243 -2.166 -2.231 -2.166 -2.178 -2.151 -2.171 -2.218 -2.216
-2.196 -2.236 -2.336 -1.919 -1.924 -2.211 -2.251 -2.233 -1.953 -1.814 -1.952 -1.877 -1.913 -1.956 -1.99 -2.231 -2.206 -2.243 -2.258 -1.947 -1.662 -1.649 -1.915 -2.246 -2.263 -2.258 -1.894 -1.638 -1.831 -1.915 -1.761 -1.528 -1.379 -1.353 -1.466 -1.7 -1.921 -2.191 -2.173 -2.233 -1.925 -1.817 -1.549 -1.289 -1.663 -1.979 -2.191 -1.875 -1.815 -1.535 -1.269 -1.174 -1.226 -1.34 -1.302 -1.254 -1.191 -1.066 -0.876 -0.701 -0.465 -0.14 0.124 0.367 0.515 0.208 -0.028 -0.331 -0.499 -0.724 -0.92 -1.113 -1.222 -1.32 -1.286 -1.233 -1.308 -1.292 -1.317 -1.278 -1.203 -0.965 -0.729 -0.508 -0.347 -0.111 0.183 0.505 0.761 1.027 1.279 1.618 1.855 2.196 2.282 2.349 2.357 2.304 2.302 2.279 2.284 2.297 2.272 2.304 2.332 2.274 2.272 2.362 2.327 2.299 2.252 2.254 2.309 2.239 2.212 2.222 2.227 2.172 2.194 2.257 2.282 2.322 2.267 2.289 2.287 2.254 2.282 2.239 2.284 2.267 2.234 2.254 2.264 2.342 2.322 2.254 2.252 2.197 2.249 2.244 2.302 2.314 2.262 2.247 2.247 2.264 2.227 2.284 2.257 2.297 2.259 2.244 2.284 2.284 2.337 2.299 2.292 2.254 2.247 2.229 2.189 2.219 2.229 2.222 2.187 2.144 2.199 2.227 2.199 2.262 2.239 2.237 2.282 2.257 2.272 2.324 2.407 2.322 2.284 2.249 2.229 2.262 2.244 2.229 2.212 2.229 2.267 2.234 2.247 2.282 2.204 2.229 2.262 2.262 2.232 2.234 2.257 2.224 2.197 2.219 2.254 2.267 2.374 2.259 2.277 2.269 2.269 2.227 2.237 2.257 2.207 2.302 2.252 2.282 2.227 2.237 2.294 2.292 2.264 2.224 2.207 2.202 2.292 2.242 2.289 2.244 2.307 2.289 2.237 2.229 2.259 2.217 2.307 2.292 2.204 2.209 2.202 2.194 2.219 2.142 2.217 2.264 2.289 2.209 2.297 2.269 2.299 2.294 2.282 2.292 2.224 2.197 2.207 2.259 2.224 2.016 1.749 1.514 1.183 0.878 0.671 0.338 0.131 -0.152 -0.499 -0.776 -1.017 -1.179 -1.286 -1.299 -1.318 -1.293 -1.346 -1.578 -1.871 -2.012 -1.851 2.174 2.227 -1.041 -1.006 -1.312 -1.611 -1.812 -1.891 -2.168 -2.223 -1.819 -1.557 -1.336 -1.357 -1.3 -1.27 -1.211 -1.086 -1.378 -1.652 -1.921 -2.218 -2.316 -2.273 -1.903 -2.161 -9999 -9999 2.334 -1.969 -1.936 -1.803 -1.883 -2.226 -2.256 -2.163 -1.879 -9999 -2.241 -2.163 -1.901 -2.231 -2.243 -2.233 -2.241 -1.961 -2.351 -2.221 -2.168 -2.196 -2.269 -2.283 -2.296 -2.311 -2.248 -2.276 -2.313 -2.228 -1.954 -2.281 -2.326 -2.288 -2.226 -2.146 -2.166 -2.208 -2.276 -2.266 -2.271 -2.306 -2.218 -2.241 -2.208 -2.191 -2.226 -2.318 -2.256 -2.198 -2.273 -2.308 -2.236 -2.208 -2.208 -2.136 -2.126 -2.193 -2.281 -2.256 -9999 -9999 -2.158 -2.163 -2.196 -2.141 -2.211 -2.253 -2.208 -2.261 -2.286 -2.193 -2.153 -2.203 -2.253 -2.323 -2.281 -2.206 -2.216 -2.276 -2.248 -2.206 -2.141 -2.216 -2.206 -2.148 -2.168 -2.168 -2.206 -2.233 -2.258 -2.206 -2.216 -2.208 -2.178 -2.183 -2.191 -2.091 -2.181 -2.256 -2.231 -2.193 -2.176 -2.198 -2.236 -2.196 -2.251 -2.231 -2.218 -2.228 -2.246 -2.166 -2.271 -2.173 -2.161 -2.218 -2.186 -2.266 -2.198 -2.118 -2.143 -2.206 -2.148 -2.171 -2.298 -2.271 -2.203 -2.221 -2.111 -2.223 -2.163 -2.193 -2.178 -2.206 -2.211 -2.206 -2.236 -2.263 -2.153 -2.161 -2.178 -2.181 -2.201 -2.206 -2.228 -2.191 -2.258 -2.168 -2.266 -2.183 -2.181 -2.206 -2.116 -2.231 -2.201
-2.163 -2.258 -2.286 -1.882 -1.794 -1.925 -2.236 -2.211 -1.928 -1.916 -2.238 -2.238 -2.183 -2.231 -2.291 -2.198 -2.146 -2.203 -1.919 -1.771 -1.478 -1.515 -1.759 -1.921 -1.9 -1.873 -1.805 -1.829 -1.957 -2.221 -1.886 -1.539 -1.663 -1.627 -1.592 -1.827 -2.218 -2.226 -2.181 -2.223 -2.241 -1.939 -1.601 -1.616 -1.678 -1.959 -2.176 -2.183 -1.953 -1.598 -1.331 -1.143 -0.942 -1.043 -1.004 -0.974 -0.937 -0.783 -0.668 -0.505 -0.253 -0.002 0.24 0.492 0.658 0.387 0.175 -0.125 -0.364 -0.541 -0.712 -0.857 -0.937 -0.979 -0.987 -0.976 -0.999 -1.039 -1.02 -0.995 -0.895 -0.753 -0.555 -0.366 -0.109 0.127 0.368 0.627 0.886 1.091 1.384 1.679 1.925 2.224 2.377 2.422 2.462 2.342 2.347 2.322 2.314 2.277 2.222 2.254 2.329 2.272 2.262 2.397 2.252 2.259 2.239 2.272 2.299 2.177 2.207 2.189 2.179 2.197 2.209 2.249 2.272 2.254 2.259 2.197 2.272 2.262 2.259 2.254 2.324 2.314 2.302 2.277 2.319 2.277 2.284 2.267 2.272 2.252 2.254 2.217 2.234 2.224 2.272 2.307 2.244 2.309 2.277 2.262 2.282 2.264 2.267 2.262 2.254 2.277 2.259 2.272 2.327 2.244 2.264 2.229 2.207 2.199 2.274 2.289 2.234 2.177 2.162 2.139 2.217 2.229 2.244 2.272 2.279 2.272 2.262 2.312 2.267 2.237 2.239 2.222 2.242 2.257 2.192 2.257 2.257 2.232 2.217 2.219 2.219 2.229 2.249 2.232 2.259 2.247 2.247 2.277 2.222 2.222 2.209 2.219 2.212 2.224 2.254 2.234 2.302 2.257 2.257 2.259 2.257 2.287 2.267 2.292 2.254 2.324 2.262 2.239 2.267 2.267 2.247 2.204 2.262 2.204 2.222 2.252 2.294 2.237 2.327 2.322 2.337 2.262 2.202 2.189 2.272 2.244 2.214 2.162 2.189 2.219 2.247 2.312 2.274 2.224 2.239 2.269 2.304 2.364 2.329 2.287 2.262 2.307 2.249 2.237 2.212 2.217 2.259 2.153 1.824 1.635 1.316 0.995 0.748 0.442 0.211 -0.1 -0.332 -0.572 -0.78 -0.959 -0.932 -1.022 -1.023 -0.927 -1.074 -1.43 -1.633 -1.661 -1.608 2.242 -1.262 -0.94 -1.038 -1.307 -1.589 -1.868 -2.231 -2.268 -2.206 -1.872 -1.587 -1.533 -1.714 -1.696 -1.579 -1.421 -1.204 -1.327 -1.594 -1.801 -1.909 -1.963 -2.303 -1.909 -2.188 -2.139 -9999 -9999 -2.186 -2.326 -1.929 -2.313 -2.296 -2.311 -1.938 -1.917 -2.238 -9999 -9999 -9999 -2.176 -2.096 -2.173 -2.208 -2.171 -2.283 -2.296 -2.223 -2.208 -2.231 -2.296 -2.328 -2.263 -2.163 -2.233 -2.173 -2.213 -2.228 -2.241 -2.313 -2.311 -2.191 -2.151 -2.146 -2.161 -2.231 -2.231 -2.203 -2.263 -2.228 -2.256 -2.153 -2.098 -2.211 -2.268 -2.206 -2.201 -2.231 -2.186 -2.136 -2.218 -2.281 -2.166 -2.173 -2.143 -2.263 -2.219 -9999 -9999 -2.149 -2.136 -2.153 -2.211 -2.251 -2.241 -2.246 -2.198 -2.253 -2.126 -2.138 -2.206 -2.236 -2.256 -2.151 -2.241 -2.243 -2.203 -2.253 -2.208 -2.198 -2.183 -2.198 -2.198 -2.196 -2.223 -2.221 -2.218 -2.256 -2.296 -2.218 -2.251 -2.146 -2.268 -2.258 -2.156 -2.188 -2.266 -2.163 -2.201 -2.256 -2.228 -2.256 -2.216 -2.193 -2.153 -2.203 -2.241 -2.141 -2.206 -2.188 -2.191 -2.178 -2.228 -2.216 -2.203 -2.153 -2.131 -2.146 -2.191 -2.146 -2.133 -2.243 -2.286 -2.231 -2.228 -2.206 -2.213 -2.158 -2.113 -2.153 -2.176 -2.166 -2.171 -2.253 -2.276 -2.203 -2.193 -2.168 -2.226 -2.183 -2.206 -2.218 -2.248 -2.261 -2.218 -2.228 -2.148 -2.206 -2.126 -2.163 -2.241 -2.213
-2.173 -2.328 -1.985 -1.788 -1.655 -1.782 -1.936 -1.968 -1.947 -1.926 -2.241 -2.228 -2.146 -2.266 -2.291 -2.163 -2.153 -1.898 -2.243 -1.883 -1.62 -1.296 -1.471 -1.616 -1.602 -1.629 -1.585 -1.907 -2.228 -2.216 -1.921 -1.701 -1.901 -1.921 -1.74 -1.751 -1.915 -1.921 -2.196 -2.223 -2.216 -1.909 -1.887 -1.921 -1.887 -1.801 -1.876 -2.198 -1.929 -1.61 -1.535 -1.418 -1.133 -0.904 -0.726 -0.677 -0.659 -0.527 -0.384 -0.235 -0.079 0.162 0.362 0.635 0.777 0.568 0.345 0.14 -0.116 -0.328 -0.485 -0.557 -0.665 -0.714 -0.697 -0.664 -0.702 -0.698 -0.714 -0.696 -0.629 -0.477 -0.311 -0.119 0.188 0.329 0.596 0.805 0.995 1.287 1.551 1.807 2.07 2.322 2.427 2.402 2.327 2.319 2.304 2.289 2.289 2.259 2.262 2.262 2.259 2.312 2.289 2.362 2.344 2.297 2.314 2.319 2.259 2.124 2.252 2.234 2.242 2.217 2.212 2.252 2.224 2.284 2.264 2.199 2.219 2.297 2.232 2.262 2.274 2.264 2.279 2.287 2.327 2.294 2.274 2.287 2.242 2.279 2.232 2.247 2.249 2.267 2.267 2.284 2.252 2.244 2.312 2.274 2.247 2.259 2.277 2.269 2.262 2.287 2.292 2.284 2.304 2.259 2.232 2.227 2.194 2.189 2.232 2.219 2.187 2.184 2.189 2.209 2.214 2.222 2.282 2.257 2.232 2.232 2.234 2.252 2.249 2.184 2.239 2.222 2.259 2.254 2.254 2.257 2.237 2.292 2.244 2.222 2.209 2.247 2.239 2.222 2.212 2.239 2.252 2.192 2.222 2.222 2.204 2.224 2.219 2.152 2.242 2.247 2.257 2.307 2.274 2.269 2.267 2.202 2.219 2.219 2.294 2.192 2.262 2.249 2.229 2.299 2.254 2.234 2.272 2.202 2.252 2.242 2.262 2.307 2.304 2.249 2.267 2.209 2.182 2.197 2.187 2.217 2.242 2.144 2.192 2.269 2.289 2.309 2.334 2.189 2.274 2.264 2.299 2.344 2.322 2.232 2.262 2.344 2.282 2.182 2.232 2.219 2.207 2.189 1.937 1.685 1.407 1.049 0.89 0.595 2.322 2.344 -0.021 -0.286 -0.461 -0.634 -0.716 -0.749 -0.755 -0.629 -0.814 -1.094 -1.289 -1.385 -1.36 -1.215 -0.994 -0.731 -1 -1.236 -1.49 -1.694 -1.879 -1.921 -1.938 -1.804 -1.623 -1.78 -1.981 -1.953 -1.774 -1.584 -1.413 -1.139 -1.361 -1.519 -1.609 -1.848 -1.938 -1.81 -1.981 -2.223 -1.872 -1.825 -2.121 -2.211 -1.974 -2.321 -2.361 -2.286 -2.273 -2.281 -2.311 -9999 -9999 -9999 -2.173 -2.093 -2.116 -9999 -9999 -2.249 -2.256 -2.221 -2.211 -2.208 -2.258 -2.303 -2.321 -2.263 -2.261 -2.161 -2.136 -2.211 -2.261 -2.298 -2.256 -2.218 -2.201 -2.176 -2.203 -2.236 -2.211 -2.183 -2.153 -2.158 -2.196 -9999 -9999 -2.266 -2.256 -2.198 -2.176 -2.226 -2.231 -2.166 -2.176 -2.256 -2.286 -2.188 -2.171 -2.238 -2.216 -2.196 -2.259 -2.188 -2.198 -2.133 -2.256 -2.248 -2.266 -2.211 -2.251 -2.256 -2.096 -2.013 -2.171 -2.211 -2.168 -2.213 -2.291 -2.271 -2.133 -2.146 -2.156 -2.208 -2.188 -2.166 -2.153 -2.183 -2.181 -2.188 -2.248 -2.183 -2.221 -2.296 -2.241 -2.173 -2.263 -2.238 -2.131 -2.203 -2.221 -2.186 -2.246 -2.273 -2.273 -2.213 -2.241 -2.176 -2.156 -2.166 -2.116 -2.183 -2.183 -2.276 -2.216 -2.226 -2.278 -2.256 -2.193 -2.208 -2.128 -2.166 -2.193 -2.098 -2.166 -2.193 -2.243 -2.191 -2.256 -2.238 -2.196 -2.128 -2.096 -2.098 -2.146 -2.223 -2.161 -2.283 -2.276 -2.231 -2.241 -2.158 -2.228 -2.121 -2.166 -2.191 -2.256 -2.261 -2.178 -2.163 -2.201 -2.251 -2.193 -2.163 -2.253 -2.178
-2.156 -2.266 -1.931 -1.954 -1.915 -1.807 -1.948 -1.929 -2.241 -2.263 -2.238 -2.266 -2.201 -2.211 -2.296 -2.198 -2.223 -2.248 -2.233 -1.997 -1.679 -1.299 -1.196 -1.313 -1.301 -1.269 -1.536 -1.771 -1.955 -1.883 -1.863 -1.879 -2.273 -2.273 -1.876 -1.743 -1.591 -1.785 -1.909 -2.246 -2.178 -2.263 -2.236 -2.236 -1.957 -1.755 -1.866 -1.931 -1.965 -1.903 -1.75 -1.542 -1.311 -0.994 -0.699 -0.383 -0.384 -0.281 -0.206 -0.042 0.2 0.37 0.579 0.817 1.002 0.782 0.53 0.293 0.162 -0.031 -0.192 -0.273 -0.393 -0.408 -0.389 -0.373 -0.42 -0.42 -0.413 -0.426 -0.358 -0.181 -0.024 0.117 0.37 0.592 0.838 0.986 1.24 1.443 1.759 1.976 2.208 2.289 2.277 2.322 2.394 2.322 2.282 2.292 2.267 2.257 2.277 2.259 2.264 2.329 2.259 2.277 2.319 2.299 2.257 2.312 2.292 2.247 2.252 2.262 2.249 2.192 2.254 2.269 2.184 2.249 2.217 2.269 2.287 2.247 2.302 2.262 2.262 2.317 2.304 2.344 2.309 2.297 2.304 2.269 2.277 2.284 2.217 2.249 2.237 2.239 2.234 2.299 2.257 2.272 2.272 2.262 2.254 2.304 2.284 2.262 2.304 2.292 2.284 2.242 2.257 2.269 2.237 2.197 2.179 2.204 2.192 2.217 2.199 2.189 2.192 2.219 2.249 2.229 2.274 2.277 2.319 2.229 2.242 2.214 2.254 2.259 2.252 2.184 2.207 2.229 2.264 2.257 2.229 2.237 2.237 2.247 2.229 2.242 2.249 2.234 2.232 2.259 2.274 2.232 2.222 2.194 2.202 2.244 2.229 2.287 2.262 2.222 2.272 2.277 2.267 2.284 2.262 2.282 2.257 2.242 2.307 2.272 2.227 2.249 2.162 2.312 2.232 2.267 2.212 2.237 2.317 2.269 2.297 2.224 2.259 2.297 2.239 2.234 2.194 2.247 2.229 2.229 2.214 2.189 2.184 2.217 2.247 2.302 2.279 2.207 2.272 2.342 2.317 2.349 2.224 2.259 2.209 2.257 2.259 2.289 2.412 2.217 2.319 2.334 2.071 1.788 1.553 1.301 1.025 0.808 2.264 2.244 0.114 -0.058 -0.179 -0.342 -0.403 -0.379 -0.467 -0.534 -0.648 -0.841 -1.011 -1.091 -1.035 -0.917 -0.778 -0.631 -0.914 -1.159 -1.331 -1.537 -1.672 -1.712 -1.868 -1.863 -1.943 -1.92 -2.273 -2.371 -1.97 -1.826 -1.555 -1.306 -1.066 -1.248 -1.387 -1.659 -1.698 -1.919 -2.208 -2.168 -2.163 -1.928 -1.859 -1.938 -1.831 -1.983 -2.251 -2.146 -2.211 -2.293 -2.341 -2.319 -9999 -9999 -2.146 -2.193 -2.133 -9999 -9999 -2.266 -2.266 -2.226 -2.183 -9999 -2.233 -2.221 -9999 -2.168 -2.103 -2.178 -2.193 -9999 -9999 -9999 -2.281 -2.246 -2.186 -2.178 -2.193 -2.221 -2.233 -2.183 -2.216 -2.251 -2.181 -9999 -9999 -2.339 -2.276 -2.206 -2.236 -2.286 -2.298 -2.273 -2.213 -2.273 -2.233 -2.248 -2.246 -2.281 -2.213 -2.156 -2.168 -2.213 -2.246 -2.168 -2.281 -2.328 -2.281 -2.221 -2.161 -2.268 -2.201 -2.091 -2.151 -2.168 -2.261 -2.188 -2.226 -2.266 -2.193 -2.256 -2.263 -2.223 -2.176 -2.201 -2.193 -2.123 -2.161 -2.228 -2.248 -2.173 -2.186 -2.223 -2.183 -2.208 -2.288 -2.238 -2.093 -2.203 -2.176 -2.218 -2.193 -2.273 -2.198 -2.208 -2.261 -2.198 -2.163 -2.126 -2.148 -2.163 -2.181 -2.248 -2.171 -2.193 -2.238 -2.213 -2.231 -2.223 -2.203 -2.158 -2.156 -2.111 -2.146 -2.233 -2.203 -2.228 -2.213 -2.231 -2.206 -2.183 -2.208 -2.183 -2.163 -2.243 -2.198 -2.211 -2.291 -2.188 -2.231 -2.221 -2.121 -2.251 -2.251 -2.216 -2.221 -2.291 -2.173 -2.193 -2.231 -2.298 -2.248 -2.211 -2.268 -2.233
-1.883 -1.961 -1.982 -2.241 -2.173 -1.933 -2.213 -2.251 -2.216 -2.206 -2.273 -2.246 -2.183 -1.948 -2.353 -2.218 -2.271 -2.208 -1.939 -1.9 -1.631 -1.244 -0.934 -1.016 -1.055 -1.141 -1.364 -1.495 -1.647 -1.907 -2.193 -2.206 -2.281 -2.218 -2.131 -1.858 -1.593 -1.892 -2.218 -2.256 -2.171 -2.231 -2.286 -2.218 -2.238 -1.883 -2.181 -2.236 -2.226 -2.203 -1.935 -1.613 -1.353 -1.042 -0.711 -0.431 -0.13 -0.009 0.106 0.279 0.472 0.554 0.79 0.958 1.061 0.903 0.753 0.523 0.376 0.202 0.097 -0.031 -0.095 -0.164 -0.15 -0.081 -0.079 -0.153 -0.148 -0.12 -0.037 0.064 0.208 0.386 0.57 0.821 1.06 1.23 1.445 1.602 1.756 2.13 2.284 2.277 2.269 2.259 2.337 2.327 2.317 2.227 2.197 2.194 2.227 2.262 2.259 2.307 2.284 2.274 2.314 2.277 2.279 2.242 2.294 2.292 2.284 2.257 2.247 2.237 2.267 2.339 2.254 2.199 2.287 2.292 2.322 2.264 2.309 2.249 2.234 2.264 2.299 2.314 2.309 2.307 2.297 2.309 2.257 2.247 2.257 2.229 2.259 2.232 2.222 2.269 2.299 2.289 2.302 2.244 2.272 2.272 2.292 2.297 2.257 2.262 2.317 2.269 2.237 2.207 2.209 2.222 2.219 2.209 2.217 2.257 2.164 2.192 2.197 2.224 2.237 2.257 2.262 2.279 2.232 2.279 2.284 2.239 2.307 2.247 2.257 2.259 2.224 2.222 2.154 2.224 2.234 2.237 2.222 2.227 2.189 2.252 2.212 2.229 2.277 2.292 2.269 2.297 2.222 2.212 2.212 2.274 2.294 2.244 2.282 2.222 2.244 2.262 2.279 2.264 2.239 2.244 2.219 2.252 2.189 2.234 2.227 2.252 2.237 2.232 2.217 2.187 2.257 2.237 2.239 2.309 2.329 2.317 2.274 2.277 2.239 2.269 2.282 2.254 2.264 2.202 2.189 2.189 2.292 2.209 2.257 2.277 2.199 2.262 2.242 2.302 2.237 2.252 2.289 2.267 2.219 2.302 2.157 2.229 2.307 2.302 2.309 2.289 2.266 1.903 1.638 1.425 1.143 0.982 0.742 0.513 0.315 0.18 0.032 -0.137 -0.135 -0.066 -0.125 -0.282 -0.426 -0.602 -0.733 -0.773 -0.673 -0.632 -0.494 -0.453 -0.743 -0.933 -1.126 -1.292 -1.329 -1.703 -1.898 -2.136 -2.248 -1.892 -2.306 -2.393 -2.286 -1.878 -1.614 -1.356 -1.007 -0.995 -1.128 -1.318 -1.64 -1.837 -2.136 -2.173 -2.258 -1.976 -1.839 -1.94 -1.886 2.357 -2.191 -2.136 -2.196 -2.296 -2.288 -2.266 -9999 -2.296 -2.288 -2.153 -2.218 -2.273 -2.271 -2.308 -2.323 -2.246 -9999 -9999 -2.216 -2.233 -9999 -9999 -9999 -2.119 -2.258 -2.273 -9999 -2.271 -2.268 -2.211 -2.296 -2.283 -2.226 -2.191 -2.228 -2.338 -2.226 -2.233 -2.166 -2.223 -2.268 -2.268 -2.118 -2.243 -2.251 -2.251 -2.278 -2.241 -2.226 -2.216 -2.226 -2.268 -2.251 -2.291 -2.208 -2.158 -2.181 -2.271 -2.273 -2.136 -2.233 -2.276 -2.291 -2.223 -2.223 -2.316 -2.088 -2.068 -2.173 -2.231 -2.206 -2.196 -2.181 -2.196 -2.188 -2.283 -2.308 -2.233 -2.206 -2.168 -2.151 -2.136 -2.203 -2.191 -2.198 -2.183 -2.261 -2.273 -2.148 -2.278 -2.206 -2.093 -2.158 -2.151 -2.188 -2.166 -2.166 -2.243 -2.236 -2.221 -2.216 -2.181 -2.183 -2.156 -2.191 -2.183 -2.246 -2.201 -2.233 -2.238 -2.211 -2.211 -2.193 -2.286 -2.241 -2.191 -2.168 -2.111 -2.126 -2.261 -2.203 -2.201 -2.246 -2.206 -2.156 -2.188 -2.156 -2.191 -2.171 -2.226 -2.193 -2.196 -2.216 -2.208 -2.171 -2.218 -2.123 -2.263 -2.248 -2.253 -2.256 -2.218 -2.116 -2.156 -2.253 -2.203 -2.211 -2.188 -2.196 -2.276
-2.193 -2.308 -2.288 -2.273 -2.243 -2.281 -2.298 -2.211 -2.251 -2.183 -2.196 -2.191 -2.196 -1.95 -1.985 -2.218 -2.198 -2.231 -2.281 -2.04 -1.655 -1.27 -1.163 -1.318 -1.344 -1.277 -1.541 -1.76 -1.9 -1.934 -2.191 -2.191 -2.298 -2.233 -1.865 -1.704 -1.828 -1.89 -2.251 -2.281 -2.168 -2.211 -1.972 -2.223 -1.92 -1.867 -2.221 -2.176 -2.208 -1.891 -1.748 -1.553 -1.291 -1.032 -0.655 -0.413 -0.1 0.36 0.452 0.505 0.682 0.794 0.956 1.12 1.309 1.147 0.986 0.832 0.661 0.471 0.408 0.317 0.188 0.161 0.168 0.19 0.192 0.158 0.163 0.23 0.272 0.387 0.518 0.658 0.961 1.024 1.242 1.418 1.67 1.848 2.131 2.277 2.242 2.232 2.299 2.329 2.334 2.314 2.257 2.302 2.204 2.159 2.219 2.254 2.279 2.322 2.274 2.212 2.272 2.267 2.239 2.247 2.254 2.234 2.199 2.229 2.259 2.257 2.317 2.297 2.257 2.287 2.279 2.354 2.314 2.249 2.262 2.297 2.342 2.227 2.272 2.299 2.272 2.282 2.324 2.272 2.282 2.337 2.244 2.252 2.237 2.249 2.274 2.254 2.252 2.259 2.277 2.307 2.289 2.279 2.247 2.254 2.262 2.282 2.227 2.292 2.277 2.249 2.272 2.207 2.227 2.167 2.214 2.187 2.164 2.179 2.199 2.192 2.234 2.242 2.287 2.264 2.227 2.257 2.229 2.264 2.302 2.274 2.242 2.212 2.219 2.279 2.224 2.227 2.224 2.234 2.177 2.219 2.254 2.252 2.239 2.269 2.252 2.182 2.247 2.262 2.229 2.212 2.229 2.229 2.289 2.269 2.242 2.204 2.239 2.249 2.262 2.267 2.202 2.239 2.274 2.244 2.182 2.232 2.242 2.227 2.264 2.279 2.189 2.252 2.252 2.282 2.247 2.314 2.362 2.302 2.237 2.229 2.219 2.239 2.237 2.247 2.277 2.247 2.164 2.184 2.237 2.279 2.269 2.267 2.267 2.309 2.242 2.262 2.222 2.282 2.279 2.214 2.257 2.409 2.252 2.284 2.332 2.252 2.284 2.279 2.192 2.179 1.919 1.621 1.401 1.186 0.937 0.757 0.573 0.442 0.334 0.158 0.234 0.208 0.132 0.017 -0.114 -0.293 -0.383 -0.512 -0.669 -0.764 -0.731 -0.631 -0.628 -0.631 -0.832 -1.019 -1.322 -1.637 -1.922 -2.191 -2.188 -2.291 -2.278 -2.023 -2.026 -1.76 -1.508 -1.241 -1.113 -1.324 -1.373 -1.308 -1.561 -1.78 -1.891 -2.256 -2.208 -1.948 -2.006 -2.236 -9999 2.281 -1.951 -1.917 -2.231 -2.233 -2.238 -2.201 -2.213 -2.261 -2.231 -2.236 -9999 -9999 -9999 -2.248 -2.226 -2.198 -2.243 -2.248 -2.266 -2.203 -9999 -9999 -9999 -9999 -2.188 -2.323 -2.238 -2.181 -2.203 -2.231 -2.238 -2.228 -2.218 -2.203 -2.183 -2.271 -2.186 -2.201 -2.193 -2.251 -2.211 -2.186 -2.096 -2.166 -2.243 -2.208 -2.241 -2.266 -2.188 -2.261 -2.228 -2.196 -2.191 -2.233 -2.221 -2.216 -2.181 -2.256 -2.236 -2.133 -2.208 -2.223 -2.228 -2.203 -2.223 -2.268 -2.128 -2.101 -2.133 -2.231 -2.221 -2.201 -2.216 -2.218 -2.136 -2.243 -2.296 -2.201 -2.281 -2.193 -2.206 -2.218 -2.221 -2.291 -2.206 -2.156 -2.256 -2.271 -2.166 -2.208 -2.183 -2.181 -2.263 -2.246 -2.138 -2.126 -2.181 -2.241 -2.246 -2.198 -2.226 -2.191 -2.221 -2.138 -2.156 -2.218 -2.173 -2.198 -2.266 -2.226 -2.256 -2.228 -2.201 -2.266 -2.243 -2.196 -2.166 -2.161 -2.123 -2.186 -2.271 -2.226 -2.258 -2.226 -2.226 -2.163 -2.173 -2.146 -2.181 -2.128 -2.241 -2.246 -2.241 -2.166 -2.148 -2.161 -2.138 -2.276 -2.258 -2.188 -2.283 -2.236 -2.123 -2.151 -2.271 -2.213 -2.176 -2.176 -2.206 -2.243
