ncols 433
nrows 31
xllcorner    455096
yllcorner    89154
cellsize     2
NODATA_value -9999
24.001 23.956 23.904 23.829 23.744 23.646 23.566 23.494 23.421 23.381 23.354 23.304 23.281 23.314 23.329 23.341 23.291 23.349 23.446 24.246 25.491 24.171 23.576 23.204 23.214 23.449 23.576 23.934 23.441 23.806 23.743 23.342 23.952 24.508 23.77 24.926 23.964 23.418 23.929 23.52 23.734 24.998 23.949 26.074 27.106 30.383 35.048 33.144 24.161 24.068 27.467 33.192 32.319 28.208 36.442 23.751 24.1 26.069 31.371 32.142 27.737 28.57 25.256 24.896 23.825 24.343 24.417 26.633 24.4 27.559 33.699 32.636 34.156 24.354 24.371 24.391 24.381 24.546 24.594 25.426 25.299 26.561 25.476 25.629 25.044 25.044 26.066 25.434 27.754 33.009 34.171 34.476 37.261 35.894 32.069 30.019 28.934 26.829 25.633 25.626 25.507 25.525 25.507 25.382 25.462 25.574 25.625 28.015 27.769 25.744 25.512 25.475 25.464 26.053 25.793 25.612 31.951 36.433 35.975 30.333 28.967 25.945 27.921 25.518 25.965 31.976 37.356 41.26 48.074 46.983 36.202 30.248 36.343 41.914 43.936 44.554 48.107 48.612 41.436 45.543 48.442 45.642 40.418 34.406 29.861 31.359 26.654 26.186 27.476 27.371 25.746 25.681 25.651 25.644 25.676 25.666 25.664 25.671 25.671 25.689 25.709 25.726 25.749 25.766 25.756 25.771 25.744 25.756 25.736 25.726 25.696 25.686 25.734 25.716 25.751 25.736 25.739 25.706 25.689 25.691 25.676 25.679 25.676 25.679 25.664 25.644 25.631 25.599 25.611 25.594 25.604 25.589 25.559 25.526 25.506 25.501 25.474 25.429 25.399 25.366 25.341 25.324 25.259 25.206 25.176 25.139 25.109 25.069 25.016 24.996 24.921 24.859 24.854 24.806 24.766 24.711 24.659 24.659 24.606 24.559 24.511 24.484 24.419 24.384 24.334 24.306 24.241 24.204 24.166 24.139 24.134 24.081 24.026 23.996 23.974 23.951 23.921 23.854 23.809 23.759 23.739 23.694 23.689 23.639 23.614 23.604 23.559 23.544 23.486 23.429 23.384 23.366 23.356 23.306 23.991 23.436 22.894 22.924 22.919 22.831 22.764 22.699 22.656 22.636 22.584 22.496 22.434 22.381 22.314 22.249 22.164 22.126 22.071 22.014 21.934 21.836 21.926 22.951 22.684 21.849 21.391 21.326 21.299 21.286 21.264 21.191 21.139 21.074 20.994 20.869 20.761 20.701 20.614 20.531 20.426 20.379 20.354 20.306 20.261 20.139 20.021 19.949 19.874 19.764 19.689 19.656 19.591 19.521 19.456 19.349 19.304 19.274 19.206 19.134 19.064 19.001 18.906 18.884 18.816 18.764 18.711 18.646 18.561 18.466 18.346 18.236 18.116 17.999 17.896 17.774 17.636 17.501 17.366 17.214 17.096 17.009 16.844 16.706 16.571 16.401 16.294 16.176 16.066 15.929 15.794 15.686 15.521 15.391 15.236 15.139 15.016 14.876 14.759 14.666 14.539 14.416 14.294 14.161 14.044 13.956 13.874 13.761 13.601 13.536 15.736 15.154 14.131 16.746 15.896 19.409 22.119 19.014 15.746 14.536 14.771 15.829 21.629 19.751 27.156 27.009 28.574 21.809 16.176 16.304 16.434 24.536 33.176 31.911 31.446 19.546 17.754 17.699 17.786 18.051 18.189 19.046 31.774 26.904 18.301 19.009 19.221 18.626 18.756 18.846 19.146 22.634 23.879 26.306 22.386 19.379 19.484 19.491 20.179 19.694 21.599 20.021 20.029 20.124 20.276 20.224 20.311 20.666 20.589 23.724 24.661 28.596 22.584 26.401 21.131 21.144 21.404 21.304 26.954
24.131 24.076 24.031 23.929 23.841 23.744 23.649 23.581 23.511 23.441 23.449 23.464 23.376 23.439 23.464 23.459 23.454 23.484 24.024 24.024 23.379 23.331 23.384 23.274 23.346 24.366 23.649 23.399 23.414 23.451 23.503 23.392 23.458 24.481 26.969 24.542 23.512 23.564 23.57 23.613 24.511 26.076 27.238 29.956 28.348 27.923 31.724 30.532 29.703 29.191 32.163 34.329 30.521 29.524 29.746 23.736 29.477 30.311 29.314 33.632 25.46 31.141 31.794 25.593 24.658 26.782 24.232 24.354 24.269 24.795 27.896 25.801 26.409 24.796 24.454 24.401 24.599 24.604 24.621 26.239 29.561 33.121 29.111 25.609 27.291 24.976 25.421 25.494 26.951 36.256 37.844 37.694 37.534 35.611 35.411 34.806 33.454 30.151 26.447 25.464 25.687 25.452 25.483 25.419 25.541 25.547 25.449 26.063 29.093 25.709 25.547 25.778 26.425 25.988 25.631 25.715 26.431 27.45 25.758 26.02 25.62 25.59 28.452 25.639 26.032 29.058 37.201 39.968 41.938 40.483 39.045 36.045 38.247 43.992 45.93 45.614 47.577 47.719 45.403 45.334 43.581 41.566 32.776 34.984 30.011 27.019 26.039 26.589 26.654 25.984 25.841 25.764 25.706 25.679 25.729 25.704 25.741 25.716 25.751 25.766 25.796 25.821 25.806 25.801 25.814 25.826 25.811 25.804 25.801 25.764 25.759 25.756 25.779 25.784 25.779 25.789 25.791 25.781 25.766 25.799 25.786 25.794 25.784 25.764 25.739 25.734 25.754 25.731 25.714 25.711 25.656 25.636 25.606 25.619 25.609 25.544 25.529 25.489 25.449 25.406 25.399 25.344 25.331 25.319 25.256 25.251 25.191 25.126 25.084 25.046 24.976 24.934 24.891 24.881 24.826 24.766 24.719 24.654 24.631 24.569 24.521 24.494 24.466 24.454 24.399 24.361 24.289 24.254 24.234 24.234 24.196 24.156 24.109 24.059 24.014 23.991 23.941 23.874 23.854 23.814 23.806 23.749 23.749 23.684 23.661 23.644 23.601 23.584 23.544 23.474 23.439 23.394 23.379 23.319 23.781 23.944 23.034 22.934 22.916 22.856 22.794 22.739 22.666 22.619 22.569 22.491 22.449 22.416 22.326 22.271 22.214 22.149 22.091 22.009 21.949 22.174 22.954 23.219 21.876 21.484 21.416 21.389 21.389 21.359 21.271 21.206 21.156 21.069 20.974 20.869 20.776 20.681 20.626 20.556 20.454 20.379 20.326 20.294 20.251 20.161 20.016 19.921 19.889 19.789 19.719 19.659 19.599 19.526 19.426 19.391 19.366 19.281 19.214 19.146 19.086 19.006 18.941 18.899 18.849 18.824 18.729 18.631 18.531 18.446 18.329 18.221 18.116 18.006 17.876 17.761 17.611 17.484 17.354 17.251 17.129 16.974 16.844 16.671 16.546 16.416 16.299 16.194 16.044 15.934 15.829 15.659 15.516 15.381 15.246 15.106 14.974 14.866 14.754 14.654 14.514 14.374 14.264 14.139 14.059 13.979 13.914 13.749 13.591 14.706 16.174 13.976 14.684 15.749 18.639 17.056 17.854 15.566 15.449 14.584 14.779 17.136 21.461 18.694 22.749 23.406 18.889 16.131 16.281 16.334 16.536 20.264 27.924 30.651 32.459 21.809 17.621 17.811 19.944 18.561 18.131 19.689 26.229 24.634 24.936 18.964 18.721 18.799 18.981 19.091 19.151 27.016 29.864 32.749 22.576 19.464 19.531 19.589 20.236 22.931 30.454 21.914 20.239 20.336 20.431 20.384 20.524 20.709 20.769 20.926 20.939 21.006 21.154 21.194 21.274 21.276 21.179 21.294 21.384
24.234 24.181 24.124 24.039 23.936 23.874 23.756 23.689 23.579 23.484 23.524 23.551 23.576 23.546 23.559 23.491 23.541 24.401 24.719 23.491 23.379 23.489 23.496 23.434 23.406 23.496 23.361 23.394 23.654 23.549 23.658 23.558 24.132 28.544 26.463 24.102 23.622 23.609 23.693 23.851 24.532 29.394 32.142 26.142 24.591 36.802 39.624 31.945 30.614 31.776 36.002 34.039 30.502 25.071 23.789 23.744 24.109 28.935 33.608 30.515 27.281 32.468 29.537 25.424 26.486 26.951 26.409 29.6 27.79 24.238 30.739 36.776 26.369 24.326 24.361 24.484 24.441 24.526 24.554 25.399 25.151 27.241 28.359 25.094 32.976 24.959 24.964 25.981 27.606 33.136 34.524 35.541 36.514 35.811 34.119 36.471 35.619 35.779 26.566 25.619 25.497 25.503 25.62 25.462 25.555 25.583 25.65 25.537 25.455 25.789 25.584 25.754 31.543 26.358 25.783 25.649 25.659 25.659 25.598 25.651 25.655 25.694 25.722 28.628 26.119 36.638 39.652 39.83 39.806 38.818 38.013 37.855 40.908 43.769 44.382 46.486 46.823 46.964 48.415 47.324 45.368 29.663 28.885 29.069 26.189 26.016 27.629 28.694 27.021 25.934 25.856 25.856 25.779 25.774 25.774 25.799 25.814 25.816 25.831 25.831 25.849 25.864 25.859 25.841 25.871 25.906 25.854 25.874 25.866 25.844 25.829 25.811 25.841 25.856 25.834 25.899 25.899 25.896 25.896 25.879 25.869 25.896 25.891 25.859 25.874 25.824 25.821 25.774 25.761 25.761 25.746 25.694 25.691 25.636 25.614 25.619 25.591 25.529 25.479 25.454 25.429 25.411 25.394 25.386 25.316 25.299 25.269 25.199 25.121 25.081 25.019 24.996 24.921 24.879 24.839 24.804 24.764 24.729 24.679 24.636 24.629 24.584 24.539 24.486 24.419 24.389 24.321 24.294 24.289 24.279 24.264 24.214 24.144 24.074 24.054 24.011 23.996 23.974 23.921 23.906 23.881 23.824 23.796 23.729 23.711 23.699 23.629 23.609 23.559 23.519 23.466 23.456 23.439 23.366 23.589 24.474 23.629 22.986 22.926 22.904 22.821 22.756 22.664 22.609 22.559 22.519 22.469 22.426 22.356 22.284 22.219 22.149 22.066 22.036 22.546 23.406 22.851 21.794 21.534 21.486 21.474 21.456 21.429 21.351 21.284 21.244 21.166 21.084 21.001 20.909 20.811 20.711 20.661 20.579 20.444 20.381 20.329 20.281 20.286 20.189 20.076 19.924 19.866 19.791 19.719 19.669 19.584 19.489 19.491 19.429 19.379 19.311 19.219 19.149 19.094 19.046 19.001 18.959 18.906 18.824 18.726 18.629 18.526 18.424 18.354 18.251 18.111 17.994 17.854 17.739 17.611 17.491 17.379 17.251 17.084 16.939 16.789 16.676 16.531 16.404 16.291 16.161 16.064 15.931 15.799 15.649 15.484 15.374 15.201 15.046 14.924 14.846 14.719 14.626 14.461 14.324 14.196 14.129 14.051 13.989 13.896 13.734 13.574 16.014 16.014 14.536 14.496 14.584 13.394 15.131 16.586 17.299 14.339 14.704 17.736 19.939 17.959 16.604 16.669 15.776 16.469 17.016 16.359 16.396 16.626 17.011 19.154 19.544 20.926 17.596 17.856 17.874 18.371 18.121 18.339 18.386 18.749 22.651 26.579 22.056 18.806 18.939 19.169 19.159 23.709 27.106 26.751 31.826 19.991 28.334 28.729 22.301 26.211 24.434 32.531 31.396 23.551 20.441 23.934 27.014 20.629 20.669 20.801 21.946 21.026 21.051 21.106 21.194 21.396 21.401 21.284 25.636 25.684
24.336 24.271 24.224 24.129 24.024 23.976 23.846 23.776 23.704 23.604 24.081 23.739 23.624 23.616 23.656 24.369 25.594 24.879 23.616 23.466 24.651 25.166 23.509 23.551 23.554 23.589 23.596 23.584 23.604 23.794 23.861 23.839 26.092 26.615 23.782 23.675 23.7 23.794 24.119 23.748 23.773 25.248 30.022 26.544 24.788 26.759 34.308 29.469 33.321 36.655 36.625 37.098 24.148 26.964 24.934 23.891 29.15 34.794 32.009 34.019 26.534 26.238 25.722 25.861 28.369 29.397 26.374 27.791 25.262 24.336 32.114 31.436 29.734 24.359 24.796 24.606 25.104 27.614 24.521 33.311 27.044 29.676 29.411 30.116 24.921 24.874 24.981 25.136 25.129 26.581 28.826 29.619 37.749 37.499 30.384 38.844 38.149 36.618 25.514 25.544 25.517 25.593 25.613 25.537 25.586 25.699 25.74 25.636 25.577 25.802 25.705 28.039 33.901 33.43 29.717 25.829 25.646 25.699 25.654 25.634 25.735 25.72 26.14 31.457 35.829 39.583 42.144 40.821 38.369 34.96 37.842 38.187 40.831 44.441 44.672 48.015 47.282 47.622 47.797 49.839 47.837 32.689 26.656 26.186 25.976 26.641 26.766 30.571 31.259 25.981 25.906 25.891 25.871 25.859 25.841 25.851 25.851 25.861 25.871 25.866 25.889 25.904 25.924 25.906 25.914 25.909 25.919 25.914 25.919 25.909 25.906 25.901 25.911 25.916 25.939 25.989 25.986 25.951 25.954 25.944 25.979 25.996 25.969 25.934 25.936 25.909 25.864 25.849 25.801 25.801 25.789 25.729 25.764 25.704 25.649 25.621 25.656 25.611 25.586 25.549 25.536 25.506 25.454 25.419 25.391 25.361 25.294 25.234 25.181 25.119 25.064 24.999 24.966 24.934 24.909 24.866 24.851 24.824 24.764 24.716 24.654 24.616 24.581 24.516 24.481 24.454 24.391 24.364 24.326 24.306 24.279 24.266 24.214 24.164 24.134 24.109 24.091 24.051 23.991 23.961 23.921 23.899 23.841 23.804 23.756 23.724 23.681 23.634 23.606 23.549 23.491 23.441 23.456 23.424 23.394 24.381 24.181 23.111 22.916 22.894 22.899 22.801 22.711 22.659 22.581 22.564 22.476 22.444 22.369 22.301 22.214 22.156 22.134 22.796 23.526 22.984 21.729 21.634 21.586 21.561 21.531 21.521 21.426 21.374 21.314 21.254 21.154 21.091 20.996 20.929 20.861 20.736 20.661 20.601 20.474 20.356 20.291 20.276 20.254 20.184 20.104 19.974 19.874 19.806 19.721 19.676 19.609 19.554 19.501 19.464 19.409 19.316 19.239 19.166 19.116 19.076 19.041 18.994 18.904 18.839 18.726 18.621 18.516 18.436 18.334 18.221 18.114 17.964 17.854 17.744 17.631 17.504 17.366 17.209 17.051 16.921 16.766 16.649 16.489 16.379 16.296 16.181 16.071 15.914 15.751 15.619 15.464 15.346 15.189 15.051 14.936 14.821 14.651 14.534 14.421 14.321 14.236 14.146 14.049 13.999 13.871 13.691 13.601 14.189 15.294 13.851 16.311 15.701 14.606 14.466 20.059 13.919 14.249 14.654 14.639 17.989 20.594 15.539 15.999 16.239 16.761 18.214 16.416 16.579 16.884 17.076 17.281 17.386 17.556 17.731 17.914 18.009 18.199 18.389 18.586 18.536 18.709 18.759 22.024 18.911 18.966 18.996 19.119 19.331 24.504 21.924 21.584 26.034 19.566 30.144 30.466 28.254 28.419 24.329 26.651 34.281 28.834 22.694 28.909 29.001 23.331 20.861 20.929 21.014 22.866 22.671 21.861 21.536 21.666 21.341 21.281 29.721 29.789
24.431 24.371 24.299 24.214 24.156 24.056 23.954 23.894 23.839 23.819 26.194 27.781 23.694 32.229 24.289 24.441 25.261 23.939 23.819 23.609 25.721 28.831 23.584 23.646 23.669 23.604 23.579 23.701 23.749 23.749 23.771 24.062 24.326 24.43 23.722 23.733 23.84 24.102 24.786 24.118 23.901 25.943 26.78 32.608 26.282 32.991 32.498 33.153 36.663 34.948 38.365 38.327 38.305 38.269 33.829 33.724 27.951 31.692 30.738 30.438 25.094 26.046 27.703 25.855 29.482 26.005 26.323 25.092 24.259 24.257 26.649 29.086 25.266 24.981 24.496 24.481 24.651 28.719 24.554 26.216 26.234 29.031 29.614 29.071 24.939 24.929 25.041 25.411 25.574 25.319 25.354 28.554 39.474 37.149 39.081 36.196 33.572 26.863 25.552 25.552 25.556 26.917 25.866 25.564 25.591 25.779 25.704 25.638 25.487 25.797 26.411 28.519 36.889 39.084 38.82 27.371 29.451 29.944 27.004 25.749 25.738 26.159 29.712 34.035 44.02 45.723 44.703 34.77 32.05 36.362 37.914 39.307 43.607 48.039 47.454 47.514 46.97 48.311 43.153 46.534 41.611 29.186 26.186 26.349 26.066 27.229 26.331 27.976 26.114 26.019 25.971 25.929 25.921 25.924 25.901 25.909 25.866 25.896 25.921 25.919 25.944 25.986 25.981 25.966 25.979 25.991 26.014 26.009 26.006 26.031 25.996 25.996 26.009 26.009 26.026 26.061 26.079 26.089 26.076 26.049 26.059 26.009 26.016 25.991 25.974 25.946 25.909 25.901 25.879 25.881 25.809 25.809 25.791 25.776 25.736 25.736 25.706 25.691 25.654 25.606 25.589 25.549 25.489 25.466 25.414 25.386 25.344 25.281 25.224 25.169 25.131 25.079 25.044 25.011 24.984 24.959 24.939 24.861 24.789 24.784 24.736 24.684 24.649 24.596 24.554 24.519 24.436 24.431 24.364 24.321 24.306 24.299 24.264 24.234 24.206 24.176 24.111 24.099 24.049 24.006 23.946 23.916 23.889 23.839 23.794 23.744 23.704 23.661 23.609 23.546 23.516 23.504 23.481 23.441 23.391 23.676 24.494 23.701 22.919 22.934 22.896 22.814 22.739 22.671 22.624 22.564 22.499 22.434 22.379 22.299 22.224 22.319 23.104 23.666 22.939 21.801 21.731 21.679 21.669 21.629 21.584 21.521 21.476 21.404 21.324 21.241 21.189 21.094 20.979 20.929 20.871 20.769 20.666 20.599 20.449 20.319 20.279 20.244 20.241 20.216 20.134 20.036 19.891 19.806 19.711 19.664 19.626 19.556 19.501 19.466 19.406 19.336 19.234 19.209 19.136 19.116 19.074 19.031 18.889 18.811 18.709 18.601 18.526 18.411 18.324 18.204 18.121 17.994 17.839 17.721 17.606 17.469 17.321 17.176 17.019 16.886 16.784 16.614 16.489 16.381 16.281 16.191 16.034 15.886 15.751 15.586 15.446 15.334 15.146 15.031 14.901 14.761 14.589 14.484 14.406 14.339 14.261 14.179 14.054 13.964 13.861 13.689 13.596 14.361 13.966 16.549 17.056 13.414 16.701 13.849 16.844 13.981 14.409 14.644 16.226 23.071 21.409 16.571 15.926 20.419 18.449 16.431 16.479 16.791 17.549 17.129 17.319 17.481 17.684 17.919 18.016 18.099 18.254 18.979 18.431 18.604 18.789 19.034 19.931 20.559 19.049 19.219 19.229 19.356 19.454 20.801 21.246 22.249 21.039 21.654 23.574 23.586 27.411 21.126 20.349 31.836 30.751 24.474 26.329 27.459 26.394 20.914 21.004 21.154 25.246 27.836 25.341 21.264 29.406 26.456 21.376 31.466 29.639
24.491 24.441 24.394 24.301 24.231 24.136 24.059 24.004 23.971 23.916 24.951 25.714 29.541 26.214 25.946 24.714 23.841 27.124 23.789 23.816 23.751 29.646 23.736 23.709 23.784 23.736 23.749 23.791 23.934 24.014 24.006 23.961 25.14 24.735 23.768 23.857 25.608 27.366 27.821 23.93 24.549 28.679 32.623 27.556 25.833 29.075 29.329 31.643 36.127 32.359 36.846 34.417 39.026 39.429 40.048 40.318 34.259 31.297 25.537 33.864 31.045 28.129 31.541 27.332 32.018 26.498 27.011 24.332 24.254 24.373 25.429 34.079 28.539 30.144 25.229 26.339 28.394 24.709 26.049 26.754 24.836 25.104 25.696 25.049 25.001 25.376 33.671 33.851 25.284 25.389 25.459 26.174 31.984 31.426 36.229 36.874 32.632 25.899 25.526 25.63 25.564 30.467 27.232 25.648 25.545 25.768 26.254 26.843 26.163 25.849 31.512 37.281 43.403 45.146 42.762 32.034 40.612 41.016 39.168 29.341 26.799 29.096 36.484 41.851 45.9 50.079 44.392 34.314 34.223 36.906 40.047 40.905 44.018 48.389 46.282 38.976 40.272 41.191 36.347 37.786 37.199 34.716 27.099 26.081 26.626 26.954 26.469 28.176 26.126 26.031 26.001 25.996 25.976 25.936 25.936 25.951 25.946 25.949 25.984 26.006 25.991 26.026 26.034 26.046 26.064 26.069 26.109 26.104 26.116 26.119 26.101 26.084 26.129 26.119 26.161 26.161 26.166 26.156 26.129 26.101 26.074 26.059 26.041 26.049 26.011 25.994 25.964 25.941 25.944 25.926 25.879 25.881 25.896 25.859 25.831 25.809 25.781 25.749 25.716 25.664 25.604 25.574 25.536 25.494 25.454 25.414 25.389 25.336 25.291 25.261 25.221 25.164 25.149 25.076 25.031 25.014 24.976 24.961 24.909 24.889 24.801 24.734 24.669 24.631 24.589 24.564 24.516 24.476 24.446 24.406 24.396 24.361 24.351 24.306 24.274 24.219 24.174 24.126 24.069 24.034 23.994 23.944 23.874 23.806 23.801 23.749 23.714 23.664 23.624 23.601 23.589 23.546 23.479 23.466 23.426 23.399 24.124 24.044 22.909 22.926 22.921 22.851 22.769 22.704 22.636 22.561 22.491 22.434 22.381 22.299 22.409 23.371 23.661 22.824 21.854 21.784 21.769 21.751 21.734 21.689 21.621 21.551 21.476 21.389 21.349 21.281 21.194 21.096 21.001 20.974 20.894 20.814 20.689 20.594 20.479 20.329 20.271 20.231 20.209 20.224 20.161 20.059 19.944 19.849 19.746 19.669 19.629 19.579 19.506 19.479 19.394 19.339 19.276 19.241 19.189 19.141 19.096 19.004 18.901 18.776 18.711 18.631 18.529 18.424 18.306 18.196 18.136 17.991 17.864 17.746 17.584 17.431 17.329 17.174 17.021 16.894 16.741 16.601 16.486 16.389 16.271 16.139 16.026 15.871 15.731 15.581 15.456 15.301 15.154 14.996 14.854 14.694 14.571 14.471 14.411 14.336 14.314 14.164 14.056 13.954 13.801 13.694 13.696 15.394 13.844 14.596 13.411 14.384 18.411 13.909 14.044 14.056 14.581 14.629 16.349 17.064 18.796 21.479 17.366 19.154 16.261 17.669 16.659 17.851 17.159 17.244 17.429 17.599 17.734 17.974 18.034 18.231 19.616 19.346 18.754 18.699 18.836 18.936 19.034 19.149 19.134 19.169 19.324 19.919 19.761 19.769 19.639 19.861 19.796 19.846 19.996 20.099 20.244 20.394 20.469 23.384 25.246 20.634 26.191 25.061 22.316 20.904 20.994 21.084 24.291 28.274 26.034 22.411 36.571 25.394 21.874 31.474 38.331
24.611 24.534 24.496 24.411 24.304 24.186 24.221 24.206 24.134 24.199 24.099 24.024 26.929 25.206 24.819 28.466 24.014 24.791 23.994 23.864 23.969 31.291 23.884 23.879 23.956 24.796 27.114 25.306 24.041 24.116 24.049 23.926 23.914 23.915 23.897 24.064 24.074 24.135 27.464 24.019 24.128 25.08 27.788 24.117 24.65 27.918 29.433 33.026 33.657 40.243 35.283 35.273 36.159 39.189 43.268 38.214 33.396 24.806 26.701 29.275 30.462 35.159 27.692 26.39 28.969 27.095 29.437 28.923 26.373 25.427 24.441 26.906 28.909 31.014 24.616 24.799 33.024 29.841 26.234 30.024 24.646 31.006 24.736 25.059 25.051 27.101 38.919 42.451 31.694 25.761 25.394 25.484 26.006 29.464 38.229 41.431 37.663 26.955 25.55 27.064 33.775 27.391 29.403 25.764 25.583 25.962 28.684 31.989 31.032 26.999 32.141 42.995 46.911 48.797 47.217 40.745 42.697 44.359 43.383 29.365 33.604 34.725 38.849 43.408 44.36 45.592 47.348 41.099 36.719 34.598 41.508 43.76 45.242 45.099 36.453 33.896 32.639 35.234 33.209 30.162 34.084 28.006 26.225 26.196 26.851 26.216 28.174 26.816 26.086 26.089 26.044 26.044 26.019 25.999 25.996 25.991 26.026 26.024 26.019 26.031 26.041 26.081 26.139 26.126 26.129 26.149 26.164 26.194 26.201 26.241 26.214 26.206 26.199 26.226 26.221 26.219 26.219 26.174 26.181 26.169 26.131 26.101 26.119 26.106 26.089 26.056 26.044 26.039 26.026 26.016 25.996 25.984 25.954 25.921 25.884 25.861 25.824 25.794 25.719 25.689 25.661 25.604 25.611 25.564 25.549 25.464 25.449 25.436 25.399 25.349 25.326 25.281 25.211 25.154 25.129 25.064 25.059 25.019 24.951 24.911 24.856 24.801 24.729 24.699 24.669 24.629 24.604 24.551 24.516 24.499 24.421 24.404 24.389 24.349 24.319 24.249 24.211 24.146 24.081 24.056 24.019 23.934 23.909 23.844 23.836 23.796 23.769 23.734 23.686 23.651 23.576 23.609 23.521 23.491 23.444 23.396 23.609 24.209 23.131 22.936 22.964 22.904 22.811 22.721 22.636 22.606 22.519 22.426 22.384 22.796 23.646 23.714 22.479 21.944 21.869 21.846 21.869 21.824 21.771 21.671 21.644 21.559 21.476 21.416 21.364 21.274 21.216 21.126 21.076 21.021 20.931 20.839 20.711 20.591 20.506 20.381 20.294 20.239 20.209 20.191 20.146 20.081 19.949 19.869 19.764 19.679 19.616 19.584 19.529 19.476 19.409 19.341 19.331 19.274 19.249 19.179 19.094 18.966 18.891 18.786 18.714 18.609 18.516 18.399 18.329 18.206 18.111 17.999 17.856 17.704 17.579 17.449 17.316 17.176 16.981 16.839 16.726 16.591 16.491 16.389 16.221 16.121 15.986 15.849 15.714 15.576 15.449 15.279 15.161 14.969 14.801 14.661 14.581 14.506 14.411 14.396 14.284 14.166 14.061 13.921 13.786 13.776 13.801 14.301 14.649 15.279 14.949 14.219 14.146 13.891 13.941 14.574 16.291 14.731 14.936 15.206 24.784 27.256 24.281 22.124 16.274 17.559 21.954 19.959 17.131 17.256 17.421 17.669 17.801 17.994 18.081 18.331 18.414 18.491 19.059 18.814 18.846 18.964 19.051 19.184 19.126 19.261 19.374 19.891 19.546 19.724 19.694 19.966 20.044 26.281 24.219 20.189 20.344 20.519 20.594 20.609 20.714 20.776 20.844 20.856 21.121 21.144 21.476 21.146 21.211 23.244 21.234 21.304 26.724 23.114 21.476 27.179 34.821
24.671 24.611 24.539 24.471 24.399 24.401 24.391 24.279 24.219 24.549 27.056 25.064 23.999 26.009 23.924 24.221 25.026 27.176 24.704 23.934 27.546 25.284 24.179 23.969 26.769 26.411 27.651 24.411 24.134 24.231 23.979 23.909 23.914 23.976 24.135 24.721 26.676 29.114 24.731 24.111 24.348 25.66 24.797 24.208 25.567 31.709 34.535 34.679 36.428 33.036 39.135 31.04 27.152 35.051 42.043 40.503 27.359 25.975 30.997 25.659 25.941 31.593 25.669 27.783 31.46 25.552 27.019 26.918 26.912 24.808 24.514 24.491 27.451 29.876 27.441 24.776 26.989 26.886 24.614 25.691 24.484 24.534 24.684 24.831 29.451 25.106 34.906 42.196 34.834 26.706 25.379 25.496 25.576 29.454 40.849 40.57 34.832 25.855 26.035 28.122 34.833 31.329 30.733 28.645 25.579 29.271 31.962 37.038 37.808 27.504 32.559 41.098 47.152 46.106 38.76 41.124 42.228 44.523 43.047 30.483 36.092 35.824 37.105 40.297 44.192 44.202 46.435 43.979 39.73 40.181 38.579 47.256 45.51 41.662 33.337 32.035 28.9 32.619 26.444 28.084 32.381 29.358 26.325 26.267 26.537 26.211 27.861 26.266 26.149 26.159 26.126 26.111 26.049 26.056 26.056 26.084 26.091 26.091 26.101 26.111 26.146 26.186 26.191 26.199 26.201 26.261 26.276 26.289 26.309 26.311 26.304 26.289 26.264 26.231 26.231 26.269 26.246 26.271 26.234 26.224 26.204 26.211 26.164 26.161 26.159 26.164 26.164 26.126 26.109 26.096 26.084 25.999 25.981 25.961 25.926 25.906 25.871 25.839 25.789 25.764 25.749 25.711 25.694 25.641 25.591 25.539 25.509 25.491 25.439 25.404 25.381 25.339 25.294 25.231 25.189 25.116 25.096 25.051 24.994 24.944 24.926 24.866 24.826 24.806 24.766 24.729 24.676 24.611 24.586 24.559 24.496 24.456 24.419 24.369 24.324 24.276 24.204 24.156 24.111 24.076 24.024 24.011 23.951 23.904 23.864 23.866 23.799 23.751 23.716 23.706 23.641 23.601 23.574 23.486 23.439 23.396 23.386 24.051 23.381 22.946 22.959 22.929 22.819 22.776 22.691 22.599 22.524 22.471 22.941 23.814 23.639 22.461 22.029 21.954 21.939 21.946 21.931 21.854 21.789 21.741 21.691 21.576 21.506 21.446 21.354 21.309 21.236 21.211 21.119 21.014 20.946 20.841 20.726 20.614 20.524 20.396 20.296 20.261 20.229 20.196 20.139 20.099 19.986 19.879 19.801 19.704 19.664 19.604 19.554 19.496 19.429 19.399 19.354 19.339 19.254 19.136 19.046 18.964 18.866 18.804 18.679 18.624 18.504 18.426 18.349 18.231 18.126 18.014 17.859 17.699 17.564 17.411 17.316 17.136 16.974 16.849 16.729 16.626 16.461 16.324 16.194 16.096 15.944 15.794 15.699 15.544 15.416 15.276 15.091 14.939 14.801 14.679 14.594 14.531 14.446 14.334 14.229 14.109 13.991 13.866 13.746 13.754 13.796 14.016 14.164 15.214 14.364 15.524 15.734 14.049 14.054 14.451 16.254 14.726 15.044 15.619 22.586 15.781 22.891 16.239 20.766 21.534 21.311 18.919 19.511 17.319 17.481 17.721 17.886 18.146 18.246 18.409 18.501 18.556 19.564 18.841 19.069 19.264 19.584 19.284 19.286 19.341 19.524 19.579 19.679 19.741 19.876 29.716 29.499 24.499 27.459 20.326 20.444 20.801 20.624 20.771 20.816 20.854 20.946 21.011 21.131 21.054 21.119 21.186 21.219 21.249 21.344 21.999 21.719 21.884 21.559 21.541 22.401
24.736 24.674 24.619 24.601 24.569 24.499 24.476 27.274 25.046 27.019 31.414 24.579 24.171 27.979 24.564 24.161 24.569 25.779 29.011 26.016 24.244 24.074 24.054 24.204 25.386 25.254 25.234 25.809 24.221 24.126 24.124 24.009 24.179 24.224 24.238 24.771 31.036 26.705 26.746 27.024 27.252 29.028 28.029 25.935 25.466 24.884 28.122 30.838 33.174 32.285 36.977 31.884 26.283 26.638 30.647 33.351 26.003 28.498 33.121 28.84 31.473 32.906 25.192 25.086 30.027 24.584 24.862 27.708 27.034 24.52 25.035 25.006 25.586 28.218 26.426 24.759 26.192 27.476 24.623 27.849 24.498 24.474 24.564 24.869 25.181 25.756 32.194 39.344 35.719 27.841 25.446 26.184 26.184 27.236 31.291 30.658 32.051 27.769 26.665 30.624 32.001 27.737 28.453 30.586 25.593 28.32 34.085 37.006 35.756 26.996 27.583 36.911 41.85 41.171 36.1 39.87 41.938 44.848 40.517 28.565 29.079 29.434 33.302 39.593 40.158 30.32 34.986 39.337 40.632 39.625 41.971 48.765 45.505 37.441 29.229 29.968 31.176 35.151 30.411 27.368 26.264 26.778 27.239 29.861 26.515 26.54 26.949 26.241 26.199 26.194 26.144 26.114 26.096 26.101 26.116 26.136 26.156 26.166 26.199 26.196 26.239 26.249 26.284 26.304 26.334 26.324 26.369 26.361 26.351 26.376 26.351 26.304 26.301 26.296 26.276 26.294 26.301 26.299 26.304 26.284 26.264 26.254 26.264 26.269 26.269 26.271 26.226 26.181 26.164 26.101 26.116 26.046 26.046 26.029 26.011 25.986 25.929 25.899 25.874 25.844 25.801 25.784 25.751 25.734 25.669 25.616 25.586 25.544 25.491 25.449 25.416 25.374 25.326 25.269 25.224 25.171 25.121 25.091 25.049 25.004 24.984 24.926 24.921 24.869 24.819 24.784 24.764 24.699 24.656 24.564 24.519 24.499 24.449 24.409 24.369 24.294 24.229 24.191 24.164 24.109 24.079 24.051 23.999 23.926 23.901 23.856 23.804 23.769 23.734 23.701 23.691 23.639 23.606 23.524 23.471 23.444 23.391 23.924 23.829 22.974 22.984 22.936 22.886 22.814 22.709 22.619 22.644 23.289 23.966 23.531 22.481 22.111 22.051 22.026 22.026 21.999 21.926 21.846 21.809 21.754 21.679 21.619 21.531 21.454 21.399 21.331 21.301 21.199 21.121 21.016 20.946 20.851 20.736 20.596 20.496 20.406 20.321 20.269 20.236 20.194 20.181 20.119 20.026 19.929 19.826 19.719 19.666 19.594 19.544 19.484 19.446 19.441 19.384 19.349 19.226 19.104 19.046 18.964 18.901 18.811 18.689 18.611 18.529 18.449 18.329 18.249 18.149 17.989 17.839 17.706 17.571 17.421 17.284 17.109 16.951 16.866 16.741 16.566 16.424 16.319 16.174 16.049 15.889 15.784 15.676 15.519 15.376 15.254 15.069 14.949 14.849 14.731 14.659 14.554 14.434 14.306 14.229 14.099 13.996 13.826 13.741 13.776 13.886 13.991 14.016 15.369 15.286 16.239 13.881 14.069 14.091 14.759 15.551 14.886 15.159 15.416 20.336 23.559 20.324 17.699 21.809 26.759 26.854 18.131 18.854 17.391 17.581 17.784 17.981 18.116 18.249 18.464 18.564 18.911 19.411 19.111 19.056 19.441 20.859 19.291 19.489 19.354 19.516 19.594 19.709 19.779 19.984 25.449 23.426 20.256 20.321 20.429 20.574 21.319 21.434 21.184 20.804 20.904 21.091 21.086 21.159 21.191 21.216 21.186 21.764 21.341 21.426 21.434 21.486 22.461 21.581 21.684 21.651
24.821 24.759 24.774 24.706 24.679 25.114 28.416 29.796 26.019 27.026 26.741 26.541 24.279 25.684 30.669 26.101 24.286 31.184 24.984 25.184 24.209 24.306 24.196 24.284 24.339 24.304 26.389 27.494 24.279 24.336 24.114 24.209 27.016 28.349 24.701 24.389 25.892 24.513 25.061 25.372 30.099 32.213 29.832 25.372 33.09 33.937 34.661 35.974 37.745 36.078 37.559 33.738 34.135 33.536 28.672 39.065 39.703 33.67 34.188 34.367 36.863 34.744 26.88 24.488 26.105 24.454 26.339 35.842 32.329 24.456 24.76 25.334 25.85 25.196 30.308 25.22 24.671 24.802 24.889 25.295 24.582 24.504 24.558 24.724 24.866 25.206 25.236 36.086 34.489 25.051 25.346 26.206 26.534 25.686 25.585 25.859 29.814 28.125 25.54 27.085 30.742 26.335 25.685 28.217 25.62 29.202 36.176 38.097 34.214 25.896 32.08 40.372 44.642 44.599 43.123 43.137 39.399 37.407 32.146 28.625 27.089 26.254 27.879 30.141 29.27 29.592 38.003 37.504 39.947 38.355 36.331 41.135 37.8 32.24 31.84 29.648 33.772 35.774 33.811 29.737 28.841 30.567 28.66 28.792 26.485 27.606 26.958 26.271 26.231 26.199 26.186 26.161 26.139 26.154 26.214 26.216 26.246 26.279 26.294 26.291 26.336 26.321 26.344 26.371 26.399 26.419 26.391 26.386 26.384 26.356 26.419 26.344 26.339 26.329 26.321 26.334 26.354 26.366 26.381 26.379 26.359 26.389 26.346 26.316 26.316 26.309 26.271 26.226 26.206 26.171 26.176 26.156 26.134 26.101 26.064 26.046 26.021 25.979 25.946 25.899 25.884 25.846 25.819 25.771 25.721 25.659 25.626 25.624 25.569 25.534 25.471 25.419 25.376 25.341 25.299 25.251 25.206 25.201 25.151 25.109 25.086 25.054 25.021 24.919 24.894 24.836 24.809 24.756 24.696 24.641 24.591 24.526 24.491 24.436 24.386 24.356 24.294 24.256 24.221 24.184 24.116 24.074 24.031 23.979 23.911 23.854 23.851 23.814 23.771 23.721 23.666 23.646 23.614 23.559 23.469 23.444 23.454 23.644 24.064 23.221 22.981 22.959 22.899 22.819 22.726 22.824 23.854 24.139 23.389 22.486 22.224 22.164 22.149 22.096 22.074 21.999 21.931 21.874 21.836 21.746 21.709 21.619 21.544 21.469 21.459 21.376 21.281 21.206 21.136 21.006 20.919 20.831 20.699 20.611 20.511 20.439 20.301 20.281 20.244 20.184 20.176 20.129 20.071 19.966 19.871 19.769 19.696 19.639 19.586 19.531 19.481 19.446 19.369 19.269 19.174 19.116 19.046 18.966 18.874 18.786 18.726 18.639 18.551 18.454 18.386 18.256 18.116 17.989 17.844 17.691 17.561 17.396 17.241 17.084 16.954 16.846 16.684 16.529 16.394 16.264 16.149 16.001 15.896 15.774 15.651 15.494 15.334 15.184 15.079 14.969 14.874 14.771 14.651 14.521 14.434 14.311 14.191 14.099 13.974 13.789 13.776 13.806 14.054 14.221 13.869 14.246 13.446 12.804 14.061 14.309 15.254 17.859 15.736 14.856 15.396 16.891 19.071 24.489 16.384 16.136 24.761 33.451 19.774 17.046 18.244 17.521 17.664 17.864 18.071 18.194 18.371 19.236 18.999 18.786 18.911 19.096 19.096 19.159 19.399 19.351 19.409 19.554 19.569 19.764 20.664 22.104 20.146 20.226 20.944 20.436 20.441 20.504 20.696 28.901 25.819 21.611 20.891 20.946 21.144 21.864 21.224 21.309 22.446 30.296 31.564 24.664 23.641 21.536 24.039 21.584 21.741 21.819 21.716
24.891 24.866 24.871 24.829 24.794 25.949 27.491 25.579 25.794 32.124 27.836 31.151 24.464 26.004 26.154 24.389 24.409 26.866 25.081 25.049 29.566 24.491 28.079 24.654 24.549 24.559 25.769 24.341 24.301 24.176 24.184 24.924 27.051 26.329 24.584 24.446 24.526 24.604 24.639 24.737 26.887 28.952 30.146 24.759 29.072 33.675 38.268 32.434 31.956 31.739 33.863 29.644 26.554 37.934 30.937 27.171 30.674 34.227 34.523 31.318 32.754 36.453 28.398 24.581 28.174 24.844 24.914 29.794 25.256 25.142 25.517 24.635 24.656 24.73 24.807 24.748 25.026 28.237 25.392 24.739 24.604 24.52 24.586 24.646 24.599 24.644 24.559 28.449 33.286 29.094 25.736 25.429 25.539 25.634 25.614 25.859 26.692 29.105 26.664 26.021 27.817 26.243 25.748 25.828 25.655 26.641 32.507 32.779 26.929 26.15 36.207 46.134 48.675 47.181 45.472 45.118 34.407 31.025 39.214 30.313 26.634 26.42 27.136 28.597 30.745 30.848 37.817 41.005 40.093 37.231 28.159 31.776 32.346 36.156 34.654 33.287 36.257 36.169 30.451 31.42 35.926 35.676 30.557 26.98 26.294 27.026 26.65 26.255 26.316 26.264 26.266 26.234 26.214 26.251 26.306 26.306 26.341 26.376 26.379 26.401 26.436 26.399 26.416 26.416 26.429 26.424 26.456 26.446 26.426 26.431 26.439 26.411 26.426 26.389 26.406 26.419 26.419 26.454 26.469 26.469 26.441 26.434 26.441 26.401 26.379 26.381 26.341 26.314 26.309 26.269 26.239 26.241 26.209 26.166 26.134 26.106 26.081 26.046 26.014 25.989 25.939 25.921 25.861 25.816 25.804 25.746 25.704 25.681 25.641 25.596 25.529 25.494 25.459 25.404 25.369 25.321 25.301 25.261 25.229 25.181 25.189 25.116 25.049 25.006 24.946 24.899 24.874 24.811 24.741 24.696 24.621 24.554 24.511 24.524 24.471 24.406 24.359 24.316 24.266 24.234 24.164 24.094 24.051 24.001 23.936 23.939 23.876 23.829 23.811 23.776 23.654 23.621 23.561 23.531 23.496 23.494 23.449 23.551 24.234 23.566 23.004 22.964 22.891 22.829 23.066 23.941 24.086 23.464 22.514 22.279 22.239 22.234 22.209 22.171 22.059 21.989 21.934 21.886 21.854 21.774 21.704 21.629 21.564 21.501 21.466 21.386 21.306 21.201 21.089 20.999 20.896 20.794 20.721 20.631 20.541 20.469 20.331 20.274 20.219 20.211 20.176 20.131 20.076 20.029 19.951 19.804 19.714 19.641 19.609 19.581 19.521 19.424 19.339 19.249 19.204 19.124 19.064 18.986 18.886 18.796 18.746 18.644 18.549 18.504 18.374 18.256 18.116 18.001 17.864 17.701 17.526 17.371 17.216 17.111 16.979 16.776 16.621 16.481 16.344 16.199 16.076 15.979 15.869 15.741 15.601 15.469 15.279 15.184 15.111 15.001 14.886 14.764 14.646 14.546 14.411 14.296 14.201 14.089 13.916 13.806 13.774 15.431 15.524 15.929 13.936 13.441 13.144 19.261 15.364 14.924 14.376 15.344 14.986 14.989 15.259 15.461 17.011 16.009 16.061 16.234 21.139 26.979 17.114 17.154 17.416 17.519 17.761 17.964 20.586 18.256 18.421 18.629 18.791 18.951 19.716 19.006 19.086 19.189 19.226 19.299 19.611 20.259 20.039 20.201 20.784 20.151 20.251 20.286 20.281 20.454 20.611 21.254 20.761 28.924 28.989 26.574 21.054 21.326 23.724 28.446 23.979 22.761 21.421 36.624 43.864 33.851 21.521 21.566 26.106 29.306 25.521 25.839 25.411
25.016 24.976 24.946 24.969 25.659 31.049 32.834 26.549 25.111 24.671 24.591 24.546 24.874 25.489 24.521 24.726 24.574 24.684 24.496 24.444 25.849 24.801 30.321 27.364 26.791 24.639 24.316 24.286 24.261 24.249 24.414 26.249 28.751 29.751 24.469 24.516 24.681 24.666 24.695 24.628 24.846 24.718 25.368 25.323 29.892 29.792 35.356 32.336 31.042 36.151 31.89 27.569 24.534 26.069 29.551 36.852 31.535 33.617 37 33.377 37.406 35.712 30.037 24.627 25.548 25.67 24.528 24.7 27.087 31.842 30.081 26.359 24.784 24.739 24.805 25.074 24.719 25.807 25.51 24.633 24.63 24.84 24.513 24.7 25.079 27.926 24.628 31.644 38.676 33.164 27.541 25.324 25.404 25.636 25.497 25.56 25.767 25.795 25.541 26.986 25.874 25.674 25.713 25.785 25.676 25.841 26.921 25.918 26.117 25.861 33.441 42.349 47.249 46.044 44.634 44.446 36.191 30.341 35.429 40.945 27.641 26.696 29.504 36.763 38.457 37.897 38.164 40.366 37.202 30.46 26.587 27.647 33.001 39.778 39.815 38.344 39.705 37.025 34.2 35.037 35.338 38.988 34.539 27.776 27.133 27.131 26.391 26.344 26.328 26.316 26.334 26.344 26.321 26.376 26.394 26.401 26.416 26.421 26.429 26.451 26.456 26.444 26.459 26.474 26.491 26.491 26.491 26.511 26.514 26.491 26.494 26.476 26.446 26.479 26.489 26.474 26.486 26.511 26.534 26.521 26.494 26.486 26.451 26.449 26.434 26.404 26.439 26.404 26.374 26.331 26.321 26.294 26.274 26.234 26.226 26.191 26.126 26.129 26.089 26.079 26.026 26.019 25.941 25.884 25.854 25.804 25.761 25.716 25.701 25.646 25.614 25.569 25.536 25.504 25.461 25.431 25.376 25.324 25.286 25.249 25.219 25.191 25.131 25.046 24.986 24.954 24.894 24.831 24.796 24.746 24.691 24.659 24.609 24.559 24.524 24.471 24.416 24.359 24.291 24.249 24.221 24.161 24.086 24.004 23.936 23.939 23.891 23.846 23.819 23.744 23.674 23.606 23.559 23.519 23.476 23.504 23.476 23.456 23.839 24.071 23.061 22.999 22.939 23.166 23.936 24.229 23.301 22.481 22.411 22.366 22.336 22.309 22.261 22.134 22.106 22.024 21.961 21.921 21.859 21.759 21.709 21.634 21.591 21.556 21.486 21.391 21.281 21.174 21.094 20.999 20.891 20.829 20.751 20.621 20.521 20.439 20.336 20.256 20.239 20.219 20.161 20.134 20.114 20.076 19.959 19.861 19.774 19.699 19.631 19.576 19.491 19.426 19.329 19.284 19.191 19.106 19.034 18.959 18.899 18.816 18.726 18.671 18.611 18.524 18.391 18.254 18.131 18.044 17.856 17.666 17.471 17.359 17.234 17.086 16.879 16.741 16.574 16.421 16.271 16.139 16.056 15.954 15.834 15.701 15.539 15.381 15.299 15.209 15.096 15.021 14.896 14.766 14.671 14.531 14.396 14.314 14.171 14.011 13.879 13.814 13.851 14.199 16.106 14.681 13.521 13.304 15.619 15.736 15.581 13.371 14.544 14.911 18.004 18.959 15.331 18.106 22.666 18.564 16.056 19.284 20.811 28.214 19.456 18.286 19.209 18.869 18.889 20.836 18.289 18.376 18.451 18.651 18.791 18.901 18.914 19.164 19.131 23.271 21.234 19.636 22.666 22.451 20.776 20.311 19.944 20.184 20.334 20.294 20.404 20.481 20.989 22.329 20.839 20.841 20.959 21.004 21.054 21.069 21.626 21.576 21.384 24.376 21.499 33.539 33.816 33.791 21.649 24.559 29.816 34.039 28.954 40.709 31.684
25.099 25.054 25.321 29.186 26.671 28.871 28.321 25.281 24.854 24.954 25.424 24.689 25.214 24.726 24.664 24.906 24.734 24.624 24.571 32.909 24.536 24.601 24.924 35.394 24.854 24.431 24.574 24.344 24.266 24.536 24.631 25.689 31.191 32.344 24.547 24.625 24.65 24.664 24.681 25.042 25.474 25.388 24.63 25.676 30.912 31.31 32.836 33.977 32.641 32.563 27.305 26.452 29.194 27.156 27.859 34.166 29.556 30.201 33.871 29.279 31.647 35.946 27.48 24.972 24.693 24.638 24.427 24.441 25.143 27.3 31.726 27.171 24.815 24.842 24.849 25.668 24.839 25.306 25.691 24.635 24.607 24.589 24.656 24.648 24.382 28.078 24.537 26.429 32.724 35.024 30.461 24.909 25.244 26.289 25.641 25.76 25.656 25.545 25.599 27.614 25.964 25.787 25.751 25.805 25.771 25.84 25.952 26.304 26.364 25.956 27.544 39.948 42.043 43.08 43.649 43.615 39.136 37.11 34.886 33.983 33.929 32.919 36.753 40.338 41.364 39.665 37.927 39.161 35.217 30.345 27.637 27.456 32.334 39.528 39.974 38.682 40.174 35.087 34.219 35.87 36.859 35.543 33.212 26.7 27.381 27.403 26.449 26.394 26.402 26.388 26.416 26.441 26.436 26.451 26.486 26.506 26.496 26.481 26.486 26.474 26.516 26.479 26.509 26.544 26.546 26.524 26.569 26.569 26.574 26.576 26.604 26.601 26.584 26.549 26.549 26.536 26.544 26.544 26.579 26.561 26.559 26.561 26.544 26.521 26.481 26.474 26.494 26.456 26.431 26.441 26.386 26.369 26.324 26.324 26.294 26.236 26.236 26.201 26.159 26.144 26.091 26.041 26.006 25.949 25.869 25.869 25.841 25.789 25.756 25.736 25.691 25.661 25.629 25.559 25.521 25.471 25.419 25.361 25.339 25.279 25.271 25.214 25.151 25.091 25.034 24.991 24.964 24.941 24.884 24.816 24.749 24.704 24.686 24.634 24.591 24.536 24.471 24.414 24.344 24.294 24.244 24.194 24.101 24.044 23.994 23.974 23.899 23.834 23.774 23.739 23.666 23.624 23.576 23.541 23.529 23.531 23.509 23.466 23.569 24.321 23.459 23.006 23.234 24.186 23.996 23.094 22.599 22.504 22.451 22.434 22.409 22.336 22.246 22.184 22.119 22.056 21.974 21.914 21.811 21.769 21.721 21.689 21.619 21.546 21.486 21.354 21.266 21.179 21.056 20.979 20.926 20.841 20.759 20.669 20.556 20.439 20.354 20.296 20.214 20.209 20.134 20.144 20.126 20.089 20.014 19.909 19.811 19.744 19.654 19.566 19.474 19.406 19.319 19.251 19.204 19.126 19.029 19.001 18.894 18.804 18.801 18.719 18.614 18.534 18.401 18.271 18.144 18.009 17.836 17.666 17.511 17.391 17.214 17.014 16.839 16.676 16.519 16.369 16.281 16.131 16.011 15.871 15.759 15.621 15.481 15.394 15.294 15.211 15.109 14.981 14.886 14.774 14.624 14.506 14.411 14.306 14.144 13.951 13.849 13.771 15.204 15.776 15.589 15.074 14.214 14.996 13.124 13.926 15.364 14.501 14.769 14.909 23.466 22.871 24.501 22.391 21.511 18.741 16.121 23.409 31.256 27.111 20.139 23.706 27.369 24.956 27.326 21.744 18.231 18.444 18.559 18.654 18.856 19.084 19.454 19.994 19.216 22.109 25.389 22.844 20.269 19.834 19.851 19.889 19.994 20.204 20.389 20.466 20.491 20.541 20.689 20.824 20.939 20.926 20.976 21.121 21.136 21.151 21.264 21.446 21.451 21.481 21.441 28.326 27.716 26.379 24.639 26.399 28.131 32.374 30.041 34.051 32.571
25.281 25.349 25.994 26.124 26.024 29.146 33.651 29.619 29.904 28.994 25.451 25.774 24.956 24.814 24.854 25.069 24.814 24.741 28.936 25.731 24.666 24.944 30.366 32.834 24.671 24.794 24.499 24.401 24.536 25.081 25.999 25.244 27.521 27.086 24.724 25.442 25.139 25.912 27.726 26.797 27.314 26.04 24.663 27.749 31.073 29.058 40.974 35.45 33.209 32.255 25.719 27.749 34.093 34.658 27.183 31.699 32.735 33.039 31.599 30.374 27.401 28.377 24.655 24.663 24.623 25.87 24.58 24.688 25.373 26.388 30.634 26.033 25.167 24.909 24.841 24.862 25.65 24.894 24.804 24.815 24.788 24.751 24.426 24.874 24.647 24.519 24.54 25.209 30.696 33.726 25.704 24.794 25.974 27.994 26.524 26.728 25.558 25.557 25.575 25.669 25.815 26.29 26.245 25.956 25.817 25.868 30.02 34.733 29.341 26.851 31.309 40.625 43.675 38.749 42.565 45.645 41.806 42.738 42.695 39.534 32.107 44.536 43.836 39.669 39.122 38.952 37.551 35.755 32.49 33.068 33.618 32.686 37.249 40.737 39.909 39.75 35.078 31.16 35.903 34.171 31.522 30.034 26.796 26.593 27.059 27.173 26.455 26.448 26.438 26.473 26.499 26.509 26.506 26.514 26.514 26.549 26.544 26.544 26.524 26.526 26.551 26.576 26.576 26.594 26.611 26.631 26.651 26.674 26.671 26.691 26.694 26.666 26.689 26.619 26.604 26.579 26.606 26.619 26.649 26.624 26.646 26.624 26.601 26.574 26.576 26.551 26.539 26.539 26.516 26.501 26.469 26.456 26.429 26.391 26.356 26.331 26.306 26.256 26.226 26.194 26.161 26.136 26.091 26.011 25.971 25.956 25.911 25.881 25.844 25.794 25.749 25.671 25.651 25.626 25.589 25.531 25.474 25.426 25.371 25.319 25.326 25.266 25.241 25.196 25.124 25.071 25.011 24.971 24.946 24.886 24.826 24.766 24.731 24.709 24.634 24.609 24.534 24.469 24.374 24.324 24.276 24.214 24.136 24.081 23.976 23.951 23.909 23.874 23.811 23.789 23.729 23.661 23.651 23.616 23.591 23.534 23.514 23.494 23.546 24.314 24.216 23.116 23.166 23.596 22.861 22.689 22.621 22.591 22.554 22.504 22.426 22.341 22.286 22.219 22.129 22.079 21.984 21.894 21.819 21.769 21.764 21.711 21.646 21.531 21.459 21.369 21.284 21.149 21.086 21.036 20.939 20.864 20.756 20.664 20.519 20.466 20.386 20.309 20.216 20.199 20.156 20.139 20.109 20.089 20.009 19.921 19.804 19.724 19.614 19.549 19.464 19.431 19.344 19.249 19.211 19.124 19.046 18.999 18.889 18.844 18.801 18.701 18.614 18.491 18.384 18.269 18.141 17.999 17.854 17.691 17.521 17.316 17.144 16.971 16.814 16.634 16.481 16.371 16.229 16.081 15.939 15.824 15.669 15.569 15.491 15.394 15.291 15.181 15.036 14.951 14.829 14.739 14.606 14.511 14.411 14.276 14.076 13.906 13.816 14.784 15.666 16.966 19.184 15.861 16.441 17.011 14.831 18.266 16.664 17.031 15.801 14.926 21.639 25.699 27.256 27.191 25.894 17.159 17.041 28.999 31.369 28.749 21.321 24.364 25.404 27.564 20.879 18.614 18.306 18.441 18.574 18.684 18.829 18.931 19.046 19.289 20.121 21.091 26.959 21.331 19.666 19.859 19.926 20.034 20.094 20.344 21.861 20.911 20.624 20.659 21.089 21.361 20.979 21.146 21.051 21.116 21.164 21.311 21.431 21.596 21.531 21.574 21.574 21.596 22.894 23.566 27.609 28.471 22.701 22.766 32.914 40.266 30.814
25.954 25.896 25.926 26.664 25.256 25.296 28.544 25.244 25.634 25.104 26.974 29.794 27.469 25.686 25.111 25.536 25.144 24.899 25.776 24.799 24.789 26.079 35.539 30.601 29.744 24.631 24.486 24.726 24.766 24.941 27.526 31.994 27.911 31.701 25.666 24.849 24.865 25.366 25.272 27.215 26.412 25.599 24.838 27.165 29.69 26.143 30.964 32.332 33.468 25.744 24.763 25.179 33.318 35.492 31.695 29.083 34.448 35.389 36.722 31.262 28.469 24.963 24.968 26.575 24.758 24.981 24.71 24.88 26.806 36.315 27.795 27.47 27.599 31.13 24.994 25.434 25.926 25.465 25.029 25.131 25.137 24.649 24.476 25.332 25.025 24.689 24.564 25.246 30.779 32.401 27.199 30.609 28.319 35.229 32.296 28.01 26.023 25.771 25.566 25.735 25.836 27.32 30.218 29.119 25.926 25.883 30.051 40.704 37.205 36.481 42.069 43.876 47.253 36.243 39.836 45.739 45.96 37.365 36.082 30.773 31.719 43.514 41.855 29.94 33.741 39.135 38.022 36.528 33.064 36.595 37.539 37.371 40.477 40.974 39.779 40.312 37.36 33.033 38.457 36.642 30.093 26.845 27.013 27.634 27.585 27.065 26.512 26.507 26.502 26.558 26.563 26.541 26.569 26.516 26.551 26.571 26.609 26.586 26.594 26.599 26.629 26.641 26.634 26.686 26.699 26.721 26.741 26.746 26.749 26.776 26.769 26.734 26.736 26.689 26.694 26.699 26.711 26.706 26.701 26.709 26.676 26.669 26.661 26.666 26.631 26.636 26.604 26.579 26.564 26.569 26.546 26.529 26.496 26.471 26.439 26.379 26.361 26.336 26.294 26.264 26.226 26.189 26.171 26.124 26.071 26.041 25.979 25.939 25.901 25.866 25.829 25.776 25.721 25.694 25.639 25.591 25.526 25.464 25.454 25.414 25.356 25.316 25.301 25.244 25.194 25.139 25.106 25.041 25.009 24.949 24.879 24.826 24.776 24.736 24.704 24.631 24.586 24.516 24.396 24.359 24.264 24.201 24.129 24.084 24.016 23.969 23.959 23.899 23.884 23.829 23.776 23.719 23.681 23.654 23.589 23.551 23.534 23.519 23.491 24.041 24.569 23.329 22.991 22.944 22.819 22.724 22.704 22.666 22.591 22.534 22.449 22.396 22.301 22.241 22.166 22.094 21.996 21.919 21.856 21.836 21.776 21.724 21.636 21.526 21.434 21.346 21.244 21.159 21.104 21.039 20.944 20.854 20.751 20.661 20.574 20.499 20.416 20.306 20.201 20.181 20.131 20.116 20.119 20.094 20.054 19.949 19.849 19.711 19.631 19.549 19.476 19.409 19.324 19.266 19.219 19.156 19.079 18.981 18.956 18.869 18.796 18.721 18.626 18.511 18.394 18.266 18.141 17.996 17.871 17.719 17.506 17.289 17.114 16.934 16.766 16.604 16.474 16.346 16.194 16.014 15.876 15.726 15.634 15.556 15.479 15.381 15.276 15.136 14.994 14.921 14.794 14.719 14.641 14.521 14.359 14.191 13.999 13.921 15.701 14.319 14.176 20.039 18.641 13.734 14.806 15.351 18.656 21.771 17.056 17.581 15.671 14.836 15.839 26.076 28.919 22.146 19.366 16.126 16.504 26.141 29.344 28.214 23.464 21.616 19.406 19.544 18.204 18.454 22.209 20.176 18.881 18.831 19.451 19.039 19.096 19.174 19.264 22.274 23.511 19.619 19.634 19.831 19.961 20.149 20.096 20.231 20.441 20.594 20.691 21.379 23.001 25.704 21.036 21.059 21.066 21.131 21.259 21.431 21.469 21.676 21.544 24.289 21.599 21.524 21.626 21.674 21.726 21.866 21.801 21.929 33.356 38.294 24.459
25.904 28.376 27.614 25.539 25.359 28.136 26.321 25.371 25.361 25.404 25.339 28.096 28.771 27.676 25.486 25.101 25.244 25.229 25.174 24.909 28.244 25.101 25.061 24.994 24.804 24.721 26.991 28.069 25.459 26.436 28.356 29.156 28.436 35.309 26.876 27.968 24.874 24.845 24.887 25.169 24.967 24.818 24.832 27.625 32.392 31.33 29.485 28.904 25.663 24.871 24.882 27.852 33.552 37.201 35.024 32.863 29.053 34.047 36.723 31.984 30.602 27.684 28.694 30.357 25.66 25.085 24.808 25.75 26.846 29.799 27.779 27.656 25.316 27.799 26.072 25.012 25.197 25.614 25.556 25.396 24.898 24.816 25.252 24.561 24.866 24.83 24.604 24.66 32.236 33.521 26.896 30.111 28.969 31.751 30.875 32.747 26.712 25.636 25.814 26.41 26.394 26.461 29.01 31.888 27.014 25.876 29.779 39.262 38.36 43.212 46.884 43.166 47.135 47.274 45.793 46.539 46.434 32.924 28.719 28.087 32.663 37.116 32.376 33.332 38.449 37.182 35.376 32.522 35.552 34.494 32.014 37.351 39.01 41.606 39.515 39.71 37.887 35.121 38.009 37.697 27.906 27.361 27.779 28.516 30.423 27.209 26.605 26.613 26.567 26.598 26.58 26.606 26.631 26.626 26.616 26.641 26.641 26.671 26.664 26.674 26.694 26.699 26.746 26.756 26.754 26.781 26.839 26.806 26.841 26.811 26.829 26.804 26.836 26.821 26.786 26.779 26.756 26.751 26.756 26.766 26.721 26.734 26.744 26.736 26.709 26.669 26.664 26.671 26.621 26.631 26.609 26.594 26.561 26.489 26.466 26.436 26.436 26.404 26.344 26.316 26.311 26.284 26.239 26.191 26.131 26.089 26.031 26.011 25.951 25.936 25.884 25.846 25.786 25.731 25.679 25.624 25.596 25.521 25.506 25.461 25.419 25.389 25.359 25.306 25.261 25.189 25.144 25.074 25.049 24.984 24.914 24.864 24.834 24.781 24.704 24.659 24.591 24.521 24.434 24.351 24.299 24.231 24.179 24.146 24.079 24.054 24.009 23.944 23.921 23.871 23.841 23.799 23.751 23.694 23.651 23.596 23.521 23.529 23.501 23.701 24.374 23.656 23.034 22.954 22.869 22.809 22.736 22.661 22.601 22.546 22.484 22.434 22.331 22.289 22.141 22.076 22.026 21.996 21.919 21.861 21.781 21.689 21.589 21.521 21.424 21.329 21.299 21.194 21.126 21.046 20.956 20.844 20.741 20.666 20.599 20.524 20.419 20.324 20.194 20.206 20.161 20.124 20.099 20.126 20.084 19.971 19.859 19.734 19.624 19.526 19.426 19.414 19.324 19.276 19.249 19.149 19.066 19.031 18.946 18.874 18.794 18.711 18.629 18.514 18.389 18.249 18.106 18.001 17.894 17.691 17.461 17.259 17.076 16.881 16.711 16.569 16.436 16.259 16.106 15.949 15.806 15.719 15.634 15.531 15.449 15.334 15.226 15.081 14.959 14.881 14.766 14.716 14.636 14.494 14.314 14.074 13.924 13.881 15.959 15.491 14.191 16.549 19.356 13.976 13.951 13.919 16.209 16.691 16.191 15.369 15.189 15.061 15.724 20.309 17.404 15.894 16.031 16.209 16.489 17.816 22.281 23.281 23.764 26.361 20.101 18.136 18.301 18.461 23.164 20.174 18.854 18.941 19.064 19.264 19.444 20.071 19.291 22.036 20.366 20.164 19.721 19.879 20.186 20.911 20.386 20.461 20.479 20.521 20.609 20.941 23.474 27.074 21.109 21.149 21.264 21.244 21.406 21.911 21.756 23.701 22.214 22.156 22.139 21.616 21.669 23.649 24.714 22.234 25.411 23.406 25.801 28.731 23.031
26.701 30.281 31.956 25.754 25.546 34.624 44.124 29.554 25.974 25.411 31.014 28.419 26.294 26.589 25.959 25.349 25.336 25.134 25.061 25.524 27.261 24.964 25.191 24.966 24.904 25.829 28.754 32.104 26.276 28.214 26.879 27.171 25.854 32.931 26.924 25.205 24.917 24.829 24.927 25.066 25.267 25.158 25.419 25.148 27.373 28.966 32.505 32.154 25.124 25.006 24.894 26.1 31.408 33.723 35.221 38.127 29.773 35.828 35.061 28.043 27.24 33.319 31.195 29.537 26.862 24.962 25.206 27.507 26.774 27.683 27.255 28.001 26.523 25.063 25.88 25.236 25.077 25.092 25.008 25.146 25.62 25.22 24.694 24.578 26.1 30.405 26.349 24.693 30.917 34.459 29.394 28.546 25.004 25.281 28.187 33.648 28.05 25.688 26.249 28.933 28.481 28.953 28.519 32.011 28.742 25.883 26.196 33.164 32.106 35.455 41.978 46.606 45.941 45.693 47.996 40.372 41.384 35.801 29.989 33.208 34.758 33.094 27.406 29.1 38.295 38.68 30.268 28.041 32.449 32.509 31.635 35.394 36.946 39.453 38.954 39.742 36.1 29.477 32.93 31.158 27.617 27.393 28.166 27.487 29.41 26.73 26.658 26.655 26.647 26.632 26.641 26.646 26.671 26.684 26.674 26.699 26.716 26.714 26.739 26.751 26.776 26.786 26.784 26.796 26.846 26.836 26.871 26.869 26.891 26.899 26.929 26.909 26.884 26.859 26.829 26.836 26.829 26.836 26.859 26.829 26.811 26.776 26.799 26.794 26.771 26.736 26.714 26.731 26.711 26.669 26.661 26.644 26.601 26.556 26.531 26.476 26.476 26.476 26.441 26.389 26.379 26.339 26.281 26.236 26.199 26.156 26.109 26.069 26.014 25.976 25.934 25.904 25.834 25.756 25.736 25.694 25.649 25.611 25.579 25.539 25.494 25.436 25.404 25.351 25.309 25.239 25.189 25.124 25.099 25.034 24.979 24.901 24.846 24.789 24.719 24.656 24.631 24.571 24.504 24.426 24.339 24.286 24.231 24.191 24.166 24.119 24.054 24.021 23.964 23.929 23.889 23.831 23.771 23.696 23.644 23.604 23.509 23.521 23.529 23.461 23.969 24.119 23.104 22.976 22.911 22.836 22.756 22.671 22.611 22.571 22.516 22.436 22.379 22.281 22.184 22.119 22.081 22.021 21.959 21.876 21.776 21.691 21.606 21.519 21.414 21.374 21.269 21.194 21.126 21.041 20.944 20.849 20.761 20.681 20.611 20.526 20.464 20.329 20.201 20.174 20.144 20.124 20.106 20.091 20.066 19.999 19.856 19.749 19.596 19.491 19.416 19.379 19.356 19.271 19.171 19.161 19.101 19.016 18.979 18.871 18.781 18.704 18.631 18.539 18.379 18.256 18.139 18.006 17.809 17.616 17.426 17.249 17.059 16.871 16.689 16.559 16.399 16.191 16.021 15.881 15.799 15.736 15.611 15.499 15.384 15.244 15.154 15.011 14.911 14.821 14.739 14.674 14.571 14.404 14.199 14.016 13.894 16.549 16.759 16.416 18.974 22.506 14.236 14.166 14.121 15.346 15.749 17.544 18.226 17.714 15.939 15.051 16.591 21.284 15.999 16.056 16.121 16.294 16.676 17.504 18.984 19.384 25.459 24.201 17.946 19.541 23.626 18.731 18.591 18.904 18.876 19.009 19.196 19.501 19.376 19.431 19.571 26.444 22.529 22.031 21.536 23.674 20.096 21.604 22.471 20.389 20.606 20.711 20.781 20.751 21.159 24.551 21.361 21.236 21.454 21.459 21.504 21.506 29.704 31.194 27.784 30.434 28.569 21.669 23.611 31.296 31.509 29.801 35.314 28.989 26.444 26.696 22.116
30.854 27.776 25.756 30.476 26.366 29.396 36.419 35.491 26.696 25.566 25.691 25.324 25.436 25.361 26.869 25.614 25.211 25.534 25.589 25.789 25.161 25.266 25.089 24.989 27.381 33.336 30.419 35.819 28.681 25.979 26.866 26.984 25.129 25.621 26.785 27.473 25.068 24.92 24.972 25.08 25.071 24.963 25.69 26.532 29.458 29.423 37.099 30.078 25.7 26.314 25.005 25.045 25.349 31.313 30.085 31.603 30.025 34.109 34.925 26.994 26.384 31.293 29.793 29.43 28.296 25.261 25.108 27.26 27.009 25.695 27.79 25.101 25.222 25.351 25.34 25.265 25.35 25.521 25.324 25.526 25.995 25.494 24.978 24.718 25.2 29.618 27.949 24.652 28.753 33.97 33.786 28.784 26.714 25.954 26.418 28.577 25.732 25.478 26.688 26.951 26.415 26.469 26.416 28.099 26.809 25.915 27.962 34.171 34.908 35.06 33.05 40.816 44.561 46.916 45.539 32.895 33.552 32.955 37.373 36.127 36.141 31.7 27.123 27.408 35.481 37.318 30.562 32.441 36.682 37.242 35.367 29.465 34.298 40.996 38.843 32.378 28.084 28.017 31.38 28.966 27.028 27.299 27.512 29.428 27.044 26.748 26.728 26.701 26.722 26.705 26.697 26.696 26.751 26.731 26.761 26.776 26.819 26.824 26.826 26.809 26.844 26.854 26.846 26.861 26.899 26.896 26.939 26.966 26.959 26.959 26.964 26.946 26.939 26.926 26.934 26.921 26.899 26.914 26.914 26.891 26.881 26.849 26.854 26.871 26.831 26.829 26.804 26.756 26.736 26.726 26.694 26.669 26.676 26.666 26.649 26.614 26.549 26.521 26.494 26.471 26.439 26.396 26.376 26.341 26.256 26.214 26.164 26.106 26.074 26.046 26.011 25.941 25.876 25.841 25.794 25.776 25.751 25.691 25.646 25.611 25.549 25.504 25.444 25.391 25.344 25.281 25.224 25.169 25.111 25.041 24.971 24.901 24.839 24.794 24.764 24.751 24.681 24.624 24.554 24.486 24.401 24.371 24.316 24.264 24.206 24.149 24.109 24.081 24.024 23.981 23.919 23.829 23.744 23.696 23.639 23.599 23.509 23.514 23.509 23.464 23.631 24.069 23.224 22.976 22.939 22.896 22.794 22.696 22.631 22.574 22.539 22.491 22.381 22.319 22.251 22.171 22.136 22.076 21.984 21.856 21.771 21.696 21.589 21.516 21.459 21.386 21.321 21.224 21.124 21.006 20.934 20.881 20.779 20.706 20.629 20.526 20.469 20.349 20.256 20.194 20.166 20.114 20.101 20.064 20.014 19.959 19.851 19.711 19.589 19.489 19.421 19.386 19.356 19.274 19.209 19.191 19.096 19.054 18.996 18.884 18.789 18.716 18.596 18.499 18.399 18.274 18.141 17.974 17.781 17.596 17.416 17.216 17.016 16.849 16.684 16.501 16.296 16.124 15.994 15.899 15.774 15.671 15.541 15.436 15.271 15.171 15.069 14.956 14.869 14.786 14.691 14.619 14.519 14.361 14.116 13.979 13.926 13.964 13.656 16.141 15.891 21.261 19.476 14.239 16.536 14.176 16.354 21.579 18.414 15.111 14.971 15.186 18.376 22.626 17.516 16.046 16.206 16.759 17.054 19.671 23.084 17.571 19.101 17.871 18.006 20.601 22.181 18.596 18.959 19.584 18.981 19.094 19.314 19.524 19.384 21.244 19.576 20.246 21.569 21.471 28.299 20.284 20.221 28.246 20.961 20.619 20.809 20.801 20.894 20.986 20.994 21.021 21.684 21.394 21.431 21.566 21.411 21.474 30.484 32.554 30.734 31.419 29.926 26.046 30.199 32.679 39.316 31.479 39.921 32.211 37.049 33.606 22.231
25.944 25.861 25.874 27.874 27.364 28.491 37.186 31.359 26.086 25.404 25.329 25.749 25.846 25.566 25.381 25.339 25.264 25.749 27.529 25.579 25.411 25.204 25.184 25.319 27.349 34.744 30.819 35.059 26.384 25.294 25.674 28.691 25.191 25.049 25.654 26.053 25.185 25.013 25.03 25.04 25.16 25.152 26.551 29.412 28.021 28.569 32.796 29.896 30.213 33.947 28.239 26.465 32.855 34.132 31.996 31.453 31.637 28.714 36.44 25.566 27.02 30.164 28.663 27.952 27.175 25.543 25.92 25.671 25.545 25.142 25.087 25.32 25.767 26.412 25.335 25.282 25.479 25.617 25.232 25.642 26.752 25.537 25.192 24.753 25.475 24.803 24.599 25.196 35.776 39.027 36.231 32.214 32.199 31.724 26.335 25.745 28.119 27.039 26.998 25.944 27.259 27.061 29.686 27.592 26.085 25.945 26.976 32.42 38.652 34.113 26.877 34.493 41.626 47.625 41.514 32.192 31.284 34.961 45.126 34.193 31.209 33.125 30.551 28.876 33.242 36.378 36.864 38.38 40.705 41.597 37.814 27.129 28.455 44.001 43.817 28.501 26.865 29.085 30.149 27.841 27.376 27.765 27.764 29.262 28.135 26.787 26.781 26.755 26.785 26.783 26.761 26.79 26.826 26.824 26.846 26.854 26.909 26.916 26.891 26.891 26.906 26.911 26.946 26.936 26.956 26.961 26.989 27.006 27.009 27.016 27.024 27.039 27.026 27.016 27.004 27.006 26.969 26.969 26.964 26.949 26.924 26.906 26.921 26.921 26.889 26.894 26.844 26.806 26.811 26.774 26.779 26.759 26.756 26.736 26.671 26.664 26.616 26.589 26.571 26.524 26.479 26.459 26.436 26.376 26.316 26.246 26.204 26.176 26.136 26.116 26.061 26.019 25.951 25.901 25.891 25.846 25.801 25.756 25.696 25.641 25.611 25.544 25.499 25.439 25.361 25.291 25.199 25.139 25.081 25.026 24.974 24.924 24.881 24.856 24.814 24.799 24.744 24.679 24.631 24.581 24.511 24.456 24.399 24.314 24.254 24.191 24.159 24.099 24.021 23.966 23.889 23.826 23.731 23.696 23.649 23.591 23.554 23.499 23.529 23.481 23.439 24.114 23.816 22.979 22.966 22.929 22.839 22.721 22.646 22.601 22.574 22.496 22.436 22.371 22.319 22.264 22.201 22.069 21.959 21.864 21.769 21.684 21.596 21.571 21.471 21.411 21.294 21.206 21.111 21.059 20.954 20.874 20.796 20.721 20.639 20.544 20.446 20.366 20.311 20.226 20.171 20.131 20.066 20.039 19.974 19.914 19.844 19.744 19.636 19.534 19.434 19.386 19.329 19.291 19.219 19.156 19.139 19.034 18.986 18.896 18.769 18.711 18.604 18.501 18.401 18.264 18.084 17.931 17.759 17.579 17.366 17.184 17.014 16.864 16.634 16.421 16.261 16.131 15.996 15.854 15.736 15.601 15.441 15.299 15.179 15.059 14.974 14.876 14.824 14.731 14.661 14.599 14.466 14.274 14.111 14.649 15.341 17.246 14.771 14.624 17.839 18.836 20.076 15.069 15.249 15.566 16.231 15.524 14.906 15.316 15.086 15.276 18.181 21.219 18.946 16.169 19.149 25.146 17.256 26.851 22.206 26.509 23.151 17.956 18.166 21.466 19.849 18.686 18.694 18.896 19.014 19.131 19.769 24.374 19.866 20.139 19.681 19.654 19.804 24.534 26.099 20.449 20.251 24.059 22.266 20.934 20.724 20.819 20.924 21.181 21.869 21.619 21.399 21.271 21.296 21.264 21.309 21.386 22.884 24.976 23.259 26.184 23.976 22.699 26.584 30.034 33.869 24.526 29.489 26.961 32.541 27.281 22.309
35.324 25.984 26.336 28.784 30.076 25.989 31.016 27.274 25.534 25.559 25.429 25.729 26.806 26.214 26.874 26.259 25.499 26.401 25.709 25.586 25.399 25.284 25.404 25.576 25.904 33.736 31.236 35.581 29.791 25.454 25.321 26.219 25.264 25.384 25.253 25.318 25.366 25.131 25.159 25.216 25.166 27.909 30.863 29.169 25.255 27.827 31.829 27.562 28.4 38.527 32.84 30.253 35.861 40.15 34.151 35.371 38.333 39.864 31.305 28.265 26.618 36.187 29.359 26.915 29.501 25.465 26.368 24.945 25.036 25.013 25.241 25.37 25.275 26.924 25.296 25.84 25.585 26.01 25.222 25.523 25.42 25.143 24.938 24.888 24.889 24.714 24.544 24.64 31.829 30.136 32.031 38.066 36.471 35.171 27.614 28.994 33.073 30.941 27.365 28.383 29.775 29.491 26.594 26.135 26.126 25.987 29.389 33.459 37.394 34.564 28.547 31.798 36.31 39.181 40.524 32.815 33.599 34.598 38.341 31.265 34.28 40.291 35.091 32.016 37.337 38.891 38.495 39.383 39.061 39.671 41.788 27.296 27.309 37.299 43.013 26.996 26.841 27.082 29.3 28.019 26.982 27.908 28.617 29.286 26.866 26.837 26.824 26.823 26.866 26.858 26.875 26.866 26.911 26.919 26.944 26.934 26.936 26.971 26.989 26.969 26.994 27.006 26.996 26.991 26.991 26.996 26.999 27.081 27.086 27.081 27.076 27.114 27.076 27.066 27.079 27.074 27.054 27.041 27.034 27.026 27.029 27.031 27.001 27.009 26.966 26.924 26.874 26.899 26.921 26.881 26.879 26.824 26.809 26.781 26.744 26.696 26.659 26.629 26.614 26.551 26.529 26.504 26.479 26.421 26.359 26.316 26.269 26.234 26.216 26.156 26.154 26.084 26.031 25.979 25.919 25.896 25.829 25.786 25.746 25.691 25.626 25.544 25.474 25.404 25.346 25.299 25.236 25.166 25.109 25.084 25.041 24.999 24.956 24.911 24.866 24.816 24.791 24.764 24.731 24.654 24.581 24.519 24.434 24.371 24.316 24.241 24.181 24.079 24.039 23.961 23.879 23.814 23.766 23.704 23.679 23.676 23.619 23.534 23.526 23.469 23.396 23.781 24.196 23.146 22.979 22.941 22.856 22.754 22.669 22.616 22.564 22.504 22.456 22.459 22.396 22.314 22.176 22.074 21.961 21.884 21.749 21.686 21.644 21.596 21.491 21.384 21.301 21.201 21.144 21.089 20.971 20.906 20.814 20.724 20.656 20.531 20.479 20.411 20.344 20.226 20.179 20.076 20.056 20.019 19.991 19.896 19.821 19.711 19.606 19.521 19.449 19.381 19.334 19.281 19.241 19.194 19.139 19.061 18.991 18.909 18.796 18.696 18.621 18.494 18.374 18.214 18.034 17.896 17.734 17.556 17.351 17.194 17.036 16.829 16.549 16.389 16.269 16.134 15.989 15.831 15.664 15.504 15.349 15.214 15.046 14.964 14.914 14.816 14.739 14.691 14.639 14.566 14.424 14.209 14.466 15.879 15.971 16.119 15.801 14.704 18.151 14.869 14.526 15.371 17.221 18.419 15.404 18.644 19.496 16.886 15.184 15.551 17.009 19.404 16.976 16.236 16.526 24.566 17.169 17.249 23.434 29.489 17.866 18.021 24.351 18.414 18.684 18.764 18.799 18.994 19.046 19.199 19.301 19.376 19.914 19.786 19.729 19.729 19.809 20.051 20.379 20.209 20.731 23.556 25.994 21.186 20.814 20.891 21.139 21.159 21.156 21.224 21.306 21.431 22.169 21.641 21.619 21.706 21.659 21.731 21.774 21.761 21.796 21.831 21.824 22.819 22.619 21.951 22.001 22.094 22.079 22.116 22.184
26.166 26.026 25.931 25.809 25.796 25.849 26.216 25.776 25.826 30.829 25.646 26.891 26.811 26.454 28.144 31.054 27.846 26.601 25.741 25.511 25.469 25.576 25.729 26.311 25.884 28.471 28.881 36.176 30.074 25.466 26.296 25.389 25.246 25.254 25.236 26.534 25.889 25.234 25.255 25.288 25.293 25.58 27.871 26.151 25.365 25.805 29.315 29.199 31.747 32.36 31.93 30.719 28.351 33.109 32.025 36.947 33.157 36.279 28.286 25.729 31.339 34.942 27.314 28.266 30.736 25.329 25.68 26.223 25.178 25.138 25.338 25.618 25.329 25.535 25.537 25.647 25.399 27.208 25.306 25.412 25.933 25.52 27.058 26.004 25.245 24.862 25.825 24.916 25.767 26.901 32.998 37.829 38.376 37.854 26.511 27.853 31.969 30.758 29.019 31.054 32.303 31.416 26.231 26.128 26.217 26.015 26.128 28.996 32.591 34.185 29.423 26.897 28.297 29.009 35.774 37.9 33.946 29.808 29.38 27.364 38.021 41.66 38.418 38.794 37.434 36.644 36.371 40.592 39.013 32.429 30.985 26.95 29.58 28.14 27.063 26.991 26.904 28.326 27.871 28.419 27.128 28.793 28.265 29.754 26.951 26.869 26.866 26.908 26.96 26.971 26.937 26.962 26.969 26.994 26.999 27.009 27.041 27.071 27.071 27.061 27.051 27.044 27.034 27.031 27.046 27.071 27.101 27.129 27.139 27.126 27.141 27.139 27.159 27.189 27.171 27.161 27.169 27.119 27.121 27.094 27.094 27.069 27.049 27.041 27.034 27.001 26.959 26.971 26.959 26.934 26.921 26.906 26.849 26.831 26.771 26.741 26.721 26.704 26.664 26.629 26.604 26.531 26.511 26.491 26.431 26.401 26.339 26.324 26.284 26.251 26.204 26.159 26.071 26.044 25.994 25.959 25.891 25.824 25.751 25.679 25.616 25.516 25.464 25.441 25.379 25.314 25.266 25.221 25.156 25.149 25.106 25.041 25.004 24.946 24.939 24.899 24.894 24.831 24.766 24.691 24.576 24.546 24.474 24.426 24.339 24.241 24.189 24.081 24.026 23.961 23.924 23.884 23.844 23.816 23.761 23.721 23.644 23.579 23.524 23.476 23.404 23.494 24.029 23.911 22.969 22.904 22.859 22.764 22.691 22.659 22.606 22.549 22.519 22.486 22.409 22.314 22.154 22.074 21.969 21.849 21.814 21.751 21.686 21.599 21.544 21.394 21.301 21.236 21.151 21.071 20.991 20.919 20.824 20.739 20.666 20.581 20.546 20.491 20.396 20.254 20.126 20.079 20.034 19.979 19.981 19.896 19.809 19.701 19.656 19.546 19.466 19.421 19.334 19.291 19.264 19.209 19.144 19.069 18.974 18.906 18.796 18.724 18.626 18.474 18.299 18.174 18.016 17.859 17.711 17.546 17.364 17.149 16.974 16.734 16.536 16.399 16.254 16.091 15.939 15.784 15.609 15.424 15.254 15.081 14.966 14.919 14.846 14.774 14.714 14.639 14.569 14.486 14.356 14.234 14.269 13.616 16.641 14.139 14.011 14.049 14.976 14.201 14.189 14.504 17.991 16.221 17.906 20.969 18.794 16.791 15.236 15.654 15.944 16.061 16.171 16.334 16.681 23.701 17.661 17.324 17.554 17.691 17.906 19.791 28.104 18.554 18.699 19.024 18.984 18.974 19.111 19.291 19.404 22.284 24.791 26.341 23.356 19.831 19.894 20.044 20.306 20.286 20.384 20.699 21.331 20.656 20.796 21.009 22.851 21.086 21.406 21.226 21.539 21.629 21.459 21.509 21.631 21.776 21.944 21.946 22.121 21.804 21.784 21.889 21.966 21.954 22.006 22.121 22.114 22.159 22.206 22.326 22.341
26.259 26.186 25.999 27.829 27.411 27.566 30.999 25.881 27.014 25.724 27.099 32.331 29.841 25.676 27.486 28.799 25.944 25.826 25.594 25.594 25.984 26.416 25.744 28.371 26.856 25.611 28.239 35.536 30.664 25.829 25.904 25.414 25.361 25.546 26.239 25.52 25.617 25.406 25.398 25.39 27.978 26.026 25.689 25.434 25.434 25.573 29.06 31.185 33.978 28.15 31.954 30.832 25.463 29.283 25.402 26.258 28.466 38.301 27.189 25.296 29.206 33.634 31.163 28.299 26.828 25.405 25.446 27.576 25.509 26.161 25.418 27.702 25.615 25.558 29.123 29.916 25.416 25.54 25.418 25.561 25.969 25.78 27.011 25.626 25.15 25.001 29.71 25.504 25.35 31.172 36.035 34.081 32.091 33.714 25.094 25.681 25.514 26.527 28.66 36.813 33.246 27.399 26.153 26.237 26.252 26.102 26.205 34.245 37.531 38.283 34.98 27.464 26.801 27.332 37.397 40.436 36.399 32.401 30.774 30.975 37.752 41.34 41.217 36.288 34.702 35.96 36.962 38.982 35.063 26.804 26.866 29.257 37.081 33.619 28.082 28.281 27.461 28.061 28.208 27.164 27.147 28.238 27.574 28.968 26.938 26.916 26.929 26.977 27.008 27 27.027 27.019 27.051 27.069 27.069 27.081 27.096 27.094 27.081 27.104 27.104 27.109 27.096 27.106 27.139 27.156 27.169 27.184 27.196 27.201 27.209 27.224 27.216 27.261 27.219 27.189 27.186 27.189 27.169 27.154 27.131 27.124 27.139 27.109 27.101 27.086 27.049 27.034 27.036 27.014 26.996 26.941 26.909 26.886 26.859 26.809 26.776 26.734 26.724 26.669 26.646 26.636 26.604 26.564 26.546 26.491 26.439 26.406 26.366 26.291 26.266 26.229 26.164 26.094 26.054 25.964 25.876 25.841 25.739 25.671 25.624 25.571 25.524 25.469 25.426 25.354 25.326 25.284 25.209 25.161 25.141 25.099 25.051 25.026 24.986 24.956 24.901 24.836 24.771 24.731 24.656 24.576 24.501 24.424 24.321 24.251 24.189 24.114 24.094 24.056 24.021 23.949 23.876 23.821 23.799 23.714 23.694 23.614 23.539 23.474 23.421 23.379 23.701 24.164 23.124 22.886 22.881 22.794 22.711 22.664 22.626 22.596 22.556 22.466 22.389 22.276 22.174 22.066 21.976 21.941 21.856 21.771 21.679 21.599 21.491 21.421 21.334 21.254 21.171 21.111 21.019 20.929 20.849 20.746 20.671 20.651 20.549 20.474 20.369 20.259 20.166 20.071 19.991 19.976 19.941 19.849 19.801 19.724 19.681 19.606 19.479 19.414 19.359 19.291 19.276 19.204 19.129 19.076 18.989 18.944 18.824 18.731 18.571 18.416 18.266 18.124 17.984 17.796 17.669 17.519 17.336 17.059 16.849 16.669 16.561 16.406 16.229 16.031 15.879 15.691 15.526 15.316 15.141 15.004 14.926 14.849 14.784 14.729 14.681 14.579 14.504 14.416 14.339 14.256 15.986 14.296 14.514 15.101 14.371 14.206 15.986 14.254 14.591 14.401 14.234 14.479 15.204 17.679 17.316 15.121 15.411 15.726 15.984 16.074 16.241 16.484 16.899 25.366 23.456 23.259 17.691 19.701 20.361 18.161 18.306 18.536 18.644 18.846 19.051 19.014 19.154 19.566 19.314 23.179 27.491 23.734 24.359 21.311 19.871 20.091 22.039 20.276 20.414 20.654 20.674 20.826 20.834 20.924 21.971 22.349 23.806 25.106 22.501 22.591 23.196 21.561 22.009 22.274 21.981 21.761 21.801 21.829 21.899 21.959 22.061 21.981 22.669 22.194 22.329 22.371 22.339 22.436 24.509
26.379 26.276 26.196 28.434 28.711 26.634 26.081 25.941 25.886 25.754 30.674 33.224 34.101 36.906 27.736 27.539 25.941 25.671 25.716 25.904 27.154 27.071 25.804 28.174 26.204 25.824 28.181 30.549 29.171 25.574 25.831 27.139 25.624 25.439 26.319 25.506 25.646 25.589 25.593 26.611 26.169 27.011 25.972 25.543 25.993 25.978 25.65 30.501 35.882 33.855 26.974 28.644 25.415 31.113 29.104 30.241 31.414 31.131 32.814 25.376 27.374 34.187 25.903 25.57 26.188 25.79 25.697 31.913 29.677 26.874 25.551 28.328 28.18 25.95 25.724 25.586 25.579 25.669 25.528 25.554 28.137 30.945 32.327 26.622 25.189 25.136 25.065 24.818 24.988 28.217 32.341 29.309 26.141 25.699 25.236 25.171 25.206 25.401 29.264 34.719 33.631 26.166 26.307 28.792 27.986 26.194 26.202 32.739 39.12 39.231 35.67 27.812 27.201 26.699 30.813 35.742 34.71 35.94 34.444 34.724 39.871 41.394 43.748 39.035 30.45 29.802 30.851 31.121 31.382 28.268 27.048 30.665 39.304 37.11 34.744 36.994 39.676 39.556 32.651 27.162 27.118 27.756 28.635 27.697 26.97 26.975 26.972 27.038 27.048 27.072 27.104 27.103 27.094 27.111 27.104 27.116 27.124 27.159 27.201 27.181 27.191 27.186 27.179 27.219 27.239 27.226 27.226 27.251 27.261 27.271 27.276 27.299 27.294 27.266 27.286 27.271 27.246 27.264 27.249 27.211 27.186 27.166 27.184 27.184 27.181 27.151 27.106 27.091 27.076 27.051 27.014 27.021 26.974 26.921 26.871 26.854 26.836 26.791 26.754 26.741 26.716 26.704 26.681 26.636 26.626 26.569 26.491 26.464 26.426 26.371 26.316 26.269 26.154 26.076 26.001 25.944 25.874 25.846 25.811 25.751 25.711 25.634 25.564 25.514 25.489 25.446 25.399 25.324 25.284 25.239 25.211 25.164 25.104 25.079 25.004 24.961 24.901 24.866 24.766 24.739 24.669 24.581 24.526 24.451 24.404 24.359 24.316 24.211 24.176 24.116 24.066 23.994 23.919 23.859 23.819 23.741 23.709 23.649 23.569 23.504 23.451 23.339 23.711 24.116 23.286 22.891 22.841 22.809 22.761 22.709 22.699 22.614 22.561 22.484 22.389 22.301 22.181 22.086 22.049 21.959 21.884 21.776 21.684 21.601 21.509 21.446 21.361 21.276 21.204 21.126 21.021 20.921 20.856 20.804 20.734 20.699 20.584 20.476 20.376 20.276 20.166 20.059 20.006 19.966 19.916 19.871 19.839 19.746 19.691 19.604 19.521 19.434 19.406 19.336 19.259 19.204 19.136 19.064 18.991 18.961 18.799 18.669 18.514 18.394 18.246 18.079 17.936 17.801 17.624 17.461 17.246 16.989 16.826 16.714 16.551 16.356 16.189 15.994 15.819 15.636 15.456 15.244 15.089 14.964 14.879 14.771 14.731 14.664 14.596 14.496 14.431 14.349 14.329 14.269 15.381 15.139 15.434 15.631 15.629 14.261 14.601 16.006 14.916 14.281 14.369 14.441 14.744 15.171 15.469 15.206 17.329 15.816 16.071 16.261 16.376 16.589 17.029 21.349 26.139 24.259 17.689 17.929 20.204 18.304 18.419 18.549 18.674 18.816 18.919 19.086 19.201 19.526 19.536 19.496 23.949 19.749 19.791 19.886 20.051 20.371 20.251 20.286 20.526 20.581 20.701 20.946 20.901 21.001 21.051 21.226 24.271 28.941 27.079 22.921 21.516 22.619 21.689 21.931 21.824 21.764 21.941 21.939 22.019 22.116 22.086 22.116 22.124 22.161 22.706 22.474 22.346 24.314 25.009
26.926 26.464 26.394 26.539 26.859 29.136 26.074 26.024 25.906 27.361 32.569 36.504 36.759 42.304 34.241 31.776 30.616 25.861 26.029 26.266 26.191 27.251 26.464 27.656 26.409 28.321 31.211 26.351 25.736 25.684 25.656 25.609 25.614 25.609 25.654 25.862 26.188 25.586 25.577 26.368 25.607 25.869 25.653 25.74 26.435 26.264 27.521 26.12 31.013 34.863 33.917 32.52 26.885 25.319 25.588 27.397 30.954 31.176 30.028 26.918 25.539 28.703 29.99 28.735 28.969 27.266 26.623 28.503 28.567 29.465 26.658 30.396 27.747 26.053 27.484 26.434 26.114 26.199 26.069 25.779 26.286 36.308 39.34 34.57 26.428 25.92 25.161 25.001 24.881 26.058 26.613 25.571 24.866 25.094 25.101 25.099 25.306 25.506 26.512 28.169 28.098 26.226 26.34 31.269 30.082 26.289 26.862 33.051 40.918 39.385 34.079 27.115 26.78 26.771 26.936 26.944 28.441 31.899 32.762 35.235 39.105 41.791 44.739 43.1 34.973 31.805 29.026 31.833 36.795 35.304 30.484 29.012 34.498 39.768 40.535 42.76 46.509 46.832 39.164 27.465 28.626 29.406 28.471 27.375 27.021 27.031 27.013 27.069 27.085 27.109 27.115 27.115 27.141 27.146 27.159 27.189 27.201 27.226 27.274 27.274 27.281 27.264 27.271 27.294 27.306 27.316 27.316 27.344 27.354 27.351 27.351 27.341 27.344 27.326 27.331 27.329 27.326 27.311 27.289 27.241 27.239 27.251 27.261 27.231 27.201 27.226 27.201 27.149 27.114 27.109 27.111 27.039 27.004 26.976 26.961 26.944 26.919 26.884 26.841 26.806 26.779 26.751 26.719 26.704 26.681 26.654 26.569 26.519 26.446 26.376 26.281 26.211 26.169 26.106 26.071 26.026 25.971 25.929 25.864 25.794 25.726 25.679 25.621 25.579 25.539 25.504 25.481 25.414 25.359 25.286 25.229 25.206 25.134 25.074 25.021 24.981 24.946 24.894 24.811 24.734 24.679 24.636 24.624 24.571 24.491 24.414 24.354 24.264 24.186 24.146 24.074 24.041 23.951 23.886 23.796 23.761 23.724 23.649 23.576 23.499 23.481 23.394 23.396 23.804 23.711 22.936 22.841 22.814 22.816 22.766 22.686 22.609 22.566 22.504 22.394 22.291 22.214 22.184 22.104 21.989 21.871 21.789 21.681 21.599 21.564 21.474 21.396 21.309 21.224 21.156 21.021 20.946 20.909 20.844 20.819 20.696 20.589 20.484 20.379 20.289 20.154 20.069 20.026 19.974 19.921 19.894 19.846 19.769 19.671 19.626 19.499 19.446 19.406 19.334 19.241 19.216 19.126 19.064 19.016 18.941 18.784 18.631 18.499 18.356 18.221 18.044 17.929 17.746 17.569 17.361 17.161 16.979 16.826 16.681 16.504 16.311 16.129 15.934 15.761 15.541 15.346 15.214 15.021 14.876 14.809 14.736 14.656 14.594 14.516 14.449 14.409 14.364 14.314 14.314 14.991 17.646 16.911 15.184 14.246 14.371 14.934 15.366 14.281 14.356 14.444 14.571 14.809 15.259 17.564 15.309 16.241 16.064 16.251 16.566 16.481 16.706 17.211 17.269 18.159 19.521 17.801 18.381 18.626 18.316 18.436 18.609 18.779 18.929 19.041 19.154 19.191 19.346 19.434 19.564 19.739 19.726 19.856 19.971 20.106 20.194 20.334 20.419 20.624 20.676 20.784 20.949 21.291 21.056 21.124 21.299 21.321 31.194 31.346 21.631 21.541 21.754 21.699 21.829 21.834 21.916 26.349 25.809 23.551 22.114 22.026 22.166 22.254 22.254 28.704 22.579 22.469 22.929 24.896
26.756 26.594 26.531 26.489 35.441 27.666 26.016 25.949 25.921 26.001 32.884 37.971 35.364 40.384 31.811 34.304 25.916 26.136 26.229 26.036 26.866 26.211 26.366 26.051 26.006 29.369 25.881 25.909 25.931 25.814 25.779 25.786 26.021 26.284 26.084 26.169 25.808 25.683 25.665 25.927 27.067 27.528 25.728 25.803 26.372 27.927 25.873 26.077 30.998 31.877 39.776 39.376 33.778 25.701 27.05 34.584 32.632 32.21 37.357 38.055 38.419 32.536 30.586 33.712 31.46 26.716 30.712 28.778 29.194 32.102 26.333 28.176 32.03 28.563 32.205 29.204 26.217 26.908 26.613 25.984 25.994 32.43 37.768 34.211 28.265 29.578 29.546 32.463 29.716 25.248 25.377 25.336 25.024 25.089 25.161 25.174 25.331 25.646 26.074 26.201 26.195 26.262 26.44 28.792 28.256 26.427 26.231 29.82 42.786 39.876 31.392 27.323 26.866 26.808 26.744 26.675 26.707 27.88 30.666 31.636 34.151 35.002 41.284 41.58 40.088 38.195 32.408 33.411 38.266 37.18 34.807 34.093 37.396 37.498 36.222 43.63 45.641 46.997 38.392 27.735 28.164 27.803 27.695 27.084 27.014 27.042 27.053 27.121 27.128 27.133 27.149 27.169 27.196 27.196 27.214 27.239 27.259 27.291 27.334 27.364 27.361 27.341 27.334 27.384 27.391 27.416 27.409 27.404 27.406 27.431 27.421 27.419 27.429 27.404 27.399 27.404 27.414 27.419 27.361 27.334 27.311 27.314 27.314 27.296 27.291 27.271 27.246 27.196 27.146 27.184 27.146 27.124 27.104 27.076 27.059 27.006 27.004 26.936 26.909 26.886 26.871 26.831 26.819 26.786 26.716 26.679 26.594 26.496 26.451 26.374 26.339 26.284 26.231 26.194 26.129 26.086 26.016 25.954 25.936 25.836 25.786 25.754 25.699 25.661 25.631 25.604 25.516 25.444 25.374 25.304 25.254 25.194 25.141 25.084 25.034 24.976 24.941 24.899 24.846 24.814 24.799 24.754 24.694 24.604 24.519 24.474 24.376 24.299 24.226 24.171 24.096 24.054 23.971 23.904 23.799 23.756 23.709 23.689 23.596 23.479 23.454 23.416 23.391 23.696 23.941 22.974 22.894 22.881 22.844 22.769 22.689 22.619 22.544 22.494 22.394 22.331 22.299 22.196 22.126 21.989 21.889 21.771 21.719 21.651 21.561 21.476 21.416 21.331 21.241 21.166 21.076 21.011 20.961 20.921 20.831 20.689 20.569 20.501 20.391 20.284 20.154 20.129 20.011 19.951 19.894 19.861 19.801 19.739 19.651 19.614 19.511 19.434 19.361 19.319 19.251 19.219 19.141 19.076 18.981 18.851 18.726 18.584 18.436 18.299 18.181 18.021 17.824 17.629 17.436 17.241 17.126 16.979 16.789 16.604 16.429 16.251 16.041 15.854 15.636 15.456 15.294 15.129 14.979 14.886 14.791 14.686 14.581 14.524 14.449 14.399 14.351 14.334 14.329 14.301 14.821 14.236 16.879 14.531 14.264 14.939 15.609 14.416 16.106 15.189 14.584 14.869 15.034 15.514 15.561 16.241 16.371 16.126 16.299 18.534 16.724 16.859 17.974 19.996 18.456 22.539 17.869 18.054 18.239 18.424 18.494 18.629 18.766 18.909 19.019 19.261 19.309 19.686 19.516 19.676 19.724 19.829 19.876 20.096 20.131 20.249 21.619 20.894 20.611 20.616 20.784 20.901 21.006 21.041 21.129 21.324 21.669 31.446 25.929 24.111 22.059 23.971 21.769 21.851 21.796 21.999 24.471 36.259 32.046 22.231 22.189 22.244 22.339 31.034 31.606 22.944 22.421 22.509 22.979
26.836 26.711 27.199 26.441 33.221 26.099 26.031 26.129 28.551 26.154 33.261 31.379 30.101 35.914 35.871 28.401 26.236 26.426 26.204 26.209 28.474 26.959 27.649 31.761 26.421 27.086 25.994 26.234 26.319 27.446 26.486 26.234 26.204 25.951 25.899 25.841 25.816 25.812 25.838 25.836 25.839 27.813 26.279 25.849 26.225 26.807 25.663 25.779 30.109 32.915 30.519 34.685 28.225 26.815 26.645 31.646 31.656 30.375 32.701 37.7 42.815 43.504 41.634 38.611 27.505 26.136 26.356 26.958 28.065 27.43 28.934 34.068 25.987 26.172 35.007 35.318 38.59 28.833 29.761 28.541 27.489 31.94 30.236 31.278 27.204 27.164 30.859 41.022 34.767 28.951 29.292 29.564 26.411 25.044 25.199 25.254 25.499 26.456 25.869 26.063 26.213 26.208 28.11 32.777 32.1 26.95 26.257 26.835 32.995 34.22 31.579 28.766 27.111 26.856 26.872 26.866 27.326 30.365 27.22 26.908 27.251 30.298 32.925 34.2 39.057 39.679 38.08 31.508 33.345 30.848 29.575 36.231 39.59 34.597 28.681 37.065 42.579 40.371 32.04 27.236 27.418 28.007 28.569 27.084 27.045 27.074 27.092 27.161 27.123 27.158 27.192 27.204 27.231 27.249 27.256 27.286 27.299 27.346 27.396 27.414 27.439 27.444 27.434 27.451 27.449 27.471 27.454 27.469 27.471 27.494 27.509 27.501 27.501 27.486 27.466 27.481 27.471 27.439 27.446 27.441 27.401 27.401 27.376 27.354 27.331 27.289 27.291 27.271 27.236 27.234 27.244 27.251 27.184 27.164 27.134 27.084 27.049 27.026 26.994 26.951 26.939 26.899 26.834 26.794 26.724 26.666 26.624 26.554 26.521 26.469 26.419 26.351 26.309 26.246 26.171 26.099 26.039 26.014 25.966 25.916 25.904 25.831 25.776 25.731 25.679 25.614 25.549 25.469 25.406 25.326 25.256 25.206 25.159 25.114 25.064 25.034 25.004 24.974 24.936 24.889 24.836 24.776 24.726 24.644 24.581 24.511 24.429 24.401 24.266 24.191 24.114 24.064 23.966 23.879 23.824 23.764 23.729 23.664 23.589 23.516 23.474 23.431 23.391 23.474 24.054 23.204 22.886 22.921 22.906 22.821 22.716 22.604 22.541 22.496 22.439 22.371 22.304 22.254 22.109 22.011 21.889 21.831 21.754 21.669 21.576 21.516 21.426 21.339 21.281 21.196 21.139 21.064 21.019 20.904 20.761 20.659 20.594 20.494 20.381 20.274 20.204 20.174 19.999 19.936 19.901 19.844 19.824 19.749 19.674 19.594 19.526 19.436 19.331 19.299 19.244 19.199 19.156 19.064 18.899 18.814 18.684 18.554 18.416 18.264 18.126 17.954 17.716 17.504 17.301 17.224 17.064 16.904 16.699 16.536 16.379 16.171 15.969 15.776 15.559 15.371 15.214 15.086 14.949 14.831 14.719 14.616 14.524 14.496 14.419 14.344 14.304 14.324 14.296 14.331 14.299 14.261 19.141 15.419 15.776 15.014 17.139 14.421 14.349 14.516 14.834 14.856 15.226 15.759 15.461 15.539 15.991 17.534 19.396 18.999 16.724 16.904 21.164 20.986 21.809 25.334 21.301 18.334 18.314 18.436 18.609 18.709 18.936 18.976 19.114 19.209 23.414 19.454 19.481 19.646 19.701 19.851 19.959 22.781 22.909 21.349 20.419 21.386 20.654 20.754 20.779 20.971 21.074 21.386 23.711 21.301 23.016 28.849 21.849 23.094 23.241 25.044 21.724 21.844 22.176 22.144 22.134 32.849 38.089 25.129 22.304 28.734 28.236 34.841 36.156 24.661 22.401 22.444 22.524
26.904 26.721 26.624 26.356 26.286 26.244 26.686 26.716 31.541 27.986 28.904 28.479 27.341 38.051 30.486 29.469 28.836 26.411 26.399 26.289 27.979 28.264 26.429 26.179 26.181 26.141 26.156 28.011 26.519 34.206 26.614 26.096 26.186 25.979 25.954 25.946 25.939 25.918 25.958 25.929 26.958 32.044 27.93 26.018 25.927 25.806 26.781 26.016 26.671 27.808 26.877 25.746 25.93 27.638 36.256 31.997 29.305 30.898 28.983 26.9 29.841 36.834 39.826 35.459 29.12 25.987 25.993 26.944 33.024 31.854 29.565 31.729 27.857 26.447 29.767 33.082 34.878 38.69 35.579 36.689 33.107 34.295 28.14 26.676 26.196 26.435 36.404 39.393 38.115 37.062 35.064 34.931 31.734 25.266 25.499 25.876 25.656 28.044 25.972 26.084 26.245 26.289 29.028 37.844 35.328 28.313 26.282 26.386 27.25 28.977 37.974 36.622 30.267 26.942 26.94 27.5 32.603 33.282 29.185 27.791 29.777 28.414 28.236 28.698 32.843 37.282 36.457 33.829 32.433 28.381 29.357 31.295 35.649 29.303 27.173 28.466 32.578 28.227 28.699 28.085 28.365 28.717 27.573 27.095 27.068 27.104 27.161 27.207 27.207 27.208 27.24 27.274 27.296 27.296 27.331 27.349 27.394 27.426 27.454 27.491 27.516 27.536 27.521 27.521 27.519 27.539 27.551 27.561 27.564 27.569 27.589 27.536 27.554 27.549 27.544 27.566 27.536 27.501 27.494 27.501 27.421 27.421 27.386 27.369 27.401 27.386 27.386 27.364 27.339 27.321 27.346 27.321 27.264 27.244 27.216 27.189 27.146 27.114 27.061 27.004 26.946 26.869 26.839 26.816 26.786 26.741 26.699 26.651 26.581 26.516 26.456 26.376 26.319 26.276 26.236 26.204 26.124 26.076 26.046 26.014 25.929 25.889 25.826 25.764 25.704 25.639 25.566 25.471 25.421 25.346 25.286 25.266 25.241 25.194 25.161 25.111 25.046 24.991 24.971 24.901 24.869 24.779 24.749 24.691 24.604 24.536 24.464 24.361 24.276 24.211 24.101 24.016 23.971 23.849 23.786 23.736 23.706 23.656 23.609 23.556 23.506 23.484 23.426 23.391 23.674 25.531 25.791 22.889 22.904 22.856 22.741 22.626 22.524 22.506 22.456 22.401 22.314 22.231 22.151 22.019 21.949 21.886 21.789 21.694 21.639 21.524 21.441 21.361 21.314 21.239 21.181 21.119 20.986 20.844 20.761 20.691 20.574 20.514 20.391 20.319 20.274 20.221 20.064 19.956 19.901 19.829 19.806 19.749 19.661 19.609 19.564 19.451 19.349 19.279 19.241 19.149 19.089 18.956 18.874 18.776 18.641 18.509 18.361 18.221 18.034 17.814 17.569 17.436 17.291 17.151 16.984 16.791 16.626 16.439 16.246 16.041 15.841 15.701 15.529 15.336 15.186 15.054 14.909 14.769 14.651 14.531 14.476 14.431 14.371 14.321 14.309 14.336 14.334 14.344 14.356 14.306 17.419 16.816 18.774 17.246 15.814 14.629 14.456 19.224 16.759 15.066 15.361 16.951 19.966 17.336 18.914 23.106 20.239 17.701 16.766 17.069 20.871 21.974 18.221 19.711 19.276 19.756 18.389 18.584 18.651 18.799 19.854 19.051 19.116 19.304 19.801 19.516 19.606 19.674 19.831 19.939 20.086 24.359 22.479 20.329 21.374 21.994 20.626 20.796 20.879 21.046 21.081 21.191 21.676 21.364 21.996 21.521 21.626 21.679 21.619 23.036 26.376 25.016 22.231 22.159 22.076 24.946 27.671 27.914 31.109 32.621 37.419 34.491 23.559 22.521 22.391 22.479 22.519
27.084 26.771 26.919 26.496 26.451 26.484 26.934 30.374 28.186 26.634 26.424 26.364 26.344 33.404 26.589 26.681 26.999 27.014 26.534 28.519 31.816 27.424 27.001 26.374 26.299 26.241 26.261 27.179 28.114 27.601 26.149 26.136 26.161 26.161 26.139 26.116 26.056 25.999 26.128 26.329 26.581 32.709 26.858 26.995 29.867 26.898 26.852 27.557 28.341 26.884 28.047 28.955 26.327 30.502 37.021 33.35 32.045 27.378 26.625 25.834 32.642 31.599 35.247 37.77 31.315 26.645 26.725 26.244 29.532 29.616 29.619 29.638 32.839 31.29 27.246 35.856 31.933 46.568 35.955 33.284 31.268 30.936 26.943 30.124 29.208 27.991 32.706 32.615 39.664 39.188 38.621 40.189 33.591 27.836 28.494 25.831 25.301 25.959 25.986 26.291 26.364 26.822 28.832 30.616 30.283 27.371 26.354 26.394 26.81 29.352 38.379 42.467 34.534 27.041 27.02 27.445 34.791 33.04 30.515 34.686 37.352 33.778 27.675 27.139 27.414 32.891 36.381 34.6 30.42 28.357 32.258 31.009 30.552 27.246 27.278 27.178 27.36 29.787 27.7 27.794 29.634 29.866 27.209 27.124 27.108 27.118 27.198 27.263 27.242 27.239 27.254 27.294 27.306 27.401 27.406 27.419 27.461 27.474 27.491 27.549 27.584 27.596 27.599 27.604 27.611 27.616 27.621 27.631 27.624 27.601 27.646 27.639 27.609 27.621 27.626 27.616 27.599 27.571 27.544 27.509 27.501 27.471 27.481 27.471 27.479 27.481 27.466 27.454 27.436 27.404 27.389 27.371 27.359 27.341 27.314 27.231 27.181 27.119 27.089 27.026 26.981 26.949 26.929 26.906 26.864 26.819 26.766 26.726 26.656 26.546 26.494 26.436 26.376 26.356 26.319 26.249 26.196 26.144 26.071 26.026 25.971 25.909 25.849 25.764 25.714 25.656 25.589 25.526 25.474 25.446 25.404 25.356 25.316 25.246 25.211 25.141 25.091 25.016 24.961 24.949 24.904 24.844 24.791 24.711 24.606 24.534 24.461 24.366 24.286 24.204 24.109 24.011 23.936 23.839 23.799 23.756 23.719 23.681 23.646 23.606 23.529 23.464 23.441 23.411 23.499 23.989 23.871 22.909 22.901 22.864 22.739 22.619 22.566 22.519 22.476 22.399 22.336 22.244 22.154 22.089 21.984 21.894 21.824 21.756 21.656 21.561 21.479 21.396 21.351 21.261 21.179 21.066 20.931 20.821 20.759 20.679 20.576 20.501 20.429 20.376 20.289 20.216 20.121 19.969 19.891 19.829 19.816 19.764 19.661 19.584 19.586 19.494 19.364 19.271 19.219 19.104 19.019 18.944 18.831 18.739 18.606 18.461 18.306 18.121 17.889 17.679 17.519 17.381 17.226 17.034 16.864 16.699 16.524 16.314 16.099 15.891 15.744 15.611 15.436 15.294 15.141 15.004 14.876 14.704 14.591 14.501 14.451 14.404 14.334 14.331 14.351 14.374 14.384 14.399 14.296 14.299 16.594 20.529 19.359 14.679 14.564 14.389 14.444 15.556 15.131 15.164 15.656 15.774 15.566 18.006 16.361 16.654 16.886 16.814 16.936 17.236 17.509 17.556 17.721 18.254 18.071 18.224 18.394 18.566 18.701 22.186 23.141 19.151 19.204 19.311 19.411 19.534 19.701 19.704 19.921 20.044 20.091 20.301 21.529 20.404 28.139 24.094 20.724 20.814 20.959 21.114 21.139 21.144 21.304 21.386 21.701 24.359 21.844 21.599 21.721 21.766 22.819 26.434 21.974 22.086 22.741 22.164 22.384 24.126 27.741 32.496 32.671 24.859 22.559 22.511 22.484 22.531 22.606
26.809 26.719 26.681 26.654 27.881 37.244 30.774 27.054 26.546 26.614 26.644 26.494 26.474 26.441 26.524 26.839 29.406 29.856 26.584 26.424 26.669 26.741 26.539 26.521 26.494 26.474 26.701 26.334 26.901 28.784 26.286 26.224 26.259 26.201 26.399 26.154 26.104 26.209 26.124 26.312 26.449 26.937 26.043 26.493 30.017 26.603 28.215 27.729 26.03 29.899 29.45 30.169 29.695 34.004 27.258 27.323 35.201 39.166 28.906 33.2 35.925 40.386 34.007 34.81 27.216 26.124 26.208 26.205 26.279 26.103 26.882 26.515 28.878 35.39 31.608 29.001 28.394 35.637 36.622 29.686 33.64 28.084 27.175 33.251 35.806 30.12 27.512 29.062 39.751 39.326 39.103 37.576 36.634 33.866 33.239 27.104 27.554 27.244 26.934 27.8 27.05 26.545 26.667 26.761 27.214 26.915 26.375 26.445 26.687 27.301 35.585 38.439 31.63 27.133 27.114 30.589 37.226 36.863 36.538 35.638 38.138 35.235 29.66 31.139 31.437 31.865 35.683 32.337 27.482 28.792 36.555 38.542 31.658 27.335 27.846 27.383 27.348 27.426 27.224 27.452 28.504 28.588 27.227 27.148 27.168 27.17 27.203 27.313 27.306 27.308 27.326 27.364 27.384 27.434 27.461 27.456 27.489 27.514 27.526 27.586 27.646 27.646 27.659 27.654 27.671 27.654 27.684 27.699 27.711 27.699 27.706 27.711 27.711 27.701 27.679 27.646 27.616 27.616 27.604 27.576 27.579 27.559 27.564 27.564 27.561 27.541 27.549 27.529 27.501 27.504 27.474 27.446 27.401 27.356 27.306 27.256 27.191 27.201 27.159 27.101 27.076 27.066 27.016 26.966 26.919 26.879 26.829 26.766 26.714 26.666 26.581 26.551 26.484 26.401 26.351 26.311 26.251 26.176 26.109 26.064 26.014 25.926 25.841 25.786 25.739 25.711 25.676 25.616 25.579 25.521 25.454 25.394 25.359 25.294 25.239 25.186 25.136 25.084 25.041 24.994 24.929 24.854 24.779 24.706 24.626 24.529 24.449 24.361 24.279 24.184 24.089 24.006 23.976 23.914 23.836 23.814 23.779 23.751 23.669 23.599 23.521 23.479 23.524 23.459 23.386 24.291 23.394 22.951 22.934 22.856 22.769 22.681 22.624 22.576 22.484 22.426 22.344 22.269 22.189 22.124 22.024 21.929 21.864 21.766 21.669 21.561 21.504 21.451 21.414 21.306 21.181 21.039 20.921 20.834 20.761 20.651 20.566 20.504 20.464 20.399 20.294 20.201 20.121 20.021 19.901 19.834 19.794 19.734 19.689 19.616 19.546 19.456 19.376 19.291 19.176 19.071 19.034 18.941 18.809 18.681 18.591 18.409 18.214 17.991 17.746 17.624 17.481 17.299 17.079 16.921 16.754 16.571 16.369 16.191 15.964 15.816 15.659 15.541 15.369 15.224 15.056 14.924 14.774 14.611 14.569 14.486 14.436 14.369 14.344 14.354 14.341 14.329 14.414 14.379 14.329 14.296 14.349 15.996 18.491 16.264 14.874 15.894 14.851 14.951 15.201 15.344 15.824 15.916 15.554 16.079 16.456 17.276 16.774 16.784 16.969 17.316 17.576 17.724 17.884 18.134 18.321 18.339 18.454 18.589 18.739 21.296 19.076 19.281 19.234 19.326 19.461 19.631 19.704 19.809 20.011 20.026 20.151 20.236 20.309 23.889 27.661 22.996 20.749 20.814 21.006 21.166 21.166 21.151 21.269 21.374 21.439 30.459 27.261 21.636 22.299 22.894 21.944 22.094 22.001 22.179 22.121 22.189 22.176 23.009 22.996 25.251 24.429 22.464 22.721 22.479 22.566 23.399 22.666
27.306 26.996 26.954 27.061 26.994 30.194 26.731 26.716 26.599 26.661 33.751 28.171 29.676 26.654 26.606 26.956 28.879 29.756 27.366 26.641 26.961 26.516 26.544 26.504 26.491 26.481 26.431 27.411 28.684 32.059 27.559 26.409 26.354 26.459 26.331 26.274 26.279 26.226 26.886 26.545 26.229 26.125 26.989 29.011 28.075 28.778 29.588 31.615 27.409 27.959 28.335 29.685 36.82 39.424 31.357 28.634 37.474 37.61 36.781 35.964 30.54 38.692 35.017 34.515 29.636 26.786 26.113 26.133 26.229 27.733 26.076 26.304 27.7 35.597 34.676 28.97 26.975 26.757 30.258 39.848 38.048 27.585 26.701 32.378 37.53 34.206 34.477 32.325 35.791 39.995 40.301 40.189 38.349 33.844 33.446 26.209 30.336 27.508 26.83 29.386 27.599 27.119 26.897 28.753 26.978 27.19 26.406 26.45 26.605 27.012 27.821 28.731 27.442 27.167 27.274 33.139 40.618 43.072 39.066 30.196 28.68 30.833 33.979 35.282 37.75 32.335 32.477 28.249 27.317 30.648 38.376 39.939 29.337 27.497 30.386 27.615 27.344 27.327 27.276 27.616 28.489 29.635 27.25 27.189 27.22 27.213 27.263 27.329 27.36 27.349 27.356 27.399 27.406 27.469 27.501 27.499 27.541 27.569 27.614 27.661 27.696 27.716 27.724 27.709 27.721 27.736 27.734 27.766 27.764 27.746 27.761 27.769 27.744 27.751 27.711 27.694 27.694 27.704 27.674 27.671 27.664 27.651 27.654 27.646 27.641 27.639 27.629 27.621 27.576 27.524 27.461 27.436 27.429 27.396 27.354 27.346 27.299 27.271 27.226 27.199 27.151 27.109 27.064 27.044 27.011 26.939 26.944 26.881 26.811 26.759 26.644 26.611 26.534 26.474 26.409 26.349 26.291 26.194 26.151 26.086 26.016 25.971 25.926 25.886 25.836 25.804 25.769 25.684 25.614 25.559 25.501 25.436 25.386 25.351 25.299 25.239 25.194 25.126 25.056 25.006 24.929 24.844 24.779 24.696 24.601 24.529 24.479 24.394 24.291 24.166 24.141 24.116 24.049 24.004 23.891 23.816 23.794 23.704 23.639 23.606 23.551 23.491 23.466 23.439 23.399 23.156 23.021 22.906 22.911 22.871 22.809 22.724 22.634 22.566 22.491 22.409 22.376 22.319 22.264 22.156 22.051 21.954 21.879 21.789 21.699 21.604 21.544 21.509 21.414 21.281 21.154 21.041 20.926 20.836 20.736 20.656 20.599 20.561 20.491 20.386 20.281 20.211 20.131 20.059 19.941 19.846 19.784 19.756 19.696 19.629 19.566 19.496 19.381 19.251 19.134 19.046 18.969 18.891 18.756 18.681 18.531 18.316 18.076 17.884 17.746 17.554 17.349 17.176 16.989 16.829 16.629 16.419 16.219 16.009 15.889 15.741 15.581 15.459 15.289 15.144 14.976 14.819 14.679 14.574 14.489 14.391 14.384 14.381 14.374 14.419 16.504 15.724 15.441 14.721 14.689 16.174 16.011 14.159 23.131 20.519 22.954 21.589 21.206 14.881 17.961 16.809 15.886 15.571 15.779 16.184 16.609 16.926 16.824 16.849 17.401 18.424 17.496 18.011 17.876 18.099 18.311 18.974 18.506 18.596 18.759 20.546 19.014 19.109 19.486 19.384 19.696 19.734 19.869 19.921 20.094 20.181 20.186 20.299 20.411 21.484 26.999 20.646 20.739 20.859 21.079 21.284 21.256 21.176 21.344 21.401 24.639 26.536 21.699 22.191 25.706 24.476 21.934 21.981 22.906 22.139 22.416 22.816 22.336 22.871 23.004 22.509 22.481 22.559 22.456 22.554 24.574 27.589 26.066
27.721 27.269 27.179 27.181 29.011 27.129 26.841 26.861 26.944 31.094 29.011 26.974 26.899 26.801 26.799 27.289 27.476 27.294 27.546 27.884 27.986 27.611 26.931 26.691 26.614 26.619 27.114 29.974 27.471 30.346 29.724 26.476 26.509 26.539 26.884 26.449 26.829 26.416 26.256 26.334 26.36 26.293 26.398 33.418 27.18 28.795 30.267 33.354 28.165 27.516 26.846 29.739 35.409 37.7 29.234 28.605 29.577 28.844 28.532 35.991 34.139 36.834 32.14 32.305 28.514 26.89 27.164 26.578 26.235 29.365 27.969 26.186 27.64 35.84 33.736 27.844 30.837 35.895 40.982 34.737 35.097 32.133 26.607 35.218 32.552 29.759 36 39.114 38.318 39.699 39.506 38.836 38.334 34.729 28.216 25.721 27.729 26.459 27.009 27.749 26.704 27.574 27.002 27.48 27.279 27.967 26.466 26.474 26.721 27.246 27.541 27.341 27.326 27.285 27.289 30.603 38.044 42.736 38.599 33.469 27.914 31.861 34.107 33.913 32.835 28.433 28.214 30.327 28.264 32.665 32.112 30.507 27.734 27.436 27.415 27.808 28.164 27.72 27.433 27.806 28.11 27.426 27.278 27.223 27.26 27.281 27.321 27.348 27.392 27.406 27.399 27.439 27.461 27.501 27.526 27.531 27.596 27.621 27.651 27.669 27.711 27.754 27.771 27.771 27.791 27.816 27.811 27.804 27.806 27.784 27.796 27.784 27.786 27.811 27.814 27.794 27.779 27.776 27.754 27.761 27.764 27.719 27.736 27.739 27.721 27.696 27.636 27.654 27.599 27.544 27.516 27.504 27.494 27.461 27.446 27.386 27.361 27.341 27.286 27.231 27.216 27.169 27.144 27.136 27.089 27.049 27.021 26.961 26.884 26.794 26.689 26.641 26.589 26.509 26.456 26.379 26.301 26.246 26.219 26.166 26.096 26.076 26.014 25.969 25.906 25.849 25.781 25.711 25.644 25.599 25.536 25.479 25.469 25.396 25.364 25.284 25.204 25.119 25.076 25.001 24.929 24.864 24.744 24.661 24.604 24.549 24.494 24.419 24.366 24.289 24.229 24.159 24.066 24.026 23.956 23.864 23.786 23.749 23.691 23.646 23.599 23.509 23.466 23.474 23.426 23.366 24.014 23.924 23.416 22.856 22.819 22.769 22.699 22.571 22.504 22.449 22.396 22.341 22.281 22.174 22.094 21.986 21.886 21.821 21.736 21.669 21.586 21.469 21.356 21.236 21.129 21.051 20.934 20.829 20.746 20.674 20.626 20.594 20.471 20.354 20.279 20.246 20.186 20.109 20.009 19.869 19.779 19.704 19.666 19.624 19.561 19.466 19.384 19.269 19.171 19.054 18.964 18.881 18.736 18.571 18.411 18.169 17.981 17.869 17.651 17.439 17.231 17.036 16.886 16.704 16.469 16.269 16.084 15.951 15.771 15.611 15.486 15.341 15.211 15.016 14.834 14.731 14.604 14.499 14.456 14.386 14.404 14.416 14.396 14.416 16.854 23.404 19.581 16.786 16.091 19.551 14.444 14.231 19.411 24.899 21.839 18.501 17.724 19.716 17.129 17.826 18.259 15.471 15.959 16.416 16.676 17.001 16.891 16.964 20.401 18.164 17.619 17.739 17.941 18.151 18.354 18.509 18.639 18.721 18.841 18.916 19.051 19.224 19.396 19.441 19.681 20.209 19.799 19.936 20.046 20.191 20.229 20.399 20.394 20.529 20.779 20.776 20.841 21.049 21.011 21.146 21.296 21.176 21.411 21.846 24.819 21.559 21.606 22.454 32.279 27.559 21.836 21.996 22.079 22.106 22.216 22.251 22.324 22.274 22.416 22.489 22.494 22.646 22.611 22.571 24.426 27.796 25.814
