ncols 413
nrows 32
xllcorner    455110
yllcorner    87916
cellsize     2
NODATA_value -9999
50.289 50.399 50.604 52.049 51.182 51.079 51.299 51.712 52.049 51.197 50.407 50.354 50.317 50.277 50.239 50.237 50.179 50.159 50.167 50.154 50.129 50.142 50.157 50.182 50.187 50.194 50.187 50.184 50.194 50.184 50.184 50.194 50.224 50.234 50.262 50.254 50.282 50.307 50.319 50.359 50.354 50.372 50.382 50.392 50.382 50.379 50.409 50.419 50.439 50.422 50.477 50.517 50.529 50.552 50.582 50.582 50.584 50.607 50.592 50.587 50.599 50.589 50.617 50.619 50.642 50.634 50.647 50.642 50.684 50.652 50.687 50.649 50.629 50.617 50.642 50.597 50.537 50.484 50.467 50.417 50.377 50.324 50.304 50.279 50.242 50.189 50.122 50.027 49.904 49.822 49.722 49.589 49.499 49.322 49.182 49.089 48.942 48.842 48.694 48.607 48.432 48.317 48.184 48.054 47.969 47.829 47.719 47.594 47.499 47.419 47.364 47.302 47.217 47.112 47.712 48.274 46.827 46.404 46.607 46.079 45.642 45.609 45.519 45.434 45.294 45.172 45.052 44.949 44.842 44.852 44.499 44.349 44.197 44.057 43.947 43.827 43.694 43.589 43.772 45.644 47.502 49.332 48.809 45.269 42.919 42.934 42.469 42.202 42.069 41.962 41.904 41.874 41.742 41.732 42.737 42.642 42.177 42.164 41.909 41.542 41.774 41.722 41.764 41.979 41.897 41.989 42.232 42.434 42.572 42.722 42.874 42.984 43.097 43.254 43.369 43.524 43.634 43.777 43.914 44.029 44.157 44.284 44.427 44.564 44.672 44.777 44.842 44.979 45.142 45.077 45.162 45.219 45.31 45.373 45.451 45.501 45.536 45.556 45.579 45.605 45.636 45.65 45.593 45.541 45.559 45.535 45.477 45.42 45.37 45.367 45.38 45.367 45.302 45.32 45.217 45.177 45.082 44.98 44.925 44.845 44.78 44.727 44.655 44.612 44.505 45.777 45.792 44.045 43.9 43.767 43.662 43.555 43.457 43.392 43.287 43.177 43.105 43.05 42.97 42.845 42.747 42.655 42.557 42.442 42.315 42.187 42.06 41.982 41.945 41.977 42.095 42.292 42.492 42.697 42.887 43.095 43.29 43.525 43.757 43.99 44.215 44.445 44.685 44.887 45.127 45.367 45.605 45.87 46.155 46.402 46.655 46.927 47.175 47.432 47.695 47.905 48.132 48.367 48.582 48.792 49.005 49.167 49.357 49.557 49.735 49.927 50.09 50.255 50.405 50.565 50.727 50.862 51.012 51.142 51.295 51.417 51.545 51.667 51.782 51.887 51.997 52.07 52.155 52.225 52.305 52.362 52.392 52.457 52.507 52.527 52.585 52.612 52.62 52.635 52.625 52.632 52.65 52.65 52.605 52.587 52.585 52.597 52.61 52.595 52.607 52.6 52.627 52.64 52.66 52.63 52.847 54.112 55.322 55.14 53.26 51.612 51.472 51.397 51.29 51.185 51.077 50.952 50.812 50.685 50.55 50.405 50.252 50.115 49.995 49.84 49.685 49.535 49.372 49.202 49.027 48.86 48.672 48.47 48.297 48.16 48.007 47.83 47.63 47.45 47.28 47.125 46.922 46.737 46.555 46.36 46.177 45.987 45.787 45.555 45.32 45.11 44.875 44.605 44.39 44.165 43.94 43.707 43.507 43.557 44.415 43.38 41.842 41.965 42.087 42.18 41.73 41.695 41.652 41.6 41.472 41.305 41.232 41.167 40.967 40.895 40.527 40.175 40.01 40.31 42.507 41.617 41.185 41.385 41.415 41.457 41.562 41.655 41.8
50.284 50.394 50.859 51.849 51.124 51.092 51.244 51.652 52.227 51.034 50.399 50.352 50.324 50.277 50.247 50.219 50.189 50.169 50.122 50.112 50.107 50.137 50.149 50.169 50.194 50.177 50.199 50.187 50.172 50.169 50.184 50.192 50.229 50.229 50.247 50.259 50.294 50.352 50.332 50.357 50.384 50.404 50.392 50.414 50.444 50.444 50.414 50.442 50.457 50.527 50.547 50.577 50.587 50.602 50.617 50.629 50.632 50.624 50.647 50.642 50.634 50.647 50.674 50.682 50.682 50.669 50.679 50.702 50.702 50.744 50.709 50.712 50.704 50.674 50.657 50.634 50.589 50.557 50.494 50.442 50.419 50.394 50.354 50.324 50.312 50.232 50.197 50.079 49.967 49.844 49.714 49.627 49.539 49.377 49.234 49.119 49.067 48.834 48.719 48.617 48.474 48.352 48.212 48.104 47.987 47.867 47.732 47.612 47.527 47.429 47.434 47.349 47.247 47.137 47.384 48.057 47.119 46.439 46.579 46.192 45.714 45.637 45.517 45.439 45.324 45.212 45.074 44.944 44.904 44.984 44.529 44.377 44.242 44.117 43.982 43.874 43.722 43.599 43.454 45.439 47.472 49.419 49.017 46.004 42.694 43.344 43.059 42.252 42.099 42.022 41.969 41.889 41.754 41.904 42.037 41.904 41.892 41.654 41.427 41.657 41.672 41.697 41.879 42.187 41.952 42.077 42.352 42.499 42.692 42.799 42.969 43.112 43.267 43.362 43.499 43.632 43.779 43.904 44.039 44.167 44.289 44.412 44.547 44.669 44.847 44.937 45.022 45.057 45.177 45.219 45.272 45.358 45.443 45.487 45.557 45.576 45.622 45.677 45.715 45.714 45.711 45.724 45.673 45.648 45.647 45.643 45.592 45.552 45.54 45.505 45.53 45.507 45.51 45.43 45.38 45.332 45.28 45.185 45.107 45.025 44.95 44.935 44.852 44.775 44.66 46.315 45.64 44.182 44.065 43.912 43.812 43.705 43.595 43.505 43.417 43.335 43.252 43.147 43.077 42.952 42.89 42.797 42.675 42.557 42.427 42.3 42.167 42.075 42.002 42.025 42.12 42.282 42.497 42.71 42.92 43.105 43.312 43.547 43.772 43.997 44.227 44.447 44.67 44.875 45.122 45.37 45.64 45.89 46.147 46.41 46.662 46.917 47.177 47.415 47.68 47.912 48.15 48.377 48.555 48.775 48.977 49.202 49.375 49.537 49.722 49.91 50.077 50.232 50.377 50.557 50.675 50.845 50.97 51.117 51.247 51.39 51.515 51.625 51.727 51.84 51.937 52.025 52.095 52.195 52.267 52.315 52.39 52.435 52.465 52.542 52.572 52.57 52.6 52.63 52.635 52.655 52.64 52.615 52.595 52.61 52.607 52.61 52.617 52.632 52.645 52.655 52.682 52.697 52.727 52.68 54.055 55.195 54.33 52.637 51.725 51.622 51.522 51.432 51.332 51.217 51.087 50.985 50.847 50.705 50.57 50.407 50.262 50.145 50.037 49.875 49.712 49.542 49.405 49.232 49.02 48.832 48.687 48.52 48.36 48.192 48.03 47.835 47.66 47.472 47.31 47.13 46.945 46.757 46.58 46.387 46.207 46.02 45.82 45.62 45.402 45.197 44.977 44.717 44.522 44.33 44.097 43.837 43.657 43.605 44.922 44.722 42.947 42.29 41.877 41.757 41.757 41.752 41.732 41.655 41.522 41.385 41.317 41.29 41.432 41.285 40.592 40.382 40.237 40.462 40.965 41.085 41.165 41.312 41.405 41.57 41.567 41.632 41.787
51.062 50.627 51.339 51.917 51.179 51.069 51.182 51.619 52.492 51.317 50.432 50.354 50.322 50.264 50.237 50.202 50.167 50.172 50.139 50.129 50.112 50.127 50.157 50.154 50.169 50.187 50.179 50.177 50.177 50.172 50.172 50.202 50.224 50.212 50.242 50.289 50.317 50.347 50.359 50.357 50.399 50.414 50.422 50.482 50.489 50.474 50.469 50.477 50.509 50.547 50.592 50.629 50.674 50.679 50.697 50.674 50.682 50.704 50.707 50.719 50.714 50.709 50.714 50.712 50.714 50.714 50.739 50.739 50.757 50.774 50.764 50.744 50.737 50.732 50.727 50.684 50.644 50.599 50.567 50.519 50.474 50.447 50.407 50.379 50.357 50.289 50.202 50.112 50.014 49.892 49.752 49.649 49.544 49.434 49.314 49.172 49.022 48.889 48.774 48.654 48.507 48.339 48.249 48.099 48.004 47.882 47.764 47.664 47.534 47.479 47.417 47.372 47.327 47.174 46.992 47.644 47.254 46.392 46.634 46.212 45.729 45.624 45.549 45.462 45.357 45.232 45.117 44.977 44.862 44.947 44.584 44.437 44.307 44.154 44.019 43.877 43.767 43.642 43.114 43.112 45.599 49.337 49.129 45.829 42.822 43.399 43.409 42.349 42.137 42.069 42.004 41.902 41.827 42.069 41.844 41.352 41.224 41.064 41.507 41.757 41.842 42.067 42.499 42.124 42.134 42.307 42.432 42.617 42.777 42.967 43.114 43.224 43.407 43.522 43.629 43.767 43.914 44.037 44.162 44.297 44.412 44.524 44.669 44.787 44.897 45.037 45.129 45.199 45.259 45.354 45.424 45.467 45.551 45.62 45.671 45.685 45.714 45.753 45.778 45.788 45.8 45.815 45.795 45.774 45.787 45.777 45.757 45.697 45.652 45.655 45.642 45.65 45.645 45.59 45.522 45.477 45.395 45.32 45.227 45.162 45.07 44.997 44.955 44.872 44.815 45.33 45.96 44.33 44.21 44.095 43.96 43.845 43.74 43.64 43.562 43.46 43.387 43.302 43.185 43.105 42.987 42.917 42.81 42.695 42.577 42.417 42.32 42.175 42.09 42.09 42.195 42.352 42.535 42.73 42.945 43.145 43.385 43.572 43.785 44.017 44.255 44.467 44.677 44.877 45.132 45.35 45.6 45.865 46.142 46.425 46.677 46.937 47.21 47.44 47.677 47.915 48.162 48.387 48.602 48.807 48.977 49.185 49.367 49.552 49.717 49.882 50.072 50.215 50.387 50.537 50.675 50.827 50.952 51.095 51.227 51.355 51.467 51.587 51.695 51.795 51.907 51.995 52.072 52.155 52.237 52.297 52.36 52.397 52.435 52.505 52.51 52.527 52.577 52.592 52.615 52.63 52.657 52.612 52.612 52.617 52.615 52.637 52.647 52.652 52.705 52.692 52.727 52.747 52.692 53.81 55.512 55.13 52.13 51.875 51.732 51.675 51.577 51.44 51.335 51.222 51.11 50.982 50.85 50.682 50.592 50.46 50.31 50.16 50.042 49.865 49.707 49.552 49.422 49.255 49.047 48.862 48.735 48.577 48.41 48.225 48.062 47.86 47.687 47.49 47.345 47.155 46.967 46.777 46.595 46.41 46.235 46.047 45.867 45.642 45.45 45.255 45.065 44.842 44.68 44.48 44.25 44 43.852 43.685 45.347 45.575 45.057 45.15 44.575 44.415 43.027 43.12 42.387 42.01 41.535 41.442 41.39 41.412 41.502 41.342 40.645 41.225 42.475 40.317 40.83 41.065 41.15 41.312 41.53 41.702 41.755 41.752 41.795
51.462 50.829 51.044 51.952 51.179 51.097 51.217 51.262 52.189 50.959 50.437 50.342 50.302 50.262 50.217 50.172 50.172 50.137 50.122 50.114 50.114 50.117 50.157 50.164 50.159 50.169 50.169 50.174 50.197 50.162 50.189 50.227 50.214 50.229 50.257 50.307 50.314 50.349 50.362 50.389 50.427 50.447 50.452 50.477 50.482 50.489 50.502 50.507 50.547 50.572 50.624 50.672 50.717 50.722 50.732 50.722 50.742 50.749 50.734 50.752 50.757 50.754 50.752 50.769 50.772 50.794 50.812 50.824 50.804 50.832 50.829 50.794 50.807 50.747 50.757 50.712 50.679 50.624 50.589 50.519 50.509 50.469 50.434 50.397 50.359 50.287 50.219 50.142 50.049 49.937 49.829 49.709 49.574 49.449 49.337 49.174 49.087 48.932 48.804 48.659 48.522 48.389 48.237 48.139 48.029 47.947 47.812 47.667 47.544 47.477 47.452 47.407 47.277 47.214 47.007 47.289 47.484 46.442 46.574 46.427 45.694 45.619 45.532 45.474 45.354 45.277 45.157 45.022 44.927 44.999 44.632 44.487 44.349 44.194 44.072 43.899 43.787 43.684 43.219 43.212 46.047 49.184 49.262 46.957 43.222 42.787 43.432 42.269 42.182 42.087 42.002 41.934 41.899 42.162 42.104 43.949 42.072 41.204 41.637 41.819 41.912 42.177 42.597 42.259 42.309 42.492 42.612 42.799 42.952 43.122 43.284 43.407 43.539 43.682 43.797 43.907 44.002 44.147 44.297 44.419 44.542 44.649 44.784 44.924 45.017 45.132 45.202 45.289 45.387 45.457 45.494 45.544 45.649 45.718 45.768 45.772 45.809 45.85 45.885 45.911 45.935 45.945 45.93 45.929 45.921 45.91 45.874 45.845 45.812 45.8 45.805 45.812 45.78 45.73 45.685 45.612 45.537 45.465 45.38 45.302 45.222 45.15 45.072 45.05 44.93 45.195 46.305 44.567 44.317 44.207 44.082 43.977 43.852 43.787 43.695 43.565 43.485 43.412 43.307 43.227 43.127 43.04 42.925 42.83 42.692 42.537 42.407 42.262 42.15 42.15 42.242 42.395 42.57 42.747 42.945 43.15 43.395 43.6 43.81 44.03 44.232 44.48 44.72 44.927 45.145 45.362 45.63 45.862 46.122 46.422 46.692 46.947 47.202 47.472 47.697 47.935 48.17 48.405 48.62 48.805 48.995 49.182 49.375 49.56 49.725 49.9 50.057 50.205 50.37 50.525 50.652 50.81 50.957 51.09 51.195 51.342 51.46 51.56 51.7 51.802 51.895 51.99 52.067 52.137 52.225 52.267 52.34 52.367 52.425 52.475 52.507 52.527 52.577 52.57 52.582 52.612 52.612 52.612 52.652 52.647 52.64 52.655 52.67 52.687 52.735 52.74 52.747 52.717 54.335 54.41 54.347 52.26 51.975 51.85 51.792 51.695 51.572 51.472 51.347 51.24 51.092 50.967 50.85 50.722 50.57 50.465 50.33 50.17 50.05 49.875 49.75 49.545 49.38 49.237 49.09 48.922 48.727 48.582 48.427 48.25 48.06 47.88 47.722 47.547 47.355 47.177 46.99 46.817 46.63 46.455 46.27 46.087 45.902 45.715 45.535 45.357 45.172 44.97 44.815 44.642 44.392 44.19 44.045 43.892 44.292 45.655 45.037 46.162 46.167 46.077 45.925 45.815 45.682 44.057 41.597 41.525 41.495 41.522 41.682 41.465 41.102 40.352 40.935 40.56 41.142 41.04 41.19 41.397 41.607 41.715 41.747 41.837 41.965
50.947 50.584 50.934 52.127 51.242 51.139 51.219 51.517 51.772 50.772 50.409 50.357 50.317 50.259 50.237 50.199 50.159 50.147 50.134 50.132 50.124 50.122 50.159 50.177 50.164 50.204 50.202 50.219 50.199 50.209 50.204 50.214 50.247 50.294 50.294 50.352 50.334 50.389 50.382 50.392 50.422 50.477 50.484 50.492 50.507 50.499 50.512 50.567 50.589 50.617 50.649 50.687 50.737 50.754 50.777 50.789 50.789 50.827 50.799 50.787 50.794 50.812 50.807 50.802 50.817 50.827 50.857 50.852 50.834 50.854 50.862 50.869 50.849 50.819 50.779 50.749 50.734 50.677 50.624 50.579 50.537 50.487 50.459 50.427 50.372 50.332 50.259 50.172 50.084 49.974 49.854 49.742 49.627 49.499 49.359 49.237 49.099 48.952 48.817 48.684 48.552 48.417 48.272 48.177 48.074 47.944 47.824 47.689 47.604 47.517 47.469 47.409 47.304 47.174 47.119 47.514 47.182 46.449 46.604 46.399 45.747 45.657 45.587 45.529 45.389 45.277 45.164 45.057 44.952 44.992 44.687 44.549 44.382 44.289 45.374 45.282 44.724 44.037 43.584 43.729 46.367 49.462 49.342 46.482 44.022 42.557 42.462 42.309 42.247 42.152 42.074 42.019 42.092 42.264 42.197 42.012 41.577 41.274 41.787 41.889 42.029 42.287 42.287 42.344 42.457 42.632 42.757 42.957 43.142 43.289 43.427 43.552 43.689 43.804 43.914 44.019 44.149 44.294 44.409 44.552 44.669 44.777 44.889 45.034 45.137 45.237 45.364 45.452 45.517 45.574 45.617 45.684 45.733 45.804 45.855 45.905 45.946 45.978 46.007 46.055 46.067 46.066 46.059 46.051 46.044 46.054 46.018 45.995 45.94 45.93 45.95 45.957 45.94 45.897 45.83 45.752 45.68 45.59 45.515 45.45 45.372 45.272 45.177 45.165 45.112 45.09 46.36 44.627 44.46 44.347 44.245 44.142 44.017 43.895 43.762 43.67 43.595 43.517 43.457 43.347 43.247 43.137 43.015 42.902 42.795 42.642 42.497 42.365 42.25 42.22 42.277 42.45 42.595 42.775 42.98 43.177 43.4 43.605 43.797 44.032 44.24 44.445 44.675 44.887 45.107 45.367 45.607 45.862 46.12 46.377 46.652 46.95 47.22 47.482 47.72 47.967 48.2 48.415 48.617 48.807 48.995 49.187 49.365 49.53 49.72 49.862 50.032 50.212 50.345 50.502 50.655 50.785 50.925 51.072 51.187 51.307 51.44 51.535 51.65 51.78 51.85 51.972 52.057 52.125 52.175 52.255 52.322 52.352 52.407 52.465 52.485 52.517 52.542 52.542 52.57 52.585 52.615 52.62 52.667 52.63 52.62 52.65 52.682 52.72 52.737 52.77 52.797 53.665 55.952 54.165 52.355 52.022 51.945 51.855 51.802 51.695 51.575 51.467 51.355 51.232 51.107 50.96 50.83 50.702 50.595 50.505 50.322 50.2 50.072 49.905 49.735 49.572 49.442 49.282 49.11 48.925 48.732 48.602 48.432 48.267 48.062 47.905 47.745 47.547 47.402 47.197 47.027 46.86 46.682 46.47 46.272 46.1 45.945 45.75 45.592 45.432 45.252 45.082 44.947 44.77 44.54 44.34 44.17 44.067 44.092 45.012 45.36 45.85 45.93 46.272 46.06 45.985 46.107 43.927 41.707 41.607 41.602 41.877 41.737 41.617 41.027 40.527 41.172 40.69 41.772 41.187 41.187 41.352 41.547 41.752 41.7 41.75 42.012
50.367 50.454 50.987 51.994 51.297 51.159 51.404 51.824 51.909 50.697 50.424 50.377 50.342 50.259 50.227 50.217 50.192 50.187 50.162 50.142 50.132 50.142 50.172 50.199 50.194 50.232 50.222 50.227 50.207 50.237 50.254 50.257 50.242 50.294 50.339 50.357 50.379 50.407 50.427 50.439 50.459 50.489 50.487 50.532 50.494 50.529 50.552 50.599 50.599 50.639 50.702 50.727 50.754 50.769 50.817 50.779 50.817 50.844 50.854 50.842 50.847 50.842 50.849 50.844 50.884 50.897 50.902 50.909 50.892 50.897 50.899 50.904 50.889 50.879 50.852 50.802 50.749 50.704 50.664 50.624 50.549 50.532 50.512 50.472 50.419 50.374 50.294 50.194 50.089 49.982 49.879 49.764 49.632 49.517 49.389 49.239 49.137 48.964 48.837 48.687 48.582 48.449 48.339 48.234 48.094 47.982 47.862 47.709 47.622 47.522 47.452 47.437 47.352 47.192 47.132 47.542 47.487 46.459 46.522 46.324 45.744 45.669 45.609 45.552 45.427 45.334 45.222 45.087 44.982 45.054 46.307 44.847 45.457 45.789 44.882 44.567 44.697 44.417 44.109 43.479 45.234 49.044 49.439 46.482 43.187 43.102 43.257 42.464 42.244 42.212 42.117 41.989 42.169 42.207 42.374 41.952 41.404 41.687 42.192 42.062 42.207 42.587 42.412 42.559 42.679 42.832 42.954 43.107 43.282 43.427 43.574 43.702 43.819 43.944 44.049 44.157 44.269 44.417 44.562 44.669 44.802 44.912 45.044 45.152 45.279 45.374 45.504 45.582 45.634 45.699 45.749 45.822 45.881 45.948 45.999 46.029 46.08 46.115 46.149 46.177 46.2 46.201 46.193 46.194 46.208 46.206 46.175 46.112 46.072 46.1 46.105 46.11 46.07 46.027 45.977 45.89 45.8 45.735 45.672 45.595 45.51 45.407 45.307 45.307 45.222 45.21 46.235 44.757 44.585 44.487 44.367 44.242 44.135 44.005 43.887 43.787 43.677 43.637 43.537 43.442 43.347 43.252 43.117 43.022 42.892 42.757 42.632 42.49 42.38 42.307 42.322 42.455 42.62 42.792 43.002 43.2 43.397 43.587 43.83 44.035 44.232 44.442 44.697 44.87 45.095 45.335 45.58 45.842 46.112 46.38 46.65 46.927 47.207 47.47 47.727 47.957 48.17 48.427 48.625 48.815 48.97 49.195 49.362 49.527 49.715 49.852 50.01 50.182 50.317 50.487 50.622 50.755 50.912 51.002 51.167 51.282 51.41 51.507 51.605 51.73 51.842 51.917 52.017 52.085 52.14 52.215 52.275 52.327 52.39 52.437 52.457 52.505 52.527 52.547 52.557 52.58 52.617 52.622 52.65 52.672 52.66 52.665 52.717 52.757 52.77 53.187 55.06 55.775 53.675 52.267 52.097 52.005 51.945 51.85 51.762 51.65 51.577 51.482 51.365 51.21 51.067 50.96 50.832 50.712 50.637 50.492 50.357 50.225 50.05 49.897 49.747 49.61 49.472 49.302 49.137 48.96 48.787 48.632 48.455 48.29 48.112 47.92 47.752 47.572 47.42 47.232 47.075 46.895 46.71 46.522 46.305 46.147 45.982 45.805 45.652 45.517 45.33 45.192 45.045 44.86 44.652 44.477 44.307 44.177 44.135 44.252 44.207 43.822 42.552 43.152 43.075 43.965 44.08 43.112 41.707 41.71 41.882 41.97 41.807 41.767 41.182 40.337 40.31 40.58 41.075 41.232 41.152 41.267 41.37 41.577 41.552 41.782 41.92
50.347 50.422 50.767 51.844 51.254 51.117 51.339 51.719 51.987 50.622 50.439 50.369 50.334 50.284 50.272 50.242 50.239 50.199 50.164 50.169 50.167 50.182 50.192 50.244 50.229 50.229 50.254 50.234 50.232 50.282 50.272 50.287 50.277 50.327 50.374 50.389 50.399 50.422 50.462 50.507 50.519 50.512 50.537 50.527 50.514 50.542 50.574 50.629 50.644 50.674 50.709 50.732 50.794 50.812 50.859 50.849 50.854 50.862 50.869 50.872 50.887 50.892 50.894 50.909 50.912 50.934 50.962 50.949 50.967 50.954 50.954 50.962 50.952 50.912 50.919 50.869 50.807 50.754 50.687 50.659 50.607 50.599 50.557 50.527 50.447 50.392 50.317 50.242 50.132 50.019 49.922 49.804 49.674 49.569 49.447 49.289 49.149 49.037 48.862 48.722 48.619 48.489 48.364 48.262 48.122 48.017 47.887 47.742 47.627 47.537 47.437 47.427 47.357 47.217 47.142 47.639 47.444 46.444 46.477 46.477 45.767 45.697 45.634 45.532 45.417 45.334 45.202 45.094 45.009 46.677 51.494 47.632 45.724 45.962 44.617 44.617 44.457 43.827 43.572 43.407 46.047 48.959 49.554 47.069 43.094 42.934 43.189 42.659 42.297 42.257 42.169 42.089 42.262 42.169 42.044 41.667 41.414 42.249 42.392 42.199 42.492 42.869 42.572 42.652 42.822 42.972 43.127 43.267 43.427 43.577 43.712 43.847 43.954 44.087 44.197 44.302 44.404 44.532 44.664 44.809 44.914 45.037 45.144 45.299 45.384 45.477 45.579 45.667 45.779 45.829 45.894 45.927 46.031 46.089 46.147 46.162 46.206 46.226 46.264 46.297 46.329 46.324 46.334 46.337 46.331 46.336 46.324 46.266 46.23 46.22 46.232 46.25 46.215 46.182 46.107 46.027 45.947 45.872 45.8 45.732 45.66 45.572 45.457 45.405 45.382 45.397 46.51 44.942 44.72 44.602 44.5 44.36 44.25 44.107 43.98 43.87 43.777 43.705 43.61 43.547 43.435 43.345 43.235 43.095 42.972 42.842 42.715 42.572 42.48 42.392 42.39 42.46 42.647 42.83 43.005 43.195 43.43 43.63 43.845 44.047 44.237 44.45 44.675 44.872 45.08 45.275 45.552 45.825 46.087 46.34 46.64 46.92 47.177 47.44 47.682 47.942 48.17 48.407 48.627 48.812 48.982 49.187 49.362 49.532 49.68 49.855 50.002 50.17 50.307 50.465 50.595 50.745 50.89 50.997 51.13 51.262 51.367 51.492 51.585 51.705 51.812 51.88 51.977 52.062 52.12 52.192 52.245 52.305 52.357 52.42 52.447 52.49 52.515 52.547 52.557 52.582 52.612 52.632 52.665 52.695 52.677 52.717 52.747 52.775 53.09 54.217 53.425 52.807 52.292 52.142 52.065 52.052 51.94 51.82 51.735 51.667 51.585 51.465 51.33 51.192 51.075 50.947 50.842 50.732 50.612 50.477 50.345 50.187 50.052 49.922 49.785 49.637 49.452 49.315 49.147 48.985 48.795 48.64 48.457 48.307 48.132 47.957 47.782 47.602 47.445 47.275 47.1 46.915 46.742 46.565 46.365 46.212 46.04 45.86 45.722 45.562 45.392 45.277 45.135 44.955 44.78 44.587 44.422 44.322 44.217 44.145 44.487 45.217 43.287 42.575 42.41 42.372 42.337 42.025 41.81 41.815 42.22 42.275 42.085 41.892 41.492 40.747 40.432 40.387 40.627 40.977 41.405 41.347 41.382 41.655 41.882 41.967 41.767
50.414 50.497 50.812 51.697 51.314 51.162 51.367 51.687 51.739 50.604 50.429 50.402 50.342 50.314 50.279 50.262 50.247 50.219 50.187 50.184 50.172 50.194 50.202 50.232 50.227 50.242 50.287 50.282 50.237 50.272 50.279 50.269 50.312 50.327 50.382 50.399 50.444 50.457 50.482 50.509 50.509 50.509 50.572 50.549 50.544 50.599 50.624 50.639 50.659 50.729 50.742 50.804 50.839 50.869 50.914 50.909 50.904 50.919 50.917 50.949 50.949 50.962 50.969 51.012 50.977 50.987 51.029 51.009 51.004 51.047 51.049 51.024 51.032 50.984 50.957 50.909 50.849 50.807 50.777 50.719 50.664 50.617 50.597 50.527 50.487 50.434 50.357 50.289 50.147 50.044 49.962 49.822 49.709 49.589 49.447 49.307 49.167 49.027 48.897 48.759 48.642 48.532 48.404 48.269 48.142 48.024 47.892 47.787 47.677 47.547 47.477 47.449 47.372 47.217 47.064 47.114 47.127 46.462 46.519 46.422 45.772 45.699 45.592 45.527 45.424 45.282 45.169 45.069 44.979 46.227 48.492 46.267 44.722 44.527 44.287 44.157 44.014 43.827 43.612 43.274 44.972 48.837 49.654 47.137 43.039 43.314 42.774 42.449 42.324 42.264 42.197 42.262 42.387 42.122 41.637 41.554 41.884 42.562 42.604 42.444 42.967 42.587 42.629 42.774 42.919 43.097 43.257 43.407 43.567 43.714 43.829 43.959 44.079 44.202 44.277 44.422 44.554 44.679 44.797 44.919 45.042 45.194 45.294 45.399 45.517 45.579 45.684 45.799 45.879 45.954 45.977 46.054 46.142 46.194 46.227 46.258 46.312 46.355 46.377 46.418 46.436 46.441 46.434 46.457 46.454 46.47 46.451 46.403 46.372 46.38 46.37 46.385 46.345 46.307 46.245 46.162 46.08 46.027 45.94 45.867 45.787 45.695 45.607 45.565 45.527 45.44 46.702 45.392 44.847 44.705 44.61 44.482 44.362 44.217 44.077 43.955 43.86 43.785 43.677 43.595 43.512 43.412 43.312 43.172 43.06 42.92 42.775 42.672 42.565 42.477 42.445 42.49 42.652 42.807 43 43.202 43.392 43.597 43.82 43.995 44.212 44.44 44.63 44.845 45.027 45.257 45.5 45.772 46.022 46.295 46.597 46.887 47.14 47.397 47.647 47.902 48.157 48.375 48.585 48.762 48.957 49.145 49.33 49.472 49.652 49.827 49.982 50.14 50.285 50.417 50.565 50.695 50.84 50.962 51.1 51.215 51.325 51.452 51.565 51.647 51.76 51.862 51.922 52.017 52.077 52.172 52.222 52.287 52.332 52.385 52.44 52.495 52.507 52.552 52.562 52.572 52.605 52.637 52.66 52.672 52.707 52.745 52.792 52.907 54.185 53.632 52.575 52.322 52.202 52.142 52.065 51.995 51.895 51.802 51.717 51.642 51.542 51.442 51.32 51.205 51.085 50.972 50.852 50.722 50.635 50.495 50.335 50.175 50.057 49.945 49.805 49.65 49.487 49.322 49.14 48.987 48.812 48.637 48.492 48.347 48.16 47.995 47.83 47.645 47.497 47.322 47.137 46.962 46.79 46.595 46.41 46.242 46.072 45.92 45.795 45.62 45.457 45.34 45.207 45.035 44.865 44.7 44.5 44.412 44.3 44.18 45.525 45.327 43.397 42.552 42.81 42.615 42.38 42.132 41.922 41.987 42.272 42.46 42.25 41.97 41.807 43.385 42.372 41.33 40.685 41.595 42.135 41.885 41.617 42.062 42.43 41.63 41.765
50.422 50.547 50.927 52.039 51.262 51.169 51.372 52.152 51.767 50.632 50.437 50.409 50.357 50.299 50.257 50.232 50.217 50.194 50.184 50.162 50.187 50.194 50.192 50.232 50.234 50.262 50.257 50.294 50.257 50.254 50.302 50.294 50.312 50.359 50.392 50.382 50.434 50.457 50.487 50.537 50.549 50.559 50.579 50.574 50.584 50.607 50.629 50.647 50.682 50.729 50.789 50.814 50.887 50.912 50.939 50.954 50.962 50.964 51.014 50.977 51.022 51.029 51.004 51.007 51.039 51.037 51.049 51.059 51.062 51.044 51.077 51.087 51.054 51.052 51.024 50.969 50.904 50.839 50.807 50.742 50.672 50.634 50.594 50.569 50.504 50.444 50.387 50.277 50.192 50.077 49.962 49.829 49.737 49.582 49.462 49.324 49.174 49.032 48.907 48.764 48.672 48.564 48.417 48.274 48.144 48.052 47.904 47.792 47.689 47.534 47.482 47.424 47.409 47.232 47.084 47.202 47.184 46.449 46.489 46.574 45.807 45.684 45.577 45.514 45.417 45.289 45.134 45.034 44.952 45.267 47.969 48.234 45.287 44.392 44.227 44.062 43.952 43.789 43.589 43.599 46.467 48.679 49.669 47.294 43.839 43.234 42.584 42.427 42.347 42.284 42.227 42.387 42.669 42.109 41.562 41.907 42.677 42.767 42.642 43.157 43.069 42.567 42.739 42.897 43.042 43.212 43.374 43.534 43.674 43.819 43.949 44.084 44.212 44.314 44.424 44.529 44.649 44.789 44.897 45.037 45.149 45.289 45.417 45.484 45.594 45.709 45.767 45.892 45.959 46.019 46.079 46.127 46.207 46.248 46.301 46.382 46.397 46.457 46.491 46.524 46.554 46.554 46.569 46.566 46.583 46.578 46.574 46.527 46.492 46.475 46.507 46.505 46.477 46.432 46.36 46.292 46.217 46.132 46.04 45.987 45.922 45.837 45.755 45.695 45.69 45.55 46.797 45.37 44.987 44.84 44.715 44.557 44.42 44.29 44.167 44.05 43.93 43.842 43.732 43.657 43.582 43.477 43.382 43.265 43.125 43 42.862 42.725 42.625 42.537 42.492 42.54 42.657 42.81 43 43.205 43.407 43.602 43.805 44.01 44.185 44.402 44.597 44.777 44.995 45.197 45.432 45.697 45.947 46.23 46.502 46.805 47.062 47.337 47.592 47.827 48.082 48.322 48.505 48.717 48.922 49.102 49.255 49.425 49.607 49.747 49.912 50.087 50.225 50.367 50.497 50.657 50.78 50.932 51.04 51.162 51.285 51.387 51.5 51.602 51.712 51.802 51.887 51.98 52.055 52.112 52.18 52.252 52.32 52.355 52.405 52.452 52.497 52.547 52.555 52.587 52.617 52.64 52.67 52.712 52.767 52.797 53.87 54.877 53.372 52.735 52.362 52.205 52.167 52.117 52.025 51.96 51.875 51.8 51.725 51.625 51.545 51.435 51.325 51.18 51.062 50.962 50.855 50.74 50.61 50.48 50.342 50.215 50.102 49.942 49.81 49.672 49.492 49.337 49.165 49.022 48.842 48.665 48.51 48.365 48.202 48.035 47.855 47.682 47.507 47.35 47.197 47.025 46.832 46.657 46.467 46.302 46.135 46 45.85 45.672 45.542 45.432 45.27 45.1 44.94 44.782 44.597 44.467 44.367 44.282 44.897 45.822 43.907 42.745 42.862 43.02 42.95 42.787 42.157 42.232 42.677 42.455 42.415 42.182 42.01 42.975 42.062 42.045 41.237 41.205 41.4 41.435 41.675 41.725 42.972 41.88 41.502
50.419 50.539 51.017 52.027 51.292 51.194 51.439 51.879 51.322 50.529 50.414 50.384 50.382 50.287 50.267 50.244 50.219 50.197 50.157 50.162 50.182 50.199 50.184 50.212 50.219 50.234 50.247 50.282 50.264 50.289 50.297 50.312 50.327 50.367 50.419 50.437 50.459 50.497 50.524 50.532 50.587 50.577 50.582 50.639 50.644 50.657 50.654 50.699 50.732 50.777 50.829 50.852 50.947 50.972 51.004 51.019 51.049 51.062 51.069 51.067 51.084 51.077 51.077 51.069 51.054 51.092 51.112 51.087 51.102 51.107 51.097 51.087 51.102 51.097 51.029 50.984 50.947 50.887 50.817 50.754 50.679 50.647 50.604 50.549 50.512 50.442 50.357 50.277 50.179 50.119 49.974 49.857 49.732 49.562 49.457 49.357 49.219 49.057 48.929 48.817 48.677 48.572 48.444 48.297 48.174 48.079 47.939 47.802 47.664 47.494 47.437 47.382 47.374 47.314 47.057 46.979 46.979 46.422 46.422 46.564 45.809 45.649 45.559 45.504 45.407 45.269 45.137 45.019 44.917 44.997 47.027 48.217 46.629 44.464 44.184 44.047 43.907 43.782 43.629 44.032 45.977 47.647 47.844 46.084 42.919 42.632 42.537 42.424 42.374 42.312 42.247 42.449 42.484 42.599 42.572 42.357 42.927 42.924 42.882 43.154 42.594 42.619 42.819 43.027 43.167 43.349 43.489 43.642 43.817 43.924 44.049 44.184 44.307 44.419 44.524 44.647 44.752 44.879 44.997 45.144 45.262 45.369 45.474 45.587 45.662 45.787 45.912 46.004 46.097 46.177 46.204 46.252 46.312 46.392 46.419 46.477 46.514 46.582 46.591 46.629 46.674 46.676 46.689 46.702 46.699 46.698 46.682 46.654 46.616 46.612 46.615 46.625 46.58 46.54 46.48 46.415 46.335 46.25 46.207 46.115 46.05 45.97 45.87 45.785 45.76 45.66 46.992 45.547 45.072 44.94 44.812 44.642 44.515 44.38 44.242 44.112 44 43.92 43.835 43.71 43.652 43.54 43.462 43.377 43.242 43.09 42.967 42.865 42.73 42.625 42.585 42.595 42.665 42.81 42.987 43.195 43.397 43.592 43.802 44.015 44.197 44.392 44.577 44.79 44.98 45.175 45.375 45.615 45.892 46.135 46.415 46.692 46.98 47.262 47.5 47.77 48.007 48.26 48.47 48.682 48.855 49.042 49.22 49.392 49.562 49.692 49.86 50.002 50.15 50.287 50.432 50.61 50.705 50.84 50.952 51.097 51.22 51.325 51.43 51.552 51.65 51.735 51.825 51.91 51.997 52.075 52.137 52.212 52.28 52.317 52.38 52.43 52.482 52.497 52.532 52.577 52.617 52.665 52.667 52.735 52.745 53.012 53.297 54.97 53.015 52.455 52.25 52.195 52.125 52.047 51.962 51.932 51.885 51.782 51.697 51.625 51.542 51.422 51.3 51.177 51.06 50.965 50.877 50.722 50.597 50.49 50.347 50.247 50.115 49.98 49.822 49.682 49.512 49.37 49.2 49.047 48.865 48.71 48.557 48.43 48.252 48.072 47.892 47.737 47.545 47.41 47.242 47.08 46.897 46.735 46.517 46.355 46.19 46.055 45.922 45.732 45.6 45.482 45.322 45.175 45.01 44.84 44.672 44.515 44.425 44.27 44.057 44.272 43.46 42.992 42.7 43.037 43.195 43.302 42.442 42.44 42.72 42.492 42.485 42.357 42.15 41.852 41.77 41.712 41.512 41.062 41.08 41.157 41.31 41.442 41.815 42.31 41.542
50.424 50.564 50.989 52.087 51.287 51.209 51.412 51.687 51.292 50.564 50.422 50.384 50.379 50.317 50.279 50.259 50.197 50.202 50.204 50.184 50.192 50.202 50.222 50.214 50.257 50.264 50.272 50.309 50.297 50.322 50.347 50.379 50.374 50.402 50.469 50.479 50.514 50.564 50.594 50.599 50.632 50.642 50.639 50.684 50.689 50.709 50.712 50.787 50.804 50.882 50.912 50.952 51.002 51.037 51.074 51.102 51.107 51.127 51.144 51.129 51.119 51.144 51.139 51.129 51.107 51.137 51.134 51.124 51.149 51.172 51.152 51.164 51.147 51.119 51.072 51.004 50.949 50.909 50.832 50.779 50.697 50.699 50.624 50.579 50.517 50.454 50.382 50.272 50.184 50.072 49.972 49.864 49.742 49.602 49.464 49.364 49.234 49.099 48.944 48.817 48.697 48.597 48.454 48.347 48.204 48.094 47.957 47.827 47.617 47.474 47.424 47.359 47.342 47.322 47.112 47.024 47.342 46.442 46.429 46.532 45.764 45.667 45.564 45.494 45.397 45.272 45.144 45.024 44.902 44.854 48.244 48.237 46.464 44.869 44.199 44.069 43.909 43.772 43.654 43.557 44.662 45.397 45.362 44.222 42.712 42.614 42.527 42.459 42.397 42.312 42.242 42.272 42.422 42.509 42.337 42.627 43.252 43.369 43.129 42.567 42.509 42.709 42.967 43.132 43.277 43.442 43.572 43.719 43.879 44.012 44.139 44.264 44.389 44.522 44.622 44.719 44.839 44.967 45.102 45.247 45.354 45.464 45.569 45.657 45.764 45.882 45.959 46.107 46.179 46.249 46.302 46.354 46.427 46.454 46.517 46.588 46.635 46.694 46.714 46.756 46.792 46.807 46.792 46.801 46.818 46.816 46.787 46.761 46.735 46.694 46.692 46.712 46.69 46.64 46.58 46.522 46.447 46.362 46.302 46.26 46.165 46.085 45.987 45.885 45.857 45.89 47.277 45.687 45.18 45.022 44.91 44.76 44.602 44.472 44.337 44.222 44.117 44 43.907 43.817 43.742 43.642 43.545 43.44 43.342 43.21 43.065 42.955 42.827 42.707 42.655 42.655 42.695 42.81 42.985 43.212 43.45 43.64 43.822 44.017 44.187 44.365 44.577 44.75 44.975 45.147 45.365 45.595 45.837 46.072 46.317 46.59 46.882 47.157 47.425 47.687 47.94 48.187 48.402 48.607 48.802 49.01 49.155 49.327 49.487 49.647 49.795 49.945 50.105 50.237 50.385 50.535 50.665 50.787 50.907 51.03 51.145 51.247 51.36 51.485 51.59 51.69 51.777 51.88 51.915 52.02 52.085 52.175 52.247 52.322 52.36 52.4 52.452 52.465 52.502 52.58 52.585 52.632 52.67 52.887 53.757 54.47 52.835 52.542 52.477 52.262 52.19 52.14 52.097 52.032 51.97 51.927 51.842 51.752 51.672 51.612 51.517 51.395 51.272 51.175 51.035 50.96 50.86 50.742 50.642 50.525 50.39 50.255 50.11 49.957 49.825 49.69 49.555 49.395 49.24 49.055 48.912 48.767 48.61 48.455 48.302 48.13 47.952 47.792 47.602 47.475 47.302 47.127 46.95 46.802 46.595 46.425 46.237 46.107 45.97 45.817 45.667 45.525 45.382 45.257 45.112 44.917 44.73 44.54 44.442 44.307 44.125 44.245 43.08 42.755 42.87 42.902 42.937 43.41 42.652 42.555 43.612 42.672 42.537 42.34 41.947 41.48 41.37 41.232 41.107 41.095 41.302 41.417 41.465 41.635 41.687 41.822 41.652
50.414 50.537 51.009 52.142 51.352 51.247 51.554 51.592 51.632 50.552 50.409 50.409 50.397 50.327 50.289 50.257 50.254 50.237 50.249 50.227 50.222 50.229 50.247 50.274 50.312 50.297 50.322 50.337 50.334 50.342 50.392 50.437 50.432 50.452 50.507 50.537 50.579 50.622 50.639 50.664 50.699 50.704 50.704 50.754 50.769 50.782 50.787 50.844 50.899 50.944 50.967 51.012 51.077 51.084 51.107 51.137 51.142 51.159 51.184 51.179 51.147 51.174 51.172 51.177 51.154 51.169 51.199 51.197 51.199 51.189 51.182 51.214 51.182 51.169 51.074 51.084 50.972 50.912 50.862 50.809 50.769 50.707 50.669 50.622 50.539 50.499 50.404 50.312 50.197 50.119 50.047 49.939 49.787 49.659 49.539 49.384 49.229 49.104 48.964 48.877 48.792 48.632 48.507 48.357 48.239 48.089 47.972 47.802 47.609 47.452 47.402 47.392 47.362 47.352 47.104 47.402 47.939 46.414 46.377 46.402 45.787 45.669 45.562 45.482 45.367 45.269 45.142 45.029 44.909 44.834 46.727 48.557 47.829 44.464 44.244 44.129 43.977 43.832 43.852 43.697 43.072 44.164 43.124 43.074 42.664 42.579 42.532 42.494 42.412 42.322 42.294 42.267 42.234 42.314 42.259 42.414 42.612 42.572 42.474 42.449 42.589 42.824 43.022 43.219 43.407 43.529 43.674 43.804 43.939 44.074 44.202 44.332 44.447 44.582 44.692 44.809 44.919 45.057 45.187 45.309 45.427 45.542 45.662 45.759 45.849 45.949 46.037 46.164 46.249 46.307 46.352 46.432 46.514 46.552 46.613 46.666 46.742 46.8 46.844 46.858 46.9 46.925 46.923 46.918 46.91 46.912 46.895 46.864 46.834 46.814 46.81 46.812 46.782 46.752 46.692 46.632 46.555 46.472 46.41 46.347 46.27 46.207 46.1 46.017 46 45.882 47.027 46.257 45.245 45.102 44.975 44.85 44.69 44.537 44.445 44.322 44.167 44.087 44.012 43.922 43.805 43.715 43.607 43.505 43.39 43.282 43.152 43.027 42.937 42.837 42.765 42.732 42.74 42.842 43.022 43.227 43.43 43.66 43.82 44.032 44.222 44.397 44.572 44.752 44.957 45.105 45.297 45.54 45.767 46.012 46.235 46.51 46.777 47.047 47.325 47.597 47.85 48.097 48.345 48.532 48.73 48.94 49.105 49.275 49.422 49.587 49.725 49.897 50.045 50.175 50.327 50.475 50.605 50.742 50.857 50.975 51.085 51.2 51.315 51.405 51.502 51.622 51.695 51.805 51.895 51.98 52.075 52.155 52.21 52.285 52.325 52.367 52.415 52.437 52.46 52.512 52.587 52.607 52.695 54.592 55.665 54.795 52.53 52.432 52.31 52.25 52.162 52.15 52.097 52.03 51.98 51.907 51.817 51.762 51.69 51.58 51.51 51.4 51.285 51.18 51.04 50.947 50.865 50.76 50.637 50.52 50.397 50.26 50.14 49.997 49.84 49.707 49.57 49.4 49.225 49.097 48.96 48.79 48.62 48.48 48.305 48.14 47.975 47.837 47.652 47.515 47.322 47.192 47.037 46.852 46.685 46.5 46.305 46.177 46.052 45.865 45.735 45.607 45.46 45.317 45.16 44.977 44.79 44.597 44.462 44.367 44.162 44.5 46.492 45.312 45.765 44.242 42.715 43.09 42.662 42.707 42.992 42.8 42.65 42.387 41.785 41.23 41.2 41.097 41.09 41.14 41.185 41.385 41.6 41.577 41.62 41.545 41.61
50.419 50.504 50.967 52.227 51.369 51.249 51.532 51.702 51.502 50.547 50.457 50.432 50.392 50.362 50.349 50.307 50.302 50.297 50.309 50.299 50.302 50.287 50.297 50.339 50.352 50.357 50.367 50.367 50.387 50.419 50.439 50.454 50.477 50.489 50.532 50.549 50.614 50.642 50.674 50.714 50.719 50.739 50.742 50.797 50.789 50.819 50.852 50.874 50.912 50.947 50.982 51.027 51.097 51.112 51.149 51.167 51.184 51.194 51.209 51.192 51.204 51.187 51.232 51.224 51.212 51.182 51.214 51.214 51.194 51.202 51.234 51.204 51.189 51.169 51.129 51.094 51.017 50.947 50.889 50.854 50.774 50.739 50.679 50.637 50.574 50.489 50.442 50.349 50.239 50.149 50.017 49.927 49.799 49.679 49.574 49.379 49.239 49.172 49.049 48.847 48.774 48.657 48.519 48.367 48.264 48.119 47.974 47.819 47.642 47.499 47.429 47.389 47.409 47.324 47.114 47.397 47.979 46.367 46.337 46.397 45.764 45.664 45.579 45.474 45.357 45.252 45.147 45.022 44.927 44.877 46.764 48.762 48.507 45.229 45.259 45.567 45.754 45.882 44.812 44.347 43.232 42.939 42.884 42.729 42.677 42.619 42.582 42.519 42.444 42.379 42.412 42.542 42.894 42.574 42.242 42.149 42.092 42.242 42.332 42.499 42.697 42.924 43.134 43.319 43.487 43.627 43.767 43.934 44.029 44.187 44.294 44.424 44.547 44.684 44.779 44.894 45.017 45.144 45.277 45.404 45.534 45.654 45.757 45.839 45.929 46.014 46.127 46.209 46.294 46.367 46.422 46.504 46.577 46.619 46.673 46.749 46.81 46.877 46.898 46.925 46.95 46.982 47.02 47.005 46.999 46.983 46.971 46.948 46.908 46.906 46.892 46.882 46.867 46.842 46.782 46.722 46.675 46.587 46.515 46.46 46.4 46.327 46.21 46.167 46.125 46.015 46.837 47.002 45.342 45.16 45.035 44.92 44.76 44.657 44.535 44.397 44.272 44.162 44.08 43.962 43.89 43.802 43.71 43.615 43.49 43.36 43.257 43.142 43.022 42.922 42.83 42.782 42.785 42.857 43.04 43.235 43.455 43.65 43.84 44.062 44.242 44.435 44.595 44.757 44.96 45.1 45.29 45.475 45.725 45.935 46.19 46.445 46.675 46.947 47.21 47.47 47.772 47.985 48.237 48.437 48.65 48.842 49.02 49.195 49.375 49.52 49.667 49.82 49.987 50.107 50.257 50.395 50.53 50.652 50.805 50.91 51.007 51.127 51.257 51.382 51.462 51.572 51.652 51.732 51.815 51.93 51.987 52.085 52.18 52.227 52.28 52.342 52.387 52.407 52.462 52.517 52.532 52.935 54.45 55.735 54.877 53.05 52.417 52.335 52.292 52.205 52.19 52.142 52.087 52.04 51.997 51.88 51.837 51.765 51.667 51.567 51.475 51.41 51.282 51.142 51.055 50.967 50.88 50.772 50.652 50.537 50.415 50.28 50.155 50.015 49.865 49.737 49.58 49.415 49.26 49.14 48.982 48.807 48.667 48.532 48.37 48.2 48.032 47.867 47.712 47.58 47.407 47.267 47.082 46.937 46.775 46.567 46.42 46.275 46.122 45.95 45.835 45.682 45.5 45.362 45.212 44.997 44.84 44.64 44.49 44.367 44.227 44.095 44.977 45.897 46.26 44.26 44.857 44.42 42.672 42.817 42.905 42.842 42.652 42.35 41.882 41.257 41.197 41.132 41.115 41.19 41.25 41.54 41.467 41.555 41.547 41.54 41.512
50.407 50.519 50.879 52.054 51.407 51.284 51.594 52.012 51.542 50.587 50.467 50.472 50.459 50.392 50.374 50.384 50.357 50.329 50.322 50.339 50.309 50.329 50.344 50.347 50.374 50.404 50.407 50.384 50.399 50.429 50.434 50.467 50.484 50.517 50.554 50.567 50.612 50.639 50.669 50.689 50.709 50.729 50.789 50.802 50.814 50.827 50.847 50.902 50.929 50.972 51.047 51.069 51.112 51.164 51.189 51.199 51.199 51.209 51.239 51.237 51.234 51.234 51.257 51.259 51.249 51.242 51.249 51.229 51.234 51.277 51.242 51.247 51.219 51.202 51.162 51.107 51.054 51.012 50.917 50.872 50.814 50.749 50.699 50.639 50.589 50.512 50.464 50.354 50.267 50.154 50.037 49.937 49.839 49.687 49.577 49.412 49.282 49.159 49.049 48.907 48.747 48.652 48.502 48.367 48.272 48.119 47.979 47.819 47.684 47.552 47.437 47.432 47.409 47.292 47.142 47.612 47.847 46.457 46.329 46.254 45.749 45.654 45.564 45.494 45.379 45.257 45.157 45.059 44.957 44.877 46.697 48.682 47.087 48.499 50.619 47.627 46.359 46.859 44.877 43.232 43.009 42.944 42.852 42.762 42.709 42.642 42.599 42.534 42.462 42.457 42.472 43.249 43.469 43.367 42.777 42.187 42.187 42.322 42.422 42.594 42.812 43.032 43.222 43.444 43.634 43.792 43.874 44.017 44.149 44.277 44.397 44.532 44.654 44.774 44.909 45.032 45.139 45.272 45.394 45.514 45.632 45.769 45.867 45.992 46.064 46.169 46.224 46.304 46.377 46.447 46.529 46.609 46.644 46.727 46.769 46.86 46.887 46.95 46.975 47 47.009 47.035 47.074 47.071 47.078 47.065 47.038 47.001 46.986 46.973 46.989 46.972 46.94 46.912 46.855 46.805 46.74 46.675 46.602 46.522 46.465 46.392 46.315 46.25 46.197 46.132 46.905 46.832 45.54 45.295 45.125 44.997 44.86 44.757 44.635 44.487 44.36 44.28 44.17 44.1 43.997 43.912 43.78 43.675 43.567 43.467 43.362 43.252 43.135 43.017 42.942 42.872 42.84 42.915 43.082 43.247 43.472 43.665 43.87 44.045 44.23 44.412 44.602 44.777 44.925 45.092 45.282 45.435 45.665 45.895 46.135 46.362 46.605 46.882 47.12 47.38 47.652 47.912 48.16 48.385 48.577 48.77 48.955 49.135 49.3 49.477 49.637 49.77 49.93 50.07 50.202 50.357 50.47 50.61 50.732 50.865 50.965 51.092 51.205 51.327 51.415 51.525 51.617 51.71 51.785 51.88 51.962 52.05 52.117 52.195 52.265 52.305 52.347 52.412 52.47 53.052 53.742 54.802 54.962 53.437 52.592 52.435 52.382 52.34 52.275 52.232 52.187 52.14 52.11 52.062 52.002 51.922 51.857 51.772 51.677 51.577 51.502 51.357 51.272 51.15 51.1 51.005 50.9 50.797 50.672 50.56 50.435 50.29 50.16 50.032 49.892 49.742 49.62 49.442 49.292 49.172 49.015 48.852 48.695 48.565 48.38 48.21 48.07 47.89 47.732 47.61 47.485 47.325 47.165 46.987 46.832 46.63 46.475 46.332 46.197 46.057 45.932 45.755 45.575 45.415 45.242 45.06 44.887 44.71 44.517 44.387 44.275 44.155 44.02 44.002 44.552 45.685 43.862 43.837 42.83 42.845 42.907 42.805 43.557 42.74 43.125 41.46 41.247 41.935 41.28 41.177 41.265 41.632 41.42 41.455 41.555 41.587 41.62
50.399 50.514 50.809 52.134 51.407 51.292 51.677 51.794 51.822 50.619 50.529 50.502 50.487 50.432 50.422 50.377 50.379 50.354 50.339 50.354 50.354 50.354 50.347 50.364 50.377 50.377 50.377 50.362 50.399 50.422 50.424 50.467 50.469 50.509 50.579 50.567 50.574 50.642 50.649 50.692 50.712 50.729 50.789 50.812 50.804 50.842 50.862 50.927 50.942 50.992 51.049 51.077 51.132 51.194 51.207 51.214 51.259 51.252 51.267 51.259 51.297 51.289 51.309 51.292 51.314 51.297 51.264 51.279 51.287 51.287 51.289 51.282 51.232 51.199 51.167 51.094 51.052 50.997 50.939 50.857 50.787 50.749 50.699 50.662 50.592 50.532 50.447 50.369 50.257 50.144 50.042 49.929 49.812 49.679 49.559 49.414 49.297 49.157 49.027 48.907 48.744 48.632 48.502 48.359 48.214 48.092 47.969 47.794 47.659 47.502 47.459 47.397 47.347 47.274 47.102 47.427 48.292 46.419 46.257 46.294 45.839 45.672 45.609 45.517 45.392 45.222 45.124 45.057 44.949 44.922 45.532 47.069 50.229 50.884 53.094 49.662 45.564 43.927 43.779 43.109 42.992 42.927 42.852 42.807 42.742 42.674 42.602 42.582 42.482 42.494 42.654 43.309 43.304 42.887 42.722 42.372 42.342 42.422 42.502 42.739 42.914 43.119 43.327 43.537 43.704 43.872 43.977 44.074 44.174 44.327 44.457 44.599 44.702 44.837 44.962 45.077 45.217 45.339 45.454 45.567 45.722 45.827 45.944 46.059 46.162 46.229 46.319 46.397 46.472 46.527 46.592 46.709 46.727 46.814 46.867 46.932 47.009 47.051 47.111 47.109 47.118 47.12 47.154 47.186 47.213 47.188 47.163 47.106 47.086 47.067 47.056 47.042 47.032 46.995 46.947 46.895 46.825 46.745 46.672 46.607 46.537 46.485 46.397 46.325 46.267 46.175 47.265 46.807 45.842 45.467 45.222 45.087 44.952 44.83 44.715 44.595 44.485 44.37 44.275 44.197 44.09 43.995 43.892 43.767 43.672 43.585 43.47 43.355 43.22 43.107 43 42.96 42.935 43.002 43.145 43.305 43.507 43.712 43.887 44.055 44.247 44.435 44.595 44.772 44.93 45.102 45.245 45.435 45.632 45.857 46.082 46.307 46.555 46.777 47.042 47.292 47.562 47.805 48.045 48.315 48.51 48.715 48.927 49.095 49.267 49.455 49.597 49.732 49.885 50.035 50.142 50.287 50.432 50.56 50.69 50.825 50.92 51.047 51.147 51.255 51.36 51.46 51.6 51.67 51.757 51.847 51.912 51.995 52.08 52.165 52.247 52.302 52.335 52.4 53.112 54.187 54.76 54.107 52.885 52.51 52.427 52.392 52.34 52.3 52.297 52.255 52.22 52.187 52.132 52.067 51.99 51.92 51.85 51.765 51.682 51.597 51.52 51.422 51.325 51.215 51.102 51.017 50.937 50.805 50.685 50.587 50.457 50.295 50.18 50.065 49.927 49.757 49.612 49.442 49.31 49.162 49.025 48.882 48.712 48.58 48.445 48.265 48.115 47.94 47.797 47.647 47.512 47.365 47.252 47.045 46.897 46.712 46.57 46.432 46.267 46.132 46.022 45.832 45.647 45.475 45.287 45.107 44.92 44.742 44.557 44.412 44.295 44.192 44.19 44.067 44.775 45.66 44.132 45.17 43.19 42.885 42.94 42.877 43.932 42.367 42.76 41.42 41.307 42.12 42.427 41.315 41.367 41.47 41.867 42.132 41.84 41.725 41.76
50.439 50.517 50.849 52.462 51.474 51.314 51.554 51.512 52.009 50.702 50.517 50.504 50.484 50.412 50.404 50.369 50.344 50.342 50.334 50.337 50.327 50.332 50.334 50.359 50.369 50.379 50.369 50.377 50.369 50.394 50.469 50.484 50.514 50.539 50.582 50.594 50.609 50.642 50.682 50.719 50.734 50.769 50.814 50.839 50.862 50.889 50.924 50.942 50.989 51.027 51.107 51.127 51.202 51.234 51.262 51.282 51.279 51.292 51.279 51.327 51.322 51.382 51.354 51.344 51.347 51.334 51.287 51.309 51.292 51.272 51.287 51.294 51.272 51.239 51.179 51.107 51.069 51.012 50.959 50.892 50.829 50.754 50.722 50.654 50.612 50.519 50.419 50.337 50.244 50.154 50.029 49.929 49.802 49.699 49.559 49.407 49.284 49.164 49.014 48.882 48.739 48.627 48.497 48.369 48.197 48.057 47.947 47.797 47.629 47.509 47.434 47.334 47.309 47.254 47.102 47.282 48.334 47.062 46.219 46.334 45.857 45.704 45.577 45.497 45.349 45.269 45.174 45.262 45.139 45.159 46.202 50.892 52.759 49.722 50.337 45.227 43.369 43.322 43.154 43.029 43.024 42.964 42.992 42.969 42.834 42.732 42.677 42.602 42.469 42.457 42.512 43.109 43.114 43.117 42.882 42.482 42.479 42.522 42.624 42.784 42.987 43.219 43.414 43.629 43.839 43.972 44.074 44.202 44.302 44.392 44.537 44.647 44.784 44.902 45.027 45.142 45.282 45.397 45.539 45.687 45.799 45.912 46.014 46.124 46.202 46.292 46.392 46.454 46.544 46.594 46.657 46.739 46.809 46.882 46.907 46.977 47.051 47.118 47.186 47.177 47.173 47.196 47.248 47.268 47.282 47.278 47.266 47.231 47.209 47.18 47.152 47.129 47.12 47.095 47.032 46.995 46.945 46.875 46.772 46.687 46.642 46.6 46.535 46.46 46.392 46.27 47.13 46.942 45.897 45.622 45.362 45.192 45.055 44.925 44.817 44.692 44.597 44.45 44.38 44.267 44.17 44.062 43.965 43.865 43.765 43.65 43.54 43.42 43.287 43.195 43.075 43.04 42.99 43.037 43.17 43.342 43.537 43.715 43.892 44.057 44.232 44.415 44.587 44.77 44.94 45.1 45.257 45.43 45.605 45.827 46.015 46.245 46.492 46.702 46.945 47.21 47.46 47.717 47.98 48.202 48.452 48.65 48.852 49.045 49.225 49.395 49.552 49.705 49.842 49.992 50.115 50.247 50.37 50.512 50.645 50.745 50.887 50.995 51.077 51.195 51.305 51.412 51.55 51.635 51.73 51.815 51.885 51.982 52.065 52.185 52.24 52.28 52.56 54.115 54.032 54.13 53.202 52.555 52.482 52.452 52.462 52.397 52.342 52.315 52.295 52.277 52.247 52.205 52.15 52.082 52.02 51.945 51.877 51.792 51.69 51.585 51.52 51.432 51.345 51.227 51.137 51.04 50.962 50.817 50.707 50.617 50.48 50.292 50.177 50.06 49.935 49.797 49.617 49.467 49.347 49.225 49.102 48.937 48.747 48.615 48.452 48.282 48.15 47.975 47.84 47.697 47.575 47.412 47.25 47.112 46.98 46.807 46.665 46.527 46.362 46.207 46.07 45.89 45.712 45.527 45.35 45.157 44.98 44.797 44.612 44.45 44.322 44.215 44.13 44.45 46.505 45.6 44.577 45.002 43.52 42.975 42.935 42.775 42.56 42.285 41.812 41.342 41.337 42 42.45 41.287 41.54 41.54 42.217 41.827 41.935 41.997 42.085
50.422 50.532 51.107 52.334 51.444 51.327 51.699 51.912 51.467 50.614 50.539 50.527 50.487 50.429 50.404 50.354 50.327 50.332 50.322 50.327 50.324 50.322 50.369 50.384 50.389 50.399 50.362 50.374 50.394 50.409 50.462 50.502 50.537 50.587 50.584 50.617 50.632 50.662 50.697 50.704 50.744 50.794 50.849 50.862 50.892 50.919 50.932 50.979 51.009 51.017 51.084 51.179 51.234 51.264 51.319 51.327 51.307 51.317 51.322 51.349 51.337 51.352 51.377 51.384 51.364 51.357 51.332 51.309 51.314 51.289 51.304 51.287 51.262 51.209 51.182 51.117 51.044 50.997 50.942 50.894 50.819 50.754 50.692 50.649 50.572 50.482 50.407 50.364 50.229 50.144 50.017 49.914 49.802 49.687 49.549 49.417 49.257 49.152 49.014 48.877 48.752 48.604 48.459 48.362 48.217 48.044 47.877 47.744 47.624 47.494 47.414 47.332 47.284 47.269 47.137 47.019 47.944 46.837 46.132 46.332 45.842 45.754 45.662 45.677 45.617 45.902 45.922 46.107 45.902 45.744 45.207 46.907 48.099 46.012 44.277 43.362 43.224 43.154 43.099 43.127 43.287 43.099 43.067 43.184 42.947 42.802 44.212 42.622 42.557 42.442 42.457 42.472 42.512 42.577 42.724 42.894 43.062 43.089 43.167 43.114 43.167 43.892 44.217 44.389 44.322 44.439 44.774 44.782 44.959 44.759 44.712 44.982 45.239 45.124 45.352 45.322 45.427 45.524 45.679 45.767 45.917 46.024 46.139 46.214 46.304 46.394 46.457 46.524 46.614 46.659 46.757 46.802 46.879 46.907 46.964 47.045 47.129 47.178 47.224 47.235 47.241 47.22 47.261 47.31 47.337 47.323 47.295 47.307 47.28 47.249 47.236 47.216 47.167 47.155 47.097 47.037 46.997 46.955 46.872 46.792 46.76 46.692 46.622 46.512 46.445 46.385 47.287 46.91 46 45.78 45.552 45.305 45.162 45.017 44.915 44.79 44.7 44.555 44.46 44.352 44.27 44.157 44.045 43.922 43.812 43.712 43.585 43.487 43.372 43.25 43.152 43.092 43.062 43.077 43.202 43.372 43.545 43.725 43.92 44.072 44.24 44.402 44.58 44.75 44.912 45.092 45.255 45.425 45.577 45.767 45.975 46.195 46.4 46.617 46.855 47.115 47.367 47.632 47.887 48.112 48.35 48.587 48.79 48.977 49.18 49.34 49.49 49.645 49.807 49.935 50.07 50.212 50.325 50.475 50.595 50.695 50.84 50.952 51.072 51.165 51.257 51.395 51.505 51.592 51.687 51.78 51.872 51.967 52.065 52.152 52.217 53.34 53.79 53.27 53.317 52.537 52.537 52.462 52.48 52.47 52.422 52.415 52.37 52.34 52.33 52.305 52.24 52.22 52.175 52.127 52.057 51.987 51.905 51.807 51.72 51.657 51.562 51.452 51.347 51.25 51.14 51.06 50.967 50.825 50.72 50.627 50.5 50.34 50.215 50.06 49.975 49.82 49.672 49.492 49.362 49.247 49.112 48.945 48.782 48.642 48.477 48.327 48.185 48.02 47.887 47.712 47.59 47.445 47.32 47.177 47.022 46.875 46.725 46.6 46.452 46.272 46.14 45.945 45.767 45.58 45.4 45.2 45.022 44.86 44.637 44.467 44.362 44.252 44.26 44.357 45.34 45.942 44.865 45.21 43.855 42.937 43.732 43.065 42.542 42.347 41.86 41.42 41.557 41.337 41.847 41.55 41.28 41.527 41.86 41.992 42.09 42.205 42.327
50.439 50.539 50.954 52.277 51.484 51.357 51.642 51.984 51.547 50.619 50.549 50.514 50.472 50.412 50.349 50.369 50.347 50.317 50.314 50.319 50.327 50.342 50.332 50.359 50.382 50.372 50.414 50.414 50.404 50.429 50.457 50.502 50.539 50.609 50.632 50.652 50.672 50.694 50.732 50.734 50.779 50.832 50.869 50.892 50.897 50.934 50.967 50.994 51.012 51.037 51.089 51.169 51.254 51.314 51.339 51.392 51.377 51.349 51.342 51.392 51.394 51.419 51.419 51.432 51.397 51.392 51.347 51.334 51.344 51.324 51.332 51.314 51.304 51.249 51.207 51.139 51.074 51.014 50.957 50.859 50.774 50.727 50.649 50.624 50.557 50.487 50.412 50.337 50.217 50.124 50.032 49.892 49.789 49.664 49.519 49.404 49.254 49.117 49.002 48.882 48.707 48.624 48.462 48.307 48.159 48.027 47.867 47.752 47.629 47.492 47.447 47.352 47.287 47.214 47.132 47.039 47.612 46.497 46.079 46.189 45.824 45.917 46.419 46.497 46.184 46.172 46.177 45.789 45.134 44.547 44.294 43.852 43.647 43.462 43.374 43.277 43.234 43.219 43.194 43.412 43.319 43.109 43.022 43.019 42.924 44.814 45.152 42.822 42.727 42.574 42.604 42.617 42.599 42.577 42.567 42.602 42.642 42.679 42.807 42.919 43.062 44.052 44.572 44.729 44.932 45.044 45.202 45.622 45.689 46.084 46.257 46.402 46.477 46.817 46.834 47.159 48.117 47.107 46.889 46.952 46.892 47.274 47.119 47.114 47.307 47.277 47.334 47.607 47.149 47.119 47.429 47.234 47.407 47.134 47.084 47.137 47.18 47.341 47.362 47.365 47.364 47.298 47.303 47.357 47.375 47.384 47.376 47.378 47.359 47.325 47.289 47.251 47.205 47.192 47.16 47.095 47.03 46.977 46.912 46.845 46.8 46.702 46.635 46.537 46.49 46.437 47.197 46.907 46.097 45.927 45.775 45.442 45.222 45.09 44.97 44.855 44.762 44.65 44.532 44.432 44.352 44.262 44.117 44.012 43.9 43.747 43.63 43.525 43.42 43.3 43.215 43.152 43.127 43.17 43.272 43.41 43.572 43.722 43.937 44.1 44.222 44.392 44.565 44.705 44.875 45.032 45.207 45.357 45.542 45.722 45.9 46.115 46.307 46.525 46.772 47.017 47.27 47.52 47.737 47.982 48.245 48.462 48.677 48.892 49.077 49.275 49.445 49.595 49.745 49.885 50.047 50.145 50.272 50.417 50.537 50.647 50.777 50.882 51.01 51.097 51.21 51.325 51.45 51.522 51.642 51.707 51.842 51.967 52.082 52.16 52.38 53.357 53.292 52.58 52.495 52.4 52.445 52.537 52.557 52.445 52.425 52.43 52.37 52.382 52.385 52.317 52.262 52.262 52.222 52.177 52.09 51.995 51.902 51.82 51.742 51.672 51.6 51.492 51.385 51.272 51.182 51.097 51.002 50.857 50.765 50.675 50.532 50.387 50.222 50.065 49.987 49.847 49.697 49.542 49.4 49.28 49.142 48.96 48.815 48.677 48.515 48.37 48.195 48.055 47.892 47.76 47.632 47.465 47.332 47.21 47.065 46.915 46.795 46.655 46.535 46.337 46.192 46.007 45.84 45.627 45.43 45.247 45.062 44.9 44.705 44.527 44.392 44.252 44.182 44.097 45.337 45.095 44.712 45.21 44.197 43.017 43.107 43.182 43.352 42.477 42.195 41.612 41.655 41.325 41.31 41.582 41.57 41.757 42.052 42.195 42.327 42.412 42.557
50.429 50.557 51.014 52.417 51.442 51.354 51.639 52.027 51.737 50.649 50.552 50.514 50.487 50.417 50.382 50.362 50.357 50.309 50.324 50.334 50.342 50.344 50.384 50.404 50.399 50.392 50.409 50.437 50.417 50.437 50.467 50.524 50.549 50.599 50.654 50.679 50.687 50.704 50.734 50.749 50.787 50.844 50.857 50.904 50.942 50.992 51.014 51.024 51.032 51.074 51.124 51.179 51.252 51.329 51.389 51.404 51.389 51.389 51.382 51.417 51.412 51.432 51.437 51.437 51.407 51.402 51.377 51.332 51.337 51.357 51.359 51.339 51.349 51.269 51.242 51.162 51.077 51.039 50.962 50.879 50.787 50.734 50.677 50.624 50.564 50.492 50.422 50.344 50.227 50.117 50.009 49.892 49.772 49.644 49.514 49.384 49.234 49.117 48.992 48.844 48.702 48.594 48.432 48.327 48.182 48.012 47.907 47.724 47.579 47.489 47.432 47.382 47.294 47.214 47.082 47.137 47.549 46.649 45.954 45.949 45.787 46.159 46.489 46.437 46.287 45.407 44.964 44.627 44.289 43.857 43.727 43.592 43.499 43.447 43.444 43.452 43.389 43.347 43.494 43.709 43.489 43.097 42.972 42.914 42.939 43.207 42.939 42.877 42.884 42.747 42.702 42.772 42.844 42.982 42.879 42.987 42.992 43.067 42.987 42.974 43.022 43.094 43.234 43.352 43.492 43.652 43.749 43.884 44.094 44.292 44.597 44.702 44.774 44.967 45.129 45.654 46.107 45.624 45.829 46.032 46.254 46.459 47.087 46.962 47.137 47.377 47.329 47.264 47.694 47.714 47.897 48.162 48.219 48.204 48.052 48.482 48.642 48.876 48.927 48.888 48.766 47.987 48.251 48.027 47.979 48.136 48.103 47.681 47.538 47.435 47.416 47.404 47.381 47.262 47.267 47.155 47.117 47.057 46.987 46.922 46.827 46.742 46.635 46.54 46.48 46.572 48.495 47.702 46.455 46.445 46.027 45.605 45.33 45.177 45.067 44.945 44.845 44.707 44.612 44.495 44.41 44.307 44.202 44.095 43.96 43.827 43.707 43.577 43.43 43.332 43.247 43.205 43.205 43.202 43.322 43.437 43.607 43.772 43.947 44.105 44.25 44.387 44.555 44.712 44.872 45.012 45.202 45.35 45.497 45.675 45.857 46.055 46.252 46.45 46.682 46.897 47.147 47.407 47.612 47.852 48.117 48.342 48.552 48.78 48.98 49.167 49.355 49.512 49.665 49.797 49.937 50.085 50.177 50.307 50.43 50.585 50.695 50.805 50.952 51.045 51.155 51.265 51.4 51.492 51.577 51.677 51.825 51.955 52.772 53.337 52.925 52.602 52.46 52.45 52.467 52.447 52.452 52.512 52.487 52.45 52.445 52.415 52.405 52.405 52.355 52.342 52.297 52.262 52.215 52.17 52.077 51.995 51.94 51.852 51.772 51.695 51.63 51.53 51.45 51.32 51.215 51.127 51.032 50.89 50.767 50.672 50.53 50.395 50.252 50.077 49.97 49.847 49.705 49.555 49.43 49.262 49.132 48.977 48.857 48.705 48.525 48.367 48.23 48.075 47.94 47.797 47.66 47.515 47.397 47.27 47.107 47 46.84 46.71 46.572 46.417 46.237 46.045 45.88 45.665 45.495 45.282 45.107 44.955 44.77 44.6 44.437 44.267 44.195 44.152 44.885 45.18 45.112 45.24 43.875 43.262 43.652 43.607 43.537 44.072 42.957 41.707 41.732 41.942 41.635 41.922 41.96 42.152 42.32 42.532 42.867 42.677 42.785
50.469 50.602 50.987 52.509 51.532 51.427 51.989 51.844 51.612 50.684 50.584 50.562 50.512 50.427 50.404 50.369 50.344 50.337 50.332 50.347 50.349 50.379 50.404 50.402 50.412 50.419 50.434 50.444 50.419 50.469 50.484 50.534 50.567 50.639 50.667 50.692 50.712 50.749 50.764 50.787 50.824 50.864 50.894 50.942 50.989 51.012 51.062 51.049 51.097 51.122 51.157 51.229 51.309 51.357 51.389 51.412 51.459 51.459 51.447 51.452 51.457 51.464 51.482 51.479 51.464 51.457 51.424 51.404 51.394 51.382 51.374 51.379 51.349 51.327 51.277 51.194 51.119 51.057 50.949 50.884 50.794 50.732 50.672 50.637 50.562 50.494 50.437 50.337 50.209 50.124 50.004 49.902 49.797 49.652 49.504 49.402 49.219 49.099 48.959 48.804 48.709 48.572 48.447 48.299 48.192 48.037 47.894 47.687 47.564 47.469 47.372 47.342 47.294 47.242 47.132 47.154 47.657 46.462 45.884 45.744 45.734 46.702 45.662 45.169 44.802 44.434 44.127 43.932 43.839 43.779 43.732 43.704 43.717 43.729 43.714 43.632 43.662 46.757 44.982 44.497 44.609 49.767 47.959 43.577 44.952 43.002 42.932 42.899 43.249 42.892 42.842 43.007 43.022 42.959 42.957 43.067 43.154 43.249 43.319 44.054 45.349 44.667 43.699 43.859 43.709 43.812 43.937 43.894 44.062 44.242 44.487 44.984 45.099 45.209 45.422 45.689 45.837 45.877 45.712 46.034 45.907 46.007 46.149 46.237 46.284 46.374 46.479 46.582 46.664 46.802 46.827 46.909 47.047 47.149 47.212 47.4 47.552 47.597 47.752 48.068 48.302 48.108 48.329 48.477 48.54 48.678 48.827 48.812 48.73 48.493 48.397 48.347 48.569 48.445 48.265 47.982 47.857 47.705 47.747 47.53 47.385 47.175 47.167 47.14 46.715 46.707 50.407 49.31 46.5 46.38 46.105 45.73 45.465 45.292 45.185 45.077 44.942 44.802 44.672 44.58 44.475 44.382 44.267 44.125 44.012 43.882 43.735 43.627 43.492 43.385 43.292 43.242 43.232 43.265 43.345 43.48 43.66 43.805 43.962 44.117 44.26 44.41 44.55 44.727 44.885 44.987 45.155 45.31 45.462 45.59 45.81 45.992 46.19 46.38 46.57 46.782 47.025 47.27 47.482 47.737 47.997 48.207 48.447 48.662 48.86 49.07 49.242 49.425 49.58 49.725 49.865 49.957 50.09 50.21 50.332 50.46 50.58 50.712 50.837 50.927 51.07 51.205 51.337 51.422 51.53 51.625 51.735 53.52 54.135 53.072 52.652 52.462 52.442 52.442 52.44 52.517 52.465 52.5 52.45 52.482 52.45 52.44 52.46 52.377 52.317 52.347 52.302 52.262 52.217 52.17 52.075 52 51.927 51.855 51.772 51.695 51.62 51.517 51.435 51.337 51.227 51.14 51.035 50.9 50.792 50.675 50.54 50.397 50.247 50.11 49.962 49.867 49.72 49.537 49.457 49.292 49.155 48.992 48.852 48.7 48.545 48.4 48.265 48.1 47.955 47.812 47.697 47.552 47.43 47.292 47.15 47.012 46.862 46.725 46.587 46.432 46.267 46.057 45.892 45.692 45.517 45.347 45.165 44.992 44.835 44.65 44.47 44.31 44.202 44.19 44.195 45.74 44.445 45.337 43.637 43.617 43.892 43.835 43.837 43.217 42.155 41.89 41.757 41.675 41.805 42.07 42.307 42.502 42.58 42.662 42.772 42.9 42.955
50.487 50.624 51.042 52.617 51.529 51.414 51.734 52.074 51.432 50.712 50.642 50.599 50.519 50.457 50.442 50.399 50.384 50.382 50.347 50.362 50.399 50.392 50.407 50.397 50.417 50.424 50.449 50.417 50.444 50.484 50.512 50.564 50.604 50.647 50.684 50.732 50.777 50.769 50.814 50.822 50.849 50.874 50.922 50.994 51.014 51.054 51.072 51.112 51.132 51.169 51.222 51.274 51.364 51.382 51.449 51.499 51.497 51.502 51.494 51.512 51.522 51.529 51.529 51.549 51.519 51.504 51.494 51.452 51.429 51.414 51.417 51.394 51.389 51.327 51.314 51.209 51.137 51.047 50.947 50.887 50.809 50.774 50.702 50.677 50.602 50.514 50.422 50.342 50.222 50.132 50.012 49.904 49.774 49.632 49.499 49.379 49.219 49.069 48.964 48.784 48.677 48.557 48.424 48.274 48.157 48.029 47.877 47.724 47.564 47.457 47.352 47.349 47.277 47.244 47.137 47.372 47.797 46.312 45.752 45.544 45.279 45.267 44.809 44.522 44.299 44.179 44.132 44.047 44.054 44.062 44.024 43.977 43.987 44.054 44.289 43.962 43.992 48.269 50.382 50.692 45.992 48.424 46.427 50.527 43.304 43.177 43.049 42.979 43.289 43.019 43.042 43.742 43.764 43.182 43.197 43.307 43.359 43.539 43.464 44.327 47.427 47.719 44.407 44.699 45.072 45.194 45.569 45.464 44.999 44.589 44.692 45.294 45.924 45.869 46.124 46.294 46.437 46.647 46.762 46.829 46.919 46.567 46.799 46.867 46.919 46.919 47.012 47.024 47.092 47.239 47.484 47.552 47.687 47.674 47.337 47.547 47.535 47.62 47.537 47.53 47.602 47.569 47.556 47.504 47.552 47.585 47.554 47.565 47.57 47.556 47.606 47.619 47.66 47.713 47.745 47.762 47.807 48.02 47.977 48.252 48.452 48.5 48.325 48.385 48.32 47.272 48.502 46.842 46.377 46.062 46.04 45.77 45.532 45.405 45.325 45.185 45.055 44.935 44.822 44.705 44.595 44.437 44.31 44.197 44.057 43.937 43.797 43.682 43.577 43.45 43.362 43.352 43.322 43.342 43.4 43.542 43.68 43.82 43.982 44.14 44.285 44.412 44.54 44.695 44.822 44.98 45.132 45.265 45.4 45.58 45.727 45.89 46.09 46.277 46.485 46.67 46.895 47.127 47.37 47.61 47.845 48.082 48.295 48.53 48.72 48.932 49.142 49.315 49.455 49.595 49.73 49.855 49.985 50.115 50.24 50.365 50.457 50.582 50.707 50.795 50.942 51.087 51.22 51.342 51.442 51.555 52.025 54.017 53.605 52.657 52.765 52.507 52.457 52.452 52.497 52.51 52.487 52.472 52.505 52.507 52.495 52.492 52.447 52.422 52.41 52.365 52.317 52.275 52.222 52.135 52.075 51.992 51.922 51.847 51.78 51.682 51.62 51.53 51.42 51.327 51.195 51.145 51.055 50.93 50.802 50.695 50.58 50.44 50.297 50.135 49.98 49.842 49.715 49.575 49.437 49.315 49.16 49.03 48.9 48.76 48.585 48.43 48.28 48.137 47.992 47.83 47.69 47.557 47.445 47.31 47.137 47.002 46.87 46.732 46.61 46.477 46.335 46.127 45.947 45.76 45.572 45.41 45.225 45.047 44.877 44.7 44.532 44.377 44.277 44.227 44.597 46.707 46.11 46.3 44.042 43.54 43.762 43.585 43.937 43.462 42.61 41.96 41.842 42.017 42.39 42.395 42.585 42.735 42.822 45.905 47.232 45.037 43.66
50.557 50.662 50.977 52.769 51.577 51.447 51.747 51.944 51.274 50.747 50.659 50.612 50.537 50.499 50.489 50.427 50.432 50.414 50.374 50.384 50.404 50.444 50.444 50.439 50.449 50.472 50.492 50.474 50.484 50.507 50.554 50.597 50.662 50.697 50.732 50.764 50.807 50.837 50.879 50.889 50.922 50.934 50.969 51.037 51.054 51.122 51.139 51.164 51.199 51.217 51.252 51.292 51.387 51.442 51.517 51.549 51.564 51.542 51.537 51.532 51.544 51.577 51.574 51.599 51.564 51.557 51.517 51.492 51.459 51.449 51.449 51.432 51.402 51.337 51.287 51.217 51.109 51.042 50.992 50.924 50.879 50.822 50.764 50.697 50.617 50.537 50.454 50.337 50.222 50.134 50.024 49.892 49.764 49.639 49.524 49.394 49.249 49.102 48.974 48.827 48.719 48.544 48.417 48.274 48.144 48.014 47.904 47.767 47.627 47.452 47.387 47.357 47.262 47.227 47.129 47.392 47.699 46.304 45.704 45.429 45.112 44.839 44.639 44.497 44.387 44.312 44.409 44.537 44.984 45.162 44.724 44.614 44.392 44.504 44.242 44.167 43.979 49.834 50.589 54.167 44.709 43.974 43.367 44.802 44.332 42.982 43.122 43.159 43.269 43.219 43.262 43.999 43.927 43.567 43.474 43.539 43.597 43.724 43.794 45.169 46.979 47.357 45.824 45.834 45.672 45.779 45.772 45.637 45.329 44.992 45.007 45.192 45.394 45.649 45.849 45.964 46.062 46.184 46.289 46.384 46.479 46.572 46.682 46.754 46.867 46.949 47.027 47.084 47.169 47.269 47.319 47.389 47.462 47.484 47.559 47.655 47.727 47.862 47.986 48.101 47.965 47.921 47.883 47.901 48.027 48.05 47.881 47.861 47.649 47.571 47.513 47.475 47.43 47.289 47.262 47.227 47.122 47.1 47.042 47.032 47.017 46.96 46.962 47.01 46.992 46.93 47.492 47.762 46.592 46.15 45.962 45.725 45.595 45.567 45.412 45.26 45.142 45.06 44.937 44.812 44.692 44.54 44.387 44.272 44.142 44.007 43.852 43.732 43.615 43.522 43.435 43.415 43.377 43.422 43.49 43.597 43.732 43.855 44.017 44.187 44.332 44.47 44.59 44.73 44.855 45.005 45.117 45.295 45.422 45.572 45.737 45.877 46.047 46.225 46.39 46.562 46.787 46.995 47.235 47.475 47.69 47.905 48.132 48.36 48.577 48.765 48.977 49.147 49.307 49.455 49.607 49.727 49.89 50.007 50.147 50.252 50.33 50.467 50.575 50.685 50.83 50.977 51.137 51.252 51.337 51.57 53.125 53.415 52.792 52.657 52.762 52.702 52.542 52.5 52.587 52.557 52.492 52.52 52.5 52.477 52.497 52.485 52.447 52.437 52.39 52.35 52.315 52.272 52.197 52.11 52.08 52.017 51.927 51.87 51.8 51.717 51.622 51.547 51.455 51.36 51.26 51.152 51.055 50.932 50.807 50.692 50.542 50.442 50.3 50.167 50.002 49.852 49.715 49.59 49.467 49.35 49.192 49.045 48.875 48.74 48.577 48.42 48.29 48.157 47.995 47.877 47.725 47.582 47.455 47.322 47.157 47.055 46.935 46.785 46.655 46.505 46.337 46.16 45.942 45.76 45.602 45.44 45.262 45.092 44.937 44.755 44.592 44.437 44.335 44.272 44.477 45.775 46.402 45.88 44.27 43.53 44.072 43.872 43.755 43.612 42.977 42.702 42.605 42.182 43.965 43.135 42.755 42.877 43.465 48.175 50.73 45.13 43.172
50.607 50.697 51.107 52.632 51.589 51.484 51.649 51.742 51.732 50.814 50.694 50.654 50.609 50.572 50.524 50.492 50.462 50.474 50.452 50.439 50.457 50.497 50.514 50.527 50.529 50.519 50.529 50.557 50.544 50.567 50.619 50.647 50.712 50.762 50.807 50.809 50.847 50.882 50.914 50.944 50.969 51.009 51.017 51.082 51.119 51.162 51.187 51.204 51.259 51.279 51.329 51.367 51.434 51.494 51.567 51.607 51.589 51.584 51.599 51.587 51.592 51.619 51.632 51.637 51.587 51.584 51.564 51.499 51.477 51.487 51.474 51.439 51.417 51.387 51.317 51.239 51.202 51.109 51.037 50.952 50.882 50.859 50.777 50.692 50.624 50.549 50.452 50.382 50.217 50.119 50.017 49.902 49.789 49.669 49.532 49.387 49.264 49.122 48.967 48.847 48.684 48.577 48.409 48.314 48.154 48.039 47.899 47.737 47.602 47.492 47.409 47.297 47.209 47.149 47.019 47.494 47.407 45.977 45.692 45.399 45.114 44.849 44.752 44.707 44.749 44.724 46.109 46.464 45.344 45.092 45.212 44.947 46.162 45.354 44.084 44.172 43.757 46.904 47.697 45.329 44.024 43.289 44.032 43.589 44.812 44.304 43.429 43.162 43.574 43.509 43.524 43.894 43.989 43.962 43.759 43.777 43.882 44.114 44.222 44.379 46.734 46.542 45.857 45.254 45.074 45.154 45.192 45.252 45.297 45.329 45.362 45.422 45.562 45.702 45.857 46.004 46.144 46.264 46.349 46.469 46.554 46.644 46.714 46.829 46.907 46.982 47.064 47.137 47.202 47.284 47.337 47.369 47.419 47.467 47.512 47.55 47.595 47.62 47.66 47.682 47.728 47.739 47.797 47.83 47.861 47.874 47.88 47.901 47.887 47.933 47.865 47.774 47.7 47.74 47.865 47.805 47.722 47.71 47.482 47.38 47.185 47.012 46.85 46.672 46.607 46.53 46.42 46.345 46.237 46.067 45.93 45.797 45.7 45.672 45.502 45.347 45.23 45.127 45.03 44.907 44.76 44.61 44.472 44.305 44.197 44.057 43.91 43.75 43.645 43.532 43.465 43.452 43.432 43.467 43.537 43.662 43.782 43.937 44.102 44.252 44.395 44.537 44.665 44.81 44.92 45.072 45.172 45.325 45.452 45.577 45.732 45.892 46.04 46.202 46.36 46.517 46.727 46.927 47.132 47.342 47.555 47.78 47.982 48.192 48.412 48.617 48.82 48.995 49.18 49.31 49.46 49.585 49.737 49.86 49.97 50.122 50.23 50.36 50.46 50.602 50.762 50.9 51.037 51.172 51.245 52.395 53.63 52.77 52.722 52.815 52.772 52.65 52.582 52.63 52.732 52.632 52.502 52.512 52.517 52.507 52.48 52.462 52.477 52.455 52.385 52.342 52.285 52.23 52.155 52.107 52.06 51.967 51.917 51.872 51.767 51.69 51.62 51.527 51.46 51.37 51.245 51.152 51.032 50.895 50.807 50.672 50.545 50.46 50.3 50.152 50.022 49.882 49.732 49.612 49.477 49.342 49.2 49.06 48.902 48.747 48.59 48.432 48.305 48.13 47.992 47.86 47.75 47.62 47.477 47.34 47.21 47.087 46.97 46.832 46.69 46.537 46.39 46.185 45.99 45.792 45.6 45.445 45.28 45.125 44.95 44.795 44.69 44.52 44.387 44.3 44.477 45.497 46.222 46.577 44.75 43.817 44.362 43.97 43.757 43.487 43.262 43.36 42.975 42.852 43.105 42.82 42.92 43.137 43.13 43.155 46.597 43.797 43.337
50.627 50.752 51.034 52.574 51.644 51.484 51.702 51.869 51.934 50.837 50.752 50.697 50.667 50.612 50.537 50.524 50.507 50.524 50.489 50.497 50.507 50.549 50.569 50.577 50.579 50.577 50.592 50.587 50.617 50.639 50.669 50.704 50.757 50.804 50.859 50.879 50.902 50.929 50.972 51.004 51.034 51.057 51.084 51.134 51.159 51.192 51.234 51.277 51.322 51.314 51.364 51.412 51.487 51.522 51.604 51.637 51.637 51.639 51.634 51.624 51.637 51.639 51.649 51.647 51.637 51.609 51.584 51.532 51.514 51.507 51.492 51.509 51.492 51.442 51.374 51.287 51.224 51.129 51.034 50.972 50.904 50.832 50.772 50.692 50.629 50.544 50.444 50.349 50.227 50.139 50.042 49.927 49.827 49.684 49.539 49.409 49.252 49.109 48.969 48.824 48.667 48.534 48.417 48.292 48.152 47.989 47.842 47.687 47.564 47.449 47.329 47.209 47.079 46.997 46.857 47.182 46.912 45.887 45.639 45.364 45.162 45.277 45.254 45.209 45.194 45.174 46.227 47.197 46.327 47.479 46.477 49.329 49.537 47.684 44.544 44.074 45.384 43.402 43.187 43.424 43.584 43.837 44.224 44.044 43.997 44.919 44.914 44.284 44.144 43.709 43.732 43.904 44.042 44.132 44.127 44.097 44.169 44.299 44.602 45.052 48.217 47.347 45.657 45.087 45.072 45.189 45.257 45.294 45.399 45.454 45.559 45.662 45.782 45.894 46.034 46.144 46.254 46.367 46.474 46.582 46.669 46.747 46.832 46.919 46.982 47.084 47.159 47.212 47.299 47.334 47.412 47.459 47.489 47.519 47.577 47.622 47.642 47.692 47.69 47.743 47.782 47.786 47.798 47.811 47.801 47.797 47.79 47.759 47.746 47.718 47.703 47.671 47.623 47.595 47.567 47.527 47.53 47.46 47.467 47.392 47.442 47.445 47.352 47.23 47.252 46.75 46.4 46.272 46.215 46.112 46.035 45.9 45.85 45.767 45.585 45.385 45.287 45.202 45.117 44.98 44.832 44.667 44.532 44.382 44.23 44.085 43.937 43.802 43.677 43.597 43.512 43.475 43.485 43.517 43.577 43.692 43.82 43.967 44.117 44.272 44.44 44.575 44.685 44.822 44.952 45.107 45.235 45.365 45.48 45.637 45.757 45.9 46.02 46.192 46.332 46.515 46.715 46.87 47.057 47.255 47.457 47.655 47.872 48.077 48.277 48.497 48.685 48.86 49.042 49.195 49.355 49.467 49.602 49.772 49.905 50.025 50.177 50.27 50.36 50.485 50.66 50.812 50.935 51.047 51.14 53.022 53.322 52.78 52.815 52.89 53.112 52.83 52.642 52.6 52.557 52.54 52.465 52.495 52.485 52.475 52.477 52.482 52.45 52.395 52.362 52.27 52.245 52.222 52.142 52.09 52.04 51.97 51.912 51.862 51.765 51.685 51.635 51.537 51.452 51.347 51.245 51.132 50.997 50.912 50.812 50.725 50.58 50.452 50.302 50.152 50.025 49.87 49.725 49.602 49.492 49.35 49.202 49.02 48.882 48.732 48.597 48.432 48.292 48.127 48.002 47.872 47.77 47.625 47.472 47.367 47.237 47.085 46.97 46.842 46.715 46.567 46.38 46.192 46.002 45.822 45.652 45.492 45.362 45.202 45.065 44.905 44.767 44.57 44.437 44.34 44.412 45.982 46.7 45.615 43.515 44.072 44.195 43.817 43.595 43.465 43.322 43.04 42.755 42.875 42.92 43.382 43.125 43.242 43.362 43.37 43.427 43.402 43.525
50.652 50.824 51.117 52.642 51.652 51.542 51.822 51.784 51.999 50.879 50.807 50.767 50.702 50.644 50.589 50.592 50.564 50.569 50.529 50.552 50.587 50.599 50.604 50.619 50.629 50.624 50.637 50.649 50.672 50.707 50.734 50.757 50.814 50.877 50.872 50.917 50.959 51.022 51.049 51.057 51.084 51.127 51.144 51.222 51.234 51.259 51.267 51.297 51.367 51.372 51.412 51.444 51.502 51.567 51.609 51.672 51.692 51.669 51.659 51.659 51.634 51.677 51.679 51.684 51.694 51.652 51.637 51.584 51.559 51.544 51.534 51.522 51.522 51.472 51.397 51.332 51.234 51.147 51.074 51.022 50.937 50.857 50.799 50.684 50.617 50.552 50.462 50.379 50.254 50.144 50.034 49.939 49.799 49.684 49.514 49.392 49.249 49.119 48.952 48.804 48.654 48.519 48.397 48.262 48.102 47.912 47.809 47.634 47.509 47.382 47.254 47.137 47.042 46.889 46.697 46.417 46.082 45.799 45.622 45.467 45.784 46.927 45.344 45.369 46.359 49.877 48.647 48.649 45.209 44.932 44.962 46.282 46.514 47.542 45.134 44.254 45.237 43.859 43.914 44.057 44.554 44.164 44.322 45.177 44.122 44.479 45.139 44.614 44.794 43.962 43.909 44.039 44.289 44.454 44.437 44.432 44.624 44.702 44.597 45.152 48.099 46.257 45.347 45.122 45.244 45.367 45.452 45.519 45.592 45.642 45.737 45.844 45.984 46.112 46.219 46.312 46.387 46.512 46.627 46.709 46.782 46.892 46.949 47.002 47.104 47.174 47.242 47.294 47.334 47.424 47.464 47.524 47.552 47.597 47.642 47.697 47.727 47.772 47.78 47.821 47.853 47.855 47.86 47.849 47.855 47.857 47.842 47.815 47.793 47.773 47.758 47.709 47.664 47.612 47.576 47.525 47.45 47.397 47.337 47.307 47.247 47.222 47.192 47.137 47.08 46.857 46.692 46.437 46.215 46.212 46.205 46.152 46.09 46.02 45.87 45.725 45.497 45.282 45.135 44.987 44.87 44.727 44.605 44.447 44.282 44.155 43.992 43.842 43.707 43.625 43.547 43.512 43.505 43.532 43.64 43.745 43.867 44.017 44.172 44.29 44.455 44.577 44.735 44.855 44.962 45.092 45.217 45.337 45.48 45.6 45.755 45.87 45.995 46.15 46.28 46.442 46.627 46.775 46.995 47.15 47.342 47.552 47.752 47.937 48.152 48.345 48.575 48.747 48.92 49.077 49.252 49.405 49.547 49.672 49.807 49.927 50.075 50.162 50.272 50.385 50.552 50.702 50.81 50.952 51.197 53.232 54.01 52.765 52.547 52.862 53.077 52.88 52.577 52.497 52.53 52.51 52.465 52.482 52.457 52.457 52.447 52.46 52.432 52.392 52.325 52.242 52.215 52.202 52.135 52.09 52.05 51.977 51.887 51.815 51.742 51.692 51.597 51.525 51.442 51.325 51.227 51.107 50.98 50.882 50.797 50.695 50.557 50.41 50.287 50.13 50.025 49.867 49.732 49.612 49.48 49.302 49.155 49.032 48.877 48.745 48.615 48.472 48.31 48.155 48.035 47.902 47.765 47.645 47.512 47.4 47.29 47.177 47.07 46.93 46.815 46.677 46.472 46.302 46.117 45.927 45.777 45.625 45.45 45.295 45.142 45.002 44.827 44.695 44.535 44.417 44.197 44.847 45.942 45.407 43.7 44.13 43.982 43.405 43.17 43.067 42.867 42.787 42.547 44.902 51.245 48.89 43.647 43.49 43.572 43.632 43.712 43.772 43.795
50.724 50.854 51.069 52.544 51.759 51.572 51.747 51.784 51.539 50.959 50.852 50.789 50.707 50.669 50.632 50.587 50.602 50.599 50.604 50.597 50.584 50.619 50.644 50.649 50.682 50.679 50.674 50.689 50.717 50.744 50.792 50.807 50.844 50.894 50.947 50.959 51.019 51.052 51.069 51.102 51.142 51.177 51.204 51.267 51.294 51.332 51.327 51.334 51.389 51.404 51.422 51.499 51.532 51.582 51.642 51.687 51.699 51.724 51.689 51.699 51.724 51.702 51.722 51.729 51.719 51.704 51.682 51.639 51.587 51.584 51.577 51.569 51.547 51.527 51.422 51.334 51.262 51.167 51.132 51.027 50.919 50.859 50.782 50.707 50.624 50.544 50.462 50.342 50.272 50.134 50.032 49.912 49.787 49.662 49.497 49.387 49.247 49.082 48.922 48.779 48.647 48.504 48.364 48.204 48.047 47.929 47.799 47.669 47.529 47.449 47.364 47.174 47.064 46.954 46.849 47.162 46.457 45.829 45.677 45.724 46.587 46.874 46.729 46.109 46.962 49.512 49.002 47.704 46.989 45.782 44.699 44.677 45.204 45.287 44.329 43.409 43.362 43.797 44.284 44.414 44.537 44.684 45.634 46.192 44.574 44.532 44.537 43.954 44.379 44.214 44.144 44.382 44.492 44.672 44.624 44.524 44.484 44.582 44.649 45.187 47.517 45.792 45.222 45.299 45.422 45.517 45.594 45.694 45.774 45.884 45.979 46.052 46.182 46.279 46.412 46.459 46.554 46.677 46.774 46.849 46.914 47.004 47.062 47.134 47.214 47.284 47.349 47.414 47.462 47.509 47.579 47.617 47.697 47.697 47.752 47.772 47.78 47.817 47.857 47.857 47.896 47.909 47.925 47.922 47.903 47.924 47.895 47.887 47.88 47.837 47.831 47.777 47.738 47.685 47.627 47.577 47.512 47.447 47.39 47.332 47.277 47.237 47.192 47.085 46.95 46.852 47.105 47.17 46.4 46.215 46.157 46.172 46.272 46.407 46.485 46.592 46.342 46.072 45.432 45.12 44.95 44.777 44.59 44.46 44.287 44.13 43.982 43.872 43.75 43.67 43.595 43.577 43.545 43.595 43.68 43.787 43.915 44.045 44.165 44.315 44.482 44.615 44.745 44.885 44.957 45.1 45.235 45.35 45.472 45.602 45.725 45.832 45.952 46.097 46.215 46.39 46.55 46.715 46.86 47.022 47.2 47.405 47.585 47.775 47.977 48.175 48.385 48.537 48.73 48.895 49.077 49.227 49.385 49.512 49.67 49.802 49.94 50.062 50.16 50.315 50.477 50.592 50.707 50.85 51 53.627 54.18 53.162 52.485 52.805 52.72 52.545 52.457 52.442 52.517 52.467 52.475 52.437 52.43 52.442 52.415 52.402 52.38 52.34 52.297 52.257 52.217 52.18 52.145 52.08 52.025 51.945 51.867 51.81 51.735 51.655 51.552 51.45 51.382 51.3 51.187 51.08 50.975 50.862 50.755 50.655 50.522 50.415 50.285 50.142 50.015 49.882 49.737 49.607 49.497 49.367 49.215 49.065 48.907 48.777 48.665 48.54 48.402 48.237 48.102 48.055 47.85 47.712 47.617 47.505 47.392 47.29 47.17 47.03 46.875 46.73 46.537 46.385 46.19 45.997 45.837 45.68 45.505 45.352 45.225 45.12 44.947 44.807 44.625 44.507 44.38 45.042 44.63 44.242 43.607 43.64 43.375 43.135 42.915 42.675 42.572 42.825 47.747 51.32 47.5 47.865 43.607 43.665 43.652 43.787 43.94 43.932 44.07
50.757 50.889 51.207 52.727 51.709 51.614 51.839 52.077 51.764 51.002 50.884 50.854 50.764 50.707 50.654 50.654 50.637 50.627 50.634 50.644 50.647 50.664 50.697 50.709 50.712 50.699 50.724 50.739 50.779 50.807 50.799 50.852 50.912 50.947 51.009 51.024 51.067 51.102 51.152 51.167 51.204 51.239 51.292 51.349 51.357 51.369 51.357 51.389 51.432 51.444 51.469 51.527 51.584 51.677 51.717 51.792 51.799 51.762 51.767 51.749 51.782 51.764 51.772 51.802 51.787 51.767 51.744 51.672 51.639 51.632 51.604 51.589 51.554 51.532 51.459 51.374 51.254 51.189 51.129 51.042 50.969 50.864 50.799 50.707 50.634 50.549 50.464 50.349 50.249 50.104 49.987 49.869 49.729 49.604 49.469 49.374 49.227 49.069 48.927 48.782 48.634 48.547 48.409 48.254 48.149 48.024 47.882 47.702 47.527 47.534 47.714 47.757 47.849 48.454 48.939 47.799 46.594 45.847 45.729 45.987 46.477 47.362 47.302 46.924 46.949 46.842 48.799 46.324 46.299 45.524 44.742 45.524 45.522 44.827 45.267 44.597 44.042 44.214 44.572 44.319 45.067 44.757 44.882 44.812 44.877 45.919 45.289 44.482 45.797 46.007 45.389 46.179 44.649 44.504 44.517 44.589 44.682 44.767 44.867 45.682 47.424 45.879 45.414 45.487 45.557 45.664 45.759 45.854 45.969 46.047 46.137 46.234 46.349 46.432 46.507 46.607 46.689 46.772 46.862 46.947 47.017 47.084 47.167 47.219 47.297 47.392 47.437 47.489 47.554 47.587 47.637 47.682 47.739 47.787 47.834 47.845 47.872 47.885 47.92 47.932 47.96 48.022 48.015 48.022 47.998 47.988 47.984 47.965 47.922 47.891 47.866 47.829 47.778 47.741 47.699 47.624 47.552 47.492 47.437 47.37 47.305 47.25 47.187 47.105 46.96 46.945 47.09 47.445 46.52 46.37 46.217 46.055 45.912 45.902 46.052 46.035 46.13 46.17 46.03 45.862 45.54 45.16 44.817 44.507 44.32 44.167 44.027 43.917 43.812 43.737 43.745 43.655 43.667 43.757 43.817 43.902 43.975 44.07 44.222 44.365 44.535 44.647 44.785 44.927 45.012 45.122 45.245 45.372 45.475 45.597 45.73 45.812 45.942 46.06 46.215 46.345 46.475 46.652 46.807 46.952 47.092 47.257 47.44 47.642 47.825 48.04 48.25 48.39 48.582 48.737 48.915 49.097 49.237 49.387 49.512 49.67 49.82 49.957 50.08 50.275 50.402 50.52 50.63 50.737 51.067 52.56 53.71 53.035 52.582 52.527 52.565 52.367 52.352 52.437 52.505 52.512 52.492 52.435 52.412 52.42 52.385 52.377 52.337 52.342 52.3 52.265 52.22 52.157 52.1 52.055 52.012 51.955 51.89 51.822 51.742 51.652 51.517 51.437 51.347 51.295 51.195 51.097 50.995 50.912 50.76 50.65 50.525 50.432 50.312 50.182 50.057 49.925 49.805 49.7 49.587 49.475 49.305 49.17 49.027 48.907 48.75 48.612 48.475 48.325 48.16 48.065 47.927 47.795 47.65 47.535 47.412 47.32 47.197 47.065 46.942 46.787 46.627 46.492 46.315 46.125 45.97 45.815 45.672 45.502 45.392 45.22 45.035 44.897 44.722 44.6 44.945 46.33 46.957 46.682 44.385 43.437 43.245 43.005 42.795 42.57 42.667 43.047 47.972 58.737 49.53 43.58 43.672 43.745 43.88 43.942 44.022 44.202 44.315
50.839 50.949 51.127 52.749 51.817 51.654 52.212 52.454 52.204 51.092 50.939 50.894 50.819 50.732 50.734 50.717 50.689 50.682 50.679 50.697 50.704 50.702 50.739 50.752 50.742 50.744 50.772 50.802 50.829 50.834 50.897 50.912 50.944 51.019 51.064 51.109 51.139 51.177 51.207 51.249 51.259 51.307 51.354 51.382 51.377 51.419 51.427 51.449 51.474 51.507 51.562 51.644 51.677 51.752 51.829 51.837 51.857 51.847 51.844 51.827 51.847 51.849 51.839 51.859 51.837 51.797 51.804 51.724 51.694 51.659 51.644 51.619 51.592 51.529 51.487 51.394 51.297 51.219 51.152 51.019 50.989 50.889 50.804 50.714 50.604 50.502 50.419 50.299 50.209 50.092 49.957 49.844 49.722 49.612 49.489 49.377 49.292 49.139 48.994 48.847 48.822 48.717 48.614 48.542 48.639 48.604 48.342 47.767 47.702 48.537 48.969 48.704 48.514 49.037 49.302 48.442 46.774 45.894 45.827 46.159 46.222 46.684 46.249 46.412 45.764 46.149 47.837 47.304 46.337 45.377 44.659 45.227 44.717 44.444 43.849 44.197 43.899 43.842 44.779 45.007 45.202 45.147 44.927 44.959 45.124 45.059 45.132 45.154 45.022 44.619 47.182 44.422 44.544 44.597 44.687 44.749 44.842 44.937 45.039 45.642 46.812 45.937 45.724 45.629 45.689 45.784 45.907 46.047 46.134 46.214 46.312 46.389 46.482 46.564 46.659 46.737 46.817 46.902 46.977 47.067 47.132 47.184 47.242 47.319 47.409 47.464 47.527 47.579 47.642 47.662 47.719 47.764 47.794 47.829 47.897 47.917 47.952 47.937 47.99 48.02 48.032 48.044 48.046 48.065 48.056 48.045 48.026 48 47.963 47.937 47.917 47.891 47.831 47.809 47.752 47.704 47.617 47.535 47.457 47.405 47.335 47.26 47.22 47.152 47.052 46.99 47.137 47.635 46.58 46.47 46.417 46.235 45.902 45.655 45.507 45.397 45.24 45.13 45.05 45.055 45.057 44.957 44.877 44.642 44.49 44.382 44.255 44.157 44.292 44.237 44.295 44.067 44.085 44.03 44.037 44.07 44.115 44.165 44.315 44.372 44.532 44.675 44.797 44.927 45.045 45.137 45.307 45.407 45.52 45.635 45.74 45.862 45.982 46.092 46.242 46.362 46.477 46.625 46.79 46.882 47.017 47.16 47.347 47.552 47.722 47.912 48.135 48.292 48.442 48.632 48.827 49.005 49.14 49.317 49.45 49.605 49.742 49.887 50.022 50.18 50.317 50.432 50.515 50.597 50.747 51.502 53.395 52.872 52.817 52.627 52.402 52.367 52.392 52.45 52.415 52.43 52.47 52.415 52.41 52.385 52.387 52.365 52.315 52.307 52.26 52.24 52.197 52.122 52.087 52.035 51.997 51.935 51.86 51.802 51.742 51.632 51.525 51.427 51.355 51.34 51.222 51.162 51.06 50.947 50.865 50.772 50.632 50.52 50.4 50.26 50.135 50.005 49.877 49.767 49.66 49.507 49.37 49.202 49.08 48.94 48.812 48.645 48.525 48.387 48.265 48.15 48.02 47.885 47.755 47.627 47.512 47.402 47.32 47.197 47.067 46.925 46.77 46.627 46.435 46.267 46.105 45.932 45.772 45.605 45.47 45.33 45.152 44.997 44.837 44.77 45.167 47.26 47.55 46.375 43.782 43.35 43.172 42.925 42.632 42.83 42.727 42.882 43.47 51.202 49.15 44 43.85 43.985 43.982 44.14 44.405 44.455 44.48
50.867 51.002 51.197 52.837 51.844 51.674 52.134 52.397 52.039 51.107 51.007 50.934 50.869 50.814 50.779 50.767 50.767 50.747 50.722 50.742 50.764 50.764 50.787 50.802 50.809 50.814 50.844 50.844 50.889 50.892 50.954 50.979 51.027 51.109 51.129 51.177 51.209 51.244 51.274 51.317 51.317 51.359 51.387 51.399 51.424 51.467 51.512 51.544 51.584 51.622 51.657 51.709 51.747 51.817 51.864 51.889 51.894 51.879 51.864 51.847 51.867 51.862 51.887 51.892 51.872 51.839 51.852 51.779 51.742 51.722 51.684 51.649 51.614 51.562 51.487 51.427 51.329 51.222 51.177 51.049 50.982 50.874 50.789 50.719 50.612 50.489 50.404 50.294 50.204 50.112 50.029 49.919 49.837 49.684 49.657 49.592 49.297 49.537 49.389 49.749 49.519 50.012 50.174 49.869 49.769 49.297 48.567 47.699 47.472 47.537 47.474 47.329 47.207 47.204 47.327 47.757 46.499 45.912 45.964 46.269 46.269 45.904 47.302 47.022 46.317 45.592 45.867 45.512 45.537 45.192 44.737 44.819 44.422 44.167 45.219 46.387 45.024 44.164 44.862 45.774 44.794 44.964 44.932 45.614 45.014 46.632 45.754 44.884 44.724 44.624 44.567 44.567 44.694 44.782 44.857 44.924 45.024 45.112 45.219 46.057 47.417 45.909 45.847 45.829 45.892 45.972 46.067 46.189 46.302 46.367 46.439 46.522 46.609 46.694 46.772 46.839 46.914 47.007 47.082 47.154 47.209 47.277 47.347 47.414 47.474 47.544 47.612 47.669 47.704 47.739 47.794 47.827 47.877 47.937 47.929 47.97 47.98 48.032 48.047 48.06 48.082 48.082 48.089 48.101 48.102 48.059 48.055 48.017 47.996 47.953 47.94 47.918 47.882 47.829 47.79 47.748 47.659 47.587 47.535 47.44 47.375 47.302 47.247 47.185 47.082 47.027 47.267 47.547 46.74 46.602 46.602 46.69 46.47 46.47 46.175 46.067 45.497 45.237 45.067 45.192 44.777 44.6 44.477 44.357 44.26 44.147 44.095 44.09 44.087 44.115 44.112 44.15 44.185 44.23 44.265 44.31 44.32 44.41 44.445 44.525 44.612 44.68 44.775 44.965 45.082 45.202 45.33 45.452 45.542 45.665 45.74 45.85 46.002 46.115 46.232 46.355 46.462 46.595 46.762 46.855 47.017 47.112 47.325 47.505 47.677 47.887 48.042 48.24 48.407 48.597 48.76 48.935 49.11 49.257 49.417 49.582 49.732 49.877 50.025 50.17 50.305 50.382 50.422 50.49 50.62 53.305 51.92 52.932 52.475 52.587 52.475 52.422 52.495 52.47 52.427 52.455 52.467 52.422 52.402 52.385 52.337 52.325 52.282 52.292 52.245 52.23 52.19 52.17 52.13 52.07 52.04 51.982 51.942 51.9 51.822 51.727 51.567 51.465 51.437 51.37 51.275 51.202 51.09 50.982 50.887 50.767 50.635 50.527 50.425 50.322 50.175 50.047 49.94 49.807 49.672 49.54 49.41 49.28 49.137 49.005 48.88 48.725 48.597 48.52 48.4 48.285 48.125 47.985 47.857 47.742 47.66 47.532 47.44 47.352 47.225 47.105 46.92 46.77 46.572 46.392 46.235 46.075 45.9 45.685 45.57 45.427 45.255 45.09 44.957 44.932 46.517 46.57 45.787 45.717 44.757 43.247 43.172 42.82 42.68 42.632 42.777 42.922 43.06 44.825 47.195 44.025 44.04 44.177 44.222 44.455 44.595 44.765 44.86
50.939 51.057 51.317 52.782 51.824 51.759 52.294 52.469 51.897 51.144 51.039 50.974 50.907 50.854 50.834 50.814 50.797 50.802 50.784 50.797 50.789 50.814 50.832 50.864 50.877 50.857 50.889 50.912 50.922 50.944 51.002 51.047 51.089 51.142 51.189 51.214 51.262 51.314 51.324 51.377 51.392 51.392 51.427 51.469 51.502 51.514 51.602 51.637 51.679 51.659 51.679 51.734 51.762 51.827 51.877 51.907 51.917 51.907 51.889 51.872 51.912 51.874 51.882 51.897 51.909 51.857 51.847 51.789 51.709 51.669 51.632 51.642 51.602 51.524 51.467 51.399 51.297 51.267 51.182 51.064 50.929 50.849 50.792 50.684 50.639 50.572 50.507 50.367 50.317 50.319 50.319 50.477 50.407 50.604 51.559 52.097 52.787 51.967 50.329 49.994 49.599 49.082 48.677 48.217 48.057 47.902 47.777 47.614 47.537 47.447 47.389 47.264 47.149 47.064 47.099 47.662 46.189 45.977 46.024 46.412 46.392 46.372 47.459 47.327 47.049 46.367 46.462 46.599 47.864 45.097 44.602 44.459 44.437 46.877 46.097 45.837 44.044 43.772 45.257 45.754 45.097 45.947 45.467 50.364 47.382 47.379 45.742 45.094 44.922 44.922 44.857 44.852 44.954 45.017 45.059 45.112 45.252 45.347 45.434 47.294 48.034 46.649 46.022 46.009 46.052 46.162 46.237 46.347 46.432 46.537 46.607 46.669 46.757 46.827 46.884 46.962 47.047 47.124 47.214 47.259 47.312 47.379 47.437 47.502 47.587 47.664 47.699 47.774 47.822 47.862 47.867 47.907 47.934 47.987 48.024 48.055 48.067 48.11 48.12 48.12 48.13 48.129 48.151 48.142 48.131 48.106 48.079 48.058 48.025 47.98 47.947 47.934 47.908 47.865 47.82 47.776 47.678 47.617 47.54 47.455 47.385 47.355 47.275 47.2 47.125 47.067 47.207 47.12 46.712 46.625 46.687 46.72 46.942 48.117 48.897 48.907 47.765 47.137 46.867 46.997 46.08 45.547 45.187 44.967 44.532 44.83 44.482 44.445 44.395 44.28 44.312 44.197 44.192 44.197 44.177 44.232 44.217 44.205 44.252 44.2 44.182 44.347 44.465 44.657 44.787 44.957 45.097 45.21 45.37 45.472 45.59 45.747 45.875 45.995 46.12 46.272 46.362 46.517 46.69 46.807 47.022 47.145 47.32 47.522 47.652 47.857 48.022 48.19 48.407 48.64 48.78 49.182 49.402 49.767 49.9 49.862 49.905 49.89 50.027 50.172 50.332 50.422 50.467 50.53 50.825 53.625 54.59 53.047 52.547 52.592 52.56 52.542 52.512 52.545 52.572 52.502 52.502 52.45 52.402 52.382 52.385 52.367 52.322 52.345 52.345 52.35 52.312 52.247 52.187 52.135 52.095 52.022 51.972 51.89 51.822 51.702 51.6 51.542 51.462 51.382 51.302 51.21 51.112 51.017 50.92 50.812 50.725 50.59 50.487 50.352 50.245 50.135 50.02 49.882 49.76 49.635 49.512 49.4 49.26 49.13 48.992 48.867 48.767 48.655 48.522 48.372 48.207 48.072 47.975 47.86 47.762 47.647 47.537 47.425 47.292 47.17 47 46.805 46.645 46.447 46.282 46.12 45.945 45.79 45.652 45.492 45.357 45.227 45.06 45.142 45.865 45.302 46.137 43.917 43.54 44.787 42.94 42.845 42.825 42.752 43.212 43.137 43.225 43.48 45.095 44.29 44.087 44.202 44.35 44.612 44.707 44.91 46.22
50.957 51.084 51.269 52.959 51.962 51.784 52.174 52.472 52.187 51.152 51.092 51.044 50.987 50.922 50.894 50.889 50.859 50.832 50.814 50.839 50.859 50.887 50.912 50.909 50.914 50.927 50.934 50.972 50.987 51.019 51.062 51.094 51.152 51.207 51.247 51.319 51.304 51.377 51.399 51.399 51.432 51.447 51.464 51.482 51.529 51.609 51.639 51.682 51.702 51.709 51.679 51.702 51.767 51.799 51.847 51.877 51.909 51.904 51.887 51.894 51.909 51.857 51.859 51.852 51.857 51.847 51.809 51.747 51.677 51.669 51.624 51.614 51.599 51.554 51.482 51.449 51.344 51.252 51.149 51.079 51.014 50.924 50.959 50.869 50.897 50.869 51.264 51.497 51.414 51.574 51.267 51.247 50.834 50.839 50.557 51.747 53.199 49.282 48.942 48.677 48.534 48.424 48.314 48.184 48.052 47.934 47.802 47.707 47.607 47.507 47.432 47.312 47.177 47.062 47.074 47.814 46.282 46.062 46.102 46.634 46.534 47.562 46.999 47.349 47.169 46.927 46.717 45.682 48.599 48.954 44.694 44.297 45.737 44.767 45.032 45.737 44.382 43.902 44.527 44.659 44.949 45.417 44.822 48.289 47.582 47.272 46.257 45.277 45.247 45.152 45.119 45.124 45.204 45.242 45.297 45.362 45.437 45.562 45.609 46.599 47.974 46.592 46.234 46.204 46.249 46.354 46.454 46.512 46.584 46.702 46.772 46.827 46.894 46.962 47.019 47.067 47.184 47.242 47.334 47.389 47.429 47.474 47.544 47.597 47.654 47.739 47.804 47.847 47.859 47.942 47.964 47.999 48.022 48.059 48.069 48.127 48.15 48.165 48.195 48.202 48.2 48.165 48.186 48.209 48.2 48.166 48.134 48.115 48.061 48.025 47.989 47.958 47.929 47.877 47.849 47.783 47.739 47.695 47.582 47.49 47.422 47.36 47.307 47.262 47.155 47.15 47.127 46.912 46.677 46.597 46.592 46.627 46.7 46.65 47.492 47.252 47.525 46.997 47.237 47.535 46.812 45.355 45.357 45.72 44.857 45.755 44.357 44.887 44.755 46.06 45.267 44.702 45.092 44.99 44.122 44.402 44.842 44.87 44.785 44.66 44.692 44.702 44.747 44.877 44.94 45.13 45.197 45.285 45.357 45.46 45.587 45.7 45.79 45.897 45.987 46.125 46.22 46.355 46.45 46.58 46.692 46.81 46.955 47.052 47.245 47.395 47.57 47.76 47.95 48.165 48.32 48.62 48.9 49.187 49.505 49.505 49.955 49.842 49.977 50.17 50.365 50.47 50.562 50.697 50.922 52.46 54.98 53.89 52.222 52.427 52.575 52.657 52.637 52.662 52.575 52.492 52.457 52.465 52.432 52.43 52.412 52.372 52.367 52.362 52.387 52.367 52.3 52.23 52.17 52.14 52.062 52.012 51.975 51.917 51.86 51.775 51.712 51.612 51.56 51.472 51.372 51.302 51.185 51.095 50.987 50.885 50.775 50.662 50.585 50.465 50.36 50.252 50.142 50.037 49.9 49.782 49.62 49.51 49.37 49.235 49.097 48.977 48.847 48.73 48.565 48.415 48.27 48.132 48.017 47.905 47.815 47.702 47.577 47.477 47.38 47.24 47.05 46.87 46.72 46.532 46.377 46.217 46.07 45.902 45.747 45.575 45.462 45.312 45.18 45.827 46.595 44.427 43.772 43.515 43.462 43.415 42.885 42.832 42.902 43.042 44.33 43.82 43.48 43.747 44.16 44.097 44.17 44.327 44.505 44.827 44.93 44.922 45.25
51.017 51.159 51.347 52.999 51.907 51.842 52.277 52.372 52.244 51.207 51.152 51.082 51.059 50.992 50.954 50.944 50.922 50.869 50.877 50.907 50.924 50.942 50.957 50.977 50.979 50.987 50.989 51.032 51.044 51.087 51.117 51.139 51.209 51.262 51.267 51.322 51.352 51.389 51.407 51.452 51.457 51.472 51.482 51.527 51.599 51.637 51.682 51.687 51.659 51.689 51.682 51.694 51.737 51.777 51.827 51.834 51.854 51.859 51.874 51.904 51.897 51.869 51.859 51.882 51.917 51.952 51.882 51.757 51.619 51.619 51.619 51.617 51.642 51.599 51.537 51.487 51.404 51.552 53.059 52.682 51.164 51.342 51.672 51.957 51.782 51.617 51.164 51.087 50.524 50.174 49.884 49.754 49.584 49.444 49.434 49.949 50.057 49.332 48.852 48.709 48.567 48.444 48.369 48.249 48.094 47.972 47.847 47.757 47.664 47.579 47.467 47.344 47.219 47.119 47.402 47.719 46.309 46.134 46.072 46.227 46.387 46.282 46.289 46.712 47.064 47.019 46.627 45.942 46.134 46.214 44.969 45.259 46.707 46.352 44.864 45.577 44.087 44.269 45.632 45.902 47.177 45.512 47.889 46.284 47.934 46.809 45.627 45.434 45.422 45.387 45.369 45.354 45.462 45.477 45.512 45.599 45.687 45.752 45.812 47.362 47.542 46.379 46.402 46.397 46.422 46.527 46.592 46.689 46.777 46.862 46.897 46.974 47.032 47.097 47.152 47.202 47.294 47.384 47.454 47.512 47.549 47.622 47.652 47.719 47.794 47.847 47.909 47.967 47.982 48.027 48.057 48.074 48.112 48.157 48.197 48.217 48.235 48.232 48.26 48.262 48.265 48.245 48.248 48.249 48.254 48.241 48.18 48.16 48.118 48.077 48.044 47.995 47.942 47.897 47.87 47.818 47.768 47.729 47.627 47.54 47.455 47.39 47.342 47.297 47.217 47.202 47.13 46.942 46.73 46.655 46.712 46.692 46.557 46.44 46.305 46.197 46.147 46.077 46.167 46.335 45.832 44.92 44.775 44.545 44.207 44.167 44.172 44.057 44.052 45.9 44.02 43.777 44.515 44.357 43.455 44.007 44.3 44.702 45.445 45.822 45.952 46.23 46.157 46.235 46.24 46.422 46.48 46.337 46.462 46.435 46.415 46.582 46.742 46.885 46.855 46.95 46.882 46.755 46.77 46.812 46.902 47.267 47.74 48.075 47.347 47.507 47.63 47.77 47.875 48.01 48.127 48.277 48.412 48.587 48.757 48.972 49.162 49.355 49.56 49.78 49.98 50.187 50.357 50.5 50.68 50.89 51.85 51.522 51.595 51.825 51.977 52.202 52.38 52.49 52.475 52.435 52.412 52.427 52.422 52.432 52.402 52.392 52.392 52.412 52.417 52.37 52.33 52.3 52.27 52.21 52.165 52.08 52.035 51.982 51.897 51.82 51.767 51.677 51.617 51.535 51.445 51.38 51.275 51.195 51.082 50.972 50.875 50.797 50.67 50.572 50.452 50.347 50.2 50.072 49.945 49.812 49.677 49.537 49.39 49.275 49.13 49.022 48.875 48.747 48.587 48.46 48.337 48.217 48.097 48.002 47.892 47.792 47.677 47.575 47.442 47.29 47.13 46.952 46.785 46.642 46.452 46.317 46.205 46.042 45.852 45.687 45.552 45.36 45.347 46.605 46.905 43.88 43.742 43.57 43.647 43.62 43.262 43.24 43.075 43.182 43.972 43.865 43.682 43.847 44.11 44.217 44.352 44.537 44.717 44.947 45.017 45.1 45.2
