ncols 429
nrows 32
xllcorner    455028
yllcorner    86440
cellsize     2
NODATA_value -9999
29.529 29.419 29.339 29.249 29.121 28.996 28.911 28.796 28.724 28.589 28.476 28.384 28.269 28.184 28.041 27.974 27.829 27.731 27.631 27.556 27.451 27.344 27.226 27.136 27.039 26.941 26.869 26.759 26.694 26.581 26.526 26.444 26.384 26.284 26.201 26.136 26.074 25.981 25.894 25.811 25.729 25.681 25.576 25.526 25.444 25.396 25.331 25.224 25.194 25.141 25.074 25.076 25.086 25.144 25.201 25.211 25.259 25.251 25.244 25.336 25.361 25.389 25.341 25.264 25.461 26.139 27.226 26.504 26.394 26.401 26.426 26.504 26.599 26.634 26.801 26.864 27.006 27.079 27.196 27.264 27.319 27.401 27.496 27.524 27.581 27.614 27.649 27.644 27.679 27.721 27.729 27.779 27.821 27.914 28.021 28.059 28.039 27.989 27.966 27.944 27.944 27.916 27.939 27.949 27.981 27.979 28.031 28.004 28.006 28.024 28.044 28.034 28.029 28.056 28.031 28.031 27.991 28.014 28.011 28.019 27.984 28.014 28.054 28.056 28.076 28.071 28.064 28.061 27.996 27.969 27.991 28.001 28.026 28.046 28.024 27.989 27.961 27.919 27.891 27.889 27.889 27.841 27.861 27.801 27.779 27.744 27.746 27.726 27.711 27.654 27.616 27.594 27.541 27.509 27.451 27.409 27.376 27.336 27.251 27.214 27.166 27.106 27.051 26.981 26.966 26.926 26.864 26.851 26.774 26.734 26.711 26.639 26.649 31.604 34.156 34.831 34.566 32.351 26.136 26.144 26.139 26.004 25.891 25.821 25.839 25.801 25.804 25.774 25.759 25.689 25.691 25.636 25.564 25.561 25.481 25.456 25.434 25.341 25.311 25.256 25.206 25.179 25.121 25.064 25.029 24.949 24.914 24.851 24.751 24.681 24.631 24.571 24.484 24.421 24.371 24.244 24.211 24.114 23.994 23.914 23.834 23.706 23.606 23.531 23.446 23.329 23.251 23.206 23.091 23.021 22.969 22.881 22.794 22.721 22.666 22.591 22.521 22.444 22.359 22.306 22.274 22.191 22.206 22.144 22.146 22.141 22.209 22.099 22.076 22.064 22.064 22.056 22.054 22.044 22.049 22.081 22.126 22.199 22.229 22.306 22.324 22.381 22.476 22.624 22.666 22.691 22.694 22.746 22.829 22.926 23.006 23.066 23.166 23.241 23.329 23.409 23.489 23.549 23.604 23.714 23.786 23.831 23.919 24.066 24.129 24.192 24.29 24.362 24.471 24.525 24.621 24.69 24.736 24.78 24.83 24.889 24.965 24.992 25.035 25.117 25.214 25.269 25.3 25.31 25.391 25.421 25.479 25.552 25.531 25.474 25.657 25.69 25.77 25.871 25.898 25.937 25.952 26.013 26.062 26.037 26.071 26.113 26.161 26.262 26.303 26.398 26.455 26.554 26.596 26.637 26.689 26.762 26.598 26.644 26.86 27.351 27.423 26.909 26.737 26.71 27.356 27.684 27.664 26.984 26.729 26.711 26.704 26.713 26.718 26.794 26.821 26.854 26.889 26.975 26.982 26.989 27.011 26.992 27.021 27.043 27.042 27.04 27.008 27.06 27.097 27.159 27.164 27.154 27.185 27.17 27.144 27.122 27.101 27.091 27.081 27.036 27.004 26.977 26.931 26.908 26.864 26.813 26.803 26.83 27.16 25.628 23.871 23.84 25.152 27.592 25.413 25.337 25.315 25.309 25.299 25.318 25.322 25.279 25.272 25.302 25.286 25.322 25.712 25.909 24.856 24.682 24.593 24.484 24.39 24.323 24.249 24.138 24.023 23.891 23.737 23.634 23.56 23.416 23.303 23.138 22.989 22.834 22.688 22.526 22.393 22.269 22.142 21.962 21.788
29.426 29.289 29.179 29.089 28.969 28.886 28.771 28.681 28.581 28.464 28.369 28.246 28.139 28.044 27.916 27.851 27.706 27.616 27.519 27.429 27.316 27.204 27.106 26.999 26.921 26.811 26.756 26.634 26.559 26.469 26.396 26.326 26.251 26.141 26.091 26.016 25.951 25.864 25.761 25.689 25.626 25.574 25.466 25.436 25.336 25.284 25.199 25.134 25.061 25.026 24.969 24.981 24.976 25.015 25.064 25.086 25.139 25.171 25.129 25.224 25.279 25.274 25.234 25.129 25.361 25.599 27.079 26.411 26.264 26.279 26.289 26.354 26.439 26.499 26.659 26.731 26.829 26.931 27.016 27.114 27.171 27.254 27.324 27.351 27.388 27.451 27.491 27.521 27.541 27.576 27.596 27.619 27.649 27.751 27.861 27.899 27.884 27.866 27.831 27.796 27.766 27.746 27.751 27.774 27.814 27.821 27.831 27.836 27.849 27.844 27.876 27.874 27.904 27.899 27.896 27.884 27.851 27.851 27.839 27.834 27.844 27.844 27.886 27.921 27.909 27.919 27.949 27.911 27.881 27.839 27.834 27.889 27.916 27.901 27.891 27.846 27.859 27.821 27.801 27.781 27.781 27.766 27.751 27.714 27.701 27.699 27.704 27.674 27.654 27.601 27.579 27.541 27.524 27.501 27.424 27.379 27.361 27.306 27.236 27.169 27.089 27.064 27.004 26.966 26.949 26.851 26.806 26.771 26.699 26.649 26.656 26.596 26.819 29.204 33.249 30.684 33.506 31.491 27.746 26.104 26.081 25.949 25.864 25.756 25.799 25.776 25.739 25.716 25.674 25.634 25.641 25.569 25.516 25.521 25.446 25.386 25.316 25.306 25.266 25.229 25.191 25.151 25.081 25.044 25.014 24.929 24.884 24.821 24.726 24.674 24.634 24.544 24.459 24.391 24.329 24.251 24.156 24.064 23.996 23.911 23.814 23.679 23.621 23.576 23.461 23.316 23.266 23.211 23.124 23.016 22.956 22.856 22.786 22.729 22.676 22.594 22.486 22.419 22.401 22.331 22.259 22.121 22.109 22.061 22.071 22.051 22.021 21.984 21.949 21.941 21.941 21.924 21.944 21.941 21.934 21.966 22.016 22.111 22.154 22.181 22.249 22.281 22.359 22.469 22.546 22.506 22.559 22.624 22.729 22.791 22.874 22.954 23.079 23.129 23.219 23.271 23.371 23.434 23.511 23.584 23.656 23.756 23.834 23.974 23.992 24.084 24.209 24.265 24.345 24.4 24.483 24.562 24.593 24.656 24.699 24.758 24.825 24.879 24.948 25.056 25.153 25.123 25.162 25.189 25.256 25.319 25.37 25.362 25.358 25.536 25.568 25.64 25.683 25.745 25.778 25.804 25.826 25.842 25.916 25.919 25.985 26.051 26.088 26.169 26.274 26.441 26.416 26.43 26.454 26.522 26.383 26.446 26.632 27.134 27.343 26.977 26.408 26.48 27.129 27.529 27.225 26.752 26.639 26.527 26.536 26.568 26.57 26.593 26.6 26.653 26.689 26.749 26.791 26.845 26.901 27.018 26.878 26.878 26.889 26.888 26.888 26.928 26.991 27.024 27.069 27.104 27.103 27.099 27.052 27.046 27.041 27.024 27.026 27.004 26.972 26.934 26.927 26.91 26.877 26.858 26.795 26.763 26.688 26.68 26.881 26.208 24.163 23.75 24.337 27.118 25.659 25.353 25.338 25.302 25.299 25.308 25.302 25.285 25.263 25.266 25.391 25.891 25.102 24.827 24.743 24.663 24.552 24.487 24.409 24.339 24.238 24.121 24.007 23.906 23.81 23.704 23.597 23.456 23.338 23.203 23.041 22.903 22.773 22.63 22.441 22.277 22.154 22.012 21.863
29.269 29.164 29.071 28.969 28.866 28.754 28.654 28.566 28.456 28.334 28.239 28.124 27.969 27.899 27.784 27.706 27.564 27.479 27.374 27.294 27.196 27.079 26.996 26.866 26.791 26.714 26.651 26.519 26.421 26.344 26.291 26.204 26.136 26.031 25.984 25.904 25.826 25.744 25.681 25.601 25.486 25.456 25.344 25.281 25.241 25.194 25.119 25.036 24.956 24.881 24.856 24.834 24.846 24.896 24.949 24.954 25.014 25.024 25.029 25.139 25.194 25.179 25.134 25.019 25.229 25.384 26.714 26.366 26.114 26.134 26.154 26.209 26.271 26.369 26.471 26.579 26.691 26.779 26.826 26.966 27.031 27.064 27.111 27.156 27.221 27.271 27.289 27.334 27.374 27.399 27.434 27.454 27.494 27.584 27.656 27.706 27.716 27.699 27.671 27.646 27.621 27.584 27.561 27.634 27.641 27.659 27.671 27.694 27.694 27.706 27.729 27.734 27.746 27.746 27.766 27.746 27.749 27.746 27.726 27.716 27.716 27.749 27.769 27.776 27.814 27.776 27.781 27.794 27.759 27.754 27.764 27.804 27.814 27.786 27.794 27.776 27.754 27.724 27.709 27.709 27.676 27.709 27.686 27.659 27.641 27.616 27.609 27.619 27.561 27.539 27.521 27.479 27.441 27.399 27.364 27.329 27.269 27.234 27.176 27.114 27.061 27.034 26.966 26.924 26.869 26.819 26.774 26.734 26.614 26.596 26.584 26.526 26.524 28.866 33.744 35.129 32.531 29.821 31.044 26.014 26.029 25.914 25.789 25.699 25.719 25.694 25.659 25.641 25.624 25.591 25.574 25.569 25.524 25.404 25.379 25.336 25.309 25.271 25.239 25.186 25.141 25.101 25.064 25.011 24.966 24.866 24.836 24.764 24.706 24.669 24.616 24.486 24.454 24.374 24.264 24.189 24.129 24.034 23.936 23.871 23.791 23.721 23.601 23.556 23.439 23.354 23.266 23.206 23.111 23.006 22.929 22.886 22.824 22.776 22.644 22.576 22.491 22.429 22.376 22.279 22.199 22.086 21.994 21.974 21.956 21.934 21.921 21.876 21.859 21.836 21.809 21.824 21.894 21.889 21.886 21.894 21.891 21.981 22.006 22.064 22.116 22.156 22.209 22.301 22.404 22.386 22.479 22.539 22.579 22.669 22.739 22.859 22.921 23.034 23.086 23.156 23.224 23.299 23.399 23.469 23.534 23.649 23.754 23.819 23.915 24.006 24.058 24.143 24.2 24.257 24.331 24.402 24.494 24.542 24.547 24.624 24.683 24.779 24.85 24.929 24.989 25.063 25.066 25.079 25.117 25.183 25.135 25.255 25.398 25.435 25.456 25.504 25.552 25.619 25.65 25.694 25.714 25.738 25.791 25.861 25.949 25.983 26.054 26.18 26.224 26.34 26.328 26.212 26.195 26.204 26.361 26.804 26.864 26.704 26.276 26.246 26.828 27.451 27.189 26.609 26.385 26.365 26.385 26.43 26.447 26.474 26.467 26.477 26.512 26.548 26.573 26.622 26.656 26.722 26.747 26.764 26.742 26.76 26.741 26.8 26.85 26.925 26.966 26.98 26.977 26.996 26.989 27 26.961 26.958 26.935 26.933 26.898 26.901 26.87 26.836 26.819 26.83 26.801 26.79 26.752 26.695 26.662 26.609 26.593 26.959 25.554 23.653 23.663 25.876 26.574 25.342 25.304 25.285 25.293 25.291 25.295 25.29 25.275 25.44 25.515 25.177 24.831 24.755 24.664 24.584 24.553 24.463 24.403 24.316 24.237 24.136 24.056 23.963 23.85 23.752 23.62 23.489 23.386 23.238 23.117 22.97 22.82 22.643 22.526 22.331 22.197 22.045 21.916
29.141 29.036 28.924 28.869 28.729 28.616 28.521 28.406 28.306 28.216 28.116 28.011 27.859 27.791 27.646 27.556 27.489 27.384 27.296 27.169 27.069 26.974 26.894 26.786 26.666 26.584 26.499 26.409 26.324 26.244 26.184 26.076 26.019 25.949 25.869 25.779 25.704 25.651 25.576 25.474 25.396 25.361 25.259 25.211 25.134 25.081 25.001 24.926 24.859 24.781 24.761 24.754 24.751 24.786 24.841 24.866 24.914 24.921 24.941 25.026 25.059 25.049 25.074 24.989 25.136 25.316 26.259 26.261 25.981 26.014 26.041 26.089 26.106 26.181 26.354 26.421 26.541 26.619 26.706 26.794 26.851 26.909 26.956 26.986 27.054 27.114 27.111 27.179 27.184 27.221 27.241 27.259 27.296 27.406 27.504 27.516 27.549 27.514 27.531 27.564 27.484 27.419 27.371 27.476 27.504 27.516 27.526 27.566 27.569 27.581 27.589 27.584 27.606 27.629 27.634 27.609 27.604 27.621 27.606 27.604 27.596 27.606 27.639 27.654 27.641 27.664 27.676 27.709 27.681 27.666 27.681 27.696 27.689 27.706 27.679 27.639 27.639 27.601 27.606 27.631 27.649 27.606 27.624 27.571 27.561 27.561 27.544 27.511 27.496 27.481 27.464 27.416 27.409 27.361 27.326 27.279 27.229 27.181 27.131 27.099 27.056 26.981 26.929 26.864 26.819 26.749 26.751 26.679 26.581 26.551 26.521 26.474 27.646 32.649 35.964 35.351 32.826 31.966 30.436 25.939 25.954 25.801 25.734 25.621 25.639 25.601 25.586 25.594 25.581 25.531 25.504 25.456 25.424 25.379 25.326 25.296 25.284 25.221 25.191 25.144 25.096 25.029 25.009 24.979 24.921 24.859 24.816 24.726 24.694 24.606 24.554 24.484 24.436 24.341 24.254 24.161 24.084 24.046 23.954 23.874 23.809 23.729 23.616 23.539 23.474 23.371 23.274 23.184 23.111 23.066 22.929 22.886 22.799 22.754 22.636 22.566 22.459 22.389 22.271 22.211 22.099 22.056 21.961 21.914 21.836 21.831 21.816 21.789 21.789 21.774 21.714 21.716 21.726 21.686 21.836 21.791 21.816 21.824 21.936 21.926 21.961 22.024 22.136 22.194 22.224 22.259 22.354 22.401 22.496 22.554 22.621 22.706 22.824 22.904 22.969 23.051 23.159 23.201 23.314 23.349 23.479 23.539 23.616 23.726 23.837 23.883 23.954 24.006 24.086 24.172 24.225 24.325 24.345 24.373 24.455 24.505 24.62 24.695 24.739 24.838 24.825 24.907 24.931 24.976 24.997 24.999 25.067 25.203 25.254 25.343 25.364 25.391 25.422 25.487 25.532 25.602 25.609 25.709 25.699 25.79 25.866 25.92 26.028 26.067 26.109 26.103 26.007 26.015 26.176 26.8 26.671 26.287 25.946 26.012 26.602 27.242 27.146 26.472 26.225 26.203 26.207 26.247 26.305 26.304 26.351 26.363 26.371 26.405 26.418 26.438 26.519 26.528 26.578 26.589 26.577 26.572 26.612 26.666 26.719 26.759 26.819 26.831 26.828 26.837 26.852 26.841 26.855 26.856 26.881 26.854 26.851 26.85 26.852 26.797 26.777 26.763 26.774 26.763 26.73 26.721 26.684 26.649 26.589 26.545 26.508 26.534 26.947 24.717 23.534 23.582 27.493 26.183 25.272 25.285 25.266 25.298 25.275 25.37 25.407 25.522 24.952 24.851 24.786 24.733 24.672 24.592 24.544 24.483 24.399 24.307 24.245 24.137 24.103 23.994 23.906 23.818 23.658 23.581 23.426 23.305 23.156 23.033 22.902 22.744 22.594 22.388 22.232 22.107 21.958
29.049 28.911 28.821 28.709 28.624 28.476 28.399 28.279 28.181 28.069 27.954 27.841 27.749 27.654 27.531 27.444 27.371 27.246 27.176 27.041 26.959 26.846 26.739 26.646 26.554 26.479 26.399 26.286 26.226 26.146 26.076 25.981 25.911 25.831 25.731 25.684 25.594 25.549 25.446 25.369 25.274 25.226 25.159 25.084 25.019 24.979 24.899 24.836 24.756 24.694 24.661 24.636 24.636 24.689 24.759 24.746 24.776 24.831 24.824 24.926 24.984 25.019 24.969 24.914 24.994 25.221 26.264 26.164 25.864 25.879 25.896 25.941 26.001 26.044 26.166 26.246 26.374 26.471 26.541 26.634 26.714 26.774 26.789 26.846 26.896 26.931 26.974 27.001 27.009 27.049 27.079 27.091 27.114 27.201 27.321 27.409 27.396 27.404 27.376 27.369 27.369 27.309 27.291 27.336 27.386 27.391 27.381 27.401 27.434 27.439 27.471 27.471 27.486 27.491 27.501 27.481 27.476 27.484 27.469 27.469 27.484 27.506 27.526 27.516 27.531 27.541 27.546 27.571 27.591 27.576 27.596 27.576 27.584 27.606 27.571 27.586 27.541 27.544 27.551 27.551 27.539 27.506 27.499 27.496 27.481 27.469 27.464 27.439 27.431 27.394 27.374 27.356 27.326 27.301 27.254 27.241 27.174 27.129 27.074 27.051 27.011 26.954 26.869 26.806 26.764 26.706 26.659 26.611 26.551 26.481 26.496 26.401 29.054 34.934 35.774 36.121 32.811 33.134 25.931 25.866 25.871 25.734 25.661 25.556 25.609 25.551 25.554 25.526 25.496 25.454 25.434 25.414 25.384 25.364 25.304 25.266 25.204 25.151 25.166 25.091 25.026 25.024 24.994 24.974 24.901 24.861 24.759 24.696 24.621 24.561 24.504 24.404 24.401 24.314 24.241 24.166 24.094 24.036 23.969 23.869 23.819 23.741 23.639 23.576 23.491 23.384 23.274 23.194 23.134 23.074 22.984 22.874 22.781 22.694 22.599 22.529 22.449 22.399 22.284 22.189 22.069 21.966 21.926 21.839 21.784 21.759 21.761 21.734 21.684 21.626 21.589 21.559 21.574 21.576 21.651 21.749 21.701 21.724 21.786 21.824 21.836 21.921 21.959 21.976 22.054 22.129 22.234 22.261 22.359 22.416 22.491 22.604 22.679 22.834 22.879 22.976 23.026 23.109 23.174 23.254 23.361 23.449 23.541 23.654 23.718 23.767 23.799 23.853 23.97 24.015 24.089 24.169 24.211 24.281 24.379 24.507 24.557 24.574 24.625 24.688 24.753 24.785 24.79 24.814 24.719 24.869 25.02 25.081 25.157 25.192 25.251 25.274 25.357 25.402 25.437 25.511 25.543 25.601 25.708 25.794 25.815 25.87 25.924 25.921 25.865 25.861 25.98 26.644 26.513 26.364 25.781 25.919 26.324 27.192 26.912 26.292 26.062 26.05 26.03 26.05 26.069 26.125 26.179 26.213 26.212 26.221 26.252 26.279 26.318 26.357 26.392 26.416 26.437 26.421 26.461 26.515 26.57 26.625 26.662 26.699 26.741 26.738 26.703 26.688 26.681 26.699 26.725 26.712 26.736 26.759 26.757 26.762 26.747 26.76 26.719 26.696 26.672 26.67 26.667 26.635 26.61 26.598 26.544 26.499 26.435 26.4 26.663 25.842 23.809 23.446 25.357 28.218 25.336 25.26 25.258 25.274 25.483 25.487 25.227 24.952 24.918 24.813 24.747 24.682 24.642 24.565 24.513 24.418 24.377 24.311 24.236 24.177 24.081 24.016 23.933 23.827 23.76 23.6 23.476 23.329 23.23 23.101 22.913 22.768 22.636 22.482 22.3 22.129 22.007
28.924 28.786 28.694 28.589 28.479 28.341 28.256 28.151 28.079 27.961 27.846 27.719 27.636 27.536 27.414 27.341 27.224 27.144 27.031 26.936 26.851 26.731 26.641 26.544 26.469 26.361 26.286 26.204 26.089 26.054 25.964 25.876 25.814 25.709 25.619 25.574 25.491 25.431 25.321 25.264 25.176 25.134 25.054 24.969 24.914 24.881 24.816 24.759 24.666 24.611 24.589 24.564 24.561 24.614 24.646 24.671 24.676 24.726 24.741 24.826 24.869 24.884 24.866 24.779 24.879 25.209 26.321 26.381 25.739 25.724 25.764 25.806 25.834 25.906 26.029 26.129 26.209 26.289 26.386 26.486 26.564 26.619 26.669 26.699 26.774 26.794 26.829 26.871 26.876 26.904 26.959 26.971 26.984 27.089 27.199 27.286 27.279 27.261 27.261 27.231 27.221 27.179 27.179 27.224 27.286 27.244 27.306 27.296 27.304 27.319 27.346 27.334 27.346 27.339 27.356 27.349 27.326 27.354 27.339 27.331 27.326 27.341 27.404 27.366 27.389 27.439 27.446 27.464 27.469 27.469 27.494 27.509 27.489 27.469 27.486 27.444 27.441 27.424 27.439 27.454 27.454 27.416 27.431 27.406 27.391 27.359 27.366 27.371 27.359 27.369 27.324 27.304 27.274 27.246 27.191 27.176 27.129 27.066 27.034 27.001 26.956 26.874 26.816 26.759 26.716 26.684 26.586 26.531 26.486 26.436 26.411 26.349 29.074 33.214 34.171 34.631 34.831 33.676 27.089 25.791 25.839 25.661 25.611 25.494 25.524 25.534 25.504 25.479 25.481 25.441 25.404 25.349 25.349 25.256 25.249 25.214 25.159 25.114 25.116 25.054 25.039 24.999 24.936 24.891 24.851 24.791 24.709 24.651 24.601 24.536 24.469 24.404 24.344 24.299 24.251 24.174 24.111 24.036 23.991 23.876 23.854 23.746 23.681 23.579 23.499 23.396 23.329 23.244 23.099 23.026 22.936 22.831 22.746 22.671 22.619 22.464 22.396 22.294 22.169 22.121 22.041 21.951 21.904 21.804 21.756 21.674 21.609 21.574 21.569 21.581 21.579 21.494 21.491 21.499 21.544 21.696 21.689 21.644 21.699 21.734 21.739 21.776 21.794 21.846 21.941 22.079 22.119 22.164 22.244 22.304 22.376 22.489 22.589 22.686 22.804 22.876 22.954 22.984 23.069 23.189 23.241 23.339 23.389 23.456 23.539 23.589 23.667 23.735 23.833 23.893 23.967 24.061 24.144 24.233 24.331 24.385 24.436 24.491 24.508 24.546 24.595 24.635 24.594 24.645 24.77 24.881 24.973 24.995 25.043 25.094 25.117 25.149 25.226 25.314 25.361 25.431 25.501 25.692 25.675 25.743 25.741 25.705 25.726 25.689 25.817 26.049 26.2 26.15 25.56 25.625 26.21 26.738 26.611 26.122 25.876 25.826 25.821 25.938 25.939 25.899 25.96 26.035 26.102 26.101 26.096 26.124 26.155 26.187 26.212 26.249 26.245 26.266 26.302 26.385 26.429 26.464 26.499 26.546 26.542 26.555 26.604 26.613 26.599 26.571 26.536 26.549 26.58 26.615 26.66 26.691 26.675 26.687 26.665 26.638 26.636 26.624 26.608 26.597 26.575 26.532 26.521 26.536 26.51 26.419 26.38 26.328 26.315 26.919 24.61 23.377 23.505 26.703 26.774 25.393 25.325 25.457 25.347 25.078 24.956 24.896 24.834 24.759 24.719 24.672 24.607 24.508 24.424 24.37 24.324 24.305 24.212 24.165 24.117 24.042 23.972 23.884 23.764 23.66 23.51 23.406 23.282 23.152 22.979 22.816 22.69 22.548 22.363 22.209 22.04
28.776 28.639 28.554 28.466 28.331 28.196 28.151 28.049 27.931 27.836 27.714 27.611 27.526 27.396 27.304 27.186 27.129 27.026 26.909 26.829 26.739 26.636 26.559 26.446 26.394 26.299 26.209 26.104 26.009 25.919 25.869 25.776 25.686 25.634 25.544 25.486 25.396 25.321 25.221 25.131 25.046 25.006 24.949 24.904 24.824 24.781 24.706 24.654 24.559 24.541 24.501 24.464 24.466 24.514 24.541 24.556 24.589 24.646 24.644 24.729 24.766 24.801 24.791 24.719 24.734 25.059 25.996 26.046 25.619 25.594 25.636 25.691 25.701 25.746 25.871 25.954 26.056 26.141 26.229 26.319 26.394 26.436 26.551 26.556 26.624 26.661 26.676 26.671 26.736 26.764 26.791 26.824 26.849 26.951 27.091 27.159 27.129 27.124 27.096 27.081 27.066 27.016 27.064 27.096 27.109 27.131 27.144 27.129 27.141 27.181 27.199 27.174 27.221 27.224 27.204 27.229 27.216 27.211 27.211 27.221 27.229 27.261 27.291 27.269 27.301 27.304 27.314 27.351 27.354 27.349 27.359 27.364 27.356 27.326 27.354 27.321 27.329 27.336 27.349 27.351 27.366 27.359 27.329 27.321 27.321 27.279 27.296 27.294 27.276 27.261 27.251 27.224 27.201 27.176 27.136 27.119 27.086 27.046 26.979 26.951 26.889 26.834 26.764 26.694 26.664 26.621 26.544 26.504 26.454 26.394 26.349 26.311 26.901 27.906 29.716 31.779 29.961 28.674 26.281 25.736 25.759 25.619 25.539 25.456 25.474 25.449 25.419 25.424 25.396 25.361 25.354 25.309 25.271 25.291 25.199 25.169 25.111 25.079 25.041 24.994 24.959 24.911 24.879 24.821 24.794 24.726 24.671 24.599 24.551 24.511 24.461 24.416 24.324 24.299 24.249 24.179 24.116 24.046 23.981 23.914 23.871 23.724 23.651 23.631 23.509 23.421 23.299 23.229 23.101 22.989 22.906 22.799 22.724 22.626 22.504 22.426 22.344 22.259 22.166 22.124 22.029 21.959 21.829 21.709 21.634 21.621 21.586 21.569 21.554 21.556 21.596 21.476 21.541 21.454 21.469 21.556 21.569 21.544 21.596 21.624 21.649 21.674 21.701 21.751 21.879 21.939 21.999 22.054 22.111 22.206 22.324 22.401 22.481 22.576 22.669 22.741 22.846 22.896 22.941 23.014 23.121 23.209 23.289 23.324 23.404 23.497 23.579 23.626 23.705 23.804 23.903 23.977 24.094 24.154 24.181 24.253 24.324 24.348 24.402 24.473 24.417 24.423 24.508 24.623 24.737 24.789 25.075 24.909 24.903 24.982 25.029 25.071 25.158 25.246 25.301 25.354 25.471 25.742 25.677 25.607 25.485 25.471 25.604 25.958 26.268 25.784 25.287 25.373 25.92 26.649 26.527 26.096 25.731 25.665 25.698 25.693 25.718 25.723 25.778 25.826 25.915 25.926 25.981 26.085 26.042 26.069 26.069 26.094 26.072 26.119 26.154 26.214 26.24 26.306 26.345 26.38 26.388 26.389 26.414 26.441 26.463 26.52 26.491 26.47 26.44 26.44 26.48 26.524 26.556 26.58 26.586 26.583 26.575 26.564 26.538 26.507 26.52 26.52 26.522 26.461 26.427 26.415 26.424 26.382 26.336 26.282 26.214 26.436 25.747 23.464 23.308 23.982 26.046 25.452 25.431 25.227 25.016 24.937 24.862 24.825 24.725 24.715 24.696 24.601 24.518 24.472 24.424 24.379 24.344 24.285 24.212 24.142 24.103 24.067 23.971 23.899 23.768 23.685 23.582 23.439 23.318 23.18 23.053 22.88 22.716 22.568 22.424 22.254 22.067
28.664 28.534 28.434 28.344 28.249 28.096 28.019 27.941 27.824 27.709 27.594 27.509 27.419 27.301 27.211 27.086 27.036 26.936 26.816 26.739 26.639 26.544 26.461 26.339 26.276 26.191 26.104 25.986 25.896 25.821 25.789 25.696 25.604 25.534 25.451 25.396 25.284 25.226 25.129 25.056 24.944 24.881 24.861 24.764 24.694 24.676 24.606 24.554 24.504 24.479 24.439 24.399 24.396 24.436 24.451 24.466 24.481 24.519 24.554 24.606 24.691 24.729 24.704 24.624 24.679 24.974 25.581 26.024 25.506 25.431 25.494 25.519 25.551 25.591 25.709 25.821 25.904 26.004 26.079 26.179 26.264 26.309 26.374 26.414 26.446 26.494 26.539 26.559 26.596 26.649 26.659 26.659 26.714 26.846 26.959 27.006 26.999 26.961 26.931 26.944 26.974 26.934 26.941 26.974 26.966 26.981 27.001 27.024 27.034 27.071 27.074 27.046 27.074 27.081 27.061 27.059 27.091 27.096 27.086 27.096 27.091 27.116 27.131 27.131 27.144 27.169 27.179 27.199 27.219 27.229 27.249 27.246 27.226 27.204 27.214 27.219 27.236 27.244 27.254 27.264 27.281 27.256 27.256 27.241 27.246 27.241 27.226 27.211 27.224 27.176 27.186 27.174 27.126 27.114 27.096 27.069 27.009 26.956 26.919 26.851 26.834 26.771 26.714 26.664 26.591 26.546 26.469 26.441 26.381 26.349 26.274 26.256 26.209 26.251 26.744 26.826 26.006 25.829 25.764 25.666 25.714 25.579 25.481 25.394 25.391 25.396 25.389 25.356 25.314 25.301 25.309 25.284 25.221 25.221 25.156 25.091 25.031 25.054 24.986 24.956 24.924 24.871 24.814 24.794 24.761 24.681 24.641 24.576 24.531 24.489 24.446 24.414 24.361 24.294 24.256 24.196 24.131 24.081 24.006 23.914 23.834 23.746 23.641 23.541 23.454 23.384 23.289 23.194 23.079 22.964 22.881 22.781 22.701 22.614 22.536 22.431 22.336 22.259 22.181 22.026 21.924 21.824 21.794 21.716 21.636 21.624 21.576 21.541 21.509 21.526 21.504 21.461 21.399 21.389 21.381 21.429 21.459 21.449 21.474 21.551 21.629 21.541 21.586 21.666 21.761 21.826 21.929 21.981 22.046 22.139 22.246 22.314 22.364 22.429 22.546 22.631 22.731 22.801 22.869 22.916 22.974 23.069 23.151 23.25 23.316 23.401 23.461 23.531 23.649 23.703 23.813 23.854 23.94 24.028 24.092 24.143 24.192 24.193 24.268 24.254 24.259 24.36 24.509 24.601 24.676 24.837 24.83 24.773 24.801 24.895 24.91 25.002 25.1 25.194 25.283 25.29 25.405 25.391 25.335 25.274 25.358 25.648 25.728 25.48 25 25.169 25.759 26.374 26.423 25.832 25.544 25.473 25.494 25.503 25.53 25.539 25.602 25.661 25.736 25.812 25.773 25.852 25.899 25.938 25.944 25.945 25.956 25.966 26.012 26.077 26.103 26.159 26.185 26.202 26.209 26.26 26.26 26.253 26.261 26.291 26.348 26.384 26.381 26.368 26.361 26.325 26.359 26.393 26.456 26.458 26.478 26.498 26.506 26.478 26.46 26.434 26.43 26.43 26.44 26.382 26.341 26.325 26.329 26.316 26.246 26.226 26.15 26.135 26.118 24.367 23.212 23.286 25.292 25.582 25.171 25.034 24.975 24.908 24.821 24.772 24.72 24.674 24.634 24.553 24.486 24.426 24.426 24.364 24.336 24.281 24.204 24.173 24.103 24.048 23.998 23.894 23.803 23.686 23.589 23.487 23.364 23.217 23.084 22.926 22.771 22.607 22.462 22.273 22.134
28.516 28.396 28.316 28.209 28.116 27.986 27.906 27.789 27.719 27.634 27.494 27.404 27.311 27.189 27.081 26.986 26.926 26.804 26.746 26.636 26.531 26.459 26.371 26.249 26.179 26.084 26.014 25.891 25.829 25.744 25.699 25.599 25.499 25.429 25.344 25.289 25.196 25.119 25.041 24.959 24.859 24.824 24.744 24.681 24.626 24.581 24.509 24.469 24.424 24.371 24.364 24.334 24.311 24.326 24.361 24.379 24.401 24.449 24.461 24.524 24.599 24.619 24.626 24.579 24.539 24.839 24.954 26.226 25.401 25.314 25.359 25.376 25.424 25.434 25.549 25.651 25.774 25.869 25.944 26.009 26.084 26.159 26.211 26.276 26.301 26.344 26.389 26.409 26.456 26.484 26.509 26.534 26.566 26.669 26.804 26.876 26.879 26.829 26.809 26.799 26.789 26.801 26.806 26.816 26.836 26.834 26.879 26.881 26.896 26.941 26.921 26.906 26.944 26.976 26.964 26.964 26.951 26.964 26.971 27.004 26.976 26.979 26.994 26.999 27.011 27.044 27.049 27.079 27.094 27.114 27.104 27.114 27.101 27.094 27.111 27.109 27.101 27.154 27.141 27.144 27.161 27.119 27.134 27.141 27.129 27.126 27.126 27.109 27.111 27.106 27.099 27.104 27.059 27.054 27.039 26.999 26.936 26.891 26.871 26.809 26.749 26.689 26.629 26.564 26.526 26.449 26.409 26.394 26.319 26.236 26.216 26.194 26.146 26.174 26.726 28.419 26.466 28.026 25.696 25.644 25.669 25.541 25.469 25.374 25.331 25.359 25.326 25.324 25.286 25.271 25.244 25.204 25.166 25.124 25.069 25.041 24.989 24.944 24.941 24.914 24.861 24.821 24.779 24.749 24.716 24.676 24.636 24.584 24.529 24.479 24.416 24.394 24.354 24.291 24.249 24.186 24.096 24.061 23.974 23.886 23.821 23.734 23.649 23.554 23.494 23.366 23.279 23.179 23.059 22.951 22.874 22.769 22.716 22.614 22.524 22.444 22.271 22.179 22.069 22.006 21.886 21.869 21.819 21.709 21.644 21.574 21.524 21.514 21.456 21.419 21.416 21.404 21.344 21.351 21.321 21.361 21.381 21.399 21.386 21.456 21.459 21.449 21.501 21.574 21.666 21.751 21.844 21.896 21.974 22.009 22.086 22.189 22.264 22.344 22.444 22.509 22.574 22.646 22.739 22.786 22.896 22.949 23.016 23.121 23.176 23.278 23.342 23.445 23.564 23.625 23.669 23.757 23.844 23.921 23.949 23.981 24.039 24.018 24.007 24.074 24.243 24.365 24.47 24.481 24.526 24.559 24.64 24.758 24.731 24.86 24.926 24.967 25.06 25.151 25.278 25.213 25.188 25.081 25.166 25.369 25.931 25.081 24.822 24.935 25.508 26.008 26.186 25.747 25.408 25.325 25.274 25.323 25.322 25.334 25.369 25.436 25.504 25.566 25.615 25.663 25.691 25.735 25.805 25.834 25.782 25.801 25.847 25.9 25.944 25.981 26.009 26.015 26.052 26.076 26.098 26.129 26.119 26.11 26.126 26.156 26.196 26.268 26.263 26.286 26.254 26.238 26.258 26.294 26.35 26.372 26.415 26.392 26.413 26.376 26.364 26.363 26.367 26.365 26.363 26.31 26.246 26.25 26.269 26.263 26.211 26.148 26.1 26.044 26.102 26.325 23.368 23.077 23.866 25.309 25.561 24.988 24.92 24.86 24.779 24.699 24.665 24.615 24.571 24.53 24.453 24.452 24.41 24.348 24.325 24.296 24.248 24.194 24.127 24.077 23.983 23.901 23.789 23.73 23.625 23.512 23.387 23.247 23.133 22.977 22.838 22.679 22.528 22.339 22.153
28.409 28.299 28.176 28.116 28.004 27.861 27.791 27.684 27.579 27.506 27.371 27.314 27.234 27.099 26.989 26.916 26.839 26.719 26.631 26.549 26.451 26.346 26.264 26.151 26.086 26.001 25.944 25.796 25.701 25.654 25.596 25.491 25.404 25.341 25.256 25.179 25.104 25.011 24.911 24.869 24.794 24.709 24.626 24.564 24.529 24.496 24.436 24.381 24.326 24.311 24.296 24.286 24.244 24.261 24.294 24.314 24.299 24.371 24.379 24.409 24.489 24.526 24.531 24.481 24.461 24.739 24.809 26.076 25.256 25.144 25.196 25.221 25.274 25.306 25.414 25.544 25.631 25.729 25.801 25.866 25.924 26.029 26.051 26.106 26.164 26.184 26.229 26.256 26.321 26.344 26.359 26.401 26.474 26.539 26.659 26.729 26.736 26.694 26.664 26.659 26.704 26.696 26.684 26.691 26.726 26.749 26.729 26.776 26.794 26.769 26.804 26.831 26.841 26.846 26.826 26.799 26.831 26.866 26.861 26.844 26.849 26.856 26.876 26.914 26.899 26.896 26.931 26.941 26.966 26.989 26.999 27.006 27.004 27.019 27.011 26.984 26.996 27.001 27.009 27.009 27.021 27.024 27.046 27.031 27.001 27.006 27.004 27.034 26.991 27.001 26.991 26.979 26.956 26.944 26.921 26.906 26.896 26.816 26.761 26.719 26.686 26.626 26.596 26.539 26.466 26.406 26.349 26.306 26.236 26.184 26.136 26.156 26.064 26.376 30.674 35.571 33.319 34.246 28.719 25.571 25.609 25.534 25.416 25.316 25.311 25.281 25.261 25.244 25.221 25.191 25.171 25.141 25.086 25.096 25.006 24.969 24.921 24.901 24.844 24.839 24.844 24.774 24.751 24.756 24.716 24.656 24.601 24.561 24.514 24.456 24.426 24.379 24.351 24.319 24.206 24.164 24.099 24.036 23.959 23.919 23.816 23.724 23.656 23.576 23.431 23.319 23.241 23.134 23.031 22.946 22.919 22.769 22.686 22.576 22.431 22.359 22.349 22.181 22.184 22.061 21.904 21.931 21.764 21.696 21.654 21.626 21.474 21.479 21.406 21.381 21.324 21.349 21.261 21.256 21.234 21.226 21.346 21.334 21.296 21.346 21.321 21.344 21.389 21.481 21.571 21.619 21.721 21.834 21.844 21.934 21.989 22.106 22.141 22.209 22.299 22.371 22.439 22.536 22.646 22.696 22.791 22.851 22.935 22.997 23.078 23.172 23.277 23.355 23.438 23.472 23.581 23.641 23.7 23.762 23.811 23.87 23.865 23.911 24.003 24.134 24.246 24.428 24.336 24.385 24.439 24.505 24.574 24.64 24.697 24.779 24.814 24.861 25.051 25.059 24.978 24.923 24.967 25.218 25.776 24.844 24.884 24.726 25.338 26.044 26.114 25.419 25.277 25.207 25.111 25.111 25.138 25.161 25.23 25.243 25.276 25.311 25.363 25.402 25.494 25.684 25.608 25.619 25.623 25.649 25.683 25.734 25.785 25.794 25.798 25.823 25.856 25.875 25.906 25.937 25.969 26.012 25.998 25.969 25.981 26.026 26.073 26.128 26.157 26.154 26.144 26.114 26.164 26.183 26.218 26.259 26.28 26.291 26.302 26.291 26.285 26.259 26.265 26.262 26.281 26.246 26.175 26.151 26.153 26.155 26.169 26.092 26.013 25.97 25.971 26.371 25.773 23.198 23.659 25.409 25.922 24.956 24.891 24.821 24.744 24.657 24.599 24.564 24.504 24.494 24.459 24.411 24.381 24.323 24.294 24.288 24.223 24.154 24.117 24.078 23.985 23.918 23.828 23.703 23.622 23.552 23.441 23.296 23.188 23.028 22.881 22.742 22.554 22.395 22.211
28.296 28.174 28.094 27.991 27.896 27.779 27.661 27.591 27.484 27.371 27.314 27.189 27.079 26.971 26.914 26.804 26.734 26.654 26.546 26.419 26.359 26.274 26.181 26.094 26.006 25.901 25.846 25.716 25.649 25.569 25.509 25.414 25.319 25.264 25.149 25.121 25.011 24.929 24.856 24.781 24.716 24.609 24.581 24.489 24.434 24.401 24.369 24.331 24.279 24.241 24.241 24.204 24.209 24.209 24.231 24.241 24.249 24.266 24.276 24.319 24.384 24.439 24.441 24.409 24.349 24.606 24.956 25.886 25.179 25.044 25.039 25.071 25.131 25.189 25.249 25.339 25.434 25.556 25.629 25.709 25.761 25.811 25.884 25.936 25.974 26.051 26.046 26.126 26.144 26.191 26.224 26.274 26.336 26.406 26.519 26.594 26.569 26.551 26.506 26.534 26.571 26.561 26.549 26.569 26.566 26.576 26.634 26.641 26.656 26.681 26.669 26.719 26.719 26.724 26.701 26.694 26.716 26.736 26.734 26.744 26.719 26.741 26.769 26.786 26.791 26.796 26.829 26.844 26.851 26.814 26.866 26.869 26.869 26.874 26.854 26.866 26.879 26.889 26.914 26.919 26.906 26.956 27.006 26.941 26.941 26.916 26.934 26.926 26.946 26.924 26.946 26.961 26.944 26.894 26.871 26.811 26.779 26.736 26.701 26.669 26.596 26.544 26.479 26.434 26.384 26.341 26.274 26.209 26.166 26.129 26.071 26.061 26.026 27.261 34.254 35.549 35.846 36.514 35.309 27.144 25.549 25.451 25.344 25.264 25.231 25.259 25.164 25.164 25.134 25.124 25.071 25.081 25.046 24.986 24.956 24.886 24.881 24.856 24.854 24.844 24.824 24.771 24.736 24.726 24.681 24.629 24.576 24.571 24.516 24.431 24.436 24.351 24.309 24.291 24.211 24.151 24.071 23.964 23.929 23.871 23.799 23.724 23.591 23.521 23.414 23.349 23.249 23.174 23.061 22.941 22.846 22.699 22.669 22.546 22.481 22.374 22.261 22.206 22.121 22.011 21.954 21.881 21.831 21.714 21.611 21.596 21.466 21.381 21.339 21.254 21.269 21.249 21.156 21.134 21.111 21.161 21.299 21.269 21.194 21.239 21.216 21.239 21.336 21.401 21.446 21.549 21.631 21.714 21.739 21.824 21.899 21.919 22.039 22.111 22.179 22.244 22.346 22.459 22.521 22.609 22.669 22.739 22.821 22.895 22.981 23.114 23.171 23.238 23.261 23.349 23.419 23.506 23.57 23.624 23.629 23.626 23.737 23.902 23.995 24.248 24.099 24.47 24.244 24.304 24.348 24.477 24.544 24.619 24.64 24.645 24.654 24.819 24.812 24.771 24.77 24.98 25.068 24.938 24.458 24.503 25.09 25.887 25.787 25.381 25.044 24.943 24.966 25.034 24.963 24.973 25.025 25.04 25.13 25.135 25.249 25.259 25.316 25.349 25.44 25.694 25.43 25.466 25.514 25.557 25.624 25.658 25.659 25.675 25.645 25.671 25.688 25.704 25.741 25.787 25.844 25.871 25.906 25.873 25.887 25.912 25.936 25.997 26.034 26.046 26.044 26.026 26.028 26.05 26.096 26.136 26.172 26.21 26.208 26.187 26.173 26.186 26.198 26.199 26.196 26.171 26.134 26.075 26.03 26.06 26.069 26.024 25.949 25.906 25.906 25.93 25.897 23.641 22.935 23.697 26.313 25.145 24.848 24.745 24.652 24.601 24.544 24.5 24.487 24.437 24.408 24.376 24.332 24.294 24.283 24.266 24.224 24.164 24.091 24.048 23.956 23.909 23.844 23.739 23.633 23.541 23.43 23.33 23.206 23.049 22.893 22.743 22.613 22.462 22.258
28.191 28.091 27.981 27.896 27.786 27.676 27.581 27.496 27.384 27.316 27.189 27.106 27.039 26.919 26.824 26.731 26.644 26.546 26.451 26.326 26.264 26.194 26.086 25.999 25.921 25.821 25.756 25.631 25.529 25.491 25.419 25.321 25.251 25.151 25.084 25.031 24.901 24.871 24.774 24.711 24.616 24.534 24.481 24.429 24.361 24.324 24.284 24.251 24.226 24.189 24.144 24.134 24.136 24.139 24.154 24.149 24.174 24.234 24.219 24.234 24.296 24.351 24.346 24.324 24.239 24.466 24.496 25.511 25.081 24.884 24.904 24.921 24.989 25.029 25.096 25.206 25.296 25.381 25.461 25.559 25.634 25.684 25.746 25.806 25.839 25.894 25.921 25.944 26.021 26.044 26.069 26.141 26.209 26.286 26.369 26.431 26.441 26.436 26.389 26.391 26.416 26.444 26.426 26.456 26.449 26.489 26.514 26.519 26.554 26.551 26.584 26.601 26.609 26.601 26.614 26.601 26.569 26.579 26.566 26.574 26.591 26.611 26.631 26.639 26.651 26.669 26.709 26.729 26.741 26.754 26.764 26.769 26.789 26.749 26.771 26.759 26.789 26.786 26.796 26.824 26.829 26.814 26.824 26.839 26.801 26.786 26.811 26.796 26.809 26.821 26.821 26.829 26.804 26.786 26.756 26.724 26.679 26.651 26.609 26.579 26.544 26.459 26.414 26.356 26.311 26.271 26.214 26.156 26.099 26.081 26.009 26.011 25.986 31.884 34.784 36.166 37.136 36.849 35.279 26.629 25.524 25.431 25.341 25.236 25.141 25.164 25.111 25.089 25.096 25.064 25.041 25.006 24.931 24.919 24.921 24.876 24.864 24.831 24.806 24.769 24.766 24.754 24.729 24.706 24.651 24.644 24.609 24.546 24.501 24.426 24.399 24.331 24.281 24.251 24.176 24.141 24.044 23.954 23.924 23.856 23.759 23.689 23.619 23.499 23.409 23.354 23.249 23.141 23.009 22.911 22.831 22.734 22.696 22.571 22.504 22.386 22.299 22.219 22.111 21.994 21.894 21.881 21.791 21.704 21.571 21.544 21.454 21.386 21.284 21.239 21.176 21.146 21.116 21.081 21.046 21.049 21.194 21.189 21.121 21.124 21.154 21.154 21.204 21.259 21.346 21.411 21.521 21.586 21.631 21.699 21.781 21.819 21.889 21.974 22.099 22.149 22.266 22.329 22.441 22.494 22.544 22.666 22.701 22.818 22.915 22.962 23.029 23.108 23.135 23.209 23.297 23.387 23.426 23.45 23.458 23.617 23.746 23.833 23.845 24.019 23.979 24.028 24.103 24.214 24.307 24.442 24.403 24.484 24.536 24.542 24.546 24.536 24.635 24.771 25.089 24.654 24.249 24.349 24.772 25.397 25.767 25.194 24.84 24.774 24.755 24.775 24.834 24.802 24.871 24.917 25.124 25.088 25.036 25.083 25.155 25.179 25.213 25.192 25.191 25.245 25.291 25.393 25.45 25.501 25.579 25.554 25.55 25.542 25.532 25.52 25.515 25.587 25.611 25.651 25.711 25.73 25.77 25.777 25.761 25.79 25.812 25.872 25.914 25.928 25.96 25.937 25.929 25.941 25.969 26.02 26.055 26.111 26.109 26.101 26.099 26.097 26.108 26.124 26.103 26.08 26.042 25.976 25.943 25.956 25.976 25.957 25.906 25.852 25.848 25.822 25.914 24.596 23.032 22.903 25.3 26.53 24.826 24.689 24.596 24.536 24.502 24.439 24.43 24.392 24.386 24.345 24.298 24.275 24.219 24.198 24.174 24.152 24.091 24.028 23.967 23.908 23.842 23.744 23.649 23.564 23.445 23.333 23.219 23.095 22.925 22.784 22.66 22.473 22.336
28.094 27.976 27.879 27.816 27.694 27.596 27.481 27.389 27.281 27.219 27.124 27.024 26.926 26.826 26.726 26.651 26.564 26.456 26.391 26.239 26.159 26.076 26.004 25.919 25.816 25.761 25.616 25.541 25.449 25.396 25.326 25.266 25.151 25.076 25.009 24.936 24.874 24.734 24.679 24.621 24.536 24.421 24.411 24.336 24.291 24.239 24.219 24.176 24.176 24.131 24.129 24.109 24.089 24.109 24.091 24.111 24.099 24.146 24.131 24.171 24.224 24.276 24.279 24.231 24.211 24.401 24.494 25.581 24.961 24.761 24.741 24.786 24.846 24.869 24.954 25.071 25.151 25.246 25.331 25.406 25.469 25.521 25.589 25.656 25.739 25.759 25.806 25.829 25.894 25.916 25.931 26.014 26.059 26.151 26.249 26.304 26.336 26.324 26.259 26.229 26.264 26.271 26.264 26.309 26.356 26.354 26.374 26.401 26.426 26.454 26.449 26.461 26.444 26.509 26.491 26.469 26.481 26.476 26.491 26.501 26.474 26.511 26.524 26.531 26.581 26.574 26.551 26.574 26.611 26.619 26.586 26.609 26.626 26.606 26.644 26.634 26.639 26.641 26.691 26.674 26.699 26.724 26.726 26.734 26.716 26.706 26.699 26.731 26.729 26.746 26.724 26.729 26.706 26.701 26.656 26.641 26.634 26.601 26.531 26.476 26.459 26.386 26.311 26.291 26.249 26.199 26.114 26.114 26.051 25.984 25.924 25.926 25.979 28.566 33.556 33.156 36.814 35.834 34.606 26.946 25.476 25.419 25.276 25.169 25.076 25.089 25.044 25.016 24.991 24.976 24.984 24.994 24.931 24.929 24.881 24.851 24.846 24.811 24.769 24.749 24.716 24.699 24.689 24.671 24.619 24.579 24.574 24.509 24.481 24.424 24.356 24.346 24.266 24.226 24.159 24.086 24.014 23.959 23.879 23.839 23.774 23.671 23.596 23.494 23.349 23.271 23.231 23.109 23.024 22.976 22.904 22.721 22.649 22.639 22.449 22.364 22.259 22.151 22.181 22.041 21.899 21.834 21.714 21.649 21.564 21.499 21.401 21.304 21.256 21.216 21.141 21.121 21.089 21.034 20.976 20.994 21.096 21.144 21.041 21.019 21.041 21.084 21.099 21.136 21.256 21.326 21.391 21.466 21.539 21.611 21.614 21.696 21.816 21.911 21.934 22.081 22.146 22.234 22.321 22.411 22.454 22.556 22.662 22.691 22.796 22.871 22.966 23.027 23.054 23.118 23.152 23.183 23.197 23.315 23.471 23.588 23.644 23.673 23.735 23.83 23.879 23.947 24.122 24.156 24.263 24.302 24.31 24.328 24.357 24.376 24.4 24.699 24.972 24.553 24.034 24.125 24.706 25.247 25.353 24.917 24.687 24.555 24.545 24.556 24.606 24.62 24.694 24.756 24.825 24.793 24.862 24.875 24.945 25.033 25.075 25.07 25.029 25.039 25.071 25.167 25.213 25.289 25.339 25.39 25.435 25.427 25.437 25.415 25.389 25.386 25.408 25.425 25.445 25.525 25.575 25.63 25.635 25.654 25.629 25.663 25.713 25.754 25.768 25.834 25.821 25.804 25.79 25.835 25.858 25.899 25.946 25.974 26.001 25.996 26.03 26.023 26.016 26 26.019 26.017 25.982 25.928 25.87 25.851 25.867 25.889 25.853 25.786 25.769 25.757 25.831 25.942 24.353 22.814 23.229 25.799 25.169 24.666 24.556 24.496 24.439 24.374 24.359 24.353 24.329 24.305 24.26 24.238 24.228 24.161 24.119 24.108 24.091 24.017 23.958 23.928 23.848 23.756 23.657 23.577 23.476 23.374 23.252 23.087 22.927 22.815 22.703 22.56 22.376
28.021 27.899 27.801 27.704 27.604 27.494 27.391 27.301 27.201 27.124 27.019 26.924 26.844 26.744 26.666 26.544 26.449 26.364 26.291 26.139 26.104 25.981 25.911 25.806 25.731 25.629 25.559 25.454 25.366 25.329 25.256 25.174 25.089 24.996 24.919 24.881 24.791 24.696 24.616 24.539 24.481 24.369 24.324 24.269 24.234 24.184 24.149 24.126 24.109 24.071 24.059 24.069 24.039 24.014 24.049 24.024 24.021 24.069 24.096 24.094 24.149 24.196 24.214 24.191 24.116 24.326 24.294 25.716 24.981 24.649 24.596 24.664 24.709 24.754 24.791 24.899 25.006 25.069 25.179 25.259 25.304 25.359 25.426 25.506 25.519 25.606 25.671 25.689 25.699 25.746 25.804 25.851 25.921 26.019 26.104 26.191 26.191 26.206 26.151 26.154 26.149 26.119 26.146 26.191 26.229 26.241 26.256 26.306 26.311 26.321 26.326 26.359 26.359 26.361 26.339 26.326 26.346 26.331 26.376 26.366 26.351 26.371 26.374 26.416 26.431 26.439 26.449 26.474 26.479 26.496 26.514 26.524 26.531 26.514 26.514 26.534 26.536 26.529 26.551 26.559 26.609 26.604 26.609 26.634 26.624 26.624 26.641 26.626 26.616 26.656 26.654 26.649 26.644 26.611 26.599 26.556 26.501 26.506 26.461 26.421 26.379 26.349 26.276 26.261 26.211 26.141 26.061 26.024 25.999 25.916 25.859 25.854 25.831 26.176 30.211 33.961 35.216 29.841 28.106 25.441 25.419 25.344 25.221 25.121 24.994 25.029 24.964 24.986 24.974 24.939 24.931 24.944 24.889 24.879 24.836 24.814 24.794 24.764 24.724 24.736 24.686 24.674 24.641 24.629 24.601 24.571 24.481 24.486 24.456 24.366 24.336 24.289 24.194 24.189 24.104 24.076 24.029 23.949 23.871 23.806 23.736 23.634 23.531 23.459 23.396 23.274 23.239 23.121 23.059 22.946 22.876 22.781 22.604 22.524 22.434 22.371 22.254 22.194 22.136 21.981 21.904 21.791 21.694 21.616 21.539 21.464 21.376 21.289 21.239 21.171 21.101 21.044 21.004 20.969 20.946 20.899 21.009 21.056 20.974 20.939 20.974 21.004 21.039 21.091 21.116 21.194 21.254 21.336 21.406 21.474 21.529 21.591 21.659 21.764 21.861 21.934 21.989 22.076 22.184 22.274 22.356 22.497 22.577 22.606 22.694 22.772 22.824 22.876 22.97 22.97 22.98 23.038 23.208 23.33 23.366 23.422 23.493 23.573 23.598 23.762 23.791 23.953 24.01 24.063 24.145 24.159 24.148 24.177 24.224 24.35 24.469 24.288 23.87 23.904 24.368 25.289 25.342 24.814 24.493 24.361 24.384 24.384 24.439 24.419 24.553 24.59 24.606 24.649 24.726 24.711 24.732 24.765 24.829 24.861 24.889 24.876 24.915 24.979 25.028 25.058 25.112 25.172 25.21 25.257 25.281 25.303 25.296 25.239 25.247 25.254 25.303 25.331 25.348 25.38 25.425 25.489 25.508 25.525 25.545 25.552 25.561 25.606 25.659 25.733 25.724 25.702 25.682 25.701 25.744 25.79 25.811 25.869 25.924 25.901 25.906 25.936 25.913 25.912 25.913 25.922 25.909 25.841 25.791 25.761 25.78 25.82 25.802 25.754 25.726 25.698 25.698 25.856 25.53 22.983 22.809 24.826 25.291 24.674 24.537 24.429 24.37 24.341 24.308 24.316 24.305 24.279 24.213 24.183 24.155 24.127 24.098 24.081 24.024 23.975 23.967 23.921 23.809 23.748 23.699 23.582 23.48 23.39 23.263 23.143 22.989 22.847 22.723 22.586 22.415
27.889 27.799 27.731 27.611 27.519 27.444 27.326 27.224 27.096 27.031 26.961 26.856 26.766 26.646 26.561 26.481 26.376 26.276 26.184 26.084 26.001 25.906 25.824 25.719 25.646 25.574 25.474 25.384 25.294 25.221 25.171 25.099 24.996 24.934 24.879 24.816 24.709 24.624 24.574 24.456 24.401 24.276 24.274 24.186 24.161 24.104 24.096 24.061 24.069 24.004 24.006 24.009 23.999 23.999 23.959 23.986 23.964 24.011 24.004 24.014 24.079 24.109 24.144 24.109 24.019 24.246 24.329 25.991 24.911 24.486 24.461 24.531 24.579 24.611 24.676 24.811 24.881 24.961 25.034 25.129 25.169 25.251 25.296 25.389 25.419 25.466 25.534 25.564 25.576 25.619 25.684 25.726 25.806 25.886 25.989 26.049 26.046 26.031 26.014 26.014 25.989 25.971 26.031 26.059 26.066 26.099 26.131 26.171 26.176 26.186 26.226 26.219 26.231 26.256 26.191 26.219 26.219 26.219 26.236 26.244 26.251 26.276 26.296 26.329 26.331 26.341 26.354 26.376 26.389 26.396 26.389 26.406 26.399 26.409 26.441 26.436 26.444 26.449 26.456 26.486 26.526 26.504 26.561 26.546 26.546 26.531 26.564 26.566 26.566 26.579 26.541 26.546 26.521 26.514 26.486 26.491 26.456 26.411 26.379 26.356 26.311 26.256 26.231 26.179 26.116 26.076 26.014 25.966 25.939 25.869 25.809 25.781 25.736 26.301 32.689 33.804 35.661 31.909 30.219 25.274 25.299 25.289 25.194 25.066 24.964 24.974 24.956 24.916 24.941 24.921 24.876 24.916 24.861 24.846 24.809 24.814 24.754 24.721 24.721 24.696 24.669 24.656 24.646 24.569 24.586 24.529 24.514 24.464 24.404 24.321 24.286 24.209 24.199 24.156 24.141 24.094 24.011 23.936 23.836 23.751 23.679 23.631 23.539 23.459 23.411 23.296 23.219 23.131 23.004 22.909 22.789 22.694 22.646 22.519 22.446 22.339 22.301 22.154 22.031 21.986 21.856 21.774 21.721 21.636 21.519 21.491 21.346 21.269 21.194 21.116 21.086 21.026 20.986 20.929 20.894 20.819 20.921 21.054 20.899 20.866 20.911 20.951 20.909 20.986 21.019 21.116 21.201 21.249 21.296 21.361 21.416 21.479 21.576 21.664 21.736 21.789 21.866 21.984 22.086 22.186 22.256 22.359 22.394 22.51 22.564 22.627 22.718 22.74 22.742 22.785 22.974 23.102 23.144 23.198 23.259 23.286 23.383 23.483 23.533 23.598 23.726 23.804 23.882 23.948 23.969 23.942 23.987 24.127 24.417 24.21 23.703 23.738 24.222 25.031 25.168 24.724 24.18 24.155 24.163 24.207 24.205 24.233 24.54 24.302 24.383 24.547 24.459 24.526 24.605 24.615 24.654 24.644 24.653 24.705 24.758 24.83 24.849 24.902 24.929 24.953 24.994 25.02 25.064 25.079 25.121 25.179 25.148 25.119 25.109 25.133 25.15 25.194 25.239 25.244 25.288 25.326 25.404 25.446 25.428 25.447 25.453 25.46 25.52 25.595 25.621 25.604 25.61 25.613 25.621 25.679 25.701 25.726 25.757 25.803 25.818 25.836 25.818 25.816 25.803 25.821 25.814 25.761 25.696 25.676 25.688 25.743 25.759 25.681 25.649 25.624 25.586 25.677 25.426 24.139 22.662 23.476 25.716 24.727 24.473 24.398 24.308 24.265 24.26 24.245 24.228 24.234 24.218 24.169 24.153 24.113 24.07 24.05 24.04 23.989 23.955 23.896 23.83 23.761 23.707 23.587 23.524 23.418 23.279 23.149 23.053 22.901 22.783 22.587 22.441
27.826 27.724 27.624 27.529 27.414 27.316 27.224 27.151 27.014 26.969 26.856 26.781 26.669 26.589 26.494 26.416 26.296 26.186 26.121 26.014 25.929 25.816 25.726 25.636 25.561 25.501 25.429 25.334 25.259 25.156 25.084 25.021 24.906 24.864 24.781 24.719 24.656 24.569 24.499 24.419 24.339 24.251 24.181 24.141 24.086 24.014 24.041 24.004 23.981 23.961 23.946 23.936 23.924 23.921 23.901 23.919 23.896 23.929 23.951 23.951 24.014 24.036 24.071 24.021 23.976 24.151 24.124 25.416 25.416 24.376 24.316 24.396 24.439 24.459 24.526 24.661 24.721 24.839 24.916 24.986 25.074 25.126 25.164 25.211 25.289 25.329 25.344 25.391 25.439 25.494 25.534 25.579 25.684 25.746 25.829 25.906 25.909 25.921 25.904 25.899 25.886 25.871 25.906 25.931 25.966 25.991 25.996 26.014 26.054 26.084 26.116 26.101 26.141 26.166 26.109 26.104 26.104 26.134 26.136 26.149 26.129 26.166 26.201 26.211 26.204 26.244 26.244 26.306 26.281 26.324 26.314 26.321 26.304 26.336 26.331 26.331 26.331 26.336 26.349 26.374 26.386 26.409 26.404 26.419 26.426 26.409 26.449 26.459 26.451 26.454 26.446 26.459 26.429 26.411 26.364 26.391 26.364 26.306 26.284 26.254 26.214 26.161 26.109 26.101 26.046 26.006 25.946 25.896 25.844 25.819 25.731 25.714 25.666 26.296 30.876 34.966 36.809 35.606 34.441 25.749 25.249 25.234 25.131 25.011 24.914 24.941 24.901 24.894 24.879 24.886 24.846 24.854 24.844 24.814 24.776 24.769 24.736 24.716 24.689 24.666 24.629 24.596 24.604 24.551 24.511 24.474 24.464 24.429 24.369 24.334 24.274 24.224 24.191 24.139 24.084 24.036 24.004 23.881 23.766 23.761 23.664 23.651 23.539 23.491 23.411 23.296 23.194 23.084 22.999 22.946 22.804 22.689 22.624 22.524 22.424 22.361 22.299 22.171 22.104 21.994 21.861 21.766 21.679 21.604 21.509 21.396 21.299 21.281 21.177 21.116 21.056 21.029 20.939 20.901 20.841 20.751 20.819 20.889 20.834 20.811 20.861 20.876 20.831 20.861 20.921 20.981 21.066 21.121 21.156 21.269 21.316 21.369 21.471 21.531 21.579 21.666 21.776 21.864 21.981 22.076 22.141 22.196 22.255 22.373 22.453 22.514 22.527 22.479 22.622 22.817 22.921 22.929 22.991 23.067 23.176 23.241 23.34 23.416 23.469 23.547 23.629 23.754 23.78 23.722 23.72 23.865 24.67 24.715 23.958 23.412 23.8 24.617 24.842 24.485 24.015 23.979 23.94 23.969 23.993 24.073 24.062 24.445 24.225 24.225 24.261 24.288 24.349 24.452 24.498 24.488 24.444 24.461 24.539 24.608 24.691 24.75 24.8 24.815 24.818 24.833 24.861 24.849 24.871 24.924 24.975 24.998 25.026 25.018 25.01 25.035 25.036 25.081 25.095 25.121 25.167 25.203 25.296 25.329 25.325 25.327 25.325 25.376 25.417 25.463 25.518 25.514 25.486 25.494 25.539 25.573 25.609 25.642 25.664 25.68 25.699 25.723 25.736 25.718 25.701 25.73 25.724 25.691 25.626 25.611 25.596 25.618 25.669 25.667 25.618 25.569 25.52 25.515 25.915 25.407 22.89 22.65 24.272 24.897 24.44 24.38 24.275 24.227 24.188 24.202 24.176 24.181 24.139 24.124 24.115 24.079 24.058 23.999 23.984 23.976 23.937 23.862 23.845 23.766 23.701 23.599 23.519 23.409 23.31 23.188 23.065 22.913 22.792 22.636 22.468
27.744 27.654 27.554 27.451 27.354 27.274 27.151 27.099 26.966 26.896 26.784 26.694 26.591 26.489 26.439 26.324 26.241 26.106 26.041 25.921 25.869 25.761 25.674 25.566 25.491 25.429 25.339 25.246 25.141 25.069 25.016 24.956 24.859 24.796 24.739 24.676 24.586 24.501 24.441 24.374 24.276 24.176 24.141 24.096 24.034 23.979 23.961 23.901 23.926 23.876 23.884 23.881 23.881 23.844 23.854 23.866 23.864 23.866 23.876 23.891 23.946 23.951 23.974 23.949 23.884 24.034 24.076 25.279 25.124 24.266 24.184 24.279 24.324 24.361 24.404 24.511 24.604 24.716 24.784 24.849 24.926 24.989 25.024 25.074 25.139 25.184 25.234 25.276 25.309 25.344 25.374 25.446 25.559 25.631 25.719 25.769 25.814 25.796 25.744 25.754 25.771 25.764 25.809 25.801 25.826 25.889 25.896 25.899 25.911 25.951 25.964 25.969 26.011 26.011 26.039 25.996 26.016 26.019 26.014 26.024 26.029 26.054 26.084 26.094 26.126 26.156 26.154 26.171 26.179 26.176 26.176 26.164 26.184 26.186 26.184 26.191 26.216 26.209 26.246 26.276 26.294 26.289 26.306 26.311 26.331 26.336 26.324 26.324 26.354 26.344 26.374 26.364 26.371 26.314 26.314 26.289 26.269 26.221 26.189 26.166 26.134 26.081 26.041 26.021 25.989 25.954 25.916 25.844 25.764 25.696 25.651 25.656 25.604 25.601 30.139 33.796 33.126 33.954 30.889 25.159 25.141 25.174 25.034 24.969 24.874 24.891 24.859 24.864 24.841 24.819 24.784 24.794 24.799 24.789 24.751 24.721 24.679 24.656 24.626 24.609 24.616 24.541 24.534 24.526 24.474 24.444 24.434 24.389 24.346 24.279 24.266 24.181 24.134 24.084 24.019 24.014 23.931 23.849 23.819 23.774 23.691 23.666 23.526 23.456 23.374 23.269 23.219 23.076 23.024 22.921 22.799 22.689 22.586 22.516 22.409 22.329 22.236 22.141 22.081 21.964 21.874 21.766 21.656 21.594 21.469 21.384 21.299 21.216 21.179 21.091 21.026 20.976 20.889 20.824 20.729 20.656 20.699 20.789 20.791 20.699 20.746 20.736 20.759 20.744 20.799 20.866 20.939 21.024 21.091 21.166 21.231 21.246 21.341 21.401 21.484 21.576 21.694 21.789 21.881 21.954 21.991 22.088 22.178 22.251 22.255 22.241 22.377 22.541 22.616 22.661 22.752 22.831 22.913 22.989 23.24 23.235 23.275 23.326 23.4 23.479 23.492 23.483 23.483 23.578 23.868 24.081 23.641 23.248 23.441 24.022 24.649 24.525 23.91 23.751 23.729 23.769 23.763 23.785 23.878 23.944 23.936 24.314 24.259 24.145 24.189 24.203 24.297 24.281 24.3 24.294 24.342 24.391 24.467 24.555 24.595 24.626 24.639 24.677 24.708 24.713 24.723 24.701 24.705 24.753 24.822 24.894 24.893 24.889 24.891 24.885 24.944 24.945 24.984 25.012 25.019 25.096 25.145 25.206 25.271 25.223 25.195 25.239 25.282 25.366 25.385 25.388 25.376 25.386 25.422 25.456 25.488 25.528 25.57 25.595 25.602 25.609 25.614 25.62 25.611 25.614 25.624 25.623 25.549 25.522 25.508 25.508 25.56 25.58 25.558 25.551 25.513 25.436 25.531 26.132 23.487 22.505 23.099 24.721 24.678 24.339 24.248 24.154 24.165 24.156 24.139 24.127 24.117 24.061 24.016 24.005 23.984 23.97 23.914 23.911 23.894 23.855 23.804 23.749 23.701 23.595 23.527 23.415 23.306 23.185 23.098 22.966 22.809 22.701 22.559
27.661 27.571 27.484 27.384 27.256 27.191 27.076 26.999 26.874 26.806 26.696 26.621 26.529 26.434 26.351 26.211 26.149 26.031 25.951 25.846 25.779 25.689 25.594 25.514 25.419 25.346 25.249 25.184 25.101 25.001 24.944 24.909 24.781 24.741 24.679 24.624 24.559 24.454 24.376 24.314 24.231 24.129 24.066 24.019 23.979 23.906 23.914 23.879 23.871 23.834 23.839 23.814 23.781 23.789 23.796 23.814 23.796 23.791 23.789 23.819 23.869 23.896 23.889 23.889 23.819 23.944 24.069 24.104 24.564 24.136 24.076 24.136 24.199 24.224 24.274 24.371 24.484 24.559 24.644 24.684 24.759 24.809 24.911 24.971 25.001 25.066 25.106 25.146 25.164 25.239 25.304 25.319 25.416 25.496 25.574 25.654 25.676 25.679 25.639 25.651 25.664 25.679 25.676 25.686 25.719 25.769 25.786 25.819 25.839 25.861 25.876 25.909 25.921 25.889 25.906 25.899 25.924 25.914 25.904 25.906 25.916 25.936 25.949 25.984 25.986 25.996 26.036 26.046 26.066 26.046 26.059 26.084 26.064 26.084 26.121 26.114 26.109 26.099 26.124 26.159 26.196 26.181 26.186 26.224 26.229 26.256 26.241 26.219 26.269 26.229 26.251 26.276 26.266 26.229 26.234 26.206 26.166 26.159 26.124 26.064 26.056 26.044 26.004 25.949 25.914 25.861 25.834 25.756 25.691 25.624 25.556 25.569 25.519 25.524 27.911 29.414 30.206 31.129 28.554 25.086 25.094 25.109 25.024 24.914 24.811 24.861 24.834 24.806 24.789 24.801 24.731 24.751 24.714 24.706 24.694 24.674 24.651 24.611 24.551 24.546 24.524 24.506 24.506 24.484 24.449 24.431 24.404 24.351 24.306 24.249 24.161 24.129 24.099 24.066 24.041 24.001 23.894 23.884 23.779 23.726 23.684 23.556 23.511 23.424 23.339 23.264 23.186 23.071 22.996 22.866 22.791 22.686 22.594 22.494 22.361 22.316 22.206 22.139 21.996 21.934 21.866 21.759 21.681 21.531 21.489 21.394 21.286 21.224 21.109 21.054 20.991 20.886 20.816 20.756 20.741 20.634 20.611 20.691 20.679 20.631 20.634 20.634 20.654 20.619 20.659 20.729 20.814 20.936 20.986 21.026 21.064 21.116 21.186 21.281 21.326 21.436 21.586 21.669 21.754 21.849 21.906 21.997 21.99 22.013 22.093 22.269 22.379 22.423 22.514 22.552 22.643 22.739 22.864 22.952 23.082 23.126 23.183 23.206 23.26 23.266 23.282 23.349 23.615 23.809 23.347 23.083 23.184 23.857 24.574 24.307 23.84 23.618 23.547 23.557 23.576 23.623 23.663 23.734 23.807 23.845 23.87 23.922 24.011 24.039 24.124 24.116 24.142 24.086 24.149 24.227 24.266 24.32 24.378 24.411 24.424 24.447 24.519 24.538 24.585 24.619 24.599 24.554 24.587 24.622 24.708 24.753 24.788 24.791 24.762 24.768 24.788 24.816 24.864 24.893 24.916 24.966 25.026 25.088 25.112 25.099 25.088 25.107 25.151 25.214 25.287 25.322 25.292 25.308 25.309 25.297 25.349 25.399 25.429 25.463 25.486 25.504 25.512 25.502 25.507 25.522 25.516 25.559 25.475 25.425 25.412 25.424 25.46 25.494 25.483 25.456 25.458 25.378 25.393 25.499 24.352 22.638 22.525 24.102 24.92 24.334 24.248 24.138 24.101 24.074 24.096 24.095 24.077 24.05 24.042 24.01 23.972 23.889 23.916 23.884 23.874 23.817 23.766 23.726 23.679 23.599 23.498 23.438 23.331 23.191 23.071 22.98 22.835 22.709 22.561
27.564 27.486 27.401 27.314 27.201 27.131 27.004 26.919 26.821 26.739 26.631 26.519 26.434 26.351 26.259 26.146 26.056 25.946 25.906 25.779 25.701 25.631 25.524 25.446 25.361 25.294 25.204 25.106 25.021 24.956 24.869 24.834 24.779 24.686 24.611 24.549 24.499 24.406 24.331 24.249 24.174 24.079 24.016 23.991 23.939 23.874 23.821 23.791 23.819 23.796 23.766 23.761 23.774 23.756 23.746 23.761 23.721 23.751 23.746 23.751 23.771 23.799 23.834 23.821 23.734 23.869 23.991 23.681 24.394 24.009 23.954 24.019 24.074 24.089 24.146 24.251 24.334 24.439 24.514 24.584 24.654 24.694 24.759 24.801 24.871 24.909 24.959 25.011 25.051 25.111 25.149 25.209 25.311 25.366 25.464 25.549 25.549 25.514 25.526 25.524 25.531 25.529 25.576 25.571 25.604 25.639 25.659 25.701 25.724 25.731 25.751 25.784 25.779 25.779 25.789 25.799 25.791 25.776 25.799 25.811 25.826 25.829 25.866 25.866 25.894 25.909 25.946 25.981 25.941 25.934 25.939 25.944 25.984 26.001 25.999 26.034 26.031 26.034 26.031 26.041 26.066 26.096 26.124 26.144 26.149 26.141 26.144 26.151 26.151 26.161 26.171 26.166 26.149 26.149 26.151 26.139 26.121 26.084 26.034 26.001 25.994 25.924 25.886 25.854 25.809 25.781 25.721 25.689 25.604 25.531 25.489 25.486 25.439 25.471 32.179 35.339 36.026 35.929 32.746 25.041 25.001 25.046 24.986 24.891 24.781 24.811 24.776 24.764 24.746 24.721 24.704 24.684 24.691 24.636 24.606 24.594 24.589 24.549 24.541 24.509 24.479 24.504 24.449 24.434 24.401 24.384 24.346 24.264 24.234 24.239 24.189 24.161 24.136 24.056 24.071 23.944 23.889 23.821 23.739 23.689 23.611 23.534 23.541 23.406 23.386 23.214 23.114 23.061 23.011 22.891 22.779 22.669 22.601 22.469 22.361 22.264 22.189 22.134 22.051 21.969 21.821 21.754 21.664 21.531 21.426 21.359 21.266 21.209 21.091 21.006 20.951 20.879 20.819 20.739 20.704 20.609 20.569 20.601 20.591 20.504 20.621 20.524 20.496 20.469 20.534 20.601 20.681 20.811 20.849 20.871 20.931 20.996 21.076 21.139 21.234 21.324 21.441 21.514 21.621 21.721 21.783 21.765 21.893 22.06 22.052 22.144 22.215 22.289 22.404 22.484 22.591 22.692 22.784 22.905 22.996 23.009 23.005 23.02 23.064 23.118 23.406 23.719 23.46 22.807 22.848 23.483 24.193 24.215 23.774 23.388 23.349 23.386 23.44 23.443 23.476 23.554 23.631 23.611 23.661 23.686 23.8 23.79 23.855 23.891 23.909 23.914 23.935 24.022 24.088 24.144 24.172 24.221 24.257 24.314 24.315 24.321 24.334 24.38 24.47 24.516 24.521 24.484 24.454 24.472 24.539 24.63 24.665 24.676 24.656 24.667 24.686 24.691 24.721 24.733 24.777 24.851 24.9 24.984 25.029 24.989 24.967 24.987 25.016 25.096 25.183 25.222 25.204 25.174 25.184 25.211 25.249 25.244 25.286 25.332 25.355 25.379 25.405 25.417 25.42 25.419 25.443 25.458 25.413 25.349 25.342 25.349 25.363 25.416 25.43 25.38 25.399 25.312 25.285 25.973 25.943 22.987 22.331 23.274 24.811 24.38 24.212 24.13 24.011 24.016 24.054 24.049 24.042 24.027 24.019 23.954 23.919 23.883 23.847 23.81 23.789 23.792 23.752 23.717 23.634 23.579 23.477 23.436 23.324 23.215 23.065 23.004 22.866 22.717 22.595
27.526 27.419 27.319 27.244 27.114 27.044 26.924 26.851 26.731 26.651 26.546 26.469 26.344 26.269 26.181 26.076 25.991 25.909 25.811 25.734 25.644 25.539 25.486 25.371 25.286 25.231 25.126 25.059 24.971 24.869 24.829 24.786 24.704 24.624 24.566 24.516 24.451 24.339 24.309 24.179 24.154 24.049 23.991 23.904 23.869 23.834 23.794 23.756 23.741 23.714 23.694 23.696 23.694 23.681 23.699 23.694 23.661 23.661 23.671 23.659 23.714 23.759 23.749 23.719 23.674 23.711 23.891 23.521 24.199 23.899 23.836 23.876 23.939 23.966 23.981 24.126 24.219 24.304 24.349 24.436 24.499 24.551 24.634 24.679 24.751 24.794 24.829 24.874 24.911 24.959 24.989 25.076 25.156 25.256 25.329 25.384 25.411 25.411 25.399 25.421 25.414 25.439 25.449 25.474 25.516 25.534 25.539 25.571 25.619 25.645 25.631 25.674 25.686 25.696 25.684 25.659 25.684 25.719 25.709 25.711 25.709 25.741 25.759 25.791 25.809 25.799 25.854 25.876 25.861 25.851 25.869 25.886 25.886 25.916 25.911 25.939 25.921 25.941 25.939 25.954 25.961 25.976 25.989 26.006 26.006 26.006 26.021 26.024 26.034 26.059 26.051 26.051 26.046 26.034 26.029 26.021 25.984 25.971 25.969 25.934 25.884 25.861 25.814 25.779 25.739 25.701 25.676 25.616 25.546 25.506 25.406 25.374 25.341 26.374 34.036 34.824 36.581 35.456 34.041 26.711 24.969 25.009 24.879 24.814 24.726 24.791 24.739 24.729 24.679 24.636 24.649 24.656 24.571 24.576 24.546 24.546 24.564 24.541 24.516 24.499 24.466 24.409 24.384 24.324 24.296 24.294 24.264 24.261 24.214 24.239 24.209 24.121 24.111 23.994 23.979 23.934 23.866 23.771 23.741 23.634 23.609 23.506 23.399 23.354 23.296 23.251 23.129 23.034 22.939 22.871 22.776 22.676 22.551 22.454 22.366 22.259 22.204 22.124 22.006 21.921 21.819 21.731 21.664 21.544 21.436 21.374 21.234 21.154 21.061 20.996 20.916 20.889 20.814 20.706 20.644 20.576 20.476 20.536 20.514 20.414 20.441 20.409 20.346 20.414 20.451 20.499 20.556 20.654 20.761 20.811 20.861 20.869 20.989 21.056 21.136 21.241 21.291 21.374 21.461 21.519 21.52 21.654 21.889 22.079 21.917 21.999 22.12 22.194 22.265 22.388 22.698 22.639 22.727 22.784 22.846 22.827 22.827 22.874 23.074 23.346 23.441 22.655 22.59 23.055 23.889 24.177 23.601 23.248 23.195 23.173 23.218 23.256 23.318 23.356 23.507 23.448 23.519 23.558 23.569 23.598 23.655 23.692 23.679 23.727 23.766 23.829 23.873 23.953 23.986 24.014 24.05 24.094 24.138 24.163 24.174 24.166 24.189 24.216 24.315 24.36 24.391 24.363 24.322 24.357 24.427 24.495 24.577 24.588 24.556 24.568 24.579 24.572 24.624 24.635 24.658 24.702 24.797 24.862 24.902 24.92 24.87 24.89 24.911 24.997 25.063 25.083 25.096 25.082 25.064 25.078 25.119 25.137 25.161 25.195 25.235 25.276 25.296 25.306 25.309 25.33 25.344 25.356 25.342 25.28 25.245 25.247 25.289 25.312 25.307 25.287 25.303 25.288 25.221 25.293 25.623 23.714 22.3 22.35 24.373 24.353 24.244 24.109 24.012 23.972 23.986 24.016 24.011 23.955 23.929 23.92 23.884 23.869 23.808 23.788 23.759 23.762 23.692 23.704 23.617 23.566 23.484 23.401 23.309 23.248 23.131 22.999 22.886 22.752 22.672
27.434 27.324 27.249 27.114 27.046 26.976 26.856 26.759 26.664 26.591 26.489 26.396 26.276 26.206 26.091 26.024 25.904 25.821 25.734 25.666 25.571 25.501 25.371 25.301 25.239 25.179 25.094 25.001 24.914 24.846 24.784 24.719 24.646 24.596 24.506 24.459 24.389 24.329 24.261 24.164 24.096 24.014 23.949 23.889 23.824 23.754 23.734 23.701 23.674 23.651 23.621 23.629 23.646 23.609 23.634 23.629 23.616 23.596 23.606 23.594 23.619 23.669 23.684 23.661 23.586 23.631 23.789 23.441 24.054 23.844 23.724 23.759 23.829 23.866 23.899 23.961 24.079 24.161 24.236 24.304 24.351 24.449 24.516 24.559 24.609 24.659 24.699 24.741 24.791 24.826 24.886 24.936 25.029 25.111 25.214 25.251 25.296 25.311 25.284 25.266 25.299 25.314 25.329 25.359 25.379 25.429 25.449 25.511 25.489 25.544 25.549 25.559 25.586 25.571 25.571 25.574 25.564 25.604 25.606 25.644 25.616 25.651 25.661 25.641 25.704 25.716 25.734 25.751 25.749 25.756 25.779 25.766 25.766 25.791 25.786 25.806 25.806 25.826 25.846 25.856 25.854 25.864 25.881 25.911 25.929 25.916 25.916 25.946 25.949 25.964 25.959 25.956 25.964 25.941 25.941 25.939 25.904 25.879 25.856 25.831 25.791 25.769 25.731 25.694 25.646 25.634 25.556 25.504 25.454 25.419 25.371 25.309 25.274 27.044 33.379 34.931 35.516 35.181 34.591 26.793 24.939 24.971 24.866 24.769 24.689 24.696 24.671 24.649 24.624 24.596 24.581 24.589 24.571 24.564 24.541 24.519 24.514 24.499 24.454 24.404 24.336 24.324 24.319 24.294 24.311 24.271 24.266 24.226 24.244 24.186 24.086 24.101 24.019 23.981 23.896 23.876 23.791 23.734 23.679 23.601 23.544 23.501 23.471 23.374 23.276 23.176 23.101 23.016 22.929 22.839 22.746 22.651 22.539 22.454 22.366 22.286 22.191 22.126 21.999 21.901 21.786 21.704 21.606 21.496 21.414 21.311 21.236 21.144 21.071 20.971 20.899 20.844 20.731 20.676 20.566 20.501 20.444 20.461 20.484 20.396 20.374 20.369 20.269 20.314 20.326 20.366 20.456 20.519 20.651 20.739 20.814 20.844 20.874 20.929 20.939 21.054 21.106 21.179 21.181 21.285 21.443 21.554 21.624 21.714 21.821 21.911 22.01 22.075 22.177 22.274 22.517 22.564 22.549 22.602 22.574 22.604 22.786 23.082 22.972 22.48 22.271 22.695 23.392 23.786 23.487 23.067 22.984 22.971 22.999 23.025 23.176 23.132 23.176 23.259 23.377 23.37 23.421 23.472 23.487 23.553 23.521 23.499 23.541 23.655 23.723 23.786 23.802 23.838 23.848 23.852 23.899 23.967 23.985 24.029 24.042 24.021 24.066 24.098 24.168 24.195 24.256 24.191 24.18 24.227 24.293 24.388 24.424 24.452 24.472 24.474 24.493 24.487 24.463 24.493 24.528 24.583 24.659 24.745 24.798 24.797 24.787 24.775 24.817 24.846 24.917 24.956 24.993 24.988 24.96 24.958 25.004 25.021 25.046 25.082 25.127 25.162 25.185 25.208 25.244 25.222 25.225 25.25 25.273 25.206 25.161 25.158 25.171 25.203 25.213 25.184 25.166 25.173 25.153 25.151 25.346 25.295 25.193 22.162 22.989 24.423 24.189 24.091 24.001 23.943 23.932 23.952 23.958 23.902 23.896 23.88 23.841 23.839 23.791 23.773 23.729 23.73 23.662 23.655 23.606 23.542 23.483 23.413 23.303 23.22 23.102 23.008 22.895 22.789 22.656
27.354 27.294 27.169 27.056 26.971 26.889 26.776 26.711 26.606 26.531 26.424 26.331 26.199 26.141 26.034 25.939 25.864 25.781 25.661 25.561 25.506 25.449 25.331 25.246 25.174 25.119 25.034 24.979 24.879 24.799 24.726 24.669 24.606 24.551 24.496 24.396 24.336 24.276 24.224 24.104 24.034 23.961 23.869 23.876 23.814 23.741 23.696 23.659 23.624 23.591 23.579 23.584 23.574 23.569 23.556 23.544 23.534 23.521 23.544 23.536 23.546 23.599 23.601 23.579 23.501 23.484 23.724 23.484 23.866 23.756 23.604 23.654 23.709 23.719 23.749 23.829 23.954 24.019 24.076 24.161 24.239 24.309 24.371 24.431 24.449 24.536 24.571 24.624 24.664 24.729 24.746 24.794 24.879 24.989 25.086 25.146 25.206 25.194 25.181 25.174 25.171 25.179 25.199 25.266 25.281 25.311 25.331 25.379 25.396 25.401 25.446 25.449 25.454 25.454 25.459 25.474 25.466 25.494 25.511 25.514 25.521 25.524 25.534 25.541 25.569 25.581 25.624 25.644 25.646 25.651 25.671 25.706 25.681 25.699 25.689 25.696 25.704 25.711 25.739 25.751 25.779 25.779 25.791 25.806 25.836 25.806 25.809 25.834 25.834 25.859 25.856 25.849 25.866 25.834 25.856 25.841 25.794 25.781 25.761 25.756 25.714 25.669 25.679 25.621 25.586 25.524 25.481 25.444 25.381 25.291 25.269 25.249 25.194 25.891 33.481 35.551 33.414 33.174 32.821 25.294 24.891 24.941 24.836 24.726 24.626 24.664 24.616 24.596 24.571 24.546 24.539 24.554 24.514 24.541 24.474 24.474 24.444 24.391 24.329 24.314 24.349 24.351 24.326 24.324 24.351 24.251 24.206 24.214 24.196 24.114 24.054 24.004 23.954 23.906 23.844 23.831 23.779 23.714 23.631 23.594 23.511 23.436 23.416 23.351 23.231 23.124 23.056 22.969 22.886 22.854 22.711 22.636 22.544 22.454 22.336 22.251 22.174 22.089 21.989 21.881 21.756 21.749 21.614 21.484 21.381 21.279 21.169 21.114 21.009 20.916 20.836 20.769 20.701 20.599 20.536 20.494 20.416 20.454 20.491 20.381 20.334 20.296 20.276 20.229 20.266 20.306 20.471 20.451 20.599 20.606 20.591 20.651 20.666 20.729 20.801 20.851 20.841 20.979 21.136 21.192 21.278 21.396 21.497 21.584 21.693 21.784 21.889 21.955 22.067 22.151 22.255 22.285 22.319 22.396 22.542 22.811 23.146 22.396 22.039 22.34 23.154 23.582 23.354 22.906 22.753 22.765 22.781 22.825 22.88 22.927 23.029 23.039 23.089 23.148 23.195 23.26 23.271 23.436 23.331 23.296 23.337 23.437 23.498 23.583 23.612 23.647 23.69 23.692 23.721 23.727 23.737 23.802 23.847 23.879 23.927 23.928 23.953 23.977 24.017 24.1 24.139 24.099 24.114 24.124 24.166 24.259 24.306 24.352 24.377 24.368 24.369 24.371 24.364 24.389 24.41 24.456 24.54 24.631 24.691 24.682 24.667 24.65 24.643 24.712 24.776 24.848 24.872 24.833 24.827 24.858 24.875 24.888 24.918 24.942 25.012 25.056 25.092 25.109 25.143 25.134 25.118 25.178 25.175 25.134 25.071 25.079 25.072 25.083 25.1 25.099 25.067 25.097 25.065 25.032 25.157 26.227 23.125 22.086 22.421 24.054 24.206 24.122 24.008 23.953 23.916 23.887 23.865 23.868 23.888 23.859 23.848 23.765 23.743 23.742 23.713 23.677 23.623 23.626 23.591 23.496 23.453 23.378 23.305 23.249 23.104 22.995 22.911 22.781 22.651
27.291 27.209 27.081 26.979 26.906 26.819 26.729 26.634 26.524 26.454 26.334 26.236 26.151 26.061 25.969 25.886 25.769 25.686 25.599 25.506 25.421 25.361 25.274 25.181 25.106 25.036 24.961 24.899 24.824 24.734 24.661 24.644 24.554 24.499 24.456 24.354 24.279 24.206 24.176 24.071 23.999 23.931 23.849 23.796 23.719 23.691 23.649 23.624 23.574 23.526 23.506 23.491 23.514 23.474 23.484 23.486 23.491 23.461 23.486 23.444 23.459 23.544 23.519 23.481 23.431 23.431 23.619 23.339 23.784 23.666 23.481 23.526 23.581 23.581 23.649 23.699 23.819 23.884 23.964 24.059 24.134 24.196 24.251 24.301 24.356 24.404 24.459 24.484 24.524 24.579 24.626 24.674 24.726 24.861 24.974 25.014 25.041 25.026 25.051 25.039 25.036 25.056 25.061 25.129 25.159 25.226 25.231 25.254 25.274 25.286 25.321 25.351 25.369 25.379 25.374 25.364 25.379 25.409 25.409 25.439 25.429 25.426 25.449 25.439 25.466 25.491 25.544 25.529 25.569 25.554 25.596 25.609 25.601 25.619 25.604 25.591 25.606 25.611 25.666 25.671 25.691 25.704 25.709 25.759 25.721 25.719 25.719 25.719 25.726 25.746 25.776 25.729 25.756 25.746 25.744 25.724 25.721 25.671 25.666 25.641 25.616 25.589 25.566 25.516 25.486 25.434 25.391 25.381 25.296 25.239 25.184 25.169 25.106 27.124 33.856 34.194 34.701 31.831 33.224 29.311 24.869 24.899 24.811 24.699 24.596 24.604 24.601 24.576 24.551 24.529 24.536 24.471 24.451 24.409 24.391 24.349 24.341 24.316 24.326 24.321 24.301 24.346 24.329 24.231 24.251 24.214 24.201 24.134 24.104 24.044 23.969 23.974 23.919 23.884 23.836 23.856 23.699 23.636 23.581 23.531 23.574 23.391 23.351 23.296 23.171 23.139 23.051 22.946 22.846 22.769 22.691 22.604 22.551 22.424 22.341 22.271 22.176 22.059 21.984 21.909 21.801 21.709 21.591 21.504 21.351 21.274 21.209 21.101 20.971 20.894 20.806 20.724 20.661 20.596 20.506 20.436 20.401 20.421 20.454 20.349 20.296 20.259 20.226 20.176 20.239 20.329 20.306 20.349 20.364 20.369 20.406 20.499 20.504 20.554 20.589 20.581 20.726 20.889 20.986 21.048 21.177 21.257 21.383 21.497 21.59 21.708 21.843 21.917 21.964 22.031 22.058 22.087 22.266 22.559 22.621 22.351 21.791 21.928 22.921 24.281 23.439 22.871 22.592 22.558 22.579 22.645 22.637 22.681 22.725 22.78 22.856 22.874 22.937 23.039 23.091 23.129 23.118 23.129 23.149 23.238 23.337 23.358 23.416 23.445 23.487 23.516 23.547 23.576 23.556 23.573 23.623 23.659 23.704 23.765 23.812 23.811 23.789 23.838 23.878 23.963 24.015 24.028 23.998 24.014 24.062 24.138 24.195 24.234 24.242 24.264 24.238 24.255 24.255 24.29 24.3 24.345 24.443 24.519 24.54 24.565 24.559 24.554 24.557 24.591 24.654 24.724 24.758 24.763 24.721 24.715 24.751 24.786 24.804 24.85 24.899 24.931 24.988 24.973 25.008 25.012 25.011 25.053 25.076 25.053 24.979 24.974 24.979 24.985 24.999 25.025 24.956 24.962 24.991 24.926 24.927 25.37 24.129 22.047 21.967 23.627 24.277 24.086 23.982 23.924 23.843 23.813 23.818 23.821 23.81 23.821 23.76 23.758 23.722 23.698 23.672 23.634 23.625 23.584 23.558 23.503 23.467 23.378 23.316 23.213 23.128 23.019 22.915 22.815 22.678
27.194 27.119 26.996 26.906 26.819 26.764 26.624 26.544 26.456 26.361 26.286 26.189 26.079 25.989 25.881 25.824 25.694 25.624 25.529 25.459 25.384 25.294 25.179 25.116 25.034 24.949 24.931 24.841 24.761 24.699 24.644 24.614 24.521 24.466 24.406 24.329 24.241 24.221 24.136 24.064 23.981 23.901 23.799 23.746 23.696 23.639 23.591 23.549 23.506 23.476 23.431 23.434 23.436 23.424 23.399 23.401 23.419 23.411 23.394 23.391 23.404 23.439 23.456 23.429 23.341 23.339 23.544 23.334 23.601 23.646 23.389 23.424 23.414 23.451 23.544 23.579 23.691 23.776 23.864 23.929 24.029 24.064 24.124 24.176 24.239 24.279 24.344 24.374 24.426 24.454 24.524 24.556 24.629 24.714 24.844 24.929 24.956 24.944 24.926 24.941 24.944 24.936 24.959 25.009 25.066 25.119 25.134 25.179 25.186 25.221 25.249 25.246 25.259 25.256 25.274 25.279 25.301 25.316 25.311 25.341 25.331 25.324 25.341 25.376 25.396 25.396 25.411 25.441 25.439 25.489 25.504 25.531 25.521 25.499 25.516 25.526 25.514 25.521 25.534 25.546 25.589 25.624 25.621 25.619 25.604 25.591 25.611 25.611 25.614 25.644 25.666 25.646 25.644 25.641 25.666 25.629 25.619 25.584 25.561 25.531 25.551 25.519 25.449 25.429 25.401 25.374 25.349 25.296 25.224 25.156 25.119 25.101 25.479 32.636 33.604 35.706 35.794 35.741 34.476 30.031 24.794 24.834 24.709 24.691 24.579 24.584 24.569 24.521 24.509 24.461 24.411 24.379 24.344 24.314 24.341 24.366 24.336 24.326 24.316 24.296 24.251 24.266 24.224 24.199 24.219 24.109 24.161 24.084 24.014 24.009 23.956 23.906 23.829 23.804 23.746 23.696 23.651 23.581 23.579 23.441 23.419 23.376 23.334 23.256 23.166 23.081 22.994 22.934 22.844 22.769 22.674 22.586 22.506 22.416 22.309 22.209 22.154 22.056 21.959 21.866 21.784 21.684 21.554 21.441 21.371 21.261 21.156 21.059 20.956 20.859 20.821 20.731 20.631 20.529 20.499 20.421 20.369 20.394 20.424 20.279 20.224 20.184 20.244 20.181 20.189 20.166 20.124 20.124 20.189 20.209 20.226 20.316 20.321 20.304 20.379 20.516 20.599 20.706 20.799 20.889 21.013 21.185 21.278 21.428 21.51 21.574 21.711 21.9 21.777 21.842 21.979 22.275 22.452 22.236 21.688 21.654 22.288 23.166 23.774 22.974 22.341 22.308 22.332 22.381 22.409 22.479 22.503 22.584 22.589 22.656 22.724 22.809 22.849 22.885 22.94 22.931 22.966 23.021 23.096 23.175 23.254 23.269 23.301 23.327 23.374 23.391 23.418 23.428 23.438 23.419 23.449 23.526 23.58 23.637 23.67 23.658 23.685 23.707 23.769 23.835 23.898 23.916 23.931 23.917 23.966 24.007 24.059 24.114 24.134 24.138 24.158 24.184 24.17 24.185 24.185 24.247 24.35 24.408 24.429 24.474 24.464 24.436 24.435 24.44 24.52 24.578 24.62 24.657 24.646 24.636 24.663 24.685 24.688 24.719 24.755 24.814 24.874 24.881 24.886 24.935 24.924 24.929 24.962 24.956 24.92 24.864 24.874 24.88 24.897 24.919 24.908 24.846 24.917 24.832 24.787 24.951 24.504 22.231 21.903 22.775 24.685 24.105 23.984 23.874 23.805 23.762 23.756 23.773 23.788 23.751 23.754 23.725 23.684 23.648 23.614 23.623 23.578 23.572 23.526 23.48 23.435 23.368 23.276 23.199 23.12 22.987 22.898 22.808 22.688
27.131 27.041 26.929 26.826 26.736 26.639 26.569 26.459 26.379 26.331 26.229 26.124 26.004 25.929 25.819 25.749 25.646 25.581 25.464 25.394 25.311 25.211 25.124 25.056 24.966 24.911 24.826 24.774 24.724 24.654 24.611 24.544 24.504 24.461 24.334 24.269 24.216 24.141 24.094 24.014 23.924 23.834 23.786 23.721 23.659 23.586 23.534 23.479 23.469 23.411 23.374 23.371 23.364 23.361 23.321 23.346 23.346 23.324 23.314 23.319 23.311 23.354 23.364 23.344 23.256 23.249 23.451 23.246 23.431 23.571 23.259 23.306 23.291 23.321 23.349 23.451 23.554 23.636 23.736 23.801 23.839 23.931 24.019 24.084 24.124 24.146 24.189 24.261 24.301 24.346 24.381 24.456 24.524 24.609 24.739 24.816 24.861 24.851 24.813 24.806 24.821 24.846 24.846 24.889 24.946 24.984 25.014 25.049 25.056 25.081 25.144 25.126 25.139 25.139 25.146 25.156 25.161 25.181 25.179 25.209 25.246 25.231 25.256 25.246 25.276 25.296 25.329 25.341 25.344 25.384 25.404 25.386 25.414 25.401 25.399 25.449 25.419 25.436 25.431 25.471 25.479 25.471 25.499 25.484 25.489 25.537 25.516 25.531 25.529 25.544 25.544 25.534 25.556 25.569 25.556 25.526 25.519 25.491 25.484 25.444 25.421 25.419 25.376 25.346 25.324 25.271 25.251 25.219 25.159 25.074 25.006 25.001 24.956 29.331 29.589 31.366 34.489 35.136 32.829 28.856 24.749 24.766 24.669 24.611 24.511 24.496 24.499 24.434 24.411 24.384 24.346 24.311 24.336 24.331 24.406 24.294 24.294 24.251 24.296 24.201 24.226 24.234 24.141 24.129 24.074 24.069 24.041 23.999 23.966 23.916 23.899 23.841 23.751 23.761 23.686 23.614 23.551 23.519 23.511 23.444 23.389 23.359 23.269 23.189 23.116 23.049 22.974 22.899 22.844 22.741 22.684 22.586 22.476 22.386 22.326 22.229 22.149 22.021 21.954 21.854 21.736 21.656 21.546 21.461 21.359 21.256 21.144 21.041 20.979 20.854 20.764 20.681 20.581 20.524 20.441 20.366 20.356 20.321 20.399 20.249 20.176 20.166 20.136 20.044 20.096 20.026 19.969 19.989 20.031 20.084 20.179 20.116 20.139 20.214 20.301 20.361 20.436 20.554 20.671 20.751 20.908 21.085 21.226 21.356 21.419 21.421 21.432 21.532 21.671 21.926 22.235 22.105 21.61 21.343 21.822 22.819 22.812 22.405 22.097 22.134 22.143 22.165 22.205 22.233 22.322 22.369 22.428 22.495 22.508 22.574 22.64 22.729 22.756 22.792 22.769 22.849 22.909 22.979 23.024 23.079 23.125 23.158 23.189 23.21 23.236 23.27 23.284 23.274 23.303 23.326 23.344 23.393 23.44 23.516 23.528 23.547 23.566 23.572 23.67 23.717 23.77 23.81 23.814 23.814 23.838 23.877 23.96 23.997 24.011 24.062 24.076 24.07 24.063 24.089 24.09 24.116 24.205 24.27 24.329 24.348 24.353 24.327 24.316 24.301 24.369 24.46 24.547 24.551 24.531 24.534 24.529 24.562 24.591 24.584 24.637 24.691 24.757 24.805 24.831 24.823 24.816 24.838 24.86 24.865 24.841 24.796 24.762 24.774 24.788 24.796 24.782 24.716 24.794 24.767 24.683 24.783 24.824 23.755 21.839 22.078 24.811 24.302 23.982 23.865 23.786 23.731 23.725 23.723 23.702 23.711 23.673 23.679 23.678 23.635 23.583 23.569 23.565 23.529 23.5 23.449 23.43 23.366 23.256 23.191 23.081 23.022 22.905 22.81 22.671
27.054 26.956 26.826 26.761 26.639 26.574 26.491 26.374 26.306 26.234 26.151 26.024 25.934 25.861 25.754 25.651 25.574 25.494 25.411 25.311 25.254 25.181 25.081 25.014 24.934 24.869 24.801 24.726 24.664 24.609 24.579 24.494 24.414 24.401 24.316 24.221 24.209 24.136 24.059 23.976 23.879 23.821 23.734 23.696 23.611 23.541 23.504 23.449 23.369 23.376 23.319 23.301 23.301 23.269 23.246 23.254 23.261 23.241 23.261 23.251 23.229 23.274 23.281 23.276 23.204 23.149 23.304 23.206 23.311 23.486 23.154 23.201 23.171 23.206 23.281 23.351 23.444 23.486 23.599 23.686 23.749 23.819 23.886 23.941 23.969 24.014 24.096 24.134 24.199 24.231 24.279 24.336 24.406 24.489 24.574 24.679 24.749 24.759 24.721 24.694 24.726 24.724 24.741 24.759 24.859 24.866 24.899 24.951 24.949 24.969 25.019 25.029 25.051 25.044 25.019 25.031 25.071 25.101 25.091 25.099 25.111 25.116 25.141 25.154 25.174 25.204 25.221 25.246 25.259 25.309 25.281 25.289 25.281 25.291 25.311 25.331 25.326 25.341 25.356 25.359 25.361 25.399 25.386 25.404 25.419 25.424 25.406 25.409 25.416 25.426 25.434 25.441 25.449 25.454 25.439 25.454 25.434 25.414 25.386 25.374 25.349 25.344 25.281 25.279 25.239 25.201 25.179 25.106 25.076 25.016 24.946 24.921 24.859 24.839 26.291 34.661 35.136 34.746 32.504 26.724 24.661 24.694 24.601 24.519 24.411 24.409 24.411 24.414 24.351 24.356 24.341 24.289 24.299 24.261 24.301 24.244 24.204 24.166 24.171 24.176 24.156 24.071 24.089 24.051 24.054 24.019 23.966 23.916 23.879 23.841 23.824 23.744 23.694 23.636 23.606 23.576 23.511 23.486 23.426 23.374 23.329 23.314 23.214 23.146 23.091 23.039 22.944 22.879 22.804 22.736 22.626 22.564 22.494 22.381 22.326 22.224 22.114 22.006 21.884 21.839 21.744 21.624 21.506 21.379 21.321 21.251 21.139 21.051 20.951 20.851 20.784 20.689 20.604 20.524 20.426 20.376 20.281 20.271 20.436 20.216 20.141 20.119 20.076 20.031 19.969 19.929 19.881 19.894 19.936 19.904 19.921 19.986 20.084 20.164 20.151 20.229 20.319 20.394 20.532 20.646 20.894 20.941 21.121 21.191 21.181 21.158 21.265 21.507 21.901 21.968 21.598 21.191 21.333 22.32 22.836 22.666 22.005 21.894 21.894 21.93 22.027 22.087 22.091 22.142 22.244 22.357 22.34 22.42 22.468 22.5 22.501 22.54 22.534 22.638 22.759 22.812 22.829 22.846 22.909 22.943 22.97 23.014 23.063 23.106 23.1 23.144 23.157 23.176 23.187 23.208 23.22 23.265 23.34 23.397 23.461 23.467 23.467 23.489 23.516 23.596 23.657 23.7 23.698 23.703 23.727 23.756 23.846 23.905 23.934 23.927 23.963 23.966 23.962 23.97 23.992 24.007 24.055 24.124 24.168 24.193 24.205 24.238 24.236 24.196 24.254 24.341 24.399 24.429 24.44 24.425 24.415 24.428 24.477 24.485 24.538 24.592 24.664 24.685 24.71 24.705 24.728 24.739 24.745 24.748 24.75 24.723 24.693 24.697 24.699 24.71 24.67 24.6 24.618 24.648 24.584 24.578 24.82 24.152 22.053 21.779 23.343 24.511 23.957 23.886 23.739 23.678 23.661 23.676 23.635 23.66 23.631 23.617 23.623 23.597 23.576 23.543 23.515 23.493 23.462 23.426 23.382 23.298 23.244 23.17 23.103 23.023 22.934 22.817 22.691
26.959 26.864 26.761 26.676 26.596 26.509 26.439 26.314 26.264 26.146 26.074 25.969 25.881 25.786 25.686 25.621 25.491 25.404 25.346 25.266 25.174 25.101 25.011 24.951 24.899 24.806 24.764 24.666 24.621 24.581 24.526 24.454 24.404 24.374 24.284 24.226 24.164 24.099 24.021 23.954 23.874 23.791 23.674 23.641 23.569 23.496 23.401 23.374 23.316 23.316 23.271 23.244 23.209 23.194 23.176 23.179 23.179 23.179 23.204 23.174 23.161 23.161 23.199 23.171 23.076 23.051 23.216 23.156 23.139 23.431 23.044 23.084 23.066 23.121 23.159 23.216 23.309 23.416 23.506 23.564 23.616 23.686 23.719 23.806 23.836 23.894 23.949 24.009 24.076 24.116 24.161 24.226 24.286 24.376 24.459 24.574 24.621 24.619 24.594 24.586 24.589 24.581 24.606 24.704 24.721 24.759 24.776 24.806 24.841 24.874 24.876 24.916 24.924 24.936 24.929 24.934 24.966 24.981 24.999 24.984 25.009 25.029 25.051 25.041 25.074 25.079 25.134 25.144 25.176 25.196 25.204 25.189 25.164 25.194 25.214 25.199 25.206 25.211 25.259 25.251 25.281 25.316 25.299 25.366 25.369 25.336 25.356 25.319 25.359 25.336 25.349 25.369 25.351 25.369 25.371 25.339 25.344 25.304 25.306 25.276 25.289 25.246 25.204 25.194 25.156 25.126 25.091 25.034 24.959 24.904 24.819 24.791 24.749 24.784 27.099 32.409 32.479 31.556 28.911 24.676 24.614 24.656 24.516 24.399 24.336 24.316 24.371 24.414 24.359 24.349 24.331 24.261 24.226 24.199 24.166 24.159 24.129 24.084 24.076 24.054 24.046 24.006 23.974 23.964 23.936 23.924 23.884 23.846 23.799 23.741 23.724 23.689 23.641 23.601 23.564 23.506 23.479 23.434 23.381 23.334 23.256 23.206 23.161 23.114 23.019 22.994 22.929 22.849 22.759 22.686 22.614 22.546 22.456 22.389 22.281 22.176 22.106 22.011 21.929 21.804 21.674 21.626 21.504 21.421 21.359 21.254 21.186 21.064 20.961 20.851 20.781 20.689 20.594 20.509 20.439 20.344 20.209 20.146 20.281 20.221 20.081 20.089 20.131 20.079 19.946 19.921 19.869 19.836 19.846 19.821 19.879 19.971 20.001 19.981 20.071 20.114 20.161 20.268 20.38 20.498 20.661 20.74 20.861 20.825 20.915 21.076 21.453 21.78 21.655 21.006 21.026 21.59 22.378 22.577 21.988 21.76 21.756 21.753 21.763 21.803 21.869 21.918 21.997 22.076 22.125 22.323 22.308 22.357 22.328 22.31 22.316 22.417 22.487 22.584 22.646 22.683 22.702 22.727 22.756 22.762 22.831 22.883 22.943 22.949 22.973 23.018 23.035 23.052 23.078 23.077 23.095 23.127 23.186 23.282 23.368 23.359 23.35 23.343 23.389 23.454 23.516 23.564 23.575 23.588 23.604 23.652 23.682 23.765 23.809 23.835 23.852 23.853 23.868 23.867 23.89 23.902 23.953 23.991 24.045 24.078 24.118 24.129 24.126 24.122 24.152 24.218 24.271 24.314 24.328 24.314 24.279 24.333 24.363 24.396 24.414 24.477 24.535 24.585 24.613 24.605 24.612 24.614 24.621 24.669 24.645 24.613 24.573 24.601 24.592 24.608 24.56 24.513 24.466 24.556 24.49 24.421 24.547 24.439 22.389 21.634 22.668 25.312 24.034 23.827 23.718 23.65 23.586 23.578 23.57 23.585 23.558 23.575 23.578 23.55 23.507 23.504 23.476 23.427 23.411 23.363 23.336 23.275 23.217 23.158 23.074 23.006 22.897 22.822 22.711
26.861 26.801 26.711 26.611 26.541 26.461 26.361 26.241 26.166 26.076 25.996 25.891 25.766 25.716 25.609 25.536 25.436 25.369 25.274 25.184 25.111 25.046 24.986 24.879 24.829 24.759 24.716 24.646 24.571 24.521 24.471 24.409 24.379 24.314 24.271 24.184 24.131 24.069 23.981 23.919 23.821 23.769 23.641 23.619 23.521 23.446 23.409 23.336 23.284 23.261 23.166 23.149 23.131 23.134 23.124 23.106 23.131 23.101 23.126 23.099 23.051 23.116 23.121 23.096 22.989 22.976 23.056 23.109 23.001 23.291 22.976 22.934 22.954 23.019 23.064 23.091 23.176 23.264 23.336 23.411 23.504 23.556 23.631 23.684 23.724 23.791 23.836 23.881 23.942 23.971 24.051 24.126 24.191 24.276 24.349 24.456 24.521 24.516 24.484 24.474 24.469 24.484 24.534 24.551 24.634 24.651 24.674 24.731 24.746 24.776 24.829 24.824 24.834 24.841 24.821 24.851 24.869 24.881 24.916 24.896 24.889 24.904 24.934 24.996 24.994 25.006 25.034 25.056 25.079 25.081 25.099 25.111 25.099 25.119 25.114 25.141 25.124 25.149 25.159 25.181 25.196 25.236 25.224 25.234 25.231 25.226 25.249 25.264 25.236 25.226 25.261 25.274 25.274 25.254 25.276 25.241 25.249 25.211 25.201 25.189 25.191 25.164 25.131 25.079 25.061 25.041 24.994 24.974 24.909 24.811 24.769 24.711 24.631 24.924 26.399 28.454 30.519 30.399 25.106 24.589 24.526 24.569 24.439 24.316 24.279 24.309 24.316 24.289 24.291 24.279 24.189 24.134 24.134 24.121 24.079 24.079 24.056 24.046 24.041 23.979 23.954 23.936 23.906 23.924 23.854 23.844 23.789 23.744 23.756 23.686 23.674 23.664 23.584 23.544 23.524 23.456 23.436 23.401 23.331 23.291 23.231 23.181 23.106 23.069 23.041 22.969 22.891 22.839 22.754 22.684 22.609 22.506 22.439 22.369 22.274 22.174 22.044 21.986 21.916 21.806 21.706 21.604 21.549 21.476 21.384 21.314 21.169 21.096 21.021 20.886 20.791 20.711 20.586 20.466 20.356 20.174 20.124 20.129 20.204 20.191 20.046 20.079 20.116 20.054 19.981 19.914 19.811 19.746 19.749 19.806 19.869 19.906 19.934 19.949 19.961 20.016 20.132 20.145 20.222 20.325 20.394 20.471 20.528 20.651 20.975 21.999 21.979 20.834 20.717 21.074 21.765 22.085 21.84 21.589 21.512 21.528 21.568 21.595 21.638 21.731 21.736 21.762 21.844 21.925 22.037 22.12 22.172 22.114 22.119 22.184 22.293 22.39 22.464 22.496 22.555 22.566 22.593 22.599 22.633 22.629 22.689 22.733 22.788 22.822 22.869 22.915 22.93 22.945 22.95 22.955 23 23.004 23.058 23.15 23.24 23.249 23.254 23.238 23.254 23.305 23.415 23.475 23.523 23.482 23.508 23.529 23.576 23.637 23.691 23.7 23.75 23.766 23.776 23.775 23.78 23.772 23.808 23.848 23.911 23.955 24.022 24.042 24.003 23.992 24.011 24.083 24.153 24.196 24.164 24.162 24.189 24.18 24.249 24.284 24.315 24.339 24.405 24.46 24.505 24.483 24.487 24.504 24.523 24.559 24.562 24.528 24.494 24.485 24.478 24.471 24.475 24.416 24.386 24.38 24.382 24.294 24.356 24.67 24.445 21.537 21.74 25.439 24.741 23.801 23.698 23.588 23.526 23.515 23.525 23.517 23.534 23.515 23.51 23.505 23.493 23.47 23.414 23.379 23.373 23.329 23.326 23.249 23.189 23.137 23.072 22.997 22.911 22.797 22.722
26.789 26.714 26.601 26.554 26.464 26.374 26.246 26.154 26.106 25.989 25.936 25.839 25.724 25.634 25.559 25.459 25.344 25.279 25.221 25.129 25.036 24.989 24.914 24.844 24.776 24.716 24.644 24.594 24.516 24.481 24.426 24.386 24.346 24.269 24.229 24.174 24.091 24.024 23.946 23.894 23.826 23.724 23.621 23.554 23.501 23.414 23.334 23.304 23.214 23.189 23.121 23.081 23.059 23.047 23.011 23.019 23.044 23.011 23.021 22.999 23.004 23.031 23.044 22.999 22.909 22.904 22.976 23.046 22.876 23.211 22.869 22.844 22.864 22.866 22.916 22.959 23.054 23.146 23.214 23.321 23.384 23.436 23.524 23.599 23.624 23.664 23.731 23.801 23.841 23.886 23.896 23.976 24.061 24.149 24.241 24.346 24.396 24.429 24.391 24.329 24.376 24.391 24.409 24.436 24.499 24.544 24.589 24.599 24.639 24.704 24.719 24.711 24.719 24.709 24.734 24.749 24.764 24.771 24.809 24.811 24.811 24.856 24.849 24.866 24.896 24.934 24.951 24.961 24.999 24.984 24.994 24.999 25.039 25.044 25.026 25.024 25.056 25.059 25.064 25.076 25.109 25.109 25.121 25.116 25.159 25.131 25.151 25.149 25.161 25.176 25.149 25.134 25.136 25.159 25.149 25.156 25.136 25.081 25.076 25.099 25.089 25.041 25.006 25.011 24.966 24.941 24.919 24.854 24.794 24.704 24.704 24.654 24.549 25.094 26.571 31.016 34.829 34.401 29.841 26.861 24.446 24.461 24.384 24.331 24.274 24.284 24.254 24.259 24.176 24.164 24.179 24.089 24.094 24.051 24.031 24.019 24.019 23.991 23.954 23.911 23.909 23.889 23.816 23.799 23.786 23.789 23.729 23.716 23.681 23.649 23.624 23.569 23.539 23.489 23.441 23.411 23.376 23.304 23.311 23.241 23.211 23.129 23.074 23.019 22.989 22.886 22.839 22.751 22.689 22.641 22.609 22.499 22.431 22.336 22.236 22.154 22.096 21.981 21.861 21.821 21.751 21.691 21.566 21.489 21.419 21.294 21.191 21.099 21.009 20.884 20.759 20.654 20.499 20.374 20.229 20.146 20.106 20.089 20.101 20.139 20.034 20.046 20.096 20.096 19.989 19.789 19.769 19.804 19.764 19.789 19.814 19.871 19.979 19.976 19.951 19.984 20.025 20.114 20.092 20.19 20.272 20.335 20.518 21.34 22.86 21.39 20.705 20.636 21.307 21.72 21.503 21.332 21.339 21.348 21.34 21.369 21.491 21.471 21.494 21.553 21.638 21.704 21.817 21.874 21.901 21.927 21.899 21.949 22.086 22.148 22.219 22.301 22.359 22.385 22.433 22.476 22.488 22.502 22.495 22.514 22.538 22.595 22.629 22.68 22.77 22.777 22.814 22.857 22.865 22.856 22.86 22.892 22.926 23.019 23.106 23.158 23.14 23.12 23.142 23.184 23.272 23.347 23.418 23.427 23.408 23.42 23.433 23.5 23.562 23.608 23.635 23.614 23.643 23.65 23.686 23.69 23.702 23.728 23.8 23.855 23.905 23.932 23.879 23.906 23.908 23.912 24.008 24.075 24.111 24.098 24.094 24.086 24.141 24.135 24.148 24.203 24.265 24.329 24.39 24.38 24.386 24.405 24.409 24.437 24.462 24.438 24.417 24.398 24.381 24.374 24.365 24.333 24.281 24.25 24.261 24.163 24.153 24.573 24.288 21.672 21.461 23.201 24.864 23.75 23.642 23.538 23.477 23.488 23.476 23.455 23.47 23.448 23.439 23.43 23.438 23.406 23.396 23.375 23.318 23.284 23.238 23.193 23.163 23.066 23.026 22.976 22.901 22.802 22.677
26.736 26.641 26.526 26.429 26.371 26.276 26.189 26.106 26.009 25.891 25.831 25.729 25.651 25.564 25.501 25.404 25.306 25.221 25.129 25.086 24.981 24.934 24.861 24.804 24.716 24.614 24.574 24.529 24.511 24.439 24.374 24.324 24.301 24.246 24.169 24.116 24.061 23.989 23.914 23.849 23.769 23.694 23.566 23.519 23.441 23.364 23.296 23.259 23.166 23.126 23.061 23.049 22.969 22.971 22.939 22.929 22.951 22.956 22.954 22.919 22.909 22.929 22.966 22.914 22.841 22.799 22.831 22.966 22.691 23.154 22.779 22.724 22.781 22.754 22.769 22.851 22.944 23.014 23.089 23.179 23.256 23.311 23.366 23.424 23.479 23.541 23.606 23.644 23.711 23.756 23.789 23.859 23.934 24.004 24.111 24.214 24.286 24.311 24.289 24.234 24.271 24.279 24.319 24.341 24.379 24.416 24.471 24.509 24.499 24.549 24.581 24.624 24.649 24.636 24.644 24.656 24.669 24.676 24.694 24.706 24.704 24.721 24.761 24.776 24.801 24.806 24.856 24.851 24.876 24.891 24.911 24.926 24.929 24.929 24.929 24.919 24.954 24.961 24.986 24.991 24.989 25.026 25.019 25.009 25.036 25.056 25.044 25.031 25.049 25.041 25.061 25.064 25.056 25.049 25.044 25.034 25.039 25.031 24.974 24.986 24.966 24.969 24.961 24.914 24.861 24.846 24.809 24.786 24.694 24.581 24.571 24.534 24.446 24.506 27.606 33.126 34.644 33.759 26.761 29.506 24.904 24.344 24.276 24.251 24.284 24.236 24.214 24.141 24.111 24.109 24.054 24.044 23.996 23.971 23.931 23.866 23.919 23.916 23.851 23.786 23.771 23.781 23.736 23.756 23.696 23.684 23.684 23.679 23.616 23.574 23.539 23.509 23.474 23.429 23.384 23.374 23.324 23.274 23.214 23.199 23.136 23.079 23.029 22.996 22.931 22.896 22.819 22.754 22.694 22.616 22.541 22.459 22.419 22.319 22.236 22.169 22.104 22.056 21.949 21.841 21.771 21.706 21.604 21.494 21.399 21.289 21.164 21.044 20.931 20.799 20.739 20.601 20.464 20.381 20.179 20.149 20.091 20.066 20.079 20.101 20.031 20.014 20.104 20.024 19.879 19.864 19.829 19.819 19.719 19.774 19.731 19.801 19.934 19.831 19.924 19.956 19.938 19.971 20.061 20.074 20.175 21.213 21.448 22.806 21.237 20.358 20.8 21.322 21.592 21.127 21.006 21.047 21.146 21.143 21.152 21.245 21.29 21.343 21.427 21.481 21.531 21.631 21.678 21.721 21.738 21.797 21.899 21.921 21.997 22.069 22.147 22.156 22.211 22.248 22.312 22.337 22.381 22.391 22.381 22.412 22.423 22.446 22.514 22.585 22.611 22.649 22.696 22.726 22.736 22.77 22.765 22.765 22.771 22.857 22.983 23.039 23.021 23.018 23.03 23.071 23.121 23.232 23.302 23.313 23.306 23.316 23.337 23.385 23.44 23.484 23.493 23.513 23.522 23.548 23.541 23.584 23.596 23.595 23.659 23.764 23.796 23.829 23.819 23.775 23.776 23.805 23.881 23.953 23.984 23.989 23.966 23.962 24.032 24.023 24.047 24.089 24.103 24.179 24.25 24.265 24.29 24.273 24.285 24.311 24.353 24.352 24.325 24.281 24.265 24.255 24.262 24.242 24.189 24.11 24.139 24.057 24.004 24.19 24.71 22.251 21.33 23.192 25.116 23.801 23.603 23.481 23.438 23.393 23.398 23.416 23.395 23.395 23.373 23.397 23.372 23.391 23.38 23.324 23.32 23.249 23.231 23.19 23.155 23.07 23.002 22.946 22.875 22.789 22.696
26.654 26.574 26.461 26.364 26.281 26.236 26.104 26.011 25.944 25.829 25.756 25.669 25.591 25.491 25.434 25.334 25.244 25.159 25.076 25.034 24.936 24.861 24.796 24.754 24.656 24.594 24.529 24.504 24.419 24.334 24.294 24.256 24.231 24.169 24.109 24.066 24.001 23.951 23.851 23.796 23.684 23.636 23.509 23.456 23.399 23.334 23.239 23.189 23.109 23.064 22.969 22.969 22.924 22.894 22.869 22.889 22.881 22.874 22.879 22.851 22.834 22.859 22.854 22.829 22.766 22.731 22.641 22.824 22.634 23.116 22.676 22.616 22.674 22.666 22.701 22.746 22.849 22.946 22.981 23.041 23.139 23.204 23.276 23.306 23.384 23.414 23.486 23.534 23.586 23.669 23.701 23.756 23.836 23.944 24.021 24.134 24.179 24.179 24.164 24.144 24.181 24.154 24.226 24.244 24.296 24.309 24.366 24.351 24.406 24.446 24.479 24.511 24.489 24.541 24.526 24.576 24.571 24.556 24.609 24.614 24.641 24.639 24.669 24.676 24.701 24.726 24.749 24.751 24.759 24.786 24.811 24.841 24.831 24.814 24.831 24.844 24.854 24.849 24.899 24.889 24.911 24.896 24.919 24.921 24.914 24.926 24.899 24.931 24.929 24.954 24.964 24.961 24.961 24.956 24.964 24.939 24.926 24.934 24.899 24.874 24.859 24.851 24.829 24.776 24.759 24.731 24.699 24.624 24.554 24.454 24.471 24.444 24.359 24.411 29.334 33.019 33.636 29.429 24.414 24.586 24.254 24.271 24.211 24.186 24.156 24.104 24.096 24.056 24.041 23.969 23.969 23.916 23.891 23.864 23.906 23.811 23.806 23.784 23.806 23.764 23.741 23.719 23.704 23.696 23.671 23.646 23.606 23.594 23.551 23.539 23.511 23.429 23.439 23.404 23.349 23.324 23.271 23.211 23.186 23.126 23.086 23.031 22.961 22.921 22.906 22.819 22.751 22.679 22.651 22.551 22.496 22.486 22.376 22.371 22.309 22.169 22.141 22.054 21.961 21.879 21.764 21.691 21.619 21.501 21.329 21.224 21.136 21.001 20.911 20.771 20.664 20.554 20.429 20.324 20.211 20.149 20.051 20.001 19.999 20.024 19.994 20.024 20.039 19.951 19.906 19.909 19.881 19.781 19.766 19.686 19.676 19.706 19.726 19.809 19.886 20.097 19.9 19.94 19.952 20.136 21.561 24.218 21.179 20.243 20.454 21.137 21.444 20.936 20.82 20.798 20.793 20.852 20.947 21.021 21.061 21.123 21.185 21.235 21.3 21.422 21.461 21.519 21.512 21.573 21.667 21.763 21.827 21.856 21.906 21.971 21.996 22.021 22.062 22.099 22.157 22.189 22.246 22.283 22.275 22.314 22.35 22.354 22.388 22.456 22.503 22.541 22.571 22.615 22.646 22.626 22.662 22.675 22.675 22.743 22.856 22.913 22.924 22.927 22.931 22.952 23.006 23.093 23.199 23.218 23.255 23.213 23.212 23.271 23.326 23.376 23.4 23.411 23.404 23.466 23.463 23.453 23.458 23.461 23.511 23.605 23.645 23.705 23.7 23.695 23.674 23.691 23.75 23.817 23.858 23.856 23.846 23.848 23.872 23.922 23.951 23.978 24.015 24.068 24.114 24.156 24.178 24.179 24.19 24.217 24.23 24.249 24.238 24.181 24.14 24.108 24.104 24.119 24.105 24.021 24.039 23.972 23.898 23.986 24.628 23.719 21.401 21.369 23.742 24.159 23.575 23.434 23.358 23.333 23.348 23.387 23.387 23.354 23.336 23.343 23.344 23.308 23.347 23.277 23.267 23.231 23.183 23.177 23.111 23.035 23.039 22.941 22.872 22.752 22.709
26.556 26.476 26.376 26.254 26.209 26.126 26.036 25.929 25.851 25.749 25.679 25.576 25.509 25.424 25.344 25.256 25.156 25.076 25.029 24.956 24.896 24.829 24.756 24.661 24.591 24.524 24.471 24.434 24.376 24.306 24.236 24.196 24.164 24.116 24.031 23.994 23.934 23.871 23.781 23.731 23.654 23.591 23.484 23.404 23.324 23.266 23.169 23.136 23.066 23.014 22.944 22.899 22.861 22.851 22.831 22.826 22.804 22.804 22.816 22.816 22.789 22.776 22.769 22.729 22.666 22.624 22.616 22.769 22.411 23.019 22.594 22.494 22.564 22.556 22.579 22.629 22.711 22.809 22.841 22.924 23.009 23.099 23.156 23.164 23.236 23.289 23.381 23.429 23.464 23.524 23.594 23.639 23.694 23.796 23.891 24.009 24.074 24.074 24.064 24.061 24.084 24.086 24.106 24.154 24.174 24.204 24.264 24.274 24.306 24.344 24.361 24.409 24.386 24.406 24.431 24.434 24.459 24.479 24.514 24.511 24.534 24.584 24.561 24.569 24.581 24.594 24.624 24.634 24.676 24.681 24.701 24.716 24.744 24.749 24.769 24.746 24.781 24.744 24.791 24.766 24.801 24.821 24.829 24.826 24.804 24.814 24.801 24.814 24.839 24.846 24.874 24.864 24.864 24.856 24.861 24.856 24.824 24.816 24.784 24.776 24.751 24.739 24.721 24.699 24.684 24.611 24.566 24.564 24.469 24.396 24.336 24.324 24.249 24.256 26.436 30.256 29.724 26.821 24.289 24.174 24.169 24.166 24.126 24.091 24.069 24.086 24.001 23.961 23.911 23.901 23.884 23.861 23.816 23.776 23.756 23.781 23.759 23.726 23.701 23.681 23.681 23.661 23.656 23.599 23.579 23.556 23.571 23.524 23.461 23.456 23.451 23.406 23.364 23.336 23.264 23.264 23.204 23.131 23.079 23.051 23.051 23.004 22.946 22.896 22.844 22.776 22.731 22.696 22.646 22.579 22.539 22.491 22.426 22.349 22.281 22.226 22.126 22.044 21.974 21.891 21.756 21.636 21.531 21.439 21.279 21.186 21.069 20.976 20.866 20.714 20.674 20.531 20.446 20.321 20.194 20.109 20.054 19.979 19.994 20.034 19.979 19.974 20.026 19.879 19.999 19.996 19.851 19.716 19.706 19.654 19.676 19.681 19.759 19.831 19.824 19.866 19.826 19.845 19.85 21.681 22.373 20.553 20.148 20.551 21.349 21.271 20.683 20.516 20.52 20.573 20.632 20.652 20.733 20.849 20.915 20.985 21.046 21.135 21.213 21.274 21.3 21.354 21.429 21.521 21.614 21.658 21.716 21.713 21.802 21.869 21.858 21.889 21.92 21.926 21.965 22.033 22.128 22.162 22.19 22.168 22.209 22.242 22.296 22.342 22.383 22.423 22.476 22.512 22.509 22.517 22.545 22.545 22.564 22.612 22.723 22.813 22.83 22.828 22.806 22.821 22.857 22.962 23.047 23.102 23.109 23.087 23.091 23.147 23.187 23.22 23.272 23.316 23.297 23.32 23.351 23.354 23.376 23.344 23.375 23.435 23.507 23.555 23.609 23.604 23.561 23.58 23.617 23.666 23.698 23.732 23.722 23.73 23.75 23.761 23.813 23.832 23.896 23.952 23.97 24.036 24.056 24.047 24.066 24.09 24.1 24.154 24.131 24.097 24.053 24.04 24.02 24.038 23.983 23.882 23.903 23.898 23.795 23.827 24.261 25.448 23.908 21.098 22.806 24.115 23.53 23.416 23.34 23.273 23.274 23.28 23.301 23.297 23.291 23.26 23.266 23.259 23.246 23.215 23.223 23.197 23.16 23.141 23.065 23.022 23.014 22.935 22.855 22.792 22.724
