ncols 439
nrows 31
xllcorner    455020
yllcorner    92394
cellsize     2
NODATA_value -9999
1.882 2.345 2.965 3.113 4.041 4.094 3.528 3.786 4.277 4.371 4.431 4.611 4.806 4.958 5.073 5.168 5.178 5.248 5.383 5.728 5.646 5.848 5.786 5.418 5.441 5.786 5.871 5.841 5.828 7.623 6.923 5.671 5.578 5.468 5.336 5.196 5.051 4.913 4.856 5.111 5.021 5.031 4.996 4.821 4.558 4.255 4.06 3.951 3.849 3.738 3.528 3.559 3.795 3.788 3.292 3.591 4.663 3.091 2.574 2.285 2.234 2.204 2.086 1.727 1.268 1.283 1.15 1.167 1.159 1.307 1.462 1.436 1.327 1.294 1.326 1.405 1.469 1.293 1.365 1.563 1.673 2.286 3.586 5.485 3.709 3.098 3.408 3.601 4.501 3.698 3.828 4.096 4.188 4.676 6.686 9.328 7.253 9.806 9.151 7.786 8.936 12.348 11.433 16.156 8.628 8.783 9.341 9.843 9.456 9.223 9.521 9.721 10.058 10.166 11.696 11.338 10.683 10.793 10.973 11.136 11.308 11.473 11.551 11.741 12.831 12.503 14.811 18.956 15.818 15.048 18.611 22.333 26.438 16.598 14.846 15.123 14.348 13.983 20.046 20.498 18.918 19.736 22.231 22.813 20.751 20.798 15.096 14.911 15.788 18.631 18.361 19.461 20.446 23.911 23.058 19.666 19.171 17.248 16.208 16.286 16.898 17.698 16.826 16.858 16.986 17.663 17.938 17.473 20.811 23.851 21.486 17.803 17.891 18.046 18.373 18.568 18.401 18.438 18.563 18.626 19.778 19.143 19.068 18.976 19.053 19.148 19.201 19.636 19.958 19.646 19.751 19.858 19.913 20.318 21.828 20.203 20.966 20.616 20.616 20.741 21.581 27.178 21.501 24.338 21.921 27.741 24.601 21.441 21.593 21.718 21.826 21.951 22.053 22.183 22.278 22.408 22.536 22.611 22.621 22.553 23.321 23.201 23.086 23.161 23.333 23.503 23.608 23.713 23.886 23.933 24.021 24.211 24.646 26.976 27.283 27.286 28.386 28.858 28.181 27.773 26.208 24.466 24.686 24.791 24.821 24.986 25.246 25.503 25.408 25.513 25.626 25.558 25.576 25.558 26.681 27.571 26.041 25.928 26.026 26.081 26.213 26.368 26.533 26.671 26.813 26.961 27.048 27.158 27.286 27.411 27.513 27.603 27.693 27.793 27.868 27.948 28.038 28.118 28.218 28.321 28.426 28.571 28.698 28.878 29.071 29.263 29.428 29.586 29.758 29.888 30.021 30.146 30.256 30.354 30.446 30.576 30.674 30.759 30.891 30.974 31.104 31.226 31.314 31.381 31.506 31.616 31.701 31.806 31.866 32.071 32.166 32.269 32.401 32.504 32.614 32.741 32.869 32.961 33.041 33.131 33.236 33.331 33.394 33.511 33.669 33.746 33.826 33.939 34.029 34.081 34.206 34.259 34.369 34.476 34.571 34.636 34.761 34.849 34.95 34.99 35.112 35.175 35.269 35.398 35.454 35.54 35.648 35.697 35.806 35.892 35.965 36.031 36.087 36.179 36.274 36.341 36.416 36.489 36.581 36.661 36.734 36.821 36.899 36.991 37.074 37.136 37.224 37.309 37.384 37.469 37.531 37.609 37.659 37.709 37.791 37.849 37.929 38.009 38.109 38.184 38.264 38.376 38.419 38.466 38.549 38.589 38.646 38.721 38.754 38.761 38.841 38.926 39.006 39.046 39.051 39.049 39.059 39.109 39.279 39.321 39.291 39.206 39.219 39.204 39.251 39.246 39.346 39.409 39.441 39.449 39.619 40.089 40.904 41.214 39.754 39.531 39.521 39.554 39.564 39.549 39.606 39.636 39.494 39.474 39.484 39.466 39.436 39.414 39.454 39.484 39.539 39.554 39.559 39.554 39.556 39.531 39.501 39.494 39.444
2.42 3.356 3.567 3.253 3.628 4.665 4.254 4.274 4.166 4.611 4.616 4.781 4.986 5.125 5.246 5.323 5.496 5.483 5.528 5.781 6.178 6.243 6.023 6.191 6.733 5.956 5.943 5.976 6.481 7.368 5.801 5.811 5.761 5.638 5.526 5.398 5.223 5.066 5.186 5.131 5.143 5.143 5.141 5.087 4.954 4.613 4.311 4.105 4.004 3.89 3.728 3.768 5.097 5.129 3.631 4.475 3.907 2.902 2.689 2.459 2.318 2.253 2.211 2.198 2.046 1.776 1.419 1.464 1.761 2.012 2.107 2.163 2.188 1.962 1.628 1.341 1.403 1.495 1.688 1.826 1.709 2.264 2.66 2.873 2.996 3.176 3.288 3.378 3.613 3.796 5.196 5.596 6.326 4.701 5.141 6.038 5.671 8.448 6.738 7.126 9.838 11.801 17.661 16.236 11.188 11.353 12.488 16.128 9.203 9.176 9.588 9.958 10.071 11.643 14.841 13.876 10.906 10.888 11.816 13.243 11.526 11.591 11.626 11.816 11.986 13.078 14.086 13.486 12.621 14.286 18.606 24.086 23.296 18.238 14.763 13.581 13.541 13.718 13.828 14.716 14.031 15.728 19.616 15.556 16.373 14.403 14.478 14.641 14.756 14.871 14.993 15.261 21.081 20.346 18.281 16.168 16.263 15.998 16.113 16.266 16.398 16.503 16.663 16.811 16.958 17.083 17.216 17.258 17.363 17.796 17.601 17.716 19.083 18.386 18.038 18.206 18.348 18.431 18.556 18.691 18.716 18.823 18.893 19.006 19.123 19.243 19.308 19.458 19.521 19.721 19.908 19.893 20.023 20.386 20.288 22.428 23.203 24.431 22.808 20.811 21.618 24.356 23.951 21.833 21.803 23.413 22.178 21.986 22.381 22.761 22.906 22.401 22.823 22.993 22.793 22.421 22.548 22.671 22.693 22.648 22.998 22.971 23.033 23.253 23.483 23.756 23.958 23.831 23.921 23.998 24.191 24.931 24.798 24.198 24.513 25.671 27.783 27.811 27.421 25.443 24.738 24.576 24.731 25.008 25.533 25.381 25.781 25.488 25.321 25.386 25.443 25.531 25.573 25.593 25.618 26.903 26.726 25.951 26.043 26.201 26.263 26.388 26.553 26.696 26.858 26.996 27.083 27.221 27.343 27.448 27.551 27.656 27.756 27.813 27.906 27.976 28.076 28.163 28.258 28.366 28.503 28.643 28.803 29.006 29.166 29.386 29.516 29.693 29.833 29.978 30.086 30.216 30.301 30.416 30.486 30.609 30.714 30.831 30.914 31.019 31.126 31.241 31.349 31.459 31.556 31.671 31.754 31.866 31.976 32.116 32.214 32.321 32.454 32.556 32.671 32.801 32.894 33.009 33.111 33.219 33.316 33.381 33.451 33.611 33.709 33.806 33.881 33.911 34.046 34.161 34.244 34.349 34.416 34.516 34.616 34.746 34.786 34.959 34.999 35.079 35.147 35.238 35.34 35.443 35.519 35.593 35.731 35.803 35.883 35.944 36.038 36.105 36.154 36.219 36.331 36.426 36.469 36.556 36.634 36.731 36.801 36.874 36.944 37.034 37.124 37.214 37.306 37.379 37.431 37.519 37.584 37.656 37.724 37.776 37.869 37.959 38.009 38.076 38.174 38.256 38.321 38.391 38.484 38.529 38.601 38.681 38.701 38.761 38.821 38.859 38.921 38.984 39.069 39.131 39.151 39.151 39.141 39.141 39.171 39.274 39.374 39.384 39.336 39.304 39.269 39.314 39.366 39.434 39.546 39.809 39.906 39.946 39.931 39.809 39.549 39.546 39.581 39.584 39.576 39.594 39.691 39.731 39.529 39.491 39.516 39.494 39.464 39.459 39.479 39.504 39.531 39.564 39.564 39.589 39.561 39.536 39.509 39.479 39.441
3.768 3.671 3.218 2.794 3.203 3.314 3.286 4.277 5.009 5.092 4.948 5.004 5.154 5.268 5.331 5.896 9.666 9.371 7.853 6.738 5.976 6.066 6.138 6.223 6.096 6.023 6.033 6.093 6.716 6.646 6.018 5.923 5.896 5.816 5.711 5.581 5.368 5.643 5.303 5.241 5.248 5.226 5.223 5.22 5.198 5.005 4.607 4.306 4.154 3.982 3.935 3.934 4.929 4.589 3.251 3.392 3.083 2.854 2.841 2.736 2.55 2.398 2.274 2.236 2.202 2.214 1.947 2.036 2.182 2.243 2.257 2.249 2.295 2.239 2.213 2.18 1.853 1.569 1.854 2.09 1.892 2.315 2.669 2.892 3.047 3.168 3.226 3.611 3.588 4.693 4.338 4.721 9.808 10.413 7.766 5.126 6.591 7.591 7.096 9.626 16.173 9.361 17.276 12.973 13.011 12.156 11.223 12.923 11.546 9.056 9.458 9.946 11.251 11.593 13.908 13.368 10.766 10.706 11.203 11.218 11.223 13.131 11.831 11.553 12.606 12.313 12.081 12.276 12.528 12.658 15.036 18.516 13.498 13.001 13.203 13.118 13.221 13.331 13.433 13.581 13.696 13.823 13.993 14.186 14.306 14.731 15.693 15.046 14.753 14.953 15.031 15.146 16.976 17.113 21.043 23.058 22.176 20.818 16.141 16.298 16.416 16.573 16.798 17.116 17.116 17.268 17.473 17.646 17.703 17.861 17.903 18.261 19.493 20.041 18.843 18.583 18.398 18.831 19.726 19.706 19.203 18.921 19.241 20.506 21.233 20.126 20.248 20.081 19.938 20.021 20.198 20.631 20.688 21.298 20.513 22.906 20.706 21.998 21.136 20.918 22.208 21.293 21.283 21.596 22.068 21.818 21.753 22.143 21.931 21.983 22.653 22.056 22.211 22.626 22.941 23.053 22.586 22.753 22.823 22.783 22.788 23.038 23.308 23.528 23.711 23.866 23.898 23.918 24.008 24.078 24.136 24.346 24.253 24.258 24.361 24.801 27.131 27.026 27.188 25.611 24.968 25.881 25.451 25.706 25.961 25.343 25.831 25.643 25.261 25.351 25.483 25.553 25.581 25.588 25.666 25.816 27.271 26.156 26.098 26.238 26.336 26.446 26.606 26.758 26.913 27.053 27.176 27.278 27.386 27.521 27.643 27.751 27.828 27.923 27.991 28.038 28.126 28.203 28.336 28.473 28.586 28.733 28.921 29.106 29.311 29.473 29.623 29.781 29.898 30.008 30.129 30.244 30.339 30.451 30.559 30.659 30.766 30.866 30.951 31.071 31.176 31.286 31.419 31.519 31.599 31.714 31.811 31.901 32.039 32.176 32.249 32.381 32.486 32.586 32.709 32.836 32.926 33.044 33.176 33.254 33.344 33.409 33.501 33.654 33.749 33.819 33.931 33.991 34.094 34.246 34.296 34.424 34.521 34.586 34.684 34.809 34.864 34.959 35.102 35.165 35.221 35.328 35.424 35.512 35.6 35.692 35.766 35.868 35.949 36.022 36.085 36.172 36.217 36.264 36.364 36.469 36.541 36.611 36.709 36.769 36.886 36.941 37.014 37.109 37.186 37.281 37.354 37.436 37.511 37.561 37.654 37.714 37.799 37.856 37.936 38.031 38.091 38.156 38.206 38.329 38.394 38.434 38.519 38.581 38.661 38.701 38.741 38.784 38.881 38.921 38.976 39.051 39.089 39.159 39.244 39.246 39.244 39.261 39.246 39.254 39.304 39.421 39.434 39.426 39.386 39.414 39.436 39.516 39.624 39.841 39.944 40.304 40.051 39.644 39.591 39.644 39.639 39.589 39.606 39.586 39.581 39.591 39.579 39.554 39.521 39.509 39.486 39.489 39.499 39.521 39.551 39.559 39.569 39.579 39.541 39.529 39.476 39.454 39.436
3.869 3.122 2.724 2.794 3.139 3.336 3.427 3.649 4.414 5.565 5.897 5.658 5.571 5.761 6.256 6.798 10.706 11.106 10.863 6.653 6.033 6.141 6.166 6.221 6.193 6.166 7.021 7.186 7.323 7.951 6.196 6.078 6.018 5.993 5.926 5.731 5.661 6.163 5.393 5.361 5.321 5.328 5.313 5.281 5.286 5.234 4.931 4.549 4.342 4.208 4.212 4.136 3.95 3.663 3.285 3.18 3.071 3.05 3.027 2.97 2.911 2.71 2.512 2.347 2.236 2.218 2.279 2.251 2.274 2.299 2.335 2.534 2.615 2.493 2.323 2.31 2.209 1.935 2.087 2.264 2.164 2.301 2.673 2.922 3.087 3.121 3.348 3.603 3.668 3.933 4.301 5.086 13.896 15.821 10.943 5.368 5.608 5.723 6.101 7.596 13.591 13.681 12.671 8.226 12.001 9.338 8.431 11.118 8.766 8.928 9.191 9.371 9.563 9.713 10.221 10.131 10.341 10.503 10.736 10.873 10.978 11.116 11.281 11.438 11.583 11.788 11.986 12.243 13.443 12.811 12.786 12.836 12.873 12.933 13.033 13.156 13.301 13.441 13.796 14.406 14.081 14.171 16.343 15.311 15.933 18.543 21.916 21.541 18.631 16.458 15.091 15.226 19.233 20.531 25.643 28.531 30.016 29.176 17.468 16.443 16.533 16.733 16.978 17.311 17.228 17.363 18.581 19.833 19.276 19.603 19.801 19.808 20.351 21.178 19.283 18.416 18.973 20.498 21.451 21.948 21.106 19.106 19.746 21.011 21.251 20.206 19.956 20.288 20.091 20.093 20.148 20.628 20.143 20.306 20.426 20.613 22.498 24.871 22.506 20.946 21.043 21.161 21.328 21.366 21.391 21.461 21.623 21.698 21.791 21.856 22.061 22.326 22.258 23.343 24.448 23.533 22.736 22.731 22.841 22.888 22.916 23.693 23.566 23.616 23.643 23.751 23.868 23.963 24.061 24.136 24.176 24.193 24.271 24.361 24.393 24.688 26.938 26.916 26.416 26.028 25.996 26.448 25.423 27.056 26.356 25.096 25.111 25.203 25.366 25.441 25.526 25.578 25.606 25.656 25.753 25.838 26.883 26.668 26.221 26.313 26.393 26.508 26.668 26.823 26.976 27.106 27.246 27.366 27.463 27.631 27.696 27.826 27.898 28.003 28.066 28.131 28.216 28.321 28.428 28.568 28.691 28.858 29.038 29.213 29.401 29.536 29.718 29.841 29.938 30.041 30.179 30.289 30.376 30.511 30.621 30.719 30.809 30.901 31.031 31.141 31.236 31.349 31.456 31.556 31.679 31.764 31.879 31.959 32.101 32.219 32.294 32.424 32.549 32.651 32.769 32.851 32.974 33.101 33.196 33.306 33.396 33.456 33.634 33.714 33.784 33.869 33.959 34.069 34.156 34.264 34.411 34.424 34.509 34.659 34.761 34.864 34.991 35.049 35.101 35.202 35.3 35.399 35.479 35.591 35.684 35.784 35.867 35.922 36.007 36.064 36.142 36.235 36.28 36.347 36.396 36.506 36.576 36.676 36.759 36.856 36.934 37.021 37.094 37.146 37.246 37.326 37.394 37.486 37.564 37.636 37.726 37.811 37.854 37.904 37.986 38.049 38.146 38.226 38.276 38.394 38.446 38.494 38.549 38.629 38.674 38.736 38.799 38.886 38.951 38.991 39.054 39.109 39.156 39.191 39.281 39.321 39.324 39.329 39.329 39.311 39.306 39.359 39.449 39.494 39.679 39.576 39.531 39.646 39.709 39.789 40.269 40.166 39.851 39.624 39.666 39.661 39.671 39.639 39.614 39.611 39.589 39.576 39.561 39.549 39.564 39.546 39.534 39.549 39.564 39.579 39.571 39.589 39.579 39.581 39.529 39.516 39.491 39.439 39.414
2.761 2.693 2.679 3.291 3.23 3.412 3.51 3.755 6.298 8.692 6.149 8.815 7.456 7.691 8.043 7.758 9.281 9.721 9.963 6.841 6.151 6.248 6.303 6.303 6.408 7.038 6.593 8.193 7.661 6.696 6.318 6.253 6.226 6.168 6.061 5.963 6.416 5.851 5.633 5.521 5.418 5.386 5.351 5.508 5.411 5.311 5.158 4.75 4.488 4.502 4.485 4.364 4.176 3.793 3.381 3.37 3.335 3.302 3.354 3.329 3.204 3.059 2.891 2.63 2.382 2.536 2.641 2.359 2.328 2.32 2.374 3.694 2.685 2.465 2.331 2.329 2.276 2.246 2.184 2.174 2.238 2.39 2.673 2.954 3.038 4.713 4.296 3.351 3.616 3.823 4.041 5.263 15.318 14.023 11.793 9.138 5.708 6.116 6.238 6.656 11.908 8.846 11.396 8.813 11.858 19.241 16.436 14.081 12.176 10.823 10.268 9.548 9.653 9.901 11.101 10.631 10.533 11.788 11.783 13.741 11.276 12.588 11.466 11.451 11.553 11.713 11.968 12.433 14.741 14.968 13.291 12.853 12.891 13.101 14.718 18.203 17.938 16.128 15.236 15.996 14.568 14.626 18.028 15.641 16.116 15.916 18.171 20.018 16.936 16.191 15.138 16.021 15.833 17.028 25.276 28.373 29.556 28.678 21.351 16.466 16.543 16.638 16.871 16.961 17.076 17.556 19.401 18.611 18.813 18.831 18.621 19.223 20.646 20.283 18.451 19.031 21.113 21.488 21.803 22.238 21.663 19.228 19.328 19.621 19.683 19.548 19.573 20.086 20.668 19.968 19.998 20.023 20.146 20.266 20.446 21.188 20.933 21.841 21.406 22.138 24.471 22.673 21.881 22.733 21.481 21.563 21.836 21.801 21.868 22.386 23.878 26.738 27.196 23.666 23.041 23.708 22.823 22.763 22.898 22.931 22.983 23.746 24.393 23.903 24.026 23.753 23.856 23.963 24.071 24.156 24.198 24.243 24.528 25.198 25.056 24.891 26.701 25.648 25.266 26.036 25.878 25.843 25.041 25.316 25.091 25.143 25.178 25.258 25.393 25.483 25.563 25.626 25.688 25.726 25.826 25.928 26.336 27.923 26.388 26.383 26.488 26.588 26.713 26.856 27.021 27.166 27.301 27.463 27.598 27.728 27.836 27.941 28.016 28.081 28.178 28.221 28.338 28.443 28.558 28.691 28.826 28.988 29.133 29.316 29.486 29.648 29.753 29.908 30.008 30.123 30.229 30.339 30.449 30.544 30.656 30.761 30.864 30.959 31.076 31.196 31.299 31.401 31.529 31.634 31.739 31.824 31.919 32.031 32.156 32.221 32.351 32.481 32.604 32.709 32.786 32.894 33.001 33.111 33.239 33.316 33.394 33.519 33.644 33.759 33.806 33.919 33.994 34.091 34.214 34.316 34.394 34.524 34.584 34.709 34.824 34.931 35.054 35.121 35.196 35.281 35.397 35.47 35.536 35.63 35.735 35.838 35.9 35.997 36.065 36.129 36.207 36.241 36.33 36.422 36.484 36.574 36.679 36.744 36.824 36.931 36.994 37.081 37.164 37.241 37.309 37.394 37.474 37.534 37.626 37.684 37.779 37.874 37.946 37.984 38.049 38.119 38.194 38.316 38.336 38.421 38.486 38.554 38.634 38.674 38.714 38.796 38.851 38.971 39.039 39.064 39.111 39.151 39.196 39.226 39.301 39.361 39.391 39.404 39.376 39.336 39.319 39.334 39.394 39.419 39.524 39.944 40.114 39.734 39.831 40.809 40.781 40.141 39.719 39.676 39.721 39.684 39.666 39.639 39.641 39.634 39.639 39.614 39.614 39.634 39.614 39.586 39.571 39.579 39.586 39.584 39.606 39.621 39.591 39.566 39.516 39.471 39.481 39.459 39.409
2.513 2.61 2.797 3.502 3.481 3.595 4.029 4.442 8.281 8.116 5.66 7.481 9.606 9.948 9.663 9.288 8.873 8.493 8.273 7.193 6.296 6.353 6.413 6.401 7.836 10.123 9.551 9.831 11.016 8.353 6.891 6.631 6.541 6.358 7.431 8.346 6.563 6.166 6.103 6.058 5.681 5.513 5.413 5.956 5.728 5.401 5.273 4.948 4.741 4.78 4.715 4.547 4.416 3.601 3.451 3.45 3.418 3.412 3.461 3.419 3.379 3.327 3.201 2.88 2.484 2.91 3.697 2.371 2.368 2.342 2.364 2.474 2.412 2.342 2.301 2.305 2.286 2.277 2.265 2.25 2.346 2.491 2.708 2.928 2.951 6.273 7.486 5.333 3.568 3.726 5.613 10.736 12.363 13.106 10.018 5.503 5.676 6.041 6.463 6.726 12.698 10.333 9.441 13.406 11.983 19.683 17.838 18.603 13.106 15.006 11.331 12.811 9.956 12.128 10.596 13.611 11.408 14.276 15.671 11.198 11.121 12.758 11.358 11.481 11.521 11.763 12.231 12.361 13.453 15.791 15.798 12.763 13.051 16.578 16.271 19.191 16.016 13.723 14.228 16.061 15.738 17.671 18.623 14.781 14.818 14.976 15.071 15.143 15.851 16.271 15.126 15.486 15.901 19.213 24.313 28.231 28.786 27.518 18.456 16.458 16.481 16.623 16.746 16.916 17.078 17.263 18.098 17.833 17.888 17.968 18.053 18.123 18.183 18.253 18.441 19.763 21.088 21.186 21.096 21.443 20.736 19.428 19.348 19.581 19.548 19.521 19.558 19.648 21.796 20.183 20.098 20.106 20.203 20.313 20.456 20.588 20.703 20.861 21.671 26.776 27.946 25.566 26.048 26.516 23.553 22.203 22.808 25.153 24.038 25.198 28.371 29.161 28.951 25.636 22.511 22.733 22.708 22.816 22.953 23.018 22.993 23.198 23.646 23.736 24.063 23.753 23.878 23.978 24.091 24.131 24.213 24.268 25.186 25.368 25.486 26.021 25.411 26.263 27.248 27.618 26.673 25.043 25.078 25.101 25.268 25.401 25.371 25.318 25.418 25.546 25.623 25.676 25.776 25.788 25.856 25.998 26.098 28.056 27.303 26.483 26.583 26.688 26.796 26.971 27.108 27.248 27.398 27.578 27.693 27.821 27.931 28.053 28.138 28.208 28.306 28.361 28.456 28.578 28.696 28.833 28.958 29.091 29.253 29.418 29.563 29.706 29.821 29.943 30.088 30.188 30.276 30.379 30.486 30.609 30.704 30.794 30.916 30.991 31.126 31.231 31.349 31.461 31.569 31.661 31.779 31.866 31.994 32.096 32.211 32.291 32.431 32.536 32.611 32.744 32.846 32.931 33.056 33.141 33.239 33.339 33.401 33.564 33.691 33.771 33.916 33.964 34.056 34.184 34.256 34.356 34.461 34.559 34.681 34.779 34.859 34.966 35.086 35.189 35.276 35.317 35.415 35.532 35.599 35.681 35.79 35.9 35.977 36.053 36.114 36.176 36.25 36.324 36.363 36.464 36.539 36.619 36.711 36.809 36.881 36.969 37.071 37.134 37.196 37.294 37.391 37.459 37.529 37.571 37.659 37.756 37.811 37.929 38.014 38.099 38.124 38.194 38.291 38.339 38.416 38.489 38.536 38.606 38.686 38.734 38.801 38.851 38.924 38.984 39.066 39.119 39.156 39.221 39.244 39.286 39.316 39.404 39.434 39.424 39.421 39.404 39.386 39.386 39.406 39.484 39.509 40.274 40.431 40.411 40.899 45.124 42.244 39.911 39.711 39.734 39.726 39.704 39.686 39.684 39.666 39.664 39.671 39.659 39.656 39.679 39.646 39.614 39.559 39.594 39.636 39.626 39.571 39.569 39.576 39.579 39.541 39.531 39.486 39.464 39.416
2.546 2.691 3.217 3.812 3.76 3.69 3.643 4.559 7.297 5.991 5.481 5.788 6.433 8.591 9.901 9.791 9.973 9.463 8.638 8.516 8.016 7.213 6.541 6.708 9.396 10.828 10.311 10.788 10.896 9.156 6.806 6.881 6.811 6.891 9.031 10.536 7.386 6.881 6.746 7.238 6.256 6.031 6.188 6.456 6.078 5.951 5.571 5.111 5.068 5.036 4.951 4.791 4.509 3.915 3.676 3.561 3.504 3.503 3.474 3.466 3.432 3.431 3.34 3.013 2.533 4.013 4.293 2.293 2.289 2.334 2.337 2.337 2.321 2.845 2.274 2.322 2.337 2.301 2.327 2.393 2.469 2.557 2.802 2.908 2.873 5.373 5.383 6.271 3.508 4.521 6.623 17.851 16.138 11.041 5.121 5.331 5.721 7.368 6.913 6.816 7.208 8.631 11.118 11.406 8.498 13.696 11.278 18.483 9.556 10.151 12.621 11.896 10.013 12.223 11.196 12.088 10.901 10.811 12.056 11.073 13.686 11.358 11.311 11.343 11.466 12.536 12.496 12.451 14.403 12.488 13.101 12.706 12.813 13.983 14.743 15.618 14.151 13.561 13.763 14.976 14.573 17.276 17.808 14.776 14.873 15.111 15.131 15.728 18.981 15.133 15.188 15.261 15.408 16.203 23.156 27.723 28.321 25.561 24.698 19.193 16.436 16.573 16.718 16.878 17.028 17.136 17.588 17.751 18.031 18.246 18.336 18.088 18.201 18.273 18.451 18.646 19.068 19.428 19.413 21.008 21.713 20.711 19.396 19.963 19.521 19.578 19.598 19.791 22.683 22.588 22.368 22.018 20.198 20.328 20.456 20.576 20.671 20.838 21.168 24.403 28.033 27.893 28.228 27.713 26.313 24.396 24.681 28.766 28.266 26.278 28.186 28.561 28.471 24.441 23.358 23.143 22.813 22.903 23.026 23.098 23.153 23.211 23.561 23.966 24.013 23.796 23.911 23.981 24.073 24.103 24.186 24.388 24.608 26.336 27.233 26.026 25.331 27.443 27.826 28.376 28.763 25.488 25.156 25.156 25.323 25.391 25.401 25.381 25.483 25.581 25.668 25.711 25.826 25.913 25.961 26.046 26.171 26.748 28.223 26.653 26.676 26.796 26.931 27.056 27.211 27.363 27.506 27.648 27.826 27.923 28.051 28.163 28.228 28.318 28.416 28.491 28.568 28.716 28.826 28.978 29.103 29.233 29.348 29.488 29.618 29.758 29.888 29.983 30.118 30.241 30.321 30.444 30.539 30.656 30.766 30.861 30.979 31.086 31.191 31.299 31.414 31.494 31.604 31.696 31.806 31.901 32.036 32.151 32.244 32.391 32.479 32.576 32.704 32.761 32.886 32.984 33.069 33.161 33.289 33.354 33.476 33.591 33.741 33.796 33.896 34.021 34.101 34.236 34.321 34.431 34.504 34.591 34.691 34.864 34.894 35.014 35.121 35.226 35.349 35.405 35.499 35.621 35.671 35.739 35.878 35.919 36.011 36.066 36.16 36.234 36.304 36.378 36.425 36.528 36.615 36.664 36.776 36.864 36.944 37.041 37.089 37.171 37.276 37.341 37.446 37.506 37.566 37.644 37.724 37.829 37.906 37.991 38.084 38.146 38.219 38.289 38.366 38.429 38.464 38.539 38.576 38.639 38.711 38.801 38.874 38.929 38.994 39.056 39.091 39.154 39.221 39.246 39.284 39.319 39.361 39.411 39.449 39.444 39.419 39.451 39.459 39.459 39.494 39.551 39.491 39.549 39.861 40.506 43.394 40.569 40.869 39.789 39.761 39.754 39.724 39.711 39.679 39.686 39.661 39.666 39.694 39.664 39.689 39.696 39.679 39.626 39.586 39.644 39.599 39.594 39.606 39.586 39.619 39.574 39.556 39.511 39.481 39.441 39.406
2.758 2.948 3.389 3.725 3.763 3.669 3.639 3.791 5.633 5.393 5.728 6.181 6.183 6.603 7.508 8.526 9.308 9.276 10.056 9.306 9.598 8.878 6.711 8.053 10.593 10.733 10.388 11.078 10.551 8.586 6.828 6.956 6.831 6.983 8.321 8.898 6.936 6.693 8.578 9.661 8.113 6.656 6.493 6.483 6.481 6.326 6.108 5.421 5.388 5.286 5.111 5.158 4.981 4.808 4.406 3.977 3.689 3.555 3.519 3.508 3.489 3.478 3.433 3.124 2.75 4.005 4.57 2.263 2.28 2.32 2.268 2.222 2.237 2.24 2.262 2.299 2.315 2.364 2.388 2.463 2.526 2.68 2.856 2.878 2.831 2.928 4.683 7.988 10.531 7.366 11.336 18.048 19.018 14.963 5.426 5.813 5.833 6.058 6.413 6.798 7.251 7.488 9.686 9.871 13.296 8.836 11.908 16.558 10.243 9.508 12.418 19.296 13.766 10.258 14.453 11.658 10.478 10.831 11.096 12.816 11.396 11.238 11.298 11.271 11.786 12.136 12.906 12.623 12.366 12.381 12.571 12.706 12.771 13.006 13.503 13.723 13.428 13.576 13.701 13.843 14.076 15.963 19.328 14.613 14.943 15.168 15.141 15.351 16.238 15.178 15.261 15.343 15.423 15.518 16.941 17.193 24.548 25.143 26.386 25.738 21.228 20.126 18.178 16.888 17.026 17.146 17.448 18.186 18.418 18.741 18.231 18.153 18.233 18.318 18.508 18.661 18.853 18.966 19.286 21.343 22.403 22.661 19.496 20.251 20.076 19.611 19.671 20.083 24.133 23.201 23.141 22.721 20.268 20.341 20.491 20.593 20.736 20.858 21.078 22.661 28.028 27.663 27.601 28.246 27.353 26.451 25.103 28.031 28.088 28.913 29.163 27.863 26.836 23.546 22.693 22.793 23.158 23.683 23.001 23.183 23.243 23.256 23.456 23.733 23.726 23.831 23.926 23.961 24.088 24.266 25.243 25.928 25.966 26.493 26.818 26.453 25.238 27.908 29.121 29.843 29.991 27.473 25.273 25.231 25.338 25.391 25.393 25.461 25.568 25.623 25.736 25.758 25.901 25.943 26.011 26.168 26.288 26.511 27.826 27.511 26.843 26.891 27.031 27.163 27.313 27.456 27.621 27.758 27.903 28.021 28.153 28.248 28.356 28.428 28.523 28.596 28.731 28.836 28.981 29.083 29.196 29.378 29.473 29.563 29.698 29.793 29.933 30.058 30.146 30.283 30.371 30.489 30.591 30.699 30.819 30.954 31.006 31.109 31.244 31.349 31.489 31.546 31.679 31.756 31.891 31.976 32.074 32.206 32.331 32.436 32.544 32.636 32.724 32.826 32.921 33.026 33.094 33.219 33.304 33.414 33.521 33.646 33.731 33.831 33.979 34.056 34.151 34.254 34.329 34.464 34.551 34.654 34.756 34.894 34.964 35.044 35.184 35.299 35.409 35.521 35.596 35.656 35.76 35.829 35.902 35.971 36.052 36.134 36.204 36.294 36.365 36.447 36.518 36.598 36.671 36.761 36.794 36.926 37.001 37.084 37.174 37.251 37.324 37.416 37.481 37.566 37.624 37.689 37.769 37.854 37.964 38.064 38.116 38.206 38.271 38.341 38.411 38.489 38.529 38.594 38.636 38.706 38.769 38.839 38.914 38.984 39.046 39.101 39.161 39.214 39.261 39.304 39.321 39.336 39.371 39.396 39.449 39.509 39.474 39.459 39.464 39.499 39.501 39.509 39.641 39.564 39.566 40.141 41.756 41.014 39.821 39.749 39.754 39.716 39.704 39.701 39.709 39.676 39.676 39.674 39.679 39.684 39.689 39.711 39.684 39.651 39.609 39.626 39.646 39.621 39.609 39.634 39.629 39.601 39.561 39.539 39.494 39.464 39.416
2.979 3.15 3.307 3.468 3.665 3.704 3.773 4.098 4.688 5.588 6.038 6.478 6.581 6.598 6.553 6.488 7.308 8.836 9.883 10.216 10.028 8.866 7.078 9.636 10.898 10.388 10.833 10.833 10.473 10.918 9.126 8.146 6.821 6.906 8.548 12.033 11.296 9.648 9.706 9.883 8.681 7.823 6.556 6.568 6.503 6.468 6.106 5.801 5.711 5.541 5.498 5.206 5.248 5.216 5.113 4.852 4.414 3.995 3.666 3.55 3.529 3.524 3.472 3.273 2.809 3.63 4.749 2.245 2.298 2.281 2.216 2.173 2.176 2.178 2.166 2.238 2.269 2.333 2.366 2.467 2.56 2.758 2.826 2.781 2.826 2.958 3.083 5.631 5.083 5.413 10.556 12.748 15.083 12.096 8.693 10.173 5.708 6.243 6.526 11.201 9.766 11.288 10.893 16.036 8.838 9.188 9.696 9.166 10.241 11.621 9.588 10.883 14.123 9.971 15.248 10.131 10.431 11.098 11.566 11.833 13.201 11.021 11.053 11.293 14.461 17.151 15.628 12.683 12.188 13.098 13.336 12.621 12.713 12.841 13.103 13.283 13.413 13.563 13.678 13.826 14.948 16.183 17.216 15.406 17.586 15.208 15.121 15.068 15.128 15.198 15.288 15.398 15.521 15.733 15.566 15.838 18.626 24.881 28.438 30.593 30.318 26.353 19.093 16.866 17.016 17.178 17.243 19.041 18.081 18.498 19.118 18.266 18.286 18.386 18.503 18.688 20.086 21.611 22.806 20.016 21.176 22.248 19.996 20.256 21.201 19.638 19.716 19.798 23.506 22.378 23.153 20.953 20.338 20.406 20.528 20.646 20.791 20.898 21.051 21.308 25.478 25.523 26.536 28.086 27.996 27.523 24.468 26.948 26.091 27.361 26.221 23.951 22.601 22.623 23.453 26.448 27.028 25.383 25.436 23.253 23.338 23.381 23.431 23.583 23.736 23.818 23.888 24.041 24.363 24.721 25.376 25.866 24.686 25.008 25.426 25.056 25.758 28.978 29.816 30.833 30.883 29.598 26.196 25.313 25.278 25.351 25.441 25.518 25.616 25.703 26.671 26.621 26.031 26.083 26.138 26.213 26.408 26.543 27.391 28.746 27.258 27.013 27.141 27.281 27.418 27.583 27.708 27.863 27.981 28.121 28.256 28.371 28.451 28.543 28.623 28.713 28.853 28.943 29.068 29.178 29.303 29.418 29.543 29.656 29.768 29.873 29.971 30.081 30.186 30.303 30.451 30.544 30.644 30.729 30.841 30.971 31.064 31.159 31.279 31.411 31.501 31.621 31.714 31.839 31.919 32.016 32.136 32.271 32.371 32.454 32.594 32.661 32.759 32.851 32.969 33.051 33.161 33.261 33.374 33.459 33.551 33.664 33.809 33.871 33.964 34.106 34.214 34.341 34.424 34.476 34.594 34.686 34.824 34.906 34.999 35.079 35.211 35.356 35.476 35.541 35.658 35.697 35.802 35.884 35.944 36.026 36.11 36.21 36.272 36.364 36.441 36.514 36.596 36.685 36.728 36.799 36.884 36.966 37.081 37.149 37.239 37.324 37.381 37.471 37.556 37.626 37.669 37.776 37.821 37.911 38.016 38.124 38.206 38.276 38.341 38.394 38.439 38.534 38.579 38.616 38.666 38.724 38.804 38.869 38.944 39.071 39.116 39.166 39.199 39.249 39.276 39.334 39.364 39.386 39.376 39.421 39.489 39.499 39.476 39.476 39.481 39.549 39.584 39.586 39.576 39.584 39.566 39.584 39.964 40.086 39.741 39.744 39.724 39.691 39.669 39.674 39.681 39.701 39.674 39.681 39.681 39.714 39.729 39.724 39.709 39.711 39.676 39.671 39.669 39.679 39.649 39.621 39.574 39.589 39.589 39.546 39.484 39.446 39.406
3.078 3.272 3.345 3.448 3.706 3.803 4.028 4.415 4.706 5.468 6.143 6.701 6.876 6.956 6.973 6.861 6.866 6.903 6.836 7.906 9.203 8.161 7.636 10.226 10.868 10.898 11.051 10.468 10.756 10.971 10.456 10.833 9.861 8.101 9.416 12.151 12.406 12.316 11.581 11.406 10.036 9.541 9.268 8.266 7.598 6.681 6.263 6.186 5.973 6.088 5.753 5.426 5.423 5.383 5.311 5.227 5.089 4.708 4.194 3.817 3.59 3.543 3.509 3.356 2.907 4.142 3.871 2.331 2.298 2.265 2.191 2.186 2.123 2.15 2.22 2.256 2.329 2.397 2.41 2.498 2.701 2.818 2.781 2.758 2.968 2.968 3.081 3.443 4.781 6.443 5.833 8.188 7.633 4.366 7.801 11.476 11.306 5.818 6.191 9.846 11.848 8.791 15.651 12.633 8.988 8.723 11.076 9.421 10.223 11.851 9.528 15.098 10.541 11.603 12.173 14.106 10.978 11.056 11.468 10.898 14.036 10.841 11.136 12.878 13.883 14.821 16.358 13.288 12.138 14.593 12.701 12.533 12.668 12.776 12.921 13.133 13.313 13.531 13.681 13.798 14.491 15.218 20.136 19.526 18.661 16.006 15.131 15.121 15.191 15.358 15.376 15.436 15.566 16.281 15.891 15.718 17.908 26.291 29.391 30.188 30.123 24.498 18.198 16.903 17.058 17.206 17.301 17.588 18.216 18.323 18.181 18.203 18.278 18.423 19.241 21.068 23.916 25.453 24.528 22.458 20.283 21.541 20.348 19.483 19.828 19.691 19.768 19.836 22.221 24.011 23.956 20.626 20.421 20.463 20.558 20.708 20.793 20.901 21.008 21.206 23.521 24.503 25.373 27.281 25.988 23.643 22.463 24.393 25.963 24.506 24.493 23.501 23.053 22.621 23.608 28.748 28.263 24.828 26.733 24.463 23.426 23.476 23.458 23.631 26.613 28.136 24.161 25.018 25.243 24.613 24.468 24.513 24.603 24.728 25.406 26.106 25.566 27.396 28.073 30.246 31.316 30.581 28.073 25.376 25.408 25.446 25.496 25.583 25.656 25.793 27.228 26.666 26.103 26.168 26.221 26.328 26.541 26.733 27.031 29.223 28.183 27.186 27.256 27.388 27.506 27.661 27.793 27.918 28.051 28.218 28.323 28.453 28.561 28.643 28.698 28.843 28.943 29.053 29.176 29.273 29.386 29.496 29.618 29.728 29.801 29.906 30.046 30.146 30.241 30.341 30.476 30.591 30.696 30.784 30.889 31.001 31.096 31.209 31.324 31.459 31.559 31.661 31.784 31.869 31.976 32.054 32.184 32.299 32.426 32.531 32.619 32.724 32.829 32.904 32.979 33.134 33.179 33.311 33.414 33.494 33.644 33.701 33.804 33.926 34.034 34.166 34.221 34.274 34.401 34.539 34.594 34.706 34.859 34.931 35.049 35.174 35.236 35.376 35.451 35.589 35.671 35.742 35.822 35.938 36.012 36.087 36.122 36.23 36.32 36.409 36.5 36.598 36.656 36.741 36.804 36.874 36.964 37.019 37.081 37.189 37.281 37.369 37.444 37.521 37.564 37.644 37.719 37.804 37.866 37.969 38.056 38.141 38.254 38.339 38.374 38.449 38.499 38.571 38.641 38.686 38.706 38.771 38.851 38.934 38.986 39.084 39.164 39.196 39.246 39.291 39.311 39.361 39.366 39.409 39.411 39.444 39.514 39.491 39.496 39.526 39.534 39.594 39.631 39.641 39.591 39.624 39.879 40.106 39.736 39.686 39.741 39.769 39.681 39.691 39.671 39.696 39.709 39.709 39.699 39.706 39.716 39.724 39.719 39.734 39.721 39.686 39.674 39.689 39.679 39.674 39.651 39.624 39.626 39.624 39.564 39.491 39.464 39.424 39.369
3.15 3.274 3.319 3.448 3.717 3.883 4.293 4.521 4.826 5.413 6.331 6.876 7.078 7.173 7.216 7.478 7.178 7.151 6.988 6.903 7.011 7.158 7.221 7.971 9.581 10.558 10.973 10.686 11.066 10.663 10.576 10.841 9.076 8.228 7.388 10.541 11.118 11.861 12.541 12.623 11.856 11.368 10.391 9.991 9.031 7.096 6.386 7.938 8.906 8.013 5.883 5.671 5.623 5.556 5.476 5.416 5.323 5.226 4.983 4.45 3.823 3.614 3.571 3.34 2.9 4.39 3.402 2.386 2.332 2.279 2.233 2.232 2.197 2.206 2.248 2.275 2.362 2.414 2.458 2.606 2.793 2.841 2.711 2.751 3.298 3.263 3.101 3.241 4.391 4.786 4.936 4.373 3.876 4.221 5.236 6.408 6.533 5.706 5.908 8.363 8.193 13.248 15.296 10.853 8.871 8.531 9.298 14.086 9.261 9.611 11.298 9.733 10.298 12.366 9.903 10.523 11.758 11.206 10.936 10.698 10.626 10.758 16.551 16.101 17.746 20.151 17.543 15.026 13.791 13.768 12.316 12.528 12.661 12.738 12.856 13.018 13.161 13.338 13.681 13.781 13.833 13.881 19.568 15.453 15.531 15.391 15.221 15.193 15.263 16.173 15.408 15.496 15.786 17.011 16.691 15.696 15.816 21.448 27.698 27.416 26.841 24.463 20.781 16.956 17.128 17.281 17.358 17.446 18.186 18.156 18.138 19.243 21.131 23.008 23.446 24.298 24.421 25.478 25.173 23.398 19.718 21.531 21.243 19.603 20.243 20.656 19.821 19.891 19.988 23.953 24.468 22.011 20.696 20.581 20.616 20.706 20.803 20.913 21.008 21.633 22.423 23.681 22.996 23.946 23.448 23.568 24.793 25.786 26.373 26.886 26.593 22.741 22.603 22.753 23.026 25.511 25.436 23.881 25.313 24.871 23.631 23.561 23.616 24.273 30.226 30.713 25.673 24.336 24.331 24.336 24.423 25.038 24.936 24.986 25.576 25.173 25.023 25.143 26.348 29.523 31.146 30.988 29.096 26.028 25.543 25.586 25.643 25.696 25.773 25.828 27.696 26.103 26.176 26.288 26.386 26.533 26.811 27.006 27.278 28.398 29.851 27.598 27.371 27.501 27.608 27.743 27.868 27.971 28.108 28.276 28.401 28.516 28.618 28.721 28.798 28.908 29.008 29.138 29.243 29.351 29.446 29.573 29.696 29.771 29.893 29.991 30.071 30.183 30.303 30.383 30.511 30.604 30.756 30.834 30.939 31.039 31.146 31.261 31.399 31.491 31.609 31.719 31.829 31.954 32.021 32.119 32.234 32.326 32.446 32.576 32.649 32.746 32.829 32.944 33.044 33.131 33.266 33.394 33.476 33.561 33.676 33.784 33.826 33.914 34.034 34.119 34.234 34.319 34.414 34.514 34.651 34.751 34.851 35.021 35.091 35.216 35.269 35.426 35.479 35.629 35.696 35.797 35.878 35.956 36.028 36.128 36.196 36.307 36.377 36.472 36.572 36.657 36.735 36.802 36.869 36.932 37.001 37.089 37.151 37.249 37.359 37.424 37.501 37.551 37.591 37.691 37.749 37.839 37.929 38.024 38.066 38.151 38.231 38.349 38.426 38.451 38.559 38.609 38.686 38.741 38.784 38.816 38.876 38.959 39.036 39.114 39.176 39.246 39.301 39.321 39.356 39.356 39.416 39.426 39.459 39.479 39.544 39.519 39.544 39.564 39.579 39.641 39.656 39.601 40.364 41.184 41.056 42.181 39.731 39.754 39.769 39.754 39.719 39.709 39.711 39.721 39.711 39.746 39.756 39.749 39.736 39.769 39.794 39.781 39.764 39.759 39.699 39.704 39.686 39.659 39.659 39.646 39.644 39.621 39.561 39.496 39.449 39.389 39.331
3.091 3.265 3.34 3.429 3.792 4.134 4.458 4.626 5.083 5.791 6.573 7.043 7.231 7.983 12.311 12.636 12.636 8.366 7.178 7.521 7.633 7.326 7.651 8.316 9.081 10.286 10.793 10.893 10.998 10.738 10.906 10.383 7.941 7.831 7.106 7.646 7.046 9.586 10.986 11.503 12.001 12.231 11.891 11.211 10.096 6.806 7.123 7.986 11.681 7.893 6.256 5.883 5.813 5.723 5.658 5.596 5.491 5.376 5.248 4.907 4.135 3.689 3.601 3.332 3.19 4.977 2.997 2.449 2.404 2.39 2.324 2.283 2.24 2.264 2.308 2.351 2.432 2.451 2.493 2.691 2.806 2.778 2.606 2.663 2.853 3.611 3.188 3.268 3.561 4.336 4.448 3.886 4.598 4.798 6.868 9.473 7.253 5.536 5.791 6.076 9.808 7.043 14.783 12.028 9.788 9.081 9.326 14.763 9.188 10.556 10.531 11.373 10.403 10.073 13.096 10.516 10.836 10.888 11.748 10.521 10.731 12.898 12.218 17.588 18.441 15.328 15.833 13.701 13.273 12.776 12.273 12.741 12.738 12.701 12.826 12.976 13.108 13.311 13.453 13.661 13.803 13.821 16.168 15.201 14.858 15.196 15.283 15.406 15.363 15.993 15.581 16.861 18.128 21.258 21.496 18.621 16.038 17.253 19.903 22.233 22.096 18.921 16.973 16.996 17.156 17.298 17.436 17.541 17.653 18.141 18.513 23.111 25.151 24.998 24.728 25.421 25.563 25.133 25.583 24.178 21.723 20.201 21.641 20.158 20.053 20.426 19.906 20.013 20.096 22.553 24.436 23.703 21.111 20.816 20.756 20.748 20.836 20.956 21.681 23.848 23.116 22.366 23.203 24.141 24.256 26.198 27.238 27.181 27.213 26.941 26.418 22.948 22.721 24.098 22.823 22.923 22.966 23.086 23.668 24.778 24.401 23.596 23.688 24.266 28.881 29.141 25.953 24.188 24.271 24.361 24.478 24.631 24.791 24.771 25.591 25.203 25.141 25.153 25.796 28.708 30.458 31.241 29.781 27.818 25.671 25.696 25.753 25.828 26.121 26.683 26.223 26.193 26.273 26.421 26.506 26.736 27.058 27.288 27.656 28.001 29.858 29.031 27.601 27.581 27.721 27.826 27.953 28.048 28.161 28.313 28.441 28.581 28.651 28.756 28.863 28.968 29.061 29.181 29.293 29.396 29.503 29.623 29.738 29.836 29.933 30.018 30.106 30.206 30.331 30.438 30.554 30.646 30.784 30.894 30.994 31.076 31.194 31.296 31.439 31.541 31.626 31.764 31.869 31.974 32.071 32.154 32.286 32.396 32.511 32.586 32.686 32.796 32.881 32.976 33.089 33.156 33.344 33.409 33.541 33.676 33.701 33.791 33.861 33.934 34.094 34.154 34.231 34.384 34.434 34.526 34.684 34.739 34.874 35.009 35.116 35.214 35.359 35.386 35.576 35.616 35.761 35.836 35.951 35.985 36.078 36.169 36.278 36.355 36.446 36.54 36.611 36.721 36.801 36.904 36.93 37.009 37.086 37.126 37.231 37.306 37.399 37.461 37.529 37.599 37.651 37.729 37.829 37.896 37.986 38.089 38.144 38.176 38.284 38.346 38.471 38.531 38.589 38.671 38.726 38.779 38.846 38.891 38.944 38.989 39.054 39.131 39.201 39.284 39.351 39.369 39.384 39.409 39.434 39.454 39.459 39.546 39.551 39.551 39.581 39.611 39.636 39.666 39.646 39.694 41.001 41.221 41.821 40.066 39.764 39.786 39.794 39.751 39.734 39.736 39.754 39.744 39.764 39.761 39.764 39.786 39.781 39.786 39.776 39.769 39.784 39.774 39.739 39.711 39.696 39.681 39.641 39.621 39.601 39.581 39.556 39.509 39.436 39.334 39.304
3.176 3.332 3.428 3.534 3.858 4.23 4.591 4.778 5.308 6.256 6.968 7.166 7.368 9.463 13.058 14.663 13.953 10.703 7.333 7.418 8.016 7.546 7.891 8.016 7.396 9.288 10.093 10.373 10.228 10.743 10.958 9.946 8.196 7.316 7.116 7.083 7.086 7.106 7.531 8.201 9.526 11.021 11.998 12.436 8.773 6.901 9.151 8.678 10.263 6.311 10.381 10.116 6.708 5.893 5.828 5.788 5.673 5.521 5.381 5.128 4.301 3.745 3.647 3.369 3.224 4.855 2.719 2.519 2.493 2.477 2.421 2.377 2.354 2.385 2.405 2.446 2.493 2.473 2.616 2.783 2.808 2.716 2.583 2.566 2.703 2.926 3.068 3.303 3.608 4.811 5.401 6.671 9.323 9.071 8.711 8.411 9.153 8.338 5.623 5.958 7.173 11.576 10.253 9.938 9.133 10.381 8.566 8.651 8.996 10.458 13.588 10.496 13.236 12.148 12.076 11.933 11.198 11.813 10.533 10.378 15.723 20.876 21.151 18.951 13.926 11.501 12.488 13.173 13.491 12.103 12.276 13.246 12.688 12.713 12.826 13.153 14.523 16.328 15.613 15.006 15.323 14.821 15.273 14.871 14.893 15.203 15.283 16.046 17.251 19.396 18.343 20.453 21.561 22.211 22.821 21.833 20.321 18.531 17.843 17.543 16.751 17.571 17.163 17.028 17.128 17.261 17.401 17.693 17.741 17.991 18.016 21.913 24.716 25.741 25.491 25.053 24.668 23.961 25.358 24.841 23.018 19.281 21.646 20.821 19.766 19.883 19.958 20.061 20.168 20.356 22.993 25.166 21.663 21.243 22.856 20.813 21.668 22.031 23.438 24.218 23.143 21.913 22.683 22.216 22.793 26.473 27.086 27.323 26.651 25.556 23.878 22.653 22.668 22.748 22.838 22.913 23.016 23.133 23.191 25.208 25.771 23.806 23.681 23.838 24.703 24.103 24.168 24.478 24.611 24.363 24.483 24.551 24.651 24.771 25.008 25.488 26.988 25.403 25.718 28.016 29.701 30.743 29.961 28.756 26.401 25.943 25.863 25.991 26.106 26.673 26.303 26.301 26.406 26.516 26.623 26.756 27.381 27.843 28.928 29.593 29.396 28.853 27.941 27.713 27.798 27.916 28.016 28.086 28.198 28.368 28.511 28.638 28.736 28.838 28.918 29.031 29.133 29.246 29.358 29.448 29.551 29.653 29.751 29.883 29.978 30.066 30.171 30.261 30.356 30.496 30.614 30.696 30.819 30.926 31.051 31.144 31.239 31.354 31.444 31.571 31.671 31.801 31.909 31.996 32.104 32.216 32.311 32.444 32.496 32.654 32.709 32.814 32.909 33.036 33.101 33.256 33.381 33.464 33.574 33.669 33.749 33.851 33.874 33.986 34.089 34.159 34.294 34.329 34.469 34.549 34.706 34.834 34.901 34.989 35.156 35.251 35.349 35.476 35.591 35.679 35.791 35.888 35.956 36.069 36.136 36.219 36.345 36.403 36.518 36.577 36.688 36.761 36.858 36.938 37.02 37.067 37.144 37.189 37.266 37.361 37.454 37.529 37.544 37.631 37.709 37.754 37.854 37.934 38.019 38.104 38.204 38.234 38.296 38.369 38.494 38.576 38.639 38.696 38.766 38.804 38.876 38.956 38.999 39.029 39.084 39.186 39.239 39.284 39.354 39.371 39.381 39.436 39.454 39.521 39.506 39.561 39.564 39.599 39.634 39.661 39.681 39.671 39.671 40.146 42.104 42.101 41.051 39.791 39.846 39.866 39.816 39.784 39.774 39.809 39.784 39.794 39.779 39.784 39.801 39.774 39.796 39.779 39.804 39.779 39.774 39.759 39.744 39.721 39.689 39.664 39.644 39.634 39.621 39.606 39.569 39.459 39.386 39.356 39.316
3.417 3.883 3.533 3.846 3.912 4.232 4.668 4.913 5.416 6.146 6.816 7.238 7.391 11.521 13.951 14.736 13.723 10.206 7.511 7.703 8.063 7.556 8.471 8.138 7.518 7.486 7.636 8.308 8.481 9.286 10.091 9.591 7.623 7.251 7.176 7.173 7.118 7.141 7.148 7.118 7.493 8.603 9.723 10.561 7.716 6.766 12.033 11.603 8.961 7.796 11.486 11.863 9.728 7.121 5.986 5.918 5.838 5.726 6.216 5.311 4.386 3.818 3.676 3.391 4.001 4.843 2.826 2.647 2.586 2.513 2.478 2.463 2.453 2.473 2.493 2.511 2.503 2.551 2.746 2.796 2.743 2.646 2.703 2.628 2.703 2.736 2.806 3.196 3.518 4.723 6.201 8.686 11.953 14.436 8.163 4.921 9.358 6.791 8.236 8.941 5.891 10.693 11.601 11.393 11.408 9.778 13.013 8.686 8.731 9.568 14.456 11.658 12.388 10.241 11.066 13.573 10.411 12.583 10.243 11.308 17.003 22.291 17.388 11.678 11.358 11.943 12.151 13.256 11.978 12.048 12.231 12.963 12.961 13.243 14.096 15.263 16.531 17.116 17.053 16.811 16.963 16.636 13.711 14.418 14.876 15.151 15.346 17.263 20.488 21.838 22.733 23.073 23.173 23.353 23.173 21.973 20.611 19.043 16.526 17.981 16.628 17.271 17.638 17.108 17.163 17.313 17.393 17.671 17.826 17.923 18.318 20.241 23.928 25.511 24.646 23.361 21.408 22.956 24.736 25.466 23.733 20.763 20.656 21.711 20.321 19.931 20.021 20.093 20.431 21.261 21.413 22.921 23.761 23.196 21.716 23.246 23.096 23.056 23.341 22.938 21.836 21.763 21.763 21.831 21.991 25.226 26.218 27.618 27.648 25.691 23.661 22.746 22.711 22.806 22.876 23.246 23.256 23.143 23.423 23.911 25.248 24.776 23.753 23.906 23.888 23.978 24.431 24.328 24.323 24.428 24.521 24.586 24.646 24.743 24.881 25.076 25.406 25.168 25.306 26.823 28.978 29.333 28.281 26.656 26.603 27.428 26.001 26.126 26.198 26.281 26.356 26.423 26.518 26.633 26.756 28.713 29.311 29.938 28.483 28.043 27.573 27.891 28.671 27.863 27.883 28.016 28.113 28.198 28.263 28.391 28.561 28.673 28.791 28.898 28.993 29.101 29.206 29.306 29.421 29.498 29.601 29.708 29.798 29.883 30.026 30.116 30.213 30.318 30.418 30.526 30.641 30.731 30.891 30.969 31.059 31.199 31.284 31.411 31.496 31.611 31.729 31.816 31.941 32.066 32.134 32.246 32.364 32.464 32.554 32.659 32.756 32.834 32.961 33.054 33.191 33.326 33.406 33.496 33.614 33.684 33.779 33.916 33.929 34.034 34.104 34.181 34.316 34.401 34.439 34.631 34.676 34.809 34.971 35.039 35.149 35.289 35.414 35.541 35.636 35.699 35.869 35.896 36.016 36.141 36.211 36.265 36.363 36.473 36.553 36.635 36.737 36.813 36.891 36.987 37.053 37.103 37.181 37.264 37.314 37.394 37.481 37.549 37.621 37.679 37.749 37.809 37.889 37.981 38.066 38.114 38.229 38.319 38.341 38.409 38.491 38.591 38.669 38.746 38.794 38.861 38.924 38.994 39.051 39.109 39.146 39.199 39.276 39.309 39.369 39.369 39.361 39.414 39.404 39.486 39.514 39.541 39.571 39.614 39.649 39.701 39.716 39.666 39.971 41.426 42.466 40.566 39.839 39.829 39.886 39.864 39.839 39.851 39.846 39.849 39.834 39.811 39.816 39.821 39.806 39.809 39.819 39.794 39.794 39.786 39.779 39.781 39.761 39.721 39.696 39.659 39.659 39.659 39.636 39.586 39.514 39.459 39.389 39.344 39.301
3.617 4.315 5.188 5.558 4.057 4.216 4.661 5.103 5.531 6.168 6.878 7.256 8.266 11.978 14.253 14.493 13.438 11.163 9.233 7.783 8.011 7.706 8.896 7.846 7.643 7.611 7.616 7.828 7.768 7.821 7.981 8.088 7.443 7.493 7.838 7.241 7.476 7.206 7.173 7.168 7.473 8.278 7.856 7.226 6.861 7.616 11.746 10.828 7.101 10.046 11.923 11.611 10.798 10.063 9.938 7.466 5.916 6.063 6.086 5.331 4.438 3.846 3.678 3.363 5.288 5.168 2.826 2.706 2.656 2.536 2.531 2.523 2.521 2.536 2.571 2.566 2.553 2.673 2.793 2.801 2.671 2.693 2.653 2.821 2.908 2.701 2.713 3.018 4.001 4.551 4.778 5.256 7.786 9.021 6.111 5.251 4.833 5.041 11.146 10.403 6.736 7.076 7.521 12.156 13.958 15.086 14.768 10.836 15.808 8.921 12.348 12.973 9.581 10.486 11.228 12.508 10.458 11.271 11.048 14.643 17.543 19.523 14.258 11.173 11.353 11.461 12.816 12.021 11.831 11.973 12.173 12.458 13.556 15.236 16.871 17.063 17.253 17.408 17.516 17.646 17.848 17.598 13.671 14.263 14.811 15.076 15.333 18.236 20.946 21.843 23.078 24.218 24.546 24.411 23.498 22.121 20.766 18.626 16.173 17.541 17.216 16.711 17.761 17.308 17.188 17.336 17.473 17.641 17.833 17.903 18.411 19.228 22.326 23.418 20.156 19.913 19.291 21.718 23.756 25.363 22.598 19.741 19.953 22.416 21.913 19.991 20.061 20.158 21.376 21.113 20.578 20.728 24.901 25.498 22.128 23.691 25.328 22.236 21.873 21.733 21.566 21.688 21.751 21.846 22.081 22.946 23.911 27.423 27.803 26.838 23.516 22.933 23.063 22.941 22.903 23.456 24.453 23.321 23.671 24.846 27.678 26.763 23.808 23.948 24.023 24.021 24.246 24.483 24.331 24.466 24.538 24.621 24.676 24.766 24.893 25.046 25.113 25.253 25.396 25.448 26.698 26.446 26.473 27.046 26.283 26.026 26.121 26.203 26.308 26.403 26.488 26.576 26.716 27.291 27.531 28.168 27.946 27.498 27.381 27.521 27.641 27.706 28.666 28.321 27.946 28.088 28.156 28.258 28.366 28.428 28.566 28.718 28.856 28.946 29.038 29.163 29.251 29.353 29.456 29.571 29.643 29.743 29.843 29.948 30.053 30.176 30.251 30.353 30.466 30.586 30.684 30.769 30.899 31.004 31.116 31.224 31.354 31.434 31.561 31.644 31.756 31.874 31.969 32.074 32.184 32.274 32.416 32.496 32.589 32.709 32.791 32.914 33.044 33.141 33.246 33.359 33.466 33.581 33.594 33.714 33.824 33.886 33.964 34.056 34.164 34.224 34.359 34.391 34.524 34.651 34.734 34.821 34.984 35.099 35.169 35.316 35.471 35.586 35.729 35.791 35.889 35.959 36.072 36.189 36.261 36.349 36.421 36.5 36.603 36.691 36.761 36.872 36.929 37.028 37.082 37.151 37.221 37.324 37.391 37.444 37.526 37.599 37.656 37.746 37.801 37.864 37.959 38.009 38.079 38.149 38.256 38.334 38.396 38.441 38.526 38.609 38.686 38.771 38.826 38.891 38.959 39.021 39.114 39.144 39.186 39.254 39.306 39.349 39.391 39.409 39.371 39.404 39.449 39.474 39.501 39.536 39.619 39.686 39.699 39.741 39.699 39.779 41.969 43.069 41.714 39.966 39.844 39.889 39.866 39.864 39.854 39.876 39.879 39.871 39.859 39.831 39.834 39.839 39.816 39.804 39.799 39.791 39.796 39.786 39.784 39.779 39.766 39.734 39.714 39.696 39.669 39.651 39.629 39.579 39.551 39.479 39.411 39.331 39.331
3.937 4.537 6.09 4.204 4.709 4.373 4.681 5.241 5.458 6.166 6.963 7.298 8.306 13.076 14.498 14.263 13.093 11.663 8.023 7.691 8.241 7.843 9.118 7.821 7.723 7.708 8.058 8.666 8.366 8.238 7.873 7.718 7.876 8.548 11.068 11.193 10.311 8.836 7.736 7.241 7.198 7.173 7.173 7.103 7.151 7.271 7.893 8.113 7.273 11.311 12.063 12.088 11.918 11.448 12.053 10.966 7.596 5.828 5.698 5.371 4.481 3.896 3.623 3.316 4.548 3.668 2.858 2.808 2.683 2.623 2.593 2.583 2.566 2.626 2.656 2.591 2.633 2.803 2.803 2.713 2.641 2.651 2.673 3.311 3.898 2.796 2.703 3.588 5.506 6.283 4.758 3.661 4.448 4.041 6.636 6.183 8.156 7.483 11.528 9.668 6.658 5.783 15.173 16.533 15.581 10.648 12.348 13.208 15.461 15.343 12.933 12.388 9.448 9.868 10.301 9.806 10.768 15.768 16.768 17.586 18.713 13.951 13.206 11.233 11.336 11.391 11.973 11.891 11.781 11.893 12.033 12.271 12.573 14.633 17.728 17.646 17.686 17.611 17.456 17.283 17.193 16.928 14.168 14.388 14.746 15.028 15.266 18.126 21.368 21.918 22.963 23.973 24.031 23.896 23.413 22.223 20.816 19.406 15.906 16.518 17.946 16.806 17.191 18.128 17.203 17.366 17.491 17.646 17.843 17.943 18.158 19.101 18.951 19.283 19.308 19.191 19.206 19.933 20.868 19.821 19.441 19.483 21.953 23.911 23.908 20.893 20.076 21.576 24.146 24.876 25.011 20.378 21.036 23.403 21.896 24.683 30.453 30.701 23.106 21.383 21.511 22.128 21.808 21.876 22.048 22.783 24.338 26.491 27.726 27.446 23.631 23.743 24.343 23.833 24.221 24.323 24.206 23.431 23.646 24.871 27.403 25.216 24.521 23.971 24.056 24.098 24.193 24.706 24.386 24.513 24.586 24.646 24.743 24.831 24.938 25.091 25.181 25.311 25.433 25.556 25.636 25.738 26.036 26.316 25.988 26.093 26.211 26.296 26.411 26.528 26.631 26.798 26.976 27.121 27.196 27.323 27.353 27.371 27.423 27.558 27.696 27.818 28.141 28.783 28.123 28.123 28.226 28.303 28.426 28.508 28.628 28.743 28.886 28.986 29.108 29.226 29.341 29.438 29.513 29.638 29.691 29.796 29.886 29.996 30.108 30.213 30.306 30.398 30.511 30.608 30.684 30.809 30.901 31.051 31.156 31.271 31.356 31.464 31.581 31.691 31.791 31.884 32.014 32.101 32.209 32.321 32.431 32.551 32.646 32.756 32.874 32.991 33.079 33.241 33.321 33.399 33.501 33.586 33.679 33.746 33.831 33.911 34.041 34.096 34.189 34.264 34.344 34.421 34.571 34.624 34.731 34.909 34.976 35.106 35.231 35.331 35.461 35.591 35.706 35.796 35.924 36.009 36.093 36.191 36.297 36.377 36.458 36.535 36.651 36.745 36.787 36.857 36.972 37.041 37.106 37.209 37.282 37.354 37.424 37.479 37.541 37.634 37.706 37.786 37.864 37.944 38.001 38.061 38.154 38.214 38.311 38.404 38.459 38.494 38.544 38.656 38.731 38.829 38.876 38.936 39.006 39.076 39.136 39.216 39.231 39.281 39.336 39.369 39.389 39.414 39.419 39.409 39.464 39.481 39.491 39.571 39.641 39.699 39.754 39.726 39.664 40.006 41.566 41.426 39.979 39.839 39.874 39.919 39.881 39.889 39.886 39.899 39.909 39.899 39.884 39.866 39.851 39.829 39.824 39.821 39.809 39.786 39.806 39.771 39.769 39.766 39.751 39.736 39.719 39.676 39.669 39.654 39.639 39.606 39.549 39.499 39.434 39.389 39.331
3.62 4.263 7.366 6.707 4.208 4.523 4.726 5.188 5.571 6.151 7.053 7.293 9.233 13.393 14.671 14.316 12.608 10.541 8.111 7.943 8.081 8.141 9.001 7.811 7.823 7.841 8.171 8.113 8.301 8.143 7.866 7.893 9.583 8.143 9.358 11.553 11.918 10.636 7.931 7.326 7.313 7.278 8.053 8.673 7.913 9.631 8.518 9.048 10.063 11.908 11.833 11.681 11.756 12.048 10.778 8.706 5.948 5.918 5.786 5.356 4.496 4.118 3.653 3.353 3.783 3.058 2.958 2.861 2.758 2.743 2.661 2.653 2.671 2.676 2.658 2.633 2.721 2.823 2.796 2.673 2.651 2.658 2.671 2.803 2.901 2.818 4.053 3.523 5.123 6.251 6.156 4.993 3.921 4.571 4.861 4.553 7.673 11.751 8.623 10.031 6.848 5.433 5.786 8.278 7.391 8.841 7.616 7.941 11.731 16.168 12.346 13.113 13.558 10.116 9.516 14.348 13.693 16.428 19.126 19.296 13.411 10.798 11.011 11.193 11.226 11.348 11.478 11.593 11.701 11.801 11.891 12.423 12.821 13.363 17.153 17.068 16.888 16.506 16.568 15.516 15.326 16.136 14.523 15.041 14.596 14.933 15.361 17.146 20.188 21.433 22.618 22.738 22.601 21.028 22.218 22.003 19.558 17.843 15.828 16.228 17.081 17.531 16.876 18.266 17.331 17.378 17.511 17.638 17.826 18.001 17.988 18.561 19.006 19.228 19.393 19.173 18.996 19.011 19.076 19.101 19.161 19.663 21.968 23.468 23.656 23.538 22.083 25.593 26.551 27.261 27.581 23.201 21.633 25.383 24.778 23.878 28.351 30.838 24.096 21.436 21.573 21.766 21.808 21.921 22.116 22.751 24.873 25.918 26.778 25.651 23.953 24.148 23.543 23.378 23.631 23.548 23.463 23.701 23.678 23.628 24.133 24.021 24.888 24.421 24.121 24.206 24.263 24.423 24.478 24.568 24.631 24.746 24.808 24.921 25.011 25.141 25.246 25.378 25.476 25.583 25.678 25.801 25.881 25.976 26.086 26.171 26.338 27.553 27.018 26.948 27.041 26.961 27.198 27.286 27.323 27.331 27.386 27.461 27.583 27.668 27.778 27.883 27.996 28.746 28.591 28.196 28.291 28.381 28.463 28.548 28.673 28.801 28.921 29.056 29.171 29.263 29.393 29.508 29.578 29.683 29.748 29.876 29.966 30.051 30.153 30.233 30.361 30.446 30.538 30.641 30.741 30.851 30.969 31.074 31.181 31.296 31.396 31.501 31.624 31.704 31.824 31.931 32.031 32.141 32.239 32.354 32.486 32.571 32.666 32.791 32.921 33.041 33.159 33.276 33.361 33.466 33.566 33.656 33.726 33.816 33.884 33.956 34.039 34.164 34.264 34.309 34.364 34.481 34.574 34.631 34.741 34.899 35.009 35.096 35.254 35.359 35.479 35.586 35.734 35.854 35.986 36.071 36.143 36.252 36.298 36.394 36.519 36.559 36.663 36.745 36.82 36.885 36.977 37.1 37.149 37.229 37.332 37.399 37.461 37.544 37.601 37.674 37.736 37.819 37.889 38.019 38.071 38.094 38.171 38.274 38.356 38.454 38.499 38.559 38.624 38.701 38.801 38.874 38.944 38.991 39.069 39.136 39.191 39.239 39.296 39.329 39.371 39.396 39.439 39.421 39.426 39.466 39.491 39.494 39.554 39.606 39.686 39.719 39.714 39.659 40.124 41.379 42.666 41.616 39.841 39.889 39.926 39.861 39.881 39.899 39.916 39.924 39.914 39.906 39.884 39.866 39.829 39.839 39.831 39.844 39.826 39.819 39.809 39.776 39.781 39.784 39.771 39.744 39.729 39.691 39.649 39.629 39.616 39.611 39.541 39.479 39.449 39.406 39.346
3.724 3.746 4.275 4.838 4.386 4.658 4.773 5.161 5.621 6.211 7.068 7.361 9.631 13.801 14.646 13.741 9.708 7.978 7.758 8.293 8.083 8.148 8.961 7.931 7.948 7.943 7.933 7.881 8.256 7.946 7.853 9.271 8.553 7.926 7.901 10.686 11.283 9.948 8.306 7.676 7.508 7.456 9.333 12.668 10.853 10.711 9.978 8.648 11.338 12.086 11.738 11.758 11.811 12.136 11.141 6.973 5.971 5.941 5.786 5.288 4.441 3.986 3.683 3.401 3.231 3.116 3.033 2.946 2.893 2.803 2.761 2.768 2.806 2.751 2.713 2.776 2.841 2.798 2.678 2.683 2.686 2.706 2.701 2.761 2.858 4.826 8.463 5.761 4.721 6.123 6.231 6.113 6.471 5.256 5.426 8.566 8.098 8.138 8.278 14.136 7.771 5.253 5.876 5.911 6.311 6.841 9.273 10.111 8.703 11.373 14.346 9.126 10.148 10.156 9.676 9.471 11.928 14.523 18.646 15.713 10.573 10.921 11.361 11.018 11.161 11.261 11.411 11.508 11.616 11.656 12.178 13.351 12.306 13.026 14.423 15.648 13.926 13.816 13.681 13.386 14.046 15.076 13.821 14.398 14.748 14.758 15.131 15.923 18.206 17.123 17.668 18.301 16.448 16.808 18.993 19.023 16.503 17.146 19.078 17.448 16.601 17.423 17.138 17.658 17.736 17.313 17.486 17.646 17.796 17.991 18.103 18.211 18.758 19.048 18.933 18.881 18.946 19.061 19.121 19.158 19.206 19.313 22.726 23.451 23.356 23.928 23.138 27.738 27.426 26.906 26.456 25.511 23.208 22.871 25.571 23.266 24.641 27.446 21.621 21.703 21.641 21.851 21.881 22.023 22.168 22.463 23.576 23.403 23.548 23.323 23.598 23.321 23.343 24.048 25.431 23.803 24.373 23.711 24.491 23.623 23.726 23.823 24.076 24.908 24.148 24.276 24.368 24.396 24.733 25.583 24.713 24.813 24.888 25.001 25.068 25.161 25.296 25.421 25.506 25.603 25.718 25.843 26.303 26.933 27.746 27.868 26.958 27.213 26.838 27.766 28.966 27.003 27.258 27.351 27.383 27.448 27.463 27.556 27.671 27.783 27.886 27.958 28.043 28.416 28.933 28.253 28.358 28.453 28.521 28.558 28.691 28.828 28.956 29.101 29.248 29.353 29.458 29.536 29.638 29.738 29.823 29.918 30.006 30.108 30.198 30.291 30.391 30.501 30.588 30.698 30.794 30.884 30.994 31.106 31.231 31.329 31.429 31.531 31.671 31.734 31.836 31.959 32.049 32.166 32.254 32.399 32.514 32.624 32.724 32.836 32.966 33.061 33.226 33.351 33.369 33.501 33.596 33.701 33.751 33.866 33.939 34.001 34.099 34.176 34.259 34.341 34.414 34.529 34.631 34.691 34.776 34.901 35.009 35.154 35.234 35.406 35.499 35.624 35.754 35.861 35.976 36.086 36.169 36.269 36.335 36.436 36.522 36.627 36.672 36.753 36.847 36.928 36.996 37.091 37.199 37.249 37.346 37.436 37.499 37.559 37.651 37.701 37.786 37.854 37.939 38.021 38.134 38.151 38.246 38.331 38.406 38.499 38.571 38.619 38.691 38.774 38.846 38.926 38.979 39.041 39.111 39.139 39.224 39.264 39.331 39.364 39.401 39.419 39.446 39.446 39.451 39.514 39.516 39.544 39.601 39.661 39.691 39.744 39.706 39.709 41.069 41.741 42.194 40.071 39.881 39.924 39.901 39.916 39.904 39.899 39.944 39.936 39.919 39.926 39.856 39.849 39.841 39.846 39.839 39.826 39.784 39.806 39.821 39.841 39.836 39.826 39.766 39.749 39.731 39.684 39.631 39.631 39.619 39.571 39.529 39.466 39.426 39.394 39.334
6.462 5.139 4.105 4.261 4.478 4.736 4.783 5.248 5.696 6.398 6.971 7.368 9.086 10.748 12.188 12.198 8.546 7.511 7.986 8.413 8.238 8.303 8.831 8.133 8.098 8.066 8.066 8.196 8.201 8.033 8.461 9.141 7.981 8.001 7.926 7.953 11.303 9.716 9.001 10.288 9.808 12.178 12.376 11.891 10.943 9.283 9.218 10.751 11.853 11.746 11.963 11.951 12.058 11.931 10.771 6.051 6.043 5.976 5.731 5.093 4.411 4.028 3.748 3.511 3.318 3.193 3.118 3.058 2.993 2.941 2.861 2.893 2.861 2.826 2.766 2.826 2.836 2.761 2.686 2.691 2.703 2.721 2.713 2.766 5.483 7.343 7.666 5.288 5.441 5.918 5.866 6.498 5.746 7.966 4.273 11.788 11.036 12.851 8.126 4.811 4.981 5.243 7.298 8.668 6.013 6.516 6.966 8.258 8.723 9.058 8.201 10.153 11.086 9.661 9.383 9.286 10.236 12.316 13.801 12.113 10.646 10.861 11.488 10.978 11.088 11.208 11.313 11.431 11.711 12.336 14.416 12.668 12.181 14.568 14.306 12.943 12.966 13.006 13.176 13.338 13.443 13.533 13.791 15.196 17.393 14.483 14.823 15.031 15.683 15.976 16.021 15.838 16.083 16.221 18.461 18.666 16.553 18.866 22.666 24.666 18.763 18.116 19.466 18.998 18.301 17.593 17.483 17.658 17.821 17.958 18.146 18.176 18.913 18.871 18.818 18.931 19.036 19.118 19.161 19.196 19.203 19.306 22.843 22.026 23.051 23.978 23.018 25.833 26.361 26.313 26.328 24.948 23.161 21.946 23.996 23.246 21.848 22.988 22.166 21.611 21.821 22.838 22.828 22.203 22.188 22.671 22.891 23.176 22.966 22.803 23.281 25.056 26.038 27.126 27.753 25.083 23.873 23.483 23.958 23.718 23.778 23.896 24.248 25.243 24.138 24.301 24.428 24.466 24.593 24.958 25.053 24.891 24.986 25.063 25.156 25.231 25.318 25.423 25.531 25.658 25.788 25.936 27.888 28.998 28.591 27.618 27.198 27.813 29.693 30.948 31.651 27.796 27.071 27.351 27.443 27.471 27.516 27.616 27.756 27.843 27.948 28.023 28.083 28.231 28.816 28.358 28.378 28.498 28.556 28.611 28.696 28.833 28.973 29.113 29.291 29.396 29.501 29.616 29.708 29.798 29.881 29.956 30.058 30.141 30.236 30.346 30.428 30.536 30.661 30.748 30.834 30.951 31.046 31.154 31.271 31.354 31.446 31.556 31.694 31.789 31.854 31.941 32.061 32.169 32.301 32.411 32.559 32.664 32.784 32.896 33.014 33.156 33.289 33.346 33.426 33.491 33.611 33.701 33.781 33.876 33.936 34.036 34.106 34.224 34.316 34.376 34.489 34.551 34.659 34.704 34.816 34.921 35.019 35.174 35.284 35.396 35.554 35.611 35.784 35.901 35.956 36.139 36.199 36.281 36.384 36.459 36.551 36.653 36.74 36.776 36.868 36.961 37.036 37.13 37.208 37.319 37.394 37.491 37.536 37.604 37.669 37.746 37.831 37.894 37.979 38.054 38.139 38.214 38.306 38.379 38.461 38.511 38.601 38.676 38.741 38.844 38.909 38.964 39.001 39.059 39.139 39.199 39.236 39.311 39.354 39.399 39.414 39.449 39.464 39.484 39.519 39.536 39.529 39.581 39.654 39.684 39.761 39.724 39.706 40.109 41.701 42.446 40.709 39.904 39.946 39.936 39.909 39.909 39.934 39.941 39.934 39.941 39.929 39.899 39.869 39.866 39.871 39.884 39.866 39.816 39.806 39.831 39.839 39.869 39.871 39.811 39.761 39.759 39.709 39.664 39.639 39.646 39.614 39.569 39.509 39.451 39.419 39.364 39.326
10.026 6.58 5.87 4.193 4.606 4.753 4.866 5.313 5.826 6.376 7.083 7.403 8.966 10.828 11.358 10.091 9.736 8.306 8.423 9.228 8.288 8.683 8.923 8.241 8.198 8.213 8.641 8.256 8.151 8.458 9.071 8.076 8.168 8.103 7.976 8.403 11.898 12.271 11.843 13.843 14.313 14.068 13.203 11.791 12.948 12.596 7.873 11.911 11.048 10.746 10.318 11.151 12.106 11.601 8.683 6.138 6.136 6.011 5.628 4.923 4.443 4.226 4.293 3.723 3.431 3.306 3.248 3.161 3.078 3.046 3.041 3.008 2.931 2.866 2.861 2.868 2.871 2.741 2.711 2.678 2.696 2.726 2.741 2.821 2.848 5.433 6.231 4.853 3.816 4.296 3.953 4.581 7.748 15.516 11.686 9.443 8.448 8.391 7.026 4.936 4.891 5.103 9.598 5.326 9.836 6.121 7.458 7.153 8.018 10.166 7.936 9.138 9.696 9.691 9.151 13.348 10.931 11.456 13.241 11.113 10.716 10.786 10.876 10.931 11.041 11.133 11.446 12.493 13.191 14.648 15.453 15.441 11.851 13.758 13.723 12.558 12.801 12.961 13.153 13.281 13.401 13.521 13.616 18.263 19.283 15.033 14.538 14.806 15.221 15.771 15.941 15.946 16.031 15.943 16.286 16.298 21.381 21.516 26.033 27.946 20.441 19.926 21.676 17.941 17.736 19.006 17.766 17.636 17.791 17.948 18.121 18.256 18.408 18.916 18.871 18.983 19.086 19.136 19.191 19.218 19.233 20.228 24.171 23.733 23.161 22.771 22.271 22.221 25.298 24.828 23.578 21.963 20.586 21.011 24.813 25.321 21.998 21.473 21.656 21.661 21.823 22.148 22.646 23.376 23.628 23.018 22.408 22.518 22.608 22.788 23.496 27.428 28.296 28.981 29.631 28.493 24.198 23.501 23.596 23.718 23.833 23.978 24.803 24.621 24.218 24.276 24.486 24.561 24.603 24.961 25.331 25.103 25.051 25.121 25.201 25.278 25.383 25.511 25.736 25.926 26.636 26.698 27.733 27.311 27.823 29.531 30.608 31.366 32.078 32.818 33.281 29.136 26.936 27.398 27.468 27.501 27.543 27.661 27.783 27.861 27.931 28.028 28.116 28.428 29.181 28.898 28.503 28.548 28.616 28.691 28.791 28.896 28.998 29.161 29.303 29.426 29.541 29.678 29.748 29.846 29.926 30.018 30.106 30.191 30.291 30.376 30.483 30.588 30.668 30.778 30.906 30.991 31.076 31.169 31.294 31.399 31.499 31.584 31.711 31.809 31.919 31.981 32.116 32.206 32.301 32.469 32.586 32.699 32.806 32.921 33.091 33.221 33.306 33.396 33.484 33.549 33.626 33.729 33.826 33.884 33.996 34.054 34.149 34.234 34.326 34.394 34.494 34.611 34.684 34.761 34.819 34.941 35.069 35.169 35.299 35.404 35.521 35.661 35.769 35.879 36.066 36.076 36.247 36.319 36.392 36.474 36.558 36.656 36.764 36.854 36.901 36.98 37.063 37.163 37.229 37.352 37.435 37.505 37.586 37.651 37.714 37.779 37.869 37.936 38.014 38.084 38.184 38.266 38.381 38.464 38.519 38.579 38.631 38.711 38.754 38.841 38.951 39.006 39.029 39.076 39.171 39.231 39.279 39.331 39.371 39.396 39.419 39.489 39.506 39.499 39.514 39.544 39.576 39.649 39.689 39.729 39.779 39.724 39.819 40.589 42.226 41.544 39.906 39.961 39.976 39.916 39.924 39.909 39.916 39.919 39.936 39.911 39.931 39.921 39.926 39.934 39.924 39.914 39.909 39.896 39.894 39.841 39.836 39.844 39.824 39.786 39.759 39.741 39.676 39.664 39.654 39.656 39.611 39.541 39.476 39.436 39.401 39.369 39.304
11.672 7.565 7.431 4.531 5.063 4.896 4.893 5.291 5.943 6.783 7.316 7.396 9.528 11.443 11.401 9.691 8.443 8.153 8.123 9.841 8.446 8.551 9.001 8.576 9.813 8.963 8.283 8.241 8.268 9.048 8.831 8.241 8.241 8.168 8.098 10.041 12.281 12.908 12.743 12.226 9.868 8.528 8.316 9.616 12.518 15.373 12.358 10.558 7.691 7.303 8.971 9.373 10.796 10.561 8.083 6.218 6.138 5.943 5.343 4.743 4.458 5.528 5.736 3.611 3.571 3.456 3.408 3.298 3.206 3.173 3.191 3.088 3.158 3.031 2.916 2.903 2.901 2.786 2.748 2.731 2.726 2.736 2.758 2.803 3.071 6.201 6.888 6.408 2.956 3.048 3.133 4.888 3.251 10.393 6.983 12.768 21.511 5.663 4.598 4.676 4.768 4.863 9.378 5.233 10.636 11.623 9.148 7.723 9.698 8.381 11.411 10.138 11.143 8.908 9.003 15.826 15.128 12.671 13.723 11.163 10.671 10.778 10.878 10.911 10.978 11.568 13.711 14.781 15.148 15.646 15.991 15.753 13.693 12.541 12.746 12.511 12.731 12.906 13.088 13.233 13.373 13.773 17.473 19.218 19.713 17.076 14.423 14.611 14.828 15.206 15.473 16.138 16.083 15.591 15.638 19.166 26.603 28.041 27.268 27.728 18.853 23.588 23.628 17.431 17.206 20.361 18.298 17.621 17.788 17.938 18.093 18.351 18.308 18.821 18.988 19.036 19.118 19.156 19.191 19.233 19.266 21.298 23.058 22.493 22.286 22.341 22.328 21.243 23.416 23.191 22.658 20.613 20.593 21.773 22.933 24.471 23.211 21.751 22.076 21.808 21.848 22.681 22.781 23.506 22.781 22.353 22.421 22.508 22.621 22.751 23.103 27.158 29.918 29.898 29.356 28.631 24.303 23.541 23.661 23.763 23.898 24.046 24.191 24.261 24.298 24.318 24.506 24.623 24.681 24.756 25.543 25.106 25.083 25.168 25.261 25.376 25.486 26.131 26.521 27.848 27.216 26.491 26.873 27.381 30.863 31.821 32.488 33.161 33.416 33.126 32.516 31.411 27.218 27.246 27.416 27.528 27.578 27.683 27.761 27.883 27.968 28.486 29.053 28.936 29.006 29.748 28.993 28.608 28.693 28.768 28.868 28.958 29.066 29.236 29.328 29.483 29.603 29.708 29.798 29.886 29.958 30.056 30.138 30.221 30.306 30.431 30.521 30.601 30.716 30.818 30.929 31.019 31.129 31.209 31.306 31.421 31.529 31.654 31.739 31.844 31.929 32.039 32.159 32.264 32.376 32.494 32.621 32.741 32.841 32.971 33.136 33.254 33.341 33.391 33.501 33.564 33.636 33.749 33.836 33.896 34.006 34.109 34.144 34.259 34.326 34.389 34.501 34.604 34.739 34.834 34.864 34.986 35.104 35.194 35.316 35.456 35.576 35.691 35.791 35.926 36.044 36.159 36.219 36.333 36.45 36.544 36.61 36.687 36.788 36.876 36.949 37.012 37.063 37.182 37.28 37.361 37.478 37.54 37.616 37.706 37.729 37.814 37.909 37.961 38.031 38.116 38.206 38.304 38.394 38.489 38.554 38.604 38.674 38.731 38.809 38.886 38.959 39.031 39.074 39.131 39.209 39.241 39.301 39.371 39.406 39.434 39.464 39.461 39.529 39.574 39.584 39.581 39.644 39.696 39.729 39.799 39.751 39.764 41.184 41.824 42.396 40.049 39.936 39.999 39.979 39.939 39.911 39.926 39.919 39.906 39.934 39.936 39.954 39.969 39.971 39.991 39.976 39.989 39.939 39.904 39.856 39.849 39.834 39.854 39.814 39.786 39.759 39.751 39.721 39.684 39.664 39.629 39.594 39.546 39.464 39.434 39.391 39.356 39.291
6.939 8.288 5.718 4.863 5.096 5.016 4.963 5.293 6.401 7.061 7.346 7.746 10.588 11.573 11.141 8.823 8.533 8.156 8.726 9.963 8.478 8.491 8.436 9.128 10.338 8.766 8.303 8.366 8.376 8.476 8.763 8.401 8.341 8.283 8.216 10.516 12.271 12.971 12.686 11.148 9.243 8.301 7.936 11.173 11.008 14.926 11.696 8.853 12.106 8.268 6.791 7.738 8.816 9.248 6.678 6.273 6.103 5.738 5.048 5.446 6.613 7.966 4.338 3.753 3.668 3.623 3.528 3.451 3.336 3.323 3.263 3.183 3.113 3.043 2.978 2.921 2.843 2.848 2.781 2.763 2.753 2.763 2.783 2.818 2.943 4.451 6.321 4.243 3.191 3.023 3.358 3.501 8.988 7.536 10.683 15.798 11.101 11.266 4.978 4.521 5.041 6.526 16.583 7.508 16.271 9.423 7.036 6.823 6.861 7.243 10.156 11.356 16.431 13.411 9.913 11.468 18.458 14.498 11.413 11.078 10.673 10.751 10.873 10.916 11.431 13.826 14.961 15.618 15.858 16.028 15.603 15.051 13.278 12.353 12.698 13.246 12.666 12.843 13.046 13.171 13.326 15.028 16.593 22.988 21.106 16.681 17.038 16.281 15.328 14.788 14.811 14.841 14.931 15.013 15.343 18.501 26.813 26.446 24.601 27.346 24.548 24.806 24.161 22.521 18.651 17.393 18.218 17.631 17.803 17.966 18.116 18.321 18.466 18.503 19.246 19.051 19.093 19.146 19.181 19.201 19.231 22.631 23.951 21.043 20.191 20.236 20.436 20.623 22.018 21.946 21.178 20.588 20.821 21.698 21.006 23.193 25.531 23.496 22.633 23.058 23.106 22.101 22.316 23.428 22.616 22.281 22.403 22.521 22.638 22.856 23.326 24.891 28.758 29.143 29.128 27.891 25.176 23.551 23.691 23.803 23.928 24.038 24.208 24.423 24.368 24.411 24.521 24.698 24.791 24.823 25.143 25.338 25.133 25.256 25.666 25.613 25.543 26.306 26.951 26.488 26.571 26.306 26.648 26.698 30.586 32.376 33.251 32.783 32.078 31.366 30.528 29.523 28.208 27.436 27.426 27.533 27.611 27.686 27.901 28.516 29.081 28.808 28.298 28.351 28.666 29.351 30.048 28.773 28.751 28.838 28.933 29.028 29.136 29.246 29.398 29.543 29.651 29.748 29.856 29.953 30.018 30.098 30.193 30.258 30.348 30.443 30.561 30.663 30.756 30.851 30.934 31.059 31.186 31.276 31.361 31.441 31.564 31.676 31.779 31.879 31.976 32.091 32.199 32.299 32.411 32.579 32.669 32.756 32.879 33.054 33.171 33.266 33.364 33.444 33.524 33.596 33.679 33.764 33.861 33.911 34.039 34.131 34.184 34.314 34.346 34.431 34.561 34.666 34.726 34.849 34.939 35.019 35.134 35.246 35.324 35.434 35.576 35.694 35.801 35.976 36.014 36.186 36.249 36.336 36.428 36.551 36.627 36.702 36.798 36.892 36.975 37.051 37.12 37.216 37.328 37.396 37.485 37.584 37.646 37.716 37.811 37.841 37.924 37.994 38.069 38.151 38.256 38.341 38.431 38.519 38.604 38.644 38.714 38.789 38.846 38.931 38.984 39.036 39.109 39.189 39.224 39.309 39.344 39.381 39.434 39.456 39.479 39.499 39.524 39.589 39.611 39.624 39.701 39.731 39.801 39.779 39.739 40.039 40.369 41.299 40.469 39.959 39.996 39.986 39.969 39.959 39.934 39.926 39.926 39.944 39.944 39.951 39.986 39.981 40.001 40.016 40.026 39.976 39.949 39.906 39.886 39.899 39.861 39.824 39.814 39.794 39.759 39.746 39.706 39.674 39.654 39.606 39.574 39.526 39.471 39.414 39.401 39.321 39.304
3.873 6.368 5.343 5.658 5.881 5.201 5.101 5.428 6.708 7.078 7.333 8.406 10.773 11.643 10.841 8.296 8.321 8.263 9.463 9.171 8.551 8.513 8.458 8.411 8.748 8.388 8.363 8.403 8.436 8.471 8.463 8.453 8.418 8.343 9.326 11.153 12.643 12.753 11.843 9.451 8.593 8.291 8.088 8.356 11.031 10.596 11.113 10.403 7.723 7.781 7.666 7.191 6.763 6.668 6.476 6.266 6.096 6.333 4.846 7.603 7.818 5.626 3.916 3.901 3.811 3.751 3.696 3.611 3.506 3.441 3.348 3.286 3.191 3.096 3.041 2.963 2.936 2.881 2.831 2.791 2.788 2.768 2.811 2.846 2.878 2.923 3.048 3.078 3.606 3.086 3.853 10.538 12.216 12.418 12.081 15.286 17.553 5.436 15.246 8.758 8.508 9.683 6.431 6.631 6.896 5.943 6.091 6.451 6.678 15.071 13.391 10.961 13.791 16.603 16.263 15.636 14.861 12.751 10.128 11.903 11.611 10.688 10.903 10.986 12.903 14.881 15.443 15.961 15.921 15.453 14.643 12.783 11.668 11.953 12.846 14.518 12.698 12.778 12.943 13.111 13.233 14.968 16.543 19.551 20.538 20.603 18.991 19.413 14.993 14.716 14.731 14.761 14.776 14.803 15.068 20.393 26.391 25.441 24.568 23.996 27.276 28.593 26.861 24.136 19.556 20.266 20.353 17.856 17.828 18.003 18.166 18.336 18.581 18.543 18.913 19.096 19.171 19.148 19.173 19.188 19.558 23.701 23.688 20.171 20.178 20.168 20.438 21.218 20.616 20.563 20.553 20.566 20.751 23.168 21.976 22.268 22.113 23.408 23.056 22.306 22.843 22.031 22.608 22.643 22.248 22.296 22.423 22.536 22.668 22.886 23.491 23.636 27.206 28.611 29.493 28.513 25.593 23.563 23.641 23.956 24.191 24.233 24.433 24.496 24.396 24.436 24.511 24.763 24.858 24.896 24.931 25.271 25.218 25.311 26.386 26.258 26.091 25.793 25.886 26.031 26.148 26.278 26.491 26.778 28.701 31.661 31.671 31.101 30.021 28.343 28.706 29.976 30.678 28.498 27.468 27.621 27.836 28.663 29.203 28.226 28.073 28.158 28.268 28.363 28.621 28.786 30.353 29.548 28.796 28.893 29.008 29.108 29.226 29.313 29.413 29.576 29.691 29.803 29.903 29.993 30.101 30.138 30.233 30.318 30.423 30.508 30.603 30.686 30.826 30.898 30.991 31.089 31.186 31.294 31.386 31.474 31.586 31.716 31.821 31.911 32.024 32.114 32.231 32.349 32.494 32.634 32.709 32.799 32.989 33.071 33.179 33.314 33.351 33.444 33.546 33.659 33.714 33.804 33.871 33.969 34.064 34.119 34.236 34.289 34.376 34.474 34.561 34.694 34.776 34.869 34.994 35.041 35.156 35.261 35.356 35.471 35.579 35.686 35.801 35.949 36.021 36.124 36.279 36.343 36.446 36.553 36.659 36.74 36.834 36.923 36.993 37.087 37.196 37.249 37.332 37.434 37.521 37.59 37.684 37.721 37.821 37.914 37.951 38.039 38.111 38.181 38.274 38.394 38.474 38.576 38.666 38.731 38.764 38.854 38.911 38.949 39.024 39.089 39.149 39.226 39.286 39.346 39.409 39.404 39.459 39.514 39.519 39.581 39.581 39.624 39.631 39.689 39.736 39.786 39.831 39.761 39.926 40.184 40.936 40.094 39.949 39.994 40.029 40.021 40.001 39.966 39.979 39.926 39.946 39.949 39.946 39.994 40.006 40.024 39.996 40.004 39.986 39.954 39.934 39.924 39.894 39.881 39.859 39.839 39.839 39.804 39.769 39.731 39.706 39.676 39.641 39.589 39.561 39.519 39.471 39.401 39.356 39.346 39.286
4.233 4.733 4.958 6.241 5.603 5.258 5.186 5.681 6.973 7.123 7.356 8.626 11.088 11.621 10.448 8.236 8.376 8.368 9.991 8.753 8.581 8.543 8.488 8.413 8.341 8.403 8.566 8.961 8.741 8.618 8.533 8.488 8.433 8.556 11.093 12.153 12.938 12.286 10.266 8.416 8.268 8.241 8.211 8.313 9.056 9.698 8.933 7.923 7.731 8.073 7.616 7.471 7.201 6.836 6.496 6.161 6.283 11.663 9.421 6.568 4.728 4.143 4.076 4.011 3.968 3.888 3.826 3.753 3.693 3.606 3.508 3.403 3.228 3.158 3.108 3.033 2.986 2.906 2.876 2.871 2.841 2.816 2.818 2.858 2.893 2.976 3.046 3.828 5.308 3.888 6.481 4.658 12.656 9.881 21.571 5.743 13.651 7.013 22.876 15.588 14.256 12.896 12.333 9.156 6.213 5.878 6.541 6.313 6.813 17.203 18.768 11.993 12.506 15.223 9.176 10.496 9.038 10.726 10.601 11.446 11.661 12.193 11.771 10.888 12.381 15.481 16.018 15.806 15.223 14.101 11.643 11.658 11.661 12.081 12.943 13.941 13.266 12.726 12.861 12.998 13.181 13.338 17.771 21.676 22.446 22.718 19.946 18.746 15.386 14.688 14.731 14.773 14.816 14.801 14.916 15.783 21.898 25.928 24.711 24.263 26.861 27.961 28.926 26.991 21.116 19.241 20.106 18.868 18.066 18.061 18.208 18.356 18.571 18.686 18.778 19.698 19.143 19.118 19.171 19.193 20.026 24.298 24.268 20.133 20.213 20.191 20.921 21.468 20.623 20.578 20.538 20.563 20.651 21.438 21.943 24.168 25.326 23.511 23.338 22.108 22.156 22.023 22.046 22.186 22.248 22.403 22.443 22.568 22.656 22.771 23.186 23.271 25.951 28.048 29.388 28.886 27.136 24.128 24.186 24.251 24.136 24.183 24.211 24.303 24.481 24.578 24.641 25.181 24.913 25.041 25.026 25.158 25.726 26.286 25.588 25.743 25.778 25.843 25.908 26.001 26.166 26.288 26.441 26.861 27.986 29.803 28.981 29.803 26.951 26.866 28.701 30.396 29.368 28.781 28.026 28.228 29.666 30.888 31.283 28.261 28.011 28.216 28.356 28.396 28.686 29.488 29.178 30.181 29.028 28.951 29.063 29.131 29.263 29.368 29.463 29.611 29.743 29.846 29.966 30.053 30.121 30.193 30.283 30.366 30.488 30.573 30.666 30.723 30.818 30.943 31.024 31.104 31.239 31.344 31.421 31.519 31.616 31.724 31.851 31.959 32.079 32.196 32.281 32.394 32.531 32.659 32.726 32.879 33.036 33.094 33.229 33.291 33.381 33.516 33.586 33.659 33.756 33.806 33.904 34.019 34.066 34.146 34.239 34.316 34.401 34.544 34.591 34.694 34.821 34.951 35.066 35.159 35.214 35.314 35.396 35.514 35.609 35.741 35.834 35.926 36.086 36.171 36.301 36.363 36.478 36.571 36.718 36.777 36.826 36.953 37.028 37.103 37.196 37.29 37.354 37.464 37.559 37.622 37.702 37.779 37.844 37.916 38.011 38.069 38.169 38.251 38.331 38.424 38.526 38.596 38.664 38.781 38.809 38.899 38.944 39.004 39.071 39.146 39.191 39.274 39.344 39.359 39.434 39.456 39.474 39.536 39.576 39.611 39.666 39.669 39.701 39.756 39.796 39.824 39.829 39.831 40.834 42.256 40.451 39.976 39.996 40.034 40.044 40.011 39.991 39.966 39.961 39.931 39.944 39.971 39.976 40.011 40.021 40.014 40.004 40.026 40.014 39.984 39.951 39.906 39.909 39.881 39.884 39.854 39.819 39.781 39.754 39.741 39.694 39.671 39.629 39.581 39.534 39.486 39.436 39.384 39.339 39.306 39.249
4.688 4.781 5.296 5.941 5.563 5.443 5.506 5.988 6.468 6.966 7.403 7.696 7.633 8.888 8.163 8.413 8.528 8.453 10.368 8.736 8.603 8.561 8.498 8.433 8.401 8.508 8.903 9.068 8.791 8.758 8.653 8.491 8.368 9.616 12.118 12.868 12.906 11.968 9.403 8.321 8.313 8.338 8.721 8.251 8.361 8.081 8.068 7.961 7.826 7.728 7.596 7.463 7.191 6.866 6.403 7.246 11.008 14.876 14.108 11.431 5.576 4.251 4.173 4.138 4.081 4.031 3.968 3.928 3.823 3.771 3.738 3.478 3.346 3.246 3.286 3.113 3.051 2.983 2.973 2.968 2.878 2.883 2.878 2.881 2.938 2.978 2.978 3.683 3.293 4.303 3.246 4.396 4.643 14.908 15.786 7.851 6.913 9.533 16.611 12.118 18.206 12.681 23.873 13.503 12.216 5.638 6.428 6.271 6.446 7.553 7.233 9.241 7.868 8.406 8.496 11.718 9.216 9.843 12.573 10.198 11.588 12.731 12.598 11.058 10.961 14.006 15.606 15.031 12.983 11.593 11.653 11.796 11.906 12.116 12.578 14.718 16.433 12.796 12.848 13.011 13.181 13.326 17.141 24.121 26.236 23.451 21.968 18.513 14.603 14.698 14.743 14.786 14.813 14.841 14.916 15.478 15.706 15.826 19.058 18.286 25.448 28.163 29.433 30.388 27.196 23.986 24.541 18.851 19.548 18.146 18.253 18.416 18.566 18.743 18.766 19.138 19.331 19.126 19.138 19.208 19.661 22.978 23.596 20.291 20.251 20.281 20.818 20.713 20.506 20.536 20.646 20.773 20.911 21.018 21.608 21.773 24.001 23.288 22.891 22.273 22.083 22.168 22.066 22.181 23.706 23.193 22.488 22.646 22.711 22.818 22.933 23.106 24.153 27.471 28.161 26.963 25.121 24.316 24.436 24.051 24.068 24.138 24.173 24.263 24.788 25.251 25.698 27.466 25.253 25.131 25.153 25.128 25.801 25.978 25.803 25.818 25.776 25.861 25.971 26.101 26.223 26.338 26.468 26.603 26.733 26.766 26.806 26.821 26.846 26.976 27.923 28.043 28.061 29.158 30.611 31.263 31.826 32.443 33.056 30.151 27.871 28.253 28.383 28.428 28.681 29.088 29.016 30.138 29.453 29.018 29.126 29.211 29.278 29.368 29.521 29.656 29.783 29.908 29.988 30.103 30.171 30.288 30.378 30.418 30.521 30.631 30.688 30.751 30.866 30.946 31.054 31.141 31.261 31.384 31.454 31.549 31.664 31.741 31.889 31.981 32.121 32.206 32.301 32.431 32.566 32.676 32.789 32.954 33.056 33.134 33.234 33.331 33.404 33.521 33.574 33.694 33.806 33.846 33.951 34.019 34.129 34.184 34.239 34.359 34.436 34.574 34.639 34.731 34.826 34.969 35.071 35.146 35.296 35.339 35.426 35.534 35.639 35.741 35.866 35.911 36.069 36.199 36.309 36.426 36.492 36.588 36.695 36.807 36.86 36.96 37.034 37.126 37.228 37.315 37.404 37.485 37.58 37.65 37.712 37.831 37.894 37.976 38.046 38.116 38.196 38.294 38.411 38.456 38.539 38.634 38.714 38.794 38.861 38.924 38.976 39.041 39.101 39.144 39.224 39.299 39.366 39.436 39.459 39.529 39.531 39.549 39.614 39.649 39.664 39.704 39.759 39.784 39.816 39.846 39.784 40.296 40.806 40.251 40.039 39.984 40.046 40.046 40.044 40.009 40.021 39.996 39.989 39.971 39.969 39.956 39.991 39.984 40.036 40.034 40.036 40.026 40.001 39.981 39.969 39.931 39.914 39.896 39.861 39.839 39.806 39.791 39.769 39.739 39.696 39.644 39.599 39.554 39.516 39.471 39.414 39.371 39.326 39.284 39.244
5.058 5.201 5.521 5.701 5.648 5.568 5.681 6.136 6.471 7.048 7.706 8.586 8.873 8.343 8.183 8.783 8.601 8.596 9.951 8.698 8.656 8.596 8.613 8.596 8.576 8.773 9.093 9.106 8.831 8.828 8.761 9.068 9.788 10.923 12.118 12.651 12.703 11.736 8.583 8.416 8.386 8.411 11.548 8.346 8.676 8.203 8.171 8.121 8.271 8.418 7.793 7.481 7.091 6.593 6.481 9.683 10.003 10.801 14.568 12.936 5.581 4.371 4.318 4.266 4.206 4.156 4.103 4.063 3.966 3.901 3.751 3.606 3.493 3.338 3.246 3.178 3.141 3.073 3.076 3.028 2.973 2.961 2.911 2.936 2.953 2.966 3.041 3.076 3.143 3.741 3.346 5.041 10.871 13.821 5.096 11.331 7.586 6.253 8.641 16.253 15.576 6.273 10.093 12.741 6.216 16.611 9.846 11.236 6.428 6.958 7.086 7.311 7.493 8.818 9.698 8.751 8.853 9.036 10.873 9.928 11.301 12.121 13.433 10.893 10.803 10.881 13.866 14.421 13.203 11.556 11.568 11.743 11.886 11.996 12.146 14.408 19.343 14.551 12.866 13.013 13.181 13.306 14.631 20.161 19.051 17.551 17.913 15.838 14.606 14.701 14.746 14.796 14.858 14.936 15.061 15.621 15.803 15.896 16.041 16.203 22.601 26.511 28.083 30.078 29.248 25.661 24.856 21.043 20.143 18.766 18.283 18.453 18.578 18.753 18.891 18.896 19.636 19.208 19.521 19.528 19.876 20.783 23.991 20.973 20.856 20.603 20.421 20.438 20.546 20.623 20.736 20.823 20.926 21.021 21.493 22.138 23.336 23.236 22.318 22.958 22.198 22.501 22.166 22.243 22.363 23.043 22.576 22.638 22.696 22.841 23.038 23.458 23.976 25.508 24.991 24.071 24.818 27.126 27.116 24.076 24.053 24.101 24.601 25.581 24.638 24.738 25.328 28.198 26.238 25.193 25.276 25.216 25.283 25.493 25.883 25.951 25.801 25.901 26.046 26.146 26.271 26.361 26.481 26.598 26.671 26.736 26.803 26.866 27.288 27.753 28.481 30.016 30.721 31.856 33.478 33.043 33.246 33.733 33.526 31.738 27.851 28.231 28.401 28.511 28.621 28.723 28.936 29.571 30.303 29.273 29.196 29.278 29.351 29.423 29.558 29.686 29.838 29.953 30.046 30.126 30.266 30.328 30.418 30.493 30.576 30.666 30.763 30.828 30.891 31.003 31.124 31.199 31.291 31.404 31.486 31.599 31.699 31.796 31.934 32.056 32.149 32.261 32.361 32.499 32.609 32.739 32.891 32.989 33.036 33.161 33.261 33.384 33.481 33.526 33.634 33.704 33.809 33.881 33.959 34.084 34.171 34.181 34.256 34.376 34.474 34.591 34.669 34.794 34.859 34.991 35.114 35.199 35.291 35.434 35.464 35.569 35.654 35.746 35.876 35.989 36.114 36.179 36.346 36.444 36.522 36.649 36.718 36.805 36.934 36.982 37.092 37.182 37.241 37.33 37.437 37.514 37.622 37.694 37.767 37.839 37.949 38.004 38.089 38.159 38.231 38.346 38.434 38.526 38.594 38.651 38.746 38.821 38.906 38.979 39.011 39.096 39.161 39.196 39.251 39.321 39.369 39.444 39.501 39.524 39.606 39.584 39.664 39.674 39.676 39.744 39.766 39.811 39.844 39.824 39.919 40.404 40.434 40.124 39.996 40.024 40.064 40.036 40.034 40.049 40.049 40.031 40.014 40.004 39.994 39.979 39.979 40.024 40.044 40.051 40.051 40.039 40.039 39.986 39.946 39.926 39.914 39.891 39.894 39.861 39.814 39.796 39.781 39.721 39.681 39.631 39.596 39.551 39.519 39.454 39.401 39.351 39.299 39.249 39.186
5.181 5.358 5.561 5.711 5.711 6.411 6.036 6.133 6.678 7.331 7.821 10.111 11.113 10.711 9.618 8.923 8.751 8.888 9.881 8.773 8.718 8.716 8.791 8.898 8.983 9.221 12.201 12.021 10.883 10.501 9.861 10.991 13.456 13.231 12.633 12.356 12.083 10.081 8.421 8.716 8.828 8.483 8.513 8.453 8.416 9.263 9.003 8.303 9.181 10.501 9.596 9.493 7.811 7.133 6.618 7.091 7.323 11.573 11.731 8.081 4.568 4.496 4.471 4.406 4.328 4.408 4.331 4.181 4.123 4.088 3.853 3.716 3.543 3.416 3.316 3.253 3.231 3.206 3.156 3.093 3.091 3.046 3.008 3.006 3.001 2.996 3.066 3.056 3.173 3.388 3.291 7.223 9.063 7.588 6.561 9.431 11.838 12.796 4.573 10.623 9.503 8.578 11.063 15.691 8.553 6.911 10.433 8.871 6.581 7.488 6.908 6.981 7.251 7.828 8.653 8.793 8.861 8.903 10.261 9.718 10.891 13.481 12.931 12.358 11.026 10.863 12.083 13.513 11.646 11.438 11.516 11.633 11.791 11.926 12.233 12.536 14.468 13.461 12.866 12.981 13.138 13.426 17.773 24.171 23.686 23.736 17.176 14.993 14.593 14.728 14.791 14.808 14.893 14.946 15.288 15.698 15.866 15.983 16.108 16.273 17.481 24.903 27.628 28.748 28.321 25.493 23.098 18.401 18.351 18.673 18.296 18.443 18.593 18.776 18.958 18.998 19.153 19.616 19.893 20.023 19.723 19.698 21.026 21.643 20.856 20.413 20.461 20.491 20.583 20.666 20.756 20.838 21.376 23.803 21.561 21.321 21.996 25.771 24.058 22.976 22.628 22.526 22.391 22.268 22.371 22.883 22.566 22.691 23.216 25.171 24.651 24.206 23.893 23.786 24.263 26.623 28.128 29.218 30.143 25.478 24.081 24.111 24.808 26.261 24.793 24.866 24.888 26.766 28.251 25.246 25.331 25.353 25.336 25.471 25.616 25.821 25.896 26.013 26.108 26.216 26.298 26.376 26.463 26.623 26.778 26.911 27.586 28.381 28.666 28.061 30.588 31.988 32.633 33.171 33.621 33.776 33.338 32.691 32.088 31.566 29.256 28.173 28.493 28.611 28.686 28.783 28.933 29.208 31.043 29.881 29.273 29.318 29.421 29.513 29.593 29.718 29.868 29.986 30.136 30.191 30.296 30.388 30.471 30.548 30.616 30.723 30.801 30.886 30.948 31.053 31.154 31.239 31.349 31.434 31.564 31.636 31.744 31.856 31.966 32.094 32.206 32.309 32.424 32.531 32.651 32.771 32.926 33.001 33.136 33.186 33.314 33.396 33.484 33.521 33.649 33.764 33.854 33.926 34.044 34.081 34.156 34.264 34.334 34.379 34.499 34.611 34.716 34.769 34.881 35.039 35.089 35.231 35.284 35.409 35.509 35.579 35.661 35.781 35.881 35.996 36.114 36.211 36.326 36.446 36.548 36.661 36.759 36.824 36.947 37.023 37.101 37.183 37.27 37.35 37.447 37.543 37.648 37.718 37.818 37.89 37.964 38.074 38.141 38.221 38.319 38.396 38.481 38.541 38.626 38.699 38.781 38.859 38.931 38.999 39.086 39.121 39.196 39.239 39.306 39.369 39.421 39.466 39.519 39.564 39.629 39.671 39.696 39.691 39.731 39.789 39.824 39.864 39.816 39.839 40.166 40.226 40.234 40.016 40.059 40.076 40.041 40.041 40.056 40.066 40.069 40.051 40.019 40.011 39.969 39.976 39.996 40.034 40.054 40.029 40.041 40.026 40.009 39.959 39.946 39.906 39.904 39.874 39.854 39.824 39.791 39.774 39.716 39.684 39.649 39.624 39.564 39.529 39.489 39.421 39.376 39.339 39.259 39.214 39.171
5.218 5.381 5.546 5.741 5.733 5.918 5.793 6.286 6.873 7.538 8.216 10.633 11.376 11.321 9.843 8.798 8.891 10.388 9.371 8.813 8.748 8.796 8.873 8.923 9.033 9.086 12.813 12.918 12.868 12.226 9.088 10.321 12.548 13.136 14.096 14.026 12.806 8.583 8.478 9.008 8.641 8.601 8.588 8.658 8.548 9.271 9.363 7.996 7.588 9.441 9.021 9.351 8.638 7.291 7.833 7.728 13.681 12.968 9.151 5.011 4.708 4.653 4.596 4.533 4.643 5.441 5.663 5.286 4.316 4.156 3.983 3.816 3.673 3.566 3.471 3.388 3.363 3.318 3.253 3.238 3.216 3.116 3.123 3.113 3.063 3.058 3.178 3.143 4.456 3.421 3.523 3.423 3.488 3.608 7.843 8.231 11.538 5.298 11.891 20.853 11.666 7.648 7.316 5.336 5.333 5.901 7.836 7.488 8.718 6.856 6.633 6.743 6.956 7.746 8.301 8.591 8.863 8.861 9.691 9.671 11.201 12.318 10.656 11.368 11.756 10.666 10.851 11.211 11.343 11.411 11.381 11.541 11.733 11.893 12.101 12.818 12.993 13.118 12.856 12.993 13.151 13.296 17.101 24.111 25.721 26.133 22.846 20.256 14.623 14.746 14.821 14.853 14.973 15.201 15.473 15.711 15.883 16.051 16.216 16.388 17.068 23.128 26.666 26.951 27.071 26.221 23.311 21.343 19.516 18.843 18.753 18.401 18.596 18.761 18.911 19.073 19.058 19.621 19.906 20.243 20.138 19.978 20.243 23.661 21.896 20.443 20.458 20.543 20.621 20.678 20.768 20.878 21.501 24.478 21.641 21.336 22.158 24.206 24.483 22.208 23.163 22.958 22.688 22.543 22.573 22.581 23.206 24.963 26.806 28.598 24.491 23.491 23.653 24.071 27.628 28.903 30.003 30.463 29.896 27.923 24.683 24.106 24.133 24.428 24.636 25.151 24.913 25.478 27.988 27.213 25.588 25.463 25.441 25.458 25.666 25.903 26.951 27.691 26.233 26.406 27.106 26.393 26.538 27.248 27.871 29.003 29.231 29.423 27.253 27.813 29.903 33.266 33.696 33.386 32.981 33.658 32.763 31.431 30.631 30.188 29.866 28.173 28.566 28.686 28.771 29.318 29.703 30.416 31.166 30.536 29.813 29.391 29.496 29.551 29.661 29.756 29.886 30.031 30.136 30.238 30.311 30.391 30.478 30.591 30.671 30.753 30.826 30.923 31.026 31.108 31.196 31.281 31.409 31.499 31.594 31.691 31.796 31.916 32.014 32.139 32.251 32.346 32.476 32.596 32.704 32.804 32.936 33.046 33.136 33.259 33.304 33.406 33.471 33.591 33.659 33.769 33.834 33.934 34.029 34.111 34.211 34.231 34.366 34.464 34.536 34.596 34.734 34.806 34.911 35.106 35.124 35.259 35.326 35.464 35.536 35.629 35.701 35.811 35.896 35.974 36.139 36.221 36.379 36.459 36.588 36.694 36.803 36.87 36.977 37.049 37.128 37.235 37.306 37.394 37.465 37.566 37.675 37.75 37.875 37.937 38.016 38.116 38.201 38.281 38.356 38.451 38.519 38.599 38.686 38.741 38.816 38.886 38.981 39.046 39.119 39.189 39.226 39.291 39.331 39.406 39.449 39.489 39.521 39.604 39.649 39.706 39.711 39.724 39.774 39.826 39.879 39.859 39.889 40.594 40.531 40.379 40.189 40.069 40.074 40.076 40.069 40.084 40.089 40.109 40.096 40.039 40.011 40.004 39.996 40.019 40.024 40.029 40.031 40.029 40.024 40.014 39.996 39.961 39.951 39.926 39.896 39.881 39.849 39.854 39.791 39.726 39.701 39.656 39.666 39.591 39.574 39.526 39.481 39.421 39.369 39.314 39.266 39.234 39.174
5.576 5.323 5.566 5.678 5.688 5.766 5.908 6.396 7.016 7.686 8.393 10.818 11.081 11.181 9.558 8.881 8.958 9.146 8.973 8.893 8.871 8.926 9.031 9.066 9.058 9.963 12.326 12.426 12.623 11.611 9.168 9.366 10.056 9.873 12.571 14.438 11.646 9.323 12.958 11.963 10.598 9.223 8.731 8.861 8.763 9.703 8.043 7.926 6.871 6.873 6.691 6.621 6.621 6.923 7.308 6.316 9.593 12.531 7.806 5.521 5.028 4.951 4.876 4.763 5.133 5.968 5.793 4.768 4.426 4.293 4.131 3.966 3.823 3.696 3.573 3.523 3.488 3.403 3.361 3.356 3.293 3.218 3.201 3.126 3.118 3.276 3.043 3.128 3.398 3.996 8.273 3.511 3.401 5.931 10.553 8.403 10.161 7.296 12.928 9.183 10.521 9.331 9.573 9.533 5.861 5.448 14.253 6.948 6.221 6.193 6.396 6.476 6.858 7.708 8.483 8.433 8.823 8.828 8.876 9.403 10.556 14.928 11.918 10.623 12.318 11.688 10.601 10.821 11.056 11.176 11.313 11.508 11.708 11.888 12.593 16.908 19.591 16.066 12.883 13.018 13.126 13.271 13.461 15.938 22.196 25.671 24.506 19.513 22.158 16.406 14.838 14.998 15.161 15.358 15.543 15.718 15.891 16.081 16.263 16.411 16.586 18.858 20.451 19.288 21.471 25.348 25.053 22.943 20.316 18.916 18.978 18.443 18.521 18.703 18.878 19.088 19.108 19.563 19.906 19.833 20.916 20.681 20.423 21.088 21.738 21.213 20.951 20.583 20.638 20.726 20.821 20.941 21.016 21.141 21.278 22.126 22.956 21.631 22.441 22.083 23.141 22.848 22.641 23.971 23.086 25.363 27.078 28.348 28.076 26.106 23.731 23.496 23.738 24.351 26.343 30.366 29.808 29.438 30.326 28.878 26.743 24.378 24.193 24.448 25.103 24.776 24.926 25.046 26.438 28.371 26.488 25.526 25.586 25.526 25.708 28.876 33.563 33.371 31.553 28.131 27.858 27.308 27.381 27.878 27.388 27.661 29.586 28.201 27.216 28.048 28.553 31.951 32.503 31.861 32.083 33.403 33.213 31.686 30.256 29.471 28.791 28.631 28.878 29.078 29.208 29.111 29.578 30.981 30.768 29.958 30.316 29.503 29.536 29.608 29.701 29.823 29.926 30.041 30.143 30.246 30.356 30.428 30.521 30.623 30.723 30.783 30.873 30.968 31.056 31.176 31.246 31.333 31.451 31.531 31.638 31.746 31.838 31.958 32.068 32.208 32.303 32.401 32.488 32.591 32.721 32.851 32.946 33.066 33.196 33.223 33.293 33.443 33.528 33.621 33.731 33.771 33.803 34.001 34.013 34.131 34.238 34.253 34.346 34.478 34.533 34.663 34.733 34.838 34.958 35.056 35.168 35.256 35.331 35.441 35.518 35.643 35.766 35.823 35.948 36.056 36.141 36.256 36.356 36.506 36.608 36.733 36.816 36.891 36.997 37.088 37.175 37.285 37.346 37.414 37.495 37.572 37.716 37.821 37.91 38 38.083 38.173 38.268 38.341 38.413 38.508 38.576 38.628 38.726 38.806 38.863 38.926 39.008 39.076 39.163 39.211 39.266 39.321 39.376 39.418 39.473 39.528 39.566 39.581 39.678 39.701 39.708 39.768 39.816 39.868 39.891 39.834 40.431 40.534 40.281 40.274 40.046 40.084 40.086 40.066 40.091 40.114 40.119 40.101 40.094 40.086 40.044 40.036 40.046 40.056 40.054 40.054 40.046 40.044 40.024 40.011 39.984 39.946 39.936 39.909 39.884 39.879 39.859 39.811 39.741 39.731 39.689 39.654 39.624 39.599 39.554 39.516 39.461 39.401 39.389 39.321 39.271 39.236 39.179
8.773 5.673 5.476 5.598 5.663 5.738 6.001 7.236 8.453 7.918 8.336 9.963 10.811 10.396 8.901 8.896 9.056 9.098 9.001 8.933 8.928 9.013 9.156 9.196 9.138 9.531 9.436 9.846 9.978 10.226 9.021 9.926 10.223 9.068 10.588 11.798 10.828 11.641 14.781 13.886 13.626 11.396 9.208 8.846 9.796 9.518 9.588 8.668 7.076 6.561 6.226 6.246 6.916 6.946 8.098 6.143 6.423 9.651 7.141 6.061 5.228 5.201 5.136 5.073 5.038 5.363 5.233 4.703 4.526 4.401 4.228 4.058 3.943 3.798 3.701 3.636 3.563 3.498 3.471 3.458 3.398 3.313 3.233 3.198 3.128 3.686 3.141 3.128 3.353 3.348 6.213 3.478 3.448 7.323 7.158 11.738 8.536 7.296 12.263 10.838 3.976 6.563 9.606 11.421 5.128 5.653 5.831 10.821 6.393 6.296 6.233 6.328 7.136 7.993 8.743 7.876 8.351 8.936 8.946 9.088 11.038 13.651 11.663 10.776 11.886 12.103 11.291 10.761 10.941 11.056 11.248 11.453 11.658 11.858 13.003 20.011 22.488 19.856 13.733 13.006 13.138 13.256 13.408 13.581 17.028 24.358 23.088 18.111 14.623 14.643 14.843 14.988 15.178 15.351 15.521 15.696 15.873 16.076 16.263 16.438 17.113 17.168 16.931 17.056 17.193 19.138 25.893 20.208 25.628 19.451 19.893 20.541 18.526 18.676 18.838 19.041 19.263 19.268 19.876 21.241 20.003 20.048 20.138 23.713 26.206 21.056 21.176 20.798 20.643 20.743 20.858 20.973 21.123 21.246 21.326 21.423 22.321 21.676 22.561 23.308 24.011 23.846 24.786 25.148 25.673 28.493 25.928 24.928 23.996 24.523 23.423 23.431 23.498 23.878 24.453 28.013 28.546 28.208 30.041 29.796 27.791 24.946 24.431 24.858 24.646 24.986 24.961 25.063 25.131 27.588 27.436 25.761 25.703 25.638 25.856 33.071 34.573 34.731 33.353 26.676 26.741 26.901 26.831 26.893 26.938 27.546 28.076 27.563 27.266 27.616 27.823 30.518 30.776 30.253 32.276 33.391 33.223 30.338 29.241 28.468 29.016 28.968 29.128 29.293 29.736 29.953 29.646 29.803 29.528 29.463 30.651 29.898 29.578 29.668 29.746 29.841 29.958 30.081 30.176 30.283 30.406 30.488 30.566 30.658 30.748 30.818 30.898 31.008 31.106 31.238 31.273 31.391 31.486 31.578 31.666 31.793 31.881 31.978 32.091 32.228 32.328 32.421 32.541 32.693 32.793 32.946 32.958 33.086 33.186 33.281 33.376 33.446 33.543 33.666 33.686 33.758 33.891 33.963 34.053 34.146 34.193 34.288 34.408 34.478 34.598 34.681 34.763 34.861 35.056 35.106 35.168 35.306 35.358 35.481 35.573 35.673 35.796 35.886 35.963 36.128 36.161 36.308 36.423 36.561 36.618 36.752 36.845 36.94 37.054 37.112 37.195 37.306 37.384 37.426 37.532 37.604 37.714 37.849 37.954 38.046 38.143 38.256 38.338 38.428 38.508 38.573 38.616 38.681 38.741 38.838 38.913 38.968 39.036 39.123 39.163 39.238 39.321 39.371 39.413 39.456 39.498 39.556 39.603 39.616 39.681 39.701 39.778 39.831 39.838 39.873 39.874 39.836 40.206 40.364 40.651 40.304 40.091 40.114 40.086 40.124 40.131 40.139 40.141 40.124 40.126 40.121 40.096 40.094 40.099 40.094 40.084 40.056 40.059 40.026 40.001 39.976 39.951 39.901 39.904 39.876 39.869 39.839 39.819 39.799 39.744 39.726 39.679 39.621 39.621 39.601 39.549 39.509 39.491 39.416 39.359 39.329 39.271 39.226 39.184
9.016 6.666 5.463 5.791 5.603 5.736 6.528 11.036 12.293 11.961 10.881 10.538 9.528 9.336 8.968 9.051 9.116 9.096 9.078 9.023 9.008 9.111 9.203 9.246 10.656 10.231 9.476 9.208 9.231 9.171 9.176 9.216 9.296 9.178 9.068 9.343 10.438 10.171 11.106 12.096 14.046 12.123 9.186 9.076 11.108 9.796 10.918 11.383 6.278 6.161 6.113 6.251 6.461 8.513 9.948 7.573 5.563 5.768 5.676 5.668 5.368 5.393 5.513 5.296 5.146 5.046 4.938 4.768 4.638 4.528 4.411 4.198 4.056 3.911 3.846 3.781 3.696 3.623 3.593 3.551 3.498 3.398 3.356 3.331 3.258 3.156 3.186 3.438 3.433 3.873 5.188 3.521 3.493 9.683 7.793 11.321 5.551 6.988 9.363 8.096 5.323 7.598 7.391 5.673 7.186 6.218 5.791 7.361 9.061 6.253 6.081 6.298 7.246 7.801 7.483 7.708 8.353 8.766 8.903 8.961 9.321 13.343 11.068 10.368 12.101 11.151 12.803 10.748 10.936 11.013 11.241 11.421 11.646 11.811 11.921 16.163 19.081 21.606 15.946 12.963 13.133 13.273 13.386 13.548 15.058 20.313 16.606 15.918 14.803 14.718 14.783 14.993 15.166 15.346 15.521 15.683 15.868 16.088 16.286 16.436 16.661 16.956 16.908 17.158 18.498 17.376 22.031 28.248 29.301 25.613 20.151 23.796 20.438 18.646 18.833 19.043 19.306 19.318 19.608 21.148 20.331 20.478 20.218 21.851 26.748 23.838 21.698 21.713 20.676 21.851 21.008 21.011 21.118 21.251 21.383 21.443 21.548 21.758 23.511 25.078 24.898 25.643 26.056 25.048 25.291 27.418 24.121 24.683 24.838 24.408 23.678 23.621 23.706 23.596 24.091 25.383 25.023 26.506 29.246 30.381 28.893 26.673 24.418 24.951 24.368 24.848 24.991 25.173 27.941 30.728 29.991 26.498 25.706 25.786 25.736 30.051 33.418 32.741 28.453 26.566 26.578 26.673 26.936 26.923 26.983 27.051 27.111 27.211 27.281 27.366 27.428 28.311 27.873 28.418 28.913 29.258 28.748 29.376 28.966 29.066 31.876 31.841 28.721 29.481 29.353 29.026 29.163 29.286 29.393 29.483 30.496 30.908 29.643 29.743 29.831 29.908 29.973 30.088 30.206 30.303 30.426 30.518 30.603 30.688 30.768 30.881 30.933 31.028 31.116 31.236 31.341 31.416 31.523 31.628 31.733 31.816 31.911 32.026 32.141 32.256 32.363 32.481 32.608 32.788 32.878 32.921 33.018 33.143 33.228 33.316 33.453 33.478 33.551 33.733 33.751 33.833 33.946 34.016 34.098 34.186 34.256 34.331 34.423 34.523 34.606 34.703 34.818 34.896 34.981 35.128 35.201 35.271 35.416 35.503 35.623 35.726 35.798 35.933 36.068 36.138 36.226 36.308 36.426 36.546 36.676 36.767 36.878 36.961 37.063 37.15 37.234 37.293 37.393 37.467 37.556 37.671 37.748 37.857 37.97 38.097 38.2 38.283 38.401 38.493 38.556 38.626 38.646 38.696 38.818 38.876 38.948 39.031 39.063 39.128 39.223 39.263 39.341 39.406 39.446 39.466 39.511 39.533 39.583 39.668 39.701 39.711 39.798 39.848 39.876 39.868 39.844 40.036 41.511 40.571 40.846 40.084 40.136 40.146 40.131 40.151 40.134 40.151 40.139 40.136 40.146 40.144 40.136 40.126 40.106 40.096 40.081 40.046 40.039 39.994 39.989 39.959 39.909 39.901 39.861 39.859 39.854 39.844 39.809 39.779 39.739 39.701 39.664 39.629 39.616 39.581 39.544 39.536 39.464 39.446 39.366 39.316 39.271 39.206 39.156
