ncols 436
nrows 32
xllcorner    455018
yllcorner    88484
cellsize     2
NODATA_value -9999
39.87 39.913 39.96 40.015 40.075 40.11 40.155 40.255 40.298 40.438 40.37 40.638 40.485 40.505 40.583 40.668 40.685 40.715 40.73 40.703 40.705 40.703 40.715 40.745 40.763 40.76 40.763 40.788 40.79 40.78 40.793 40.798 40.83 40.82 40.838 40.89 40.92 40.923 40.963 40.995 41.053 41.055 41.043 41.045 41.03 41 40.99 40.965 40.97 40.958 40.993 40.988 40.99 41.003 41.023 41.04 41.065 41.103 41.148 41.188 41.203 41.195 41.195 41.2 41.185 41.213 41.208 41.21 41.22 41.213 41.195 41.195 41.207 41.219 41.192 41.174 41.174 41.168 41.157 41.164 41.139 41.117 41.105 41.106 41.06 41.077 41.06 41.01 40.955 40.893 40.893 41.375 41.1 40.788 41.078 41.36 42.1 40.868 40.538 40.495 40.51 40.488 40.488 40.493 40.435 40.37 40.3 40.238 40.218 40.215 40.195 40.183 40.165 40.143 40.118 40.113 40.093 40.048 40.015 40.005 39.975 39.95 39.938 39.915 39.87 39.838 39.818 39.785 39.758 39.7 39.693 39.655 39.625 39.563 39.53 39.49 39.443 39.413 39.358 39.3 39.243 39.188 39.135 39.115 39.035 38.985 38.928 38.873 38.845 38.755 38.715 38.59 38.528 38.485 38.425 38.378 38.313 38.273 38.208 38.153 38.053 37.96 37.893 37.768 37.68 37.6 37.475 37.355 37.263 37.13 37.018 36.895 36.788 36.643 36.515 36.413 36.268 36.163 36.07 35.938 35.825 35.683 35.568 35.415 35.293 35.153 35.008 34.86 34.73 34.605 34.498 34.35 34.23 34.058 33.905 33.8 33.683 33.57 33.488 33.363 33.268 33.195 33.173 33.233 33.17 33.11 33.058 33.058 33.233 33.395 33.528 33.86 34.128 34.03 34.753 34.905 35.418 34.84 35.245 39.3 41.238 37.658 43.57 43.77 39.433 35.693 37.238 42.495 36.61 42.84 39.84 37.008 36.233 36.31 36.38 36.3 37.07 36.393 36.388 36.373 36.475 36.493 36.398 36.318 36.458 36.778 37.488 36.335 36.855 36.233 36.195 37.82 38.328 37.143 37.563 38.135 38.203 36.318 36.795 36.045 35.925 35.693 35.603 35.978 35.443 35.415 35.465 35.485 35.685 35.363 35.163 35.113 35.108 34.943 34.878 34.855 35.04 34.76 35.158 35.983 35.078 34.453 34.343 34.19 34.165 34.04 34.463 35.638 34.055 33.725 33.78 33.775 33.898 33.615 33.293 33.393 33.188 33.148 33.328 32.965 32.793 32.643 32.715 32.503 32.36 32.268 32.048 33.128 34.423 33.978 35.795 31.89 36.418 38.208 33.878 30.8 30.424 30.278 30.049 29.977 29.627 30.291 33.089 35.985 33.898 30.62 28.441 28.152 27.975 27.744 27.557 27.647 27.391 27.166 26.632 26.603 26.321 27.027 29.422 30.355 34.527 35.839 31.93 29.694 25.068 24.833 25.332 25.737 25.282 26.289 28.96 32.182 30.672 26.207 26.19 26.383 26.611 26.757 26.943 27.14 27.298 27.5 27.688 27.863 28.09 28.323 28.588 28.84 29.073 29.318 29.52 29.68 29.848 30.035 30.168 30.29 30.38 30.52 30.6 30.665 30.725 30.763 30.795 30.815 30.853 30.92 30.955 30.938 30.893 30.865 30.818 30.833 30.77 30.718 30.703 30.67 30.633 30.653 30.635 30.65 30.715 30.84 31.44 33.518 35.023 34.033 30.758 30.565 30.478 30.478 30.44 30.465 30.425 30.395 30.393 30.37 30.31 30.25 30.23 30.2 30.138 30.125 30.103 30.053 30.028 30.005 30.015 29.99 29.975 29.913 29.863 29.835 29.77 29.715 29.708 29.623
40 39.958 40.02 40.055 40.113 40.145 40.213 40.265 40.295 40.373 40.418 40.478 40.513 40.578 40.608 40.725 40.79 40.8 40.8 40.723 40.723 40.75 40.775 40.813 40.81 40.805 40.833 40.843 40.828 40.85 40.868 40.873 40.908 40.883 40.898 40.93 40.983 40.993 41.033 41.088 41.095 41.108 41.115 41.11 41.105 41.078 41.075 41.05 41.025 41.038 41.07 41.073 41.068 41.085 41.118 41.13 41.158 41.185 41.22 41.235 41.265 41.268 41.268 41.273 41.275 41.29 41.308 41.325 41.298 41.285 41.288 41.268 41.261 41.263 41.258 41.227 41.231 41.233 41.217 41.208 41.203 41.182 41.154 41.139 41.133 41.119 41.11 41.088 41.023 40.963 40.933 41.643 41.203 40.913 41.223 41.6 41.593 40.715 40.598 40.6 40.575 40.563 40.605 40.57 40.518 40.48 40.403 40.315 40.32 40.313 40.278 40.293 40.258 40.2 40.203 40.208 40.173 40.113 40.118 40.1 40.07 40.048 40.023 39.98 39.945 39.913 39.888 39.89 39.833 39.8 39.778 39.715 39.695 39.653 39.643 39.595 39.553 39.525 39.47 39.395 39.35 39.32 39.26 39.2 39.148 39.103 39.035 38.988 38.905 38.833 38.75 38.68 38.588 38.508 38.45 38.38 38.335 38.31 38.235 38.15 38.088 37.975 37.873 37.785 37.693 37.598 37.478 37.383 37.283 37.145 37.033 36.923 36.79 36.655 36.513 36.388 36.255 36.145 36.055 35.925 35.813 35.69 35.543 35.403 35.27 35.125 35.005 34.868 34.733 34.57 34.45 34.358 34.22 34.088 33.973 33.803 33.663 33.56 33.49 33.388 33.28 33.213 33.23 33.253 33.203 33.17 33.11 33.158 33.315 33.378 33.49 33.615 33.703 34.028 34.105 35.903 34.618 34.523 34.963 35.945 36.098 36.938 43.01 42.378 38.478 35.69 35.828 41.058 36.243 37.36 41.043 37.365 36.338 36.383 36.455 36.49 37.375 37.14 36.448 36.785 36.433 36.51 36.443 36.863 37.928 38.628 36.453 36.753 36.345 36.523 37.968 37.303 39.785 37.698 36.535 36.343 37.79 37.648 37.48 37.003 36.205 35.775 35.66 35.653 35.538 35.575 35.508 35.485 35.693 35.503 35.22 35.165 35.098 35.12 36.58 35.018 35.44 35.125 34.625 34.988 34.903 35.358 34.328 34.395 34.205 34.17 34.728 37.808 34.02 33.935 34.543 33.788 34.143 33.67 34.283 34.618 33.433 32.9 32.958 33.375 32.923 32.773 32.51 32.483 33.283 31.983 31.895 34.658 32.795 37.11 32.978 32.115 36.588 39.18 36.893 30.674 30.533 30.361 31.604 30.248 29.71 30.2 29.63 34.615 31.606 31.607 28.391 28.223 28.017 27.719 32.581 28.883 27.361 27.685 26.523 26.76 26.195 26.171 26.272 27.181 36.179 26.069 32.957 29.414 25.842 24.706 25.497 26.228 25.457 26.389 28.923 30.57 29.511 26.993 26.278 26.389 26.613 26.794 27.005 27.188 27.375 27.578 27.785 27.975 28.18 28.408 28.703 28.958 29.153 29.418 29.593 29.793 29.94 30.155 30.263 30.405 30.528 30.615 30.693 30.778 30.845 30.885 30.905 30.965 30.993 31.028 31.058 31.068 31.038 30.99 30.97 30.953 30.898 30.85 30.825 30.775 30.743 30.745 30.748 30.745 30.823 30.918 30.985 31.183 31.45 31.353 30.75 30.66 30.56 30.518 30.515 30.575 30.543 30.475 30.475 30.448 30.393 30.355 30.313 30.308 30.245 30.193 30.178 30.145 30.11 30.103 30.105 30.043 30.038 30.015 29.938 29.895 29.83 29.8 29.755 29.678
39.963 39.998 40.048 40.103 40.15 40.215 40.268 40.315 40.338 40.405 40.475 40.563 40.595 40.635 40.693 40.77 40.795 40.838 40.868 40.805 40.798 40.795 40.823 40.833 40.825 40.88 40.88 40.89 40.9 40.908 40.923 40.965 40.95 40.933 40.955 41.008 41.028 41.058 41.113 41.153 41.183 41.203 41.215 41.198 41.178 41.183 41.158 41.138 41.118 41.095 41.143 41.168 41.145 41.15 41.175 41.18 41.228 41.275 41.305 41.345 41.35 41.365 41.345 41.355 41.373 41.37 41.375 41.353 41.345 41.368 41.34 41.355 41.328 41.324 41.337 41.303 41.311 41.299 41.289 41.277 41.294 41.272 41.26 41.22 41.208 41.201 41.212 41.145 41.095 41.073 41.043 41.598 40.995 41.018 41.453 42.155 41.51 40.76 40.698 40.7 40.675 40.683 40.705 40.675 40.59 40.53 40.465 40.413 40.4 40.413 40.353 40.335 40.318 40.31 40.29 40.265 40.235 40.235 40.21 40.155 40.128 40.113 40.105 40.055 40.038 39.993 39.978 39.95 39.915 39.895 39.855 39.803 39.75 39.703 39.675 39.68 39.648 39.595 39.535 39.515 39.445 39.403 39.358 39.293 39.213 39.185 39.125 39.063 38.995 38.925 38.838 38.77 38.675 38.608 38.538 38.465 38.395 38.34 38.303 38.198 38.118 38.018 37.935 37.8 37.73 37.615 37.493 37.36 37.275 37.183 37.068 36.928 36.755 36.62 36.495 36.36 36.268 36.155 36.038 35.928 35.815 35.705 35.568 35.413 35.263 35.133 35.015 34.903 34.735 34.6 34.445 34.348 34.233 34.1 34 33.865 33.71 33.553 33.438 33.37 33.295 33.233 33.205 33.213 33.248 33.215 33.205 33.183 33.265 33.318 33.425 33.55 33.708 33.878 34.165 34.458 34.723 34.875 37.395 35.068 35.45 35.873 39.608 39.805 36.225 35.855 35.99 38.76 37.003 36.56 37.333 37.065 36.433 36.49 36.553 36.623 36.578 36.58 36.6 36.783 36.563 36.613 37.083 36.963 37.198 38.96 38.47 37.375 36.615 36.598 37.1 36.933 37.873 37.585 38.335 37.9 37.53 39.593 38.278 37.248 35.975 35.918 36.085 36.108 36.268 36.013 35.72 35.888 35.93 36.055 35.813 35.368 35.76 35.675 35.228 35.963 35.36 35.16 35.21 35.168 35.258 35.065 36.093 34.463 34.723 34.813 34.368 34.375 34.218 34.445 33.563 34.14 33.948 33.72 34.42 34.368 33.69 33.168 33.193 32.733 33.488 32.538 32.268 32.125 32.03 31.92 31.863 32.468 32.355 31.618 32.548 35.34 37.865 38.76 33.013 31.991 30.556 30.341 30.013 29.818 29.616 29.37 29.895 33.625 33.595 28.966 34.79 33.367 29.991 30.031 35.714 32.516 27.076 26.787 26.544 26.328 26.215 26.029 25.826 25.583 26.891 25.512 29.888 27.768 25.706 24.53 25.69 25.885 25.67 25.68 25.689 25.934 26.595 26.966 26.544 26.465 26.604 26.886 27.125 27.25 27.433 27.648 27.873 28.068 28.243 28.48 28.778 29.053 29.253 29.488 29.73 29.875 30.045 30.225 30.375 30.52 30.628 30.725 30.785 30.86 30.938 30.978 31.015 31.06 31.113 31.133 31.158 31.168 31.123 31.105 31.078 31.04 30.985 30.975 30.963 30.9 30.848 30.848 30.845 30.848 30.95 30.955 31.088 31.33 31.748 31.075 30.778 30.698 30.678 30.645 30.623 30.66 30.643 30.598 30.578 30.535 30.475 30.428 30.395 30.388 30.328 30.275 30.24 30.235 30.21 30.173 30.158 30.095 30.08 30.073 30.015 29.958 29.938 29.895 29.82 29.768
39.998 40.02 40.123 40.16 40.19 40.28 40.313 40.345 40.388 40.483 40.533 40.628 40.655 40.703 40.725 40.843 40.878 40.898 40.98 40.895 40.84 40.835 40.898 40.895 40.915 40.955 40.973 40.978 40.965 40.97 40.98 41.013 41 41 41.028 41.098 41.105 41.145 41.185 41.21 41.255 41.295 41.3 41.27 41.255 41.26 41.228 41.238 41.198 41.165 41.198 41.228 41.223 41.253 41.288 41.298 41.3 41.348 41.35 41.435 41.438 41.453 41.433 41.418 41.458 41.43 41.445 41.445 41.445 41.435 41.41 41.428 41.415 41.426 41.41 41.402 41.411 41.388 41.369 41.358 41.362 41.352 41.304 41.297 41.278 41.288 41.257 41.205 41.158 41.12 41.275 41.813 41.13 41.235 41.505 42.358 41.698 40.82 40.805 40.795 40.758 40.765 40.785 40.75 40.665 40.618 40.538 40.503 40.503 40.463 40.428 40.43 40.393 40.383 40.398 40.34 40.343 40.358 40.275 40.243 40.205 40.185 40.178 40.1 40.12 40.075 40.045 40.038 39.998 39.953 39.885 39.88 39.825 39.81 39.743 39.755 39.688 39.643 39.62 39.545 39.505 39.46 39.395 39.328 39.263 39.23 39.193 39.115 39.04 38.98 38.87 38.813 38.755 38.683 38.605 38.538 38.448 38.405 38.345 38.285 38.175 38.07 37.988 37.888 37.768 37.655 37.545 37.415 37.318 37.183 37.048 36.903 36.76 36.62 36.475 36.358 36.253 36.138 36.013 35.9 35.76 35.648 35.528 35.385 35.245 35.125 35.003 34.915 34.803 34.603 34.478 34.368 34.253 34.138 34.01 33.91 33.763 33.613 33.465 33.383 33.305 33.265 33.223 33.238 33.253 33.235 33.248 33.253 33.288 33.39 33.485 33.61 33.698 33.92 34.16 34.38 34.635 34.855 38.485 35.713 36.068 36.523 40.848 36.513 35.988 36.683 36.753 37.173 39.018 36.81 36.753 36.805 38.095 40.918 37.208 36.705 36.958 38.303 39.163 37.288 36.79 36.635 38.163 38.685 37.223 37.278 36.885 37.278 36.753 36.818 36.76 37.665 38.015 37.593 37.963 38.523 39.223 38.928 37.745 37.963 38.045 37.218 36.115 35.828 39.078 35.735 36.238 35.613 35.68 36.625 37.19 36.073 36.05 35.475 35.888 35.263 35.938 35.318 35.845 35.785 35.12 35.168 36.218 35.155 34.53 34.705 34.33 34.408 34.033 33.853 34.595 34.265 33.6 33.36 33.23 33.045 32.953 32.808 32.7 32.62 32.57 32.373 32.218 32.083 31.998 31.928 31.855 31.77 31.751 31.646 34.671 39.804 40.485 41.773 42.487 36.123 30.535 30.225 30.04 30.075 29.648 29.41 30.111 30.063 30.86 39.63 38.034 37.308 32.467 34.84 35.501 33.295 28.26 26.818 26.677 28.494 26.232 26.031 25.813 26.169 25.488 25.731 27.931 28.485 27.888 24.71 29.156 27.532 25.767 26.138 27.623 26.187 26.295 26.839 26.802 26.569 26.707 26.909 27.168 27.363 27.568 27.755 27.94 28.143 28.353 28.58 28.87 29.125 29.363 29.575 29.818 29.97 30.173 30.36 30.488 30.63 30.753 30.818 30.905 30.963 31.065 31.113 31.13 31.183 31.213 31.26 31.288 31.25 31.218 31.21 31.193 31.16 31.118 31.075 31.058 31.013 30.968 30.97 30.91 30.9 31.033 31.103 31.16 31.633 32.528 32.508 30.785 30.78 30.775 30.745 30.72 30.738 30.728 30.705 30.678 30.623 30.575 30.52 30.493 30.468 30.428 30.365 30.328 30.308 30.285 30.268 30.238 30.22 30.19 30.18 30.105 30.055 30.02 29.97 29.955 29.853
40.005 40.083 40.125 40.183 40.245 40.293 40.363 40.45 40.53 40.53 40.56 40.643 40.693 40.84 40.755 40.865 40.925 40.955 40.995 40.953 40.915 40.898 40.93 40.95 41.005 41.02 41.035 41.013 41.028 41.053 41.098 41.09 41.08 41.103 41.088 41.17 41.183 41.228 41.275 41.295 41.355 41.36 41.345 41.365 41.335 41.315 41.313 41.31 41.3 41.27 41.258 41.285 41.323 41.333 41.33 41.363 41.385 41.4 41.44 41.478 41.505 41.508 41.51 41.518 41.525 41.528 41.52 41.518 41.505 41.518 41.548 41.52 41.49 41.507 41.486 41.475 41.477 41.457 41.443 41.448 41.43 41.426 41.388 41.354 41.354 41.358 41.327 41.281 41.232 41.24 41.308 41.35 41.093 41.523 42.103 42.283 41.07 40.898 40.878 40.838 40.853 40.86 40.86 40.818 40.748 40.683 40.625 40.59 40.58 40.553 40.518 40.508 40.473 40.478 40.433 40.42 40.423 40.393 40.37 40.315 40.325 40.295 40.243 40.223 40.178 40.125 40.113 40.115 40.09 40.01 39.988 39.975 39.9 39.838 39.805 39.783 39.738 39.68 39.625 39.608 39.545 39.488 39.445 39.383 39.338 39.265 39.213 39.163 39.073 38.975 38.893 38.835 38.778 38.688 38.65 38.585 38.503 38.453 38.393 38.313 38.223 38.113 38.018 37.908 37.803 37.683 37.558 37.448 37.33 37.193 37.085 36.945 36.81 36.655 36.495 36.378 36.268 36.153 36.048 35.948 35.808 35.655 35.553 35.383 35.273 35.11 34.98 34.888 34.785 34.678 34.52 34.393 34.243 34.145 34.048 33.923 33.785 33.708 33.538 33.43 33.318 33.273 33.278 33.248 33.25 33.23 33.223 33.278 33.338 33.428 33.54 33.695 33.848 33.98 34.178 34.388 34.63 34.915 36.295 37.93 37.303 37.203 37.413 36.793 37.218 37.79 37.01 37.4 36.528 36.658 37.008 37.615 37.17 40.22 38.48 39.568 37.153 38.405 37.075 37.013 36.92 36.9 39.765 42.185 36.855 37.08 37.133 37.363 36.875 36.608 36.693 36.863 36.84 36.768 36.885 37.223 38.37 37.775 37.625 37.503 37.318 36.828 36.265 36.038 37.81 40.883 37.585 35.538 37.725 35.318 35.353 35.373 35.368 35.39 35.323 35.128 37.18 36.198 35.143 34.865 34.835 34.548 34.878 34.513 34.545 34.15 33.948 33.82 33.758 33.645 33.54 33.435 33.393 33.23 33.14 33.045 32.915 32.803 32.653 32.543 32.46 32.345 32.225 32.115 31.98 31.958 31.802 31.793 31.78 31.86 40.233 41.284 41.469 45.148 43.514 41.548 32.933 30.145 29.992 29.758 30.216 29.408 29.288 29.875 36.907 36.867 38.872 40.737 33.858 29.215 28.463 27.547 29.977 26.904 28.311 28.541 30.269 27.844 25.812 26.17 25.719 26.098 27.579 24.774 25.015 25.997 25.611 26.693 27.28 26.474 29.611 28.445 26.242 26.401 29.013 26.806 26.773 27.015 27.2 27.375 27.608 27.818 28.013 28.26 28.453 28.675 28.94 29.208 29.445 29.678 29.91 30.06 30.255 30.408 30.583 30.725 30.863 30.935 31.033 31.1 31.195 31.213 31.243 31.265 31.318 31.355 31.373 31.378 31.343 31.325 31.308 31.268 31.24 31.213 31.145 31.103 31.103 31.05 31.045 31.045 31.128 31.153 31.29 32.805 33.96 33.203 31.265 30.888 30.905 30.863 30.848 30.85 30.8 30.783 30.75 30.703 30.67 30.623 30.56 30.548 30.48 30.46 30.42 30.385 30.345 30.348 30.32 30.3 30.293 30.258 30.188 30.143 30.09 30.053 30.013 29.96
40.143 40.238 40.178 40.235 40.413 40.345 40.415 40.453 40.508 40.58 40.615 40.698 40.768 40.823 40.838 40.903 40.955 40.993 41.073 41.025 40.978 40.99 40.983 41.02 41.053 41.085 41.09 41.075 41.125 41.178 41.178 41.155 41.135 41.158 41.193 41.215 41.233 41.305 41.368 41.378 41.423 41.428 41.423 41.415 41.413 41.408 41.39 41.393 41.373 41.385 41.35 41.403 41.403 41.383 41.395 41.43 41.47 41.495 41.515 41.548 41.58 41.583 41.56 41.593 41.58 41.605 41.573 41.593 41.59 41.58 41.59 41.588 41.575 41.589 41.565 41.539 41.551 41.532 41.522 41.497 41.513 41.494 41.449 41.438 41.438 41.447 41.415 41.364 41.324 41.258 41.488 41.418 41.253 41.493 41.988 42.31 41.18 41.003 40.968 40.93 40.905 40.92 40.92 40.86 40.795 40.74 40.7 40.66 40.64 40.615 40.595 40.555 40.545 40.523 40.495 40.478 40.45 40.463 40.453 40.41 40.383 40.343 40.318 40.28 40.243 40.233 40.203 40.148 40.113 40.095 40.058 40.01 39.955 39.923 39.875 39.825 39.803 39.753 39.693 39.658 39.593 39.565 39.488 39.438 39.395 39.305 39.243 39.188 39.115 39.013 38.94 38.858 38.79 38.725 38.65 38.61 38.528 38.47 38.39 38.343 38.215 38.14 38.043 37.92 37.828 37.705 37.575 37.433 37.313 37.208 37.083 36.943 36.783 36.645 36.523 36.4 36.293 36.165 36.048 35.955 35.843 35.695 35.548 35.415 35.293 35.178 35.038 34.913 34.828 34.708 34.615 34.483 34.325 34.168 34.038 33.943 33.823 33.71 33.578 33.48 33.395 33.333 33.335 33.323 33.303 33.278 33.308 33.383 33.45 33.56 33.69 33.81 33.94 34.098 34.225 34.395 34.598 34.81 35.085 35.4 36.193 36.965 37.225 37.03 38.7 38.318 37.793 37.35 39.068 38.04 37.96 37.648 39.085 37.563 37.573 37 38.365 38.205 37.345 37.06 36.86 36.773 37.295 38.203 37.29 37.008 36.885 36.7 36.493 36.398 36.373 36.353 36.345 36.3 36.318 36.483 36.375 36.43 36.353 36.258 36.24 36.21 35.95 35.798 37.948 40.43 36.373 41.698 36.945 35.333 35.258 35.275 35.17 35.05 34.948 34.85 34.735 34.7 34.628 34.515 34.393 34.318 34.283 34.203 34.128 34.038 33.908 33.785 33.783 33.628 33.508 33.41 33.335 33.228 33.08 33.033 32.895 32.785 32.668 32.525 32.445 32.32 32.208 32.058 32.02 31.969 31.761 31.797 31.858 31.851 37.13 39.54 41.669 46.891 41.508 38.048 31.082 30.62 29.921 29.712 29.889 29.763 29.805 29.45 29.606 31.105 37.874 42.465 38.043 30.887 27.785 27.642 27.799 26.963 26.681 26.482 28.604 30.807 26.275 25.733 25.449 25.365 24.728 24.221 25.123 24.77 25.27 25.745 25.536 27.934 27.983 26.06 26.129 26.761 31.136 29.058 26.818 27.065 27.275 27.478 27.668 27.9 28.063 28.31 28.513 28.763 29.02 29.288 29.523 29.765 29.998 30.165 30.37 30.565 30.73 30.835 30.943 31.03 31.13 31.23 31.313 31.34 31.383 31.403 31.395 31.48 31.495 31.475 31.478 31.408 31.39 31.385 31.355 31.31 31.298 31.21 31.203 31.17 31.135 31.173 31.265 31.328 31.385 31.918 33.04 32.613 31.223 30.948 30.975 30.988 30.98 30.925 30.9 30.878 30.87 30.808 30.775 30.72 30.678 30.635 30.613 30.6 30.548 30.485 30.438 30.448 30.393 30.378 30.355 30.343 30.313 30.233 30.165 30.128 30.083 30.02
40.088 40.16 40.21 40.265 40.378 40.423 40.443 40.493 40.54 40.6 40.648 40.723 40.793 40.84 40.888 40.955 41 41.09 41.16 41.165 41.043 41.04 41.05 41.103 41.133 41.173 41.17 41.158 41.2 41.243 41.23 41.258 41.223 41.223 41.263 41.295 41.325 41.388 41.433 41.453 41.483 41.473 41.485 41.48 41.495 41.503 41.503 41.498 41.46 41.445 41.468 41.455 41.495 41.498 41.473 41.498 41.533 41.573 41.598 41.643 41.65 41.633 41.655 41.65 41.668 41.665 41.67 41.655 41.65 41.678 41.653 41.655 41.655 41.658 41.618 41.632 41.607 41.597 41.593 41.569 41.572 41.569 41.55 41.521 41.531 41.514 41.467 41.438 41.393 41.37 41.558 41.465 41.345 41.593 42.188 41.815 41.128 41.1 41.068 41 40.983 41 40.978 40.92 40.868 40.818 40.74 40.725 40.695 40.675 40.653 40.623 40.6 40.58 40.578 40.563 40.545 40.515 40.485 40.488 40.44 40.418 40.378 40.348 40.348 40.323 40.265 40.228 40.193 40.175 40.123 40.06 40.015 39.965 39.928 39.868 39.85 39.818 39.795 39.743 39.678 39.645 39.57 39.518 39.458 39.388 39.305 39.223 39.165 39.075 38.993 38.86 38.803 38.74 38.675 38.623 38.57 38.493 38.423 38.328 38.225 38.153 38.043 37.915 37.775 37.708 37.58 37.43 37.295 37.178 37.065 36.953 36.785 36.625 36.488 36.375 36.268 36.14 36.053 35.95 35.81 35.72 35.565 35.438 35.325 35.208 35.078 34.965 34.853 34.758 34.663 34.538 34.38 34.238 34.078 34 33.87 33.748 33.663 33.583 33.465 33.388 33.38 33.363 33.323 33.318 33.413 33.51 33.595 33.715 33.825 33.945 34.12 34.275 34.42 34.55 34.708 34.88 35.053 35.288 35.51 35.72 35.995 36.233 37.028 37.165 38.083 38.59 39.9 38.46 37.965 37.958 37.943 37.915 37.455 37.158 37.135 37.073 36.955 36.983 36.83 36.805 37.035 37.025 37.003 36.723 36.588 36.455 36.465 36.438 36.41 36.41 36.38 36.29 36.225 36.148 36.118 36.02 35.968 35.915 35.96 35.83 35.73 35.675 35.76 38.343 35.65 36.343 35.338 35.248 35.215 35.1 35.003 34.91 34.858 34.775 34.688 34.63 34.575 34.455 34.368 34.285 34.228 34.16 34.065 34 33.86 33.798 33.693 33.6 33.505 33.39 33.25 33.145 33.06 32.963 32.86 32.778 32.693 32.62 32.493 32.383 32.238 32.107 31.996 31.866 31.782 31.772 31.792 31.819 33.155 37.069 45.22 43.681 44.737 39.431 31.068 30.686 29.865 29.769 30.426 29.807 30.15 29.93 29.314 29.084 36.452 35.362 40.388 31.335 27.659 27.376 27.165 26.915 26.719 26.464 26.643 28.012 25.888 26.078 25.544 25.235 24.776 24.308 25.018 25.1 25.378 25.9 25.563 25.667 25.747 25.883 26.51 28.293 32.294 28.361 27.21 27.09 27.32 27.543 27.725 27.948 28.145 28.403 28.62 28.858 29.078 29.358 29.61 29.865 30.103 30.273 30.458 30.668 30.825 30.935 31.053 31.163 31.283 31.358 31.433 31.478 31.498 31.51 31.533 31.593 31.61 31.608 31.568 31.533 31.51 31.498 31.45 31.428 31.395 31.365 31.32 31.255 31.228 31.263 31.413 31.418 31.385 31.775 31.863 31.345 31.103 31.035 31.058 31.103 31.09 31.043 31.025 30.983 30.96 30.94 30.878 30.833 30.803 30.733 30.73 30.698 30.643 30.585 30.565 30.553 30.508 30.488 30.445 30.406 30.359 30.322 30.276 30.205 30.148 30.127
40.153 40.17 40.203 40.258 40.305 40.38 40.535 40.543 40.6 40.66 40.77 40.748 40.828 40.893 40.955 41 41.088 41.118 41.218 41.225 41.093 41.095 41.1 41.18 41.2 41.243 41.238 41.233 41.278 41.303 41.31 41.335 41.323 41.328 41.353 41.378 41.39 41.45 41.47 41.535 41.563 41.548 41.558 41.57 41.598 41.595 41.575 41.563 41.555 41.543 41.553 41.53 41.57 41.568 41.565 41.588 41.61 41.638 41.695 41.728 41.713 41.733 41.74 41.73 41.75 41.745 41.75 41.728 41.743 41.735 41.735 41.715 41.71 41.71 41.691 41.688 41.669 41.67 41.66 41.66 41.631 41.64 41.632 41.609 41.623 41.618 41.577 41.513 41.498 41.52 41.67 41.413 41.498 41.998 42.268 42.003 41.205 41.17 41.143 41.078 41.07 41.083 41.075 40.99 40.915 40.883 40.823 40.805 40.76 40.748 40.703 40.663 40.673 40.64 40.648 40.628 40.608 40.583 40.565 40.553 40.518 40.49 40.468 40.43 40.388 40.368 40.333 40.305 40.255 40.208 40.175 40.13 40.075 40.038 39.98 39.945 39.91 39.86 39.813 39.775 39.718 39.653 39.623 39.535 39.493 39.408 39.34 39.295 39.185 39.103 39.02 38.938 38.865 38.795 38.715 38.675 38.595 38.488 38.413 38.345 38.23 38.148 38.018 37.908 37.788 37.663 37.56 37.42 37.303 37.14 37.008 36.898 36.773 36.605 36.48 36.335 36.24 36.153 36.013 35.908 35.793 35.675 35.543 35.428 35.308 35.185 35.075 34.988 34.89 34.75 34.638 34.54 34.428 34.278 34.128 33.993 33.873 33.778 33.688 33.59 33.533 33.445 33.403 33.408 33.405 33.435 33.493 33.603 33.723 33.843 33.993 34.153 34.3 34.48 34.62 34.733 34.895 35.04 35.178 35.338 35.518 35.738 35.97 36.128 36.278 36.425 36.563 36.708 36.925 36.94 36.953 37.085 37.005 37.045 37.01 36.95 36.938 36.92 36.853 36.93 36.825 36.753 36.648 36.713 36.625 36.658 36.578 36.55 36.53 36.493 36.478 36.48 36.463 36.4 36.36 36.29 36.21 36.103 35.975 35.928 35.82 35.765 35.755 35.713 35.668 40.288 35.583 35.45 35.325 35.203 35.135 35.02 34.913 34.848 34.778 34.693 34.668 34.6 34.463 34.393 34.323 34.225 34.138 34.078 34.003 33.933 33.82 33.763 33.663 33.55 33.485 33.388 33.323 33.248 33.173 33.103 32.998 32.91 32.763 32.708 32.598 32.483 32.295 32.178 32.029 31.888 31.832 31.764 31.72 31.722 32.382 35.722 40.103 40.866 41.786 40.677 35.019 30.396 29.912 29.887 29.846 29.74 29.432 28.924 28.768 28.584 28.529 32.278 37.439 28.93 28.057 27.701 27.14 26.892 27.174 26.69 26.881 27.012 26.116 26.194 25.976 25.609 25.138 25.587 24.991 24.897 25.386 25.558 25.653 25.801 25.921 26.009 26.287 26.743 27.15 31.074 32.775 27.295 27.43 27.658 27.82 28.033 28.258 28.503 28.71 28.933 29.15 29.453 29.675 29.955 30.193 30.368 30.558 30.778 30.913 31.075 31.193 31.308 31.4 31.465 31.52 31.578 31.628 31.643 31.655 31.69 31.718 31.705 31.7 31.668 31.638 31.625 31.593 31.55 31.5 31.433 31.418 31.393 31.34 31.375 31.52 31.513 32.323 31.808 35.003 32.353 31.233 31.175 31.195 31.163 31.163 31.14 31.11 31.09 31.048 31 30.978 30.948 30.898 30.82 30.803 30.778 30.725 30.7 30.655 30.628 30.62 30.563 30.516 30.455 30.426 30.381 30.349 30.289 30.238 30.205
40.21 40.285 40.268 40.383 40.455 40.42 40.523 40.585 40.64 40.698 40.818 40.803 40.868 40.94 41.023 41.068 41.115 41.158 41.245 41.278 41.138 41.168 41.19 41.25 41.258 41.313 41.298 41.293 41.308 41.355 41.398 41.388 41.395 41.415 41.44 41.438 41.475 41.548 41.583 41.61 41.633 41.638 41.665 41.648 41.695 41.688 41.665 41.633 41.63 41.62 41.655 41.62 41.648 41.64 41.648 41.683 41.71 41.753 41.775 41.798 41.82 41.798 41.803 41.818 41.813 41.8 41.825 41.818 41.788 41.805 41.813 41.763 41.778 41.783 41.766 41.765 41.755 41.753 41.737 41.74 41.74 41.723 41.711 41.711 41.709 41.701 41.652 41.597 41.568 41.574 41.84 41.53 41.678 41.918 42.373 41.595 41.28 41.243 41.223 41.185 41.17 41.178 41.145 41.078 41.01 40.94 40.908 40.898 40.868 40.86 40.803 40.763 40.758 40.728 40.718 40.685 40.683 40.653 40.645 40.605 40.588 40.56 40.53 40.493 40.47 40.428 40.413 40.363 40.323 40.253 40.208 40.183 40.13 40.095 40.03 40.008 39.96 39.885 39.863 39.818 39.765 39.708 39.66 39.585 39.503 39.45 39.378 39.325 39.255 39.163 39.058 38.983 38.898 38.818 38.753 38.695 38.59 38.508 38.438 38.335 38.228 38.128 38.02 37.895 37.755 37.645 37.523 37.378 37.245 37.138 37.018 36.88 36.718 36.568 36.455 36.348 36.22 36.128 36.018 35.908 35.805 35.668 35.55 35.428 35.305 35.218 35.065 34.97 34.855 34.76 34.66 34.555 34.425 34.32 34.198 34.073 33.918 33.753 33.725 33.585 33.515 33.5 33.498 33.483 33.483 33.53 33.618 33.733 33.82 33.948 34.115 34.268 34.455 34.615 34.79 34.96 35.078 35.22 35.348 35.5 35.633 35.775 35.983 36.168 36.333 36.458 36.6 36.738 36.768 36.83 36.878 36.918 36.955 36.945 36.933 36.93 36.903 36.815 36.81 36.765 36.713 36.72 36.72 36.705 36.723 36.64 36.628 36.59 36.6 36.6 36.58 36.538 36.508 36.425 36.423 36.368 36.28 36.21 36.113 36.045 35.925 35.868 35.845 35.78 35.72 36.163 35.693 35.483 35.395 35.238 35.14 35.038 34.998 34.918 34.85 34.773 34.73 34.64 34.53 34.443 34.39 34.258 34.163 34.078 33.96 33.908 33.81 33.753 33.675 33.585 33.52 33.413 33.348 33.31 33.213 33.14 33.04 32.945 32.848 32.758 32.633 32.547 32.352 32.199 32.044 31.942 31.787 31.736 31.679 31.696 32.773 33.12 35.076 38.919 37.781 36.436 33.06 30.417 29.854 29.796 29.604 29.442 29.237 29.359 28.814 28.731 28.484 30.499 31.059 28.471 27.729 27.851 28.266 26.913 26.763 26.538 26.404 28.916 27.528 27.098 28.167 27.807 25.143 24.883 24.542 24.973 29.961 25.729 25.834 25.937 25.985 26.127 26.302 29.436 30.956 27.23 30.873 31.405 27.493 27.773 27.935 28.153 28.328 28.588 28.835 29.06 29.238 29.523 29.793 30.045 30.278 30.48 30.668 30.888 31.01 31.155 31.32 31.4 31.533 31.578 31.63 31.698 31.728 31.748 31.773 31.82 31.84 31.833 31.825 31.783 31.763 31.748 31.708 31.663 31.598 31.548 31.52 31.523 31.498 31.538 31.65 31.708 32.72 32.208 31.77 33.398 31.908 31.34 31.31 31.33 31.28 31.263 31.213 31.19 31.135 31.108 31.083 31.048 30.98 30.918 30.928 30.863 30.812 30.779 30.775 30.749 30.711 30.629 30.578 30.562 30.542 30.482 30.436 30.369 30.331 30.278
40.185 40.253 40.308 40.373 40.405 40.445 40.52 40.598 40.65 40.74 40.803 40.875 40.898 40.978 41.045 41.103 41.19 41.213 41.345 41.365 41.228 41.228 41.25 41.275 41.333 41.388 41.395 41.398 41.403 41.428 41.49 41.49 41.463 41.493 41.51 41.535 41.578 41.638 41.69 41.73 41.708 41.725 41.733 41.725 41.765 41.753 41.77 41.725 41.683 41.71 41.715 41.7 41.715 41.72 41.753 41.753 41.8 41.843 41.865 41.893 41.893 41.875 41.903 41.898 41.91 41.913 41.878 41.885 41.86 41.908 41.89 41.855 41.88 41.878 41.845 41.838 41.851 41.829 41.829 41.828 41.815 41.819 41.803 41.808 41.823 41.802 41.745 41.653 41.65 41.905 42.058 41.565 41.898 42.29 42.473 41.543 41.38 41.355 41.318 41.263 41.273 41.285 41.223 41.14 41.09 41.075 41.015 41.003 40.953 40.915 40.91 40.868 40.848 40.828 40.813 40.78 40.74 40.748 40.743 40.71 40.658 40.633 40.623 40.598 40.553 40.508 40.473 40.433 40.388 40.32 40.3 40.238 40.193 40.143 40.098 40.05 40.015 39.945 39.885 39.825 39.783 39.69 39.683 39.638 39.558 39.508 39.43 39.35 39.25 39.163 39.08 38.99 38.91 38.843 38.788 38.69 38.593 38.49 38.4 38.318 38.22 38.108 37.975 37.86 37.743 37.63 37.475 37.373 37.235 37.108 36.983 36.845 36.693 36.558 36.425 36.323 36.218 36.118 36 35.903 35.78 35.635 35.543 35.408 35.315 35.188 35.085 34.98 34.875 34.755 34.663 34.53 34.438 34.335 34.21 34.108 33.97 33.838 33.73 33.605 33.528 33.5 33.528 33.525 33.598 33.65 33.723 33.828 33.958 34.118 34.268 34.41 34.553 34.715 34.89 35.05 35.235 35.395 35.548 35.663 35.813 35.923 36.083 36.195 36.325 36.488 36.68 36.77 36.825 36.888 36.925 36.963 36.975 36.965 36.923 36.93 36.923 36.875 36.91 36.903 36.898 36.905 36.88 36.808 36.79 36.748 36.71 36.708 36.7 36.678 36.673 36.645 36.593 36.545 36.503 36.428 36.35 36.293 36.193 36.095 36.003 35.938 35.915 35.87 35.79 35.76 35.62 35.545 35.388 35.305 35.215 35.113 35.073 34.99 34.93 34.855 34.768 34.673 34.588 34.52 34.43 34.323 34.218 34.1 34 33.908 33.835 33.735 33.705 33.615 33.515 33.478 33.353 33.293 33.233 33.178 33.07 32.963 32.855 32.798 32.67 32.531 32.382 32.221 32.065 31.996 31.837 31.744 31.723 31.733 32.739 32.434 32.726 37.664 40.198 36.375 32.176 30.183 29.957 30.307 29.645 29.363 29.248 29.109 29.495 29.835 29.845 28.724 34.646 32.98 28.322 27.585 27.565 27.272 26.939 26.578 26.474 26.689 27.05 27.286 27.506 25.629 26.26 24.63 24.523 26.943 36.06 29.149 25.892 26.442 29.183 26.377 26.355 27.021 29.059 27.765 28.518 27.948 27.608 27.783 28.02 28.213 28.455 28.693 28.908 29.158 29.365 29.62 29.885 30.15 30.383 30.578 30.77 30.99 31.135 31.28 31.418 31.538 31.643 31.688 31.76 31.808 31.84 31.84 31.888 31.925 31.958 31.945 31.958 31.905 31.86 31.848 31.848 31.798 31.75 31.675 31.635 31.613 31.603 31.648 31.733 31.855 32.748 33.32 31.958 32.223 32.523 31.405 31.33 31.365 31.36 31.348 31.263 31.225 31.22 31.213 31.168 31.11 31.06 31.028 31.006 30.94 30.905 30.871 30.866 30.854 30.802 30.731 30.715 30.663 30.615 30.545 30.496 30.457 30.43 30.349
40.17 40.248 40.313 40.36 40.485 40.493 40.525 40.608 40.668 40.743 40.803 40.873 40.923 40.945 41.043 41.12 41.165 41.193 41.303 41.33 41.25 41.28 41.293 41.35 41.395 41.44 41.443 41.45 41.48 41.528 41.565 41.523 41.57 41.583 41.588 41.608 41.65 41.718 41.75 41.783 41.803 41.8 41.798 41.818 41.825 41.81 41.83 41.805 41.808 41.818 41.795 41.813 41.83 41.818 41.865 41.903 41.908 41.94 41.953 41.958 41.968 41.96 41.965 41.98 41.963 41.978 41.948 41.965 41.96 41.95 41.95 41.96 41.963 41.965 41.97 41.934 41.928 41.916 41.915 41.911 41.901 41.915 41.905 41.899 41.91 41.875 41.829 41.752 41.676 42.337 42.113 41.705 42.008 42.405 42.398 41.533 41.458 41.443 41.413 41.39 41.4 41.38 41.295 41.233 41.19 41.13 41.118 41.1 41.038 41.033 41.005 40.983 40.938 40.925 40.918 40.87 40.858 40.845 40.815 40.795 40.77 40.725 40.693 40.675 40.638 40.633 40.595 40.538 40.488 40.44 40.39 40.318 40.268 40.213 40.18 40.11 40.068 40.04 39.96 39.895 39.838 39.748 39.735 39.688 39.603 39.533 39.48 39.375 39.285 39.188 39.098 39.06 38.923 38.84 38.79 38.695 38.625 38.505 38.403 38.31 38.2 38.075 37.945 37.81 37.698 37.568 37.463 37.33 37.188 37.04 36.925 36.81 36.693 36.55 36.45 36.333 36.225 36.118 36.018 35.893 35.773 35.65 35.543 35.445 35.315 35.203 35.09 34.998 34.878 34.78 34.668 34.56 34.42 34.323 34.223 34.15 34.055 33.905 33.78 33.678 33.563 33.518 33.548 33.58 33.645 33.735 33.853 33.968 34.088 34.22 34.35 34.528 34.705 34.888 35.023 35.19 35.338 35.498 35.608 35.775 35.93 36.065 36.218 36.39 36.515 36.643 36.75 36.83 36.905 36.895 36.92 36.958 37 37.008 37.06 37.08 37.063 37.055 37.095 37.06 37.015 36.983 36.938 36.93 36.925 36.875 36.84 36.818 36.81 36.785 36.77 36.728 36.663 36.655 36.568 36.483 36.455 36.375 36.25 36.14 36.058 35.99 35.925 35.925 35.968 35.735 35.605 35.533 35.445 35.358 35.275 35.17 35.11 35.03 34.985 34.915 34.808 34.705 34.64 34.54 34.45 34.378 34.263 34.133 34.04 33.97 33.898 33.798 33.745 33.695 33.59 33.52 33.445 33.353 33.223 33.14 33.02 32.953 32.823 32.743 32.666 32.544 32.389 32.25 32.091 31.989 31.856 31.762 31.716 31.886 32.58 31.732 33.589 38.02 38.486 35.697 31.056 30.726 29.904 29.741 29.533 30.652 30.99 29.777 29.023 29.11 29.505 28.638 29.343 30.17 27.724 27.511 28.082 27.124 26.945 26.571 26.837 28.373 26.875 31.182 31.67 29.584 27.563 27.171 26.303 28.635 36.065 28.677 25.877 26.251 31.269 28.764 26.384 27.425 28.29 27.14 27.923 27.785 27.735 27.913 28.108 28.343 28.54 28.765 28.993 29.24 29.483 29.71 29.963 30.223 30.503 30.7 30.873 31.075 31.248 31.398 31.528 31.635 31.735 31.808 31.87 31.925 31.965 31.988 32.008 32.043 32.063 32.065 32.078 32.035 31.998 31.953 31.928 31.893 31.875 31.788 31.763 31.755 31.72 31.74 31.82 32.078 32.315 32.175 32.993 35.903 33.388 31.505 31.445 31.465 31.515 31.455 31.433 31.375 31.33 31.31 31.243 31.221 31.162 31.129 31.076 31.052 31.039 31.011 30.982 30.929 30.874 30.83 30.802 30.755 30.696 30.641 30.57 30.531 30.462 30.421
40.19 40.27 40.338 40.403 40.44 40.53 40.58 40.608 40.67 40.798 40.893 40.87 40.945 40.97 41.078 41.125 41.185 41.245 41.373 41.393 41.325 41.333 41.333 41.395 41.433 41.47 41.485 41.515 41.558 41.61 41.613 41.633 41.623 41.645 41.645 41.713 41.723 41.78 41.833 41.863 41.878 41.895 41.883 41.918 41.905 41.92 41.918 41.92 41.903 41.895 41.905 41.9 41.93 41.918 41.935 41.978 41.998 42.013 42.043 42.033 42.03 42.05 42.033 42.055 42.04 42.045 42.035 42.053 42.065 42.058 42.038 42.048 42.06 42.048 42.035 42.007 41.992 41.999 41.996 42.017 41.993 42.019 42.021 42.009 42.005 41.971 41.903 41.828 41.822 42.222 41.854 41.748 42.083 42.46 42.005 41.565 41.55 41.538 41.49 41.47 41.455 41.46 41.398 41.325 41.253 41.203 41.215 41.21 41.18 41.15 41.115 41.093 41.083 41.05 41.01 40.978 40.963 40.968 40.94 40.915 40.873 40.82 40.795 40.765 40.718 40.68 40.668 40.628 40.565 40.52 40.488 40.423 40.348 40.313 40.253 40.208 40.133 40.105 40.035 39.968 39.893 39.818 39.778 39.72 39.633 39.565 39.485 39.413 39.313 39.19 39.113 39.028 38.94 38.873 38.785 38.713 38.618 38.52 38.413 38.305 38.178 38.06 37.92 37.8 37.668 37.538 37.41 37.285 37.173 37.025 36.895 36.79 36.645 36.53 36.418 36.313 36.198 36.11 35.995 35.883 35.738 35.64 35.538 35.43 35.308 35.203 35.11 35.023 34.908 34.793 34.675 34.553 34.408 34.355 34.238 34.15 34.053 33.943 33.845 33.718 33.655 33.583 33.598 33.643 33.718 33.79 33.918 34.085 34.225 34.39 34.528 34.635 34.783 34.965 35.14 35.313 35.505 35.66 35.785 35.92 36.065 36.203 36.32 36.435 36.548 36.733 36.855 36.945 36.94 36.97 37.028 37.065 37.098 37.13 37.138 37.205 37.185 37.17 37.178 37.165 37.14 37.13 37.103 37.1 37.033 37.005 36.96 36.923 36.903 36.893 36.848 36.855 36.775 36.738 36.703 36.62 36.553 36.443 36.325 36.248 36.153 36.055 35.973 35.918 35.82 35.728 35.635 35.563 35.483 35.383 35.34 35.265 35.168 35.1 35.028 34.948 34.833 34.73 34.645 34.533 34.498 34.4 34.323 34.213 34.093 34.01 33.905 33.778 33.69 33.608 33.518 33.443 33.375 33.268 33.213 33.088 33 32.933 32.823 32.76 32.628 32.523 32.401 32.237 32.083 31.952 31.838 31.728 31.753 32.263 32.302 31.468 32.301 36.528 39.804 37.459 33.636 32.166 29.917 29.841 29.75 30.433 30.265 29.163 28.742 28.581 28.393 28.231 29.589 35.227 27.964 27.463 27.238 27.048 26.879 26.58 26.688 27.729 26.2 26.018 25.678 27.001 26.904 26.768 25.521 27.021 36.9 28.129 26.083 26.516 29.252 36.166 30.065 27.01 28.63 27.545 28.24 27.983 27.883 27.99 28.21 28.513 28.65 28.858 29.05 29.338 29.598 29.82 30.02 30.298 30.57 30.778 30.983 31.18 31.358 31.518 31.64 31.733 31.823 31.903 32.003 32.04 32.068 32.125 32.153 32.15 32.183 32.175 32.16 32.145 32.115 32.075 32.05 32.013 31.97 31.923 31.878 31.873 31.838 31.838 31.93 32.08 32.193 32.315 32.793 38.878 35.525 31.65 31.59 31.583 31.545 31.573 31.485 31.445 31.425 31.367 31.325 31.285 31.263 31.209 31.192 31.163 31.131 31.096 31.066 31.028 30.963 30.908 30.858 30.817 30.764 30.729 30.642 30.603 30.546 30.487
40.228 40.313 40.378 40.378 40.463 40.538 40.585 40.653 40.753 40.778 40.878 40.893 40.94 40.998 41.103 41.133 41.243 41.288 41.375 41.438 41.378 41.353 41.39 41.433 41.485 41.513 41.548 41.56 41.615 41.685 41.663 41.683 41.703 41.708 41.758 41.785 41.815 41.87 41.928 41.943 41.94 41.968 41.978 41.998 41.975 41.995 42.02 42.008 41.99 41.998 42 42.015 42.015 42.008 42.038 42.068 42.095 42.095 42.118 42.125 42.105 42.123 42.123 42.13 42.115 42.143 42.15 42.138 42.125 42.11 42.105 42.135 42.12 42.12 42.115 42.108 42.1 42.078 42.081 42.101 42.118 42.124 42.107 42.1 42.106 42.057 41.982 41.937 42.02 42.767 41.921 41.953 42.77 42.875 42.218 41.68 41.665 41.61 41.543 41.5 41.533 41.525 41.46 41.418 41.345 41.288 41.27 41.3 41.248 41.225 41.185 41.163 41.178 41.145 41.118 41.103 41.105 41.063 41.048 40.99 40.973 40.94 40.91 40.883 40.845 40.828 40.79 40.743 40.708 40.658 40.593 40.53 40.473 40.405 40.355 40.293 40.223 40.19 40.133 40.02 39.973 39.888 39.833 39.78 39.705 39.645 39.523 39.448 39.315 39.2 39.118 39.05 38.975 38.86 38.785 38.703 38.605 38.515 38.38 38.28 38.188 38.018 37.913 37.76 37.63 37.5 37.333 37.24 37.105 36.998 36.875 36.75 36.62 36.51 36.383 36.29 36.183 36.085 35.968 35.843 35.73 35.623 35.518 35.415 35.3 35.21 35.108 35.005 34.908 34.785 34.663 34.573 34.455 34.355 34.24 34.135 34.05 33.975 33.89 33.818 33.753 33.675 33.675 33.715 33.805 33.843 33.985 34.143 34.288 34.47 34.653 34.83 34.988 35.123 35.27 35.368 35.528 35.685 35.838 36.055 36.205 36.36 36.468 36.613 36.703 36.803 36.91 36.97 37.008 37.035 37.108 37.093 37.165 37.185 37.218 37.243 37.263 37.245 37.205 37.208 37.19 37.183 37.108 37.125 37.083 37.063 37.018 37.053 37.003 36.98 36.97 36.968 36.895 36.843 36.748 36.703 36.618 36.5 36.405 36.295 36.22 36.123 36.048 35.978 35.893 35.773 35.71 35.62 35.543 35.465 35.385 35.295 35.17 35.12 35.058 34.965 34.858 34.783 34.688 34.605 34.52 34.405 34.31 34.223 34.088 33.983 33.905 33.818 33.73 33.655 33.533 33.433 33.368 33.3 33.208 33.108 33.003 32.91 32.853 32.738 32.631 32.558 32.448 32.284 32.097 31.957 31.828 31.737 31.689 31.951 32.306 33.671 31.951 34.204 36.437 32.746 33.65 33.244 34.373 30.381 29.556 29.242 29.039 30.364 28.797 28.7 28.437 28.215 28.616 29.161 28.556 27.406 27.16 26.983 26.768 26.582 27 29.399 26.181 25.944 25.668 27.544 29.641 26.697 25.142 29.632 30.602 27.195 26.189 26.38 26.657 29.588 28.783 27.375 27.178 27.318 27.818 28.165 27.92 28.098 28.325 28.618 28.765 28.933 29.173 29.415 29.698 29.89 30.125 30.358 30.658 30.868 31.078 31.26 31.41 31.588 31.715 31.82 31.938 32.055 32.105 32.148 32.17 32.195 32.233 32.29 32.323 32.308 32.283 32.248 32.245 32.175 32.145 32.133 32.07 32.023 32.003 31.963 31.955 31.96 32.108 32.165 32.123 32.218 32.33 34.81 36.41 31.778 31.723 31.723 31.768 31.655 31.566 31.547 31.532 31.474 31.438 31.414 31.381 31.321 31.275 31.246 31.202 31.175 31.137 31.12 31.078 31.023 30.973 30.891 30.859 30.802 30.747 30.707 30.652 30.576
40.268 40.303 40.368 40.43 40.48 40.613 40.613 40.69 40.795 40.863 40.875 40.94 41.095 41.105 41.163 41.203 41.278 41.333 41.41 41.483 41.41 41.405 41.428 41.49 41.54 41.585 41.615 41.648 41.685 41.733 41.758 41.788 41.785 41.778 41.838 41.855 41.895 41.943 41.965 41.993 42.035 42.038 42.018 42.025 42.085 42.098 42.103 42.113 42.105 42.12 42.115 42.088 42.095 42.113 42.14 42.163 42.19 42.193 42.218 42.203 42.198 42.198 42.208 42.215 42.198 42.238 42.233 42.233 42.188 42.21 42.2 42.213 42.218 42.205 42.218 42.188 42.18 42.175 42.164 42.186 42.203 42.21 42.202 42.205 42.174 42.116 42.039 42.029 42.129 42.454 41.915 42.233 42.843 43.208 41.963 41.763 41.73 41.673 41.6 41.603 41.61 41.575 41.518 41.495 41.453 41.385 41.38 41.373 41.348 41.315 41.293 41.27 41.28 41.238 41.22 41.208 41.178 41.153 41.158 41.105 41.073 41.03 41.008 40.973 40.923 40.91 40.903 40.858 40.83 40.77 40.703 40.633 40.583 40.49 40.425 40.353 40.323 40.278 40.183 40.115 40.063 39.98 39.918 39.85 39.743 39.683 39.573 39.49 39.395 39.278 39.143 39.063 38.978 38.88 38.813 38.723 38.638 38.51 38.398 38.25 38.15 38.018 37.885 37.733 37.61 37.448 37.323 37.235 37.095 36.978 36.863 36.73 36.603 36.495 36.363 36.278 36.17 36.063 35.97 35.86 35.743 35.605 35.478 35.423 35.288 35.188 35.103 34.978 34.888 34.803 34.693 34.575 34.453 34.34 34.25 34.155 34.068 33.978 33.93 33.87 33.833 33.783 33.793 33.848 33.913 33.993 34.088 34.23 34.383 34.538 34.713 34.908 35.07 35.22 35.39 35.528 35.69 35.84 35.953 36.098 36.218 36.37 36.508 36.655 36.803 36.885 36.948 37.038 37.098 37.145 37.18 37.248 37.293 37.305 37.318 37.323 37.333 37.31 37.273 37.275 37.225 37.2 37.18 37.125 37.113 37.038 37.015 37.045 37.025 36.958 36.97 36.928 36.878 36.805 36.74 36.7 36.628 36.49 36.435 36.355 36.255 36.19 36.1 36.005 35.918 35.803 35.72 35.638 35.563 35.44 35.358 35.28 35.185 35.118 35.075 34.953 34.865 34.783 34.7 34.603 34.52 34.438 34.355 34.255 34.128 34.068 33.97 33.865 33.785 33.7 33.593 33.493 33.393 33.325 33.213 33.13 33.043 32.93 32.867 32.773 32.666 32.644 32.476 32.323 32.206 32.078 31.868 31.736 31.693 31.718 32.717 32.364 31.476 32.229 31.995 31.976 32.2 35.397 34.582 32.026 29.532 29.247 29.158 29.402 28.865 28.692 28.527 28.408 28.18 28.105 27.706 27.418 27.185 28.531 26.788 26.568 26.405 27.023 26.63 25.951 26.773 31.444 30.999 26.962 24.929 26.102 27.641 26.168 28.639 30.188 26.503 26.693 27.105 27.285 27.845 27.72 27.703 28.36 28.143 28.205 28.38 28.633 28.87 29.04 29.275 29.54 29.785 30.01 30.208 30.435 30.745 30.943 31.145 31.335 31.498 31.655 31.795 31.94 32.03 32.13 32.2 32.243 32.265 32.303 32.338 32.385 32.418 32.428 32.41 32.375 32.328 32.28 32.278 32.235 32.2 32.143 32.105 32.065 32.043 32.078 32.163 32.205 32.333 32.295 32.595 32.455 31.942 31.868 31.752 31.792 31.677 31.674 31.652 31.6 31.595 31.547 31.524 31.463 31.432 31.392 31.374 31.335 31.282 31.258 31.231 31.208 31.166 31.112 31.041 30.997 30.95 30.9 30.865 30.792 30.721 30.639
40.285 40.48 40.365 40.438 40.54 40.913 40.625 40.695 40.793 40.863 40.918 40.988 41.053 41.058 41.16 41.23 41.298 41.365 41.435 41.518 41.475 41.473 41.478 41.493 41.58 41.648 41.705 41.715 41.74 41.823 41.825 41.813 41.828 41.853 41.913 41.925 42.013 42.025 42.048 42.085 42.113 42.095 42.125 42.158 42.158 42.17 42.188 42.178 42.203 42.205 42.238 42.218 42.203 42.23 42.25 42.273 42.27 42.27 42.28 42.255 42.283 42.275 42.258 42.288 42.275 42.295 42.285 42.288 42.268 42.3 42.268 42.305 42.275 42.303 42.27 42.263 42.261 42.273 42.27 42.292 42.282 42.279 42.288 42.287 42.271 42.185 42.112 42.105 42.351 42.45 42.007 42.38 42.965 43.365 42.123 41.85 41.805 41.748 41.715 41.698 41.683 41.645 41.598 41.555 41.51 41.488 41.475 41.455 41.453 41.418 41.403 41.388 41.365 41.348 41.303 41.31 41.28 41.25 41.205 41.205 41.155 41.138 41.118 41.07 41.068 41.028 41.003 40.96 40.923 40.845 40.765 40.71 40.64 40.575 40.49 40.445 40.395 40.318 40.238 40.165 40.103 40.063 39.965 39.878 39.788 39.695 39.598 39.505 39.4 39.31 39.193 39.075 38.995 38.888 38.803 38.73 38.598 38.518 38.408 38.28 38.138 38.005 37.85 37.738 37.588 37.46 37.325 37.208 37.07 36.975 36.833 36.728 36.6 36.475 36.345 36.283 36.185 36.06 35.985 35.843 35.733 35.605 35.508 35.393 35.3 35.213 35.113 35.015 34.915 34.8 34.72 34.588 34.458 34.35 34.255 34.155 34.07 34.013 33.925 33.865 33.885 33.865 33.885 33.953 34.005 34.118 34.233 34.368 34.493 34.62 34.773 34.973 35.125 35.29 35.463 35.625 35.768 35.94 36.113 36.24 36.378 36.503 36.61 36.718 36.83 36.91 36.988 37.048 37.105 37.16 37.208 37.233 37.258 37.283 37.288 37.323 37.333 37.295 37.305 37.258 37.24 37.215 37.213 37.17 37.11 37.095 37.08 37.033 36.988 36.928 36.933 36.918 36.843 36.783 36.735 36.64 36.558 36.463 36.393 36.305 36.24 36.135 36.1 36.013 35.935 35.845 35.758 35.688 35.61 35.533 35.43 35.34 35.26 35.178 35.11 35.005 34.93 34.838 34.773 34.673 34.575 34.485 34.395 34.275 34.188 34.093 33.985 33.89 33.798 33.703 33.63 33.51 33.415 33.29 33.183 33.085 32.998 32.935 32.891 32.799 32.691 32.549 32.336 32.235 32.323 32.174 31.888 31.76 31.691 31.618 31.671 32.302 33.856 35.229 39.431 34.574 30.38 32.985 31.432 30.185 29.545 29.336 29.296 29.388 29.021 28.824 28.538 28.593 28.236 27.971 27.55 27.423 27.18 27.185 26.815 26.55 26.388 26.535 29.453 26.525 25.813 29.078 30.575 32.118 24.97 26.475 29.04 26.65 27.148 27.668 26.788 26.813 27.46 28.38 27.58 27.81 27.693 28.135 28.228 28.303 28.505 28.733 28.948 29.153 29.375 29.625 29.878 30.113 30.32 30.553 30.795 31.028 31.205 31.398 31.555 31.748 31.905 31.995 32.095 32.198 32.283 32.323 32.368 32.393 32.42 32.475 32.5 32.515 32.513 32.49 32.425 32.388 32.393 32.343 32.29 32.255 32.205 32.168 32.153 32.203 32.245 32.353 33.568 36.322 33.657 34.131 32.492 31.997 31.95 31.862 31.797 31.766 31.728 31.69 31.663 31.661 31.629 31.577 31.547 31.501 31.451 31.441 31.397 31.386 31.371 31.336 31.267 31.215 31.163 31.085 31.034 30.978 30.928 30.854 30.803 30.711
40.768 40.435 40.555 40.453 40.525 40.59 40.67 40.735 40.795 40.883 40.96 41.023 41.095 41.135 41.185 41.278 41.36 41.415 41.485 41.535 41.578 41.5 41.53 41.573 41.595 41.68 41.738 41.76 41.83 41.905 41.903 41.873 41.88 41.92 41.978 42.008 42.075 42.075 42.093 42.163 42.175 42.195 42.21 42.22 42.228 42.248 42.28 42.263 42.285 42.313 42.33 42.325 42.303 42.285 42.328 42.37 42.343 42.33 42.318 42.375 42.358 42.345 42.338 42.365 42.353 42.348 42.348 42.365 42.363 42.368 42.353 42.323 42.33 42.315 42.355 42.333 42.341 42.329 42.327 42.361 42.361 42.345 42.37 42.354 42.345 42.262 42.189 42.192 42.335 42.226 42.11 42.685 43.415 42.878 42.023 41.94 41.923 41.833 41.778 41.778 41.778 41.76 41.703 41.648 41.6 41.578 41.573 41.565 41.543 41.495 41.503 41.488 41.46 41.425 41.405 41.39 41.363 41.325 41.318 41.285 41.253 41.243 41.193 41.175 41.158 41.125 41.09 41.035 40.988 40.923 40.86 40.81 40.725 40.645 40.57 40.523 40.453 40.363 40.32 40.233 40.178 40.095 39.998 39.92 39.84 39.73 39.633 39.508 39.393 39.325 39.205 39.12 39.005 38.915 38.823 38.705 38.605 38.535 38.403 38.27 38.143 38.003 37.858 37.718 37.593 37.453 37.303 37.19 37.088 36.975 36.853 36.738 36.605 36.483 36.4 36.288 36.208 36.09 36 35.86 35.76 35.668 35.52 35.435 35.328 35.225 35.125 35.045 34.95 34.83 34.748 34.63 34.508 34.388 34.305 34.2 34.113 34.038 33.988 33.915 33.883 33.903 33.925 34.05 34.118 34.225 34.373 34.495 34.608 34.748 34.915 35.078 35.22 35.388 35.515 35.65 35.805 35.975 36.148 36.298 36.44 36.595 36.723 36.825 36.925 37.03 37.095 37.165 37.245 37.288 37.32 37.338 37.395 37.423 37.433 37.44 37.468 37.423 37.405 37.368 37.335 37.325 37.283 37.255 37.203 37.16 37.108 37.085 37.063 37.02 36.97 36.913 36.88 36.785 36.735 36.645 36.558 36.498 36.393 36.313 36.248 36.178 36.12 36.025 35.958 35.88 35.78 35.698 35.628 35.54 35.438 35.348 35.28 35.18 35.1 35.01 34.92 34.858 34.758 34.685 34.563 34.455 34.383 34.293 34.21 34.1 34.01 33.9 33.788 33.69 33.608 33.508 33.423 33.308 33.2 33.143 33.03 32.94 32.851 32.797 32.686 32.572 32.393 32.25 32.341 32.236 31.939 31.743 31.697 31.614 31.614 32.671 36.381 41.75 38.92 40.447 37.95 30.528 30.176 29.737 29.543 29.637 29.563 28.948 29.252 30.674 28.552 28.445 28.43 27.802 27.575 27.398 27.285 27.185 26.73 26.475 26.568 27.033 27.078 25.873 26.465 27.125 26.995 24.995 25.238 26.038 26.373 28.208 32.945 30.088 27.048 26.928 28.525 29.82 28.088 28.173 27.94 28.058 29.085 28.65 28.62 28.835 29.095 29.3 29.515 29.74 29.983 30.22 30.428 30.648 30.868 31.085 31.293 31.48 31.64 31.813 31.968 32.078 32.173 32.25 32.333 32.4 32.438 32.508 32.513 32.555 32.593 32.598 32.59 32.573 32.518 32.493 32.463 32.448 32.395 32.348 32.308 32.27 32.243 32.323 32.37 32.482 32.658 33.19 33.95 34.799 32.08 34.039 32.013 31.895 31.876 31.861 31.848 31.792 31.761 31.753 31.728 31.7 31.664 31.622 31.576 31.54 31.506 31.464 31.432 31.386 31.354 31.319 31.241 31.152 31.078 31.021 30.953 30.898 30.861 30.763
40.41 40.473 40.453 40.513 40.58 40.673 40.723 40.785 40.853 40.943 41.005 41.043 41.135 41.18 41.268 41.353 41.405 41.478 41.533 41.603 41.678 41.555 41.583 41.61 41.638 41.713 41.805 41.818 41.89 41.945 41.925 41.915 41.98 42 42.065 42.088 42.143 42.145 42.193 42.245 42.26 42.285 42.3 42.293 42.315 42.348 42.363 42.358 42.385 42.395 42.4 42.385 42.4 42.373 42.408 42.385 42.395 42.418 42.433 42.443 42.428 42.413 42.433 42.44 42.42 42.438 42.428 42.435 42.415 42.418 42.413 42.408 42.39 42.415 42.405 42.413 42.4 42.396 42.419 42.444 42.428 42.438 42.455 42.459 42.404 42.331 42.278 42.305 42.424 42.192 42.21 43.064 43.568 42.875 42.033 42.005 41.98 41.92 41.855 41.858 41.883 41.843 41.773 41.76 41.7 41.66 41.633 41.66 41.653 41.615 41.603 41.59 41.535 41.54 41.503 41.46 41.435 41.408 41.385 41.375 41.348 41.31 41.278 41.253 41.225 41.183 41.16 41.138 41.098 41.025 40.933 40.863 40.79 40.705 40.645 40.56 40.495 40.428 40.368 40.265 40.203 40.118 40.065 39.965 39.888 39.745 39.633 39.533 39.415 39.315 39.188 39.098 39.013 38.938 38.825 38.715 38.62 38.495 38.383 38.26 38.138 38.013 37.873 37.728 37.573 37.455 37.333 37.203 37.08 36.958 36.833 36.725 36.593 36.5 36.41 36.315 36.24 36.105 36.008 35.908 35.773 35.663 35.573 35.46 35.373 35.28 35.19 35.11 34.993 34.883 34.75 34.665 34.54 34.468 34.368 34.258 34.163 34.09 34.043 33.978 33.95 33.963 33.993 34.08 34.173 34.338 34.485 34.648 34.733 34.91 35.073 35.235 35.388 35.52 35.633 35.755 35.9 36.033 36.173 36.288 36.43 36.61 36.698 36.835 36.965 37.033 37.135 37.2 37.275 37.32 37.365 37.408 37.448 37.448 37.465 37.455 37.488 37.463 37.43 37.405 37.38 37.368 37.32 37.278 37.223 37.173 37.155 37.103 37.075 37.043 36.978 36.928 36.865 36.8 36.73 36.66 36.59 36.485 36.398 36.305 36.223 36.173 36.085 36.025 35.94 35.848 35.768 35.678 35.595 35.515 35.41 35.32 35.27 35.158 35.093 35.01 34.905 34.83 34.715 34.658 34.555 34.46 34.388 34.278 34.163 34.115 33.968 33.905 33.833 33.745 33.655 33.543 33.455 33.36 33.27 33.173 33.048 32.963 32.844 32.755 32.638 32.533 32.441 32.278 32.126 32.043 31.947 31.761 31.687 31.607 31.566 34.561 41.047 45.757 47.313 45.346 37.364 30.406 29.974 29.785 29.519 29.374 29.195 29.019 28.748 30.894 30.952 29.1 29.201 27.848 27.882 27.41 27.17 27.028 26.76 26.52 26.443 26.345 26.27 25.878 25.63 25.19 24.905 25.37 25.738 27.188 27.858 28.66 27.455 27.985 27.075 26.935 27.598 27.558 28.02 28.245 28.253 28.14 28.465 29.123 28.805 28.933 29.135 29.415 29.64 29.853 30.04 30.278 30.473 30.703 30.928 31.13 31.355 31.565 31.733 31.89 32 32.125 32.24 32.323 32.405 32.443 32.53 32.575 32.608 32.65 32.67 32.693 32.68 32.668 32.63 32.595 32.548 32.528 32.48 32.44 32.408 32.363 32.336 32.394 32.486 32.619 33.057 37.424 35.449 35.17 33.688 32.477 32.135 32.041 31.986 31.978 31.945 31.875 31.847 31.832 31.807 31.747 31.723 31.689 31.662 31.633 31.611 31.544 31.496 31.434 31.397 31.343 31.291 31.223 31.155 31.106 31.038 30.984 30.896 30.797
40.385 40.433 40.525 40.583 40.645 40.728 40.8 40.88 40.933 40.968 41.058 41.123 41.208 41.258 41.318 41.428 41.473 41.518 41.57 41.655 41.723 41.635 41.648 41.678 41.725 41.785 41.848 41.893 41.943 41.988 41.978 42.025 42.048 42.075 42.128 42.16 42.19 42.258 42.278 42.313 42.353 42.358 42.363 42.385 42.408 42.43 42.423 42.443 42.47 42.45 42.46 42.473 42.488 42.465 42.478 42.468 42.465 42.49 42.525 42.5 42.488 42.488 42.475 42.518 42.508 42.505 42.478 42.473 42.478 42.455 42.45 42.47 42.455 42.465 42.463 42.483 42.49 42.477 42.492 42.528 42.515 42.515 42.503 42.512 42.462 42.367 42.347 42.349 42.573 42.301 42.375 42.934 43.41 42.7 42.14 42.125 42.063 41.963 41.923 41.953 41.975 41.885 41.845 41.845 41.79 41.748 41.76 41.755 41.738 41.698 41.668 41.663 41.633 41.59 41.57 41.538 41.505 41.528 41.478 41.478 41.44 41.405 41.368 41.355 41.308 41.273 41.248 41.22 41.153 41.108 41.02 40.925 40.845 40.768 40.698 40.618 40.56 40.45 40.38 40.285 40.233 40.163 40.07 39.975 39.868 39.745 39.633 39.533 39.423 39.293 39.208 39.098 39.02 38.928 38.798 38.668 38.603 38.468 38.368 38.24 38.118 37.995 37.853 37.7 37.578 37.445 37.318 37.22 37.07 36.96 36.838 36.718 36.623 36.523 36.41 36.328 36.253 36.153 36.043 35.94 35.833 35.703 35.613 35.48 35.408 35.3 35.248 35.148 35.05 34.925 34.825 34.718 34.625 34.495 34.403 34.32 34.22 34.158 34.09 34.06 34.005 34.02 34.103 34.183 34.29 34.425 34.588 34.738 34.905 35.065 35.218 35.37 35.483 35.648 35.805 35.93 36.05 36.173 36.31 36.445 36.528 36.645 36.768 36.883 36.988 37.07 37.165 37.223 37.273 37.328 37.38 37.373 37.43 37.43 37.44 37.46 37.47 37.483 37.453 37.433 37.403 37.38 37.35 37.285 37.243 37.198 37.168 37.135 37.075 37.023 36.963 36.938 36.863 36.813 36.743 36.653 36.573 36.495 36.383 36.33 36.253 36.155 36.093 35.995 35.925 35.82 35.715 35.648 35.56 35.473 35.385 35.325 35.253 35.18 35.07 35.003 34.905 34.835 34.735 34.62 34.523 34.463 34.38 34.305 34.19 34.11 34.015 33.963 33.863 33.793 33.71 33.6 33.518 33.423 33.325 33.233 33.14 33.015 32.873 32.757 32.608 32.524 32.421 32.301 32.128 31.994 31.924 31.774 31.675 31.601 31.538 36.51 40.523 43.133 46.109 42.774 39.388 31.315 30.139 30.038 30.838 30.728 29.831 28.957 28.787 29.078 30.245 28.766 28.288 28.072 27.736 27.448 27.26 28.063 26.878 26.6 26.388 26.335 26.123 25.888 26.418 27.198 25.198 25.37 26.953 26.303 36.063 27.213 26.77 26.885 27.393 29.058 28.275 27.68 27.865 28.185 29.345 29.575 28.508 29.358 29.185 29.155 29.268 29.498 29.793 29.94 30.13 30.34 30.583 30.793 31.023 31.208 31.413 31.613 31.765 31.93 32.075 32.205 32.313 32.413 32.508 32.543 32.603 32.645 32.703 32.735 32.775 32.83 32.805 32.77 32.71 32.7 32.675 32.633 32.59 32.552 32.511 32.456 32.447 32.504 32.571 32.734 33.161 35.017 39.402 34.479 32.518 32.602 32.448 32.144 32.101 32.068 32.055 32.004 31.952 31.91 31.883 31.848 31.833 31.771 31.754 31.698 31.658 31.611 31.565 31.505 31.449 31.407 31.357 31.294 31.224 31.16 31.085 31.009 30.923 30.833
40.498 40.498 40.57 40.685 40.728 40.78 40.835 40.913 40.968 41.033 41.178 41.358 41.245 41.315 41.375 41.49 41.523 41.553 41.638 41.678 41.74 41.678 41.71 41.725 41.775 41.86 41.91 41.958 42.013 42.03 42.038 42.093 42.138 42.155 42.203 42.248 42.27 42.318 42.343 42.378 42.438 42.433 42.423 42.438 42.458 42.488 42.523 42.53 42.523 42.518 42.53 42.535 42.558 42.538 42.568 42.54 42.558 42.57 42.575 42.58 42.558 42.568 42.555 42.573 42.563 42.56 42.555 42.558 42.518 42.525 42.525 42.52 42.503 42.53 42.573 42.558 42.568 42.544 42.568 42.571 42.562 42.549 42.569 42.571 42.504 42.428 42.463 42.46 42.484 42.311 42.577 43.606 43.43 42.378 42.215 42.21 42.14 42.04 42.04 42.043 42.048 41.978 41.94 41.91 41.87 41.845 41.845 41.83 41.823 41.783 41.758 41.723 41.703 41.685 41.663 41.653 41.62 41.62 41.583 41.555 41.54 41.48 41.45 41.438 41.428 41.375 41.34 41.305 41.223 41.158 41.08 41.013 40.928 40.855 40.758 40.665 40.578 40.513 40.433 40.34 40.265 40.175 40.095 39.988 39.89 39.79 39.648 39.555 39.423 39.298 39.193 39.105 38.998 38.878 38.788 38.668 38.6 38.47 38.345 38.25 38.108 37.963 37.823 37.68 37.558 37.443 37.3 37.19 37.075 36.923 36.855 36.728 36.645 36.553 36.438 36.34 36.253 36.135 36.06 35.935 35.838 35.715 35.64 35.533 35.453 35.375 35.288 35.19 35.095 34.998 34.895 34.765 34.683 34.578 34.473 34.388 34.29 34.225 34.178 34.093 34.083 34.11 34.203 34.298 34.383 34.518 34.683 34.813 34.998 35.163 35.338 35.495 35.655 35.788 35.92 36.04 36.185 36.348 36.438 36.585 36.705 36.823 36.92 37.013 37.095 37.183 37.25 37.308 37.348 37.375 37.418 37.453 37.473 37.495 37.508 37.515 37.51 37.518 37.508 37.47 37.47 37.428 37.39 37.355 37.305 37.27 37.218 37.193 37.12 37.078 37.005 36.97 36.913 36.843 36.778 36.705 36.59 36.498 36.43 36.353 36.283 36.193 36.118 36.03 35.948 35.875 35.775 35.723 35.623 35.543 35.435 35.37 35.29 35.19 35.103 35.025 34.953 34.875 34.76 34.668 34.585 34.5 34.438 34.343 34.258 34.163 34.063 33.983 33.895 33.87 33.77 33.668 33.583 33.498 33.385 33.283 33.165 33.033 32.905 32.773 32.636 32.54 32.42 32.326 32.15 31.993 31.916 31.794 31.686 31.593 31.531 34.049 35.903 36.935 35.82 38.065 38.555 35.765 31.455 30.613 34.905 32.667 29.489 29.272 29.148 29.089 28.507 28.325 28.136 28.119 27.988 27.92 27.345 27.158 26.79 26.615 26.485 26.418 26.445 25.833 25.718 25.08 25.438 25.508 25.675 29.655 31.375 26.993 26.843 27.14 27.493 29.588 30.123 29.945 27.925 28.203 28.883 31.775 28.988 31.683 29.385 34.153 29.345 29.568 29.87 30.03 30.235 30.435 30.643 30.835 31.073 31.25 31.455 31.663 31.853 32 32.118 32.258 32.385 32.46 32.548 32.633 32.665 32.73 32.753 32.805 32.85 32.893 32.903 32.868 32.801 32.804 32.794 32.746 32.687 32.644 32.587 32.575 32.579 32.601 32.664 33.451 37.128 33.395 36.038 34.666 34.048 33.136 32.821 32.475 32.498 32.622 32.271 32.101 32.029 31.985 31.951 31.912 31.896 31.861 31.844 31.808 31.763 31.719 31.664 31.607 31.542 31.458 31.414 31.335 31.266 31.227 31.134 31.095 31.285 31.12
40.463 40.543 40.633 40.7 40.758 40.82 40.91 40.97 41.043 41.105 41.185 41.23 41.3 41.358 41.43 41.525 41.605 41.615 41.77 41.738 41.79 41.753 41.773 41.788 41.855 41.915 41.993 41.995 42.06 42.1 42.13 42.175 42.19 42.223 42.243 42.31 42.33 42.398 42.425 42.428 42.475 42.5 42.498 42.513 42.508 42.563 42.57 42.583 42.603 42.623 42.61 42.645 42.625 42.62 42.633 42.618 42.615 42.62 42.61 42.638 42.598 42.625 42.588 42.658 42.62 42.613 42.613 42.623 42.595 42.62 42.565 42.56 42.598 42.603 42.625 42.62 42.65 42.64 42.637 42.617 42.638 42.635 42.631 42.629 42.57 42.501 42.514 42.702 42.742 42.464 42.786 42.983 43.428 42.488 42.313 42.27 42.235 42.163 42.115 42.125 42.118 42.055 42.038 41.985 41.943 41.948 41.933 41.925 41.87 41.858 41.82 41.795 41.825 41.78 41.765 41.75 41.698 41.698 41.67 41.635 41.625 41.57 41.538 41.525 41.498 41.475 41.438 41.37 41.31 41.243 41.145 41.055 40.985 40.895 40.818 40.723 40.668 40.56 40.455 40.343 40.275 40.195 40.093 39.983 39.89 39.753 39.648 39.553 39.44 39.315 39.233 39.108 38.993 38.873 38.765 38.66 38.563 38.47 38.32 38.2 38.048 37.93 37.81 37.643 37.545 37.423 37.3 37.178 37.058 36.938 36.87 36.73 36.668 36.573 36.478 36.358 36.26 36.17 36.073 35.988 35.868 35.773 35.675 35.58 35.49 35.428 35.345 35.265 35.168 35.075 34.958 34.843 34.753 34.648 34.553 34.445 34.36 34.29 34.235 34.193 34.188 34.215 34.278 34.363 34.498 34.6 34.773 34.918 35.083 35.268 35.42 35.608 35.775 35.903 36.07 36.208 36.323 36.495 36.64 36.735 36.85 36.935 37.05 37.155 37.238 37.328 37.345 37.45 37.468 37.508 37.525 37.575 37.568 37.605 37.613 37.615 37.62 37.628 37.628 37.603 37.56 37.52 37.488 37.443 37.423 37.373 37.338 37.273 37.208 37.145 37.095 37.008 36.94 36.88 36.828 36.738 36.64 36.535 36.468 36.385 36.308 36.19 36.16 36.078 36 35.92 35.8 35.738 35.653 35.593 35.49 35.395 35.32 35.24 35.155 35.095 34.988 34.905 34.81 34.73 34.645 34.56 34.458 34.385 34.28 34.205 34.118 34.005 33.91 33.868 33.768 33.66 33.55 33.483 33.39 33.248 33.168 33.038 32.904 32.785 32.671 32.548 32.451 32.323 32.216 32.03 31.902 31.847 31.679 31.62 31.496 31.602 32.51 31.125 31.474 35.38 39.232 34.449 31.891 30.091 29.834 29.594 29.676 29.573 29.464 28.75 29.02 28.329 28.148 28.021 27.762 27.819 27.383 27.135 26.845 30.56 35.17 32.16 26.325 25.895 27.523 34.25 30.025 25.933 26.24 26.478 27.755 29.29 26.883 27.058 26.978 27.165 28.953 28.648 29.753 27.988 28.103 28.45 28.683 28.99 33.863 30.833 29.495 29.693 29.908 30.12 30.323 30.51 30.718 30.933 31.153 31.348 31.5 31.703 31.913 32.06 32.168 32.323 32.443 32.53 32.598 32.693 32.725 32.788 32.82 32.885 32.958 32.985 32.974 32.948 32.938 32.91 32.892 32.83 32.795 32.748 32.682 32.654 32.642 32.69 32.769 32.826 34.154 37.181 36.352 35.086 32.967 32.859 32.643 32.453 32.474 33.035 32.979 32.287 32.122 32.068 32.04 31.992 31.954 31.913 31.884 31.84 31.808 31.757 31.694 31.666 31.589 31.509 31.45 31.403 31.358 31.283 31.625 31.627 31.467 33.443
40.535 40.61 40.698 40.748 40.85 40.923 40.985 41.135 41.078 41.185 41.26 41.325 41.373 41.445 41.513 41.59 41.663 41.683 41.76 41.83 41.893 41.808 41.838 41.843 41.915 41.988 42.063 42.088 42.138 42.178 42.205 42.26 42.255 42.305 42.333 42.388 42.413 42.453 42.483 42.523 42.508 42.575 42.593 42.598 42.6 42.608 42.625 42.663 42.69 42.688 42.695 42.685 42.68 42.688 42.678 42.668 42.693 42.685 42.688 42.673 42.633 42.673 42.67 42.688 42.64 42.668 42.688 42.683 42.668 42.683 42.66 42.665 42.683 42.67 42.708 42.7 42.678 42.685 42.668 42.691 42.688 42.695 42.698 42.691 42.618 42.561 42.616 42.783 42.69 42.518 43.079 43.459 43.067 42.438 42.383 42.39 42.32 42.238 42.215 42.218 42.22 42.175 42.11 42.06 42.043 42.02 41.993 41.963 41.95 41.923 41.898 41.885 41.865 41.85 41.848 41.825 41.815 41.77 41.745 41.718 41.705 41.67 41.623 41.613 41.58 41.52 41.51 41.46 41.405 41.313 41.23 41.15 41.055 40.955 40.875 40.788 40.71 40.61 40.515 40.423 40.32 40.243 40.14 40.018 39.918 39.78 39.698 39.55 39.443 39.293 39.188 39.095 38.973 38.878 38.748 38.633 38.538 38.415 38.285 38.15 38.028 37.86 37.755 37.623 37.498 37.398 37.263 37.16 37.053 36.933 36.84 36.74 36.645 36.533 36.473 36.368 36.278 36.175 36.065 35.97 35.883 35.788 35.703 35.633 35.545 35.45 35.388 35.31 35.215 35.1 35 34.903 34.78 34.708 34.61 34.55 34.43 34.35 34.273 34.25 34.258 34.303 34.388 34.49 34.595 34.725 34.915 35.075 35.228 35.403 35.568 35.703 35.865 36.005 36.153 36.29 36.435 36.585 36.723 36.858 36.963 37.063 37.2 37.288 37.37 37.42 37.493 37.533 37.613 37.61 37.65 37.67 37.708 37.723 37.745 37.738 37.73 37.74 37.72 37.725 37.683 37.633 37.608 37.558 37.505 37.463 37.415 37.37 37.298 37.258 37.175 37.13 37.038 36.99 36.878 36.783 36.72 36.628 36.53 36.443 36.35 36.263 36.225 36.123 36.05 35.973 35.868 35.798 35.713 35.615 35.515 35.445 35.343 35.305 35.225 35.13 35.033 34.945 34.84 34.738 34.653 34.57 34.44 34.348 34.255 34.173 34.1 33.98 33.87 33.8 33.723 33.638 33.5 33.443 33.353 33.24 33.15 33.033 32.881 32.795 32.681 32.545 32.427 32.314 32.173 32.027 31.857 31.821 31.707 31.636 31.506 31.406 32.177 31.623 34.875 36.393 42.182 36.305 31.475 30 29.901 29.606 29.308 29.441 30.365 28.946 28.554 28.413 28.254 28.059 27.866 27.715 27.527 27.205 26.95 30.215 36.853 30.253 26.34 26.098 35.375 32.12 29.633 28.003 26.098 26.38 26.878 31.02 27.738 27.295 27.163 27.298 28.4 31.595 28.958 28.738 28.205 28.483 28.708 29.008 29.933 30.64 29.745 29.745 29.99 30.195 30.398 30.61 30.815 31.008 31.205 31.393 31.558 31.753 31.96 32.12 32.255 32.37 32.488 32.575 32.66 32.763 32.818 32.863 32.918 32.969 33.021 33.072 33.066 33.045 33.047 32.994 32.949 32.93 32.914 32.857 32.805 32.768 32.742 32.78 32.858 32.961 33.187 37.118 35.001 37.372 34.495 32.75 32.481 32.549 32.825 33.299 33.361 32.423 32.23 32.168 32.113 32.063 32.031 31.96 31.922 31.873 31.849 31.793 31.736 31.766 31.651 31.6 31.524 31.415 31.357 31.365 31.232 31.206 32.903 34.938
40.623 40.73 40.76 40.833 40.913 40.958 41.03 41.08 41.16 41.253 41.33 41.393 41.458 41.515 41.583 41.675 41.72 41.76 41.805 41.885 41.923 41.893 41.905 41.935 41.988 42.068 42.12 42.173 42.223 42.268 42.285 42.325 42.353 42.375 42.398 42.453 42.488 42.513 42.57 42.618 42.623 42.618 42.633 42.655 42.66 42.69 42.723 42.75 42.753 42.795 42.783 42.745 42.745 42.735 42.743 42.75 42.743 42.723 42.735 42.73 42.743 42.748 42.738 42.74 42.745 42.753 42.748 42.755 42.725 42.713 42.723 42.74 42.725 42.76 42.763 42.763 42.758 42.76 42.738 42.758 42.742 42.736 42.775 42.735 42.663 42.646 42.731 43.133 42.643 42.677 43.378 43.904 43.16 42.445 42.438 42.435 42.393 42.348 42.278 42.318 42.288 42.225 42.195 42.128 42.098 42.1 42.09 42.07 42.028 41.97 41.96 41.973 41.975 41.918 41.91 41.895 41.86 41.85 41.82 41.785 41.78 41.743 41.69 41.685 41.635 41.595 41.585 41.535 41.473 41.37 41.29 41.233 41.123 41.033 40.953 40.863 40.743 40.663 40.523 40.438 40.338 40.248 40.155 40.048 39.953 39.84 39.74 39.583 39.45 39.328 39.198 39.1 38.99 38.89 38.778 38.645 38.538 38.39 38.258 38.123 37.988 37.848 37.7 37.585 37.483 37.373 37.26 37.13 37.028 36.933 36.825 36.755 36.62 36.535 36.463 36.363 36.248 36.18 36.08 35.98 35.898 35.793 35.708 35.65 35.603 35.523 35.45 35.368 35.258 35.168 35.048 34.975 34.848 34.775 34.69 34.58 34.505 34.43 34.34 34.298 34.345 34.398 34.508 34.59 34.71 34.88 35.028 35.163 35.333 35.495 35.688 35.81 35.98 36.085 36.243 36.388 36.533 36.645 36.818 36.94 37.073 37.193 37.273 37.378 37.445 37.543 37.628 37.645 37.678 37.705 37.788 37.793 37.803 37.823 37.845 37.83 37.825 37.818 37.81 37.785 37.73 37.698 37.643 37.61 37.545 37.535 37.445 37.39 37.353 37.32 37.24 37.19 37.133 37.043 36.948 36.86 36.743 36.668 36.603 36.495 36.43 36.34 36.235 36.155 36.078 35.983 35.905 35.808 35.743 35.638 35.543 35.433 35.368 35.288 35.2 35.095 35 34.893 34.81 34.703 34.625 34.528 34.41 34.303 34.223 34.143 34.063 33.955 33.873 33.778 33.728 33.605 33.5 33.423 33.315 33.235 33.12 32.998 32.86 32.774 32.66 32.529 32.405 32.307 32.16 32.013 31.866 31.778 31.707 31.62 31.501 31.421 31.875 39.472 39.5 42.763 38.632 35.067 30.73 29.872 29.684 30.217 29.856 29.286 29.006 30.634 28.588 28.912 28.367 28.106 27.869 27.853 27.526 27.405 27.043 26.83 26.86 26.665 26.145 25.99 35.18 31.525 32.548 30.913 30.188 26.63 26.753 27.628 27.1 28.085 27.25 27.283 27.74 29.858 28.87 29.28 28.28 28.603 28.975 29.333 29.63 30.955 30.1 29.865 30.063 30.27 30.463 30.67 30.868 31.023 31.243 31.465 31.648 31.78 31.99 32.155 32.305 32.433 32.548 32.648 32.762 32.832 32.899 32.927 32.986 33.058 33.084 33.144 33.167 33.129 33.151 33.093 33.054 33.042 32.997 32.966 32.921 32.869 32.851 32.872 32.976 33.048 34.149 35.024 34.493 33.957 32.875 32.813 32.663 32.954 33.275 33.361 33.176 32.432 32.235 32.215 32.165 32.132 32.101 32.026 32.069 31.974 31.905 31.903 31.916 31.995 33.044 31.701 32.612 31.792 32.166 31.51 31.395 31.298 31.505 32.743
40.693 40.798 40.813 40.903 41.095 41.023 41.073 41.15 41.228 41.303 41.37 41.44 41.518 41.603 41.663 41.72 41.808 41.828 41.9 41.948 41.995 41.963 41.98 42.03 42.045 42.153 42.188 42.24 42.298 42.323 42.373 42.39 42.42 42.448 42.498 42.523 42.568 42.62 42.65 42.663 42.68 42.693 42.708 42.715 42.758 42.775 42.775 42.813 42.81 42.865 42.843 42.805 42.805 42.818 42.823 42.813 42.793 42.803 42.785 42.805 42.795 42.8 42.808 42.803 42.808 42.773 42.793 42.808 42.798 42.78 42.808 42.815 42.815 42.83 42.838 42.83 42.82 42.833 42.812 42.809 42.82 42.815 42.838 42.796 42.722 42.73 42.762 43.245 42.723 42.811 43.528 43.945 42.797 42.534 42.498 42.49 42.46 42.393 42.4 42.403 42.368 42.31 42.248 42.198 42.165 42.19 42.168 42.14 42.103 42.093 42.07 42.065 42.028 42.01 41.965 41.978 41.973 41.935 41.89 41.888 41.858 41.825 41.79 41.75 41.73 41.665 41.635 41.575 41.52 41.45 41.343 41.265 41.163 41.093 41.01 40.9 40.795 40.705 40.603 40.48 40.375 40.27 40.185 40.085 39.955 39.833 39.743 39.613 39.453 39.338 39.203 39.105 38.988 38.88 38.768 38.638 38.49 38.368 38.248 38.135 37.978 37.823 37.71 37.583 37.458 37.345 37.25 37.123 37.033 36.93 36.833 36.723 36.61 36.545 36.418 36.35 36.25 36.155 36.075 35.948 35.913 35.815 35.755 35.685 35.605 35.553 35.468 35.395 35.305 35.22 35.123 35.043 34.948 34.833 34.755 34.633 34.555 34.513 34.413 34.415 34.45 34.523 34.593 34.705 34.833 34.948 35.143 35.3 35.47 35.615 35.78 35.928 36.068 36.225 36.363 36.503 36.64 36.763 36.89 37.063 37.175 37.263 37.355 37.46 37.545 37.625 37.66 37.703 37.725 37.783 37.82 37.86 37.845 37.878 37.893 37.85 37.828 37.855 37.83 37.803 37.778 37.765 37.693 37.645 37.595 37.553 37.503 37.453 37.378 37.338 37.275 37.218 37.13 37.04 36.955 36.848 36.755 36.655 36.585 36.495 36.46 36.36 36.27 36.185 36.09 36.023 35.915 35.828 35.743 35.673 35.588 35.49 35.395 35.3 35.208 35.115 35.003 34.92 34.828 34.753 34.655 34.553 34.45 34.345 34.26 34.173 34.08 33.98 33.89 33.805 33.72 33.613 33.525 33.428 33.345 33.225 33.118 32.983 32.861 32.792 32.65 32.545 32.419 32.307 32.181 32.057 31.892 31.787 31.723 31.61 31.51 31.385 32.759 41.421 42.465 45.879 42.298 38.258 34.356 31.167 29.916 29.914 29.675 29.505 29.671 28.983 29.065 28.548 28.269 28.161 28.024 27.932 27.557 27.27 27.103 27.513 26.998 28.528 27.55 26.083 28.143 30.395 28.82 29.478 26.208 30.135 26.703 26.878 27.175 27.368 27.293 27.37 27.553 27.803 28.035 28.083 28.445 28.615 28.913 29.283 29.895 30.698 30.465 30.063 30.145 30.293 30.583 30.78 30.943 31.088 31.27 31.53 31.7 31.85 32.018 32.223 32.388 32.488 32.602 32.737 32.837 32.913 32.961 33.035 33.083 33.132 33.178 33.24 33.264 33.237 33.226 33.193 33.159 33.154 33.111 33.081 33.012 32.989 32.947 32.961 33.048 33.165 33.529 35.157 33.328 32.918 32.754 32.743 32.888 33.211 33.533 33.396 32.679 32.36 32.277 32.24 32.624 32.638 32.593 32.317 32.523 33.427 32.171 32.419 34.151 33.808 34.805 33.66 33.558 32.4 33.783 33.48 31.92 31.683 33.303 31.653
40.733 40.795 40.865 40.955 41.033 41.093 41.233 41.315 41.358 41.42 41.48 41.52 41.603 41.675 41.73 41.81 41.89 41.928 41.975 42.048 42.113 42.058 42.043 42.095 42.188 42.238 42.265 42.313 42.363 42.44 42.465 42.495 42.508 42.553 42.588 42.608 42.618 42.688 42.733 42.75 42.748 42.773 42.815 42.805 42.825 42.84 42.865 42.873 42.89 42.91 42.903 42.883 42.89 42.878 42.895 42.888 42.868 42.895 42.878 42.88 42.878 42.865 42.883 42.853 42.885 42.853 42.87 42.863 42.86 42.87 42.87 42.9 42.9 42.933 42.908 42.908 42.908 42.925 42.87 42.874 42.9 42.9 42.91 42.861 42.772 42.835 42.93 43.259 42.683 42.963 43.5 43.786 42.86 42.605 42.583 42.575 42.515 42.463 42.49 42.495 42.445 42.373 42.34 42.3 42.248 42.26 42.26 42.21 42.188 42.185 42.173 42.153 42.123 42.095 42.068 42.03 42.043 42.013 41.99 41.95 41.905 41.888 41.848 41.803 41.765 41.723 41.663 41.643 41.583 41.518 41.435 41.313 41.225 41.15 41.035 40.943 40.835 40.765 40.64 40.53 40.428 40.318 40.225 40.123 39.973 39.87 39.75 39.605 39.45 39.338 39.213 39.068 38.973 38.87 38.77 38.623 38.483 38.343 38.218 38.068 37.925 37.81 37.658 37.53 37.4 37.333 37.258 37.133 37.018 36.918 36.818 36.728 36.613 36.525 36.458 36.4 36.29 36.213 36.085 36.003 35.928 35.848 35.76 35.675 35.633 35.593 35.518 35.425 35.323 35.248 35.145 35.06 34.99 34.87 34.763 34.665 34.62 34.538 34.525 34.528 34.565 34.608 34.678 34.77 34.915 35.065 35.225 35.39 35.575 35.75 35.89 36.065 36.195 36.345 36.485 36.615 36.765 36.89 37.008 37.145 37.243 37.34 37.43 37.525 37.613 37.69 37.76 37.778 37.818 37.86 37.865 37.913 37.918 37.92 37.933 37.933 37.92 37.895 37.873 37.838 37.85 37.783 37.74 37.72 37.64 37.618 37.548 37.493 37.438 37.38 37.285 37.235 37.148 37.06 37.013 36.913 36.808 36.698 36.608 36.553 36.455 36.418 36.303 36.21 36.143 36.058 35.973 35.873 35.778 35.67 35.615 35.518 35.45 35.35 35.273 35.17 35.048 34.95 34.88 34.75 34.648 34.548 34.468 34.34 34.25 34.185 34.095 34.008 33.945 33.85 33.748 33.648 33.533 33.42 33.378 33.248 33.155 33.033 32.883 32.782 32.667 32.56 32.468 32.343 32.189 32.053 31.877 31.759 31.712 31.587 31.502 31.393 32.786 40.272 40.658 43.178 41.708 41.067 35.021 30.424 29.898 29.924 29.962 29.614 29.559 29.089 29.786 28.828 28.31 28.536 28.22 27.812 27.687 27.613 27.125 27.345 28.82 30.603 30.35 26.223 26.59 28.99 29.553 33.155 26.078 27.98 27.473 26.875 27.07 27.173 27.19 27.288 27.505 27.738 27.94 28.563 29.53 28.845 28.925 29.158 31.303 34.01 30.765 30.075 30.248 30.39 30.663 30.853 31.008 31.178 31.328 31.585 31.75 31.925 32.074 32.276 32.415 32.551 32.67 32.818 32.912 32.982 33.059 33.098 33.139 33.211 33.277 33.337 33.36 33.345 33.322 33.306 33.276 33.262 33.22 33.194 33.151 33.095 33.087 33.087 33.153 33.312 33.446 33.6 34.459 32.83 32.773 32.74 32.79 32.844 32.941 33.114 32.559 32.525 32.677 33.185 33.295 35.504 34.557 32.213 35.385 34.713 33.626 33.903 35.02 34.293 33.978 33.248 32.888 35.138 33.553 32.355 32.088 31.895 32.85 31.765
40.785 40.857 40.952 41.007 41.09 41.157 41.237 41.31 41.397 41.485 41.54 41.6 41.682 41.885 41.892 41.875 41.987 42.015 42.065 42.125 42.187 42.147 42.167 42.2 42.287 42.307 42.4 42.415 42.462 42.515 42.522 42.562 42.595 42.61 42.667 42.705 42.737 42.775 42.797 42.825 42.832 42.835 42.857 42.89 42.907 42.912 42.915 42.94 42.962 42.987 42.957 42.97 42.972 42.972 42.947 42.972 42.967 42.962 42.957 42.93 42.945 42.947 42.96 42.935 42.967 42.955 42.947 42.927 42.935 42.942 42.945 42.932 42.96 42.97 42.987 42.962 42.97 42.97 42.972 42.982 42.966 42.946 42.944 42.888 42.826 42.874 43.138 43.318 42.801 43.166 43.646 43.821 42.839 42.627 42.674 42.615 42.572 42.555 42.555 42.517 42.512 42.465 42.44 42.367 42.345 42.325 42.335 42.272 42.267 42.237 42.24 42.23 42.21 42.172 42.145 42.122 42.102 42.082 42.055 42.055 42.012 41.965 41.917 41.88 41.827 41.782 41.74 41.69 41.617 41.565 41.485 41.387 41.31 41.222 41.12 41.007 40.902 40.842 40.712 40.567 40.457 40.375 40.247 40.147 40.017 39.892 39.74 39.622 39.445 39.337 39.207 39.075 38.97 38.867 38.715 38.585 38.422 38.272 38.152 38.027 37.887 37.75 37.617 37.507 37.387 37.29 37.192 37.087 37 36.912 36.842 36.722 36.632 36.545 36.455 36.39 36.3 36.202 36.105 36.02 35.922 35.882 35.795 35.737 35.682 35.63 35.555 35.46 35.355 35.285 35.205 35.12 35.027 34.902 34.8 34.712 34.652 34.597 34.562 34.592 34.625 34.677 34.762 34.897 35.027 35.16 35.345 35.505 35.672 35.82 35.977 36.155 36.292 36.45 36.567 36.707 36.857 36.99 37.14 37.212 37.342 37.455 37.525 37.605 37.677 37.742 37.795 37.835 37.885 37.907 37.925 37.947 37.972 37.99 38 38.01 37.977 37.955 37.942 37.907 37.882 37.85 37.793 37.75 37.725 37.643 37.603 37.57 37.498 37.425 37.36 37.273 37.205 37.105 37.013 36.923 36.85 36.77 36.645 36.59 36.518 36.46 36.358 36.275 36.17 36.085 35.995 35.928 35.818 35.71 35.633 35.543 35.463 35.368 35.28 35.18 35.105 34.988 34.883 34.818 34.695 34.598 34.485 34.418 34.313 34.193 34.118 34.04 33.945 33.858 33.758 33.665 33.575 33.46 33.378 33.288 33.165 33.045 32.915 32.808 32.669 32.559 32.48 32.338 32.174 32.044 31.896 31.779 31.7 31.602 31.522 31.391 31.529 33.041 31.923 33.66 35.366 35.083 31.693 30.357 29.923 29.795 29.722 30.008 30.163 29.245 28.953 28.864 28.338 28.235 28.285 27.869 27.743 27.543 27.203 27.463 28.223 28.523 26.768 26.485 27.303 27.405 28.37 28.203 26.908 26.738 26.758 26.903 28.553 27.33 27.308 27.623 28.073 27.865 28.035 28.218 29.48 28.663 28.948 29.175 31.023 34.553 31.39 31.15 30.658 30.43 30.65 30.905 31.088 31.24 31.415 31.622 31.821 31.983 32.163 32.316 32.48 32.594 32.737 32.858 32.962 33.064 33.145 33.19 33.248 33.28 33.334 33.423 33.456 33.455 33.422 33.405 33.389 33.377 33.338 33.309 33.236 33.213 33.206 33.193 33.258 33.382 33.508 33.764 33.223 32.954 32.82 32.735 32.667 32.86 33.066 33.087 32.78 33.681 33.713 36.6 34.461 33.793 33.329 33.012 34.46 34.455 34.683 34.03 33.565 33.09 32.748 33.058 33.195 33.475 33.45 32.728 32.358 32.905 34.183 33.455
40.945 40.992 41.192 41.097 41.205 41.257 41.32 41.417 41.495 41.582 41.645 41.712 41.787 41.847 41.962 42.03 42.117 42.142 42.192 42.245 42.337 42.27 42.255 42.317 42.375 42.407 42.487 42.55 42.585 42.632 42.642 42.665 42.667 42.707 42.747 42.807 42.82 42.872 42.895 42.89 42.935 42.912 42.92 42.945 43.002 43.005 42.987 43.035 43.025 43.032 43.067 43.047 43.07 43.06 43.077 43.052 43.045 43.055 43.035 43.037 43.027 43.035 43.035 43.032 43.035 43.012 43.04 42.977 43.02 43.005 43.017 43.017 43.047 43.037 43.037 43.027 43.032 43.035 43.022 43.032 43.034 42.994 42.989 42.937 42.916 43.009 43.118 42.959 42.843 43.444 43.596 43.587 42.736 42.712 42.726 42.657 42.66 42.612 42.622 42.602 42.592 42.54 42.517 42.467 42.427 42.415 42.457 42.372 42.345 42.327 42.317 42.297 42.272 42.217 42.21 42.207 42.165 42.175 42.142 42.095 42.07 42.04 41.982 41.917 41.912 41.88 41.817 41.73 41.667 41.625 41.545 41.44 41.352 41.265 41.192 41.065 40.992 40.867 40.772 40.635 40.502 40.39 40.31 40.182 40.035 39.915 39.777 39.625 39.485 39.345 39.217 39.085 38.952 38.815 38.677 38.58 38.395 38.247 38.107 37.985 37.86 37.725 37.605 37.492 37.387 37.287 37.19 37.087 36.997 36.9 36.815 36.735 36.647 36.582 36.497 36.44 36.337 36.23 36.135 36.062 36.015 35.945 35.845 35.785 35.727 35.665 35.615 35.505 35.442 35.352 35.245 35.16 35.067 34.97 34.862 34.77 34.705 34.657 34.635 34.67 34.725 34.805 34.87 34.985 35.115 35.265 35.442 35.58 35.76 35.922 36.077 36.242 36.382 36.535 36.682 36.815 36.96 37.102 37.217 37.31 37.412 37.53 37.607 37.685 37.75 37.812 37.855 37.917 37.952 37.972 37.995 38.005 38.025 38.045 38.05 38.06 38.032 38.015 37.967 37.935 37.92 37.875 37.835 37.788 37.738 37.665 37.66 37.595 37.508 37.478 37.395 37.313 37.235 37.145 37.043 36.97 36.865 36.805 36.698 36.63 36.528 36.47 36.39 36.3 36.208 36.128 36.025 35.96 35.833 35.748 35.658 35.578 35.48 35.41 35.3 35.2 35.143 35.023 34.905 34.818 34.71 34.608 34.54 34.445 34.333 34.25 34.148 34.073 33.968 33.888 33.783 33.683 33.595 33.483 33.403 33.295 33.183 33.058 32.965 32.817 32.689 32.587 32.496 32.356 32.188 32.061 31.946 31.755 31.686 31.601 31.511 31.395 31.344 32.108 31.627 31.163 30.987 30.475 30.444 31.263 31.353 29.718 29.934 30.607 29.624 29.136 29.056 29.165 28.803 29.242 28.762 27.944 28.12 27.483 27.245 27.05 26.898 26.558 27.193 28.99 25.735 25.203 25.6 26.055 26.438 26.685 26.87 26.97 28.658 28.288 27.5 27.925 28.325 28.793 28.965 29.06 32.625 28.708 28.985 29.203 29.485 31.02 32.733 31.515 34.875 31.058 30.743 31.042 31.144 31.282 31.504 31.665 31.858 32.035 32.199 32.363 32.526 32.671 32.8 32.946 33.059 33.145 33.209 33.252 33.303 33.359 33.431 33.51 33.527 33.543 33.533 33.5 33.472 33.453 33.441 33.421 33.356 33.336 33.309 33.307 33.353 33.459 34.1 38.582 35.54 33.53 32.993 33.002 33.064 33.739 33.346 33.484 34.758 35.091 34.656 35.582 36.928 36.404 33.263 32.923 33.075 32.938 32.893 33.145 32.95 32.975 32.878 33.528 33.218 34.31 33.383 32.845 32.503 32.655 32.35 31.9
40.96 41.03 41.137 41.205 41.285 41.357 41.425 41.505 41.62 41.692 41.785 41.837 41.932 42.022 42.092 42.237 42.217 42.247 42.355 42.377 42.42 42.392 42.365 42.395 42.475 42.517 42.582 42.647 42.672 42.73 42.762 42.8 42.797 42.837 42.872 42.897 42.935 42.965 42.98 42.975 43.005 43.01 43.012 43.027 43.06 43.102 43.067 43.122 43.127 43.147 43.137 43.137 43.14 43.155 43.147 43.155 43.13 43.137 43.105 43.12 43.13 43.11 43.107 43.117 43.097 43.09 43.087 43.085 43.092 43.107 43.107 43.092 43.125 43.117 43.125 43.1 43.072 43.077 43.07 43.077 43.078 43.073 43.043 42.975 42.967 43.061 43.499 43.059 43.004 43.621 44.214 43.918 42.794 42.79 42.803 42.76 42.71 42.692 42.71 42.697 42.642 42.62 42.592 42.557 42.515 42.507 42.495 42.457 42.435 42.42 42.405 42.397 42.35 42.322 42.302 42.275 42.287 42.257 42.21 42.175 42.15 42.105 42.052 42.027 41.96 41.922 41.872 41.815 41.735 41.687 41.622 41.527 41.42 41.322 41.25 41.15 41.037 40.922 40.81 40.675 40.567 40.447 40.312 40.197 40.075 39.915 39.777 39.66 39.487 39.327 39.23 39.065 38.945 38.787 38.672 38.545 38.382 38.215 38.075 37.945 37.835 37.715 37.585 37.487 37.365 37.27 37.197 37.085 37.005 36.905 36.85 36.77 36.695 36.59 36.525 36.435 36.357 36.257 36.165 36.085 36.017 35.955 35.905 35.835 35.785 35.712 35.672 35.597 35.517 35.397 35.297 35.237 35.087 35.007 34.91 34.81 34.777 34.722 34.7 34.725 34.795 34.872 34.98 35.082 35.235 35.397 35.542 35.692 35.882 36.045 36.197 36.327 36.475 36.597 36.747 36.9 37.062 37.157 37.275 37.38 37.5 37.597 37.685 37.722 37.802 37.88 37.917 37.97 37.995 38.02 38.045 38.037 38.075 38.08 38.11 38.072 38.067 38.025 38.02 38 37.96 37.923 37.895 37.838 37.793 37.72 37.655 37.62 37.573 37.523 37.438 37.355 37.295 37.213 37.103 36.998 36.923 36.825 36.753 36.658 36.583 36.51 36.433 36.335 36.23 36.163 36.07 35.963 35.848 35.75 35.685 35.62 35.51 35.425 35.313 35.215 35.138 35.045 34.93 34.845 34.735 34.65 34.553 34.448 34.345 34.275 34.175 34.075 33.993 33.893 33.8 33.713 33.63 33.543 33.415 33.345 33.203 33.085 32.945 32.85 32.745 32.599 32.513 32.347 32.186 32.06 31.924 31.766 31.713 31.63 31.524 31.42 31.346 31.894 33.147 31.052 30.641 30.84 30.892 31.118 31.583 29.831 30.051 29.992 29.645 29.312 29.366 29.693 28.89 28.739 28.758 29.071 30.467 27.595 27.378 27.63 30.7 26.548 27.54 28.293 26.593 25.67 25.92 26.133 27.968 30.098 27.835 27.128 27.328 27.423 27.543 27.98 28.32 28.49 28.45 35.458 32.998 28.86 28.983 29.328 29.55 29.79 30.083 32.514 38.535 37.439 33.381 31.28 31.25 31.386 31.559 31.728 31.943 32.106 32.267 32.44 32.58 32.725 32.857 33.025 33.133 33.204 33.265 33.312 33.378 33.402 33.483 33.572 33.623 33.621 33.625 33.599 33.586 33.56 33.54 33.523 33.484 33.434 33.43 33.422 33.449 33.559 35.023 36.744 37.162 33.543 33.349 33.921 35.777 35.284 33.98 37.122 35.12 35.29 35.446 35.045 34.583 33.775 33.065 32.94 32.885 32.885 32.735 32.753 32.94 33.015 33.103 32.953 32.83 32.85 32.755 32.77 32.585 32.853 32.3 31.988
41.05 41.165 41.232 41.32 41.412 41.497 41.562 41.64 41.712 41.812 41.905 41.99 42.075 42.14 42.195 42.27 42.305 42.367 42.445 42.512 42.557 42.505 42.46 42.497 42.575 42.63 42.68 42.73 42.815 42.857 42.925 42.922 42.947 42.975 42.972 42.992 43.04 43.045 43.05 43.07 43.075 43.087 43.09 43.107 43.125 43.155 43.172 43.22 43.245 43.242 43.247 43.252 43.222 43.22 43.252 43.242 43.232 43.22 43.187 43.185 43.162 43.175 43.182 43.2 43.16 43.15 43.14 43.155 43.162 43.167 43.167 43.145 43.192 43.182 43.185 43.187 43.185 43.157 43.157 43.125 43.122 43.108 43.078 43.035 43.086 43.134 43.239 43.019 43.108 43.748 44.227 43.297 42.884 42.849 42.834 42.855 42.767 42.767 42.795 42.775 42.715 42.7 42.635 42.61 42.555 42.57 42.567 42.552 42.52 42.53 42.492 42.46 42.435 42.377 42.395 42.367 42.34 42.312 42.277 42.267 42.22 42.157 42.13 42.095 42.062 42.017 41.957 41.887 41.8 41.737 41.672 41.572 41.487 41.395 41.31 41.185 41.1 40.942 40.865 40.742 40.61 40.482 40.365 40.242 40.105 39.925 39.79 39.67 39.52 39.357 39.215 39.08 38.93 38.762 38.647 38.495 38.347 38.22 38.085 37.935 37.812 37.705 37.597 37.472 37.37 37.265 37.21 37.1 37.037 36.955 36.875 36.82 36.735 36.642 36.575 36.487 36.397 36.31 36.217 36.157 36.095 36.03 35.937 35.87 35.825 35.772 35.682 35.595 35.52 35.43 35.33 35.235 35.147 35.057 34.962 34.872 34.82 34.777 34.775 34.832 34.902 34.985 35.097 35.202 35.332 35.477 35.635 35.817 35.997 36.15 36.31 36.427 36.55 36.712 36.867 36.997 37.115 37.262 37.375 37.442 37.58 37.675 37.74 37.82 37.865 37.95 37.99 38.002 38.015 38.065 38.097 38.12 38.12 38.135 38.127 38.132 38.135 38.092 38.057 38.025 37.967 37.935 37.898 37.853 37.83 37.77 37.713 37.648 37.613 37.533 37.463 37.395 37.323 37.223 37.13 37.038 36.968 36.845 36.755 36.69 36.64 36.538 36.45 36.33 36.265 36.17 36.08 36.003 35.875 35.793 35.698 35.628 35.503 35.433 35.355 35.255 35.16 35.058 34.96 34.88 34.745 34.678 34.558 34.478 34.385 34.293 34.218 34.123 34.02 33.923 33.82 33.748 33.66 33.545 33.415 33.343 33.213 33.078 32.968 32.865 32.733 32.622 32.519 32.355 32.209 32.085 31.936 31.795 31.739 31.624 31.536 31.413 31.356 32.352 31.51 31.985 34.407 33.207 31.142 35.006 32.887 29.741 29.631 29.764 29.327 29.161 29.111 29.003 28.496 28.35 28.427 30.513 34.208 29.755 27.365 28.673 29.043 28.553 27.543 33.478 31.058 26.665 26.093 28.933 26.82 28.405 26.875 27.143 27.223 27.263 27.358 28.113 27.868 28.23 28.073 34.255 30.78 28.803 29.143 29.477 29.624 29.891 30.121 30.509 32.37 34.619 34.264 31.224 31.314 31.453 31.612 31.794 31.983 32.167 32.319 32.488 32.643 32.789 32.934 33.075 33.172 33.253 33.334 33.389 33.442 33.494 33.565 33.67 33.717 33.714 33.714 33.682 33.673 33.65 33.638 33.629 33.599 33.554 33.53 33.51 33.518 33.61 33.703 37.472 35.529 34.191 34.062 34.402 33.631 33.861 33.75 33.825 33.76 33.805 33.513 33.305 33.22 33.088 33.01 33.4 32.928 32.86 32.833 32.768 32.773 32.693 32.655 32.555 32.565 32.58 32.7 33.858 32.493 32.638 32.263 32.27
41.155 41.257 41.347 41.412 41.475 41.552 41.665 41.752 41.825 41.905 41.982 42.08 42.13 42.23 42.282 42.325 42.405 42.457 42.52 42.597 42.66 42.617 42.61 42.632 42.677 42.74 42.8 42.872 42.937 42.965 43.012 43.02 43.06 43.09 43.057 43.097 43.095 43.12 43.137 43.162 43.14 43.185 43.19 43.197 43.205 43.225 43.26 43.282 43.312 43.31 43.317 43.325 43.325 43.312 43.297 43.312 43.307 43.292 43.24 43.305 43.267 43.25 43.255 43.252 43.235 43.25 43.21 43.21 43.245 43.22 43.222 43.222 43.235 43.242 43.255 43.25 43.242 43.225 43.23 43.18 43.194 43.177 43.118 43.08 43.153 43.221 43.503 43.051 43.309 43.976 44.578 43.343 42.916 42.946 42.949 42.909 42.84 42.827 42.88 42.822 42.785 42.747 42.71 42.675 42.67 42.662 42.627 42.602 42.61 42.577 42.545 42.525 42.47 42.455 42.455 42.432 42.392 42.367 42.365 42.327 42.29 42.25 42.182 42.152 42.135 42.082 42.02 41.977 41.877 41.8 41.715 41.65 41.565 41.462 41.38 41.275 41.167 41.06 40.917 40.787 40.672 40.525 40.392 40.272 40.117 39.982 39.81 39.66 39.52 39.375 39.217 39.052 38.905 38.77 38.61 38.472 38.355 38.217 38.072 37.93 37.845 37.715 37.6 37.485 37.405 37.3 37.237 37.167 37.08 37.01 36.93 36.867 36.8 36.702 36.647 36.555 36.442 36.357 36.275 36.197 36.132 36.065 36.005 35.915 35.867 35.792 35.712 35.667 35.597 35.495 35.402 35.302 35.185 35.075 35 34.9 34.867 34.837 34.837 34.925 34.997 35.1 35.2 35.357 35.482 35.612 35.78 35.945 36.102 36.265 36.387 36.51 36.687 36.842 36.967 37.102 37.22 37.332 37.452 37.547 37.672 37.752 37.832 37.885 37.967 37.99 38.037 38.05 38.09 38.137 38.117 38.14 38.172 38.145 38.142 38.13 38.15 38.127 38.065 38.027 37.992 37.953 37.925 37.878 37.833 37.763 37.718 37.665 37.63 37.573 37.493 37.43 37.345 37.263 37.148 37.05 36.945 36.855 36.78 36.698 36.62 36.533 36.47 36.383 36.295 36.19 36.083 36.015 35.93 35.823 35.733 35.645 35.553 35.465 35.348 35.27 35.183 35.08 34.985 34.893 34.795 34.698 34.61 34.485 34.393 34.305 34.24 34.143 34.043 33.933 33.86 33.748 33.668 33.55 33.445 33.38 33.23 33.093 32.985 32.865 32.768 32.621 32.543 32.399 32.221 32.082 31.971 31.794 31.712 31.626 31.521 31.411 31.358 32.319 31.797 31.58 35.641 33.568 30.373 30.513 30.452 29.833 29.629 29.555 29.911 29.558 29.338 28.807 28.578 28.449 28.303 28.891 30.31 28.105 27.305 27.21 27.608 26.67 26.743 30.808 25.35 25.383 25.91 26.448 26.763 27.125 27.44 27.04 27.218 27.835 27.555 29.94 27.803 28.878 28.95 28.308 28.998 28.829 28.976 29.274 29.367 29.65 29.965 30.14 30.404 32.939 34.151 31.318 31.413 31.537 31.687 31.898 32.071 32.23 32.374 32.533 32.694 32.834 32.967 33.124 33.233 33.311 33.409 33.465 33.517 33.57 33.638 33.712 33.768 33.781 33.808 33.786 33.772 33.748 33.729 33.72 33.691 33.67 33.63 33.628 33.618 33.663 33.776 36.558 34.822 35.848 35.378 33.983 33.87 34.028 33.805 33.505 33.578 33.69 33.92 33.323 33.185 33.14 33.105 33.078 32.995 32.945 32.888 32.813 32.76 32.715 32.71 32.638 32.65 32.578 33.36 32.758 32.565 32.35 32.263 34.728
41.202 41.41 41.602 41.517 41.582 41.66 41.725 41.845 41.905 42.005 42.08 42.16 42.252 42.29 42.442 42.38 42.512 42.552 42.6 42.655 42.702 42.702 42.69 42.71 42.772 42.857 42.897 42.98 43.047 43.09 43.11 43.127 43.14 43.197 43.182 43.155 43.165 43.192 43.23 43.217 43.207 43.232 43.252 43.257 43.267 43.29 43.347 43.372 43.367 43.372 43.39 43.385 43.38 43.362 43.36 43.36 43.335 43.337 43.345 43.342 43.342 43.327 43.302 43.305 43.317 43.31 43.285 43.282 43.29 43.27 43.292 43.285 43.277 43.32 43.325 43.32 43.337 43.32 43.29 43.257 43.262 43.251 43.201 43.145 43.211 43.405 43.561 43.122 43.542 44.228 44.396 43.323 43.044 43.002 42.974 42.943 42.89 42.89 42.892 42.877 42.797 42.775 42.755 42.73 42.71 42.707 42.702 42.69 42.65 42.622 42.587 42.585 42.555 42.527 42.517 42.512 42.487 42.445 42.427 42.392 42.352 42.305 42.257 42.24 42.192 42.15 42.08 42.022 41.942 41.872 41.777 41.675 41.63 41.527 41.445 41.317 41.2 41.09 40.96 40.85 40.717 40.56 40.427 40.305 40.17 40.007 39.835 39.662 39.522 39.395 39.217 39.037 38.905 38.76 38.612 38.5 38.367 38.207 38.067 37.937 37.86 37.72 37.617 37.532 37.44 37.345 37.262 37.195 37.13 37.082 37.012 36.935 36.875 36.78 36.717 36.617 36.542 36.46 36.342 36.26 36.222 36.142 36.072 35.972 35.935 35.855 35.755 35.695 35.622 35.52 35.405 35.327 35.217 35.107 35.045 34.98 34.907 34.922 34.962 35.047 35.132 35.212 35.322 35.437 35.622 35.747 35.887 36.055 36.2 36.332 36.487 36.645 36.785 36.95 37.062 37.187 37.31 37.437 37.532 37.64 37.735 37.82 37.927 38.002 38.035 38.07 38.105 38.142 38.162 38.185 38.182 38.16 38.222 38.202 38.207 38.197 38.215 38.14 38.092 38.062 37.997 37.975 37.93 37.9 37.84 37.798 37.765 37.73 37.64 37.55 37.5 37.443 37.338 37.238 37.128 37.053 36.973 36.89 36.825 36.725 36.658 36.563 36.495 36.413 36.323 36.208 36.098 36.03 35.945 35.843 35.76 35.675 35.58 35.47 35.385 35.278 35.17 35.073 34.995 34.915 34.818 34.72 34.635 34.528 34.413 34.328 34.245 34.15 34.063 33.97 33.89 33.778 33.665 33.593 33.473 33.385 33.273 33.133 33.01 32.905 32.775 32.662 32.533 32.382 32.222 32.088 31.965 31.777 31.697 31.623 31.534 31.403 31.359 31.67 32.663 31.551 32.437 34.023 31.158 30.035 30.077 29.869 29.674 29.598 29.393 29.248 29.081 28.778 28.485 28.313 28.211 28.085 27.97 27.358 27.08 26.953 26.803 26.65 26.47 26.065 25.505 25.498 25.793 26.795 27.973 26.743 27.035 28.625 27.335 27.675 28.85 28.578 28.294 31.584 32.133 33.531 31.483 29.03 29.467 30.218 30.703 30.149 30.909 31.178 31.456 31.759 31.8 31.512 31.524 31.599 31.778 31.99 32.168 32.309 32.446 32.571 32.759 32.884 33.043 33.158 33.284 33.382 33.485 33.563 33.581 33.639 33.706 33.784 33.81 33.868 33.884 33.862 33.844 33.806 33.835 33.811 33.792 33.746 33.734 33.704 33.686 33.715 33.788 36.093 37.169 34.97 35.943 34.415 33.935 33.713 34.37 33.568 33.578 33.468 33.525 33.29 33.263 33.233 33.128 33.075 33.08 33.078 32.935 32.898 32.813 32.823 32.72 32.663 32.643 32.66 33.193 32.665 32.59 32.488 32.318 32.865
41.32 42.045 41.605 41.575 41.68 41.76 41.842 41.975 42.005 42.18 42.252 42.285 42.35 42.382 42.55 42.51 42.587 42.68 42.705 42.765 42.787 42.81 42.792 42.812 42.872 42.922 43.002 43.077 43.127 43.167 43.177 43.17 43.22 43.262 43.27 43.252 43.255 43.272 43.27 43.282 43.297 43.335 43.32 43.34 43.335 43.382 43.412 43.485 43.45 43.447 43.452 43.467 43.467 43.47 43.437 43.435 43.42 43.412 43.405 43.397 43.387 43.402 43.387 43.355 43.375 43.362 43.317 43.32 43.357 43.33 43.34 43.352 43.365 43.375 43.362 43.385 43.382 43.375 43.357 43.327 43.337 43.327 43.256 43.207 43.329 43.618 43.393 43.183 43.713 44.289 44.382 43.139 43.051 43.073 43.071 42.99 42.91 42.932 42.965 42.917 42.825 42.802 42.762 42.765 42.797 42.79 42.757 42.727 42.705 42.707 42.682 42.652 42.615 42.6 42.585 42.565 42.535 42.505 42.465 42.432 42.425 42.385 42.327 42.282 42.232 42.18 42.135 42.07 41.987 41.925 41.81 41.755 41.675 41.577 41.477 41.355 41.255 41.122 40.995 40.882 40.745 40.635 40.457 40.355 40.15 40.005 39.872 39.702 39.547 39.402 39.195 39.052 38.882 38.755 38.615 38.5 38.36 38.232 38.107 37.977 37.875 37.787 37.705 37.605 37.5 37.415 37.332 37.265 37.215 37.147 37.072 36.99 36.925 36.842 36.792 36.7 36.602 36.49 36.372 36.345 36.255 36.167 36.117 36.025 35.977 35.905 35.82 35.74 35.65 35.567 35.452 35.36 35.275 35.165 35.087 35.022 34.972 34.997 35.05 35.125 35.217 35.352 35.45 35.597 35.717 35.867 36.027 36.18 36.33 36.487 36.635 36.757 36.895 37.055 37.157 37.275 37.415 37.562 37.657 37.74 37.835 37.917 37.987 38.05 38.085 38.137 38.185 38.21 38.227 38.255 38.237 38.267 38.267 38.257 38.237 38.252 38.225 38.175 38.157 38.115 38.06 38.01 37.983 37.93 37.88 37.805 37.788 37.735 37.663 37.603 37.525 37.425 37.36 37.26 37.173 37.085 36.978 36.92 36.82 36.74 36.663 36.578 36.498 36.393 36.295 36.225 36.118 36.023 35.945 35.863 35.758 35.658 35.59 35.478 35.395 35.298 35.193 35.12 35.04 34.928 34.833 34.735 34.648 34.545 34.453 34.348 34.273 34.203 34.09 33.965 33.878 33.785 33.698 33.603 33.498 33.41 33.295 33.143 33.005 32.88 32.79 32.669 32.576 32.415 32.256 32.113 32.003 31.835 31.723 31.624 31.516 31.422 31.365 31.751 32.356 31.723 31.455 31.762 30.386 30.309 29.997 29.94 29.799 29.476 29.292 31.786 30.883 28.726 28.479 28.331 28.091 28.151 27.68 27.355 27.08 26.753 26.458 29.103 26.145 25.78 25.458 26.043 26.901 26.535 26.725 27.476 27.147 31.798 27.314 27.603 28.784 30.552 29.552 28.413 31.255 37.185 32.282 35.505 30.235 29.879 30.58 30.215 30.457 30.957 31.649 32.321 31.182 31.834 31.637 31.696 31.847 32.04 32.224 32.354 32.505 32.645 32.833 32.958 33.076 33.214 33.338 33.469 33.559 33.599 33.648 33.717 33.772 33.848 33.889 33.938 33.96 33.95 33.928 33.901 33.9 33.898 33.892 33.847 33.806 33.809 33.766 33.778 33.85 34.135 34.83 35.765 35.623 35.18 34.34 33.825 33.685 33.653 33.55 33.538 33.515 33.385 33.333 33.303 33.203 33.375 33.16 33.588 33.143 33.355 32.878 32.785 32.718 32.693 32.68 32.708 32.748 32.71 32.853 32.623 32.46 33.668
41.44 41.507 41.605 41.677 41.752 41.845 41.947 42.017 42.115 42.187 42.255 42.377 42.422 42.487 42.54 42.6 42.672 42.782 42.83 42.89 42.922 42.91 42.89 42.945 42.987 43.005 43.09 43.162 43.212 43.257 43.23 43.262 43.302 43.352 43.357 43.367 43.362 43.352 43.342 43.35 43.365 43.39 43.377 43.392 43.412 43.425 43.465 43.495 43.48 43.495 43.485 43.527 43.537 43.512 43.512 43.477 43.462 43.465 43.452 43.44 43.422 43.435 43.45 43.422 43.417 43.415 43.38 43.377 43.392 43.425 43.407 43.417 43.457 43.457 43.435 43.46 43.445 43.445 43.415 43.405 43.405 43.371 43.287 43.26 43.389 43.937 43.403 43.319 43.828 44.546 44.837 43.426 43.154 43.123 43.153 43.064 43.002 43.005 42.995 42.945 42.89 42.87 42.817 42.845 42.85 42.827 42.81 42.767 42.775 42.765 42.727 42.692 42.662 42.637 42.62 42.597 42.567 42.527 42.495 42.472 42.48 42.417 42.37 42.33 42.285 42.245 42.177 42.115 42.062 41.942 41.885 41.782 41.71 41.615 41.487 41.392 41.265 41.162 41.012 40.89 40.78 40.642 40.46 40.337 40.187 40.017 39.86 39.685 39.517 39.375 39.202 39.067 38.9 38.777 38.657 38.552 38.4 38.255 38.14 38.02 37.942 37.85 37.775 37.687 37.585 37.51 37.402 37.342 37.302 37.215 37.157 37.062 37.005 36.917 36.847 36.77 36.645 36.565 36.482 36.42 36.322 36.225 36.17 36.097 36.027 35.932 35.867 35.777 35.68 35.577 35.48 35.375 35.295 35.205 35.14 35.1 35.055 35.08 35.13 35.227 35.322 35.452 35.565 35.675 35.837 35.985 36.14 36.312 36.447 36.617 36.757 36.895 37.025 37.145 37.272 37.395 37.527 37.637 37.765 37.855 37.91 38.002 38.08 38.145 38.157 38.195 38.235 38.27 38.277 38.287 38.312 38.337 38.345 38.312 38.317 38.315 38.287 38.227 38.187 38.137 38.107 38.058 38.01 37.968 37.92 37.86 37.808 37.765 37.698 37.643 37.55 37.468 37.395 37.31 37.2 37.098 36.99 36.923 36.835 36.735 36.67 36.593 36.493 36.42 36.315 36.248 36.128 36.038 35.968 35.873 35.783 35.7 35.62 35.498 35.405 35.31 35.213 35.11 35.015 34.945 34.84 34.735 34.653 34.553 34.443 34.375 34.303 34.188 34.095 33.99 33.9 33.795 33.703 33.618 33.525 33.405 33.27 33.155 33.043 32.93 32.78 32.685 32.6 32.421 32.281 32.16 32.01 31.852 31.702 31.604 31.501 31.424 31.367 31.563 32.852 31.548 31.261 30.502 30.406 30.534 30.271 29.779 29.724 29.475 29.684 29.951 29.522 28.764 28.553 29.12 30.674 27.876 27.64 28.32 27.055 26.848 26.543 26.703 29.635 30.153 27.341 25.987 26.381 26.239 26.444 26.849 27.784 27.429 27.353 27.501 28.056 28.562 28.219 29.367 36.096 33.408 29.403 32.075 30.577 29.778 30.026 30.686 32.676 31.202 31.402 32.298 33.281 33.081 31.754 31.784 31.921 32.085 32.298 32.426 32.577 32.709 32.877 33.022 33.114 33.255 33.379 33.515 33.63 33.671 33.722 33.782 33.842 33.894 33.953 33.993 34.038 34.015 34.007 33.989 34.004 34.014 33.991 33.924 33.905 33.885 33.848 33.835 33.898 33.913 35.488 35.435 35.448 35.613 34.54 34.133 33.763 33.69 33.645 33.545 33.558 33.415 33.39 33.295 33.345 34.425 34.008 33.585 33.07 33.008 32.948 32.828 32.815 32.793 32.708 32.7 32.79 33.303 33.13 32.633 32.465 32.985
