ncols 471
nrows 32
xllcorner    455032
yllcorner    93024
cellsize     2
NODATA_value -9999
14.256 15.616 13.764 14.894 21.526 15.009 24.631 22.811 21.391 12.571 12.389 13.346 11.986 12.644 12.156 11.434 11.519 14.806 13.411 11.206 12.366 12.621 10.254 8.841 7.946 8.769 10.986 10.974 10.929 10.746 7.669 7.484 7.514 7.169 7.279 6.361 6.339 6.431 5.871 5.589 6.044 9.619 13.681 15.806 8.344 5.556 6.934 4.849 4.756 6.761 5.299 4.514 5.071 4.304 4.834 7.208 7.144 6.229 3.666 3.524 3.441 3.327 3.249 3.203 3.039 2.892 2.793 3.217 3.259 2.24 1.524 1.306 1.249 1.086 0.944 0.876 0.826 1.235 1.439 1.564 1.481 1.623 0.807 0.214 0.219 0.289 0.329 0.251 0.176 0.056 -0.011 -0.098 -0.17 -0.263 -0.332 -0.446 -0.597 -0.716 -0.864 -1.004 -1.193 -1.396 -1.559 -1.799 -2.046 -1.624 -1.634 -1.619 -1.621 -1.614 -1.624 -1.631 -1.634 -1.636 -1.621 -1.631 -1.636 -9999 -9999 -9999 -9999 2.456 2.359 2.351 -2.286 -1.582 -1.629 -1.593 -1.834 -1.375 -1.153 -0.939 -0.788 -0.698 0.036 -0.44 -0.547 -0.446 -0.306 -0.251 -0.216 -0.189 -0.162 -0.154 -0.187 -0.149 -0.259 -0.186 0.116 0.456 0.659 0.796 1.044 1.326 1.561 1.791 1.946 1.936 1.959 2.064 2.085 2.11 2.135 2.303 2.374 2.129 1.801 1.534 1.331 1.156 1.074 0.976 0.919 0.874 0.836 0.766 0.694 0.634 0.524 0.583 0.581 0.396 0.286 0.216 0.114 0.042 0.049 -0.03 -0.351 -0.476 -0.611 -0.407 -0.422 -0.656 -0.781 -0.868 -0.861 -0.891 -0.842 -0.858 -0.815 -0.817 -0.799 -0.761 -0.56 -0.453 -0.322 -0.272 -0.318 -0.47 -0.636 -0.79 -0.844 -0.889 -0.871 -0.769 -0.401 0.382 0.075 -0.32 -0.425 -0.454 -0.264 -0.086 -0.07 -0.173 -0.184 -0.306 -0.39 -0.478 -0.484 -0.491 -0.411 -0.386 -0.232 -0.244 -0.079 0.208 0.309 0.331 0.311 0.555 0.918 1.385 1.497 1.6 1.723 1.956 1.841 1.773 1.68 1.47 1.452 1.318 1.249 1.034 0.978 0.875 0.698 0.452 0.32 0.19 0.045 -0.011 -0.047 -0.121 -0.287 -0.335 -0.444 -0.484 -0.399 -0.335 -0.261 -0.058 0.142 0.325 0.609 0.717 0.883 1.099 1.342 1.557 1.841 2.122 2.142 2.136 2.169 2.189 2.209 2.239 2.197 2.207 2.204 1.823 1.392 1.12 1.039 6.45 11.716 11.986 11.431 10.857 10.674 10.427 10.044 9.011 8.543 8.771 9.194 9.393 6.376 3.961 1.48 0.574 0.29 -1.069 -1.202 -1.281 -1.31 -1.502 -1.517 -1.492 -1.481 -1.451 -1.415 -1.342 -1.276 -1.174 -1.049 -0.886 -0.549 -0.307 0.021 0.424 0.918 1.525 1.819 2.04 2.257 2.219 2.249 2.229 2.252 2.232 2.269 2.254 2.232 2.262 2.227 2.063 1.869 1.716 1.472 1.331 1.137 0.976 0.818 0.63 0.418 0.25 0.114 -0.054 -0.176 -0.315 -0.347 -0.218 -0.017 0.193 0.383 0.575 0.917 1.258 1.565 2.312 2.517 2.564 2.601 2.6 2.718 3.333 4.074 4.022 2.55 2.53 2.516 2.509 2.484 2.514 2.507 2.584 2.672 2.799 2.909 2.962 3.644 3.232 3.099 2.979 2.974 3.152 3.199 3.274 3.132 3.149 3.169 3.217 4.797 5.282 7.204 8.374 5.894 3.699 3.497 3.572 3.617 3.627 3.687 3.714 3.727 3.744 3.782 3.829 3.952 4.272 4.472 4.597 6.704 7.727 7.467 6.077 6.372 6.947 7.382 7.309 6.84 8.63 7.637 8.597 7.572 8.045 8.705 8.365 7.607 7.827 7.497 7.78 8.925 7.637 7.34 6.335 6.344 6.518 6.67 9.601 8.423 8.421 8.927 11.373 11.903 9.983 13.396 10.495 8.495 8.164 8.037 7.027 6.668 8.255 8.375 7.831 8.571
14.294 14.649 27.434 25.316 16.554 19.031 21.189 23.751 20.004 14.156 13.136 13.094 12.189 12.391 11.704 11.394 11.521 13.866 10.919 10.726 10.961 10.804 9.346 8.641 7.956 9.454 11.481 11.434 11.381 11.344 8.326 7.504 7.454 7.419 7.304 6.266 5.774 6.064 5.656 5.304 5.356 5.821 13.796 9.606 6.161 6.056 5.459 4.756 7.716 6.746 6.036 4.391 6.049 4.68 3.907 3.772 3.685 3.608 3.489 3.401 3.298 3.169 3.087 2.938 2.828 2.733 2.762 2.969 2.816 1.872 1.685 1.901 1.804 1.604 1.231 0.924 0.799 0.741 0.729 1.239 1.455 1.513 0.519 0.456 0.321 0.226 0.194 0.166 0.101 0.026 0.001 -0.109 -0.2 -0.29 -0.365 -0.493 -0.625 -0.745 -0.881 -1.048 -1.229 -1.458 -1.594 -1.881 -2.109 -9999 -9999 -9999 -1.615 -1.629 -1.604 -1.611 -1.601 -1.629 -1.626 -1.604 -9999 -9999 -9999 -9999 -9999 2.346 2.346 -9999 -2.259 -2.201 -2.099 -1.563 -1.425 -1.189 -0.983 -0.839 -0.68 -0.57 -0.248 -0.508 -0.432 -0.32 -0.224 -0.198 -0.182 -0.167 -0.162 -0.111 -0.149 -0.154 -0.234 -0.256 0.066 0.386 0.614 0.784 1.001 1.264 1.529 1.774 1.904 1.924 1.972 1.999 2.048 2.1 2.104 2.148 2.261 2.321 2.081 1.759 1.521 1.299 1.144 1.079 0.986 0.919 0.891 0.811 0.769 0.684 0.601 0.556 0.546 0.436 0.361 0.279 0.192 0.082 -0.008 0.016 -0.286 -0.388 -0.508 -0.603 -0.571 -0.596 -0.678 -0.751 -0.818 -0.846 -0.806 -0.801 -0.786 -0.783 -0.768 -0.692 -0.443 -0.264 -0.163 -0.164 -0.357 -0.499 -0.648 -0.945 -0.994 -1.047 -0.931 -0.734 -0.076 0.236 -0.209 -0.363 -0.477 -0.304 -0.084 -0.095 -0.038 0.089 0.026 -0.055 -0.12 -0.176 -0.168 -0.138 -0.085 -0.119 -0.113 -0.027 0.28 0.459 0.418 0.387 0.643 0.878 1.063 1.174 1.492 1.656 1.895 1.728 1.646 1.556 1.406 1.311 1.222 0.992 0.919 0.872 0.748 0.625 0.453 0.258 0.112 -0.099 -0.256 -0.301 -0.327 -0.403 -0.575 -0.664 -0.767 -0.776 -0.714 -0.574 -0.445 -0.308 -0.133 0.099 0.252 0.558 0.727 0.914 1.184 1.445 1.762 1.997 2.264 2.202 2.234 2.192 2.177 2.217 2.189 2.214 2.217 2.146 1.729 1.368 1.085 3.075 13.557 14.417 14 13.212 12.706 12.943 12.5 11.977 10.723 10.194 10.877 6.352 4.511 3.382 0.858 0.661 -0.736 -0.889 -0.976 -1.374 -1.401 -1.421 -1.389 -1.379 -1.362 -1.339 -1.322 -1.25 -1.144 -1.037 -0.897 -0.717 -0.474 -0.17 0.189 0.612 1.142 1.634 1.892 2.131 2.217 2.224 2.252 2.212 2.202 2.219 2.242 2.222 2.247 2.257 2.242 2.139 1.927 1.738 1.536 1.348 1.132 1.02 0.985 0.814 0.56 0.44 0.273 0.15 0.011 -0.071 -0.114 -0.071 0.114 0.331 0.593 0.882 1.146 1.564 2.265 2.562 2.57 2.612 2.627 2.585 3.019 2.845 2.742 2.707 2.537 2.517 2.508 2.507 2.504 2.517 2.582 2.689 2.819 2.924 3.009 3.099 3.197 3.292 3.339 3.157 3.167 3.837 5.507 6.139 3.202 3.227 3.239 3.487 7.069 8.567 8.934 9.247 7.484 5.902 4.024 3.582 3.634 3.647 3.717 3.722 3.734 3.779 3.829 3.849 3.934 4.524 5.437 5.517 6.519 7.717 7.677 5.664 5.899 6.219 6.362 6.739 6.995 7.527 7.48 8.26 10.917 8.94 11.307 13.277 9.132 8.45 8.932 8.632 12.655 8.902 8.692 8.052 7.837 8.527 8.292 9.662 8.782 9.045 10.57 8.907 9.415 9.145 12.547 9.149 8.203 10.018 7.445 7.403 7.357 7.512 8.251 9.476 7.76
14.256 15.789 16.844 24.591 19.911 19.844 22.036 21.716 15.616 13.486 14.056 12.576 12.144 12.369 11.954 12.479 13.276 11.516 12.056 10.786 10.311 11.629 13.246 9.111 7.866 10.939 11.954 11.909 11.869 11.764 7.941 7.514 7.489 7.456 7.339 6.369 5.711 5.489 5.571 5.111 5.026 6.526 5.711 5.764 5.799 6.429 9.916 4.679 11.979 9.599 6.236 7.141 7.186 5.226 3.946 4.065 4.447 5.277 3.371 3.125 3.055 2.946 2.849 2.945 2.82 2.891 3.572 4.102 3.088 1.329 1.164 1.174 1.179 1.464 1.684 1.604 1.746 1.234 1.639 1.019 1.128 1.139 0.511 0.531 0.541 0.431 0.294 0.191 0.086 0.039 -0.014 -0.102 -0.223 -0.305 -0.405 -0.502 -0.668 -0.787 -0.964 -1.075 -1.288 -1.459 -1.679 -1.911 -9999 -1.654 -9999 -9999 -9999 -1.594 -1.621 -1.604 -1.586 -1.609 -1.626 -1.604 -9999 -9999 -9999 -9999 -9999 2.324 -9999 -9999 -2.236 -2.126 -1.986 -1.493 -1.242 -1.03 -0.863 -0.713 -0.57 -0.55 -0.508 -0.464 -0.366 -0.251 -0.192 -0.142 -0.145 -0.136 -0.16 -0.144 -0.124 -0.101 -0.144 -0.309 -0.046 0.216 0.526 0.746 0.954 1.176 1.431 1.694 1.871 1.886 1.946 1.994 2.013 2.02 2.016 2.006 2.026 2.182 2.274 2.054 1.749 1.494 1.296 1.159 1.059 0.979 0.931 0.874 0.806 0.776 0.716 0.646 0.566 0.481 0.391 0.423 0.402 0.302 0.159 0.071 -0.236 -0.328 -0.371 -0.451 -0.506 -0.576 -0.618 -0.708 -0.721 -0.811 -0.818 -0.783 -0.748 -0.736 -0.701 -0.596 -0.356 -0.208 -0.076 -0.111 -0.317 -0.572 -0.889 -0.987 -0.998 -0.812 -0.752 -0.58 -0.054 -0.195 -0.339 -0.463 -0.488 -0.371 -0.189 -0.157 0.016 0.177 0.303 0.266 0.213 0.12 0.174 0.186 0.171 0.059 0.104 0.254 0.433 0.472 0.457 0.64 0.929 1.114 1.286 1.396 1.545 1.794 1.762 1.5 1.356 1.222 1.086 1.067 0.935 0.762 0.635 0.544 0.437 0.368 0.283 0.077 -0.187 -0.4 -0.515 -0.565 -0.603 -0.637 -0.827 -0.935 -0.98 -0.977 -0.953 -0.896 -0.703 -0.527 -0.303 -0.038 0.193 0.339 0.569 0.85 1.107 1.367 1.645 1.911 2.199 2.219 2.169 2.184 2.234 2.249 2.212 2.249 2.259 2.287 2.156 1.804 1.768 10.745 15.097 16.224 16.224 15.123 14.814 14.827 14.554 14.211 13.381 11.319 8.527 3.412 3.84 0.828 1.015 -0.357 -0.534 -1.079 -1.166 -1.219 -1.259 -1.278 -1.276 -1.269 -1.262 -1.252 -1.216 -1.131 -1.018 -0.868 -0.707 -0.527 -0.258 0.056 0.423 0.869 1.393 1.705 1.956 2.203 2.267 2.242 2.284 2.237 2.224 2.204 2.237 2.254 2.242 2.254 2.202 2.133 1.894 1.753 1.603 1.443 1.294 1.129 0.992 0.828 0.683 0.612 0.494 0.34 0.213 0.149 0.139 0.227 0.342 0.531 0.743 1.075 1.372 2.075 2.543 2.556 2.589 2.626 2.632 2.616 2.56 2.515 2.512 2.513 2.506 2.485 2.56 2.539 2.524 2.572 2.667 2.789 2.924 3.057 3.177 3.257 3.354 3.437 3.437 3.357 3.357 4.502 6.662 6.564 4.907 3.394 3.779 3.842 7.632 8.652 8.417 9.024 8.474 6.137 4.719 3.612 3.634 3.664 3.722 3.744 3.777 3.774 3.839 3.889 4.159 5.999 6.837 6.789 5.709 6.254 5.924 5.757 6.407 6.894 6.932 6.804 6.68 6.86 7.147 7.35 10.82 14.052 9.592 9.63 8.252 8.48 8.49 8.865 9.672 9.38 8.912 9.177 9.305 11.307 9.167 9.732 9.62 9.427 9.607 12.095 13.82 10.287 10.56 12.077 9.385 11.613 8.433 7.864 7.93 8.32 8.571 9.611 7.76
15.339 16.711 17.969 25.304 26.761 16.469 19.201 19.571 18.109 12.874 13.111 12.374 12.351 12.359 11.874 12.929 15.151 13.599 11.134 10.474 10.704 13.704 13.031 10.326 7.879 10.274 12.429 12.399 12.359 11.826 7.991 7.481 7.481 7.441 7.294 6.516 5.864 5.479 5.351 5.184 4.811 4.886 5.006 6.601 9.874 7.214 12.024 11.439 11.614 11.236 7.429 5.624 5.9 5.521 4.342 3.395 4.168 5.076 3.277 3.02 2.932 2.73 2.614 2.653 2.987 3.61 4.102 2.843 2.121 1.251 1.131 0.979 0.884 0.816 0.761 0.759 1.006 1.071 1.689 1.956 1.749 1.653 1.369 0.471 0.494 0.471 0.361 0.216 0.124 0.044 -0.044 -0.116 -0.249 -0.336 -0.438 -0.542 -0.736 -0.877 -1.034 -1.142 -1.327 -1.524 -1.771 -2.004 -9999 -1.641 -9999 -9999 -1.274 -1.541 -1.644 -1.616 -1.594 -1.661 -1.669 -9999 -9999 -9999 -9999 -9999 -9999 -9999 -9999 -2.194 -2.191 -2.059 -1.584 -1.349 -1.102 -0.908 -0.752 -0.558 -0.399 -0.377 -0.464 -0.365 -0.263 -0.185 -0.16 -0.133 -0.127 -0.116 -0.131 -0.126 -0.129 -0.099 -0.111 -0.214 -0.129 0.109 0.364 0.634 0.891 1.096 1.336 1.609 1.859 1.919 1.949 1.979 1.939 1.874 1.819 1.796 1.777 1.862 2.19 2.281 2.019 1.709 1.459 1.299 1.159 1.039 0.971 0.924 0.884 0.831 0.789 0.709 0.649 0.579 0.556 0.538 0.446 0.371 0.28 0.162 -0.121 -0.211 -0.281 -0.278 -0.383 -0.493 -0.613 -0.641 -0.663 -0.721 -0.796 -0.776 -0.484 -0.663 -0.601 -0.546 -0.346 -0.243 -0.099 -0.054 -0.125 -0.544 -0.686 -0.986 -0.991 -0.783 -0.545 -0.396 -0.236 -0.372 -0.531 -0.518 -0.532 -0.402 -0.275 -0.048 0.133 0.284 0.474 0.623 0.516 0.49 0.44 0.412 0.382 0.353 0.384 0.434 0.528 0.639 0.757 0.951 1.198 1.246 1.437 1.547 1.682 1.605 1.496 1.314 1.127 1 0.866 0.818 0.732 0.598 0.454 0.28 0.165 0.055 0.056 -0.152 -0.396 0.01 -0.357 -0.817 -0.954 -0.967 -1.065 -1.171 -1.22 -1.202 -1.221 -1.109 -0.94 -0.76 -0.549 -0.269 0.052 0.21 0.485 0.726 0.934 1.238 1.5 1.843 2.139 2.262 2.207 2.187 2.212 2.229 2.219 2.257 2.224 2.277 2.274 4.829 13.221 15.993 18.418 18.408 17.775 17.643 17.136 16.506 16.383 16.191 14.39 11.018 3.143 3.409 1.302 0.933 0.118 -0.114 -0.594 -0.809 -0.988 -1.008 -1.073 -1.107 -1.12 -1.13 -1.112 -1.087 -1.039 -0.978 -0.843 -0.678 -0.481 -0.27 -0.002 0.341 0.747 1.191 1.616 1.818 2.052 2.187 2.242 2.247 2.259 2.222 2.244 2.194 2.174 2.234 2.229 2.214 2.219 2.029 1.854 1.704 1.525 1.369 1.224 1.025 0.933 0.833 0.732 0.646 0.593 0.545 0.432 0.413 0.403 0.433 0.543 0.74 0.937 1.224 1.963 2.517 2.604 2.594 2.646 2.722 2.655 2.566 2.698 2.612 2.516 2.515 2.526 2.482 2.48 2.509 2.594 2.704 2.872 3.054 3.274 3.434 3.537 3.609 3.629 3.629 3.624 3.514 3.534 3.989 5.587 4.849 3.799 3.469 3.937 4.412 5.174 6.797 7.769 7.282 5.847 5.637 5.714 3.749 3.664 3.682 3.724 3.779 3.812 3.832 3.869 4.142 6.124 8.972 11.359 6.412 7.049 5.297 5.789 6.187 6.552 8.602 6.957 6.999 7.107 7.297 7.385 7.347 7.382 7.617 7.747 7.812 7.97 8.09 8.195 8.437 8.565 8.555 8.625 8.697 8.832 8.895 9.012 10.377 9.34 9.545 9.692 10.292 12.595 10.162 10.305 12.52 9.49 8.797 9.265 9.287 10.405 9.325 9.1 9.32 7.975
16.686 14.434 16.956 20.181 26.316 16.189 19.974 13.601 19.334 15.689 13.684 12.516 13.424 13.346 12.934 13.241 14.194 11.866 11.021 10.681 12.004 13.219 13.224 10.441 7.984 11.071 12.891 12.849 12.864 12.449 8.781 8.229 8.341 7.609 7.301 6.559 5.861 5.519 5.589 5.199 4.774 4.704 4.706 4.531 4.809 4.726 6.424 7.551 4.471 4.956 4.844 3.721 3.692 3.456 3.3 3.438 3.221 3.508 3.045 2.953 2.863 2.703 2.602 2.631 3.21 3.455 3.621 1.931 1.306 1.146 1.094 0.944 0.841 0.829 0.744 0.696 0.651 0.656 2.094 3.261 2.806 2.454 1.924 0.731 0.406 0.329 0.291 0.179 0.081 0.014 -0.069 -0.155 -0.287 -0.372 -0.487 -0.597 -0.743 -0.912 -1.048 -1.188 -1.356 -1.581 -1.814 -2.046 -1.604 -1.609 -1.549 -0.881 -0.882 -1.611 -1.636 -1.624 -1.616 -1.641 -9999 -9999 -9999 -9999 -9999 -9999 -9999 -9999 -2.259 -2.174 -2.104 -1.879 -1.407 -1.189 -0.934 -0.775 -0.654 -0.521 -0.235 -0.4 -0.426 -0.297 -0.241 -0.191 -0.149 -0.11 -0.093 -0.089 -0.084 -0.086 -0.059 -0.081 -0.074 -0.146 -0.249 0.019 0.281 0.519 0.806 1.049 1.241 1.494 1.744 1.889 1.996 1.921 1.806 1.671 1.521 1.576 1.483 1.457 1.828 2.19 2.286 1.991 1.694 1.476 1.289 1.199 1.069 1.026 0.961 0.886 0.861 0.814 0.741 0.649 0.679 0.564 0.379 0.322 0.212 0.112 0.012 -0.068 -0.136 -0.198 -0.288 -0.396 -0.543 -0.558 -0.658 -0.683 -0.756 -0.796 -0.471 -0.633 -0.621 -0.45 -0.378 -0.249 -0.107 -0.017 -0.172 -0.397 -0.628 -0.748 -0.794 -0.741 -0.525 -0.284 -0.379 -0.69 -0.742 -0.69 -0.632 -0.457 -0.207 -0.105 0.162 0.38 0.56 0.755 0.838 0.728 0.625 0.59 0.537 0.556 0.571 0.633 0.8 0.996 1.077 1.235 1.319 1.34 1.721 1.794 1.704 1.506 1.327 1.166 0.971 0.844 0.642 0.649 0.494 0.39 0.197 0.053 -0.113 -0.224 -0.317 -0.348 -0.08 -0.175 -0.822 -1.159 -1.208 -1.185 -1.25 -1.393 -1.455 -1.464 -1.39 -1.282 -1.012 -0.942 -0.733 -0.422 -0.169 0.085 0.373 0.644 0.898 1.16 1.436 1.74 2.016 2.182 2.209 2.184 2.217 2.217 2.274 2.239 2.182 2.214 3.127 14.814 18.212 17.799 19.137 20.748 20.177 19.768 19.299 19.501 19.426 18.329 15.119 5.244 3.877 2.517 0.979 0.74 0.44 -0.229 -0.405 -0.591 -0.665 -0.755 -0.835 -0.911 -0.946 -0.938 -0.938 -0.903 -0.848 -0.745 -0.629 -0.454 -0.245 0.015 0.311 0.66 1.05 1.548 1.757 1.938 2.17 2.224 2.197 2.219 2.227 2.254 2.222 2.229 2.237 2.237 2.224 2.214 2.164 2.026 1.85 1.697 1.469 1.325 1.21 1.01 0.877 0.736 0.631 0.541 0.479 0.408 0.428 0.449 0.474 0.556 0.713 0.908 1.208 1.859 2.405 2.545 2.59 2.624 2.569 2.639 3.389 2.802 3.173 2.834 2.78 2.493 2.582 2.551 2.54 2.612 2.747 2.969 3.272 3.577 3.814 3.954 3.992 4.012 3.989 3.934 3.834 3.754 3.742 3.744 3.664 3.587 3.539 3.542 3.642 3.892 3.857 5.674 7.112 5.137 5.147 5.937 4.497 3.814 3.684 3.719 3.762 3.804 3.839 3.882 4.404 6.259 6.714 10.234 9.494 6.344 5.164 5.604 6.249 6.039 6.912 9.287 8.614 7.072 7.682 7.59 7.815 8.23 7.487 8.022 8.27 7.832 8.41 8.17 8.242 8.325 8.45 8.57 8.695 8.825 8.805 8.88 8.987 9.692 9.135 9.195 9.322 9.425 9.642 9.817 11.295 10.65 10.445 9.53 10.107 11.192 12.722 10.282 10.207 10.012 9.375
15.479 14.721 20.226 14.286 23.171 14.369 13.399 17.876 19.974 15.309 13.346 13.829 12.579 12.416 14.254 18.326 19.219 21.289 15.014 13.644 17.089 14.554 13.229 8.726 7.726 10.714 12.431 12.499 12.539 12.484 10.946 10.754 10.686 8.651 7.276 6.536 5.816 5.511 5.334 5.211 4.934 4.789 4.669 4.429 8.709 8.076 13.291 6.514 6.666 5.744 6.401 4.221 3.49 3.374 3.265 3.159 3.068 2.979 2.903 2.833 2.75 2.663 2.601 2.473 2.634 2.711 2.461 1.326 1.151 1.066 1.024 0.969 0.866 0.756 0.711 0.641 0.586 0.529 0.754 1.354 1.901 2.161 1.874 1.381 0.336 0.299 0.216 0.114 0.041 -0.01 -0.111 -0.223 -0.321 -0.423 -0.502 -0.644 -0.797 -0.927 -1.106 -1.206 -1.455 -1.616 -1.851 -2.099 -9999 -1.626 -1.306 -0.696 -1.039 -1.291 -1.636 -1.631 -1.629 -9999 -9999 -9999 -9999 -9999 -9999 -9999 -9999 -9999 -2.209 -2.154 -1.981 -1.554 -1.264 -1.035 -0.813 -0.693 -0.587 -0.468 -0.366 -0.435 -0.363 -0.232 -0.192 -0.166 -0.133 -0.098 -0.066 -0.114 -0.059 -0.044 -0.061 -0.059 -0.059 -0.089 -0.231 -0.076 0.181 0.411 0.691 0.974 1.139 1.364 1.576 1.809 1.914 1.824 1.731 1.589 1.436 1.281 1.198 1.039 1.367 1.872 2.184 2.311 2.009 1.669 1.481 1.321 1.186 1.124 1.026 0.951 0.939 0.896 0.806 0.684 0.594 0.655 0.409 0.327 0.274 0.162 0.114 0.029 -0.068 -0.176 -0.248 -0.127 -0.229 -0.411 -0.581 -0.434 -0.477 -0.586 -0.482 -0.566 -0.716 -0.496 -0.275 -0.334 -0.314 -0.175 -0.162 -0.395 -0.602 -0.753 -1.016 -0.859 -0.62 -0.362 -0.638 -0.793 -0.881 -0.919 -0.78 -0.557 -0.344 -0.122 0.033 0.23 0.479 0.81 1.019 0.976 0.807 0.695 0.79 0.928 0.86 0.901 1.039 1.182 1.284 1.402 1.617 1.649 1.757 1.654 1.461 1.304 1.052 0.96 0.822 1.02 0.589 0.343 0.327 0.267 -0.024 -0.23 -0.413 -0.551 -0.49 0.054 -0.09 -0.667 -1.187 -1.4 -1.456 -1.43 -1.411 -1.569 -1.657 -1.669 -1.518 -1.332 -1.188 -1.001 -0.811 -0.6 -0.235 -0.023 0.264 0.491 0.753 1.078 1.36 1.674 1.989 2.189 2.189 2.247 2.214 2.197 2.307 2.232 2.242 2.222 11.289 18.317 18.224 18.237 18.312 20.731 22.189 21.804 21.284 21.202 21.159 20.686 18.42 3.309 2.843 1.804 1.264 0.977 0.302 0.065 -0.128 -0.277 -0.423 -0.565 -0.64 -0.688 -0.715 -0.714 -0.709 -0.666 -0.612 -0.515 -0.363 -0.189 0.043 0.346 0.67 1.025 1.446 1.671 1.855 2.08 2.224 2.217 2.229 2.237 2.252 2.237 2.199 2.229 2.154 2.227 2.224 2.247 2.213 2.048 1.808 1.714 1.437 1.292 1.1 0.967 0.805 0.683 0.569 0.461 0.383 0.32 0.328 0.374 0.379 0.509 0.676 0.961 1.454 2.207 2.502 2.522 2.577 2.542 2.559 2.75 4.95 5.008 3.345 2.668 2.521 2.441 2.482 2.54 2.61 2.737 2.959 3.334 3.714 4.054 4.252 4.384 4.419 4.437 4.384 4.249 4.077 3.964 3.929 3.889 3.799 3.709 4.294 4.447 3.649 4.212 4.904 8.747 9.329 7.174 6.504 5.907 3.757 4.509 3.732 3.759 3.782 3.854 3.879 3.897 5.289 6.634 6.294 5.729 7.919 9.062 5.192 6.072 6.192 9.514 7.557 7.849 8.252 7.079 6.92 7.432 7.74 8.617 8.045 7.735 8.982 7.905 8.027 8.137 8.247 8.73 8.56 8.67 8.712 8.807 8.962 9.027 9.17 9.245 9.292 9.302 9.372 9.425 9.432 9.487 9.835 9.96 10.382 10.175 10.137 11.057 11.6 10.602 10.815 10.53 10.015
15.669 20.431 18.661 15.159 14.914 21.269 27.874 26.686 24.624 19.324 12.734 12.524 13.596 13.861 12.744 12.621 13.859 17.876 12.034 15.164 14.779 11.554 10.021 8.316 7.704 10.101 11.534 11.579 11.641 11.661 11.479 11.439 11.181 9.281 8.186 6.526 5.921 5.471 5.246 5.099 4.871 4.666 4.514 4.364 4.296 9.724 6.884 8.149 5.059 9.949 10.759 9.968 3.929 3.545 3.294 3.154 3.027 2.889 2.821 2.76 2.68 2.697 2.9 2.463 2.356 2.036 1.627 1.289 1.064 0.999 0.931 0.886 0.816 0.724 0.669 0.634 0.556 0.506 0.441 0.456 0.411 0.394 0.376 0.319 0.354 0.269 0.216 0.089 0.009 -0.04 -0.157 -0.274 -0.353 -0.448 -0.548 -0.679 -0.854 -0.978 -1.148 -1.245 -1.491 -1.651 -1.914 -2.129 -9999 -1.634 -1.101 -1.171 -1.289 -1.626 -1.619 -1.624 -1.631 -9999 -9999 -9999 -9999 -9999 -9999 -9999 2.396 -9999 -2.111 -2.064 -1.539 -1.319 -1.058 -0.888 -0.73 -0.609 -0.502 -0.43 -0.405 -0.348 -0.173 -0.191 -0.157 -0.144 -0.14 -0.124 -0.111 -0.084 -0.046 -0.036 -0.031 -0.041 0.006 -0.041 -0.116 -0.264 0.011 0.299 0.534 0.829 1.051 1.261 1.446 1.676 1.859 1.799 1.746 1.671 1.649 1.379 0.976 0.906 1.066 1.473 1.889 2.168 2.274 1.984 1.689 1.509 1.326 1.181 1.104 1.059 1.001 0.984 0.849 0.769 0.649 0.586 0.494 0.419 0.352 0.269 0.169 0.097 0.017 -0.101 -0.226 -0.107 -0.165 -0.16 -0.315 -0.315 -0.236 -0.357 -0.309 -0.44 -0.457 -0.39 -0.501 -0.515 -0.512 -0.347 -0.186 -0.469 -0.75 -0.981 -1.011 -0.815 -0.642 -0.447 -0.569 -0.712 -1.141 -1.071 -0.819 -0.616 -0.375 -0.163 0.026 0.235 0.517 0.792 0.848 1.179 1.032 1.064 1.092 1.113 1.121 1.197 1.335 1.337 1.56 1.485 1.695 1.777 1.593 1.372 1.266 1.102 0.989 0.888 1.425 1.232 0.607 0.138 -0.044 -0.13 -0.306 -0.543 -0.686 -0.661 -0.15 -0.132 -0.63 -1.106 -1.363 -1.575 -1.648 -1.6 -1.593 -1.552 -1.831 -1.833 -1.566 -1.49 -1.295 -1.072 -0.836 -0.618 -0.355 -0.14 0.189 0.487 0.768 1.035 1.324 1.66 1.944 2.197 2.257 2.242 2.212 2.294 2.232 2.209 2.282 11.172 16.519 18.254 18.227 18.234 18.312 18.207 20.299 22.569 23.302 22.602 20.009 21.059 9.828 2.649 2.277 2.022 1.502 1.013 0.744 0.414 0.177 0.011 -0.1 -0.265 -0.371 -0.423 -0.443 -0.406 -0.448 -0.379 -0.316 -0.208 -0.055 0.129 0.413 0.723 1.095 1.46 1.665 1.819 1.974 2.187 2.209 2.242 2.239 2.252 2.244 2.242 2.257 2.197 2.182 2.197 2.267 2.207 2.151 2.104 1.812 1.635 1.453 1.269 1.105 0.969 0.803 0.667 0.524 0.413 0.326 0.265 0.23 0.269 0.356 0.486 0.808 1.375 1.758 2.01 2.458 2.559 2.576 2.552 2.568 3.076 4.435 6.403 3.499 2.548 2.587 2.503 2.554 2.638 2.7 2.849 3.137 3.594 4.019 4.352 4.519 4.579 4.637 4.959 5.442 4.589 4.337 4.202 4.099 4.042 3.972 3.842 4.022 4.014 4.367 4.924 4.427 9.149 8.154 6.387 4.417 4.249 4.327 4.052 3.969 4.012 3.994 3.889 3.929 4.087 4.164 4.797 5.322 4.874 4.987 5.004 5.367 5.609 7.567 11.112 14.842 7.949 7.409 7.224 7.195 7.427 7.982 8.735 9.505 8.41 9.695 8.17 8.142 8.247 8.32 8.412 8.512 8.575 8.717 8.862 9.097 9.26 9.137 9.19 9.242 9.35 9.4 9.49 9.547 9.68 9.637 9.705 9.745 10.002 10.25 11.5 10.717 10.687 10.615 10.24 10.077
15.806 19.544 15.091 18.244 20.976 27.386 30.501 31.379 23.664 16.506 12.896 13.499 13.344 13.179 12.481 14.189 16.394 12.566 11.246 11.636 12.026 9.434 8.746 8.279 7.891 10.144 10.651 10.719 10.704 10.836 10.864 10.954 10.896 8.681 7.709 6.544 6.229 5.491 5.211 4.991 4.849 4.606 4.449 4.249 4.089 3.989 3.984 4.049 4.134 8.579 10.031 7.062 3.666 3.456 3.322 3.163 3.002 2.883 2.813 2.731 2.676 2.555 2.449 2.385 2.356 1.701 1.349 1.111 0.999 0.929 0.864 0.824 0.729 0.649 0.651 0.596 0.546 0.499 0.464 0.446 0.411 0.366 0.344 0.324 0.271 0.246 0.186 0.096 0.006 -0.116 -0.225 -0.28 -0.388 -0.471 -0.589 -0.701 -0.864 -0.987 -1.136 -1.287 -1.504 -1.701 -1.949 -2.179 -9999 -1.616 -1.601 -1.606 -1.3 -1.631 -1.624 -1.636 -1.644 -9999 -9999 -9999 -9999 -9999 -9999 -9999 2.281 -2.159 -2.056 -1.984 -1.419 -1.194 -0.976 -0.801 -0.669 -0.515 -0.438 -0.448 -0.416 -0.297 -0.199 -0.153 -0.133 -0.103 -0.089 -0.091 -0.096 -0.061 -0.036 -0.026 0.024 0.024 0.031 0.044 -0.026 -0.249 -0.176 0.111 0.439 0.659 0.924 1.119 1.341 1.586 1.776 1.844 1.744 1.699 1.651 1.344 0.939 0.881 1.011 1.403 1.633 1.904 2.194 2.291 1.956 1.671 1.471 1.244 1.121 1.081 1.036 0.944 0.859 0.764 0.684 0.689 0.688 0.497 0.434 0.352 0.262 0.182 0.087 -0.011 -0.123 -0.198 -0.278 -0.318 -0.239 -0.253 -0.17 -0.122 -0.036 -0.199 -0.269 -0.498 -0.713 -0.768 -0.564 -0.363 -0.151 -0.4 -0.645 -0.752 -1.011 -0.794 -0.589 -0.368 -0.525 -0.828 -1.106 -1.026 -0.811 -0.631 -0.399 -0.171 0.009 0.182 0.39 0.589 0.78 1.103 1.35 1.353 1.313 1.36 1.571 1.395 1.457 1.562 1.659 1.788 1.716 1.632 1.374 1.238 1.065 0.962 0.798 0.998 1.228 0.797 0.08 -0.149 -0.417 -0.494 -0.477 -0.646 -0.746 -0.351 -0.328 -0.845 -1.159 -1.13 -1.348 -1.558 -1.816 -1.776 -1.748 -1.733 -1.731 -1.711 -1.723 -1.52 -1.283 -1.069 -0.799 -0.63 -0.395 -0.175 0.147 0.439 0.749 1.117 1.339 1.634 1.907 2.204 2.242 2.217 2.232 2.252 2.192 2.267 4.127 16.574 15.654 16.904 18.109 18.207 18.259 18.329 18.319 19.227 21.312 18.137 8.191 4.411 3.704 2.217 2.244 2.257 2.026 1.567 1.16 0.808 0.587 0.385 0.22 0.092 -0.049 -0.082 -0.104 -0.124 -0.088 -0.058 0.039 0.15 0.312 0.532 0.794 1.084 1.453 1.688 1.842 1.998 2.159 2.187 2.207 2.224 2.252 2.252 2.232 2.249 2.304 2.249 2.242 2.247 2.237 2.224 2.126 1.935 1.749 1.579 1.434 1.203 1.092 0.959 0.801 0.68 0.604 0.471 0.35 0.218 0.183 0.166 0.317 0.647 1.548 2.262 2.148 2.139 2.351 2.464 2.532 2.585 3.078 3.377 2.606 3.224 3.871 3.825 2.53 2.583 2.678 2.748 2.809 2.947 3.187 3.642 4.124 4.479 4.632 4.727 4.789 5.382 4.942 4.657 4.582 4.479 4.392 4.664 9.409 10.902 6.254 5.347 5.292 4.849 4.202 5.757 4.382 4.039 4.094 4.037 4.057 4.017 5.117 4.352 5.329 4.952 4.352 4.479 4.327 4.757 4.674 4.852 4.952 5.077 5.872 6.332 10.464 15.347 16.417 10.352 6.582 7.374 7.222 7.687 8.49 9.28 9.897 9.44 9.697 8.49 8.15 8.387 8.395 8.537 8.595 8.722 8.89 8.905 9.025 9.247 9.245 9.312 9.372 9.412 9.442 9.515 9.58 9.665 10.117 10.195 9.847 9.877 9.995 9.937 10.105 10.3 10.957 12.41 10.99
14.811 19.111 14.454 17.739 20.099 24.314 31.559 29.874 21.836 13.096 16.829 13.781 13.491 12.779 14.064 14.919 14.736 17.221 13.771 16.834 13.194 14.491 9.981 8.696 8.274 8.561 8.551 8.269 8.066 8.159 9.401 9.946 9.304 7.446 7.239 6.176 5.814 5.616 5.189 4.899 4.714 4.579 4.374 4.171 4.021 3.936 3.841 3.841 4.026 4.979 4.846 4.343 3.821 3.317 3.215 3.174 3.044 2.872 3.173 3.04 2.773 2.553 2.421 2.279 1.97 1.385 1.156 0.991 0.969 0.889 0.814 0.776 0.699 0.646 0.579 0.574 0.469 0.426 0.411 0.391 0.416 0.374 0.324 0.296 0.281 0.229 0.146 0.051 -0.029 -0.126 -0.225 -0.287 -0.368 -0.477 -0.593 -0.739 -0.88 -1.035 -1.134 -1.301 -1.521 -1.739 -1.994 -9999 -1.604 -1.614 -1.631 -1.634 -1.621 -1.619 -1.626 -1.634 -9999 -9999 -9999 -9999 -9999 2.441 -2.269 -2.274 -2.259 -2.186 -2.004 -1.806 -1.293 -1.033 -0.85 -0.722 -0.587 -0.486 -0.432 -0.399 -0.327 -0.246 -0.195 -0.125 -0.108 -0.101 -0.081 -0.081 -0.101 -0.046 -0.031 -0.041 0.031 0.069 0.106 0.116 0.054 -0.081 -0.264 -0.016 0.254 0.496 0.749 0.994 1.206 1.364 1.681 1.814 1.774 1.661 1.429 1.181 0.849 0.824 1.011 1.306 1.441 1.609 1.878 2.236 2.209 1.881 1.641 1.396 1.191 1.096 1.036 0.971 0.914 0.814 0.851 0.775 0.739 0.695 0.62 0.432 0.334 0.269 0.177 0.064 -0.033 -0.131 -0.203 -0.323 -0.388 -0.279 -0.288 -0.187 -0.04 0.036 -0.255 -0.496 -0.746 -0.763 -0.583 -0.374 -0.21 -0.307 -0.422 -0.663 -0.812 -0.678 -0.505 -0.309 -0.54 -0.793 -0.783 -0.816 -0.74 -0.608 -0.393 -0.16 -0.001 0.186 0.315 0.614 0.918 1.285 1.496 1.545 1.684 1.63 1.704 1.685 1.751 1.84 1.958 1.792 1.571 1.449 1.268 1.046 0.925 0.831 0.739 0.555 0.284 0.037 -0.28 -0.478 -0.594 -0.655 -0.654 -0.731 -0.449 -0.493 -1.102 -1.352 -1.39 -1.323 -1.223 -1.467 -1.693 -1.636 -1.593 -1.359 -1.603 -1.628 -1.368 -1.315 -1.136 -0.957 -0.706 -0.525 -0.399 -0.158 0.195 0.448 0.762 1.07 1.339 1.588 1.915 2.182 2.242 2.269 2.229 2.222 2.224 4.599 14.183 16.05 15.372 15.307 17.349 17.699 17.712 17.686 17.737 17.621 17.75 12.274 4.875 3.614 2.214 2.257 2.239 2.259 2.261 2.054 1.63 1.305 1.01 0.826 0.652 0.497 0.362 0.266 0.252 0.272 0.296 0.34 0.463 0.545 0.73 0.949 1.202 1.569 1.684 1.882 1.999 2.209 2.192 2.212 2.192 2.234 2.274 2.244 2.242 2.239 2.339 2.309 2.247 2.254 2.247 2.249 2.074 1.92 1.73 1.558 1.417 1.242 1.143 1.013 0.844 0.766 0.67 0.532 0.393 0.278 0.184 0.247 0.54 1.219 2.241 2.533 2.565 2.387 2.476 2.527 2.568 2.726 3.25 2.605 2.583 2.708 3.261 5.142 4.629 3.152 2.784 2.833 2.929 3.052 3.244 3.609 4.122 4.539 4.684 4.794 5.077 5.099 4.997 6.332 5.039 4.724 4.709 6.717 11.119 11.864 9.912 5.249 4.962 5.187 4.754 4.682 4.312 4.062 4.167 4.237 4.222 4.152 4.262 4.449 4.189 5.167 5.764 5.117 4.284 4.677 4.937 4.962 5.402 5.869 5.279 5.939 7.212 15.492 17.549 16.187 8.134 6.969 7.85 7.28 8.345 8.892 8.855 10.252 9.885 8.61 8.167 8.295 8.435 8.575 8.722 8.825 8.935 9 9.112 9.37 9.407 9.405 9.477 9.495 9.562 9.6 9.662 9.697 9.83 10.475 10.507 10.087 10.037 10.262 11.107 11.505 12.527 14.332 13.105
20.201 24.244 17.061 15.619 17.774 24.866 26.216 19.671 30.064 22.884 20.434 13.791 13.751 12.329 12.169 13.591 14.201 19.286 18.056 12.896 11.481 11.654 12.494 8.586 8.186 9.006 8.144 7.506 7.371 8.019 7.361 6.994 7.589 6.969 6.481 6.179 5.859 5.741 5.209 4.884 4.644 5.631 7.226 6.784 7.914 4.369 3.761 3.676 3.644 3.831 4.111 4.002 3.636 3.457 3.198 3.088 2.953 2.947 3.403 3.39 3.134 2.77 2.417 1.986 1.606 1.28 1.081 0.971 0.889 0.829 0.749 0.689 0.636 0.601 0.671 0.511 0.456 0.404 0.416 0.356 0.369 0.351 0.324 0.299 0.234 0.214 0.101 0.021 -0.041 -0.126 -0.231 -0.324 -0.427 -0.526 -0.642 -0.758 -0.922 -1.057 -1.208 -1.338 -1.56 -1.744 -1.991 -9999 -1.639 -1.646 -1.671 -1.664 -1.641 -1.611 -1.624 -1.631 -9999 -9999 -9999 -9999 -9999 -9999 2.321 -9999 -2.185 -2.121 -1.896 -1.421 -1.159 -0.947 -0.773 -0.635 -0.511 -0.431 -0.384 -0.33 -0.257 -0.182 -0.146 -0.138 -0.12 -0.101 -0.094 -0.026 -0.069 -0.056 -0.026 0.024 0.069 0.144 0.159 0.174 0.111 0.031 -0.169 -0.196 0.004 0.256 0.551 0.766 0.979 1.206 1.331 1.536 1.569 1.426 1.144 0.841 0.676 0.771 0.964 1.209 1.289 1.289 1.544 1.92 2.241 2.116 1.801 1.594 1.344 1.131 1.009 0.926 0.851 0.93 0.796 0.726 0.784 0.74 0.628 0.424 0.367 0.282 0.219 0.147 0.092 -0.038 -0.188 -0.12 -0.199 -0.436 -0.378 -0.171 -0.054 -0.108 -0.232 -0.471 -0.741 -0.558 -0.489 -0.31 -0.166 -0.118 -0.32 -0.541 -0.533 -0.488 -0.37 -0.151 -0.404 -0.503 -0.541 -0.591 -0.584 -0.47 -0.307 -0.108 0.003 0.228 0.551 0.796 1.026 1.397 1.656 1.627 1.98 1.978 1.919 1.949 2.023 2.018 1.875 1.62 1.37 1.256 1.037 0.866 0.745 0.646 0.468 0.238 -0.082 -0.297 -0.413 -0.511 -0.728 -0.842 -0.838 -0.41 -0.496 -1.365 -1.631 -1.641 -1.563 -1.458 -1.287 -1.336 -1.553 -1.523 -1.511 -1.252 -1.255 -1.254 -1.183 -1.032 -0.898 -0.808 -0.607 -0.457 -0.262 -0.007 0.258 0.508 0.772 1.105 1.403 1.621 1.749 1.989 2.167 2.267 2.209 2.242 3.157 12.078 15.943 15.424 15.266 15.139 15.889 17.232 17.164 17.139 16.969 17.007 14.663 2.502 3.648 2.54 2.147 2.214 2.199 2.209 2.212 2.218 2.066 1.77 1.532 1.26 1.141 0.952 0.863 0.732 0.655 0.71 0.726 0.771 0.893 1.057 1.275 1.403 1.607 1.718 1.892 2.053 2.189 2.229 2.239 2.192 2.197 2.219 2.212 2.214 2.259 2.252 2.274 2.279 2.274 2.239 2.242 2.214 2.074 1.921 1.712 1.597 1.46 1.308 1.178 1.059 0.91 0.905 0.779 0.681 0.561 0.503 0.471 0.525 0.933 2.097 2.43 2.603 2.612 2.5 2.526 2.527 2.595 3.048 2.797 2.674 2.71 2.719 3.572 4.634 6.649 5.55 2.903 2.992 3.122 3.209 3.379 3.657 4.089 4.509 4.772 6.289 8.402 7.629 7.937 8.352 6.767 5.767 4.992 7.244 10.672 11.032 8.437 4.664 4.644 4.277 4.177 4.184 4.269 4.359 4.379 4.467 4.449 4.344 4.209 4.697 4.292 4.904 5.767 4.779 4.754 4.747 4.774 6.034 4.947 5.622 8.374 13.717 13.384 10.164 17.467 13.064 7.999 7.214 7.567 7.417 8.24 8.975 9.152 9.4 10.005 9.255 8.447 8.445 8.582 8.62 8.717 8.947 8.96 9.077 9.185 9.295 9.44 9.55 9.615 9.775 9.7 9.75 9.85 9.882 9.942 10.235 10.625 10.875 10.782 10.23 10.692 12.365 11.8 14.65 12.605
24.389 27.279 16.106 15.474 26.869 24.641 23.684 23.386 25.516 16.699 17.019 14.486 13.884 17.981 15.759 15.266 15.146 17.156 26.661 19.404 12.659 9.549 20.181 9.286 8.369 10.009 8.181 7.666 7.549 7.354 7.186 7.336 8.004 7.779 7.334 6.886 6.176 5.704 5.214 4.934 4.684 4.431 7.229 9.531 10.304 5.244 3.699 3.576 3.494 3.441 3.479 3.619 3.468 3.403 3.15 3.034 2.983 2.987 3.248 3.422 3.18 2.9 2.299 1.82 1.407 1.109 0.996 0.934 0.884 0.759 0.704 0.666 0.569 0.576 0.519 0.632 0.629 0.434 0.394 0.361 0.354 0.304 0.279 0.256 0.236 0.189 0.151 0.044 -0.066 -0.149 -0.249 -0.348 -0.449 -0.55 -0.685 -0.778 -0.932 -1.043 -1.191 -1.353 -1.4 -1.786 -2.004 -1.639 -1.639 -1.616 -1.614 -1.644 -1.624 -1.626 -1.626 -1.614 -9999 -9999 -9999 -9999 -9999 -9999 -9999 -9999 -2.129 -2.074 -1.806 -1.256 -1.042 -0.871 -0.701 -0.585 -0.447 -0.358 -0.315 -0.257 -0.197 -0.143 -0.134 -0.129 -0.124 -0.079 -0.066 -0.059 -0.026 -0.029 -0.036 0.041 0.109 0.176 0.204 0.229 0.241 0.156 0.041 -0.171 -0.229 -0.001 0.344 0.546 0.721 0.921 1.089 1.204 1.221 0.966 0.686 0.561 0.576 0.631 0.779 1.044 1.201 1.081 1.221 1.529 1.996 2.179 1.999 1.766 1.516 1.294 1.069 0.919 0.968 0.841 0.786 0.736 0.781 0.731 0.559 0.467 0.399 0.307 0.259 0.187 0.109 -0.028 -0.003 -0.125 -0.293 -0.356 -0.336 -0.24 -0.267 -0.304 -0.177 -0.413 -0.517 -0.456 -0.335 -0.214 -0.076 0.047 -0.125 -0.251 -0.262 -0.232 -0.183 -0.054 -0.213 -0.336 -0.38 -0.355 -0.336 -0.279 -0.179 -0.058 0.032 0.368 0.657 0.922 1.094 1.232 1.617 1.662 1.702 1.732 1.633 1.805 1.826 2.024 1.713 1.821 1.242 1.066 0.91 0.725 0.573 0.388 0.072 -0.074 -0.137 -0.26 -0.491 -0.638 -0.92 -1.025 -0.682 -0.557 -0.93 -1.623 -1.886 -1.846 -1.718 -1.621 -1.295 -1.139 -1.21 -1.206 -1.165 -1.072 -0.898 -0.923 -0.897 -0.801 -0.659 -0.551 -0.513 -0.334 -0.171 2.349 2.284 2.234 0.804 0.979 1.134 1.376 1.567 1.815 1.948 2.239 2.279 2.211 7.488 14.378 14.783 15.178 15.029 15.027 15.91 15.022 16.103 16.383 16.192 15.936 4.463 3.188 2.105 1.79 1.927 2.06 2.209 2.232 2.192 2.239 2.282 2.08 1.993 1.815 1.686 1.44 1.323 1.203 1.233 1.277 1.2 1.275 1.414 1.545 1.675 1.742 1.836 1.957 2.042 2.189 2.222 2.224 2.239 2.219 2.229 2.234 2.229 2.217 2.229 2.259 2.287 2.414 2.304 2.222 2.224 2.222 2.087 1.92 1.804 1.651 1.526 1.416 1.293 1.196 1.111 1.115 1.022 0.966 0.895 0.817 0.803 1.063 2 2.414 2.552 2.6 2.603 2.52 2.557 2.567 2.704 2.969 2.744 2.765 2.789 2.779 3.326 4.917 5.608 6.86 5.979 3.597 3.307 3.422 3.584 3.812 4.142 4.544 4.754 10.609 12.027 10.074 10.102 11.289 11.277 6.627 5.667 5.437 6.452 6.564 4.854 4.534 4.502 4.497 4.519 4.457 4.527 4.597 4.584 4.624 4.557 4.494 4.374 6.229 6.244 4.479 4.252 4.884 4.887 4.707 4.847 5.092 4.829 5.837 13.029 16.744 8.619 7.124 10.827 7.732 6.789 7.119 7.255 8.01 7.352 8.155 8.435 8.867 10.33 9.385 8.88 8.477 8.565 8.647 8.847 8.9 9.037 9.145 9.282 9.355 9.552 9.562 9.64 9.757 9.787 9.91 9.907 10 10.052 10.13 10.29 10.66 10.625 10.425 10.45 11.742 11.702 12.797 11.995
23.316 22.864 18.536 14.624 16.589 23.129 18.456 21.636 18.516 13.124 15.919 13.976 22.144 20.009 15.121 15.404 15.581 16.731 21.066 21.901 14.851 8.949 9.526 14.761 12.349 8.119 7.751 7.954 7.809 7.566 7.556 8.011 8.151 7.694 10.549 8.731 11.901 7.024 5.399 5.061 4.821 4.604 4.894 14.051 11.644 9.606 3.666 3.499 3.391 3.294 3.226 3.162 3.201 3.116 3.064 2.92 2.926 2.876 2.998 3.262 3.216 2.642 2.121 1.713 1.399 1.069 0.889 0.846 0.799 0.756 0.664 0.629 0.566 0.549 0.504 0.439 0.431 0.389 0.381 0.331 0.316 0.291 0.264 0.224 0.211 0.164 0.104 0.024 -0.076 -0.186 -0.251 -0.355 -0.453 -0.554 -0.675 -0.784 -0.895 -1.01 -1.164 -1.383 -1.65 -1.821 -2.076 -1.614 -1.634 -1.639 -1.616 -1.614 -1.619 -1.631 -1.636 -9999 -9999 -9999 -9999 -9999 -9999 -9999 -9999 -2.244 -2.095 -1.939 -1.629 -1.16 -0.956 -0.785 -0.658 -0.512 -0.406 -0.356 -0.298 -0.218 -0.171 -0.112 -0.094 -0.096 -0.086 -0.009 -0.059 -0.036 -0.009 -0.029 0.001 0.069 0.129 0.214 0.216 0.291 0.311 0.284 0.186 0.024 -0.141 -0.219 0.061 0.346 0.516 0.591 0.666 0.761 0.644 0.434 0.376 0.421 0.506 0.519 0.579 0.784 0.866 0.756 0.811 1.093 1.511 2.007 2.161 1.959 1.701 1.464 1.236 0.986 0.938 0.819 0.784 0.721 0.784 0.742 0.542 0.479 0.432 0.392 0.282 0.217 0.114 0.179 0.064 0.046 -0.052 -0.137 -0.341 -0.204 -0.443 -0.365 -0.323 -0.475 -0.723 -0.525 -0.346 -0.163 -0.077 0.117 0.13 0.04 -0.044 0.008 0.048 0.152 0.009 -0.051 -0.139 -0.138 -0.122 -0.126 -0.01 0.162 0.341 0.481 0.711 0.983 1.093 1.374 1.458 1.328 1.355 1.371 1.36 1.493 1.569 1.97 2.122 1.828 1.16 0.958 0.768 0.56 0.249 -0.015 -0.098 -0.162 -0.19 -0.371 -0.632 -0.878 -1.013 -0.871 -0.772 -1.273 -1.419 -1.556 -1.833 -1.823 -1.628 -1.531 -1.216 -0.918 -0.886 -0.912 -0.896 -0.884 -0.765 -0.67 -0.673 -0.73 -0.715 -0.675 -0.559 -0.415 2.327 2.387 2.259 2.192 2.207 0.778 0.835 1.125 1.37 1.576 1.812 2.071 2.055 3.048 11.834 12.92 12.754 13.567 14.719 14.867 14.682 14.662 15.196 14.935 15.562 8.345 3.35 1.978 1.399 1.566 1.722 1.886 2.01 2.182 2.249 2.282 2.274 2.227 2.21 2.106 2.038 1.898 1.853 1.76 1.779 1.784 1.775 1.781 1.824 1.848 1.886 1.993 2.052 2.121 2.194 2.212 2.199 2.227 2.277 2.262 2.284 2.272 2.222 2.192 2.224 2.239 2.289 2.259 2.284 2.247 2.229 2.247 2.124 2.008 1.839 1.721 1.609 1.487 1.341 1.29 1.327 1.318 1.286 1.286 1.19 1.129 1.155 1.78 2.359 2.531 2.569 2.581 2.606 2.614 2.616 2.623 2.911 3.066 2.781 2.811 2.827 2.854 2.89 3.026 3.888 3.99 6.264 4.659 3.507 3.629 3.814 4.052 4.274 4.592 4.872 8.779 11.994 11.599 12.009 12.562 13.059 8.757 5.314 5.207 5.032 4.942 4.809 4.737 4.782 4.822 4.802 4.697 4.684 4.752 4.729 4.714 4.659 4.679 5.992 6.802 5.949 4.599 4.587 4.782 4.689 4.839 4.802 5.799 5.632 6.122 8.697 10.487 6.399 6.067 6.122 6.384 6.672 6.959 7.147 10.575 8.92 7.882 8.585 9.17 9.687 9.472 8.917 8.555 8.745 8.732 8.837 8.93 9.072 9.282 9.302 9.527 9.592 9.672 9.722 9.807 9.867 9.93 9.997 10.04 10.152 10.455 10.382 10.367 10.49 10.525 10.525 10.615 11.4 11.877 12.542
16.216 16.386 14.714 14.491 14.839 24.026 21.909 19.544 20.799 23.214 20.429 18.434 17.999 24.334 17.414 13.671 15.171 17.216 18.171 16.074 14.956 8.726 9.794 9.059 14.114 9.541 7.824 8.314 7.491 8.301 7.814 7.931 9.891 8.151 7.549 11.291 8.814 8.801 5.809 5.556 6.516 5.059 5.034 9.636 12.366 5.731 3.659 3.499 3.411 3.329 3.261 3.083 2.991 2.939 2.896 2.832 2.808 2.685 3.211 2.927 2.867 2.577 2.085 1.581 1.334 1.168 0.854 0.746 0.714 0.691 0.649 0.599 0.566 0.514 0.476 0.451 0.404 0.376 0.264 0.116 0.116 0.151 0.159 0.179 0.164 0.119 0.079 0.004 -0.131 -0.21 -0.259 -0.353 -0.448 -0.562 -0.666 -0.808 -0.903 -1.058 -1.254 -1.571 -1.655 -1.651 -1.611 -1.601 -1.649 -1.629 -1.599 -1.599 -1.616 -1.616 -1.636 -9999 -9999 -9999 -9999 -9999 -9999 -9999 -2.284 -2.196 -2.031 -1.856 -1.342 -1.031 -0.854 -0.707 -0.574 -0.48 -0.341 -0.311 -0.247 -0.166 -0.154 -0.135 -0.123 -0.091 -0.066 -0.049 -0.034 -0.029 -0.021 0.014 0.046 0.116 0.154 0.229 0.309 0.334 0.371 0.381 0.351 0.219 0.019 -0.176 -0.214 -0.051 0.104 0.181 0.239 0.184 0.134 0.251 0.296 0.359 0.364 0.406 0.461 0.71 0.685 0.514 0.664 0.852 1.116 1.52 2.021 2.104 1.891 1.609 1.381 1.126 0.99 0.776 0.766 0.709 0.78 0.579 0.527 0.472 0.412 0.404 0.312 0.227 0.154 0.044 -0.008 0.049 -0.166 -0.281 -0.368 -0.438 -0.451 -0.566 -0.425 -0.681 -0.703 -0.517 -0.455 -0.319 -0.151 0.05 0.257 0.24 0.177 0.243 0.258 0.369 0.288 0.104 0.066 0.038 0.073 0.157 0.271 0.379 0.49 0.725 0.903 1.059 1.211 1.213 1.172 1.056 1.179 1.194 1.257 1.253 1.452 2.114 2.263 1.566 1.086 0.874 0.628 0.284 0.013 -0.094 -0.142 -0.272 -0.423 -0.542 -0.789 -0.991 -0.866 -0.8 -1.598 -1.821 -1.513 -1.423 -1.546 -1.841 -1.726 -1.284 -1.089 -1.14 -1.175 -1.106 -1.077 -1.127 -1.055 -0.966 -1.114 -1.186 -1.214 2.327 2.374 2.359 2.372 2.397 2.372 2.277 2.267 2.309 2.344 2.309 2.212 2.222 1.69 1.986 2.038 5.431 10.912 10.256 10.858 11.526 12.495 14.349 14.452 14.405 14.157 13.62 9.414 3.399 3.245 1.072 1.201 1.393 1.559 1.736 1.863 2.028 2.234 2.292 2.259 2.249 2.252 2.204 2.187 2.149 2.116 2.02 2 1.992 2.038 2.016 2.04 2.108 2.14 2.255 2.229 2.214 2.249 2.212 2.244 2.287 2.299 2.219 2.259 2.292 2.262 2.212 2.257 2.252 2.252 2.194 2.239 2.207 2.212 2.272 2.186 2.054 1.901 1.776 1.688 1.604 1.49 1.447 1.614 1.576 1.498 1.525 1.481 1.402 1.816 2.371 2.522 2.566 2.557 2.578 2.657 2.694 2.671 2.826 4.044 3.953 3.082 2.854 2.89 2.93 2.982 3.021 3.338 5.852 6.979 4.379 4.279 3.907 4.022 4.259 4.452 4.657 4.974 6.367 12.472 12.992 13.204 13.007 12.432 10.194 5.384 5.369 5.277 5.199 5.062 4.987 4.949 4.967 4.957 4.912 4.849 4.914 4.922 4.919 4.812 5.399 6.772 5.829 4.867 5.024 4.619 4.724 5.697 4.779 5.899 6.534 6.204 6.832 7.449 8.624 5.752 5.897 6.179 10.222 7.249 6.819 8.887 7.92 7.457 7.732 8.615 9.437 9.37 9.365 9.135 8.63 9.045 8.75 8.9 9.025 9.102 9.227 9.392 9.437 9.63 9.712 9.762 9.975 10.422 9.992 10.08 10.127 10.217 10.28 10.41 10.542 10.47 10.585 10.635 10.672 11.227 11.655 12.827
14.774 14.656 14.504 14.511 14.314 16.276 20.214 19.339 23.556 20.889 24.831 20.039 19.116 17.194 20.821 18.379 18.284 20.129 19.336 16.546 11.464 9.284 8.811 8.604 10.026 10.091 8.896 12.004 7.841 7.246 7.486 7.134 10.046 7.489 12.451 8.681 7.124 6.734 5.901 5.769 6.381 5.414 5.304 8.921 7.936 4.034 3.669 3.764 3.471 3.461 3.518 3.203 3.149 2.956 2.833 2.785 2.692 3.16 5.038 5.762 4.89 3.087 2.057 1.483 1.111 0.939 0.736 0.664 0.636 0.644 0.579 0.554 0.531 0.494 0.449 0.454 0.359 0.209 0.084 0.216 0.189 0.146 0.101 0.044 0.006 0.014 -0.019 -0.141 -0.231 -0.358 -0.408 -0.442 -0.497 -0.638 -0.705 -0.803 -0.934 -1.091 -1.322 -1.576 -1.626 -1.648 -1.645 -1.611 -1.641 -1.591 -1.494 -1.519 -1.629 -1.609 -1.636 -9999 -9999 -9999 -9999 -9999 -9999 -9999 -9999 -2.134 -1.921 -1.691 -1.278 -0.958 -0.782 -0.647 -0.531 -0.429 -0.292 -0.241 -0.201 -0.166 -0.168 -0.14 -0.123 -0.094 -0.056 -0.036 -0.029 -0.036 0.006 0.041 0.059 0.149 0.214 0.264 0.329 0.409 0.431 0.431 0.436 0.411 0.294 0.054 -0.134 -0.196 -0.176 -0.156 -0.131 -0.054 0.079 0.184 0.219 0.276 0.304 0.331 0.366 0.556 0.356 0.399 0.409 0.582 0.809 1.157 1.728 2.131 2.031 1.781 1.526 1.343 1.168 0.914 0.749 0.839 0.674 0.574 0.509 0.442 0.374 0.389 0.332 0.234 0.132 0.019 -0.041 -0.131 -0.203 -0.308 -0.356 -0.386 -0.468 -0.357 -0.363 -0.663 -0.663 -0.721 -0.522 -0.337 -0.167 0.031 0.266 0.429 0.403 0.411 0.455 0.541 0.453 0.378 0.348 0.349 0.429 0.373 0.454 0.544 0.716 0.885 0.994 1.165 1.094 0.909 0.826 0.976 0.977 0.924 0.98 1.059 1.359 1.808 1.765 1.316 1.044 0.76 0.393 0.188 0.109 -0.165 -0.362 -0.486 -0.7 -0.919 -1.047 -0.706 -0.943 -1.551 -1.961 -1.998 -1.676 -1.656 -1.653 -1.655 -1.653 -1.553 -1.575 -1.643 -1.586 -1.581 -1.621 -1.733 -1.633 -1.752 -1.877 -1.813 -1.517 2.369 2.269 2.432 2.339 2.237 2.222 2.217 2.274 2.152 2.369 2.327 2.249 2.259 1.53 1.836 2.494 6.353 9.624 7.996 7.405 9.434 9.965 10.716 13.316 14.266 14.197 8.474 3.04 2.589 0.737 0.843 1.059 1.231 1.419 1.571 1.683 1.87 2.083 2.252 2.239 2.212 2.219 2.207 2.202 2.247 2.254 2.194 2.257 2.262 2.252 2.272 2.279 2.234 2.204 2.169 2.242 2.189 2.214 2.212 2.244 2.274 2.259 2.274 2.239 2.244 2.279 2.219 2.212 2.257 2.237 2.199 2.214 2.192 2.232 2.217 2.204 2.141 1.988 1.858 1.766 1.639 1.612 1.57 1.552 1.683 1.728 1.726 1.699 1.733 2.402 2.555 2.552 2.565 2.567 2.612 2.918 2.761 2.709 2.822 4.477 4.339 3.121 2.888 2.917 2.966 3.091 3.224 6.137 9.139 8.757 6.134 4.347 5.982 5.059 5.159 4.917 4.809 5.057 5.292 9.874 12.592 12.022 11.462 10.222 8.872 5.562 5.524 7.169 5.457 5.352 5.254 5.194 5.139 5.149 5.164 5.097 5.104 5.147 5.079 4.969 4.884 5.152 5.197 5.352 4.969 4.804 4.874 6.837 4.837 5.864 6.362 6.632 5.454 6.287 5.772 5.569 8.482 7.264 6.652 7.612 7.159 7.117 9.29 10.027 8.237 8.55 9.332 9.22 9.427 8.85 9.002 8.78 8.842 8.947 9.062 9.162 9.337 9.545 9.525 9.612 11.347 12.747 11.507 12.737 10.852 10.132 10.24 10.41 10.355 10.427 10.505 10.595 10.645 10.75 10.795 10.847 11.412 11.76
14.896 14.884 14.474 14.361 14.341 16.611 17.674 23.021 23.024 24.649 21.486 15.884 17.891 18.236 21.289 22.959 20.861 18.846 23.364 24.544 20.616 16.189 13.196 10.944 8.814 10.224 12.256 12.264 8.524 9.126 7.314 6.919 6.846 8.781 15.334 13.594 10.074 8.199 6.086 5.764 6.911 5.581 5.464 5.876 5.924 4.481 3.934 3.716 3.574 3.949 3.837 3.806 3.232 3.01 2.775 2.702 2.595 4.518 5.085 7.097 7.086 4.487 2.291 1.389 0.865 0.621 0.489 0.449 0.391 0.404 0.381 0.326 0.296 0.279 0.279 0.179 0.111 0.194 0.324 0.339 0.286 0.294 0.264 0.214 0.149 0.081 0.016 -0.054 -0.131 -0.233 -0.372 -0.515 -0.671 -0.762 -0.857 -0.893 -0.974 -1.097 -1.239 -1.433 -1.634 -1.664 -1.659 -1.643 -1.626 -1.566 -1.274 -1.461 -1.636 -1.621 -1.631 -9999 -9999 -9999 -9999 -9999 -9999 -9999 -9999 -2.029 -1.879 -1.454 -1.065 -0.902 -0.72 -0.603 -0.473 -0.354 -0.265 -0.218 -0.149 -0.144 -0.139 -0.132 -0.111 -0.066 -0.049 -0.046 -0.024 -0.034 0.026 0.046 0.131 0.194 0.226 0.279 0.339 0.411 0.459 0.489 0.524 0.516 0.524 0.404 0.251 0.049 -0.064 -0.039 -0.074 -0.086 -0.101 0.059 0.194 0.219 0.261 0.286 0.281 0.434 0.271 0.331 0.309 0.458 0.597 0.855 1.341 1.953 2.208 1.978 1.682 1.529 1.259 0.911 0.734 0.661 0.634 0.667 0.592 0.434 0.407 0.364 0.312 0.184 0.062 -0.006 -0.066 -0.153 -0.062 -0.266 -0.134 -0.411 -0.436 -0.3 -0.336 -0.616 -0.678 -0.514 -0.451 -0.275 -0.152 0.025 0.254 0.433 0.646 0.629 0.658 0.7 0.655 0.632 0.604 0.536 0.578 0.587 0.669 0.862 0.888 1.012 1.019 1.024 0.806 0.602 0.732 0.757 0.766 0.692 0.778 0.863 1.025 1.183 1.272 1.077 0.875 0.641 0.393 0.262 -0.009 -0.243 -0.526 -0.842 -1.124 -1.181 -0.881 -0.948 -1.292 -1.918 -1.958 -1.986 -1.701 -2.098 -2.101 -1.825 -1.734 -1.871 -2.163 -2.168 -2.123 -2.131 -2.158 -2.203 -1.895 -2.238 -2.263 -1.966 -1.684 2.412 2.157 2.379 2.404 2.387 2.262 2.244 2.344 2.302 2.284 2.234 2.229 2.284 2.214 1.661 3.437 4.243 4.599 6.874 6.617 6.486 7.47 8.473 9.391 13.653 11.789 5.029 3.691 1.038 0.516 0.649 0.87 1.06 1.24 1.432 1.591 1.746 1.976 2.165 2.284 2.274 2.267 2.239 2.234 2.222 2.224 2.184 2.264 2.192 2.269 2.274 2.249 2.249 2.249 2.214 2.224 2.212 2.209 2.227 2.242 2.239 2.254 2.247 2.212 2.257 2.272 2.244 2.274 2.267 2.239 2.222 2.344 2.224 2.264 2.197 2.219 2.113 2.056 1.913 1.864 1.792 1.699 1.684 1.654 1.628 1.889 1.909 1.933 2.334 2.582 2.592 2.606 2.604 2.624 3.425 4.909 3.473 2.784 2.801 3.321 3.537 3.192 3.005 2.998 3.001 3.254 4.517 6.809 8.054 9.772 9.007 6.697 4.742 6.002 5.279 4.747 4.942 5.157 5.339 7.372 11.084 10.149 9.549 6.927 5.934 6.282 9.147 9.602 7.354 5.567 5.477 5.417 5.387 5.357 5.377 5.332 5.284 5.252 5.214 5.157 5.102 6.297 6.622 5.797 5.009 4.919 4.934 4.894 4.932 5.692 6.419 5.829 5.157 5.284 5.524 5.604 6.684 7.714 6.289 6.662 6.909 7.02 7.955 8.667 11.22 8.63 8.825 9.13 9.405 8.6 8.735 8.865 8.872 9.01 9.137 9.397 9.387 9.637 9.642 9.685 11.792 13.265 12.255 11.722 10.545 10.232 10.395 10.712 10.505 10.907 10.625 10.82 10.707 10.822 10.945 10.92 11.017 11.462
15.419 15.936 15.941 14.481 14.389 14.174 15.169 16.761 19.516 20.176 22.949 18.316 15.184 16.166 17.736 18.669 16.989 20.329 22.536 20.759 24.604 20.049 13.151 10.454 12.419 11.481 13.254 12.536 11.151 17.719 13.659 10.396 9.384 7.659 7.909 11.061 6.931 6.276 6.276 5.924 7.356 5.534 6.144 6.989 6.129 5.304 4.334 4.054 3.754 4.134 4.183 4.251 3.49 3.066 2.711 2.602 2.881 3.435 4.765 4.968 6.289 5.262 3.582 1.301 0.878 0.591 0.574 0.534 0.546 0.529 0.509 0.474 0.476 0.441 0.381 0.389 0.366 0.359 0.366 0.331 0.316 0.326 0.241 0.246 0.201 0.121 0.076 -0.031 -0.134 -0.227 -0.378 -0.487 -0.561 -0.696 -0.935 -1.012 -1.025 -1.161 -1.283 -1.454 -1.616 -1.657 -1.636 -1.649 -1.654 -1.461 -1.251 -1.546 -1.629 -1.629 -1.634 -9999 -9999 -9999 -9999 -9999 -9999 -9999 -9999 -1.989 -1.637 -1.373 -0.995 -0.812 -0.67 -0.563 -0.452 -0.312 -0.231 -0.173 -0.144 -0.112 -0.134 -0.143 -0.134 -0.086 -0.029 -0.026 -0.011 0.036 0.036 0.096 0.149 0.221 0.291 0.349 0.334 0.484 0.516 0.561 0.601 0.696 0.794 0.746 0.506 0.321 0.139 -0.001 -0.001 0.011 -0.026 -0.086 0.061 0.159 0.204 0.236 0.204 0.239 0.204 0.236 0.164 0.353 0.491 0.674 1.111 1.615 2.143 2.141 1.893 1.675 1.372 1.059 0.819 0.696 0.609 0.552 0.457 0.379 0.404 0.347 0.252 0.281 0.231 0.124 -0.086 -0.126 -0.042 -0.051 -0.057 -0.174 -0.23 -0.147 -0.232 -0.386 -0.442 -0.41 -0.273 -0.123 -0.024 0.123 0.376 0.532 0.732 0.834 0.793 0.901 0.945 0.813 0.903 0.844 0.829 0.841 0.889 1.059 1.053 0.947 0.773 0.556 0.505 0.527 0.521 0.5 0.451 0.495 0.602 0.67 0.775 0.836 0.998 0.851 0.625 0.576 0.433 0.184 -0.087 -0.496 -0.897 -1.175 -1.35 -0.914 -0.851 -1.516 -1.841 -1.47 -1.345 -1.417 -1.442 -1.906 -1.913 -1.634 -1.76 -2.041 -2.093 -2.161 -2.206 -2.201 -2.198 -2.203 -1.934 -2.198 -2.171 -1.895 -1.613 -1.347 -1.027 2.244 2.429 2.487 2.344 2.262 2.387 2.307 2.252 2.197 2.252 2.287 2.158 1.695 3.983 3.586 3.58 4.707 5.904 5.703 5.473 6.383 7.266 6.886 6.658 5.772 1.738 0.147 0.283 0.485 0.723 0.918 1.094 1.259 1.451 1.612 1.802 2.035 2.223 2.159 2.267 2.234 2.227 2.249 2.227 2.202 2.249 2.282 2.274 2.262 2.237 2.237 2.379 2.207 2.207 2.231 2.301 2.282 2.212 2.259 2.227 2.209 2.207 2.249 2.219 2.204 2.199 2.254 2.229 2.224 2.207 2.214 2.242 2.234 2.232 2.206 2.076 1.996 1.922 1.86 1.764 1.724 1.671 1.623 1.785 2.129 2.369 2.605 2.572 2.608 2.634 2.677 2.701 2.904 4.22 3.276 2.837 2.822 2.87 2.978 3.157 3.87 3.434 3.255 6.197 7.677 8.137 8.979 9.249 9.099 5.739 4.289 5.202 5.424 4.927 5.054 5.222 5.369 5.432 5.719 6.894 7.057 5.957 6.052 5.882 7.814 9.639 9.029 6.232 5.694 5.639 5.594 5.569 5.537 5.524 5.482 5.457 5.589 5.357 5.617 6.729 5.319 5.614 5.054 5.057 6.134 4.987 5.214 6.299 5.857 5.402 5.224 5.247 5.434 5.619 5.839 6.182 6.404 6.782 6.794 7.462 7.365 8.165 10.767 9.502 8.63 9.03 9.835 8.62 9.4 8.862 8.887 9.152 9.492 9.365 9.542 9.6 9.817 9.847 10.437 11.292 12.287 12.18 10.235 10.47 10.437 10.497 10.635 10.777 10.697 10.767 11.837 12.737 11.247 11.1 11.062 11.25
14.744 14.671 20.851 16.694 14.444 14.224 16.851 15.004 14.499 14.771 14.439 20.044 15.649 16.206 17.636 17.324 16.701 16.441 22.694 14.164 18.896 21.891 12.421 11.981 16.141 12.289 15.101 17.406 11.921 18.219 23.421 15.779 7.726 7.334 7.114 6.794 6.696 6.249 6.751 6.504 6.579 6.469 6.449 9.984 7.094 5.496 4.236 3.979 3.831 3.979 4.354 4.314 3.479 2.91 3.135 2.533 3.091 4.513 5.275 5.113 6.246 3.971 2.164 1.179 0.864 0.669 0.621 0.611 0.579 0.529 0.514 0.514 0.489 0.504 0.456 0.404 0.369 0.389 0.394 0.369 0.341 0.326 0.291 0.271 0.176 0.146 0.071 -0.029 -0.139 -0.277 -0.393 -0.534 -0.552 -0.662 -0.922 -1.004 -1.027 -1.165 -1.388 -1.475 -1.619 -1.639 -1.641 -1.609 -1.646 -1.586 -1.466 -1.524 -1.626 -1.641 -1.631 -9999 -9999 -9999 -9999 -9999 -9999 -9999 -2.232 -1.941 -1.549 -1.082 -0.888 -0.755 -0.622 -0.511 -0.411 -0.276 -0.195 -0.167 -0.145 -0.125 -0.12 -0.116 -0.114 -0.086 -0.044 -0.021 -0.009 0.051 0.071 0.131 0.196 0.271 0.331 0.414 0.399 0.416 0.494 0.581 0.711 0.821 0.939 0.844 0.646 0.486 0.289 0.104 0.066 0.059 0.031 -0.036 -0.099 0.039 0.119 0.129 0.129 0.111 0.319 0.201 0.194 0.303 0.431 0.617 0.852 1.367 1.894 2.233 2.068 1.778 1.477 1.191 0.936 0.764 0.669 0.577 0.487 0.402 0.372 0.319 0.342 0.336 0.349 0.127 0.053 0.051 0.04 0.097 0.098 0.045 0.009 -0.006 -0.086 -0.163 -0.202 -0.198 -0.119 0.045 0.116 0.207 0.421 0.623 0.805 0.921 0.974 1.127 1.11 1.055 1.119 1.006 0.998 0.982 0.884 0.932 0.871 0.719 0.627 0.37 0.323 0.315 0.285 0.216 0.289 0.301 0.328 0.455 0.462 0.598 0.698 0.67 0.683 0.494 0.256 -0.064 -0.423 -0.639 -0.907 -1.128 -0.893 -1.043 -1.421 -1.46 -1.598 -1.268 -1.395 -1.811 -1.808 -1.616 -1.36 -1.31 -1.475 -1.841 -1.883 -1.968 -2.018 -2.078 -1.791 -1.787 -1.803 -2.111 -2.158 -1.871 -1.598 -1.324 -1.363 -1.307 -1.231 -1.028 2.374 2.364 2.314 2.282 2.354 2.264 2.307 4.271 5.17 4.081 4.28 3.275 3.111 2.827 4.313 4.626 5.132 5.76 5.902 2.958 3.698 2.457 -0.164 -0.149 0.035 0.337 0.61 0.754 0.947 1.128 1.335 1.463 1.722 1.911 2.098 2.244 2.269 2.267 2.324 2.262 2.242 2.212 2.249 2.287 2.277 2.217 2.224 2.229 2.227 2.239 2.244 2.232 2.447 2.419 2.267 2.249 2.214 2.219 2.244 2.262 2.267 2.232 2.229 2.244 2.269 2.212 2.249 2.247 2.242 2.252 2.242 2.227 2.138 2.128 2.044 1.943 1.804 1.756 1.725 1.719 1.716 2.133 2.627 2.626 2.61 2.668 2.692 2.745 2.77 2.822 2.854 2.901 2.992 3.603 3.305 3.283 3.076 3.435 3.444 4.477 8.529 9.294 8.904 9.299 8.437 6.087 4.324 4.754 4.877 5.314 6.079 5.537 5.354 5.484 5.564 5.634 5.724 5.887 5.854 5.847 5.842 6.302 8.974 9.082 6.619 5.992 5.859 5.812 5.789 5.759 5.727 5.692 5.667 6.187 5.834 6.259 6.222 5.544 5.362 5.207 5.339 5.514 5.154 5.059 5.234 5.567 5.117 5.189 5.284 5.419 5.627 5.807 6.419 6.429 6.842 6.842 7.297 7.222 7.585 7.655 8.255 8.547 9.5 9.757 9.862 10.295 9.877 9.285 9.55 9.225 9.415 9.71 9.677 9.862 9.927 10.057 10.4 10.832 10.897 10.36 10.417 10.557 10.68 11.045 11.277 11.037 10.89 13.737 14.102 12.142 11.242 11.315 11.215
14.894 14.874 15.859 14.921 14.486 14.241 13.894 13.739 14.646 13.586 13.324 14.614 13.154 16.021 14.861 15.306 18.061 15.144 11.884 11.906 11.621 15.919 11.371 10.771 10.391 10.489 9.816 11.789 10.456 15.566 22.139 17.661 8.354 7.851 7.719 11.349 8.606 10.836 8.866 9.079 6.834 5.941 6.074 12.011 9.441 4.479 4.099 3.964 3.727 3.853 8.035 5.82 4.305 2.933 3.247 2.605 3.424 5.438 4.104 6.35 5.177 2.552 1.589 1.103 0.858 0.681 0.644 0.644 0.584 0.559 0.551 0.514 0.486 0.496 0.451 0.386 0.399 0.371 0.369 0.364 0.341 0.316 0.296 0.249 0.184 0.131 0.049 -0.061 -0.126 -0.272 -0.426 -0.58 -0.712 -0.67 -0.908 -0.935 -1.026 -1.2 -1.429 -1.519 -1.632 -1.651 -1.621 -1.621 -1.624 -1.626 -1.596 -1.619 -1.634 -1.624 -1.636 -9999 -9999 -9999 -9999 -9999 -9999 -2.262 -2.171 -1.806 -1.434 -1.081 -0.83 -0.72 -0.584 -0.481 -0.375 -0.239 -0.191 -0.165 -0.143 -0.127 -0.101 -0.131 -0.066 -0.076 -0.051 -0.046 0.011 0.039 0.109 0.156 0.234 0.291 0.346 0.419 0.484 0.546 0.451 0.479 0.606 0.891 1.054 0.781 0.661 0.624 0.436 0.249 0.169 0.144 0.099 0.066 -0.009 -0.021 -0.014 -0.016 0.031 0.041 0.164 0.242 0.42 0.542 0.663 0.69 0.773 1.029 1.601 2.115 2.225 1.916 1.633 1.326 1.106 0.824 0.672 0.579 0.487 0.392 0.426 0.274 0.172 0.184 0.184 0.319 0.272 0.225 0.266 0.298 0.32 0.262 0.203 0.175 0.129 0.004 -0.021 -0.014 0.072 0.211 0.294 0.354 0.544 0.642 0.727 0.709 0.87 0.94 1.061 1.117 1.021 0.983 1.008 0.874 0.737 0.631 0.573 0.474 0.384 0.268 0.082 0.007 -0.094 -0.122 -0.039 -0.022 -0.017 0.135 0.372 0.582 0.66 0.612 0.512 0.25 -0.079 -0.313 -0.518 -0.72 -0.849 -0.553 -0.671 -1.471 -1.673 -1.511 -1.443 -1.683 -1.726 -1.623 -1.596 -1.553 -1.293 -1.282 -1.476 -1.56 -1.605 -1.675 -1.701 -1.743 -1.64 -1.486 -1.684 -1.839 -1.862 -1.726 -1.506 -1.511 -1.549 -1.496 -1.395 -1.234 -1.014 -0.808 2.369 2.349 2.322 2.282 3.355 5.219 5.204 4.145 4.901 3.018 2.777 2.808 2.979 2.834 3.817 4.687 3.056 3.851 1.448 -0.447 -0.458 -0.386 -0.097 0.21 0.432 0.626 0.827 0.968 1.202 1.383 1.584 1.8 2.016 2.22 2.222 2.247 2.269 2.224 2.302 2.252 2.272 2.214 2.247 2.242 2.184 2.232 2.244 2.247 2.249 2.294 2.299 2.441 2.259 2.274 2.242 2.199 2.162 2.187 2.219 2.207 2.257 2.244 2.247 2.254 2.244 2.244 2.347 2.217 2.239 2.304 2.249 2.199 2.062 1.962 1.86 1.789 1.765 1.74 1.939 2.473 2.607 2.596 2.641 2.695 2.744 2.914 3.204 3.005 2.925 2.949 3.83 4.895 4.712 4.958 4.067 3.486 3.412 3.422 5.999 8.429 9.804 8.424 6.107 3.374 4.344 4.874 4.989 5.227 5.664 6.959 5.892 5.632 5.752 5.859 5.997 6.119 6.354 6.084 6.069 6.134 6.739 6.457 6.252 6.157 6.119 6.087 5.989 5.967 5.934 5.912 7.034 9.302 6.057 7.854 6.547 5.684 5.392 5.389 5.772 6.257 5.387 5.434 5.172 5.512 5.317 5.277 5.362 5.464 5.659 5.889 6.057 6.387 6.742 6.904 7.022 7.342 11.912 12.477 9.29 8.737 9.13 9.515 10.362 10.512 10.932 9.532 9.187 9.375 9.5 9.642 9.807 9.97 10.055 10.15 10.225 10.315 10.38 10.475 10.557 10.825 10.89 11.26 11.967 11.437 11.045 13.672 12.427 11.37 11.235 11.445 11.385
16.064 15.379 15.054 14.834 14.436 14.269 15.211 18.276 14.676 14.456 13.289 13.114 14.889 16.369 13.494 21.304 20.329 16.646 14.916 13.124 11.236 11.056 10.764 10.731 10.366 12.966 11.461 9.784 16.476 16.889 18.921 12.266 8.319 8.169 7.884 9.939 12.106 9.136 9.194 9.331 7.499 8.871 6.141 8.889 7.681 5.011 4.609 4.136 7.017 9.237 7.487 7.049 4.27 4.221 3.987 2.817 2.827 4.541 5.255 5.418 3.57 2.187 1.366 1.009 0.845 0.679 0.646 0.606 0.559 0.571 0.536 0.506 0.504 0.461 0.436 0.389 0.399 0.386 0.401 0.354 0.334 0.301 0.271 0.236 0.149 0.121 0.041 -0.074 -0.146 -0.285 -0.433 -0.583 -0.711 -0.848 -0.901 -0.92 -1.005 -1.205 -1.328 -1.549 -1.624 -1.654 -1.642 -1.616 -1.621 -1.631 -1.629 -1.624 -1.629 -1.621 -1.621 -9999 -9999 -9999 -9999 -9999 -9999 -9999 -2.131 -1.701 -1.214 -1.003 -0.796 -0.64 -0.521 -0.44 -0.337 -0.217 -0.155 -0.146 -0.133 -0.098 -0.097 -0.106 -0.074 -0.046 -0.049 -0.011 0.016 0.056 0.101 0.164 0.244 0.311 0.416 0.464 0.551 0.574 0.576 0.419 0.334 0.406 0.646 0.656 0.669 0.709 0.586 0.401 0.274 0.236 0.176 0.114 0.084 -0.034 0.046 0.101 0.094 0.131 0.206 0.365 0.449 0.614 0.787 0.852 0.98 1.063 1.361 1.786 2.216 2.093 1.801 1.512 1.229 0.964 0.742 0.604 0.517 0.404 0.352 0.257 0.119 0.042 0.185 0.207 0.365 0.425 0.45 0.492 0.353 0.285 0.223 0.099 -0.045 -0.123 -0.094 -0.047 0.067 0.176 0.273 0.289 0.336 0.407 0.442 0.574 0.677 0.753 0.781 0.782 0.84 0.888 0.813 0.639 0.507 0.454 0.355 0.36 0.254 0.029 -0.084 -0.186 -0.263 -0.189 -0.216 -0.217 -0.082 0.18 0.356 0.57 0.542 0.227 0.014 -0.047 -0.204 -0.423 -0.643 -0.761 -0.433 -0.325 -0.957 -1.331 -1.456 -1.478 -1.673 -1.746 -1.543 -1.583 -1.598 -1.621 -1.716 -1.528 -1.901 -1.928 -1.946 -1.996 -1.993 -2.023 -1.768 -1.456 -1.441 -1.514 -1.537 -1.499 -1.388 -1.595 -1.7 -1.698 -1.596 -1.386 -1.116 -0.893 -0.656 2.357 1.549 2.557 4.413 5.352 5.192 3.227 3.948 2.867 2.621 2.363 2.231 2.3 2.526 2.373 3.989 3.088 -0.72 -0.73 -0.619 -0.437 -0.16 0.116 0.296 0.503 0.805 1.072 1.121 1.359 1.54 1.731 1.962 2.157 2.249 2.257 2.252 2.294 2.284 2.139 2.272 2.244 2.217 2.202 2.182 2.189 2.227 2.239 2.232 2.244 2.252 2.379 2.294 2.242 2.189 2.207 2.242 2.242 2.142 2.202 2.244 2.244 2.214 2.214 2.234 2.207 2.207 2.189 2.229 2.247 2.249 2.157 2.045 1.998 1.88 1.815 1.796 1.89 2.389 2.556 2.581 2.615 2.689 2.755 2.899 4.229 5.131 3.213 2.98 2.96 3.063 3.471 4.644 5.172 6.479 6.322 3.597 4.469 3.742 6.647 8.592 6.032 3.394 3.437 4.047 4.989 5.169 5.339 5.489 6.322 7.347 5.987 5.997 6.059 6.162 6.252 6.322 6.427 6.462 9.789 9.772 6.657 6.344 6.292 6.247 6.257 6.199 6.177 6.199 6.209 9.772 11.232 6.947 5.947 6.607 5.772 5.539 5.489 5.619 5.474 6.374 6.087 5.714 5.934 5.507 6.457 5.437 5.509 5.744 6.512 6.137 6.272 6.604 6.947 9.017 7.79 13.01 18.427 13.057 15.157 8.65 9.405 9.832 10.34 10.4 9.472 9.21 9.417 9.572 9.777 9.86 9.992 10.37 13.037 11.03 10.547 10.67 10.585 10.865 11.002 11.265 11.522 12.06 11.207 11.707 13.162 11.842 11.352 11.305 11.392 11.485
15.371 15.676 15.324 15.081 14.556 14.239 16.229 15.711 13.666 13.554 13.249 13.146 14.141 15.416 13.306 12.516 19.821 16.626 17.304 13.449 11.346 11.179 10.946 10.736 10.404 10.261 9.879 9.671 13.051 18.614 19.354 11.836 8.479 8.299 7.946 7.866 7.919 7.434 7.131 8.814 7.246 10.891 10.374 9.169 11.799 11.129 8.539 4.436 4.785 6.98 7.339 6.668 8.721 4.325 4.354 3.025 2.711 4.021 3.318 2.814 3.163 1.681 1.115 1.006 0.821 0.666 0.649 0.616 0.574 0.554 0.526 0.489 0.471 0.451 0.436 0.399 0.394 0.404 0.406 0.351 0.339 0.326 0.264 0.206 0.169 0.151 0.029 -0.061 -0.171 -0.265 -0.425 -0.542 -0.712 -0.826 -0.881 -0.942 -1.038 -1.228 -1.322 -1.572 -1.636 -1.654 -1.661 -1.641 -1.634 -1.621 -1.621 -1.624 -1.624 -1.639 -9999 -9999 -9999 -9999 -9999 -9999 -9999 -9999 -1.974 -1.474 -1.164 -0.931 -0.765 -0.594 -0.501 -0.42 -0.302 -0.188 -0.161 -0.134 -0.129 -0.106 -0.106 -0.091 -0.061 -0.056 -0.014 0.016 0.031 0.081 0.164 0.216 0.306 0.376 0.409 0.504 0.609 0.644 0.806 0.876 0.621 0.469 0.606 0.641 0.794 0.991 0.819 0.404 0.329 0.264 0.196 0.189 0.124 0.024 0.054 0.206 0.251 0.271 0.334 0.354 0.462 0.615 0.775 0.867 0.979 1.01 1.196 1.503 1.952 2.218 1.991 1.671 1.364 1.116 0.939 0.727 0.582 0.472 0.392 0.262 0.172 0.087 0.064 0.187 0.31 0.453 0.457 0.35 0.236 0.101 0.034 0.049 -0.172 -0.291 -0.241 -0.125 -0.015 0.025 0.065 0.124 0.171 0.205 0.232 0.374 0.534 0.611 0.655 0.906 1.324 1.397 0.767 0.567 0.358 0.217 0.187 0.136 0.012 -0.127 -0.343 -0.422 -0.548 -0.59 -0.471 -0.321 -0.071 0.032 0.162 0.329 0.088 -0.084 -0.184 -0.165 -0.141 -0.33 -0.661 -0.332 -0.337 -1.052 -1.258 -1.149 -1.391 -1.668 -1.663 -1.556 -1.453 -1.446 -1.548 -1.746 -1.868 -1.891 -1.896 -1.903 -1.946 -1.993 -2.023 -2.041 -1.762 -1.456 -1.122 -1.307 -1.532 -1.649 -1.502 -1.626 -1.883 -1.926 -1.655 -1.399 -1.161 -0.912 -0.739 -0.105 0.81 3.263 4.331 4.312 3.577 3.035 3.002 2.758 2.637 3.14 2.705 1.776 2.666 3.797 3.613 -0.728 -1.059 -0.973 -0.763 -0.518 -0.261 -0.003 0.221 0.478 1.016 1.048 1.071 1.289 1.461 1.717 1.924 2.087 2.282 2.267 2.264 2.332 2.227 2.234 2.252 2.234 2.217 2.162 2.239 2.229 2.212 2.219 2.207 2.247 2.234 2.244 2.362 2.254 2.274 2.302 2.214 2.279 2.264 2.279 2.277 2.207 2.212 2.194 2.239 2.194 2.157 2.224 2.222 2.136 2.159 2.107 2.039 1.948 1.905 1.874 1.844 2.305 2.562 2.583 2.613 2.687 2.763 2.84 3.018 4.603 4.129 3.008 3.031 3.134 3.064 3.077 3.159 4.233 6.853 5.814 3.862 4.082 4.284 3.867 4.702 3.919 3.864 4.232 4.999 5.319 5.297 5.484 5.644 6.164 7.674 7.574 6.367 6.297 6.302 6.379 6.467 6.547 7.734 13.724 14.374 10.729 6.409 6.397 6.394 6.422 6.482 6.459 6.607 7.379 11.602 12.579 7.254 6.704 13.202 7.672 5.754 7.019 5.879 6.119 5.757 5.494 5.434 5.442 5.429 5.472 5.522 5.602 5.752 5.952 6.572 6.332 6.539 6.794 7.9 7.402 8.9 14.522 18.235 16.015 15.295 11.435 9.47 10.105 9.595 9.295 9.22 9.44 9.61 9.782 9.937 10.085 10.197 10.892 10.877 10.56 10.592 10.665 10.832 10.957 11.447 11.597 11.265 11.635 11.792 11.772 11.247 11.33 11.422 11.432 11.49
15.079 15.386 15.371 17.921 14.561 14.091 14.059 15.906 13.776 13.716 13.316 13.291 14.056 12.771 12.544 12.394 12.886 13.181 14.296 13.611 11.424 11.256 10.911 10.899 10.559 10.191 10.641 10.134 14.729 13.326 14.354 10.564 8.564 8.526 8.071 7.684 7.496 7.366 8.371 6.749 6.411 6.806 6.856 10.824 10.191 12.489 5.396 4.656 4.621 7.064 7.478 4.936 7.337 5.547 4.532 3.697 3.021 2.93 3.968 2.61 2.271 1.244 0.994 0.857 0.801 0.664 0.649 0.641 0.566 0.546 0.506 0.499 0.491 0.479 0.464 0.429 0.401 0.404 0.389 0.374 0.319 0.299 0.266 0.226 0.179 0.111 0.029 -0.064 -0.189 -0.265 -0.361 -0.545 -0.682 -0.782 -0.91 -0.998 -1.1 -1.264 -1.446 -1.622 -1.639 -1.646 -1.647 -1.631 -1.629 -1.634 -1.664 -1.619 -1.621 -1.619 -9999 -9999 -9999 -9999 -9999 -9999 -9999 -9999 -1.779 -1.313 -1.108 -0.897 -0.735 -0.577 -0.458 -0.389 -0.277 -0.19 -0.133 -0.113 -0.109 -0.095 -0.105 -0.101 -0.086 -0.036 -0.011 0.056 0.099 0.129 0.221 0.256 0.319 0.421 0.454 0.546 0.594 0.714 0.814 1.411 1.329 0.789 0.724 0.556 0.591 1.001 0.739 0.474 0.359 0.314 0.309 0.239 0.184 0.101 -0.026 0.169 0.296 0.346 0.374 0.369 0.503 0.629 0.673 0.824 0.888 0.974 1.009 1.167 1.583 2.09 2.171 1.859 1.526 1.276 1.087 0.889 0.739 0.714 0.452 0.317 0.209 0.167 0.127 0.222 0.26 0.361 0.288 0.222 0.025 -0.09 -0.099 -0.114 -0.265 -0.506 -0.324 -0.192 -0.221 -0.218 -0.157 -0.105 -0.002 0.103 0.305 0.226 0.413 0.478 0.395 0.611 0.963 0.738 0.37 0.449 0.256 0.075 -0.055 -0.168 -0.186 -0.25 -0.42 -0.697 -0.65 -0.673 -0.515 -0.455 -0.281 -0.097 0.04 0.079 -0.07 -0.212 -0.249 -0.263 -0.337 -0.451 -0.149 -0.14 -1.07 -1.476 -1.341 -1.391 -1.626 -1.593 -1.368 -1.07 -1.393 -1.648 -1.51 -1.559 -1.821 -1.856 -1.896 -1.968 -1.986 -1.976 -1.983 -1.529 -1.242 -1.02 -0.868 -1.2 -1.528 -1.828 -1.527 -1.575 -1.881 -1.651 -1.527 -1.318 -1.104 -0.888 -0.496 1.9 3.591 4.215 4.312 4.141 2.956 2.724 2.777 2.419 2.552 4.381 3.417 1.316 3.377 3.254 -0.586 -1.354 -1.208 -1.038 -0.814 -0.585 -0.303 -0.073 0.149 0.477 0.631 0.833 1.044 1.229 1.403 1.645 1.861 2.059 2.224 2.224 2.224 2.262 2.234 2.239 2.247 2.242 2.217 2.204 2.209 2.247 2.227 2.252 2.209 2.202 2.227 2.184 2.202 2.386 2.272 2.244 2.237 2.267 2.342 2.277 2.227 2.227 2.182 2.182 2.247 2.254 2.196 2.252 2.124 2.129 2.1 2.084 2.063 1.989 1.953 1.908 2.119 2.535 2.593 2.629 2.69 2.764 2.859 3.109 3.121 3.864 3.258 3.098 3.652 4.219 3.17 3.147 3.194 3.265 4.062 4.762 4.754 4.849 4.474 4.349 4.107 4.654 5.172 5.822 5.699 5.519 5.437 5.572 5.752 6.284 6.464 7.727 7.692 6.637 6.544 6.529 6.607 6.679 8.684 14.024 13.307 10.179 6.512 6.557 6.517 6.409 6.547 7.914 9.654 7.132 7.452 7.242 7.942 6.947 6.549 6.217 6.029 6.117 5.887 6.909 6.134 5.967 5.629 5.532 5.502 5.377 5.577 5.777 6.732 7.574 8.189 7.092 8.209 7.687 8.452 10.08 7.535 7.985 13.917 17.607 13.817 9.802 10.192 10.047 10.097 10.25 10.162 9.852 9.625 9.807 9.952 10.2 10.225 10.36 10.477 10.747 10.642 10.782 11.107 11.025 11.267 11.502 11.397 11.557 11.522 11.37 11.507 11.402 11.44 11.545 11.665
14.926 14.964 16.574 20.136 14.699 14.346 13.944 13.696 13.621 13.484 13.149 13.031 13.106 12.759 12.469 12.269 12.194 12.191 12.039 11.734 11.369 11.211 10.979 10.789 10.789 10.276 10.616 10.439 13.381 9.794 11.326 8.994 8.656 8.361 8.141 7.884 7.564 7.376 7.076 6.926 6.574 6.376 6.439 6.649 5.699 5.919 4.831 6.606 6.659 7.072 9.412 3.905 4.897 5.78 4.954 4.215 3.431 2.907 3.193 2.486 1.855 1.11 0.884 0.774 0.714 0.664 0.631 0.594 0.586 0.551 0.516 0.484 0.469 0.449 0.441 0.396 0.396 0.381 0.369 0.324 0.339 0.309 0.264 0.234 0.181 0.091 -0.011 -0.099 -0.171 -0.273 -0.353 -0.484 -0.647 -0.771 -0.912 -1.018 -1.133 -1.317 -1.517 -1.633 -1.626 -1.643 -1.644 -1.619 -1.611 -1.626 -1.629 -1.606 -1.636 -1.634 -9999 -9999 -9999 -9999 -9999 -9999 -9999 -9999 -1.761 -1.301 -1.03 -0.824 -0.658 -0.554 -0.455 -0.371 -0.251 -0.173 -0.148 -0.123 -0.135 -0.101 -0.069 -0.071 -0.061 -0.036 -0.011 0.061 0.084 0.146 0.209 0.251 0.346 0.434 0.466 0.596 0.686 0.769 0.956 1.454 1.614 1.029 0.794 0.661 0.511 0.811 0.591 0.471 0.419 0.374 0.304 0.266 0.221 0.116 0.044 0.169 0.324 0.389 0.399 0.379 0.518 0.525 0.596 0.721 0.79 0.829 0.955 1.045 1.288 1.757 2.207 2.076 1.714 1.434 1.227 1.037 0.839 0.659 0.477 0.497 0.409 0.222 0.197 0.119 0.201 0.177 0.12 0.079 0.045 -0.248 -0.103 -0.148 -0.418 -0.461 -0.308 -0.35 -0.413 -0.386 -0.286 -0.267 0.01 0.098 0.034 0.1 0.244 0.241 0.222 0.151 0.138 0.152 0.198 0.236 0.097 -0.132 -0.259 -0.319 -0.328 -0.374 -0.654 -0.736 -0.819 -0.777 -0.687 -0.497 -0.408 -0.348 -0.138 0.042 -0.114 -0.296 -0.33 0.05 -0.314 -0.119 -0.036 -0.458 -1.17 -1.283 -1.363 -1.603 -1.498 -1.316 -1.368 -1.506 -1.721 -1.776 -1.793 -1.818 -1.871 -1.901 -1.931 -1.948 -1.856 -1.716 -1.392 -1.291 -0.921 -0.78 -0.831 -1.134 -1.417 -1.721 -1.511 -1.421 -1.56 -1.51 -1.316 -1.12 -1.021 -0.849 0.007 2.62 4.272 4.286 4.719 2.699 2.376 2.355 2.377 2.296 4.612 5.192 5.19 3.83 4.495 0.165 -1.642 -1.606 -1.254 -1.096 -0.857 -0.618 -0.318 -0.097 0.148 0.39 0.638 0.849 1.06 1.237 1.424 1.609 1.815 2.031 2.207 2.209 2.204 2.224 2.232 2.254 2.257 2.252 2.274 2.204 2.204 2.234 2.214 2.242 2.229 2.227 2.229 2.212 2.197 2.257 2.359 2.112 2.254 2.319 2.159 2.262 2.237 2.212 2.172 2.202 2.204 2.114 2.095 2.099 2.099 2.109 2.077 2.057 2.013 1.964 1.943 2.087 2.504 2.591 2.657 2.717 2.798 2.87 3.062 4.263 3.637 3.355 3.187 3.235 4.51 3.435 3.21 3.233 3.272 3.327 3.562 5.082 5.447 4.447 4.607 4.227 4.264 4.717 4.887 5.897 5.622 5.322 5.539 5.707 5.882 6.114 6.499 6.544 7.349 7.464 6.752 6.714 7.072 6.819 7.237 10.772 12.037 9.214 6.699 6.677 6.512 6.469 6.864 7.709 10.434 6.974 6.994 12.852 13.534 7.587 6.487 6.332 6.282 6.267 7.049 7.249 7.224 5.949 5.729 5.634 5.702 5.539 5.614 5.979 7.919 9.339 10.399 9.512 9.572 11.227 7.442 11.26 8.997 7.962 13.205 18.215 9.505 9.65 9.885 10.03 10.002 9.277 10.232 10.532 9.677 9.81 10.067 10.11 10.255 10.4 10.502 10.602 10.672 10.78 10.95 11.042 11.12 11.33 11.622 11.957 11.4 11.44 11.457 11.55 11.547 11.62 11.635
14.784 14.736 16.906 18.966 14.229 14.424 13.944 13.539 13.424 13.234 13.764 13.894 14.916 16.541 12.621 12.166 12.214 11.951 12.531 12.044 11.391 11.401 11.194 11.056 10.684 10.626 10.156 12.179 13.284 11.346 10.339 11.604 11.614 8.446 10.291 9.424 7.614 7.414 8.294 8.071 6.704 6.519 6.386 6.094 5.764 5.291 4.871 4.969 5.509 4.744 6.092 5.763 3.749 5.113 6.518 5.113 4.717 4.589 3.437 2.463 1.561 1.108 0.886 0.756 0.734 0.651 0.609 0.599 0.551 0.519 0.539 0.481 0.459 0.436 0.421 0.404 0.396 0.411 0.379 0.321 0.319 0.294 0.276 0.229 0.159 0.066 -0.006 -0.086 -0.172 -0.271 -0.373 -0.524 -0.651 -0.795 -0.918 -1.038 -1.151 -1.289 -1.468 -1.596 -1.643 -1.641 -1.64 -1.609 -1.614 -1.634 -1.626 -1.631 -1.636 -1.626 -1.632 -9999 -9999 -9999 -9999 -9999 -9999 -1.445 -1.421 -1.244 -0.953 -0.761 -0.648 -0.54 -0.465 -0.352 -0.234 -0.167 -0.123 -0.106 -0.104 -0.097 -0.066 -0.066 -0.046 -0.024 0.011 0.056 0.116 0.199 0.259 0.334 0.336 0.431 0.514 0.601 0.719 0.824 1.331 1.539 1.676 1.309 0.836 0.766 0.604 0.611 0.511 0.491 0.426 0.371 0.301 0.274 0.204 0.136 0.011 0.156 0.304 0.376 0.381 0.401 0.409 0.441 0.573 0.595 0.666 0.803 0.982 1.065 1.28 1.477 1.958 2.254 2.009 1.616 1.389 1.157 1.004 0.754 0.507 0.374 0.294 0.259 0.209 0.132 0.087 0.044 -0.033 -0.083 -0.161 -0.258 -0.296 -0.333 -0.391 -0.453 -0.496 -0.556 -0.588 -0.417 -0.487 -0.423 -0.292 -0.205 -0.175 -0.038 0.038 -0.014 -0.002 -0.011 -0.094 -0.093 -0.052 -0.053 -0.034 -0.169 -0.371 -0.517 -0.607 -0.633 -0.488 -0.753 -1.056 -1.011 -0.754 -0.673 -0.592 -0.309 -0.113 -0.079 -0.137 -0.173 0.099 0.004 -0.044 0.037 -0.681 -1.081 -0.986 -1.398 -1.598 -1.408 -1.241 -1.363 -1.646 -1.663 -1.686 -1.756 -1.796 -1.781 -1.886 -1.868 -1.778 -1.337 -1.126 -1.109 -1.134 -1.143 -1.007 -0.777 -0.749 -1.046 -1.267 -1.42 -1.343 -1.186 -1.275 -1.276 -1.14 -0.961 -0.858 -0.712 0.951 3.437 4.225 4.917 3.207 2.12 2.081 2.017 2.049 3.664 5.158 5.29 5.187 5.02 2.045 -1.243 -1.85 -1.791 -1.381 -1.231 -0.44 -0.537 -0.295 -0.045 0.203 0.462 0.652 0.848 1.061 1.252 1.409 1.628 1.795 2.044 2.279 2.209 2.212 2.217 2.207 2.257 2.229 2.237 2.294 2.237 2.299 2.267 2.214 2.249 2.219 2.222 2.209 2.207 2.149 2.152 2.347 2.192 2.244 2.279 2.257 2.267 2.232 2.239 2.197 2.149 2.186 2.101 2.025 1.984 2.029 2.053 1.998 1.934 1.946 1.973 2.07 2.461 2.565 2.669 2.761 2.825 2.91 3.001 3.099 4.021 3.591 3.25 3.246 4.526 3.892 3.33 3.276 3.287 3.317 3.379 3.444 3.812 4.589 4.954 5.942 6.907 4.552 4.394 4.944 5.622 5.434 5.457 5.642 5.839 5.979 6.267 6.914 9.804 8.489 7.917 7.364 6.892 6.884 7.267 6.914 6.864 6.837 6.834 6.857 6.699 6.572 7.769 8.794 10.064 7.569 6.937 8.187 19.154 15.729 8.049 6.579 6.524 6.637 6.569 9.639 9.404 6.224 6.122 5.937 5.994 5.802 5.859 5.892 5.937 6.039 7.004 7.659 13.442 10.402 10.962 15.795 12.89 15.675 8.335 10.74 10.375 9.457 9.447 9.15 8.895 9.002 9.182 9.542 9.582 9.77 10.107 10.227 10.257 10.357 10.522 10.527 10.685 10.842 10.892 10.97 11.172 12.132 12.29 11.555 11.407 11.442 11.605 11.795 11.74 11.652 11.657 11.685
14.716 14.629 14.574 15.299 14.241 13.984 13.709 13.591 13.421 13.229 13.224 19.009 20.911 16.011 12.651 12.379 12.474 11.921 11.691 11.626 11.351 11.061 11.094 10.919 10.611 10.411 10.271 9.981 9.781 9.389 9.429 10.874 8.914 8.494 9.279 17.019 14.229 12.491 10.054 8.844 14.186 7.189 6.396 6.531 5.826 5.501 5.226 4.769 7.257 7.366 3.735 3.709 3.968 3.38 4.801 5.089 5.779 5.45 4.231 2.663 1.427 1.156 1.005 0.766 0.716 0.626 0.654 0.599 0.566 0.536 0.566 0.484 0.481 0.449 0.439 0.421 0.409 0.399 0.361 0.354 0.326 0.291 0.266 0.216 0.166 0.044 -0.016 -0.103 -0.171 -0.28 -0.378 -0.528 -0.637 -0.814 -0.959 -1.057 -1.171 -1.27 -1.392 -1.576 -1.663 -1.636 -1.645 -1.624 -1.626 -1.646 -1.599 -1.581 -1.631 -1.631 -1.654 -9999 -9999 -9999 -9999 -9999 -2.249 -2.064 -1.405 -1.198 -0.892 -0.737 -0.652 -0.539 -0.453 -0.335 -0.212 -0.146 -0.122 -0.091 -0.096 -0.105 -0.114 -0.061 -0.039 0.019 0.036 0.021 0.151 0.234 0.271 0.336 0.414 0.421 0.539 0.614 0.759 0.936 1.321 1.494 1.649 1.576 1.106 0.924 0.684 0.579 0.521 0.474 0.406 0.381 0.339 0.289 0.226 0.174 0.064 0.104 0.236 0.306 0.356 0.381 0.391 0.411 0.466 0.506 0.564 0.737 1.099 1.18 1.255 1.439 1.74 2.131 2.256 1.879 1.527 1.302 1.139 0.814 0.604 0.449 0.352 0.302 0.279 0.202 0.119 0.072 0.049 -0.011 -0.111 -0.221 -0.328 -0.336 -0.361 -0.438 -0.506 -0.531 -0.576 -0.606 -0.636 -0.485 -0.527 -0.436 -0.287 -0.153 -0.162 -0.18 -0.218 -0.227 -0.302 -0.316 -0.292 -0.231 -0.051 -0.298 -0.519 -0.763 -0.865 -0.809 -0.666 -0.75 -0.946 -0.968 -0.923 -0.803 -0.524 -0.338 -0.128 -0.016 -0.134 0.198 0.047 -0.06 -0.16 -0.688 -1.203 -1.198 -1.408 -1.581 -1.331 -1.198 -1.248 -1.678 -1.571 -1.656 -1.798 -1.823 -1.848 -1.843 -1.743 -1.473 -1.333 -0.965 -0.893 -1.153 -1.278 -1.058 -0.945 -0.773 -0.625 -0.789 -1.005 -1.101 -1.124 -0.973 -0.952 -0.972 -0.895 -0.796 -0.646 -0.548 1.466 4.303 4.087 3.893 1.889 1.82 1.758 2.024 3.606 4.495 4.608 4.846 5.206 3.025 -0.576 -1.47 -1.656 -1.365 -1.271 -0.874 -0.107 -0.242 -0.196 0.074 0.25 0.475 0.69 0.894 1.012 1.246 1.436 1.641 1.854 2.075 2.244 2.207 2.209 2.232 2.177 2.257 2.209 2.224 2.234 2.224 2.229 2.217 2.234 2.244 2.244 2.234 2.217 2.212 2.202 2.199 2.277 2.36 2.327 2.307 2.307 2.202 2.239 2.234 2.141 2.076 2.074 2.069 2.049 1.942 1.962 2.007 2.015 1.935 1.939 2.048 2.38 2.57 2.659 2.772 2.835 2.904 3.006 3.118 3.219 3.421 3.291 3.289 4.195 4.577 3.598 3.451 3.369 3.367 3.402 3.447 4.014 5.624 4.572 5.632 7.942 8.469 5.674 4.227 4.689 6.027 5.607 5.989 6.142 7.174 6.549 8.899 8.124 8.684 7.724 9.737 13.329 9.654 6.979 7.019 7.032 7.034 7.037 7.029 6.919 10.617 11.429 12.614 9.979 7.432 7.152 8.277 9.539 10.157 9.079 7.604 6.669 6.617 9.557 9.272 11.397 6.387 6.299 6.197 6.079 6.117 7.724 6.284 6.179 5.852 6.037 6.522 7.897 12.329 19.157 16.187 17.947 17.435 19.647 16.16 9.735 9.49 9.342 8.827 8.707 8.685 8.87 9.052 9.202 9.41 9.767 10.427 10.762 10.977 12.112 12.312 11.017 10.685 10.817 10.947 11.032 11.097 11.29 11.932 11.607 11.467 11.52 11.86 11.602 11.625 11.82 11.755 11.787
14.771 14.614 14.494 15.534 15.044 13.899 13.671 13.539 13.434 13.116 12.894 12.841 14.074 13.629 12.761 13.389 14.029 12.196 11.644 11.441 11.161 10.956 10.924 10.874 10.639 10.799 10.216 9.936 9.724 9.366 9.524 9.914 8.744 9.144 10.971 12.966 12.376 8.934 7.804 9.801 11.801 10.749 6.411 6.039 5.874 5.836 5.446 5.094 7.13 4.531 4.192 4.114 3.444 2.751 2.542 2.587 3.222 4.578 3.672 2.743 1.486 1.288 1.09 0.925 0.709 0.614 0.614 0.596 0.589 0.536 0.566 0.494 0.481 0.464 0.461 0.431 0.439 0.394 0.371 0.336 0.339 0.309 0.301 0.246 0.176 0.089 -0.024 -0.113 -0.186 -0.282 -0.372 -0.503 -0.638 -0.834 -0.946 -1.058 -1.179 -1.293 -1.419 -1.597 -1.673 -1.688 -1.677 -1.634 -1.629 -1.581 -1.286 -1.514 -1.636 -1.649 -1.639 -9999 -9999 -9999 -9999 -9999 -2.249 -1.946 -1.398 -1.122 -0.85 -0.742 -0.676 -0.571 -0.434 -0.323 -0.188 -0.124 -0.108 -0.099 -0.08 -0.084 -0.099 -0.059 -0.011 0.009 0.034 0.094 0.151 0.249 0.306 0.361 0.421 0.476 0.559 0.686 1.039 1.296 1.594 1.659 1.654 1.669 1.671 1.551 1.026 0.596 0.516 0.489 0.449 0.414 0.371 0.296 0.256 0.166 0.096 0.041 0.186 0.259 0.319 0.371 0.424 0.436 0.466 0.501 0.688 0.858 1.111 1.091 1.344 1.672 1.948 2.123 2.255 2.182 1.742 1.412 1.174 0.937 0.689 0.534 0.432 0.357 0.322 0.222 0.149 0.157 0.157 0.047 -0.076 -0.141 -0.223 -0.283 -0.353 -0.396 -0.466 -0.521 -0.556 -0.581 -0.661 -0.706 -0.683 -0.526 -0.359 -0.186 -0.315 -0.37 -0.432 -0.373 -0.479 -0.512 -0.455 -0.278 -0.1 -0.298 -0.554 -0.82 -1.078 -1.018 -0.742 -0.665 -0.892 -1.007 -0.818 -0.611 -0.539 -0.397 -0.152 -0.017 -0.1 0.165 0.112 -0.127 -0.926 -1.192 -1.346 -1.468 -1.416 -1.311 -1.206 -1.371 -1.581 -1.548 -1.703 -1.776 -1.808 -1.811 -1.698 -1.493 -1.323 -1.166 -1.086 -0.82 -0.707 -0.864 -1.141 -1.002 -0.896 -0.785 -0.518 -0.63 -0.796 -0.852 -0.839 -0.726 -0.708 -0.665 -0.621 -0.579 -0.393 0.374 3.526 3.889 2.606 1.969 1.618 1.575 1.88 3.991 4.239 4.401 4.414 4.393 3.609 0.476 -0.574 -1.056 -1.166 -1.056 -0.897 -0.666 -0.136 -0.211 -0.06 0.157 0.368 0.552 0.753 0.976 1.141 1.319 1.477 1.657 1.885 2.036 2.234 2.234 2.254 2.262 2.339 2.197 2.222 2.239 2.249 2.234 2.214 2.214 2.237 2.222 2.247 2.219 2.207 2.209 2.187 2.207 2.227 2.299 2.357 2.264 2.207 2.294 2.344 2.254 2.183 2.042 2.009 2.114 2.027 1.913 1.873 1.991 2.005 2.06 2.046 2.28 2.545 2.632 2.775 2.86 2.935 3.003 3.111 3.228 3.3 3.453 3.339 3.643 5.147 3.549 3.523 3.572 3.514 3.484 3.904 6.114 6.607 7.459 5.732 5.287 6.812 8.809 7.232 4.342 4.432 5.522 5.984 7.737 6.579 6.124 6.967 10.199 8.304 8.272 10.382 9.439 13.167 13.409 8.547 7.054 7.137 7.162 7.197 7.154 6.877 9.054 13.679 17.524 7.872 7.679 11.867 9.767 10.202 10.339 8.904 10.932 7.659 6.964 11.717 7.827 6.717 6.527 6.502 6.974 12.199 8.444 11.302 7.504 6.404 6.069 6.004 6.189 6.799 11.774 14.729 17.427 14.42 17.01 15.82 23.642 12.762 9.092 8.86 8.605 8.612 8.685 8.89 9.065 9.247 9.39 9.565 9.907 10.57 11.075 11.555 11.83 11.082 10.707 10.912 10.955 11.39 11.195 11.392 11.775 11.712 11.572 11.562 11.677 11.682 12.002 11.787 11.985 11.825
14.671 14.466 14.529 15.819 14.836 13.854 13.784 13.784 13.659 13.206 12.784 12.636 12.956 12.579 12.409 13.716 14.256 11.711 11.729 11.744 11.119 11.009 10.774 10.671 10.421 10.264 10.016 9.779 9.561 9.401 9.204 9.024 8.886 9.939 12.361 14.334 10.929 8.054 12.471 16.831 16.354 12.531 9.019 6.406 6.106 6.141 5.814 5.199 4.701 4.61 4.432 3.61 5.362 4.57 3.973 3.446 2.5 2.454 2.447 2.252 1.582 1.267 1.078 0.981 0.873 0.686 0.611 0.604 0.574 0.559 0.544 0.526 0.484 0.479 0.469 0.439 0.434 0.391 0.396 0.356 0.326 0.294 0.311 0.244 0.159 0.089 -0.026 -0.115 -0.183 -0.276 -0.391 -0.512 -0.682 -0.839 -0.968 -1.069 -1.195 -1.34 -1.485 -1.628 -1.698 -1.708 -1.675 -1.639 -1.634 -1.521 -1.164 -1.291 -1.621 -1.636 -1.636 -1.655 -9999 -9999 -9999 -9999 -9999 -1.851 -1.354 -1.043 -0.845 -0.723 -0.689 -0.583 -0.434 -0.281 -0.163 -0.123 -0.109 -0.092 -0.07 -0.086 -0.089 -0.059 -0.054 0.021 0.044 0.131 0.169 0.249 0.324 0.374 0.444 0.511 0.641 0.951 1.424 1.679 1.659 1.684 1.711 1.659 1.629 1.671 1.384 0.646 0.514 0.514 0.466 0.406 0.354 0.329 0.279 0.189 0.151 0.006 0.119 0.216 0.294 0.331 0.416 0.421 0.479 0.536 0.745 0.814 0.884 1.011 1.428 1.918 2.197 2.147 2.139 2.281 1.972 1.577 1.307 1.062 0.819 0.607 0.487 0.399 0.334 0.299 0.352 0.157 0.207 0.044 -0.058 -0.128 -0.176 -0.246 -0.326 -0.401 -0.461 -0.518 -0.553 -0.593 -0.633 -0.616 -0.47 -0.438 -0.314 -0.338 -0.464 -0.598 -0.603 -0.572 -0.687 -0.671 -0.598 -0.417 -0.21 -0.297 -0.552 -0.802 -1.143 -1.176 -0.936 -0.776 -0.791 -0.702 -0.76 -0.734 -0.582 -0.413 -0.278 -0.081 -0.496 0.259 0.323 -0.671 -1.148 -1.217 -1.288 -1.371 -1.206 -1.288 -1.458 -1.688 -1.678 -1.743 -1.706 -1.741 -1.723 -1.683 -1.358 -1.121 -0.831 -0.772 -0.741 -0.728 -0.568 -0.801 -1.023 -0.99 -0.872 -0.644 -0.369 -0.341 -0.473 -0.531 -0.52 -0.457 -0.369 -0.334 -0.289 -0.208 0.073 3.233 3.677 3.106 1.971 1.871 1.538 1.537 3.7 4.819 4.418 4.324 4.804 3.352 0.417 0.063 -0.166 -0.42 -0.61 -0.598 -0.531 -0.411 -0.221 -0.071 0.087 0.269 0.495 0.684 0.882 1.059 1.235 1.417 1.592 1.684 1.925 2.043 2.014 2.053 2.102 2.107 2.223 2.222 2.202 2.217 2.249 2.232 2.242 2.204 2.229 2.234 2.227 2.229 2.214 2.232 2.212 2.219 2.247 2.222 2.38 2.269 2.187 2.182 2.128 2.161 2.051 2.051 1.999 1.956 1.959 1.928 1.879 1.963 2.056 2.081 2.208 2.545 2.644 2.775 2.876 2.954 3.017 3.07 3.188 3.352 3.353 3.387 3.416 4.844 3.958 3.627 3.642 3.614 3.742 3.769 4.694 7.224 6.897 7.267 6.759 4.929 6.157 8.159 8.389 6.154 7.429 6.259 9.354 8.052 6.069 6.369 7.004 7.789 7.517 8.437 10.809 11.339 11.399 12.312 9.382 7.539 8.132 7.337 7.264 7.459 8.109 7.784 8.537 16.092 19.464 15.762 13.729 10.967 10.492 9.824 9.687 15.989 9.749 7.257 8.619 7.594 6.857 6.709 6.644 6.722 9.824 7.509 7.372 6.922 6.592 6.247 7.977 11.799 11.522 11.644 10.477 10.047 19.945 15.117 13.67 8.085 8.082 9.09 8.887 8.615 8.525 8.64 8.857 9.042 9.24 9.412 9.59 9.767 9.94 10.112 10.417 10.542 10.605 10.735 10.9 11.055 11.142 11.385 11.527 11.38 11.487 11.62 11.6 11.677 12.047 12.825 12.387 12.04 11.905
14.496 14.384 14.159 15.014 16.626 13.829 13.656 13.599 13.466 13.016 12.766 12.671 12.529 12.446 12.149 12.849 13.239 12.259 11.761 11.796 11.241 10.931 10.856 10.636 10.314 10.156 9.981 9.809 9.634 9.361 11.239 9.136 8.936 13.004 18.146 17.209 10.399 7.819 12.241 16.171 16.446 8.871 8.744 6.174 10.659 5.829 5.559 5.355 5.026 4.392 4.376 3.123 6.054 6.695 4.646 4.325 3.099 2.405 2.382 2.333 1.711 1.3 1.036 0.929 0.799 0.714 0.651 0.601 0.571 0.549 0.524 0.489 0.469 0.471 0.439 0.454 0.411 0.396 0.384 0.384 0.329 0.289 0.244 0.224 0.159 0.106 0.011 -0.093 -0.192 -0.306 -0.411 -0.549 -0.7 -0.848 -0.98 -1.12 -1.258 -1.427 -1.586 -1.654 -1.693 -1.695 -1.668 -1.636 -1.636 -1.626 -1.251 -1.424 -1.626 -1.631 -1.646 -1.626 -9999 -9999 -9999 -9999 -2.109 -1.771 -1.245 -0.991 -0.809 -0.669 -0.661 -0.578 -0.455 -0.274 -0.148 -0.118 -0.1 -0.087 -0.111 -0.075 -0.031 -0.011 -0.014 0.011 0.039 0.116 0.221 0.269 0.324 0.389 0.419 0.546 0.766 1.499 1.699 1.536 1.619 1.691 1.701 1.684 1.544 1.301 1.016 0.626 0.539 0.526 0.464 0.459 0.394 0.334 0.321 0.239 0.186 0.126 0.076 0.159 0.304 0.351 0.366 0.376 0.451 0.561 0.569 0.634 0.831 1.074 1.711 2.416 2.971 2.835 2.242 2.208 2.216 1.827 1.437 1.197 0.957 0.714 0.527 0.432 0.334 0.347 0.272 0.217 0.212 0.009 -0.071 -0.101 -0.168 -0.208 -0.266 -0.323 -0.358 -0.441 -0.523 -0.546 -0.548 -0.603 -0.409 -0.493 -0.486 -0.512 -0.563 -0.783 -0.801 -0.611 -0.878 -0.876 -0.671 -0.49 -0.331 -0.256 -0.547 -0.795 -0.811 -0.845 -0.816 -0.894 -0.752 -0.785 -0.845 -0.812 -0.65 -0.567 -0.458 -0.381 -0.468 0.508 1.03 -0.903 -1.411 -1.164 -0.979 -1.273 -1.443 -1.626 -1.691 -1.628 -1.588 -1.616 -1.698 -1.623 -1.313 -1.403 -1.088 -0.988 -0.703 -0.514 -0.59 -0.608 -0.965 -1.127 -1.026 -0.834 -0.604 -0.411 -0.209 -0.065 -0.157 -0.208 -0.237 -0.153 -0.065 -0.01 0.093 0.175 3.093 3.593 1.206 1.623 2.181 2.531 1.72 1.611 4.027 4.247 4.395 3.22 0.411 -0.234 -0.169 0.004 0.128 -0.054 -0.174 -0.219 -0.22 -0.159 -0.068 0.051 0.281 0.403 0.62 0.798 1.015 1.168 1.243 1.403 1.625 1.811 1.877 1.87 1.89 1.895 1.95 1.978 2.027 2.069 2.205 2.239 2.244 2.317 2.229 2.182 2.207 2.237 2.229 2.212 2.259 2.264 2.222 2.207 2.212 2.209 2.225 2.374 2.178 2.165 2.075 1.004 1.044 1.968 1.962 1.899 1.915 1.97 1.929 1.97 2.184 2.208 2.518 2.653 2.793 2.92 2.978 3.02 3.077 3.137 3.257 3.336 3.432 3.434 4.687 3.884 3.664 3.737 3.844 3.907 4.454 4.047 5.044 6.454 7.427 6.727 7.434 5.589 5.442 6.649 8.792 8.467 9.334 7.739 7.314 8.657 7.564 6.609 7.284 7.219 9.027 9.357 10.247 10.802 10.314 9.384 8.107 8.317 7.974 7.492 9.124 9.587 9.212 9.757 12.474 14.207 17.632 12.862 10.997 12.269 11.697 9.124 7.612 7.202 7.982 7.734 7.112 7.052 7.017 6.917 6.732 6.619 6.654 6.547 7.589 6.772 6.632 7.057 8.292 13.302 12.607 13.214 12.314 11.559 13.805 18.62 14.207 12.59 8.202 9.065 9.02 8.675 8.447 8.595 8.79 9.015 9.21 9.412 9.597 9.787 9.962 10.137 10.275 10.425 10.575 10.737 10.972 11.037 11.24 11.867 11.875 11.452 11.462 11.572 11.612 11.715 11.807 14.557 13.492 12.267 12.022
14.426 14.249 14.136 14.029 16.196 13.709 13.464 13.439 13.391 12.959 12.691 12.569 12.441 12.519 12.294 12.006 11.879 12.026 12.344 13.059 12.419 10.884 10.769 10.544 10.361 10.044 9.864 9.759 10.076 13.046 10.234 9.129 8.931 10.826 15.731 14.471 10.846 10.301 7.571 17.674 17.576 9.819 6.771 10.086 13.756 10.059 5.566 5.442 5.115 4.685 3.945 3.466 3.687 5.654 4.023 3.019 2.715 2.547 2.401 2.323 1.98 1.362 1.146 1.019 0.859 0.731 0.646 0.596 0.576 0.551 0.531 0.491 0.484 0.441 0.444 0.486 0.396 0.376 0.394 0.329 0.309 0.301 0.234 0.226 0.176 0.086 0.028 -0.056 -0.185 -0.292 -0.459 -0.556 -0.705 -0.858 -0.998 -1.14 -1.328 -1.534 -1.65 -1.555 -1.454 -1.584 -1.677 -1.639 -1.649 -1.636 -1.544 -1.168 -1.629 -1.646 -1.646 -1.641 -9999 -9999 -9999 -9999 -2.179 -1.664 -1.219 -0.98 -0.818 -0.655 -0.614 -0.583 -0.433 -0.24 -0.134 -0.11 -0.09 -0.095 -0.098 -0.079 -0.051 -0.024 0.001 0.019 0.076 0.136 0.214 0.291 0.361 0.406 0.454 0.564 0.926 1.496 1.134 1.084 1.604 1.709 1.716 1.596 1.126 0.794 0.739 0.666 0.539 0.534 0.499 0.469 0.404 0.339 0.311 0.259 0.199 0.149 0.136 0.206 0.286 0.311 0.374 0.374 0.411 0.514 0.549 0.611 1.021 1.634 2.174 2.943 3.605 3.708 3.146 2.526 2.337 2.032 1.589 1.292 1.074 0.817 0.599 0.442 0.354 0.299 0.264 0.189 0.157 0.037 -0.036 -0.086 -0.123 -0.171 -0.253 -0.303 -0.346 -0.373 -0.411 -0.483 -0.448 -0.533 -0.598 -0.611 -0.611 -0.651 -0.771 -0.783 -0.783 -0.778 -0.818 -0.811 -0.619 -0.537 -0.403 -0.247 -0.375 -0.478 -0.698 -0.73 -0.617 -0.873 -1.001 -0.963 -0.868 -0.891 -0.928 -0.731 -0.799 -0.67 -0.276 1.141 0.549 -1.343 -1.201 -0.976 -1.026 -1.234 -1.476 -1.578 -1.538 -1.416 -1.411 -1.586 -1.291 -1.298 -1.006 -1.241 -1.198 -0.981 -0.819 -0.645 -0.67 -0.913 -0.944 -1.106 -0.858 -0.626 -0.448 -0.292 -0.077 0.087 0.117 0.05 0.084 0.187 0.245 0.302 0.418 2.469 4.028 1.35 1.614 1.862 2.13 2.044 0.813 1.929 3.785 1.68 0.15 -0.563 -0.496 -0.352 -0.201 -0.057 0.077 -0.005 -0.071 -0.114 -0.095 0.415 0.269 0.308 0.424 0.601 0.755 0.964 1.095 1.251 1.351 1.493 1.621 1.76 1.693 1.669 1.744 1.738 1.766 1.849 1.91 1.914 2.054 2.157 2.242 2.259 2.227 2.217 2.214 2.242 2.207 2.232 2.232 2.227 2.232 2.192 2.199 2.189 2.16 2.221 2.282 2.108 2.045 1.089 1.114 1.159 1.93 1.916 1.924 1.981 1.987 2.047 2.254 2.507 2.65 2.799 2.939 3.038 3.052 3.111 3.193 3.293 3.351 3.444 3.457 4.259 4.614 3.694 3.767 3.892 4.022 4.147 4.462 4.197 6.349 6.032 7.377 6.722 7.297 6.542 5.392 6.004 8.359 9.564 8.759 7.709 6.219 9.342 7.587 7.124 7.287 8.102 10.969 10.609 10.404 9.519 8.459 7.497 7.577 7.999 8.544 9.339 10.979 9.889 9.357 9.297 15.229 9.037 13.422 8.582 10.287 9.552 13.414 9.152 7.524 7.227 7.214 12.079 7.449 9.317 12.092 7.034 6.917 8.274 6.732 6.657 6.699 6.627 6.737 7.367 7.474 9.857 11.427 11.994 9.959 7.899 9.235 14.012 10.23 8.395 8.255 11.26 9.077 8.6 8.417 8.577 8.785 8.98 9.19 9.397 9.582 9.777 9.92 10.105 10.307 10.47 10.625 10.732 10.852 10.995 11.22 11.995 11.855 11.492 11.51 11.597 11.71 11.772 11.785 12.225 14.982 14.575 12.112
14.431 14.289 14.009 13.881 14.044 13.694 13.356 13.394 14.146 13.201 12.689 12.541 12.579 12.441 12.304 11.796 11.631 11.499 12.124 12.889 11.211 10.924 10.856 10.484 10.299 10.114 9.944 9.706 9.601 10.116 11.446 8.986 8.856 8.681 8.849 12.181 9.524 8.796 8.296 17.491 11.219 10.649 7.429 8.179 10.754 12.906 8.976 9.268 5.173 4.986 3.827 3.335 4.106 4.786 3.076 2.735 2.527 2.444 2.426 2.371 2.038 1.364 1.141 1.016 0.891 0.761 0.646 0.634 0.599 0.564 0.549 0.481 0.484 0.464 0.486 0.456 0.419 0.426 0.374 0.376 0.319 0.326 0.279 0.211 0.164 0.121 0.028 -0.065 -0.174 -0.322 -0.451 -0.563 -0.715 -0.86 -1.011 -1.17 -1.354 -1.58 -1.682 -1.489 -1.117 -1.416 -1.631 -1.68 -1.639 -1.639 -1.606 -1.316 -1.609 -1.636 -1.631 -1.601 -1.626 -9999 -9999 -9999 -2.151 -1.582 -1.241 -0.972 -0.813 -0.676 -0.627 -0.523 -0.354 -0.208 -0.136 -0.107 -0.084 -0.086 -0.085 -0.059 -0.024 -0.001 0.039 0.079 0.119 0.174 0.204 0.324 0.364 0.396 0.456 0.581 0.961 1.094 0.911 1.031 1.714 1.734 1.724 1.734 1.464 0.914 0.731 0.659 0.566 0.526 0.511 0.436 0.384 0.316 0.321 0.251 0.151 0.131 0.149 0.204 0.279 0.331 0.341 0.399 0.414 0.484 0.725 0.913 1.373 1.995 2.798 3.81 4.009 4.006 4.037 3.557 2.709 2.259 1.839 1.449 1.204 0.952 0.734 0.554 0.412 0.354 0.252 0.167 0.094 0.019 -0.013 -0.013 -0.063 -0.128 -0.191 -0.221 -0.253 -0.328 -0.416 -0.391 -0.426 -0.463 -0.576 -0.573 -0.591 -0.668 -0.731 -0.778 -0.751 -0.776 -0.781 -0.768 -0.776 -0.585 -0.385 -0.251 -0.403 -0.626 -0.743 -0.858 -0.903 -0.868 -0.876 -0.841 -0.878 -1.031 -1.181 -1.301 -1 -0.968 -0.345 1.911 0.109 -1.081 -1.171 -1.436 -1.228 -0.856 -0.342 -0.978 -1.107 -1.311 -1.561 -1.108 -1.248 -1.153 -0.913 -1.246 -1.296 -1.133 -0.79 -0.696 -0.668 -0.857 -0.993 -0.958 -0.742 -0.571 -0.38 -0.239 -0.023 0.189 0.355 0.328 0.458 0.514 0.568 0.636 1.958 4.071 1.62 1.517 1.975 1.828 1.698 1.851 0.48 3.802 0.95 -0.81 -0.776 -0.636 -0.439 -0.295 -0.164 -0.07 0.104 -0.017 -0.175 -0.251 -0.008 0.623 0.157 0.254 0.441 0.567 0.832 0.949 1.134 1.306 1.336 1.36 1.454 1.566 1.503 1.574 1.557 1.588 1.603 1.645 1.719 1.813 1.916 2.009 2.101 2.204 2.219 2.274 2.192 2.227 2.222 2.232 2.242 2.217 2.207 2.197 2.204 2.111 2.118 2.065 2.235 2.162 2.035 1.239 1.287 1.918 1.935 1.952 1.999 2.036 2.097 2.277 2.664 2.655 2.775 2.927 3.1 3.119 3.158 3.246 3.342 3.613 3.436 3.484 4.242 5.949 4.007 3.782 3.942 4.067 4.179 4.257 4.254 4.272 4.359 4.524 6.502 7.249 6.012 6.452 5.957 7.549 7.654 7.569 5.972 5.717 6.169 7.064 7.162 7.354 7.487 8.514 10.672 10.597 9.002 7.789 7.652 8.039 7.992 7.669 8.322 9.854 11.199 10.494 8.954 8.214 10.002 8.852 10.177 9.157 13.947 10.222 9.432 8.162 10.504 8.952 7.227 7.692 8.462 8.874 17.934 10.289 7.849 6.957 6.879 6.827 6.694 6.657 8.262 10.444 9.559 8.002 6.927 7.404 7.227 7.572 8.892 8.41 11.117 15.46 13.312 10.887 9.967 8.44 8.382 8.557 8.752 8.97 9.177 9.35 9.552 9.745 9.947 10.125 10.305 10.47 10.632 10.767 10.895 10.99 11.072 11.27 11.417 11.46 11.547 11.682 11.81 11.895 11.905 12.12 15.6 13.842 12.185
14.484 14.184 14.004 13.824 14.581 13.744 13.314 13.299 20.389 14.031 17.646 14.519 12.526 12.446 12.236 11.776 11.594 11.509 11.289 11.104 10.949 10.861 10.724 10.451 10.449 10.144 9.824 9.621 9.606 10.999 9.786 8.926 8.789 8.644 8.376 8.114 7.916 7.629 7.416 12.609 7.661 7.004 6.614 8.021 12.726 6.986 5.536 6.399 5.178 4.672 3.867 3.814 5.435 4.305 3.714 2.746 2.563 2.5 2.442 2.386 2.133 1.386 1.174 1.044 0.909 0.786 0.656 0.601 0.594 0.566 0.556 0.524 0.476 0.476 0.451 0.439 0.436 0.371 0.374 0.354 0.331 0.301 0.279 0.219 0.151 0.124 0.039 -0.065 -0.155 -0.308 -0.428 -0.549 -0.689 -0.864 -1.006 -1.187 -1.375 -1.591 -1.611 -1.496 -0.779 -1.024 -1.619 -0.524 -1.619 -1.626 -1.636 -1.674 -1.636 -1.609 -1.596 -1.619 -9999 -9999 -9999 -9999 -2.149 -1.415 -1.198 -0.899 -0.702 -0.581 -0.63 -0.472 -0.308 -0.186 -0.12 -0.118 -0.083 -0.083 -0.064 -0.049 -0.041 -0.001 0.034 0.069 0.149 0.199 0.261 0.321 0.381 0.439 0.469 0.574 0.766 0.866 0.824 1.176 1.706 1.721 1.729 1.649 1.551 0.949 0.719 0.661 0.581 0.584 0.521 0.454 0.389 0.319 0.321 0.234 0.166 0.196 0.176 0.221 0.266 0.341 0.384 0.474 0.494 0.631 0.979 1.466 2.223 2.93 3.755 3.967 3.707 3.594 3.972 4.062 3.411 2.595 2.089 1.672 1.294 1.052 0.797 0.634 0.519 0.384 0.284 0.177 0.099 0.027 0.017 0.012 -0.043 -0.071 -0.126 -0.146 -0.203 -0.288 -0.341 -0.328 -0.348 -0.433 -0.508 -0.541 -0.563 -0.588 -0.586 -0.648 -0.688 -0.698 -0.743 -0.768 -0.826 -0.61 -0.392 -0.384 -0.41 -0.699 -0.883 -0.858 -0.843 -0.838 -0.866 -1.043 -1.206 -1.148 -1.001 -0.911 -0.943 -0.976 -0.653 1.969 0.137 -1.223 -1.416 -1.217 -0.876 -0.333 -0.788 -1.296 -1.193 -1.466 -1.211 -0.966 -1.293 -0.936 -0.978 -1.303 -1.143 -0.978 -0.936 -0.84 -0.733 -0.672 -0.606 -0.841 -0.65 -0.527 -0.326 -0.171 0.046 0.243 0.41 0.644 0.698 0.771 0.828 1.552 4.03 2.716 1.94 2.151 1.978 1.841 1.843 0.269 3.029 2.097 -0.958 -0.773 -0.626 -0.656 -0.458 -0.231 -0.148 -0.042 0.057 -0.055 -0.25 -0.354 -0.069 0.176 0.091 0.217 0.465 0.657 0.9 0.978 1.089 1.11 1.154 1.248 1.326 1.389 1.347 1.371 1.396 1.432 1.47 1.547 1.625 1.685 1.823 1.906 2.017 2.085 2.2 2.259 2.167 2.252 2.219 2.249 2.227 2.202 2.219 2.209 2.13 2.074 2.06 2.03 2.051 2.335 2.066 1.979 1.996 1.97 1.994 2.094 2.133 2.213 2.37 2.584 2.789 2.694 2.874 2.994 3.152 3.207 3.296 3.392 3.964 3.758 3.547 4.167 5.907 5.962 4.367 3.992 4.132 4.422 4.632 4.999 6.264 4.657 4.409 4.589 5.192 5.147 4.892 6.784 6.924 8.384 7.397 5.952 6.282 6.717 7.912 7.384 7.209 7.449 7.649 7.984 8.584 8.059 7.992 7.929 7.719 7.734 7.667 7.444 7.964 9.104 10.414 9.864 9.034 8.917 9.709 12.879 10.359 9.309 14.574 11.064 7.892 11.584 14.049 13.934 8.112 7.379 7.472 7.602 7.302 7.564 7.087 7.102 6.999 6.857 6.789 6.882 7.357 7.567 7.409 8.239 7.414 7.714 7.717 9.867 9.082 7.802 8.637 11.727 11.145 11.975 9.24 8.382 8.357 8.54 8.74 8.967 9.145 9.337 9.53 9.725 9.925 10.102 10.287 10.457 10.625 10.757 10.89 11.002 11.135 11.215 11.315 11.417 11.49 11.705 11.937 11.955 11.95 12.075 12.872 12.65 12.642
14.256 14.116 14.081 13.879 13.711 13.431 13.264 13.161 17.491 16.824 20.334 16.656 12.409 12.431 12.016 11.751 11.549 11.404 11.279 11.121 10.881 10.751 10.599 10.471 10.286 10.416 9.876 9.689 9.606 9.586 9.121 8.904 8.714 8.606 8.396 8.239 7.841 7.606 8.919 7.956 9.396 9.016 6.671 6.349 7.304 5.839 7.134 7.223 9.684 5.954 4.662 4.033 3.749 4.373 2.868 2.601 2.514 2.493 2.463 2.307 2.167 1.516 1.224 1.049 0.934 0.796 0.686 0.639 0.601 0.571 0.551 0.534 0.496 0.491 0.461 0.441 0.414 0.426 0.384 0.344 0.334 0.294 0.261 0.226 0.159 0.119 0.062 -0.032 -0.15 -0.274 -0.414 -0.535 -0.687 -0.848 -1.005 -1.197 -1.406 -1.608 -1.648 -1.453 -0.416 -0.801 -1.624 -1.629 -1.665 -1.643 -1.688 -1.707 -1.681 -1.611 -1.621 -1.634 -9999 -9999 -9999 -9999 -2.004 -1.473 -1.131 -0.916 -0.001 -0.128 -0.649 -0.497 -0.311 -0.166 -0.133 -0.101 -0.095 -0.094 -0.056 -0.074 -0.034 0.019 0.014 0.064 0.141 0.204 0.266 0.346 0.384 0.434 0.471 0.574 0.669 0.739 0.809 1.464 1.686 1.724 1.691 1.584 1.111 0.826 0.759 0.746 0.701 0.644 0.524 0.476 0.371 0.311 0.291 0.176 0.186 0.411 0.311 0.201 0.264 0.306 0.411 0.421 0.549 0.9 1.408 1.969 2.981 3.807 3.91 3.413 2.956 2.923 3.422 4.018 4.019 3.33 2.43 1.817 1.467 1.192 0.942 0.752 0.592 0.447 0.359 0.229 0.157 0.107 0.054 0.037 0.012 -0.063 -0.103 -0.113 -0.183 -0.256 -0.303 -0.343 -0.388 -0.426 -0.453 -0.443 -0.498 -0.516 -0.523 -0.556 -0.591 -0.651 -0.768 -0.554 -0.595 -0.537 -0.399 -0.518 -0.679 -0.684 -0.851 -0.836 -0.826 -0.883 -1.106 -1.091 -0.956 -1.008 -1.013 -1.028 -0.978 -1.038 0.63 2.514 0.112 -1.158 -1.136 -0.721 -0.451 -0.753 -1.098 -1.126 -0.927 -1.461 -1.068 -1.101 -1.156 -0.926 -1.233 -1.231 -1.111 -1.008 -1.033 -1.001 -0.684 -0.489 -0.327 -0.438 -0.441 -0.403 -0.274 -0.092 0.104 0.313 0.452 0.721 0.875 1.049 1.461 3.975 3.134 1.706 2.364 2.211 2.017 1.917 0.085 1.905 2.394 -0.256 -0.951 -0.813 -0.683 -0.516 -0.343 -0.253 -0.123 -0.03 0.011 -0.136 -0.264 -0.471 -0.271 -0.085 0.073 0.25 0.468 0.627 0.774 0.959 0.982 0.992 1.023 1.136 1.2 1.25 1.235 1.252 1.293 1.321 1.364 1.445 1.573 1.599 1.716 1.81 1.947 1.978 2.101 2.264 2.234 2.224 2.219 2.234 2.199 2.197 2.144 2.115 2.158 2.07 2.048 2.045 2.069 2.126 2.14 2.089 2.098 2.121 2.177 2.319 2.4 2.474 2.523 2.64 2.594 2.792 2.97 3.098 3.215 3.307 3.404 3.452 3.499 3.497 4.012 6.347 6.394 4.019 4.107 4.234 4.249 6.062 5.774 4.419 4.517 7.294 7.457 4.577 4.809 4.979 5.089 5.339 8.127 8.147 7.199 6.512 7.014 7.989 9.837 8.474 7.387 7.637 7.702 7.942 8.007 7.929 8.044 7.964 8.432 10.597 8.524 7.974 8.112 8.704 9.607 9.159 9.909 11.122 13.857 9.142 10.424 13.052 13.864 10.817 8.727 13.399 16.917 13.272 9.952 7.614 7.582 7.457 7.342 7.277 7.189 7.297 7.134 7.842 7.384 7.497 9.344 8.139 8.447 7.652 7.292 7.839 7.349 9.772 10.362 7.75 7.67 7.55 8.067 9.895 8.427 8.327 8.39 8.542 8.757 8.942 9.135 9.355 9.57 9.732 9.915 10.105 10.292 10.445 10.602 10.737 10.887 11.007 11.115 11.232 11.34 11.452 11.54 11.615 11.73 11.897 12.032 12.102 12.38 13.11 12.42
14.186 14.049 14.436 14.466 13.604 13.426 13.206 13.046 12.996 13.151 14.701 12.936 12.336 12.161 11.901 11.699 11.554 11.389 11.239 11.104 10.859 10.701 10.614 10.324 10.166 10.089 9.816 9.634 9.636 9.309 9.091 9.024 9.561 8.726 8.436 8.631 7.906 8.194 8.356 8.299 9.894 7.929 7.969 6.471 8.039 9.584 9.399 6.684 7.765 4.853 6.59 3.688 3.415 3.095 2.891 2.54 2.695 2.492 2.338 2.226 1.942 1.461 1.246 1.116 0.976 0.831 0.721 0.634 0.589 0.591 0.514 0.524 0.469 0.466 0.429 0.439 0.416 0.384 0.371 0.334 0.324 0.331 0.279 0.221 0.174 0.101 0.071 -0.038 -0.131 -0.243 -0.38 -0.514 -0.664 -0.802 -0.97 -1.203 -1.424 -1.632 -1.576 -1.211 -0.735 -1.116 -0.257 -1.674 -1.694 -1.689 -1.678 -1.683 -1.629 -1.624 -1.624 -1.636 -9999 -9999 -9999 -2.219 -1.961 -1.388 -1.1 -0.912 -0.458 -0.319 -0.684 -0.486 -0.293 -0.164 -0.114 -0.105 -0.095 -0.11 -0.111 -0.024 -0.004 0.031 0.049 0.104 0.189 0.214 0.281 0.349 0.394 0.439 0.529 0.579 0.659 0.701 0.771 1.611 1.714 1.736 1.659 1.661 1.451 0.976 0.811 0.949 1.351 0.964 0.529 0.451 0.391 0.354 0.284 0.189 0.234 0.334 0.391 0.251 0.249 0.341 0.356 0.494 0.843 1.479 2.003 2.565 3.704 3.845 3.263 2.629 2.397 2.385 2.829 3.681 4.158 3.964 2.929 2.154 1.617 1.324 1.102 0.867 0.639 0.517 0.407 0.292 0.217 0.152 0.099 0.079 0.009 -0.043 -0.056 -0.103 -0.176 -0.291 -0.301 -0.326 -0.351 -0.368 -0.373 -0.383 -0.391 -0.431 -0.501 -0.533 -0.596 -0.643 -0.793 -0.574 -0.53 -0.521 -0.624 -0.61 -0.893 -0.598 -0.831 -0.906 -0.968 -1.071 -0.956 -0.941 -1.093 -1.173 -1.191 -1.221 -1.228 -1.308 -0.171 2.711 2.243 -0.142 -0.308 -0.16 -0.683 -1.086 -1.053 -0.808 -1.278 -1.333 -0.968 -1.286 -1.046 -1.206 -1.213 -1.046 -1.088 -1.018 -0.926 -0.893 -0.768 -0.31 -0.002 -0.054 -0.127 -0.126 -0.053 0.033 0.223 0.303 0.422 0.541 0.793 0.971 3.9 4.028 1.857 2.636 4.533 4.371 2.292 1.323 1.795 3.452 0.73 -0.881 -0.776 -0.646 -0.518 -0.423 -0.311 -0.038 0.041 0.096 0.046 -0.081 -0.393 -0.201 -0.135 -0.002 0.139 0.309 0.522 0.7 0.833 0.829 0.845 0.902 0.936 1.027 1.077 1.149 1.101 1.11 1.139 1.184 1.269 1.337 1.429 1.565 1.627 1.727 1.806 1.92 2.041 2.159 2.252 2.252 2.141 2.234 2.222 2.131 2.126 2.041 2.046 2.064 2.035 2.027 2.058 2.077 2.156 2.225 2.298 2.366 2.413 2.751 2.739 2.48 2.478 2.653 2.843 3.008 3.552 3.352 3.376 3.437 3.487 4.415 7.972 8.807 5.349 5.667 5.672 5.639 4.782 6.224 8.207 10.222 9.304 8.134 10.187 11.214 11.792 6.637 4.877 5.102 5.219 5.464 8.452 8.539 7.119 6.734 6.469 11.314 10.707 10.502 9.114 7.662 7.922 7.994 8.039 8.039 8.112 7.922 8.104 9.417 8.697 8.237 8.302 8.409 9.842 10.267 11.362 16.097 17.999 18.259 15.944 11.414 12.277 10.787 10.089 18.212 13.347 9.284 8.877 7.892 7.934 10.959 9.857 7.444 7.474 7.309 7.274 10.027 8.154 7.527 8.592 8.649 7.499 7.864 7.689 8.287 10.642 10.824 8.985 14.812 13.6 7.78 8.222 8.84 8.227 8.225 8.372 8.525 8.742 8.942 9.125 9.34 9.552 9.747 9.895 10.095 10.295 10.462 10.59 10.73 10.875 10.995 11.102 11.235 11.357 11.48 11.592 11.705 11.812 11.877 11.98 12.065 12.16 12.302 12.422
