ncols 434
nrows 31
xllcorner    456030
yllcorner    87358
cellsize     2
NODATA_value -9999
105.295 105.143 104.999 104.864 104.729 104.582 104.432 104.307 104.144 104.004 103.877 103.722 103.574 103.452 103.307 103.164 103.012 102.874 102.719 102.582 102.449 102.312 102.149 102.039 101.897 101.742 101.642 101.494 101.352 101.204 101.067 100.907 100.759 100.647 100.487 100.357 100.214 100.059 99.924 99.789 99.637 99.479 99.367 99.222 99.094 98.967 98.817 98.687 98.547 98.397 98.239 98.094 97.964 97.804 97.662 97.519 97.399 97.289 97.147 97.017 96.919 96.834 96.719 96.594 96.502 96.452 96.367 95.979 95.764 95.787 95.679 95.354 95.182 94.927 94.704 94.509 94.294 94.099 93.927 93.789 93.642 93.524 93.422 93.317 93.214 93.134 93.027 92.924 92.822 92.697 92.602 92.474 92.337 92.234 92.079 91.934 91.814 91.709 91.589 91.479 91.354 91.242 91.144 91.049 90.964 90.849 90.754 90.669 90.552 90.432 90.297 90.187 90.044 89.919 89.794 89.689 89.599 89.524 89.439 89.364 89.267 89.167 89.079 88.987 88.889 88.772 88.724 88.629 88.559 88.472 88.399 88.279 88.202 88.124 88.029 87.914 87.812 87.689 87.552 87.409 87.284 87.157 87.039 86.909 86.797 86.677 86.562 86.429 86.279 86.157 85.994 85.849 85.724 85.567 85.437 85.297 85.167 85.037 84.897 84.752 84.612 84.479 84.312 84.159 84.019 83.877 83.719 83.559 83.404 83.264 83.137 82.957 82.804 82.662 82.512 82.347 82.192 82.049 81.897 81.759 81.629 81.474 81.312 81.184 81.032 80.867 80.719 80.557 80.394 80.257 80.104 79.927 79.772 79.622 79.494 79.349 79.204 79.009 78.857 78.689 78.512 78.332 78.119 77.922 77.769 77.589 77.387 77.207 77.037 76.837 76.679 76.494 76.344 76.167 75.997 75.859 75.699 75.544 75.399 75.257 75.117 74.957 74.822 74.719 74.607 74.507 74.397 74.309 74.217 74.137 74.059 73.989 73.924 73.867 73.819 73.764 73.734 73.694 73.657 73.627 73.622 73.589 73.602 73.574 73.579 73.672 73.804 73.912 74.104 73.407 73.039 72.692 72.282 72.057 71.992 71.952 71.989 72.009 72.107 72.174 72.187 72.229 72.302 72.374 72.484 72.589 72.702 72.782 72.899 73.074 73.304 73.467 73.529 73.537 73.534 73.584 73.619 73.672 73.737 73.814 73.884 73.969 74.077 74.139 74.207 74.314 74.437 74.552 74.664 74.814 74.957 75.079 75.209 75.337 75.469 75.592 75.712 75.849 75.989 76.152 76.289 76.434 76.582 76.699 76.822 76.974 77.112 77.314 77.382 77.532 77.654 77.812 77.969 78.119 78.267 78.414 78.562 78.679 78.837 78.947 79.092 79.257 79.397 79.554 79.704 79.862 80.032 80.202 80.357 80.527 80.674 80.834 80.997 81.137 81.284 81.437 81.567 81.702 81.869 82.012 82.154 82.317 82.477 82.597 82.734 82.869 83.017 83.127 83.257 83.409 83.567 83.724 83.849 83.982 84.114 84.239 84.377 84.482 84.607 84.759 84.867 84.982 85.084 85.224 85.364 85.467 85.607 85.717 85.827 85.959 86.114 86.237 86.357 86.459 86.584 86.684 86.787 86.897 86.987 87.104 87.232 87.364 87.489 87.604 87.724 87.859 87.997 88.109 88.242 88.362 88.479 88.594 88.702 88.804 88.907 89.032 89.139 89.257 89.357 89.484 89.587 89.722 89.834 89.967 90.127 90.249 90.379 90.529 90.664 90.797 90.957 91.084 91.234 91.407 91.604 91.747 91.917 92.104 92.259 92.404 92.559 92.689 92.827 92.957 93.087 93.209 93.339 93.452 93.584 93.719 93.844 93.989 94.112 94.234
105.344 105.184 105.054 104.914 104.772 104.632 104.489 104.339 104.199 104.049 103.899 103.754 103.617 103.472 103.349 103.187 103.042 102.884 102.752 102.602 102.462 102.327 102.182 102.032 101.904 101.772 101.657 101.497 101.357 101.207 101.082 100.929 100.787 100.657 100.497 100.354 100.237 100.077 99.919 99.799 99.647 99.509 99.369 99.227 99.107 98.977 98.834 98.684 98.554 98.414 98.247 98.087 97.957 97.804 97.669 97.534 97.409 97.272 97.149 97.034 96.947 96.832 96.749 96.639 96.549 96.484 96.459 95.969 95.819 95.889 95.719 95.382 95.184 94.932 94.707 94.477 94.264 94.082 93.904 93.747 93.619 93.502 93.382 93.294 93.204 93.124 93.022 92.917 92.802 92.677 92.557 92.452 92.322 92.212 92.057 91.939 91.822 91.669 91.569 91.442 91.327 91.217 91.104 91.027 90.952 90.864 90.774 90.677 90.552 90.424 90.287 90.147 90.019 89.922 89.797 89.684 89.609 89.537 89.454 89.384 89.294 89.212 89.132 89.037 88.934 88.827 88.742 88.639 88.572 88.479 88.372 88.257 88.167 88.072 87.979 87.874 87.762 87.649 87.504 87.384 87.277 87.149 87.044 86.917 86.794 86.677 86.542 86.417 86.279 86.139 86.004 85.859 85.722 85.577 85.432 85.284 85.129 85.012 84.862 84.727 84.569 84.432 84.264 84.124 83.974 83.829 83.682 83.512 83.367 83.207 83.057 82.922 82.739 82.594 82.434 82.282 82.124 81.987 81.822 81.677 81.552 81.384 81.229 81.079 80.922 80.782 80.632 80.472 80.307 80.167 80.009 79.834 79.682 79.549 79.399 79.262 79.102 78.929 78.772 78.627 78.422 78.244 78.049 77.874 77.682 77.497 77.324 77.147 76.954 76.772 76.614 76.439 76.257 76.094 75.919 75.769 75.609 75.474 75.322 75.149 75.007 74.854 74.744 74.624 74.492 74.389 74.287 74.224 74.137 74.059 74.009 73.959 73.919 73.864 73.807 73.772 73.759 73.747 73.712 73.672 73.634 73.709 74.002 74.004 74.124 74.284 72.897 72.632 72.272 71.992 71.954 71.817 71.827 71.824 71.814 71.884 71.932 71.989 72.029 72.089 72.164 72.262 72.354 72.487 72.584 72.727 72.919 73.054 73.114 73.179 73.229 73.277 73.307 73.359 73.419 73.499 73.549 73.607 73.684 73.757 73.834 73.907 74.017 74.137 74.229 74.329 74.454 74.572 74.672 74.794 74.899 75.009 75.127 75.267 75.394 75.552 75.682 75.832 75.979 76.147 76.277 76.412 76.567 76.704 76.819 76.969 77.109 77.229 77.387 77.539 77.684 77.839 77.997 78.127 78.299 78.434 78.577 78.724 78.847 78.987 79.114 79.274 79.419 79.589 79.734 79.874 80.034 80.209 80.369 80.537 80.699 80.869 81.012 81.157 81.312 81.454 81.609 81.769 81.902 82.064 82.192 82.327 82.484 82.627 82.762 82.914 83.059 83.184 83.332 83.452 83.582 83.742 83.882 84.029 84.167 84.289 84.404 84.527 84.659 84.759 84.899 85.012 85.124 85.227 85.334 85.459 85.569 85.704 85.817 85.969 86.107 86.214 86.347 86.454 86.577 86.677 86.789 86.907 87.002 87.109 87.229 87.352 87.457 87.607 87.734 87.879 87.989 88.119 88.227 88.369 88.462 88.582 88.707 88.819 88.902 89.032 89.159 89.244 89.347 89.487 89.574 89.697 89.794 89.932 90.064 90.199 90.339 90.462 90.622 90.779 90.932 91.094 91.252 91.419 91.599 91.752 91.932 92.092 92.259 92.394 92.542 92.682 92.812 92.959 93.077 93.187 93.327 93.422 93.582 93.699 93.839 93.972 94.117 94.239
105.365 105.222 105.093 104.954 104.797 104.664 104.522 104.369 104.224 104.079 103.927 103.777 103.632 103.509 103.367 103.212 103.069 102.929 102.774 102.639 102.484 102.354 102.194 102.062 101.939 101.797 101.682 101.519 101.397 101.237 101.102 100.952 100.812 100.679 100.534 100.377 100.247 100.092 99.947 99.799 99.659 99.519 99.397 99.257 99.122 98.967 98.854 98.709 98.559 98.402 98.262 98.107 97.959 97.802 97.677 97.554 97.412 97.259 97.119 97.032 96.924 96.852 96.762 96.634 96.547 96.512 96.387 95.992 95.879 96.002 95.574 95.377 95.162 94.929 94.667 94.437 94.219 94.049 93.872 93.727 93.602 93.477 93.372 93.279 93.204 93.124 93.012 92.897 92.799 92.689 92.567 92.442 92.309 92.192 92.062 91.922 91.804 91.677 91.569 91.454 91.324 91.232 91.152 91.062 90.962 90.877 90.792 90.682 90.562 90.424 90.279 90.152 90.032 89.922 89.822 89.697 89.637 89.579 89.512 89.409 89.304 89.244 89.134 89.032 88.924 88.794 88.687 88.597 88.509 88.414 88.329 88.217 88.127 88.042 87.959 87.862 87.737 87.632 87.512 87.372 87.254 87.142 87.027 86.894 86.792 86.662 86.537 86.412 86.279 86.132 85.979 85.822 85.674 85.524 85.394 85.247 85.109 84.984 84.847 84.679 84.529 84.382 84.224 84.074 83.932 83.782 83.624 83.462 83.314 83.169 82.997 82.849 82.689 82.524 82.369 82.224 82.044 81.909 81.749 81.599 81.477 81.319 81.162 80.997 80.857 80.719 80.577 80.414 80.249 80.084 79.914 79.744 79.609 79.472 79.312 79.182 79.027 78.869 78.699 78.542 78.359 78.179 78.024 77.824 77.624 77.449 77.257 77.084 76.882 76.704 76.539 76.349 76.162 76.002 75.819 75.659 75.474 75.307 75.177 74.992 74.862 74.754 74.639 74.547 74.462 74.369 74.284 74.212 74.122 74.057 73.984 73.949 73.919 73.867 73.834 73.817 73.814 73.769 73.774 73.844 74.137 74.312 73.882 73.197 72.542 72.234 71.874 71.784 71.779 71.709 71.727 71.719 71.729 71.762 71.764 71.799 71.832 71.834 72.009 72.112 72.207 72.339 72.489 72.724 72.849 72.907 72.914 72.929 72.959 73.044 73.109 73.162 73.229 73.287 73.349 73.402 73.507 73.584 73.669 73.757 73.854 73.919 74.029 74.104 74.192 74.287 74.389 74.499 74.629 74.724 74.862 74.987 75.127 75.264 75.414 75.562 75.699 75.839 75.987 76.157 76.289 76.422 76.567 76.694 76.869 76.979 77.127 77.332 77.422 77.557 77.702 77.862 78.014 78.162 78.317 78.469 78.612 78.732 78.887 79.017 79.152 79.294 79.439 79.607 79.752 79.892 80.069 80.234 80.374 80.562 80.739 80.882 81.027 81.212 81.397 81.512 81.662 81.794 81.922 82.057 82.222 82.384 82.512 82.664 82.797 82.942 83.077 83.219 83.357 83.512 83.639 83.782 83.927 84.042 84.159 84.302 84.414 84.562 84.677 84.784 84.907 85.004 85.102 85.214 85.342 85.477 85.587 85.697 85.824 85.957 86.089 86.214 86.349 86.472 86.592 86.692 86.807 86.887 87.002 87.099 87.202 87.329 87.467 87.599 87.729 87.862 87.979 88.104 88.214 88.354 88.447 88.592 88.704 88.797 88.912 89.039 89.117 89.204 89.304 89.399 89.507 89.614 89.729 89.872 89.999 90.142 90.294 90.464 90.622 90.749 90.924 91.077 91.254 91.429 91.592 91.782 91.927 92.079 92.242 92.389 92.504 92.649 92.782 92.927 93.034 93.177 93.309 93.419 93.562 93.697 93.827 93.967 94.104 94.227
105.412 105.258 105.136 104.982 104.847 104.704 104.562 104.399 104.267 104.109 103.964 103.819 103.672 103.529 103.392 103.249 103.099 102.944 102.789 102.657 102.514 102.357 102.239 102.082 101.954 101.812 101.684 101.537 101.397 101.254 101.119 100.974 100.839 100.682 100.537 100.394 100.257 100.117 99.967 99.824 99.689 99.542 99.404 99.257 99.129 98.979 98.814 98.707 98.562 98.387 98.254 98.117 97.972 97.819 97.672 97.547 97.387 97.254 97.122 97.044 96.964 96.847 96.734 96.642 96.567 96.534 96.239 95.902 95.902 95.837 95.554 95.384 95.164 94.912 94.674 94.437 94.219 94.029 93.862 93.732 93.602 93.482 93.359 93.284 93.189 93.094 92.999 92.892 92.804 92.689 92.562 92.444 92.334 92.214 92.064 91.947 91.827 91.684 91.549 91.432 91.337 91.227 91.134 91.047 90.942 90.867 90.782 90.682 90.537 90.424 90.279 90.177 90.059 89.939 89.839 89.734 89.647 89.564 89.492 89.394 89.292 89.182 89.082 88.979 88.869 88.764 88.672 88.577 88.467 88.392 88.307 88.207 88.119 88.042 87.947 87.839 87.717 87.612 87.484 87.362 87.239 87.114 87.009 86.877 86.754 86.627 86.514 86.377 86.232 86.097 85.957 85.797 85.654 85.502 85.372 85.207 85.077 84.939 84.792 84.644 84.502 84.339 84.184 84.027 83.872 83.737 83.567 83.404 83.257 83.104 82.947 82.799 82.627 82.467 82.332 82.157 82.004 81.872 81.717 81.567 81.432 81.254 81.114 80.947 80.797 80.652 80.494 80.342 80.177 80.004 79.854 79.699 79.539 79.379 79.247 79.109 78.967 78.809 78.624 78.449 78.289 78.117 77.947 77.747 77.569 77.392 77.194 77.002 76.804 76.614 76.444 76.267 76.057 75.904 75.729 75.567 75.389 75.229 75.129 74.984 74.882 74.747 74.642 74.512 74.437 74.344 74.267 74.207 74.119 74.044 73.987 73.942 73.934 73.882 73.857 73.892 73.927 73.844 73.682 73.347 72.979 72.487 72.102 71.864 71.759 71.757 71.714 71.702 71.667 71.674 71.624 71.652 71.627 71.602 71.637 71.607 71.749 71.924 72.024 72.167 72.429 72.649 72.707 72.677 72.692 72.722 72.797 72.837 72.899 72.939 73.022 73.079 73.142 73.214 73.304 73.392 73.489 73.562 73.654 73.759 73.839 73.907 73.999 74.072 74.167 74.252 74.369 74.492 74.617 74.747 74.879 74.987 75.132 75.284 75.412 75.567 75.727 75.874 76.024 76.172 76.322 76.462 76.607 76.742 76.867 76.992 77.154 77.287 77.434 77.577 77.732 77.897 78.032 78.174 78.339 78.482 78.629 78.764 78.904 79.024 79.182 79.312 79.459 79.627 79.782 79.942 80.092 80.257 80.429 80.582 80.757 80.912 81.092 81.262 81.392 81.547 81.654 81.817 81.962 82.099 82.269 82.412 82.529 82.697 82.847 83.007 83.157 83.294 83.412 83.539 83.667 83.787 83.932 84.062 84.192 84.312 84.424 84.562 84.654 84.779 84.894 85.014 85.112 85.227 85.344 85.469 85.602 85.704 85.832 85.967 86.102 86.237 86.352 86.487 86.592 86.694 86.782 86.879 86.969 87.094 87.199 87.332 87.472 87.602 87.719 87.854 87.977 88.117 88.229 88.352 88.447 88.579 88.677 88.782 88.874 88.962 89.042 89.154 89.262 89.354 89.449 89.552 89.697 89.844 89.977 90.127 90.254 90.437 90.589 90.739 90.917 91.089 91.257 91.404 91.574 91.749 91.912 92.074 92.234 92.354 92.497 92.617 92.762 92.899 93.024 93.167 93.294 93.412 93.557 93.684 93.832 93.962 94.104 94.204
105.441 105.284 105.132 105.021 104.874 104.719 104.572 104.427 104.289 104.127 103.987 103.844 103.699 103.557 103.392 103.242 103.117 102.952 102.799 102.659 102.524 102.367 102.252 102.099 101.957 101.832 101.694 101.557 101.402 101.272 101.134 100.979 100.844 100.694 100.539 100.387 100.264 100.114 99.959 99.837 99.687 99.549 99.402 99.257 99.119 98.984 98.819 98.687 98.539 98.399 98.257 98.104 97.964 97.822 97.672 97.527 97.397 97.249 97.134 97.052 96.947 96.857 96.742 96.622 96.559 96.487 96.009 95.882 96.002 95.917 95.562 95.367 95.152 94.904 94.679 94.424 94.227 94.059 93.877 93.749 93.634 93.499 93.377 93.299 93.194 93.084 92.994 92.907 92.802 92.677 92.519 92.407 92.299 92.179 92.054 91.927 91.802 91.672 91.544 91.462 91.344 91.257 91.154 91.067 90.957 90.877 90.767 90.672 90.539 90.419 90.304 90.162 90.032 89.922 89.827 89.712 89.627 89.519 89.437 89.357 89.264 89.167 89.044 88.929 88.837 88.749 88.652 88.554 88.472 88.392 88.307 88.217 88.134 88.019 87.924 87.802 87.694 87.597 87.472 87.354 87.214 87.094 86.982 86.869 86.727 86.599 86.467 86.347 86.214 86.084 85.939 85.784 85.639 85.489 85.342 85.187 85.044 84.899 84.757 84.619 84.459 84.312 84.139 83.984 83.832 83.679 83.539 83.349 83.212 83.062 82.907 82.762 82.592 82.424 82.284 82.117 81.949 81.824 81.672 81.522 81.372 81.217 81.067 80.904 80.744 80.597 80.447 80.279 80.134 79.952 79.814 79.637 79.467 79.289 79.172 79.034 78.869 78.692 78.534 78.352 78.192 77.999 77.804 77.654 77.479 77.294 77.119 76.952 76.779 76.612 76.437 76.259 76.064 75.889 75.724 75.542 75.374 75.244 75.127 74.967 74.822 74.702 74.604 74.497 74.422 74.312 74.252 74.197 74.172 74.109 74.059 73.999 74.007 74.027 74.069 73.859 73.404 72.892 72.479 72.134 71.959 71.849 71.822 71.739 71.677 71.657 71.604 71.599 71.559 71.527 71.472 71.494 71.482 71.457 71.462 71.559 71.782 71.957 72.652 72.554 72.602 72.512 72.489 72.547 72.614 72.642 72.689 72.729 72.787 72.859 72.932 73.019 73.112 73.199 73.277 73.384 73.469 73.552 73.627 73.727 73.807 73.902 73.994 74.092 74.192 74.292 74.384 74.512 74.634 74.762 74.899 75.049 75.159 75.302 75.467 75.612 75.759 75.912 76.069 76.219 76.352 76.502 76.667 76.767 76.909 77.044 77.182 77.317 77.497 77.604 77.752 77.917 78.044 78.227 78.364 78.499 78.634 78.797 78.927 79.079 79.202 79.367 79.492 79.659 79.809 79.974 80.142 80.302 80.474 80.639 80.779 80.947 81.102 81.252 81.419 81.574 81.697 81.839 82.002 82.132 82.299 82.449 82.602 82.759 82.887 83.014 83.157 83.307 83.422 83.564 83.682 83.802 83.937 84.067 84.197 84.347 84.457 84.559 84.677 84.792 84.917 85.014 85.122 85.234 85.359 85.484 85.602 85.724 85.842 85.959 86.109 86.234 86.354 86.467 86.577 86.674 86.812 86.899 86.987 87.084 87.204 87.312 87.462 87.589 87.714 87.867 87.967 88.094 88.182 88.314 88.404 88.524 88.622 88.724 88.829 88.927 89.009 89.109 89.204 89.302 89.422 89.514 89.637 89.782 89.932 90.097 90.227 90.387 90.549 90.694 90.889 91.047 91.219 91.404 91.572 91.749 91.897 92.044 92.194 92.322 92.477 92.612 92.734 92.872 93.007 93.159 93.269 93.409 93.547 93.674 93.804 93.924 94.077 94.187
105.457 105.326 105.172 105.032 104.887 104.734 104.604 104.454 104.284 104.162 104.002 103.854 103.717 103.574 103.424 103.264 103.134 102.967 102.824 102.674 102.527 102.387 102.259 102.107 101.967 101.849 101.694 101.552 101.422 101.272 101.129 100.972 100.844 100.687 100.539 100.394 100.247 100.099 99.959 99.812 99.682 99.544 99.387 99.249 99.114 98.987 98.837 98.689 98.542 98.392 98.232 98.099 97.977 97.827 97.679 97.542 97.397 97.279 97.137 97.037 96.944 96.842 96.727 96.614 96.574 96.497 96.039 95.942 96.014 95.784 95.567 95.382 95.144 94.902 94.642 94.422 94.234 94.069 93.897 93.724 93.592 93.464 93.372 93.259 93.157 93.052 92.949 92.862 92.762 92.637 92.524 92.404 92.287 92.177 92.057 91.939 91.789 91.669 91.552 91.459 91.339 91.239 91.137 91.032 90.937 90.844 90.724 90.609 90.499 90.357 90.229 90.104 90.002 89.884 89.774 89.669 89.579 89.494 89.412 89.309 89.227 89.119 89.007 88.912 88.827 88.742 88.622 88.517 88.452 88.357 88.257 88.164 88.077 88.002 87.892 87.784 87.684 87.582 87.442 87.349 87.222 87.072 86.947 86.829 86.704 86.569 86.432 86.309 86.187 86.029 85.882 85.754 85.599 85.452 85.309 85.147 84.989 84.852 84.704 84.567 84.414 84.262 84.109 83.949 83.777 83.632 83.487 83.322 83.184 83.022 82.852 82.689 82.544 82.367 82.207 82.049 81.874 81.757 81.599 81.437 81.309 81.144 80.984 80.832 80.672 80.519 80.367 80.199 80.029 79.887 79.704 79.529 79.342 79.199 79.047 78.894 78.729 78.562 78.417 78.257 78.089 77.934 77.774 77.612 77.464 77.304 77.129 76.959 76.797 76.619 76.437 76.219 76.024 75.847 75.687 75.512 75.354 75.202 75.039 74.874 74.732 74.644 74.559 74.482 74.407 74.329 74.287 74.262 74.197 74.242 74.099 73.957 74.124 76.042 73.897 72.534 72.219 72.047 71.944 71.899 71.822 71.809 71.694 71.647 71.607 71.524 71.492 71.439 71.407 71.379 71.307 71.322 71.319 71.269 71.362 71.682 72.159 73.372 73.519 72.472 72.374 72.357 72.437 72.517 72.559 72.569 72.644 72.682 72.752 72.827 72.912 73.002 73.077 73.152 73.254 73.339 73.417 73.487 73.627 73.704 73.819 73.912 74.002 74.117 74.199 74.322 74.434 74.572 74.682 74.802 74.939 75.079 75.187 75.349 75.492 75.637 75.782 75.939 76.127 76.234 76.359 76.587 76.737 76.804 76.947 77.072 77.199 77.339 77.517 77.602 77.757 77.934 78.102 78.224 78.387 78.534 78.669 78.824 78.937 79.077 79.229 79.364 79.534 79.682 79.834 79.987 80.147 80.329 80.487 80.647 80.802 80.984 81.129 81.299 81.452 81.612 81.742 81.894 82.037 82.159 82.334 82.534 82.697 82.779 82.922 83.052 83.177 83.314 83.422 83.554 83.687 83.832 83.952 84.094 84.202 84.332 84.457 84.552 84.682 84.804 84.919 85.029 85.107 85.222 85.357 85.474 85.614 85.729 85.859 85.967 86.082 86.217 86.349 86.464 86.592 86.712 86.789 86.879 86.974 87.092 87.199 87.314 87.424 87.559 87.674 87.797 87.904 88.027 88.134 88.267 88.389 88.494 88.584 88.672 88.797 88.892 88.972 89.057 89.152 89.262 89.357 89.469 89.587 89.737 89.874 90.002 90.169 90.334 90.507 90.679 90.867 91.047 91.214 91.394 91.554 91.722 91.879 92.037 92.182 92.322 92.462 92.577 92.727 92.859 92.987 93.119 93.259 93.369 93.502 93.639 93.767 93.904 94.054 94.189
105.481 105.336 105.193 105.067 104.892 104.747 104.587 104.447 104.294 104.162 104.012 103.867 103.739 103.597 103.439 103.289 103.147 102.987 102.839 102.674 102.539 102.392 102.249 102.117 101.974 101.842 101.689 101.552 101.417 101.284 101.142 100.989 100.854 100.699 100.534 100.409 100.249 100.084 99.952 99.809 99.664 99.517 99.392 99.247 99.109 98.967 98.817 98.694 98.519 98.394 98.232 98.089 97.967 97.809 97.677 97.529 97.382 97.257 97.152 97.017 96.944 96.837 96.712 96.622 96.579 96.299 95.977 95.964 96.054 95.692 95.534 95.332 95.122 94.884 94.639 94.412 94.229 94.047 93.877 93.732 93.612 93.474 93.347 93.252 93.179 93.064 92.962 92.867 92.762 92.642 92.492 92.394 92.272 92.159 92.022 91.879 91.779 91.637 91.499 91.377 91.244 91.142 91.039 90.952 90.852 90.759 90.662 90.537 90.424 90.294 90.179 90.047 89.934 89.834 89.719 89.632 89.534 89.449 89.377 89.267 89.172 89.099 88.984 88.869 88.792 88.692 88.582 88.477 88.397 88.307 88.207 88.119 88.029 87.932 87.859 87.754 87.657 87.542 87.412 87.292 87.172 87.042 86.907 86.769 86.639 86.507 86.384 86.244 86.117 85.979 85.824 85.682 85.532 85.392 85.249 85.102 84.949 84.804 84.654 84.519 84.374 84.232 84.074 83.892 83.729 83.579 83.442 83.264 83.109 82.964 82.809 82.634 82.474 82.312 82.137 81.969 81.814 81.674 81.509 81.349 81.192 81.014 80.867 80.714 80.549 80.359 80.217 80.069 79.889 79.737 79.559 79.387 79.212 79.077 78.932 78.804 78.662 78.532 78.382 78.239 78.072 77.922 77.759 77.594 77.449 77.287 77.087 76.939 76.754 76.564 76.389 76.182 76.007 75.827 75.644 75.432 75.257 75.087 74.944 74.817 74.677 74.599 74.522 74.457 74.392 74.382 74.524 74.494 74.352 74.079 73.629 73.184 73.022 72.634 72.164 72.089 72.047 71.982 71.919 71.827 71.722 71.682 71.622 71.537 71.529 71.407 71.319 71.274 71.212 71.179 71.134 71.134 71.114 71.134 71.387 72.392 73.587 73.982 72.762 72.372 72.299 72.332 72.402 72.472 72.484 72.537 72.582 72.632 72.729 72.789 72.874 72.962 73.049 73.127 73.234 73.342 73.422 73.492 73.614 73.709 73.832 73.954 74.052 74.164 74.289 74.349 74.469 74.617 74.727 74.857 74.994 75.102 75.242 75.399 75.527 75.669 75.822 75.972 76.152 76.289 76.427 76.567 76.714 76.862 76.974 77.112 77.234 77.417 77.569 77.664 77.804 77.972 78.112 78.257 78.409 78.564 78.697 78.842 78.984 79.114 79.264 79.399 79.547 79.702 79.849 80.019 80.197 80.357 80.519 80.699 80.862 81.027 81.189 81.344 81.492 81.629 81.774 81.919 82.059 82.234 82.339 82.477 82.649 82.797 82.922 83.039 83.202 83.329 83.449 83.589 83.712 83.827 83.954 84.077 84.219 84.344 84.454 84.584 84.692 84.817 84.922 85.039 85.129 85.257 85.364 85.467 85.584 85.732 85.854 85.967 86.107 86.227 86.352 86.482 86.609 86.719 86.804 86.889 87.002 87.107 87.192 87.292 87.387 87.514 87.644 87.774 87.869 87.997 88.124 88.254 88.357 88.469 88.574 88.667 88.769 88.829 88.919 89.004 89.119 89.209 89.307 89.417 89.529 89.672 89.822 89.977 90.142 90.289 90.454 90.649 90.849 91.027 91.209 91.379 91.549 91.709 91.862 92.014 92.157 92.322 92.424 92.559 92.704 92.834 92.977 93.097 93.224 93.364 93.497 93.639 93.759 93.899 94.027 94.164
105.501 105.351 105.215 105.067 104.918 104.754 104.612 104.472 104.314 104.172 104.027 103.867 103.722 103.584 103.432 103.284 103.127 102.987 102.832 102.677 102.532 102.397 102.257 102.112 101.987 101.847 101.687 101.549 101.424 101.267 101.134 100.987 100.849 100.689 100.534 100.387 100.247 100.079 99.927 99.797 99.654 99.512 99.372 99.247 99.089 98.957 98.812 98.669 98.519 98.374 98.209 98.064 97.937 97.784 97.647 97.497 97.349 97.224 97.142 97.029 96.917 96.799 96.664 96.597 96.547 96.187 95.952 96.007 95.914 95.652 95.522 95.342 95.087 94.872 94.624 94.382 94.207 94.052 93.904 93.757 93.624 93.504 93.374 93.274 93.174 93.062 92.944 92.839 92.734 92.609 92.462 92.344 92.204 92.084 91.957 91.817 91.702 91.544 91.427 91.304 91.169 91.064 90.984 90.874 90.787 90.684 90.584 90.467 90.357 90.234 90.122 89.984 89.874 89.779 89.669 89.579 89.479 89.397 89.304 89.214 89.134 89.039 88.922 88.829 88.737 88.639 88.534 88.459 88.372 88.274 88.169 88.059 87.947 87.872 87.789 87.699 87.579 87.492 87.362 87.259 87.132 86.997 86.877 86.747 86.599 86.447 86.324 86.212 86.052 85.929 85.777 85.622 85.484 85.344 85.197 85.052 84.912 84.739 84.597 84.459 84.304 84.157 83.989 83.834 83.672 83.519 83.367 83.189 83.052 82.864 82.709 82.532 82.362 82.217 82.027 81.859 81.689 81.542 81.387 81.192 81.034 80.877 80.704 80.557 80.419 80.247 80.092 79.952 79.812 79.634 79.502 79.309 79.157 79.032 78.887 78.732 78.604 78.469 78.317 78.187 78.014 77.844 77.699 77.562 77.379 77.204 77.034 76.874 76.704 76.534 76.334 76.157 75.987 75.782 75.582 75.394 75.244 75.079 74.969 74.817 74.702 74.624 74.537 74.654 75.089 75.597 75.189 74.547 73.532 72.899 72.554 72.307 72.217 72.177 72.107 72.069 71.977 71.899 71.784 71.777 71.714 71.732 71.709 71.684 71.627 71.517 71.369 71.087 70.984 70.954 70.914 70.934 70.869 70.974 73.287 74.897 74.217 73.132 72.529 72.314 72.257 72.292 72.324 72.377 72.414 72.484 72.512 72.597 72.669 72.737 72.797 72.927 73.047 73.149 73.222 73.314 73.427 73.532 73.647 73.747 73.867 73.989 74.074 74.187 74.304 74.414 74.532 74.642 74.774 74.887 75.027 75.167 75.279 75.437 75.574 75.724 75.877 76.014 76.199 76.319 76.459 76.609 76.749 76.859 77.009 77.149 77.269 77.422 77.597 77.712 77.869 78.019 78.162 78.294 78.437 78.597 78.714 78.852 78.994 79.127 79.294 79.404 79.567 79.742 79.899 80.057 80.224 80.414 80.564 80.717 80.874 81.047 81.189 81.352 81.489 81.657 81.784 81.944 82.069 82.214 82.394 82.514 82.662 82.779 82.947 83.084 83.207 83.329 83.454 83.567 83.702 83.819 83.934 84.084 84.194 84.337 84.477 84.597 84.679 84.814 84.932 85.027 85.124 85.249 85.379 85.494 85.602 85.704 85.852 85.974 86.104 86.219 86.344 86.482 86.589 86.697 86.782 86.882 86.979 87.067 87.159 87.264 87.374 87.489 87.629 87.754 87.834 87.979 88.104 88.224 88.317 88.424 88.542 88.649 88.724 88.804 88.897 88.994 89.067 89.169 89.272 89.384 89.504 89.642 89.772 89.907 90.089 90.274 90.462 90.652 90.829 91.014 91.184 91.359 91.527 91.669 91.824 91.972 92.127 92.267 92.397 92.529 92.672 92.799 92.947 93.092 93.229 93.347 93.472 93.624 93.722 93.854 94.007 94.142
105.488 105.351 105.197 105.045 104.911 104.764 104.604 104.449 104.309 104.164 104.014 103.872 103.724 103.577 103.424 103.282 103.124 102.984 102.827 102.672 102.537 102.387 102.239 102.097 101.984 101.834 101.702 101.549 101.407 101.262 101.117 100.972 100.819 100.669 100.522 100.362 100.212 100.064 99.924 99.777 99.652 99.494 99.369 99.217 99.084 98.942 98.804 98.654 98.494 98.362 98.207 98.072 97.924 97.764 97.607 97.472 97.327 97.194 97.114 97.012 96.909 96.794 96.654 96.597 96.514 96.057 95.992 96.154 96.052 95.654 95.497 95.312 95.072 94.852 94.607 94.382 94.222 94.062 93.902 93.752 93.624 93.512 93.389 93.267 93.127 92.994 92.887 92.774 92.654 92.522 92.389 92.269 92.144 92.004 91.884 91.769 91.639 91.507 91.374 91.234 91.104 91.004 90.917 90.839 90.732 90.619 90.514 90.419 90.297 90.167 90.044 89.922 89.804 89.714 89.599 89.502 89.407 89.307 89.244 89.169 89.082 88.974 88.887 88.779 88.679 88.604 88.489 88.394 88.292 88.209 88.109 88.004 87.904 87.809 87.719 87.627 87.527 87.412 87.297 87.194 87.062 86.939 86.784 86.674 86.544 86.399 86.257 86.129 86.012 85.874 85.722 85.574 85.417 85.289 85.117 84.979 84.832 84.667 84.549 84.409 84.247 84.102 83.954 83.782 83.619 83.437 83.257 83.112 82.934 82.762 82.584 82.417 82.257 82.082 81.909 81.742 81.572 81.422 81.269 81.104 80.944 80.797 80.642 80.492 80.347 80.187 80.019 79.872 79.714 79.567 79.417 79.244 79.084 78.929 78.792 78.634 78.537 78.384 78.257 78.102 77.942 77.792 77.642 77.464 77.317 77.152 76.979 76.842 76.669 76.517 76.344 76.177 75.969 75.777 75.572 75.404 75.249 75.102 74.972 74.842 74.714 74.619 74.702 75.359 75.349 74.547 74.077 73.177 72.534 72.372 72.274 72.199 72.159 72.114 72.067 71.974 71.924 71.977 71.962 71.922 71.847 71.789 71.707 71.619 71.489 71.427 71.314 71.124 70.847 70.692 70.719 70.684 70.647 71.392 73.707 74.264 74.974 73.532 72.469 72.214 72.217 72.234 72.257 72.304 72.352 72.409 72.469 72.564 72.637 72.722 72.819 72.919 73.022 73.139 73.252 73.342 73.459 73.549 73.654 73.777 73.914 74.032 74.124 74.244 74.374 74.454 74.574 74.664 74.794 74.924 75.059 75.204 75.339 75.482 75.614 75.752 75.907 76.064 76.229 76.367 76.514 76.667 76.797 76.912 77.074 77.204 77.334 77.494 77.624 77.757 77.894 78.039 78.172 78.329 78.459 78.609 78.757 78.912 79.067 79.207 79.377 79.509 79.654 79.809 79.959 80.117 80.259 80.409 80.569 80.732 80.884 81.064 81.229 81.392 81.507 81.674 81.817 81.962 82.094 82.242 82.384 82.537 82.697 82.817 82.929 83.074 83.212 83.339 83.469 83.592 83.724 83.834 83.969 84.114 84.227 84.337 84.472 84.592 84.684 84.814 84.944 85.027 85.129 85.249 85.377 85.497 85.612 85.719 85.849 85.989 86.094 86.219 86.334 86.442 86.557 86.659 86.754 86.874 86.952 87.042 87.144 87.249 87.359 87.454 87.569 87.697 87.807 87.947 88.087 88.194 88.307 88.399 88.507 88.617 88.697 88.759 88.864 88.932 89.032 89.127 89.219 89.337 89.467 89.609 89.747 89.919 90.094 90.249 90.434 90.629 90.804 90.969 91.134 91.309 91.462 91.622 91.789 91.944 92.074 92.242 92.374 92.514 92.647 92.764 92.914 93.044 93.187 93.322 93.432 93.557 93.682 93.807 93.957 94.077
105.493 105.342 105.215 105.07 104.91 104.766 104.607 104.454 104.327 104.169 104.024 103.879 103.717 103.587 103.422 103.269 103.124 102.977 102.819 102.674 102.534 102.392 102.232 102.099 101.962 101.827 101.679 101.539 101.394 101.247 101.119 100.949 100.804 100.657 100.497 100.362 100.202 100.049 99.912 99.757 99.627 99.479 99.334 99.184 99.059 98.919 98.772 98.619 98.477 98.329 98.154 98.009 97.867 97.732 97.589 97.427 97.292 97.184 97.062 96.992 96.874 96.764 96.647 96.577 96.532 96.127 96.027 96.182 95.822 95.649 95.477 95.297 95.089 94.854 94.607 94.394 94.224 94.047 93.857 93.709 93.557 93.424 93.297 93.177 93.039 92.922 92.807 92.682 92.562 92.432 92.314 92.197 92.072 91.949 91.847 91.719 91.577 91.454 91.319 91.174 91.049 90.954 90.869 90.759 90.667 90.552 90.454 90.357 90.234 90.102 89.962 89.832 89.732 89.629 89.529 89.434 89.339 89.242 89.152 89.087 89.007 88.899 88.794 88.719 88.619 88.509 88.417 88.319 88.222 88.147 88.062 87.969 87.834 87.749 87.662 87.554 87.447 87.357 87.229 87.119 86.972 86.847 86.692 86.567 86.444 86.314 86.182 86.047 85.917 85.784 85.644 85.497 85.344 85.217 85.062 84.907 84.764 84.607 84.469 84.309 84.124 83.977 83.832 83.667 83.499 83.334 83.184 83.017 82.862 82.687 82.527 82.347 82.189 82.027 81.834 81.679 81.509 81.362 81.207 81.044 80.859 80.722 80.547 80.399 80.239 80.084 79.934 79.799 79.629 79.477 79.322 79.162 79.004 78.847 78.722 78.594 78.457 78.309 78.172 78.047 77.887 77.754 77.584 77.429 77.287 77.154 77.009 76.857 76.699 76.504 76.304 76.127 75.919 75.737 75.554 75.389 75.242 75.127 74.967 74.857 74.912 74.519 74.917 74.714 73.437 72.814 72.512 72.424 72.364 72.319 72.247 72.189 72.107 72.072 72.107 72.112 72.162 72.187 72.029 71.869 71.789 71.679 71.609 71.452 71.334 71.292 71.332 71.264 70.894 70.509 70.472 70.437 70.422 72.622 77.312 74.727 74.759 73.747 72.712 72.142 72.142 72.162 72.189 72.242 72.287 72.382 72.464 72.534 72.624 72.714 72.837 72.954 73.039 73.157 73.244 73.357 73.469 73.562 73.712 73.832 73.942 74.049 74.164 74.274 74.377 74.494 74.629 74.722 74.859 74.977 75.112 75.252 75.382 75.517 75.657 75.812 75.959 76.109 76.262 76.407 76.582 76.714 76.854 76.987 77.119 77.254 77.407 77.527 77.672 77.802 77.934 78.112 78.229 78.382 78.574 78.699 78.854 79.007 79.152 79.274 79.409 79.542 79.667 79.804 79.954 80.099 80.244 80.429 80.589 80.754 80.919 81.089 81.269 81.407 81.567 81.714 81.854 82.022 82.149 82.304 82.427 82.564 82.712 82.807 82.959 83.087 83.217 83.354 83.479 83.609 83.722 83.839 83.972 84.092 84.229 84.344 84.464 84.604 84.737 84.842 84.932 85.029 85.144 85.259 85.382 85.502 85.589 85.707 85.832 85.937 86.064 86.194 86.307 86.417 86.544 86.644 86.724 86.852 86.949 87.029 87.112 87.222 87.312 87.437 87.552 87.692 87.792 87.909 88.052 88.167 88.269 88.357 88.469 88.564 88.647 88.722 88.814 88.912 88.994 89.102 89.207 89.334 89.432 89.582 89.724 89.877 90.057 90.207 90.392 90.577 90.757 90.927 91.102 91.279 91.429 91.587 91.747 91.897 92.037 92.197 92.332 92.479 92.619 92.747 92.879 93.004 93.114 93.242 93.364 93.514 93.639 93.777 93.902 94.042
105.504 105.353 105.205 105.078 104.935 104.772 104.624 104.484 104.329 104.182 104.019 103.872 103.707 103.564 103.419 103.272 103.114 102.972 102.822 102.669 102.514 102.389 102.257 102.089 101.959 101.817 101.679 101.542 101.389 101.252 101.092 100.944 100.792 100.649 100.494 100.334 100.192 100.027 99.879 99.737 99.594 99.469 99.329 99.184 99.062 98.902 98.764 98.607 98.462 98.307 98.149 97.987 97.837 97.704 97.552 97.389 97.262 97.177 97.059 96.964 96.852 96.707 96.612 96.784 96.604 96.002 96.017 96.022 95.732 95.627 95.454 95.269 95.049 94.804 94.574 94.347 94.177 93.977 93.787 93.629 93.472 93.344 93.232 93.112 92.987 92.882 92.769 92.654 92.514 92.374 92.247 92.124 92.007 91.872 91.754 91.647 91.514 91.374 91.247 91.117 90.979 90.874 90.794 90.692 90.582 90.484 90.377 90.262 90.132 90.027 89.897 89.769 89.664 89.562 89.459 89.364 89.277 89.179 89.102 89.029 88.929 88.849 88.757 88.659 88.537 88.432 88.334 88.227 88.152 88.067 87.974 87.877 87.777 87.679 87.572 87.464 87.362 87.249 87.134 87.029 86.889 86.767 86.634 86.512 86.397 86.252 86.117 85.984 85.864 85.717 85.547 85.397 85.274 85.119 84.979 84.789 84.674 84.514 84.354 84.222 84.059 83.924 83.787 83.612 83.462 83.309 83.164 82.989 82.814 82.664 82.479 82.299 82.132 81.954 81.782 81.614 81.442 81.269 81.114 80.957 80.784 80.629 80.474 80.317 80.154 79.987 79.837 79.707 79.544 79.387 79.244 79.094 78.929 78.787 78.664 78.529 78.399 78.277 78.147 78.012 77.892 77.729 77.607 77.439 77.299 77.119 76.959 76.779 76.604 76.422 76.264 76.072 75.887 75.739 75.579 75.442 75.314 75.127 75.024 74.567 75.802 73.907 73.292 72.779 72.592 72.502 72.432 72.402 72.369 72.257 72.194 72.149 72.222 72.259 72.144 72.007 71.767 71.592 71.437 71.329 71.297 71.239 71.234 71.232 71.257 71.432 71.569 72.144 72.149 70.417 70.222 70.244 70.192 71.242 73.029 71.822 72.669 73.014 72.859 72.029 72.047 72.052 72.097 72.147 72.227 72.309 72.407 72.492 72.587 72.682 72.797 72.897 73.032 73.142 73.254 73.379 73.494 73.599 73.739 73.857 73.967 74.089 74.212 74.299 74.394 74.524 74.649 74.752 74.892 75.009 75.169 75.299 75.429 75.569 75.717 75.847 75.997 76.162 76.367 76.467 76.624 76.787 76.919 77.047 77.169 77.302 77.452 77.589 77.729 77.859 78.004 78.164 78.327 78.454 78.642 78.764 78.904 79.017 79.144 79.277 79.422 79.547 79.684 79.837 79.989 80.142 80.292 80.474 80.619 80.789 80.967 81.152 81.289 81.449 81.594 81.764 81.904 82.054 82.174 82.317 82.454 82.579 82.702 82.844 82.992 83.154 83.252 83.374 83.507 83.624 83.752 83.874 83.989 84.124 84.264 84.397 84.497 84.642 84.739 84.829 84.942 85.052 85.134 85.232 85.344 85.459 85.584 85.702 85.817 85.939 86.047 86.159 86.272 86.399 86.527 86.624 86.729 86.837 86.944 87.029 87.109 87.202 87.319 87.437 87.534 87.659 87.744 87.864 87.984 88.109 88.219 88.322 88.422 88.529 88.647 88.712 88.819 88.897 88.974 89.072 89.174 89.307 89.429 89.532 89.692 89.837 90.004 90.177 90.367 90.532 90.682 90.867 91.069 91.227 91.372 91.547 91.712 91.854 92.004 92.157 92.314 92.404 92.547 92.677 92.789 92.944 93.064 93.182 93.304 93.434 93.567 93.717 93.847 93.977
105.5 105.376 105.221 105.081 104.932 104.781 104.642 104.482 104.332 104.184 104.027 103.877 103.722 103.572 103.437 103.277 103.114 102.979 102.824 102.689 102.527 102.384 102.247 102.089 101.942 101.814 101.664 101.542 101.389 101.242 101.082 100.927 100.787 100.617 100.477 100.309 100.149 100.014 99.869 99.722 99.579 99.442 99.289 99.144 99.037 98.869 98.709 98.572 98.409 98.279 98.134 97.972 97.824 97.674 97.537 97.384 97.254 97.162 97.039 96.927 96.769 96.664 96.597 96.524 96.114 95.982 96.137 95.992 95.694 95.579 95.422 95.197 94.979 94.719 94.489 94.284 94.082 93.924 93.729 93.577 93.437 93.317 93.184 93.072 92.944 92.812 92.684 92.572 92.439 92.312 92.197 92.069 91.939 91.797 91.669 91.557 91.412 91.307 91.169 91.022 90.909 90.819 90.727 90.614 90.512 90.397 90.294 90.194 90.069 89.959 89.834 89.727 89.619 89.517 89.394 89.312 89.227 89.117 89.037 88.964 88.882 88.777 88.697 88.582 88.479 88.382 88.267 88.162 88.074 87.989 87.882 87.769 87.697 87.604 87.472 87.387 87.287 87.162 87.059 86.942 86.822 86.694 86.577 86.432 86.297 86.134 86.017 85.879 85.754 85.609 85.459 85.317 85.187 85.057 84.927 84.804 84.642 84.502 84.349 84.207 84.054 83.904 83.762 83.597 83.427 83.264 83.112 82.932 82.759 82.594 82.407 82.232 82.049 81.877 81.712 81.539 81.347 81.194 81.032 80.854 80.702 80.544 80.389 80.224 80.062 79.902 79.759 79.627 79.454 79.332 79.192 79.062 78.914 78.784 78.632 78.494 78.369 78.227 78.087 77.954 77.802 77.644 77.494 77.334 77.179 77.012 76.877 76.719 76.549 76.382 76.242 76.084 75.922 75.824 75.637 75.504 75.714 75.174 74.374 74.027 73.457 72.932 72.707 72.569 72.547 72.492 72.407 72.337 72.299 72.204 72.089 71.982 71.884 71.664 71.442 71.322 71.262 71.242 71.239 71.207 71.147 71.127 71.117 71.052 71.027 71.097 71.062 71.584 71.989 70.437 69.984 69.979 69.962 72.197 73.092 71.742 72.364 72.724 71.904 71.914 71.934 71.957 72.007 72.077 72.169 72.252 72.367 72.467 72.572 72.664 72.789 72.904 73.014 73.107 73.254 73.362 73.497 73.612 73.744 73.882 73.984 74.097 74.204 74.314 74.434 74.569 74.714 74.829 74.954 75.062 75.199 75.342 75.477 75.617 75.754 75.899 76.057 76.214 76.402 76.529 76.684 76.827 76.982 77.109 77.254 77.384 77.529 77.657 77.817 77.952 78.184 78.212 78.349 78.494 78.649 78.819 78.942 79.044 79.197 79.334 79.444 79.592 79.747 79.884 80.057 80.182 80.344 80.509 80.654 80.849 81.007 81.197 81.349 81.507 81.639 81.784 81.944 82.079 82.197 82.334 82.482 82.602 82.742 82.897 83.037 83.154 83.289 83.422 83.534 83.657 83.849 83.929 84.044 84.167 84.282 84.382 84.504 84.619 84.729 84.824 84.927 85.027 85.127 85.247 85.339 85.462 85.574 85.687 85.777 85.902 86.017 86.142 86.259 86.384 86.494 86.604 86.702 86.832 86.919 87.017 87.114 87.199 87.279 87.399 87.502 87.597 87.707 87.824 87.934 88.079 88.194 88.314 88.432 88.527 88.602 88.709 88.789 88.854 88.959 89.062 89.167 89.292 89.412 89.524 89.674 89.852 89.992 90.177 90.342 90.507 90.689 90.857 91.009 91.182 91.324 91.504 91.667 91.814 91.932 92.072 92.224 92.339 92.504 92.642 92.752 92.889 93.004 93.122 93.239 93.377 93.494 93.622 93.739 93.879
105.512 105.372 105.223 105.094 104.928 104.776 104.633 104.469 104.332 104.174 104.029 103.889 103.719 103.569 103.409 103.262 103.107 102.962 102.819 102.657 102.497 102.357 102.217 102.072 101.929 101.794 101.654 101.504 101.352 101.204 101.049 100.884 100.749 100.592 100.439 100.272 100.112 99.962 99.814 99.689 99.529 99.387 99.239 99.104 98.967 98.842 98.694 98.534 98.377 98.232 98.089 97.932 97.799 97.652 97.507 97.347 97.242 97.112 97.004 96.894 96.772 96.639 96.592 96.519 96.092 96.052 96.202 95.887 95.692 95.547 95.382 95.172 94.929 94.657 94.452 94.247 94.034 93.847 93.674 93.524 93.379 93.242 93.109 92.999 92.879 92.759 92.614 92.482 92.357 92.229 92.104 91.957 91.834 91.707 91.602 91.472 91.357 91.219 91.102 90.972 90.859 90.752 90.664 90.572 90.459 90.339 90.237 90.117 90.007 89.919 89.782 89.669 89.554 89.437 89.319 89.224 89.127 89.027 88.942 88.872 88.777 88.704 88.597 88.497 88.392 88.289 88.164 88.069 87.967 87.887 87.774 87.709 87.624 87.512 87.394 87.307 87.202 87.082 86.957 86.852 86.732 86.617 86.472 86.347 86.199 86.069 85.934 85.837 85.714 85.597 85.459 85.324 85.189 85.032 84.904 84.767 84.614 84.469 84.319 84.159 83.997 83.847 83.694 83.532 83.359 83.187 83.032 82.852 82.679 82.497 82.319 82.132 81.969 81.792 81.614 81.442 81.267 81.109 80.934 80.764 80.614 80.462 80.307 80.164 80.019 79.864 79.717 79.589 79.444 79.284 79.154 78.987 78.837 78.674 78.522 78.387 78.244 78.122 77.982 77.834 77.719 77.572 77.427 77.284 77.122 76.952 76.794 76.634 76.502 76.379 76.267 76.149 75.974 75.862 75.739 75.962 75.434 74.429 73.734 73.059 72.784 72.694 72.692 72.597 72.524 72.437 72.372 72.377 72.329 71.987 71.647 71.504 71.449 71.482 71.294 71.209 71.147 71.112 71.054 70.992 70.927 70.922 70.899 70.844 70.847 70.819 70.804 71.107 71.927 70.252 69.722 69.709 69.707 73.512 71.644 72.174 72.402 71.807 71.794 71.827 71.839 71.862 71.912 71.979 72.109 72.217 72.307 72.419 72.517 72.642 72.767 72.869 72.979 73.097 73.247 73.364 73.489 73.629 73.734 73.844 73.997 74.129 74.249 74.364 74.487 74.607 74.732 74.844 74.967 75.109 75.254 75.389 75.539 75.684 75.817 75.977 76.122 76.287 76.439 76.587 76.752 76.879 77.024 77.159 77.307 77.422 77.577 77.702 77.827 77.969 78.157 78.259 78.424 78.542 78.687 78.832 78.982 79.102 79.239 79.384 79.507 79.657 79.794 79.932 80.092 80.209 80.389 80.562 80.727 80.902 81.049 81.244 81.399 81.554 81.699 81.834 81.967 82.109 82.224 82.374 82.509 82.634 82.792 82.924 83.067 83.192 83.319 83.442 83.572 83.679 83.804 83.912 84.024 84.144 84.259 84.369 84.492 84.597 84.714 84.809 84.909 84.997 85.102 85.219 85.332 85.424 85.524 85.647 85.764 85.897 85.987 86.094 86.232 86.372 86.474 86.592 86.697 86.814 86.887 86.997 87.072 87.119 87.247 87.367 87.462 87.584 87.699 87.842 87.934 88.059 88.189 88.287 88.402 88.489 88.597 88.692 88.774 88.872 88.954 89.057 89.157 89.269 89.389 89.524 89.692 89.834 89.994 90.147 90.302 90.477 90.639 90.814 90.967 91.122 91.264 91.412 91.569 91.734 91.854 92.037 92.179 92.284 92.422 92.554 92.682 92.819 92.927 93.042 93.174 93.269 93.404 93.532 93.677 93.787
105.503 105.348 105.204 105.06 104.906 104.752 104.603 104.467 104.317 104.147 104.014 103.842 103.694 103.542 103.399 103.227 103.082 102.929 102.792 102.637 102.502 102.342 102.212 102.072 101.932 101.779 101.634 101.497 101.339 101.184 101.024 100.864 100.707 100.554 100.404 100.232 100.074 99.927 99.769 99.627 99.507 99.352 99.222 99.074 98.914 98.802 98.659 98.492 98.324 98.189 98.044 97.879 97.742 97.604 97.442 97.304 97.217 97.107 97.002 96.849 96.714 96.622 96.604 96.289 95.967 95.982 96.017 95.749 95.624 95.474 95.297 95.082 94.849 94.589 94.394 94.162 93.972 93.779 93.604 93.439 93.292 93.154 93.029 92.907 92.784 92.652 92.524 92.407 92.274 92.142 92.024 91.904 91.769 91.622 91.507 91.399 91.287 91.137 91.024 90.904 90.779 90.677 90.602 90.497 90.367 90.267 90.149 90.052 89.944 89.834 89.707 89.579 89.467 89.357 89.252 89.144 89.042 88.952 88.854 88.759 88.697 88.587 88.497 88.399 88.269 88.182 88.057 87.962 87.862 87.764 87.692 87.589 87.494 87.392 87.289 87.212 87.099 86.984 86.892 86.792 86.677 86.564 86.434 86.297 86.192 86.064 85.919 85.794 85.682 85.539 85.402 85.259 85.154 84.974 84.849 84.702 84.557 84.407 84.237 84.082 83.944 83.764 83.617 83.462 83.284 83.104 82.954 82.782 82.607 82.427 82.237 82.067 81.927 81.737 81.564 81.384 81.194 81.029 80.854 80.709 80.529 80.389 80.229 80.069 79.917 79.749 79.584 79.439 79.314 79.169 79.022 78.859 78.727 78.582 78.434 78.297 78.159 78.049 77.912 77.777 77.642 77.502 77.339 77.209 77.054 76.902 76.759 76.634 76.542 76.422 76.294 76.212 75.962 75.624 75.207 74.827 73.804 73.177 72.919 72.782 72.724 72.657 72.639 72.554 72.532 72.567 72.409 72.042 71.654 71.514 71.447 71.364 71.259 71.189 71.117 71.042 70.974 70.904 70.849 70.807 70.802 70.809 70.822 70.842 70.829 70.769 70.707 71.422 72.804 71.029 69.492 69.437 69.542 74.814 74.112 72.137 74.109 72.464 71.672 71.719 71.759 71.814 71.882 71.942 72.059 72.154 72.249 72.367 72.464 72.604 72.747 72.862 72.989 73.107 73.217 73.362 73.484 73.637 73.754 73.884 74.029 74.182 74.259 74.389 74.529 74.662 74.774 74.892 75.012 75.162 75.307 75.442 75.597 75.737 75.882 76.007 76.164 76.322 76.474 76.612 76.769 76.922 77.062 77.177 77.362 77.454 77.599 77.747 77.892 78.037 78.157 78.312 78.462 78.602 78.752 78.882 79.059 79.169 79.294 79.427 79.562 79.707 79.852 79.982 80.132 80.282 80.439 80.599 80.777 80.947 81.119 81.289 81.419 81.587 81.732 81.867 82.002 82.157 82.272 82.417 82.564 82.772 82.832 82.967 83.089 83.227 83.342 83.462 83.582 83.694 83.804 83.912 84.019 84.142 84.262 84.377 84.482 84.582 84.687 84.794 84.887 84.977 85.067 85.174 85.314 85.414 85.507 85.627 85.757 85.857 85.967 86.094 86.199 86.324 86.449 86.559 86.649 86.737 86.829 86.942 87.042 87.134 87.237 87.342 87.487 87.592 87.694 87.834 87.937 88.054 88.169 88.277 88.374 88.482 88.582 88.657 88.754 88.849 88.942 89.052 89.149 89.259 89.394 89.512 89.659 89.817 89.954 90.122 90.272 90.419 90.577 90.737 90.864 91.042 91.194 91.362 91.509 91.672 91.784 91.939 92.077 92.212 92.344 92.452 92.574 92.709 92.822 92.934 93.059 93.197 93.307 93.442 93.572 93.684
105.469 105.321 105.183 105.029 104.893 104.733 104.581 104.426 104.284 104.117 103.972 103.819 103.679 103.512 103.367 103.217 103.064 102.902 102.764 102.614 102.457 102.294 102.177 102.014 101.882 101.727 101.604 101.442 101.299 101.147 100.982 100.822 100.667 100.499 100.364 100.189 100.024 99.877 99.724 99.587 99.439 99.302 99.172 99.027 98.877 98.752 98.599 98.449 98.294 98.162 98.002 97.849 97.707 97.552 97.414 97.279 97.169 97.052 96.939 96.784 96.659 96.592 96.477 96.054 95.902 96.022 95.897 95.684 95.574 95.409 95.209 94.989 94.757 94.539 94.319 94.094 93.892 93.707 93.534 93.379 93.232 93.094 92.974 92.849 92.734 92.609 92.482 92.339 92.207 92.064 91.937 91.822 91.692 91.559 91.429 91.312 91.197 91.064 90.922 90.814 90.692 90.587 90.497 90.404 90.302 90.194 90.079 89.984 89.882 89.767 89.627 89.494 89.387 89.272 89.157 89.044 88.932 88.837 88.759 88.662 88.579 88.487 88.389 88.292 88.174 88.077 87.962 87.839 87.759 87.677 87.617 87.514 87.422 87.344 87.249 87.147 87.037 86.954 86.857 86.752 86.629 86.499 86.389 86.262 86.119 85.982 85.849 85.734 85.592 85.467 85.342 85.189 85.057 84.892 84.764 84.604 84.462 84.314 84.149 84.004 83.847 83.689 83.554 83.407 83.234 83.062 82.894 82.719 82.554 82.372 82.174 81.999 81.837 81.642 81.454 81.282 81.082 80.922 80.762 80.599 80.407 80.267 80.102 79.952 79.794 79.637 79.474 79.362 79.232 79.079 78.937 78.812 78.642 78.522 78.384 78.259 78.127 78.019 77.874 77.749 77.622 77.472 77.322 77.187 77.044 76.909 76.779 76.664 76.557 76.484 77.214 75.992 75.374 75.062 74.292 73.532 73.104 72.939 72.864 72.789 72.729 72.639 72.589 72.692 72.574 72.207 71.777 71.564 71.514 71.449 71.352 71.274 71.174 71.064 70.984 70.949 70.869 70.792 70.747 70.734 70.702 70.652 70.704 70.749 70.739 70.692 70.612 71.057 73.629 71.477 69.214 69.147 69.432 71.557 71.219 71.537 71.739 71.582 71.602 71.617 71.664 71.737 71.794 71.889 72.014 72.109 72.212 72.309 72.424 72.562 72.699 72.822 72.967 73.072 73.234 73.357 73.479 73.619 73.769 73.904 74.014 74.167 74.297 74.419 74.552 74.672 74.784 74.897 75.059 75.187 75.327 75.454 75.587 75.744 75.889 76.017 76.172 76.322 76.482 76.622 76.787 76.929 77.079 77.224 77.374 77.504 77.644 77.794 78.022 78.159 78.232 78.399 78.504 78.634 78.794 78.949 79.092 79.234 79.354 79.499 79.632 79.779 79.909 80.037 80.187 80.334 80.504 80.672 80.829 80.987 81.167 81.319 81.464 81.629 81.769 81.912 82.074 82.209 82.344 82.474 82.594 82.739 82.857 82.979 83.087 83.224 83.334 83.539 83.574 83.674 83.822 83.947 84.027 84.134 84.214 84.334 84.454 84.554 84.654 84.767 84.869 84.967 85.067 85.154 85.279 85.387 85.474 85.579 85.687 85.812 85.919 86.047 86.159 86.277 86.379 86.487 86.592 86.702 86.817 86.924 87.017 87.139 87.222 87.347 87.464 87.552 87.687 87.804 87.917 88.032 88.142 88.267 88.364 88.457 88.549 88.629 88.727 88.839 88.932 89.027 89.134 89.254 89.374 89.499 89.634 89.782 89.912 90.069 90.197 90.362 90.517 90.657 90.819 90.949 91.114 91.267 91.412 91.542 91.672 91.827 91.939 92.079 92.214 92.339 92.454 92.599 92.704 92.817 92.957 93.067 93.194 93.294 93.434 93.567
105.453 105.304 105.145 105.009 104.872 104.71 104.545 104.403 104.254 104.099 103.949 103.807 103.654 103.492 103.327 103.184 103.024 102.872 102.717 102.572 102.422 102.267 102.119 101.984 101.837 101.689 101.557 101.404 101.257 101.104 100.937 100.784 100.612 100.449 100.287 100.132 99.974 99.824 99.669 99.522 99.397 99.257 99.114 98.964 98.817 98.682 98.539 98.397 98.227 98.102 97.942 97.792 97.644 97.494 97.347 97.237 97.122 97.009 96.882 96.754 96.644 96.577 96.474 95.997 95.959 96.067 95.802 95.627 95.504 95.377 95.162 94.917 94.704 94.462 94.249 94.027 93.834 93.639 93.472 93.292 93.149 92.997 92.884 92.757 92.634 92.514 92.382 92.252 92.134 92.002 91.832 91.727 91.584 91.459 91.342 91.219 91.092 90.974 90.839 90.717 90.594 90.484 90.387 90.317 90.227 90.107 89.997 89.902 89.797 89.659 89.532 89.397 89.282 89.159 89.022 88.907 88.814 88.702 88.609 88.502 88.439 88.357 88.294 88.212 88.099 88.019 87.902 87.812 87.732 87.624 87.539 87.442 87.352 87.264 87.179 87.082 86.974 86.864 86.769 86.657 86.537 86.424 86.307 86.172 86.037 85.904 85.744 85.619 85.504 85.377 85.242 85.104 84.979 84.839 84.684 84.554 84.402 84.247 84.107 83.959 83.822 83.669 83.524 83.357 83.184 83.019 82.834 82.624 82.437 82.262 82.049 81.864 81.692 81.499 81.309 81.142 80.979 80.797 80.652 80.477 80.299 80.164 80.014 79.849 79.707 79.557 79.429 79.309 79.182 79.014 78.902 78.754 78.612 78.502 78.364 78.232 78.099 77.962 77.834 77.699 77.554 77.402 77.272 77.167 77.037 76.909 76.772 76.654 76.519 77.187 76.714 75.777 74.354 73.594 73.214 73.072 73.014 72.887 72.854 72.779 72.724 72.792 72.784 72.489 71.992 71.694 71.589 71.464 71.359 71.314 71.222 71.144 71.059 70.969 70.874 70.804 70.744 70.652 70.592 70.547 70.534 70.484 70.527 70.559 70.567 70.522 70.454 71.367 71.934 69.462 68.917 68.914 69.282 71.669 71.259 71.567 71.584 71.462 71.479 71.529 71.577 71.659 71.727 71.822 71.919 72.039 72.159 72.287 72.399 72.532 72.654 72.802 72.932 73.067 73.192 73.354 73.499 73.649 73.772 73.914 74.027 74.187 74.309 74.437 74.582 74.692 74.819 74.944 75.052 75.204 75.322 75.469 75.592 75.739 75.899 76.034 76.192 76.342 76.492 76.639 76.804 76.969 77.109 77.244 77.407 77.552 77.697 77.829 77.972 78.122 78.279 78.412 78.552 78.689 78.849 78.982 79.132 79.259 79.417 79.559 79.677 79.834 79.972 80.109 80.264 80.412 80.569 80.709 80.874 81.044 81.232 81.384 81.537 81.687 81.842 81.984 82.117 82.252 82.379 82.512 82.624 82.724 82.839 82.987 83.094 83.227 83.339 83.462 83.572 83.664 83.794 83.887 83.984 84.092 84.227 84.337 84.439 84.542 84.662 84.757 84.872 84.934 85.039 85.117 85.232 85.309 85.409 85.532 85.622 85.752 85.834 85.977 86.082 86.227 86.342 86.477 86.569 86.677 86.787 86.894 86.992 87.082 87.199 87.309 87.409 87.544 87.672 87.772 87.907 88.004 88.109 88.219 88.324 88.427 88.519 88.597 88.702 88.817 88.884 88.999 89.122 89.242 89.349 89.464 89.599 89.742 89.874 90.002 90.137 90.287 90.447 90.572 90.719 90.859 90.982 91.152 91.279 91.407 91.554 91.682 91.814 91.952 92.097 92.199 92.344 92.477 92.582 92.694 92.822 92.947 93.072 93.179 93.319 93.432
105.421 105.281 105.126 104.973 104.83 104.673 104.513 104.378 104.219 104.064 103.924 103.769 103.624 103.447 103.312 103.152 103.002 102.844 102.702 102.557 102.402 102.242 102.102 101.957 101.812 101.672 101.512 101.374 101.204 101.054 100.894 100.734 100.564 100.397 100.249 100.064 99.912 99.752 99.612 99.469 99.334 99.207 99.067 98.914 98.757 98.624 98.484 98.329 98.179 98.039 97.892 97.717 97.584 97.412 97.267 97.192 97.082 96.977 96.829 96.684 96.614 96.517 96.169 95.859 95.857 95.932 95.657 95.552 95.427 95.294 95.092 94.877 94.622 94.377 94.144 93.942 93.724 93.527 93.354 93.169 93.049 92.909 92.777 92.657 92.534 92.419 92.292 92.167 92.037 91.899 91.757 91.629 91.474 91.347 91.214 91.117 90.977 90.872 90.737 90.599 90.474 90.374 90.267 90.194 90.104 89.997 89.894 89.779 89.662 89.527 89.412 89.267 89.154 89.042 88.927 88.802 88.694 88.592 88.512 88.409 88.359 88.272 88.209 88.119 88.019 87.917 87.817 87.714 87.632 87.527 87.447 87.344 87.262 87.152 87.084 86.977 86.872 86.762 86.657 86.532 86.439 86.327 86.204 86.059 85.947 85.814 85.664 85.554 85.452 85.322 85.182 85.062 84.919 84.767 84.624 84.482 84.334 84.167 84.027 83.859 83.719 83.554 83.384 83.219 83.047 82.897 82.699 82.509 82.332 82.149 81.952 81.772 81.594 81.404 81.229 81.049 80.884 80.704 80.552 80.384 80.219 80.079 79.924 79.784 79.642 79.504 79.377 79.257 79.122 78.972 78.859 78.742 78.584 78.464 78.327 78.179 78.042 77.889 77.764 77.622 77.507 77.402 77.274 77.177 77.067 77.237 78.044 77.142 76.489 76.759 76.207 74.569 73.519 73.244 73.154 73.072 73.012 72.947 72.924 72.977 72.924 72.674 72.159 71.754 71.664 71.577 71.442 71.297 71.247 71.164 71.082 70.987 70.912 70.849 70.734 70.667 70.589 70.487 70.399 70.352 70.292 70.262 70.322 70.352 70.342 70.299 70.269 71.474 71.652 69.164 68.662 68.654 69.237 71.647 72.897 71.617 71.372 71.359 71.377 71.424 71.484 71.589 71.649 71.754 71.854 71.977 72.119 72.242 72.359 72.502 72.647 72.789 72.929 73.084 73.219 73.347 73.489 73.627 73.767 73.892 74.059 74.194 74.317 74.432 74.554 74.672 74.797 74.932 75.042 75.182 75.327 75.487 75.597 75.742 75.892 76.039 76.187 76.334 76.489 76.654 76.817 76.984 77.134 77.299 77.439 77.579 77.732 77.872 78.014 78.144 78.292 78.444 78.574 78.732 78.894 79.042 79.182 79.342 79.469 79.607 79.757 79.902 80.049 80.182 80.329 80.487 80.667 80.824 80.982 81.122 81.287 81.439 81.577 81.744 81.879 82.029 82.157 82.279 82.399 82.517 82.634 82.737 82.849 82.979 83.099 83.229 83.332 83.442 83.567 83.662 83.769 83.877 84.007 84.094 84.197 84.334 84.437 84.527 84.637 84.714 84.802 84.884 84.974 85.067 85.179 85.264 85.377 85.479 85.587 85.707 85.794 85.947 86.057 86.189 86.307 86.429 86.539 86.639 86.734 86.847 86.939 87.054 87.154 87.294 87.399 87.504 87.617 87.727 87.857 87.969 88.089 88.182 88.292 88.409 88.497 88.582 88.682 88.757 88.854 88.954 89.089 89.199 89.304 89.432 89.559 89.699 89.829 89.949 90.074 90.194 90.349 90.472 90.589 90.732 90.844 90.992 91.152 91.282 91.427 91.562 91.697 91.834 91.954 92.069 92.189 92.317 92.447 92.562 92.687 92.807 92.939 93.067 93.182 93.314
105.418 105.251 105.096 104.941 104.798 104.643 104.499 104.334 104.19 104.042 103.887 103.727 103.572 103.419 103.257 103.107 102.949 102.807 102.664 102.519 102.339 102.192 102.059 101.917 101.769 101.614 101.469 101.324 101.174 101.002 100.827 100.667 100.497 100.334 100.172 100.014 99.882 99.707 99.562 99.414 99.262 99.134 98.992 98.864 98.707 98.552 98.412 98.282 98.124 97.969 97.819 97.657 97.514 97.374 97.224 97.144 97.014 96.902 96.762 96.637 96.569 96.372 95.899 95.817 95.874 95.717 95.554 95.457 95.357 95.242 95.029 94.787 94.544 94.332 94.087 93.857 93.642 93.447 93.257 93.109 92.949 92.802 92.669 92.549 92.447 92.304 92.187 92.069 91.929 91.799 91.654 91.502 91.367 91.239 91.119 90.987 90.852 90.714 90.589 90.474 90.332 90.254 90.154 90.054 89.994 89.892 89.789 89.677 89.599 89.487 89.354 89.227 89.104 88.987 88.872 88.747 88.642 88.549 88.444 88.362 88.289 88.189 88.107 88.022 87.927 87.844 87.734 87.632 87.507 87.409 87.339 87.249 87.154 87.052 86.964 86.887 86.782 86.674 86.584 86.472 86.369 86.284 86.154 86.037 85.914 85.779 85.627 85.499 85.352 85.212 85.077 84.927 84.804 84.667 84.512 84.357 84.214 84.067 83.904 83.749 83.582 83.424 83.272 83.132 82.959 82.787 82.614 82.442 82.242 82.054 81.864 81.677 81.504 81.329 81.139 80.957 80.782 80.637 80.469 80.309 80.129 80.017 79.879 79.734 79.609 79.477 79.347 79.207 79.087 78.927 78.827 78.697 78.562 78.412 78.272 78.102 77.957 77.859 77.724 77.599 77.502 77.407 77.327 77.174 77.082 77.204 77.674 77.522 76.562 75.722 73.974 73.359 73.259 73.202 73.169 73.092 73.059 73.099 73.117 72.899 72.404 71.904 71.727 71.644 71.489 71.404 71.314 71.237 71.147 71.044 70.957 70.877 70.764 70.667 70.554 70.502 70.389 70.307 70.224 70.144 70.099 70.067 70.099 70.109 70.082 70.072 70.049 70.699 71.064 68.924 68.442 68.437 69.452 70.904 72.794 73.132 71.264 71.244 71.282 71.319 71.392 71.487 71.567 71.672 71.792 71.934 72.052 72.202 72.339 72.489 72.632 72.757 72.924 73.059 73.197 73.337 73.477 73.612 73.762 73.884 74.017 74.137 74.284 74.407 74.544 74.647 74.777 74.929 75.044 75.162 75.317 75.454 75.612 75.752 75.917 76.054 76.214 76.369 76.539 76.689 76.877 77.017 77.172 77.337 77.474 77.607 77.759 77.899 78.034 78.187 78.342 78.479 78.619 78.774 78.932 79.077 79.242 79.384 79.537 79.689 79.844 79.984 80.132 80.282 80.497 80.579 80.734 80.869 81.029 81.184 81.354 81.499 81.634 81.789 81.907 82.057 82.189 82.294 82.412 82.539 82.629 82.754 82.872 82.982 83.112 83.217 83.332 83.452 83.562 83.667 83.772 83.874 83.979 84.097 84.182 84.289 84.389 84.487 84.562 84.674 84.757 84.837 84.922 85.009 85.122 85.234 85.334 85.437 85.534 85.659 85.784 85.874 85.989 86.122 86.254 86.384 86.482 86.619 86.717 86.832 86.919 87.004 87.112 87.242 87.339 87.459 87.569 87.699 87.809 87.944 88.047 88.154 88.257 88.374 88.464 88.547 88.622 88.722 88.817 88.914 89.032 89.149 89.277 89.384 89.502 89.604 89.732 89.864 89.987 90.112 90.252 90.369 90.487 90.622 90.754 90.889 91.017 91.159 91.284 91.404 91.529 91.667 91.809 91.919 92.047 92.182 92.294 92.414 92.554 92.664 92.779 92.909 93.014 93.147
105.369 105.216 105.06 104.886 104.75 104.601 104.454 104.282 104.133 103.997 103.837 103.682 103.512 103.359 103.219 103.059 102.912 102.767 102.619 102.449 102.299 102.149 102.002 101.862 101.719 101.559 101.414 101.257 101.107 100.934 100.757 100.602 100.427 100.257 100.092 99.947 99.794 99.652 99.502 99.369 99.209 99.079 98.934 98.794 98.647 98.502 98.359 98.202 98.024 97.894 97.747 97.587 97.444 97.287 97.197 97.087 96.974 96.854 96.707 96.592 96.492 96.344 95.839 95.779 95.952 95.652 95.462 95.369 95.267 95.117 94.912 94.707 94.487 94.259 94.022 93.782 93.564 93.372 93.172 93.002 92.857 92.704 92.567 92.432 92.324 92.172 92.044 91.907 91.767 91.634 91.509 91.389 91.257 91.117 90.992 90.879 90.752 90.662 90.519 90.367 90.262 90.202 90.112 90.022 89.934 89.844 89.757 89.647 89.552 89.432 89.307 89.167 89.027 88.884 88.772 88.664 88.557 88.454 88.344 88.262 88.177 88.089 88.002 87.919 87.847 87.734 87.612 87.519 87.414 87.307 87.217 87.139 87.052 86.969 86.884 86.804 86.699 86.607 86.492 86.372 86.269 86.169 86.032 85.899 85.772 85.649 85.494 85.367 85.227 85.079 84.954 84.817 84.654 84.524 84.382 84.237 84.092 83.954 83.799 83.632 83.484 83.339 83.192 83.024 82.854 82.682 82.507 82.329 82.137 81.937 81.752 81.557 81.397 81.224 81.044 80.862 80.712 80.542 80.392 80.242 80.084 79.939 79.812 79.682 79.562 79.407 79.284 79.162 79.032 78.874 78.744 78.634 78.464 78.322 78.152 77.982 77.874 77.807 77.724 77.609 77.484 78.317 77.559 76.394 76.637 77.399 76.432 76.547 75.369 73.799 73.387 73.337 73.264 73.224 73.182 73.207 73.199 73.084 72.752 72.169 71.804 71.682 71.604 71.459 71.392 71.319 71.189 71.099 71.004 70.922 70.819 70.699 70.609 70.504 70.399 70.322 70.214 70.122 70.047 69.957 69.904 69.872 69.887 69.859 69.854 69.859 70.424 71.577 71.054 68.589 68.192 68.192 69.314 71.137 73.462 71.292 71.147 71.099 71.164 71.217 71.297 71.387 71.487 71.599 71.739 71.862 72.014 72.142 72.284 72.427 72.572 72.709 72.869 73.012 73.164 73.284 73.427 73.567 73.697 73.852 73.992 74.114 74.259 74.392 74.507 74.622 74.759 74.902 75.027 75.159 75.319 75.449 75.602 75.762 75.887 76.044 76.199 76.372 76.542 76.692 76.872 77.052 77.179 77.347 77.494 77.632 77.772 77.924 78.069 78.222 78.382 78.502 78.679 78.829 78.972 79.127 79.314 79.454 79.614 79.754 79.919 80.067 80.192 80.322 80.489 80.639 80.814 80.964 81.109 81.252 81.387 81.519 81.659 81.817 81.944 82.079 82.209 82.309 82.427 82.557 82.644 82.782 82.912 82.999 83.112 83.229 83.347 83.447 83.557 83.644 83.757 83.857 83.944 84.052 84.134 84.234 84.319 84.399 84.507 84.617 84.709 84.797 84.894 84.979 85.067 85.187 85.294 85.387 85.494 85.597 85.717 85.827 85.947 86.067 86.197 86.334 86.417 86.529 86.644 86.752 86.842 86.947 87.072 87.192 87.314 87.439 87.547 87.654 87.787 87.897 87.994 88.107 88.212 88.332 88.414 88.489 88.582 88.684 88.787 88.874 88.987 89.102 89.187 89.317 89.414 89.532 89.669 89.762 89.887 90.037 90.154 90.279 90.387 90.507 90.622 90.757 90.874 91.004 91.152 91.279 91.397 91.529 91.647 91.789 91.919 92.054 92.162 92.264 92.402 92.512 92.637 92.764 92.872 93.009
105.329 105.155 105.005 104.852 104.705 104.554 104.4 104.237 104.095 103.953 103.799 103.647 103.489 103.334 103.187 103.032 102.894 102.739 102.594 102.412 102.264 102.112 101.964 101.829 101.662 101.514 101.372 101.212 101.042 100.887 100.719 100.542 100.367 100.202 100.022 99.879 99.727 99.559 99.427 99.302 99.144 99.024 98.859 98.704 98.574 98.439 98.287 98.132 97.982 97.824 97.684 97.529 97.379 97.234 97.142 97.034 96.914 96.799 96.627 96.539 96.442 95.967 95.739 95.787 95.949 95.474 95.362 95.274 95.169 94.979 94.807 94.602 94.379 94.159 93.919 93.662 93.434 93.249 93.042 92.879 92.717 92.567 92.442 92.319 92.204 92.062 91.924 91.792 91.664 91.542 91.424 91.309 91.167 91.062 90.942 90.824 90.692 90.559 90.434 90.327 90.212 90.129 90.022 89.927 89.857 89.777 89.679 89.564 89.457 89.352 89.232 89.087 88.932 88.824 88.707 88.604 88.474 88.352 88.257 88.164 88.064 88.002 87.912 87.812 87.732 87.619 87.519 87.432 87.327 87.237 87.137 87.052 86.969 86.869 86.784 86.679 86.582 86.452 86.334 86.204 86.102 86.012 85.877 85.737 85.607 85.512 85.364 85.229 85.109 84.962 84.819 84.689 84.544 84.419 84.284 84.139 83.997 83.859 83.687 83.532 83.377 83.229 83.087 82.917 82.742 82.572 82.409 82.229 82.057 81.867 81.682 81.479 81.314 81.134 80.957 80.774 80.634 80.459 80.312 80.167 80.004 79.867 79.749 79.612 79.484 79.327 79.192 79.087 78.937 78.794 78.644 78.514 78.337 78.174 78.032 77.919 77.869 77.802 77.667 78.307 79.102 76.907 76.359 75.809 76.507 76.159 75.327 74.077 73.549 73.432 73.372 73.314 73.262 73.284 73.347 73.304 73.032 72.569 72.049 71.809 71.692 71.524 71.457 71.352 71.277 71.204 71.082 70.977 70.872 70.774 70.664 70.552 70.452 70.339 70.214 70.134 70.017 69.914 69.812 69.749 69.664 69.629 69.669 69.664 69.632 69.609 70.102 71.847 70.412 68.207 67.942 67.932 73.499 72.614 71.114 72.079 71.007 70.962 71.037 71.102 71.209 71.314 71.409 71.522 71.672 71.789 71.897 72.064 72.214 72.374 72.507 72.662 72.787 72.922 73.082 73.234 73.397 73.534 73.667 73.782 73.952 74.084 74.232 74.344 74.494 74.594 74.709 74.864 74.997 75.149 75.299 75.457 75.587 75.747 75.904 76.059 76.217 76.369 76.532 76.754 76.932 77.047 77.209 77.369 77.512 77.652 77.807 77.982 78.124 78.274 78.412 78.579 78.729 78.884 79.052 79.197 79.372 79.537 79.692 79.819 79.974 80.107 80.234 80.417 80.524 80.692 80.847 81.007 81.144 81.277 81.429 81.574 81.722 81.844 81.964 82.117 82.219 82.332 82.467 82.584 82.667 82.804 82.912 83.019 83.124 83.207 83.314 83.424 83.537 83.602 83.712 83.809 83.889 83.997 84.094 84.189 84.289 84.402 84.504 84.602 84.694 84.747 84.837 84.932 85.019 85.124 85.219 85.314 85.439 85.532 85.669 85.752 85.882 86.004 86.134 86.254 86.344 86.487 86.589 86.704 86.799 86.917 87.039 87.162 87.257 87.369 87.487 87.602 87.729 87.829 87.942 88.069 88.159 88.282 88.367 88.454 88.554 88.622 88.707 88.794 88.902 89.027 89.107 89.234 89.342 89.452 89.587 89.682 89.804 89.922 90.052 90.152 90.282 90.394 90.502 90.634 90.752 90.879 91.014 91.139 91.279 91.417 91.517 91.649 91.772 91.902 92.019 92.137 92.252 92.377 92.512 92.634 92.739 92.874
105.281 105.119 104.961 104.798 104.642 104.488 104.331 104.181 104.038 103.886 103.732 103.584 103.422 103.272 103.117 102.962 102.822 102.657 102.519 102.354 102.207 102.052 101.899 101.754 101.582 101.437 101.299 101.124 100.967 100.797 100.644 100.464 100.297 100.139 99.949 99.792 99.644 99.492 99.332 99.212 99.064 98.914 98.784 98.637 98.482 98.347 98.209 98.047 97.897 97.724 97.597 97.437 97.294 97.154 97.079 96.982 96.854 96.717 96.584 96.489 96.289 95.687 95.652 95.729 95.512 95.314 95.239 95.157 95.034 94.844 94.652 94.464 94.252 94.037 93.809 93.564 93.332 93.112 92.917 92.764 92.617 92.472 92.339 92.239 92.122 91.994 91.844 91.717 91.612 91.482 91.369 91.257 91.127 90.977 90.834 90.739 90.617 90.474 90.354 90.242 90.124 90.022 89.904 89.824 89.747 89.689 89.604 89.469 89.382 89.277 89.142 89.009 88.877 88.742 88.627 88.504 88.389 88.269 88.174 88.087 87.977 87.907 87.799 87.714 87.619 87.502 87.412 87.304 87.187 87.094 86.977 86.892 86.797 86.692 86.607 86.527 86.427 86.329 86.202 86.079 85.977 85.867 85.734 85.622 85.519 85.394 85.244 85.099 84.977 84.859 84.734 84.567 84.452 84.309 84.177 84.029 83.892 83.754 83.582 83.412 83.277 83.114 82.962 82.804 82.627 82.454 82.309 82.114 81.954 81.779 81.599 81.392 81.217 81.029 80.879 80.707 80.522 80.384 80.232 80.092 79.912 79.789 79.672 79.534 79.377 79.237 79.087 78.967 78.817 78.677 78.519 78.362 78.209 78.067 77.964 77.927 77.807 77.709 77.974 78.779 78.117 76.314 75.432 75.327 74.959 74.659 73.707 73.572 73.497 73.449 73.389 73.359 73.449 73.417 73.212 72.844 72.287 71.907 71.792 71.669 71.542 71.452 71.357 71.247 71.182 71.054 70.957 70.844 70.717 70.612 70.497 70.392 70.309 70.164 70.032 69.929 69.814 69.709 69.624 69.524 69.444 69.404 69.417 69.439 69.412 69.342 70.084 71.017 69.882 67.852 67.717 71.842 74.894 75.594 72.109 70.839 70.819 70.842 70.902 70.992 71.099 71.194 71.317 71.422 71.554 71.687 71.849 71.977 72.139 72.267 72.407 72.559 72.734 72.884 73.022 73.199 73.327 73.474 73.614 73.759 73.929 74.057 74.199 74.312 74.442 74.564 74.702 74.837 74.989 75.139 75.292 75.452 75.614 75.737 75.902 76.059 76.234 76.399 76.559 76.734 76.904 77.074 77.252 77.407 77.544 77.689 77.842 77.997 78.167 78.312 78.474 78.627 78.794 78.969 79.119 79.274 79.419 79.564 79.717 79.872 80.029 80.187 80.294 80.429 80.544 80.734 80.887 81.049 81.199 81.329 81.489 81.624 81.777 81.897 82.024 82.174 82.259 82.354 82.472 82.574 82.692 82.784 82.929 83.024 83.104 83.212 83.314 83.394 83.499 83.597 83.684 83.802 83.894 83.994 84.089 84.199 84.274 84.384 84.457 84.554 84.627 84.697 84.787 84.882 84.964 85.079 85.162 85.247 85.369 85.474 85.574 85.699 85.822 85.944 86.074 86.192 86.307 86.429 86.557 86.647 86.749 86.857 86.957 87.077 87.207 87.312 87.419 87.542 87.652 87.779 87.894 88.012 88.104 88.199 88.282 88.382 88.469 88.542 88.617 88.732 88.839 88.929 89.037 89.134 89.247 89.362 89.489 89.599 89.709 89.824 89.949 90.104 90.179 90.289 90.402 90.532 90.654 90.777 90.887 90.994 91.132 91.264 91.394 91.514 91.627 91.784 91.909 92.009 92.139 92.252 92.389 92.517 92.639 92.764
105.23 105.064 104.909 104.734 104.585 104.419 104.275 104.118 103.964 103.814 103.666 103.502 103.357 103.212 103.054 102.907 102.752 102.607 102.449 102.284 102.147 101.984 101.832 101.682 101.534 101.367 101.234 101.059 100.902 100.727 100.549 100.389 100.209 100.057 99.882 99.722 99.572 99.444 99.264 99.134 98.992 98.844 98.712 98.562 98.417 98.277 98.117 97.997 97.807 97.644 97.507 97.362 97.219 97.094 97.012 96.909 96.777 96.624 96.512 96.442 96.067 95.674 95.634 95.709 95.389 95.219 95.122 95.039 94.894 94.709 94.502 94.314 94.127 93.929 93.707 93.487 93.249 93.044 92.852 92.694 92.544 92.412 92.269 92.149 92.029 91.932 91.779 91.664 91.539 91.394 91.262 91.149 91.027 90.882 90.762 90.627 90.487 90.369 90.249 90.144 90.019 89.909 89.819 89.744 89.669 89.589 89.492 89.397 89.297 89.212 89.074 88.934 88.792 88.654 88.514 88.392 88.274 88.157 88.054 87.954 87.839 87.759 87.674 87.577 87.457 87.367 87.284 87.137 87.039 86.934 86.842 86.739 86.657 86.554 86.452 86.367 86.267 86.169 86.049 85.962 85.862 85.739 85.624 85.497 85.384 85.279 85.134 84.979 84.842 84.724 84.579 84.449 84.339 84.207 84.082 83.924 83.792 83.657 83.477 83.332 83.179 83.024 82.872 82.702 82.544 82.372 82.197 82.027 81.862 81.677 81.484 81.309 81.124 80.959 80.794 80.612 80.457 80.309 80.144 79.994 79.839 79.699 79.569 79.422 79.289 79.139 78.977 78.852 78.677 78.522 78.349 78.184 78.047 77.974 77.904 77.787 77.744 78.852 77.837 78.002 76.589 76.362 75.884 74.307 73.854 73.682 73.637 73.569 73.489 73.452 73.489 73.522 73.369 72.974 72.474 72.039 71.837 71.757 71.634 71.552 71.412 71.302 71.209 71.109 71.032 70.932 70.802 70.694 70.557 70.464 70.334 70.242 70.114 69.982 69.834 69.717 69.614 69.487 69.382 69.292 69.224 69.202 69.194 69.204 69.189 69.099 69.647 71.072 69.167 67.504 67.502 70.757 74.762 75.074 72.139 70.769 70.694 70.697 70.792 70.874 70.989 71.092 71.192 71.329 71.492 71.612 71.762 71.907 72.079 72.242 72.382 72.542 72.689 72.847 72.979 73.109 73.257 73.437 73.579 73.737 73.869 73.989 74.124 74.267 74.399 74.547 74.684 74.829 74.964 75.119 75.269 75.419 75.582 75.739 75.882 76.052 76.209 76.392 76.549 76.722 76.904 77.069 77.239 77.422 77.582 77.717 77.884 78.029 78.199 78.374 78.562 78.697 78.892 79.044 79.179 79.309 79.467 79.607 79.737 79.894 80.042 80.172 80.322 80.444 80.614 80.792 80.927 81.077 81.214 81.382 81.574 81.684 81.802 81.932 82.047 82.159 82.237 82.369 82.492 82.599 82.702 82.804 82.899 83.002 83.102 83.209 83.297 83.412 83.497 83.594 83.694 83.802 83.889 83.989 84.054 84.162 84.249 84.344 84.432 84.517 84.589 84.659 84.739 84.809 84.902 84.997 85.087 85.177 85.284 85.402 85.514 85.622 85.752 85.884 86.007 86.137 86.242 86.352 86.472 86.559 86.679 86.772 86.907 87.034 87.144 87.244 87.369 87.497 87.609 87.689 87.819 87.919 88.002 88.104 88.207 88.307 88.389 88.469 88.547 88.634 88.727 88.822 88.932 89.054 89.167 89.282 89.379 89.519 89.627 89.734 89.872 89.992 90.074 90.187 90.307 90.414 90.517 90.647 90.767 90.904 91.014 91.152 91.272 91.404 91.529 91.664 91.792 91.909 92.029 92.157 92.277 92.412 92.532 92.662
105.175 105.004 104.844 104.676 104.525 104.369 104.2 104.055 103.89 103.745 103.592 103.427 103.284 103.144 102.992 102.832 102.702 102.542 102.387 102.224 102.074 101.917 101.744 101.594 101.437 101.287 101.139 100.967 100.807 100.649 100.479 100.292 100.122 99.964 99.802 99.619 99.457 99.327 99.167 99.027 98.882 98.754 98.619 98.479 98.344 98.187 98.044 97.892 97.742 97.564 97.409 97.254 97.139 97.039 96.932 96.812 96.664 96.537 96.459 96.217 95.664 95.577 95.557 95.507 95.222 95.102 95.027 94.932 94.764 94.602 94.432 94.244 94.082 93.877 93.652 93.412 93.182 92.962 92.762 92.582 92.437 92.302 92.164 92.042 91.917 91.814 91.664 91.544 91.417 91.302 91.174 91.042 90.912 90.797 90.672 90.549 90.424 90.307 90.199 90.079 89.962 89.822 89.727 89.637 89.559 89.477 89.394 89.294 89.177 89.072 88.942 88.807 88.667 88.522 88.372 88.219 88.107 88.014 87.912 87.802 87.692 87.602 87.527 87.449 87.342 87.227 87.129 86.989 86.879 86.787 86.689 86.587 86.502 86.417 86.317 86.209 86.137 86.029 85.914 85.824 85.697 85.609 85.499 85.374 85.257 85.134 84.999 84.857 84.717 84.607 84.484 84.357 84.229 84.089 83.957 83.817 83.687 83.529 83.402 83.209 83.077 82.927 82.769 82.624 82.479 82.277 82.104 81.939 81.769 81.589 81.402 81.229 81.042 80.867 80.707 80.527 80.357 80.202 80.027 79.884 79.732 79.582 79.452 79.304 79.142 78.997 78.807 78.652 78.504 78.354 78.162 78.017 77.954 77.877 77.762 77.967 78.227 77.814 76.934 76.102 76.314 75.507 74.312 73.807 73.714 73.659 73.609 73.534 73.559 73.609 73.534 73.229 72.717 72.172 71.952 71.854 71.747 71.624 71.527 71.404 71.307 71.197 71.112 71.002 70.894 70.789 70.662 70.557 70.437 70.307 70.172 70.047 69.917 69.789 69.632 69.492 69.379 69.227 69.159 69.069 68.984 68.972 68.964 68.937 68.944 68.847 69.952 71.119 70.574 67.277 67.234 69.334 71.222 74.019 75.727 72.439 70.544 70.577 70.639 70.752 70.897 70.992 71.099 71.232 71.369 71.522 71.702 71.859 72.012 72.169 72.299 72.472 72.617 72.774 72.917 73.082 73.207 73.372 73.502 73.654 73.782 73.934 74.074 74.234 74.354 74.504 74.647 74.792 74.912 75.089 75.259 75.412 75.554 75.709 75.857 76.019 76.204 76.369 76.559 76.727 76.934 77.114 77.264 77.457 77.614 77.752 77.922 78.087 78.237 78.397 78.537 78.697 78.874 79.019 79.169 79.309 79.487 79.632 79.787 79.919 80.074 80.217 80.339 80.494 80.657 80.834 80.972 81.149 81.264 81.422 81.557 81.692 81.819 81.912 82.044 82.179 82.282 82.379 82.494 82.592 82.682 82.809 82.904 83.014 83.077 83.202 83.314 83.397 83.487 83.597 83.677 83.784 83.864 83.932 84.039 84.137 84.212 84.297 84.372 84.444 84.552 84.607 84.689 84.762 84.837 84.924 85.024 85.132 85.229 85.352 85.462 85.552 85.674 85.812 85.944 86.064 86.184 86.284 86.419 86.509 86.612 86.727 86.849 86.949 87.059 87.159 87.279 87.397 87.494 87.594 87.727 87.842 87.939 88.042 88.137 88.234 88.314 88.374 88.457 88.559 88.639 88.724 88.842 88.944 89.049 89.172 89.272 89.404 89.534 89.622 89.734 89.862 89.972 90.092 90.199 90.302 90.434 90.539 90.674 90.807 90.914 91.034 91.167 91.302 91.432 91.559 91.674 91.792 91.942 92.062 92.184 92.309 92.429 92.552
105.083 104.924 104.757 104.595 104.433 104.288 104.119 103.968 103.803 103.658 103.521 103.367 103.217 103.067 102.922 102.782 102.607 102.459 102.304 102.149 101.997 101.832 101.679 101.519 101.374 101.194 101.059 100.894 100.742 100.542 100.384 100.222 100.029 99.864 99.699 99.529 99.372 99.219 99.077 98.934 98.767 98.649 98.512 98.369 98.222 98.064 97.927 97.767 97.604 97.462 97.307 97.174 97.072 96.939 96.872 96.729 96.562 96.472 96.404 96.074 95.522 95.454 95.497 95.277 95.089 95.014 94.922 94.797 94.642 94.469 94.312 94.152 93.997 93.787 93.557 93.319 93.097 92.877 92.674 92.507 92.347 92.212 92.067 91.934 91.807 91.712 91.587 91.457 91.327 91.192 91.089 90.977 90.837 90.707 90.587 90.467 90.334 90.222 90.097 89.967 89.842 89.707 89.589 89.477 89.399 89.324 89.237 89.139 89.027 88.927 88.799 88.669 88.529 88.374 88.219 88.094 87.979 87.882 87.772 87.667 87.559 87.482 87.399 87.284 87.182 87.064 86.972 86.832 86.729 86.634 86.524 86.429 86.362 86.257 86.162 86.069 85.972 85.884 85.774 85.684 85.579 85.474 85.362 85.244 85.139 85.004 84.889 84.754 84.609 84.477 84.367 84.234 84.102 83.972 83.842 83.719 83.579 83.434 83.287 83.129 82.947 82.829 82.677 82.527 82.367 82.189 82.022 81.844 81.677 81.499 81.322 81.142 80.952 80.792 80.607 80.427 80.262 80.079 79.909 79.769 79.594 79.452 79.314 79.162 78.997 78.832 78.644 78.467 78.297 78.119 77.984 77.924 77.847 77.809 77.842 78.027 78.047 77.202 76.529 76.069 74.822 74.024 73.854 73.787 73.762 73.662 73.619 73.702 73.704 73.447 72.984 72.399 72.109 71.972 71.854 71.754 71.649 71.509 71.402 71.294 71.184 71.102 70.982 70.879 70.749 70.652 70.524 70.384 70.259 70.109 69.972 69.832 69.749 69.592 69.427 69.267 69.137 69.022 68.912 68.832 68.762 68.742 68.724 68.719 68.717 68.662 70.537 69.432 68.589 67.027 67.032 67.354 69.409 74.047 73.454 72.099 70.389 70.447 70.519 70.624 70.747 70.842 71.002 71.134 71.304 71.479 71.614 71.767 71.917 72.052 72.202 72.354 72.529 72.697 72.849 72.997 73.152 73.294 73.442 73.582 73.712 73.882 74.007 74.167 74.319 74.447 74.582 74.739 74.904 75.067 75.242 75.397 75.542 75.697 75.862 76.024 76.222 76.397 76.559 76.744 76.944 77.114 77.267 77.469 77.634 77.789 77.934 78.087 78.254 78.397 78.547 78.709 78.869 79.039 79.184 79.339 79.504 79.679 79.807 79.962 80.122 80.267 80.397 80.529 80.682 80.829 80.994 81.142 81.264 81.432 81.577 81.719 81.834 81.952 82.072 82.177 82.274 82.414 82.509 82.607 82.679 82.789 82.889 82.972 83.084 83.169 83.267 83.377 83.472 83.577 83.644 83.727 83.809 83.884 83.992 84.082 84.169 84.254 84.334 84.414 84.504 84.574 84.647 84.709 84.804 84.892 84.947 85.059 85.182 85.244 85.379 85.484 85.607 85.732 85.872 85.992 86.104 86.217 86.344 86.437 86.542 86.639 86.759 86.854 86.974 87.057 87.187 87.292 87.409 87.509 87.649 87.742 87.832 87.937 88.042 88.127 88.217 88.284 88.382 88.444 88.532 88.629 88.724 88.847 88.937 89.064 89.157 89.282 89.397 89.509 89.649 89.749 89.874 89.987 90.104 90.219 90.342 90.444 90.572 90.697 90.809 90.934 91.062 91.187 91.304 91.444 91.574 91.712 91.819 91.944 92.069 92.194 92.327 92.464
105.006 104.839 104.655 104.517 104.365 104.202 104.045 103.896 103.744 103.592 103.435 103.278 103.139 103.002 102.854 102.697 102.542 102.384 102.229 102.072 101.902 101.757 101.602 101.447 101.282 101.134 100.989 100.832 100.667 100.477 100.304 100.132 99.944 99.764 99.619 99.452 99.299 99.147 98.994 98.844 98.697 98.554 98.412 98.289 98.137 97.997 97.839 97.679 97.504 97.354 97.197 97.084 96.997 96.894 96.772 96.602 96.482 96.399 96.272 95.739 95.492 95.444 95.412 95.134 94.987 94.879 94.787 94.664 94.522 94.357 94.204 94.064 93.889 93.684 93.462 93.247 93.027 92.819 92.614 92.464 92.264 92.122 91.982 91.862 91.734 91.614 91.489 91.352 91.239 91.117 90.979 90.854 90.724 90.604 90.464 90.322 90.192 90.077 89.954 89.832 89.692 89.559 89.444 89.339 89.249 89.162 89.077 89.012 88.909 88.804 88.692 88.577 88.419 88.277 88.114 87.992 87.884 87.747 87.637 87.522 87.434 87.344 87.239 87.142 87.034 86.932 86.834 86.709 86.622 86.499 86.374 86.289 86.194 86.102 86.022 85.919 85.834 85.757 85.647 85.547 85.429 85.332 85.234 85.117 85.014 84.882 84.749 84.609 84.477 84.339 84.239 84.119 83.994 83.874 83.752 83.619 83.467 83.342 83.182 83.034 82.874 82.729 82.594 82.462 82.309 82.122 81.942 81.754 81.574 81.402 81.229 81.044 80.864 80.659 80.484 80.302 80.139 79.962 79.787 79.612 79.429 79.269 79.112 78.929 78.774 78.622 78.447 78.259 78.084 77.929 77.862 77.792 77.752 78.049 78.247 77.719 77.222 77.107 76.059 74.439 73.954 73.854 73.812 73.762 73.694 73.727 73.802 73.674 73.247 72.647 72.217 72.064 71.912 71.782 71.682 71.594 71.507 71.372 71.274 71.167 71.079 70.959 70.857 70.727 70.629 70.517 70.349 70.207 70.084 69.949 69.777 69.652 69.517 69.369 69.194 69.049 68.904 68.767 68.649 68.577 68.547 68.519 68.474 68.484 68.459 69.084 69.842 69.607 68.564 66.762 66.817 67.437 70.627 71.709 73.169 70.212 70.277 70.312 70.402 70.544 70.647 70.752 70.892 71.032 71.194 71.329 71.502 71.649 71.812 71.969 72.134 72.312 72.474 72.637 72.774 72.934 73.097 73.217 73.377 73.542 73.667 73.814 73.957 74.117 74.262 74.442 74.567 74.707 74.892 75.044 75.204 75.364 75.532 75.714 75.877 76.042 76.222 76.419 76.592 76.759 76.922 77.119 77.289 77.459 77.629 77.799 77.942 78.097 78.244 78.417 78.557 78.724 78.904 79.052 79.217 79.382 79.537 79.667 79.829 79.997 80.147 80.284 80.432 80.569 80.714 80.847 81.007 81.142 81.314 81.452 81.584 81.737 81.844 81.972 82.079 82.187 82.297 82.409 82.502 82.599 82.687 82.784 82.864 82.949 83.054 83.149 83.254 83.362 83.452 83.562 83.617 83.704 83.772 83.857 83.947 84.034 84.107 84.194 84.304 84.387 84.452 84.537 84.609 84.664 84.747 84.827 84.904 84.997 85.082 85.202 85.307 85.412 85.529 85.674 85.799 85.927 86.032 86.152 86.262 86.352 86.449 86.537 86.657 86.764 86.872 86.992 87.082 87.214 87.314 87.409 87.524 87.647 87.744 87.827 87.947 88.034 88.109 88.174 88.257 88.342 88.427 88.504 88.602 88.704 88.817 88.907 89.054 89.169 89.289 89.407 89.534 89.659 89.779 89.894 90.012 90.132 90.247 90.347 90.472 90.589 90.719 90.844 90.959 91.064 91.219 91.347 91.472 91.599 91.719 91.869 91.972 92.102 92.232 92.344
104.941 104.768 104.604 104.451 104.286 104.129 103.981 103.825 103.684 103.515 103.374 103.206 103.092 102.919 102.787 102.617 102.449 102.302 102.152 102.002 101.827 101.654 101.519 101.357 101.197 101.059 100.894 100.739 100.562 100.382 100.204 100.029 99.844 99.664 99.517 99.334 99.174 99.034 98.892 98.752 98.614 98.459 98.334 98.194 98.052 97.882 97.727 97.547 97.422 97.257 97.087 97.012 96.917 96.822 96.674 96.497 96.394 96.329 96.062 95.477 95.474 95.392 95.224 94.999 94.892 94.792 94.682 94.524 94.404 94.254 94.117 93.977 93.814 93.637 93.414 93.217 92.974 92.774 92.582 92.379 92.192 92.039 91.889 91.737 91.597 91.479 91.344 91.204 91.102 90.994 90.837 90.727 90.609 90.452 90.319 90.194 90.079 89.954 89.814 89.687 89.572 89.452 89.337 89.232 89.129 89.034 88.957 88.879 88.769 88.662 88.574 88.452 88.297 88.159 88.004 87.882 87.749 87.612 87.499 87.399 87.294 87.192 87.114 86.997 86.879 86.789 86.687 86.552 86.457 86.352 86.249 86.162 86.067 85.957 85.892 85.784 85.682 85.609 85.497 85.387 85.299 85.197 85.104 84.989 84.889 84.759 84.652 84.502 84.372 84.247 84.124 83.994 83.877 83.739 83.619 83.472 83.362 83.234 83.094 82.947 82.807 82.667 82.519 82.369 82.217 82.037 81.859 81.684 81.477 81.304 81.122 80.924 80.719 80.542 80.352 80.159 79.969 79.797 79.597 79.407 79.232 79.052 78.894 78.709 78.557 78.397 78.202 78.032 77.884 77.809 77.722 77.647 77.769 77.737 77.452 76.899 76.359 75.117 74.199 73.992 73.914 73.869 73.784 73.764 73.872 73.864 73.522 72.932 72.397 72.159 72.037 71.882 71.759 71.637 71.529 71.449 71.357 71.242 71.144 71.032 70.899 70.814 70.707 70.587 70.479 70.332 70.209 70.052 69.894 69.732 69.577 69.434 69.274 69.122 68.964 68.797 68.644 68.529 68.429 68.334 68.322 68.289 68.244 68.244 68.222 69.014 69.849 69.912 69.992 66.539 66.589 67.999 69.209 71.439 70.272 70.082 70.112 70.189 70.269 70.409 70.519 70.632 70.759 70.902 71.084 71.247 71.412 71.562 71.722 71.899 72.069 72.237 72.379 72.522 72.674 72.867 73.019 73.207 73.342 73.484 73.649 73.787 73.929 74.102 74.244 74.407 74.557 74.692 74.837 75.004 75.174 75.362 75.539 75.714 75.894 76.032 76.209 76.389 76.549 76.722 76.919 77.097 77.264 77.434 77.617 77.784 77.947 78.119 78.277 78.449 78.619 78.757 78.892 79.054 79.199 79.369 79.564 79.689 79.842 80.024 80.169 80.314 80.432 80.617 80.722 80.869 81.022 81.187 81.334 81.462 81.589 81.737 81.867 81.982 82.082 82.187 82.279 82.397 82.472 82.577 82.672 82.774 82.869 82.944 83.029 83.139 83.234 83.324 83.379 83.482 83.549 83.639 83.747 83.832 83.919 83.982 84.089 84.164 84.214 84.319 84.402 84.454 84.544 84.622 84.684 84.737 84.837 84.937 85.019 85.124 85.242 85.344 85.439 85.579 85.694 85.827 85.944 86.029 86.147 86.264 86.359 86.464 86.574 86.682 86.792 86.887 86.992 87.109 87.199 87.329 87.432 87.537 87.637 87.739 87.829 87.897 87.982 88.052 88.132 88.212 88.284 88.387 88.492 88.584 88.684 88.804 88.937 89.052 89.187 89.314 89.414 89.557 89.679 89.787 89.922 90.034 90.142 90.264 90.374 90.487 90.612 90.729 90.827 90.969 91.112 91.252 91.374 91.512 91.629 91.757 91.864 91.997 92.117 92.217
104.856 104.686 104.52 104.374 104.213 104.051 103.894 103.75 103.601 103.443 103.307 103.145 102.991 102.849 102.709 102.552 102.394 102.229 102.077 101.922 101.764 101.594 101.447 101.274 101.122 100.982 100.812 100.659 100.487 100.302 100.114 99.947 99.754 99.562 99.434 99.237 99.077 98.924 98.777 98.639 98.509 98.364 98.229 98.069 97.929 97.787 97.627 97.469 97.304 97.152 97.009 96.894 96.802 96.707 96.562 96.404 96.292 96.202 95.844 95.479 95.409 95.317 95.019 94.884 94.809 94.689 94.577 94.417 94.317 94.162 94.039 93.892 93.739 93.579 93.359 93.129 92.899 92.694 92.472 92.267 92.087 91.892 91.764 91.599 91.457 91.324 91.222 91.084 90.959 90.834 90.712 90.589 90.454 90.352 90.222 90.094 89.944 89.829 89.672 89.569 89.444 89.317 89.197 89.082 88.989 88.884 88.812 88.747 88.637 88.552 88.459 88.319 88.179 88.042 87.882 87.762 87.629 87.472 87.372 87.264 87.159 87.064 86.959 86.847 86.757 86.664 86.562 86.447 86.334 86.199 86.117 86.012 85.907 85.834 85.739 85.642 85.547 85.462 85.357 85.269 85.199 85.089 84.987 84.887 84.767 84.632 84.514 84.384 84.252 84.114 83.999 83.892 83.759 83.647 83.502 83.392 83.262 83.122 82.992 82.864 82.722 82.582 82.434 82.297 82.159 81.974 81.782 81.589 81.384 81.179 80.977 80.757 80.549 80.344 80.147 79.977 79.769 79.577 79.374 79.192 79.022 78.829 78.662 78.494 78.319 78.117 77.937 77.817 77.742 77.674 77.584 77.539 77.497 77.007 75.819 75.207 75.004 74.179 74.069 73.984 73.924 73.842 73.839 73.957 73.809 73.327 72.659 72.282 72.149 72.027 71.829 71.767 71.644 71.517 71.434 71.312 71.207 71.087 70.994 70.854 70.752 70.649 70.539 70.414 70.304 70.192 70.039 69.884 69.724 69.537 69.377 69.214 69.052 68.874 68.717 68.547 68.412 68.267 68.167 68.104 68.062 68.039 68.024 68.017 67.989 68.519 69.214 68.039 66.649 66.289 66.424 69.387 70.412 71.382 70.339 69.927 69.969 70.057 70.152 70.299 70.382 70.502 70.654 70.822 70.949 71.112 71.287 71.464 71.644 71.812 71.919 72.102 72.299 72.447 72.624 72.814 72.997 73.117 73.252 73.399 73.587 73.747 73.904 74.064 74.212 74.349 74.527 74.699 74.844 74.999 75.154 75.339 75.497 75.652 75.839 75.987 76.152 76.324 76.494 76.689 76.892 77.094 77.282 77.467 77.622 77.797 77.947 78.114 78.277 78.419 78.569 78.734 78.887 79.047 79.224 79.384 79.547 79.742 79.919 80.044 80.199 80.327 80.484 80.604 80.772 80.872 81.049 81.192 81.354 81.467 81.602 81.724 81.829 81.954 82.087 82.219 82.292 82.379 82.517 82.574 82.669 82.772 82.849 82.919 83.004 83.104 83.202 83.277 83.354 83.459 83.552 83.614 83.722 83.779 83.874 83.952 84.039 84.114 84.184 84.287 84.372 84.434 84.504 84.572 84.652 84.722 84.789 84.882 84.979 85.062 85.157 85.264 85.379 85.482 85.609 85.737 85.859 85.959 86.077 86.164 86.269 86.359 86.457 86.562 86.689 86.782 86.894 86.994 87.087 87.199 87.319 87.419 87.519 87.604 87.694 87.784 87.854 87.897 88.007 88.082 88.164 88.262 88.369 88.457 88.554 88.694 88.824 88.929 89.074 89.202 89.324 89.444 89.584 89.704 89.824 89.929 90.032 90.147 90.252 90.382 90.492 90.639 90.744 90.879 91.009 91.139 91.274 91.407 91.517 91.639 91.749 91.852 92.002 92.104
104.77 104.613 104.459 104.297 104.128 103.98 103.829 103.669 103.515 103.364 103.217 103.072 102.909 102.764 102.617 102.457 102.312 102.149 101.999 101.834 101.677 101.502 101.339 101.204 101.032 100.874 100.714 100.547 100.367 100.199 100.024 99.827 99.647 99.462 99.304 99.134 98.979 98.819 98.697 98.519 98.399 98.254 98.114 97.957 97.807 97.677 97.517 97.364 97.189 97.027 96.909 96.799 96.714 96.584 96.452 96.329 96.222 95.957 95.402 95.379 95.357 95.219 94.917 94.797 94.702 94.594 94.452 94.294 94.164 94.037 93.907 93.772 93.599 93.424 93.217 93.024 92.807 92.579 92.347 92.152 91.964 91.787 91.612 91.464 91.357 91.212 91.089 90.974 90.854 90.724 90.597 90.469 90.357 90.232 90.094 89.962 89.827 89.697 89.557 89.462 89.317 89.179 89.064 88.954 88.847 88.767 88.674 88.602 88.524 88.427 88.354 88.197 88.062 87.914 87.784 87.659 87.512 87.382 87.254 87.124 87.019 86.899 86.832 86.712 86.622 86.512 86.387 86.297 86.199 86.102 85.969 85.892 85.799 85.704 85.599 85.509 85.424 85.314 85.217 85.127 85.009 84.922 84.832 84.739 84.629 84.502 84.392 84.264 84.144 84.012 83.897 83.802 83.672 83.552 83.419 83.299 83.182 83.067 82.912 82.779 82.649 82.509 82.379 82.232 82.067 81.884 81.687 81.487 81.252 81.032 80.794 80.574 80.362 80.157 79.972 79.744 79.537 79.339 79.132 78.939 78.742 78.564 78.387 78.229 78.067 77.889 77.744 77.677 77.597 77.662 77.882 77.089 77.312 77.487 74.999 74.337 74.207 74.099 74.039 73.989 73.929 73.934 73.972 73.852 73.254 72.494 72.282 72.134 71.944 71.829 71.734 71.609 71.477 71.387 71.284 71.192 71.049 70.944 70.814 70.702 70.594 70.467 70.382 70.252 70.162 70.014 69.884 69.712 69.529 69.327 69.174 68.994 68.807 68.632 68.464 68.297 68.184 68.037 67.934 67.834 67.797 67.787 67.767 67.797 67.727 68.289 68.752 68.429 66.147 66.044 66.512 72.149 72.997 74.137 70.712 69.779 69.854 69.899 70.029 70.157 70.242 70.354 70.484 70.667 70.822 70.992 71.162 71.367 71.519 71.717 71.892 72.062 72.194 72.392 72.544 72.707 72.877 73.044 73.209 73.359 73.532 73.659 73.832 73.987 74.142 74.304 74.462 74.617 74.762 74.907 75.102 75.262 75.434 75.597 75.772 75.934 76.112 76.312 76.509 76.707 76.902 77.089 77.252 77.427 77.587 77.762 77.924 78.089 78.259 78.422 78.592 78.737 78.884 79.059 79.259 79.382 79.557 79.744 79.899 80.039 80.192 80.344 80.499 80.634 80.777 80.917 81.064 81.217 81.347 81.567 81.594 81.722 81.847 81.954 82.052 82.159 82.272 82.372 82.462 82.534 82.622 82.712 82.809 82.882 82.977 83.057 83.162 83.249 83.329 83.444 83.489 83.574 83.652 83.724 83.824 83.917 83.997 84.072 84.152 84.229 84.319 84.397 84.464 84.517 84.579 84.647 84.719 84.794 84.879 84.982 85.087 85.184 85.284 85.402 85.512 85.629 85.757 85.859 85.987 86.069 86.172 86.272 86.374 86.482 86.577 86.664 86.774 86.882 86.984 87.094 87.192 87.282 87.392 87.494 87.594 87.659 87.729 87.817 87.869 87.962 88.034 88.132 88.222 88.334 88.429 88.567 88.712 88.827 88.949 89.087 89.217 89.347 89.492 89.592 89.704 89.819 89.929 90.039 90.159 90.282 90.402 90.514 90.642 90.767 90.904 91.019 91.134 91.274 91.392 91.512 91.632 91.747 91.867 92.009
104.693 104.534 104.378 104.227 104.068 103.901 103.737 103.598 103.432 103.282 103.132 102.987 102.833 102.696 102.534 102.377 102.222 102.062 101.922 101.744 101.589 101.439 101.259 101.102 100.954 100.807 100.647 100.462 100.307 100.104 99.927 99.722 99.544 99.367 99.199 99.029 98.879 98.729 98.587 98.447 98.284 98.149 98.012 97.859 97.717 97.567 97.414 97.259 97.099 96.962 96.837 96.754 96.632 96.484 96.339 96.092 95.924 95.657 95.364 95.344 95.197 94.964 94.797 94.702 94.614 94.479 94.294 94.149 94.027 93.894 93.777 93.637 93.477 93.307 93.122 92.927 92.709 92.494 92.259 92.044 91.862 91.699 91.522 91.362 91.222 91.094 90.997 90.867 90.729 90.627 90.487 90.354 90.227 90.117 89.989 89.847 89.702 89.582 89.427 89.322 89.169 89.044 88.932 88.797 88.697 88.624 88.552 88.477 88.417 88.314 88.227 88.107 87.979 87.844 87.674 87.527 87.384 87.254 87.092 86.994 86.879 86.779 86.679 86.557 86.509 86.392 86.279 86.184 86.059 85.964 85.842 85.749 85.667 85.572 85.462 85.384 85.292 85.189 85.109 84.992 84.889 84.802 84.727 84.629 84.509 84.382 84.292 84.169 84.037 83.914 83.827 83.699 83.587 83.452 83.342 83.217 83.082 82.964 82.832 82.707 82.574 82.432 82.289 82.147 81.972 81.777 81.579 81.369 81.122 80.867 80.629 80.384 80.164 79.947 79.722 79.502 79.287 79.072 78.889 78.689 78.474 78.287 78.124 77.959 77.794 77.674 77.589 77.524 77.487 77.594 76.942 76.772 77.074 75.319 74.382 74.212 74.157 74.112 74.047 74.047 74.062 73.937 74.137 73.732 72.444 72.292 72.149 71.939 71.837 71.709 71.579 71.454 71.349 71.272 71.134 71.027 70.889 70.789 70.659 70.554 70.477 70.382 70.244 70.089 69.957 69.792 69.644 69.484 69.314 69.097 68.939 68.752 68.567 68.384 68.209 68.062 67.914 67.774 67.672 67.602 67.574 67.559 67.564 67.554 67.512 68.304 69.239 68.462 65.767 65.824 66.384 71.179 72.887 72.047 69.967 69.639 69.702 69.797 69.914 70.022 70.112 70.229 70.379 70.579 70.757 70.927 71.107 71.319 71.477 71.647 71.807 71.967 72.164 72.322 72.494 72.652 72.814 72.972 73.109 73.264 73.432 73.564 73.737 73.899 74.059 74.227 74.362 74.519 74.679 74.857 75.004 75.184 75.362 75.552 75.752 75.919 76.084 76.274 76.474 76.667 76.864 77.029 77.217 77.409 77.574 77.777 77.939 78.104 78.254 78.419 78.579 78.724 78.882 79.059 79.217 79.382 79.552 79.729 79.899 80.057 80.207 80.417 80.494 80.652 80.784 80.919 81.052 81.219 81.334 81.467 81.582 81.712 81.829 81.942 82.027 82.122 82.247 82.329 82.414 82.509 82.604 82.682 82.767 82.854 82.939 83.017 83.109 83.189 83.267 83.362 83.457 83.544 83.617 83.682 83.794 83.872 83.947 84.022 84.102 84.184 84.257 84.332 84.397 84.454 84.509 84.587 84.652 84.759 84.832 84.904 85.004 85.099 85.187 85.319 85.424 85.532 85.654 85.769 85.877 85.969 86.054 86.169 86.272 86.372 86.459 86.544 86.642 86.739 86.837 86.952 87.067 87.184 87.289 87.369 87.462 87.532 87.602 87.657 87.742 87.832 87.917 87.987 88.087 88.192 88.294 88.447 88.597 88.724 88.849 88.977 89.107 89.242 89.364 89.487 89.589 89.699 89.802 89.942 90.047 90.154 90.267 90.394 90.502 90.644 90.779 90.902 91.014 91.152 91.269 91.409 91.524 91.634 91.742 91.872
104.615 104.454 104.293 104.134 103.971 103.819 103.653 103.507 103.343 103.183 103.036 102.893 102.751 102.61 102.462 102.304 102.149 101.992 101.832 101.672 101.509 101.354 101.179 101.037 100.884 100.712 100.559 100.382 100.197 100.027 99.839 99.629 99.449 99.284 99.099 98.959 98.794 98.617 98.489 98.332 98.182 98.054 97.892 97.749 97.614 97.452 97.302 97.154 97.009 96.882 96.757 96.674 96.522 96.387 96.237 95.902 95.614 95.309 95.307 95.234 95.127 94.857 94.717 94.594 94.512 94.327 94.144 93.992 93.854 93.759 93.637 93.509 93.354 93.182 93.032 92.872 92.644 92.399 92.167 91.962 91.739 91.587 91.412 91.272 91.127 90.979 90.834 90.729 90.619 90.497 90.362 90.247 90.119 89.979 89.844 89.727 89.604 89.472 89.307 89.177 89.049 88.929 88.802 88.689 88.574 88.492 88.402 88.337 88.264 88.169 88.084 87.989 87.854 87.724 87.582 87.427 87.267 87.122 86.992 86.862 86.739 86.647 86.552 86.454 86.357 86.244 86.137 86.042 85.929 85.847 85.717 85.607 85.532 85.447 85.352 85.252 85.177 85.082 84.972 84.872 84.792 84.659 84.587 84.504 84.387 84.282 84.192 84.074 83.929 83.814 83.717 83.607 83.479 83.349 83.229 83.117 82.984 82.847 82.744 82.627 82.497 82.372 82.204 82.044 81.862 81.664 81.444 81.199 80.947 80.689 80.427 80.174 79.929 79.689 79.477 79.249 79.034 78.792 78.604 78.394 78.207 78.019 77.857 77.689 77.589 77.534 77.434 77.559 77.552 76.664 75.617 75.432 75.112 74.407 74.252 74.217 74.157 74.089 74.097 74.107 74.182 73.949 73.097 72.449 72.307 72.119 71.974 71.819 71.692 71.569 71.444 71.307 71.212 71.099 70.997 70.867 70.747 70.654 70.522 70.417 70.299 70.219 70.094 69.952 69.777 69.619 69.439 69.259 69.082 68.884 68.692 68.499 68.299 68.142 67.952 67.784 67.644 67.519 67.429 67.352 67.327 67.342 67.334 67.297 67.269 68.412 69.092 66.579 65.524 65.577 66.002 69.344 70.742 69.754 69.447 69.489 69.572 69.657 69.777 69.884 69.989 70.104 70.277 70.459 70.639 70.819 71.024 71.219 71.417 71.559 71.737 71.904 72.077 72.237 72.414 72.569 72.737 72.892 73.034 73.162 73.334 73.477 73.632 73.792 73.957 74.124 74.294 74.454 74.622 74.784 74.972 75.134 75.309 75.504 75.677 75.842 76.034 76.249 76.444 76.627 76.822 77.032 77.202 77.429 77.584 77.742 77.929 78.089 78.242 78.402 78.567 78.719 78.887 79.084 79.242 79.427 79.564 79.739 79.907 80.057 80.197 80.384 80.502 80.639 80.779 80.909 81.059 81.177 81.309 81.442 81.572 81.679 81.812 81.952 82.027 82.119 82.204 82.299 82.389 82.487 82.567 82.637 82.719 82.802 82.884 82.999 83.074 83.159 83.249 83.332 83.397 83.507 83.579 83.657 83.722 83.804 83.887 83.944 84.034 84.124 84.217 84.267 84.337 84.394 84.464 84.532 84.599 84.687 84.759 84.837 84.929 85.044 85.119 85.234 85.344 85.444 85.557 85.657 85.782 85.877 85.962 86.062 86.157 86.232 86.337 86.422 86.519 86.619 86.734 86.847 86.957 87.049 87.122 87.229 87.312 87.402 87.482 87.524 87.617 87.694 87.772 87.857 87.969 88.072 88.194 88.324 88.482 88.609 88.734 88.869 88.984 89.102 89.242 89.359 89.467 89.587 89.694 89.792 89.912 90.014 90.157 90.282 90.382 90.522 90.659 90.792 90.909 91.044 91.154 91.264 91.389 91.509 91.632 91.752
104.521 104.36 104.193 104.044 103.895 103.743 103.582 103.417 103.265 103.116 102.968 102.809 102.672 102.525 102.379 102.224 102.069 101.909 101.759 101.609 101.427 101.277 101.092 100.969 100.809 100.622 100.472 100.289 100.122 99.932 99.749 99.554 99.367 99.182 99.012 98.834 98.677 98.514 98.379 98.234 98.084 97.952 97.794 97.632 97.494 97.332 97.187 97.022 96.907 96.779 96.669 96.557 96.414 96.299 96.194 95.904 95.457 95.252 95.267 95.159 94.939 94.739 94.629 94.524 94.379 94.192 94.014 93.887 93.764 93.647 93.512 93.389 93.237 93.079 92.929 92.727 92.507 92.289 92.062 91.839 91.642 91.467 91.304 91.157 91.002 90.854 90.722 90.594 90.477 90.374 90.234 90.094 89.987 89.854 89.729 89.589 89.449 89.322 89.182 89.034 88.904 88.777 88.657 88.562 88.427 88.344 88.254 88.184 88.097 88.027 87.937 87.834 87.724 87.604 87.459 87.314 87.159 87.019 86.882 86.744 86.622 86.517 86.407 86.324 86.217 86.107 86.012 85.912 85.804 85.704 85.577 85.477 85.397 85.322 85.227 85.137 85.052 84.952 84.834 84.739 84.667 84.559 84.462 84.392 84.294 84.174 84.057 83.934 83.829 83.722 83.594 83.477 83.369 83.274 83.162 83.044 82.907 82.812 82.669 82.537 82.412 82.267 82.109 81.952 81.749 81.542 81.304 81.044 80.757 80.479 80.227 79.942 79.677 79.429 79.204 78.959 78.732 78.542 78.339 78.147 77.957 77.772 77.614 77.527 77.447 77.352 77.492 77.219 76.569 75.849 74.997 74.572 74.324 74.297 74.257 74.242 74.182 74.179 74.029 74.244 73.689 72.704 72.432 72.289 72.087 71.979 71.864 71.692 71.562 71.427 71.322 71.184 71.067 70.937 70.822 70.699 70.589 70.472 70.392 70.257 70.129 70.004 69.922 69.782 69.602 69.409 69.217 69.052 68.827 68.639 68.444 68.239 68.052 67.869 67.704 67.557 67.402 67.284 67.177 67.124 67.109 67.122 67.102 67.054 67.037 68.582 68.799 66.674 65.289 65.302 65.977 69.512 71.274 70.229 69.327 69.329 69.409 69.529 69.644 69.717 69.812 69.952 70.132 70.324 70.554 70.747 70.942 71.124 71.304 71.479 71.654 71.817 71.967 72.137 72.297 72.449 72.617 72.774 72.929 73.074 73.224 73.372 73.529 73.699 73.889 74.034 74.207 74.394 74.552 74.714 74.882 75.067 75.257 75.454 75.624 75.784 75.984 76.182 76.389 76.577 76.789 76.989 77.167 77.362 77.549 77.744 77.912 78.072 78.249 78.412 78.569 78.739 78.894 79.079 79.244 79.407 79.574 79.744 79.914 80.057 80.217 80.374 80.507 80.639 80.762 80.889 81.022 81.157 81.264 81.407 81.539 81.634 81.754 81.857 81.954 82.052 82.164 82.264 82.362 82.427 82.527 82.622 82.704 82.779 82.854 82.954 83.024 83.119 83.184 83.267 83.344 83.424 83.497 83.569 83.649 83.739 83.824 83.902 83.964 84.057 84.149 84.212 84.269 84.334 84.402 84.467 84.544 84.599 84.682 84.739 84.842 84.959 85.032 85.147 85.252 85.347 85.457 85.564 85.654 85.754 85.844 85.954 86.037 86.134 86.232 86.329 86.414 86.509 86.589 86.709 86.819 86.907 86.969 87.072 87.157 87.237 87.327 87.404 87.484 87.564 87.642 87.734 87.862 87.959 88.094 88.222 88.364 88.474 88.607 88.727 88.869 88.994 89.114 89.227 89.334 89.432 89.564 89.664 89.779 89.904 90.039 90.162 90.284 90.404 90.542 90.657 90.789 90.904 91.034 91.152 91.282 91.404 91.519 91.629
