ncols 440
nrows 31
xllcorner    456100
yllcorner    94264
cellsize     2
NODATA_value -9999
-1.051 -1.149 -1.247 -1.264 -1.335 -1.377 -1.312 -1.226 -1.301 -1.604 -1.763 -1.879 -1.977 -1.876 -2.204 -2.219 -1.913 -1.937 -1.958 -2.219 -2.227 -2.244 -2.207 -2.192 -2.257 -2.214 -2.229 -2.274 -2.262 -2.237 -2.249 -2.274 -2.209 -2.192 -2.264 -2.219 -2.234 -2.202 -2.257 -2.234 -2.264 -2.324 -2.274 -2.179 -2.289 -2.264 -2.164 -2.284 -2.244 -2.197 -2.204 -2.274 -2.272 -2.254 -2.184 -2.257 -2.164 -2.222 -2.232 -2.272 -2.247 -2.219 -2.247 -2.224 -2.289 -2.229 -2.224 -2.187 -2.194 -2.282 -2.259 -2.292 -2.252 -2.204 -2.239 -2.267 -2.214 -2.254 -2.239 -2.194 -2.264 -2.207 -2.252 -2.244 -2.264 -2.197 -2.219 -2.264 -2.184 -2.162 -2.284 -2.262 -2.289 -2.199 -2.219 -2.229 -2.267 -2.202 -2.252 -2.352 -2.264 -2.254 -2.269 -2.197 -2.184 -2.254 -2.207 -2.122 -2.242 -2.267 -2.229 -2.229 -2.244 -2.242 -2.302 -2.257 -2.202 -2.182 -2.234 -2.212 -2.119 -2.214 -2.204 -2.304 -2.269 -2.277 -2.234 -2.249 -2.227 -2.179 -2.164 -2.159 -2.222 -2.214 -2.204 -2.267 -2.272 -2.262 -2.299 -2.224 -2.262 -2.187 -2.232 -2.214 -2.149 -2.227 -2.337 -2.227 -2.242 -2.249 -2.264 -2.184 -2.177 -2.229 -2.162 -2.234 -2.207 -2.267 -2.199 -2.209 -2.277 -2.214 -2.252 -2.234 -2.277 -2.249 -2.217 -2.204 -2.224 -2.244 -2.234 -2.214 -2.164 -2.139 -2.199 -2.284 -2.244 -2.169 -2.162 -2.234 -2.244 -2.187 -2.199 -2.232 -2.264 -2.287 -2.239 -2.209 -2.152 -2.249 -2.277 -2.229 -2.244 -2.172 -2.212 -2.209 -2.259 -2.254 -2.229 -2.272 -2.287 -2.319 -2.204 -2.247 -2.262 -2.229 -2.229 -2.239 -2.242 -2.157 -2.247 -2.322 -2.212 -2.239 -2.337 -2.262 -2.259 -2.224 -2.234 -2.202 -2.252 -2.202 -2.184 -2.189 -2.249 -2.209 -2.252 -2.272 -2.269 -2.294 -2.267 -2.277 -2.164 -2.194 -2.249 -2.134 -2.189 -2.274 -2.262 -2.192 -2.269 -2.354 -2.349 -2.264 -2.257 -2.257 -2.204 -2.237 -2.159 -2.149 -2.289 -2.304 -2.194 -2.342 -2.257 -2.279 -2.294 -2.289 -2.222 -2.202 -2.227 -2.264 -2.179 -2.214 -2.172 -2.212 -2.242 -2.244 -2.297 -2.254 -2.254 -2.187 -2.229 -2.277 -2.277 -2.194 -2.149 -2.209 -2.274 -2.279 -2.314 -2.294 -2.309 -2.237 -2.234 -2.299 -2.292 -2.219 -2.202 -2.167 -2.179 -2.182 -2.217 -2.259 -2.254 -2.207 -2.229 -2.259 -2.194 -2.277 -2.287 -2.279 -2.282 -2.249 -2.249 -2.219 -2.342 -9999 -9999 -2.294 -2.187 -2.017 -2.167 -2.269 -2.227 -2.232 -2.237 -2.194 -2.162 -2.204 -2.292 -2.304 -2.224 -2.184 -2.254 -2.287 -2.282 -2.289 -2.224 -2.192 -2.172 -2.179 -2.152 -2.214 -2.264 -2.169 -2.179 -2.279 -2.229 -2.242 -2.254 -2.362 -2.287 -2.152 -2.134 -2.152 -2.202 -2.252 -2.277 -2.264 -2.199 -2.319 -2.332 -2.227 -2.234 -2.247 -2.237 -2.269 -2.214 -2.289 -2.259 -2.267 -2.252 -2.307 -2.177 -2.202 -2.227 -2.262 -2.327 -2.274 -2.162 -2.179 -2.209 -2.244 -2.302 -2.219 -2.159 -2.174 -2.224 -2.214 -2.157 -2.164 -2.237 -2.174 -2.172 -2.174 -2.209 -2.189 -2.159 -2.202 -2.217 -2.199 -2.184 -2.082 -2.187 -2.164 -2.252 -2.217 -2.189 -2.124 -2.192 -2.149 -2.264 -2.232 -2.259 -2.214 -2.222 -2.254 -2.219 -2.184 -2.287 -2.202 -2.159 -2.167 -2.179 -2.202 -2.232 -2.189 -2.287 -2.209 -2.232 -2.182 -2.252 -2.197 -2.182 -2.232 -2.247 -2.259 -2.167 -2.152 -2.257 -2.179 -2.189 -2.202 -2.179 -2.212 -2.217 -2.247 -2.174 -2.202
-0.765 -0.929 -0.991 -0.985 -1.072 -1.106 -1.008 -0.969 -1.081 -1.375 -1.565 -1.592 -1.669 -1.786 -1.934 -2.137 -1.909 -1.651 -1.776 -1.933 -1.895 -1.963 -1.975 -1.944 -1.874 -1.922 -1.955 -2.212 -2.299 -2.182 -2.247 -2.269 -2.279 -2.227 -2.214 -2.257 -2.237 -2.254 -2.244 -2.194 -2.252 -2.314 -2.252 -2.217 -2.279 -2.242 -2.284 -2.272 -2.287 -2.184 -2.159 -2.244 -2.219 -2.192 -2.192 -2.204 -2.199 -2.204 -2.262 -2.259 -2.289 -2.287 -2.272 -2.224 -2.219 -2.222 -2.249 -2.177 -2.169 -2.222 -2.217 -2.249 -2.194 -2.234 -2.222 -2.292 -2.262 -2.257 -2.227 -2.212 -2.254 -2.219 -2.289 -2.289 -2.244 -2.229 -2.247 -2.244 -2.137 -2.264 -2.242 -2.257 -2.274 -2.277 -2.277 -2.229 -2.232 -2.224 -2.254 -2.284 -2.209 -2.247 -2.242 -2.209 -2.217 -2.219 -2.219 -2.217 -2.224 -2.274 -2.259 -2.222 -2.209 -2.234 -2.264 -2.234 -2.164 -2.139 -2.262 -2.187 -2.159 -2.262 -2.269 -2.237 -2.309 -2.294 -2.242 -2.212 -2.249 -2.197 -2.199 -2.154 -2.189 -2.259 -2.202 -2.237 -2.324 -2.284 -2.307 -2.197 -2.229 -2.237 -2.277 -2.214 -2.169 -2.247 -2.287 -2.249 -2.237 -2.217 -2.244 -2.234 -2.222 -2.197 -2.152 -2.264 -2.239 -2.242 -2.149 -2.197 -2.219 -2.289 -2.297 -2.247 -2.317 -2.277 -2.179 -2.199 -2.234 -2.222 -2.242 -2.167 -2.227 -2.199 -2.202 -2.259 -2.267 -2.199 -2.169 -2.204 -2.262 -2.217 -2.239 -2.202 -2.177 -2.294 -2.252 -2.207 -2.144 -2.254 -2.237 -2.234 -2.212 -2.227 -2.242 -2.284 -2.227 -2.224 -2.224 -2.182 -2.272 -2.274 -2.249 -2.242 -2.354 -2.222 -2.172 -2.264 -2.194 -2.122 -2.239 -2.292 -2.234 -2.239 -2.312 -2.309 -2.202 -2.192 -2.284 -2.252 -2.132 -2.119 -2.202 -2.149 -2.169 -2.232 -2.272 -2.247 -2.209 -2.292 -2.257 -2.269 -2.194 -2.199 -2.257 -2.167 -2.179 -2.232 -2.289 -2.212 -2.259 -2.292 -2.312 -2.237 -2.284 -2.269 -2.192 -2.234 -2.262 -2.137 -2.254 -2.294 -2.274 -2.249 -2.257 -2.214 -2.277 -2.247 -2.267 -2.184 -2.162 -2.204 -2.204 -2.179 -2.229 -2.202 -2.229 -2.244 -2.259 -2.314 -2.219 -2.244 -2.199 -2.232 -2.287 -2.272 -2.164 -2.144 -2.214 -2.222 -2.347 -2.254 -2.259 -2.262 -2.269 -2.269 -2.252 -2.199 -2.232 -2.149 -2.187 -2.077 -2.172 -2.274 -2.257 -2.259 -2.302 -2.274 -2.254 -2.317 -2.244 -2.222 -2.244 -2.194 -2.224 -2.182 -2.272 -9999 -2.357 -2.287 -2.259 -2.189 -2.262 -2.229 -2.172 -2.252 -2.199 -2.167 -2.239 -2.249 -2.267 -2.249 -2.217 -2.269 -2.269 -2.244 -2.199 -2.212 -2.212 -2.219 -2.252 -2.187 -2.13 -2.162 -2.247 -2.209 -2.172 -2.212 -2.217 -2.232 -2.272 -2.242 -2.277 -2.234 -2.147 -2.172 -2.227 -2.269 -2.224 -2.209 -2.217 -2.317 -2.344 -2.242 -2.192 -2.242 -2.189 -2.339 -2.274 -2.294 -2.287 -2.229 -2.172 -2.222 -2.194 -2.214 -2.249 -2.214 -2.222 -2.239 -2.229 -2.199 -2.247 -2.204 -2.187 -2.207 -2.239 -2.179 -2.192 -2.237 -2.217 -2.212 -2.254 -2.189 -2.234 -2.204 -2.207 -2.204 -2.184 -2.247 -2.207 -2.204 -2.247 -2.139 -2.159 -2.257 -2.304 -2.247 -2.114 -2.102 -2.192 -2.269 -2.232 -2.202 -2.202 -2.167 -2.197 -2.214 -2.182 -2.232 -2.229 -2.192 -2.204 -2.182 -2.252 -2.227 -2.229 -2.239 -2.269 -2.134 -2.164 -2.247 -2.257 -2.209 -2.197 -2.217 -2.247 -2.259 -2.204 -2.177 -2.212 -2.184 -2.139 -2.174 -2.169 -2.249 -2.197 -2.202 -2.197 -2.234
-0.473 -0.643 -0.689 -0.666 -0.748 -0.762 -0.758 -0.711 -0.91 -1.092 -1.25 -1.347 -1.395 -1.553 -1.795 -1.881 -1.755 -1.547 -1.528 -1.606 -1.677 -1.602 -1.652 -1.684 -1.747 -1.908 -1.986 -1.921 -2.272 -2.229 -1.908 -2.249 -2.274 -2.254 -2.177 -2.292 -2.259 -2.317 -2.269 -2.202 -2.252 -2.312 -2.239 -2.217 -2.217 -2.214 -2.232 -2.239 -2.257 -2.222 -2.214 -2.267 -2.339 -2.259 -2.229 -2.207 -2.204 -2.252 -2.164 -2.207 -2.272 -2.284 -2.247 -2.282 -2.219 -2.214 -2.207 -2.194 -2.192 -2.199 -2.192 -2.247 -2.207 -2.229 -2.277 -2.274 -2.197 -2.254 -2.257 -2.199 -2.207 -2.214 -2.227 -2.224 -2.202 -2.252 -2.282 -2.212 -2.189 -2.227 -2.244 -2.252 -2.267 -2.239 -2.232 -2.164 -2.287 -2.254 -2.292 -2.237 -2.212 -2.232 -2.239 -2.209 -2.227 -2.232 -2.179 -2.192 -2.189 -2.189 -2.277 -2.312 -2.204 -2.152 -2.277 -2.227 -2.189 -2.229 -2.242 -2.182 -2.197 -2.254 -2.289 -2.204 -2.254 -2.287 -2.167 -2.219 -2.257 -2.214 -2.142 -2.204 -2.159 -2.187 -2.277 -2.269 -2.262 -2.244 -2.287 -2.179 -2.162 -2.234 -2.287 -2.207 -2.232 -2.237 -2.274 -2.287 -2.217 -2.254 -2.252 -2.257 -2.179 -2.212 -2.174 -2.252 -2.267 -2.204 -2.137 -2.232 -2.244 -2.309 -2.237 -2.232 -2.217 -2.267 -2.224 -2.219 -2.259 -2.292 -2.229 -2.212 -2.252 -2.242 -2.172 -2.199 -2.239 -2.229 -2.179 -2.147 -2.287 -2.232 -2.229 -2.177 -2.227 -2.307 -2.264 -2.222 -2.212 -2.264 -2.244 -2.269 -2.169 -2.259 -2.219 -2.209 -2.229 -2.189 -2.184 -2.187 -2.287 -2.309 -2.324 -2.329 -2.287 -2.179 -2.179 -2.227 -2.174 -2.127 -2.219 -2.264 -2.227 -2.259 -2.302 -2.327 -2.242 -2.194 -2.262 -2.242 -2.132 -2.144 -2.254 -2.207 -2.184 -2.292 -2.197 -2.274 -2.197 -2.264 -2.254 -2.227 -2.244 -2.239 -2.247 -2.187 -2.167 -2.184 -2.249 -2.217 -2.214 -2.299 -2.329 -2.267 -2.209 -2.264 -2.169 -2.217 -2.192 -2.152 -2.232 -2.214 -2.214 -2.217 -2.237 -2.372 -2.357 -2.284 -2.214 -2.239 -2.177 -2.232 -2.187 -2.139 -2.207 -2.222 -2.244 -2.227 -2.272 -2.332 -2.244 -2.267 -2.227 -2.229 -2.194 -2.264 -2.252 -9999 -9999 -2.227 -2.184 -2.244 -2.267 -2.279 -2.327 -2.309 -2.222 -2.267 -2.267 -2.174 -9999 -9999 -2.277 -2.232 -2.194 -2.212 -2.194 -2.269 -2.259 -2.287 -2.257 -2.242 -2.172 -2.194 -2.272 -2.324 -2.217 -2.389 -2.427 -2.274 -2.232 -2.237 -2.259 -2.284 -2.199 -9999 -2.242 -2.239 -2.217 -2.234 -2.314 -2.277 -2.399 -2.307 -2.262 -2.192 -2.154 -2.189 -2.232 -2.234 -2.287 -9999 -9999 -9999 -2.187 -2.232 -2.224 -2.257 -2.234 -2.229 -2.209 -2.234 -2.232 -2.189 -2.204 -2.217 -2.224 -2.269 -2.194 -9999 -2.154 -2.279 -2.257 -2.184 -2.152 -2.202 -2.132 -2.157 -2.189 -2.202 -2.212 -2.222 -2.182 -2.264 -2.224 -2.237 -2.302 -2.212 -2.174 -2.237 -2.244 -2.219 -2.209 -2.194 -2.214 -2.234 -2.237 -2.207 -2.294 -2.262 -2.302 -2.294 -2.169 -2.239 -2.212 -2.289 -2.302 -2.197 -2.149 -2.099 -2.252 -2.247 -2.269 -2.219 -2.229 -2.224 -2.317 -2.342 -2.262 -2.224 -2.217 -2.269 -2.259 -2.187 -2.177 -2.242 -2.257 -2.227 -2.232 -2.227 -2.234 -2.164 -2.169 -2.162 -2.212 -2.177 -2.244 -2.214 -2.182 -2.189 -2.162 -2.204 -2.224 -2.197 -2.222 -2.202 -2.214 -2.232 -2.204 -2.162 -2.189 -2.197 -2.232 -2.112 -2.142 -2.249 -2.227 -2.212 -2.214 -2.242
-0.159 -0.4 -0.409 -0.408 -0.43 -0.461 -0.413 -0.535 -0.702 -0.847 -1.033 -1.094 -1.173 -1.382 -1.598 -1.609 -1.527 -1.357 -1.279 -1.287 -1.309 -1.338 -1.414 -1.67 -1.948 -2.299 -2.294 -1.913 -1.964 -1.96 -1.8 -1.975 -1.922 -2.234 -2.304 -2.242 -2.309 -2.214 -2.212 -2.237 -2.287 -2.204 -2.237 -2.232 -2.334 -2.227 -2.259 -2.289 -2.302 -2.229 -2.199 -2.279 -2.302 -2.292 -2.289 -2.212 -2.332 -2.257 -2.197 -2.237 -2.264 -2.314 -2.242 -2.239 -2.249 -2.232 -2.252 -2.219 -2.169 -2.204 -2.267 -2.189 -2.199 -2.229 -2.224 -2.227 -2.217 -2.199 -2.284 -2.167 -2.187 -2.219 -2.182 -2.224 -2.192 -2.229 -2.314 -2.242 -2.184 -2.257 -2.229 -2.217 -2.207 -2.269 -2.319 -2.214 -2.227 -2.264 -2.229 -2.237 -2.219 -2.262 -2.252 -2.222 -2.207 -2.214 -2.167 -2.209 -2.227 -2.169 -2.272 -2.229 -2.189 -2.219 -2.274 -2.229 -2.184 -2.167 -2.187 -2.169 -2.189 -2.194 -2.209 -2.222 -2.227 -2.247 -2.189 -2.244 -2.272 -2.239 -2.127 -2.197 -2.119 -2.204 -2.257 -2.267 -2.269 -2.254 -2.309 -2.209 -2.199 -2.202 -2.269 -2.239 -2.242 -2.202 -2.234 -2.297 -2.257 -2.224 -2.294 -2.264 -2.189 -2.142 -2.212 -2.192 -2.264 -2.252 -2.187 -2.259 -2.192 -2.267 -2.212 -2.227 -2.204 -2.174 -2.239 -2.217 -2.247 -2.257 -2.217 -2.214 -2.189 -2.207 -2.187 -2.217 -2.209 -2.244 -2.192 -2.199 -2.212 -2.209 -2.209 -2.172 -2.204 -2.282 -2.197 -2.279 -2.252 -2.262 -2.217 -2.314 -2.227 -2.217 -2.219 -2.169 -2.239 -2.232 -2.182 -2.189 -2.239 -2.299 -2.292 -2.344 -2.274 -2.197 -2.202 -2.249 -2.169 -2.127 -2.214 -2.284 -2.214 -2.247 -2.284 -2.304 -2.254 -2.179 -2.252 -2.217 -2.037 -2.162 -2.282 -2.197 -2.102 -2.204 -2.257 -2.257 -2.257 -2.237 -2.322 -2.247 -2.194 -2.217 -2.227 -2.224 -2.224 -2.217 -2.252 -2.227 -2.294 -2.307 -2.262 -2.287 -2.254 -2.264 -2.202 -2.232 -2.249 -2.204 -2.172 -2.159 -2.189 -2.179 -2.204 -2.264 -2.337 -2.269 -2.242 -2.242 -2.194 -2.192 -2.204 -2.209 -2.222 -2.237 -2.287 -2.254 -2.242 -2.259 -2.294 -2.264 -2.217 -2.257 -2.212 -2.332 -2.192 -9999 -9999 -9999 -2.259 -2.247 -2.239 -2.339 -2.287 -2.302 -2.224 -2.232 -2.287 -2.172 -2.167 -2.217 -2.262 -2.229 -2.157 -2.212 -2.264 -2.252 -2.257 -2.264 -2.292 -2.312 -2.297 -2.212 -2.232 -2.277 -2.217 -2.284 -2.292 -2.209 -2.257 -2.267 -2.267 -2.269 -2.274 -9999 -9999 -2.299 -2.219 -2.217 -2.272 -2.234 -2.299 -2.242 -2.227 -2.194 -2.202 -2.247 -2.244 -2.272 -2.224 -9999 -9999 -9999 -2.262 -2.162 -2.272 -2.279 -2.219 -2.264 -2.284 -2.154 -2.272 -2.302 -2.307 -2.199 -2.197 -9999 -9999 -9999 -9999 -2.289 -2.159 -2.154 -2.227 -2.309 -2.217 -2.174 -2.197 -2.237 -2.337 -2.304 -2.197 -2.234 -2.277 -2.224 -2.307 -2.322 -2.389 -2.297 -2.239 -2.172 -2.282 -2.279 -2.184 -2.212 -2.309 -2.159 -2.177 -2.232 -2.282 -2.312 -2.257 -2.227 -2.194 -2.249 -2.242 -2.197 -2.217 -2.172 -2.224 -2.149 -2.182 -2.189 -2.162 -2.242 -2.257 -2.214 -2.254 -2.262 -2.247 -2.217 -2.242 -2.137 -2.164 -2.227 -2.232 -2.242 -2.247 -2.199 -2.207 -2.342 -2.142 -2.202 -2.202 -2.232 -2.264 -2.164 -2.142 -2.204 -2.224 -2.164 -2.222 -2.202 -2.219 -2.199 -2.209 -2.172 -2.194 -2.174 -2.202 -2.199 -2.177 -2.172 -2.189 -2.289 -2.249 -2.234 -2.227 -2.212
0.154 -0.039 -0.102 -0.097 -0.153 -0.184 -0.183 -0.325 -0.481 -0.597 -0.725 -0.757 -0.931 -1.128 -1.292 -1.341 -1.252 -1.172 -1.012 -1.016 -1.022 -1.298 -1.57 -1.76 -1.939 -2.282 -2.207 -1.943 -1.824 -1.647 -1.577 -1.612 -1.866 -1.954 -2.006 -1.866 -1.996 -2.197 -2.257 -2.274 -1.962 -2.179 -2.212 -2.252 -2.257 -2.202 -2.169 -2.239 -2.237 -2.262 -2.247 -2.279 -2.192 -2.229 -2.234 -2.234 -2.327 -2.222 -2.259 -2.229 -2.262 -2.259 -2.212 -2.222 -2.247 -2.162 -2.254 -2.227 -2.167 -2.214 -2.207 -2.239 -2.189 -2.249 -2.232 -2.179 -2.279 -2.159 -2.247 -2.269 -2.167 -2.222 -2.237 -2.247 -2.144 -2.287 -2.294 -2.284 -2.174 -2.227 -2.224 -2.159 -2.184 -2.229 -2.287 -2.194 -2.217 -2.209 -2.212 -2.237 -2.239 -2.229 -2.257 -2.239 -2.172 -2.167 -2.172 -2.177 -2.222 -2.162 -2.264 -2.317 -2.222 -2.217 -2.274 -2.277 -2.194 -2.157 -2.187 -2.217 -2.217 -2.209 -2.172 -2.227 -2.264 -2.284 -2.269 -2.199 -2.242 -2.189 -2.182 -2.254 -2.139 -2.222 -2.262 -2.222 -2.254 -2.239 -2.272 -2.222 -2.177 -2.164 -2.224 -2.204 -2.197 -2.229 -2.209 -2.292 -2.292 -2.229 -2.307 -2.227 -2.227 -2.137 -2.177 -2.172 -2.257 -2.207 -2.202 -2.234 -2.217 -2.252 -2.247 -2.272 -2.257 -2.277 -2.282 -2.242 -2.199 -2.272 -2.199 -2.229 -2.162 -2.187 -2.227 -2.182 -2.174 -2.227 -2.244 -2.187 -2.219 -2.184 -2.244 -2.172 -2.239 -2.257 -2.187 -2.267 -2.289 -2.229 -2.252 -2.309 -2.227 -2.184 -2.229 -2.227 -2.232 -2.169 -2.244 -2.272 -2.217 -2.277 -2.277 -2.314 -2.272 -2.224 -2.229 -2.272 -2.197 -2.112 -2.157 -2.242 -2.177 -2.237 -2.292 -2.354 -2.227 -2.224 -2.262 -2.204 -2.154 -2.157 -2.317 -2.192 -2.134 -2.277 -2.334 -2.289 -2.239 -2.242 -2.294 -2.252 -2.209 -2.259 -2.274 -2.209 -2.209 -2.237 -2.232 -2.232 -2.277 -2.297 -2.299 -2.287 -2.244 -2.297 -2.229 -2.217 -2.194 -2.242 -2.179 -2.172 -2.227 -2.222 -2.167 -2.192 -2.289 -2.357 -2.284 -2.257 -2.254 -2.237 -2.179 -2.234 -2.254 -2.219 -2.207 -2.222 -2.247 -2.252 -2.224 -2.252 -2.212 -2.257 -2.202 -2.192 -2.182 -2.204 -2.187 -2.232 -2.249 -2.237 -2.257 -2.274 -2.252 -2.304 -2.234 -2.219 -2.294 -2.197 -2.187 -2.224 -2.264 -2.182 -2.184 -2.214 -2.242 -2.252 -2.297 -2.267 -2.267 -2.272 -2.244 -2.237 -2.194 -2.247 -2.239 -2.252 -2.229 -2.282 -2.224 -2.239 -2.292 -2.269 -2.262 -2.177 -2.127 -2.209 -2.269 -2.214 -2.257 -2.222 -2.207 -2.284 -2.207 -2.244 -2.287 -2.354 -2.312 -2.277 -2.202 -9999 -9999 -9999 -2.259 -2.137 -2.267 -2.239 -2.194 -2.222 -2.257 -2.264 -2.279 -9999 -2.289 -2.169 -2.217 -9999 -9999 -9999 -9999 -2.254 -2.179 -2.232 -2.282 -2.279 -2.247 -2.214 -2.192 -2.184 -2.272 -2.369 -2.257 -2.194 -2.282 -2.252 -2.262 -2.182 -2.244 -2.229 -2.272 -2.217 -2.274 -2.274 -2.182 -2.154 -2.189 -2.277 -2.297 -2.164 -2.209 -2.217 -2.252 -2.229 -2.247 -2.304 -2.292 -2.189 -2.349 -2.262 -2.202 -2.192 -2.169 -2.209 -2.194 -2.237 -2.277 -2.149 -2.202 -2.289 -2.282 -2.154 -2.204 -2.217 -2.187 -2.199 -2.174 -2.152 -2.159 -2.199 -2.249 -2.317 -2.207 -2.164 -2.209 -2.177 -2.169 -2.169 -2.157 -2.219 -2.202 -2.212 -2.242 -2.192 -2.187 -2.232 -2.249 -2.227 -2.192 -2.177 -2.134 -2.224 -2.244 -2.139 -2.207 -2.284 -2.189 -2.197 -2.204 -2.192
0.385 0.274 0.215 0.179 0.126 0.107 0.04 -0.103 -0.207 -0.298 -0.35 -0.489 -0.698 -0.868 -0.949 -1.019 -0.988 -0.919 -0.787 -0.718 -1.01 -1.34 -1.683 -1.857 -2.224 -2.277 -2.262 -2.197 -1.956 -1.628 -1.338 -1.369 -1.563 -1.639 -1.628 -1.596 -1.863 -1.913 -1.941 -1.982 -1.78 -1.888 -2.272 -2.284 -2.234 -2.189 -2.234 -2.289 -2.232 -2.247 -2.277 -2.254 -2.202 -2.217 -2.197 -2.204 -2.289 -2.209 -2.267 -2.274 -2.254 -2.294 -2.222 -2.282 -2.252 -2.224 -2.262 -2.274 -2.202 -2.219 -2.224 -2.232 -2.204 -2.267 -2.204 -2.214 -2.189 -2.242 -2.199 -2.252 -2.184 -2.184 -2.247 -2.212 -2.157 -2.257 -2.244 -2.209 -2.279 -2.217 -2.257 -2.194 -2.297 -2.282 -2.272 -2.202 -2.232 -2.232 -2.222 -2.259 -2.242 -2.214 -2.202 -2.184 -2.167 -2.177 -2.249 -2.212 -2.217 -2.214 -2.269 -2.247 -2.194 -2.202 -2.257 -2.204 -2.204 -2.129 -2.147 -2.217 -2.224 -2.157 -2.179 -2.319 -2.294 -2.202 -2.262 -2.252 -2.232 -2.229 -2.174 -2.232 -2.154 -2.234 -2.259 -2.234 -2.217 -2.214 -2.257 -2.269 -2.139 -2.147 -2.244 -2.207 -2.179 -2.167 -2.252 -2.244 -2.322 -2.207 -2.284 -2.267 -2.304 -2.184 -2.162 -2.274 -2.222 -2.167 -2.252 -2.189 -2.277 -2.247 -2.244 -2.222 -2.199 -2.274 -2.224 -2.182 -2.202 -2.259 -2.202 -2.162 -2.172 -2.172 -2.259 -2.207 -2.192 -2.257 -2.212 -2.209 -2.289 -2.237 -2.219 -2.222 -2.194 -2.157 -2.222 -2.262 -2.282 -2.194 -2.249 -2.287 -2.239 -2.184 -2.227 -2.234 -2.209 -2.197 -2.219 -2.247 -2.217 -2.277 -2.282 -2.227 -2.297 -2.322 -2.239 -2.232 -2.259 -2.162 -2.124 -2.247 -2.229 -2.217 -2.322 -2.307 -2.239 -2.229 -2.297 -2.252 -2.122 -2.127 -2.247 -2.157 -2.179 -2.237 -2.287 -2.254 -2.237 -2.264 -2.267 -2.249 -2.227 -2.289 -2.272 -2.237 -2.172 -2.214 -2.267 -2.269 -2.257 -2.274 -2.237 -2.219 -2.317 -2.294 -2.232 -2.214 -2.182 -2.209 -2.224 -2.162 -2.204 -2.222 -2.207 -2.144 -2.229 -2.384 -2.252 -2.224 -2.157 -2.224 -2.247 -2.187 -2.284 -2.279 -2.217 -2.227 -2.309 -2.324 -2.267 -2.224 -2.234 -2.307 -2.137 -2.192 -2.187 -2.159 -2.174 -2.194 -2.254 -2.252 -2.252 -2.264 -2.277 -2.289 -2.229 -2.222 -2.327 -2.282 -2.194 -2.162 -2.177 -2.184 -2.177 -2.207 -2.249 -2.272 -2.332 -2.209 -2.282 -2.329 -2.279 -2.234 -2.247 -2.247 -2.237 -2.294 -2.262 -2.277 -2.284 -2.227 -2.299 -2.267 -2.299 -2.194 -2.234 -2.309 -2.259 -2.192 -2.237 -2.247 -2.227 -2.284 -2.212 -2.162 -2.262 -2.259 -2.279 -2.239 -2.329 -9999 -9999 -9999 -2.269 -2.259 -2.192 -2.042 -2.119 -2.129 -2.252 -9999 -9999 -9999 -2.267 -2.189 -2.179 -9999 -2.17 -2.257 -2.302 -2.264 -2.147 -2.182 -2.137 -2.214 -2.314 -2.217 -2.157 -2.212 -2.229 -2.239 -2.189 -2.227 -2.277 -2.269 -2.262 -2.292 -2.304 -2.269 -2.309 -2.264 -2.197 -2.164 -2.197 -2.107 -2.212 -2.299 -2.289 -2.184 -2.299 -2.242 -2.222 -2.192 -2.252 -2.254 -2.257 -2.182 -2.294 -2.222 -2.137 -2.217 -2.239 -2.254 -2.217 -2.237 -2.259 -2.227 -2.257 -2.287 -2.309 -2.197 -2.199 -2.137 -2.154 -2.192 -2.157 -2.117 -2.117 -2.237 -2.177 -2.262 -2.202 -2.159 -2.262 -2.139 -2.207 -2.169 -2.129 -2.159 -2.239 -2.179 -2.279 -2.202 -2.262 -2.239 -2.207 -2.194 -2.242 -2.204 -2.132 -2.249 -2.289 -2.114 -2.192 -2.312 -2.229 -2.264 -2.177 -2.244
0.614 0.583 0.525 0.425 0.43 0.457 0.313 0.159 0.054 -0.021 -0.126 -0.378 -0.494 -0.619 -0.694 -0.693 -0.678 -0.633 -0.673 -0.895 -1.154 -1.396 -1.592 -1.747 -1.944 -2.207 -2.284 -2.214 -1.892 -1.639 -1.351 -1.163 -1.253 -1.301 -1.296 -1.368 -1.568 -1.593 -1.729 -1.726 -1.538 -1.755 -1.932 -2.212 -2.212 -1.933 -2.249 -2.247 -2.247 -1.939 -1.912 -2.189 -2.232 -2.284 -2.209 -2.269 -2.257 -2.252 -2.247 -2.242 -2.227 -2.254 -2.232 -2.319 -2.199 -2.249 -2.272 -2.254 -2.179 -2.237 -2.254 -2.244 -2.252 -2.252 -2.154 -2.272 -2.234 -2.257 -2.137 -2.274 -2.259 -2.187 -2.204 -2.207 -2.237 -2.217 -2.224 -2.187 -2.264 -2.212 -2.212 -2.137 -2.272 -2.269 -2.182 -2.222 -2.187 -2.279 -2.224 -2.262 -2.209 -2.234 -2.192 -2.239 -2.247 -2.199 -2.254 -2.147 -2.179 -2.242 -2.204 -2.234 -2.147 -2.264 -2.274 -2.199 -2.289 -2.232 -2.147 -2.179 -2.204 -2.164 -2.172 -2.267 -2.249 -2.292 -2.259 -2.274 -2.239 -2.177 -2.194 -2.184 -2.162 -2.132 -2.207 -2.194 -2.247 -2.244 -2.297 -2.279 -2.072 -2.167 -2.227 -2.239 -2.244 -2.152 -2.259 -2.254 -2.237 -2.242 -2.242 -2.197 -2.352 -2.249 -2.177 -2.227 -2.204 -2.189 -2.234 -2.112 -2.262 -2.319 -2.272 -2.182 -2.247 -2.267 -2.219 -2.254 -2.224 -2.272 -2.207 -2.179 -2.249 -2.229 -2.282 -2.202 -2.237 -2.309 -2.259 -2.344 -2.229 -2.237 -2.217 -2.207 -2.162 -2.177 -2.212 -2.264 -2.232 -2.207 -2.212 -2.312 -2.297 -2.189 -2.247 -2.257 -2.224 -2.137 -2.157 -2.254 -2.232 -2.302 -2.249 -2.262 -2.309 -2.287 -2.284 -2.194 -2.224 -2.209 -2.162 -2.212 -2.214 -2.187 -2.309 -2.264 -2.214 -2.257 -2.284 -2.219 -2.089 -2.102 -2.214 -2.119 -2.144 -2.257 -2.187 -2.247 -2.302 -2.327 -2.369 -2.257 -2.179 -2.397 -2.274 -2.129 -2.119 -2.259 -2.252 -2.232 -2.299 -2.302 -2.254 -2.274 -2.294 -2.214 -2.249 -2.234 -2.199 -2.262 -2.279 -2.197 -2.192 -2.247 -2.257 -2.209 -2.172 -2.297 -2.287 -2.192 -2.184 -2.242 -2.252 -2.149 -2.282 -2.242 -2.184 -2.192 -2.249 -2.314 -2.269 -2.309 -2.249 -2.279 -2.244 -2.257 -2.209 -2.174 -2.244 -2.149 -2.297 -2.297 -2.247 -2.219 -2.287 -2.269 -2.264 -2.244 -2.332 -2.252 -2.227 -2.129 -2.212 -2.199 -2.172 -2.214 -2.237 -2.247 -2.332 -2.204 -2.262 -2.329 -2.314 -2.259 -2.217 -2.219 -2.204 -2.267 -2.317 -2.254 -2.234 -2.244 -2.279 -2.257 -2.314 -2.184 -2.257 -2.269 -2.229 -2.149 -2.202 -2.269 -2.239 -2.277 -2.277 -2.167 -2.232 -2.159 -2.254 -2.234 -2.264 -2.334 -2.337 -2.317 -2.237 -2.214 -2.147 -2.097 -2.059 -2.064 -2.227 -9999 -9999 -9999 -2.262 -2.167 -2.202 -2.139 -2.124 -2.237 -2.279 -2.217 -2.229 -2.197 -2.197 -2.247 -2.232 -2.184 -2.164 -2.177 -2.219 -2.234 -2.244 -2.219 -2.217 -2.194 -2.197 -2.249 -2.262 -2.137 -2.202 -2.212 -2.229 -2.207 -2.189 -2.122 -2.207 -2.297 -2.249 -2.277 -2.282 -2.269 -2.204 -2.177 -2.174 -2.157 -2.229 -2.277 -2.239 -2.192 -2.184 -2.242 -2.292 -2.229 -2.262 -2.307 -2.307 -2.262 -2.192 -2.244 -2.229 -2.129 -2.197 -2.184 -2.282 -2.282 -2.194 -2.239 -2.162 -2.202 -2.192 -2.257 -2.197 -2.202 -2.232 -2.202 -2.249 -2.159 -2.177 -2.232 -2.239 -2.194 -2.207 -2.219 -2.284 -2.237 -2.257 -2.177 -2.134 -2.187 -2.177 -2.252 -2.257 -2.142 -2.207 -2.237 -2.197 -2.282 -2.239 -2.002
0.97 0.861 0.835 0.739 0.746 0.787 0.542 0.429 0.349 0.218 0.063 -0.093 -0.222 -0.311 -0.341 -0.395 -0.437 -0.393 -0.664 -0.974 -1.273 -1.581 -1.824 -1.902 -1.887 -1.888 -1.95 -2.237 -1.86 -1.649 -1.367 -1.297 -1.522 -1.62 -1.649 -1.639 -1.708 -1.549 -1.448 -1.355 -1.333 -1.617 -1.938 -2.214 -2.212 -1.893 -2.212 -2.212 -2.189 -1.986 -1.824 -1.859 -2.224 -2.214 -2.199 -2.302 -2.229 -2.247 -2.279 -2.264 -2.242 -2.232 -2.284 -2.174 -2.212 -2.272 -2.237 -2.252 -2.214 -2.234 -2.172 -2.232 -2.249 -2.182 -2.247 -2.229 -2.289 -2.317 -2.124 -2.244 -2.254 -2.237 -2.202 -2.232 -2.212 -2.197 -2.242 -2.254 -2.249 -2.227 -2.187 -2.222 -2.247 -2.224 -2.202 -2.279 -2.227 -2.199 -2.197 -2.242 -2.277 -2.224 -2.232 -2.252 -2.254 -2.164 -2.182 -2.199 -2.204 -2.262 -2.169 -2.179 -2.257 -2.269 -2.254 -2.222 -2.199 -2.222 -2.162 -2.147 -2.199 -2.219 -2.209 -2.212 -2.269 -2.267 -2.224 -2.242 -2.287 -2.267 -2.222 -2.182 -2.204 -2.167 -2.232 -2.224 -2.272 -2.182 -2.299 -2.257 -2.117 -2.222 -2.299 -2.222 -2.169 -2.172 -2.297 -2.252 -2.212 -2.247 -2.247 -2.207 -2.337 -2.232 -2.209 -2.254 -2.207 -2.212 -2.237 -2.139 -2.289 -2.254 -2.224 -2.162 -2.262 -2.227 -2.254 -2.217 -2.234 -2.239 -2.267 -2.189 -2.247 -2.259 -2.207 -2.209 -2.277 -2.307 -2.242 -2.284 -2.232 -2.192 -2.169 -2.194 -2.199 -2.172 -2.212 -2.284 -2.209 -2.177 -2.159 -2.284 -2.342 -2.274 -2.139 -2.234 -2.264 -2.187 -2.114 -2.244 -2.254 -2.294 -2.214 -2.254 -2.282 -2.322 -2.284 -2.222 -2.222 -2.292 -2.202 -2.117 -2.187 -2.219 -2.279 -2.222 -2.194 -2.334 -2.269 -2.207 -2.199 -2.134 -2.259 -2.162 -2.159 -2.247 -2.219 -2.247 -2.202 -2.247 -2.309 -2.257 -2.217 -2.332 -2.324 -2.159 -2.187 -2.237 -2.247 -2.284 -2.237 -2.274 -2.297 -2.209 -2.254 -2.254 -2.294 -2.267 -2.187 -2.187 -2.229 -2.152 -2.229 -2.284 -2.379 -2.284 -2.232 -2.327 -2.277 -2.219 -2.229 -2.209 -2.179 -2.187 -2.219 -2.257 -2.222 -2.154 -2.202 -2.234 -2.264 -2.279 -2.257 -2.269 -2.257 -2.222 -2.194 -2.142 -2.239 -2.207 -2.249 -2.279 -2.234 -2.099 -2.292 -2.287 -2.162 -2.174 -2.322 -2.242 -2.239 -2.152 -2.204 -2.209 -2.167 -2.237 -2.197 -2.189 -2.117 -2.207 -2.259 -2.272 -2.164 -2.202 -2.219 -2.222 -2.204 -2.304 -2.292 -2.272 -2.162 -2.307 -2.292 -2.234 -2.314 -2.167 -2.182 -2.257 -2.274 -2.227 -2.197 -2.257 -2.227 -2.232 -2.252 -2.234 -2.267 -2.217 -2.209 -2.244 -2.247 -2.289 -2.259 -2.274 -2.244 -2.237 -2.207 -2.247 -2.154 -2.164 -2.217 -2.202 -2.132 -2.082 -2.142 -2.169 -2.107 -2.067 -2.159 -2.229 -2.269 -2.264 -2.277 -2.262 -2.269 -2.289 -2.257 -2.247 -2.194 -2.167 -2.249 -2.177 -2.144 -2.194 -2.192 -2.169 -2.162 -2.142 -2.212 -2.252 -2.262 -2.239 -2.277 -2.239 -2.184 -2.117 -2.209 -2.297 -2.177 -2.127 -2.257 -2.297 -2.294 -2.177 -2.187 -2.124 -2.182 -2.232 -2.184 -2.192 -2.214 -2.234 -2.169 -2.232 -2.254 -2.239 -2.247 -2.309 -2.269 -2.192 -2.189 -2.164 -2.179 -2.257 -2.219 -2.234 -2.207 -2.277 -2.232 -2.152 -2.192 -2.274 -2.212 -2.184 -2.159 -2.207 -2.244 -2.302 -2.252 -2.209 -2.177 -2.207 -2.194 -2.224 -2.192 -2.247 -2.224 -2.139 -2.192 -2.179 -2.217 -2.232 -2.274 -2.187 -2.214 -2.227 -2.204 -2.239 -2.157 -2.084
1.223 1.204 1.215 1.08 1.03 0.954 0.782 0.708 0.585 0.497 0.295 0.209 0.098 -0.008 -0.032 -0.077 -0.132 -0.479 -0.782 -1.057 -1.344 -1.65 -1.93 -2.294 -2.252 -1.892 -1.823 -1.96 -1.785 -1.641 -1.622 -1.489 -1.761 -1.969 -1.933 -1.957 -2.015 -1.819 -1.613 -1.257 -1.289 -1.578 -1.875 -1.889 -2.234 -2.269 -2.194 -2.212 -1.904 -1.979 -1.795 -1.713 -1.929 -1.922 -2.219 -2.279 -2.167 -2.187 -2.247 -2.272 -2.219 -2.249 -2.264 -2.207 -2.317 -2.262 -2.274 -2.272 -2.262 -2.227 -2.229 -2.249 -2.259 -2.197 -2.207 -2.372 -2.292 -2.284 -2.189 -2.229 -2.257 -2.249 -2.237 -2.269 -2.214 -2.257 -2.234 -2.242 -2.219 -2.272 -2.207 -2.232 -2.239 -2.252 -2.217 -2.232 -2.279 -2.177 -2.189 -2.234 -2.257 -2.227 -2.269 -2.289 -2.227 -2.159 -2.132 -2.194 -2.197 -2.257 -2.242 -2.207 -2.264 -2.337 -2.262 -2.237 -2.229 -2.227 -2.202 -2.144 -2.192 -2.249 -2.162 -2.157 -2.302 -2.294 -2.242 -2.237 -2.284 -2.244 -2.174 -2.167 -2.224 -2.162 -2.169 -2.229 -2.219 -2.267 -2.289 -2.254 -2.144 -2.202 -2.259 -2.212 -2.129 -2.137 -2.277 -2.252 -2.154 -2.244 -2.254 -2.187 -2.327 -2.254 -2.257 -2.214 -2.219 -2.242 -2.227 -2.122 -2.192 -2.274 -2.167 -2.192 -2.299 -2.247 -2.222 -2.287 -2.224 -2.242 -2.237 -2.229 -2.219 -2.262 -2.217 -2.247 -2.244 -2.194 -2.319 -2.257 -2.239 -2.202 -2.224 -2.212 -2.179 -2.127 -2.179 -2.179 -2.229 -2.209 -2.194 -2.252 -2.282 -2.284 -2.189 -2.199 -2.262 -2.232 -2.169 -2.222 -2.207 -2.234 -2.259 -2.174 -2.282 -2.292 -2.344 -2.242 -2.187 -2.252 -2.217 -2.144 -2.219 -2.252 -2.294 -2.139 -2.197 -2.289 -2.229 -2.192 -2.234 -2.194 -2.197 -2.214 -2.157 -2.157 -2.239 -2.227 -2.232 -2.289 -2.314 -2.302 -2.244 -2.272 -2.264 -2.182 -2.262 -2.289 -2.167 -2.272 -2.152 -2.197 -2.222 -2.199 -2.244 -2.287 -2.297 -2.227 -2.179 -2.207 -2.167 -2.127 -2.189 -2.212 -2.234 -2.229 -2.304 -2.339 -2.312 -2.269 -2.234 -2.224 -2.222 -2.152 -2.207 -2.232 -2.202 -2.172 -2.184 -2.237 -2.194 -2.257 -2.197 -2.212 -2.237 -2.252 -2.217 -2.164 -2.227 -2.282 -2.297 -2.247 -2.254 -2.167 -2.349 -2.322 -2.194 -2.099 -2.224 -2.257 -2.264 -2.257 -2.199 -2.199 -2.219 -2.257 -2.224 -2.197 -2.284 -2.232 -2.337 -2.237 -2.154 -2.289 -2.254 -2.087 -2.169 -2.274 -2.232 -9999 -2.367 -2.327 -2.319 -2.324 -2.317 -2.247 -2.227 -2.249 -2.262 -2.104 -2.174 -2.257 -2.244 -2.252 -2.187 -2.169 -2.214 -2.262 -2.224 -2.242 -2.247 -2.317 -2.209 -2.074 -2.252 -2.252 -2.184 -2.264 -9999 -9999 -9999 -2.277 -2.267 -2.252 -2.179 -2.172 -2.114 -2.072 -2.234 -9999 -2.214 -2.207 -2.254 -2.249 -2.172 -2.257 -2.317 -2.244 -2.127 -2.189 -2.304 -2.194 -2.142 -2.172 -2.174 -2.164 -2.237 -2.212 -2.169 -2.199 -2.264 -2.299 -2.312 -2.249 -2.177 -2.137 -2.239 -2.239 -2.157 -2.169 -2.259 -2.229 -2.232 -2.107 -2.194 -2.227 -2.159 -2.072 -2.202 -2.179 -2.169 -2.242 -2.187 -2.262 -2.222 -2.217 -2.199 -2.219 -2.317 -2.277 -2.179 -2.129 -2.139 -2.199 -2.189 -2.177 -2.167 -2.247 -2.157 -2.169 -2.209 -2.222 -2.207 -2.167 -2.159 -2.202 -2.234 -2.202 -2.242 -2.254 -2.157 -2.182 -2.247 -2.222 -2.149 -2.209 -2.232 -2.177 -2.182 -2.177 -2.259 -2.242 -2.237 -2.242 -2.167 -2.169 -2.167 -2.239 -2.204 -2.149
1.578 1.587 1.43 1.384 1.361 1.24 1.071 0.974 0.906 0.772 0.602 0.451 0.421 0.312 0.281 0.206 -0.088 -0.434 -0.68 -1.021 -1.346 -1.682 -1.901 -2.182 -2.227 -2.184 -1.879 -1.67 -1.573 -1.563 -1.817 -1.807 -1.923 -2.324 -2.259 -2.262 -2.304 -1.955 -1.672 -1.363 -1.202 -1.449 -1.659 -1.923 -2.227 -2.272 -2.204 -2.249 -2.244 -2.222 -1.927 -1.904 -2.212 -2.219 -2.277 -2.162 -2.167 -2.237 -2.249 -2.324 -1.885 -2.239 -2.262 -2.229 -2.269 -2.259 -2.232 -2.279 -2.264 -2.234 -2.227 -2.222 -2.297 -2.274 -2.219 -2.244 -2.307 -2.234 -2.204 -2.209 -2.179 -2.209 -2.204 -2.249 -2.237 -2.187 -2.227 -2.242 -2.282 -2.304 -2.192 -2.272 -2.194 -2.259 -2.247 -2.139 -2.214 -2.174 -2.214 -2.284 -2.247 -2.247 -2.197 -2.219 -2.287 -2.219 -2.144 -2.214 -2.212 -2.234 -2.209 -2.174 -2.232 -2.222 -2.257 -2.244 -2.224 -2.222 -2.174 -2.162 -2.174 -2.254 -2.189 -2.182 -2.252 -2.294 -2.287 -2.204 -2.279 -2.212 -2.169 -2.204 -2.194 -2.147 -2.182 -2.227 -2.214 -2.197 -2.259 -2.269 -2.172 -2.202 -2.279 -2.224 -2.142 -2.179 -2.299 -2.269 -2.162 -2.309 -2.307 -2.262 -2.262 -2.264 -2.267 -2.214 -2.202 -2.244 -2.187 -2.159 -2.192 -2.247 -2.179 -2.167 -2.297 -2.262 -2.169 -2.234 -2.199 -2.202 -2.234 -2.212 -2.234 -2.224 -2.167 -2.234 -2.274 -2.207 -2.199 -2.264 -2.232 -2.212 -2.194 -2.267 -2.214 -2.149 -2.204 -2.199 -2.262 -2.229 -2.204 -2.257 -2.267 -2.257 -2.207 -2.172 -2.247 -2.247 -2.157 -2.207 -2.214 -2.207 -2.204 -2.272 -2.324 -2.202 -2.294 -2.217 -2.207 -2.239 -2.239 -2.184 -2.157 -2.197 -2.234 -2.139 -2.194 -2.262 -2.254 -2.242 -2.199 -2.202 -2.227 -2.247 -2.199 -2.212 -2.239 -2.209 -2.192 -2.224 -2.259 -2.314 -2.249 -2.204 -2.227 -2.177 -2.177 -2.204 -2.224 -2.204 -2.164 -2.237 -2.229 -2.164 -2.252 -2.277 -2.292 -2.247 -2.229 -2.234 -2.224 -2.207 -2.247 -2.212 -2.174 -2.187 -2.274 -2.342 -2.332 -2.214 -2.267 -2.284 -2.289 -2.182 -2.182 -2.177 -2.232 -2.217 -2.162 -2.182 -2.179 -2.192 -2.207 -2.202 -2.259 -2.234 -2.169 -2.222 -2.224 -2.232 -2.309 -2.109 -2.214 -2.169 -2.254 -2.374 -2.239 -2.187 -2.234 -2.294 -2.267 -2.217 -2.267 -2.234 -2.234 -2.224 -2.254 -2.289 -2.167 -2.229 -2.247 -2.252 -2.249 -2.279 -2.232 -2.162 -2.222 -2.287 -2.217 -9999 -9999 -2.334 -2.274 -2.274 -2.224 -2.282 -2.222 -2.189 -2.307 -2.074 -2.172 -2.262 -2.229 -2.279 -2.157 -2.169 -2.177 -2.224 -2.274 -2.279 -2.304 -2.267 -2.192 -2.269 -2.287 -2.227 -2.174 -2.314 -9999 -9999 -9999 -2.277 -2.222 -2.199 -2.257 -2.232 -2.184 -2.182 -2.337 -9999 -9999 -2.192 -2.184 -2.259 -2.197 -2.239 -2.274 -2.194 -2.147 -2.237 -2.352 -2.389 -2.274 -2.239 -2.212 -2.187 -2.177 -2.179 -2.164 -2.239 -2.314 -2.337 -2.274 -2.237 -2.189 -2.194 -2.307 -2.269 -2.172 -2.279 -2.257 -2.259 -2.237 -2.244 -2.267 -2.179 -2.137 -2.257 -2.327 -2.219 -2.192 -2.262 -2.234 -2.209 -2.194 -2.194 -2.214 -2.217 -2.287 -2.234 -2.189 -2.209 -2.227 -2.217 -2.212 -2.182 -2.152 -2.117 -2.199 -2.189 -2.179 -2.169 -2.159 -2.217 -2.187 -2.234 -2.257 -2.117 -2.189 -2.269 -2.224 -2.199 -2.249 -2.192 -2.087 -2.184 -2.234 -2.207 -2.234 -2.184 -2.264 -2.199 -2.199 -2.192 -2.152 -2.157 -2.197 -2.219 -2.227 -2.227
1.813 1.882 1.812 1.739 1.605 1.401 1.146 0.978 0.798 0.682 0.614 0.608 0.575 0.504 0.377 0.132 -0.211 -0.425 -0.699 -1.022 -1.344 -1.633 -1.932 -2.202 -2.242 -1.958 -1.81 -1.582 -1.351 -1.614 -1.925 -2.112 -1.924 -2.254 -2.259 -2.222 -2.232 -1.977 -1.654 -1.316 -1.059 -1.411 -1.638 -1.883 -2.184 -2.252 -2.232 -2.229 -2.254 -2.254 -2.177 -2.264 -2.242 -2.247 -1.91 -2.222 -2.194 -2.197 -2.184 -2.259 -1.853 -2.204 -2.297 -2.239 -2.272 -2.287 -2.324 -2.267 -2.274 -2.209 -2.297 -2.297 -2.244 -2.204 -2.257 -2.282 -2.309 -2.174 -2.229 -2.284 -2.219 -2.227 -2.202 -2.249 -2.209 -2.192 -2.204 -2.327 -2.307 -2.217 -2.237 -2.237 -2.212 -2.257 -2.224 -2.137 -2.212 -2.234 -2.224 -2.217 -2.247 -2.242 -2.244 -2.237 -2.264 -2.257 -2.179 -2.194 -2.254 -2.242 -2.202 -2.249 -2.222 -2.287 -2.237 -2.219 -2.217 -2.277 -2.194 -2.204 -2.112 -2.202 -2.217 -2.179 -2.234 -2.342 -2.267 -2.169 -2.309 -2.232 -2.169 -2.222 -2.162 -2.124 -2.254 -2.264 -2.227 -2.159 -2.249 -2.287 -2.149 -2.207 -2.277 -2.229 -2.184 -2.174 -2.289 -2.244 -2.187 -2.267 -2.249 -2.197 -2.269 -2.249 -2.289 -2.257 -2.229 -2.317 -2.194 -2.182 -2.259 -2.227 -2.157 -2.162 -2.272 -2.254 -2.154 -2.217 -2.179 -2.209 -2.282 -2.154 -2.164 -2.214 -2.189 -2.277 -2.219 -2.272 -2.237 -2.154 -2.209 -2.264 -2.179 -2.227 -2.227 -2.189 -2.182 -2.199 -2.167 -2.192 -2.182 -2.284 -2.199 -2.247 -2.252 -2.192 -2.274 -2.259 -2.174 -2.219 -2.197 -2.224 -2.219 -2.259 -2.302 -2.232 -2.349 -2.244 -2.164 -2.277 -2.224 -2.192 -2.154 -2.244 -2.222 -2.142 -2.209 -2.227 -2.254 -2.344 -2.134 -2.177 -2.264 -2.234 -2.154 -2.214 -2.244 -2.194 -2.212 -2.174 -2.309 -2.324 -2.277 -2.227 -2.212 -2.349 -2.242 -2.232 -2.237 -2.252 -2.277 -2.257 -2.229 -2.117 -2.207 -2.149 -2.254 -2.302 -2.249 -2.257 -2.239 -2.209 -2.064 -2.199 -2.164 -2.232 -2.234 -2.364 -2.247 -2.214 -2.319 -2.239 -2.217 -2.169 -2.169 -2.117 -2.057 -2.187 -2.252 -2.294 -2.332 -2.262 -2.252 -2.237 -2.174 -2.182 -2.227 -2.272 -2.264 -2.217 -2.259 -2.249 -2.222 -2.122 -2.292 -2.339 -2.184 -2.239 -2.352 -2.314 -2.244 -2.242 -2.282 -2.284 -2.214 -2.144 -2.202 -2.317 -2.219 -2.189 -2.252 -2.219 -2.224 -2.319 -2.187 -2.189 -2.164 -2.277 -2.199 -2.217 -2.277 -2.262 -2.259 -2.262 -2.172 -2.297 -2.257 -2.244 -2.254 -2.212 -2.184 -2.267 -2.357 -2.319 -2.202 -2.162 -2.164 -2.194 -2.182 -2.299 -2.284 -2.264 -2.217 -2.242 -2.294 -2.262 -2.154 -9999 -9999 -9999 -9999 -2.342 -2.214 -2.289 -2.262 -2.257 -2.252 -2.334 -2.394 -9999 -2.267 -2.237 -2.207 -2.237 -2.264 -2.254 -2.222 -2.194 -2.127 -2.179 -2.274 -2.304 -2.259 -2.272 -2.262 -2.157 -2.182 -2.199 -2.214 -2.237 -2.297 -2.269 -2.309 -2.277 -2.282 -2.239 -2.239 -2.324 -2.207 -2.194 -2.192 -2.272 -2.247 -2.314 -2.274 -2.272 -2.224 -2.312 -2.414 -2.299 -2.207 -2.242 -2.127 -2.149 -2.249 -2.162 -2.192 -2.189 -2.164 -2.189 -2.227 -2.227 -2.262 -2.189 -2.217 -2.154 -2.109 -2.134 -2.127 -2.242 -2.237 -2.292 -2.192 -2.177 -2.164 -2.237 -2.277 -2.142 -2.229 -2.257 -2.204 -2.157 -2.194 -2.184 -2.219 -2.187 -2.122 -2.232 -2.152 -2.162 -2.167 -2.159 -2.197 -2.194 -2.202 -2.307 -2.217 -2.217 -2.234 -2.177
2.085 2.083 1.922 1.645 1.434 1.225 0.93 0.748 0.592 0.419 0.346 0.193 0.161 0.182 0.184 0.035 -0.291 -0.581 -0.855 -1.14 -1.394 -1.498 -1.758 -1.902 -1.922 -1.848 -1.596 -1.365 -1.542 -1.827 -1.895 -2.207 -2.284 -2.244 -2.234 -2.222 -2.264 -1.926 -1.649 -1.308 -1.027 -1.353 -1.635 -1.914 -2.227 -2.227 -2.259 -2.189 -2.222 -2.219 -1.916 -2.179 -2.229 -2.264 -2.204 -1.911 -2.222 -2.184 -2.194 -2.277 -1.931 -1.911 -1.97 -2.239 -2.212 -2.187 -2.257 -2.269 -2.267 -2.254 -2.257 -2.249 -2.217 -2.219 -2.344 -2.329 -2.282 -2.234 -2.249 -2.274 -2.247 -2.237 -2.224 -2.194 -2.202 -2.144 -2.202 -2.327 -2.254 -2.189 -2.229 -2.217 -2.229 -2.252 -2.232 -2.192 -2.222 -2.189 -2.249 -2.209 -2.232 -2.269 -2.234 -2.252 -2.272 -2.277 -2.264 -2.149 -2.159 -2.259 -2.244 -2.242 -2.249 -2.294 -2.274 -2.229 -2.212 -2.244 -2.212 -2.177 -2.124 -2.244 -2.217 -2.212 -2.189 -2.247 -2.232 -2.194 -2.304 -2.237 -2.167 -2.222 -2.152 -2.164 -2.272 -2.199 -2.187 -2.207 -2.249 -2.269 -2.134 -2.197 -2.257 -2.219 -2.204 -2.247 -2.267 -2.274 -2.169 -2.277 -2.259 -2.202 -2.307 -2.232 -2.207 -2.279 -2.287 -2.272 -2.184 -2.207 -2.242 -2.229 -2.214 -2.242 -2.282 -2.234 -2.152 -2.247 -2.294 -2.229 -2.192 -2.212 -2.162 -2.239 -2.239 -2.289 -2.154 -2.242 -2.217 -2.144 -2.229 -2.277 -2.222 -2.182 -2.209 -2.214 -2.227 -2.229 -2.234 -2.207 -2.159 -2.237 -2.204 -2.219 -2.259 -2.182 -2.259 -2.212 -2.174 -2.194 -2.217 -2.267 -2.237 -2.284 -2.227 -2.239 -2.302 -2.244 -2.192 -2.244 -2.192 -2.177 -2.172 -2.237 -2.202 -2.234 -2.232 -2.197 -2.294 -2.294 -2.129 -2.189 -2.257 -2.214 -2.184 -2.239 -2.174 -2.227 -2.264 -2.217 -2.279 -2.324 -2.289 -2.222 -2.237 -2.289 -2.222 -2.224 -2.207 -2.212 -2.317 -2.259 -2.194 -2.227 -2.222 -2.194 -2.297 -2.284 -2.292 -2.272 -2.052 -2.149 -2.104 -2.154 -2.224 -2.269 -2.339 -2.392 -2.229 -2.197 -2.217 -2.257 -2.287 -2.207 -2.132 -2.092 -2.082 -2.174 -2.167 -2.262 -2.314 -2.254 -2.244 -2.277 -2.269 -2.224 -2.194 -2.177 -2.234 -2.144 -2.259 -2.284 -2.317 -2.237 -2.309 -2.329 -2.234 -2.267 -2.269 -2.214 -2.172 -2.212 -2.209 -2.282 -2.177 -2.149 -2.242 -2.269 -2.259 -2.292 -2.244 -2.274 -2.249 -2.294 -2.287 -2.252 -2.157 -2.212 -2.179 -2.252 -2.209 -2.199 -2.262 -2.319 -2.274 -2.284 -2.262 -2.317 -2.257 -2.234 -2.204 -2.319 -2.352 -2.312 -2.242 -2.204 -2.184 -2.254 -2.179 -2.249 -2.287 -2.312 -2.264 -2.219 -2.277 -2.284 -2.167 -2.149 -9999 -9999 -2.252 -2.292 -2.279 -2.299 -2.234 -2.197 -2.214 -2.262 -2.317 -2.327 -2.279 -2.244 -2.319 -2.247 -2.204 -2.197 -2.224 -2.164 -9999 -2.117 -2.167 -2.134 -2.174 -2.257 -2.252 -2.177 -2.189 -2.207 -2.222 -2.232 -2.269 -2.282 -2.262 -2.242 -2.167 -2.199 -2.249 -2.272 -2.147 -2.157 -2.279 -2.314 -2.259 -2.269 -2.249 -2.262 -2.287 -2.289 -2.277 -2.292 -2.269 -2.237 -2.184 -2.154 -2.222 -2.212 -2.222 -2.212 -2.164 -2.222 -2.217 -2.194 -2.222 -2.232 -2.207 -2.134 -2.174 -2.209 -2.247 -2.247 -2.127 -2.169 -2.119 -2.214 -2.137 -2.147 -2.209 -2.169 -2.239 -2.227 -2.167 -2.219 -2.197 -2.192 -2.144 -2.272 -2.234 -2.182 -2.104 -2.179 -2.217 -2.084 -2.179 -2.257 -2.249 -2.229 -2.232 -2.257 -2.222 -2.132
2.232 1.947 1.703 1.491 1.267 1.042 0.732 0.559 0.367 0.164 0.053 -0.129 -0.031 -0.086 -0.134 -0.154 -0.416 -0.699 -0.944 -1.287 -1.618 -1.795 -1.888 -1.875 -1.901 -1.801 -1.55 -1.326 -1.601 -1.984 -2.234 -2.184 -2.197 -1.965 -1.958 -1.884 -1.948 -1.876 -1.621 -1.418 -1.393 -1.335 -1.524 -1.755 -1.917 -2.194 -1.97 -1.924 -2.182 -1.979 -1.807 -1.839 -2.234 -2.304 -2.144 -1.838 -2.244 -2.194 -2.264 -2.287 -1.947 -2.117 -2.179 -2.274 -2.242 -2.167 -2.222 -2.239 -1.9 -2.247 -2.252 -2.259 -2.259 -2.242 -2.269 -2.264 -2.257 -2.239 -2.274 -2.329 -2.219 -2.202 -2.182 -2.237 -2.287 -2.202 -2.277 -2.317 -2.222 -2.182 -2.299 -2.209 -2.232 -2.199 -2.237 -2.252 -2.224 -2.234 -2.237 -2.269 -2.202 -2.209 -2.299 -2.297 -2.194 -2.212 -2.199 -2.129 -2.209 -2.289 -2.222 -2.209 -2.199 -2.207 -2.262 -2.259 -2.242 -2.239 -2.169 -2.179 -2.199 -2.222 -2.212 -2.164 -2.214 -2.234 -2.244 -2.232 -2.249 -2.279 -2.144 -2.209 -2.229 -2.162 -2.249 -2.247 -2.184 -2.227 -2.329 -2.242 -2.197 -2.159 -2.227 -2.232 -2.152 -2.219 -2.227 -2.267 -2.229 -2.279 -2.257 -2.204 -2.304 -2.304 -2.232 -2.252 -2.244 -2.244 -2.229 -2.219 -2.237 -2.229 -2.252 -2.252 -2.284 -2.247 -2.279 -2.302 -2.204 -2.229 -2.214 -2.189 -2.179 -2.204 -2.257 -2.239 -2.194 -2.297 -2.277 -2.199 -2.217 -2.264 -2.292 -2.189 -2.204 -2.212 -2.194 -2.239 -2.159 -2.182 -2.202 -2.247 -2.232 -2.232 -2.247 -2.214 -2.277 -2.264 -2.224 -2.239 -2.289 -2.217 -2.247 -2.272 -2.259 -2.319 -2.282 -2.202 -2.229 -2.207 -2.139 -2.169 -2.229 -2.227 -2.152 -2.267 -2.254 -2.197 -2.314 -2.339 -2.182 -2.219 -2.219 -2.202 -2.214 -2.217 -2.164 -2.269 -2.267 -2.219 -2.237 -2.309 -2.262 -2.237 -2.234 -2.247 -2.182 -2.272 -2.224 -2.202 -2.257 -2.249 -2.244 -2.237 -2.209 -2.222 -2.284 -2.294 -2.279 -2.277 -2.144 -2.209 -2.194 -2.192 -2.232 -2.262 -2.192 -2.274 -2.214 -2.239 -2.237 -2.292 -2.324 -2.234 -2.224 -2.192 -2.244 -2.234 -2.172 -2.207 -2.262 -2.252 -2.304 -2.384 -2.227 -2.197 -2.169 -2.197 -2.194 -2.174 -2.249 -2.217 -2.287 -2.319 -2.299 -2.287 -2.204 -2.167 -2.209 -2.317 -2.257 -2.264 -2.199 -2.262 -2.222 -2.219 -2.289 -2.189 -2.259 -2.257 -2.204 -2.167 -2.219 -2.299 -2.304 -2.229 -2.142 -2.199 -2.254 -2.267 -2.212 -2.174 -2.347 -2.397 -2.279 -2.219 -2.252 -2.324 -2.239 -2.202 -2.297 -2.244 -2.217 -2.179 -2.147 -2.204 -2.182 -2.254 -2.252 -2.219 -2.224 -2.224 -2.262 -2.272 -2.284 -2.262 -2.164 -2.172 -2.224 -2.254 -2.239 -2.254 -2.297 -2.289 -2.184 -2.202 -2.219 -2.189 -2.252 -2.279 -2.247 -2.227 -2.237 -2.274 -2.217 -2.234 -2.249 -2.212 -9999 -9999 -2.219 -2.159 -2.144 -2.274 -2.269 -2.257 -2.189 -2.194 -2.232 -2.282 -2.269 -2.212 -2.229 -2.239 -2.164 -2.177 -2.182 -2.199 -2.189 -2.159 -2.267 -2.357 -2.247 -2.252 -2.232 -2.229 -2.227 -2.207 -2.309 -2.294 -2.317 -2.239 -2.297 -2.109 -2.179 -2.172 -2.262 -2.264 -2.222 -2.204 -2.254 -2.162 -2.122 -2.212 -2.144 -2.182 -2.234 -2.097 -2.267 -2.187 -2.167 -2.169 -2.202 -2.277 -2.142 -2.219 -2.237 -2.172 -2.227 -2.172 -2.164 -2.152 -2.234 -2.189 -2.172 -2.249 -2.284 -2.229 -2.149 -2.134 -2.239 -2.142 -2.139 -2.172 -2.269 -2.174 -2.189 -2.247 -2.239 -2.164
2.064 1.837 1.584 1.366 1.083 0.777 0.529 0.311 0.071 -0.06 -0.246 -0.34 -0.335 -0.385 -0.435 -0.449 -0.437 -0.675 -0.95 -1.29 -1.606 -1.899 -2.237 -2.204 -2.182 -1.887 -1.627 -1.331 -1.541 -1.815 -1.907 -1.873 -1.921 -1.822 -1.88 -1.925 -1.941 -1.99 -1.814 -1.645 -1.672 -1.581 -1.53 -1.835 -1.916 -1.907 -1.8 -1.807 -1.932 -1.779 -1.83 -1.95 -2.229 -2.297 -1.895 -1.913 -1.995 -2.152 -2.209 -2.279 -2.234 -2.229 -2.259 -2.327 -2.164 -2.207 -2.229 -2.202 -1.869 -1.92 -2.179 -2.204 -2.242 -2.239 -2.252 -2.314 -2.274 -2.264 -2.224 -2.005 -1.976 -2.162 -2.262 -2.272 -2.232 -2.224 -2.247 -2.297 -2.227 -2.194 -2.237 -2.244 -2.354 -2.217 -2.124 -2.282 -2.197 -2.237 -2.244 -2.259 -2.219 -2.204 -2.297 -2.304 -2.139 -2.254 -2.227 -2.159 -2.157 -2.262 -2.207 -2.232 -2.177 -2.244 -2.262 -2.222 -2.279 -2.219 -2.252 -2.182 -2.214 -2.179 -2.232 -2.157 -2.234 -2.244 -2.209 -2.309 -2.252 -2.277 -2.217 -2.167 -2.179 -2.202 -2.194 -2.252 -2.192 -2.237 -2.312 -2.217 -2.184 -2.227 -2.184 -2.234 -2.252 -2.189 -2.184 -2.219 -2.262 -2.297 -2.237 -2.269 -2.334 -2.312 -2.222 -2.194 -2.249 -2.192 -2.224 -2.244 -2.197 -2.202 -2.229 -2.264 -2.167 -2.234 -2.312 -2.219 -2.184 -2.252 -2.224 -2.249 -2.209 -2.204 -2.307 -2.217 -2.159 -2.204 -2.309 -2.154 -2.202 -2.314 -2.297 -2.117 -2.202 -2.224 -2.222 -2.204 -2.144 -2.162 -2.277 -2.274 -2.214 -2.197 -2.229 -2.197 -2.222 -2.267 -2.222 -2.219 -2.237 -2.249 -2.232 -2.254 -2.262 -2.302 -2.314 -2.247 -2.269 -2.222 -2.209 -2.212 -2.229 -2.224 -2.229 -2.229 -2.297 -2.199 -2.267 -2.262 -2.224 -2.302 -2.189 -2.164 -2.232 -2.154 -2.182 -2.259 -2.269 -2.269 -2.242 -2.279 -2.207 -2.219 -2.317 -2.239 -2.177 -2.212 -2.187 -2.222 -2.274 -2.219 -2.259 -2.212 -2.139 -2.254 -2.294 -2.204 -2.294 -2.299 -2.154 -2.202 -2.197 -2.169 -2.222 -2.192 -2.254 -2.222 -2.259 -2.257 -2.247 -2.264 -2.292 -2.312 -2.214 -2.277 -2.294 -2.204 -2.142 -2.239 -2.164 -2.162 -2.254 -2.224 -2.237 -2.149 -2.259 -2.294 -2.179 -2.132 -2.252 -2.279 -2.234 -2.214 -2.242 -2.262 -2.247 -2.207 -2.257 -2.297 -2.254 -2.302 -2.189 -2.209 -2.232 -2.229 -2.229 -2.204 -2.227 -2.169 -2.147 -2.217 -2.292 -2.282 -2.254 -2.202 -2.204 -2.179 -2.219 -2.249 -2.212 -2.189 -2.317 -2.392 -2.312 -2.247 -2.237 -2.309 -2.309 -2.282 -2.319 -2.189 -2.269 -2.287 -2.147 -2.199 -2.237 -2.239 -2.232 -2.212 -2.219 -2.237 -2.252 -2.329 -2.224 -2.272 -2.227 -2.189 -2.224 -2.214 -2.224 -2.229 -2.217 -2.214 -2.139 -2.192 -2.282 -2.232 -2.177 -2.267 -2.332 -2.257 -2.247 -2.267 -2.279 -2.172 -2.269 -2.239 -2.204 -2.247 -2.247 -2.262 -2.274 -2.259 -2.254 -2.227 -2.244 -2.207 -2.214 -2.244 -2.227 -2.287 -2.212 -2.202 -2.189 -2.167 -2.287 -2.219 -2.187 -2.224 -2.227 -2.247 -2.229 -2.242 -2.307 -2.202 -2.242 -2.269 -2.262 -2.224 -2.309 -2.167 -2.099 -2.144 -2.182 -2.232 -2.224 -2.234 -2.234 -2.257 -2.302 -2.174 -2.247 -2.232 -2.157 -2.167 -2.232 -2.197 -2.192 -2.159 -2.239 -2.169 -2.249 -2.292 -2.204 -2.204 -2.182 -2.177 -2.229 -2.199 -2.197 -2.224 -2.277 -2.209 -2.217 -2.194 -2.234 -2.207 -2.174 -2.194 -2.234 -2.117 -2.152 -2.157 -2.239 -2.214 -2.184 -2.262 -2.262 -2.132
1.902 1.645 1.378 1.178 0.922 0.618 0.386 0.121 -0.157 -0.235 -0.448 -0.679 -0.715 -0.732 -0.737 -0.756 -0.728 -0.763 -1.019 -1.392 -1.638 -1.975 -2.334 -2.227 -2.177 -1.919 -1.663 -1.381 -1.405 -1.543 -1.698 -1.61 -1.556 -1.663 -2.011 -2.247 -2.309 -2.242 -1.888 -2.002 -2.004 -1.871 -1.7 -1.969 -2.274 -2.212 -1.886 -1.606 -1.627 -1.604 -1.86 -2.199 -2.217 -2.284 -2.202 -2.284 -2.247 -2.247 -2.284 -2.242 -2.284 -2.234 -2.264 -2.199 -2.157 -2.204 -2.259 -2.254 -2.134 -1.914 -2.234 -1.905 -1.943 -2.199 -2.267 -2.304 -2.309 -2.237 -2.202 -1.998 -2.242 -2.209 -2.309 -2.239 -2.234 -2.212 -1.916 -2.249 -2.282 -2.257 -2.214 -2.212 -2.322 -2.232 -2.234 -2.287 -2.267 -2.217 -2.224 -2.219 -2.212 -2.222 -2.254 -2.292 -2.214 -2.259 -2.232 -2.229 -2.169 -2.247 -2.169 -2.232 -2.219 -2.242 -2.247 -2.262 -2.294 -2.244 -2.157 -2.237 -2.239 -2.144 -2.142 -2.177 -2.282 -2.204 -2.234 -2.279 -2.274 -2.199 -2.229 -2.189 -2.249 -2.207 -2.142 -2.224 -2.242 -2.197 -2.317 -2.227 -2.209 -2.252 -2.197 -2.207 -2.257 -2.212 -2.194 -2.272 -2.272 -2.267 -2.207 -2.247 -2.249 -2.232 -2.202 -2.264 -2.234 -2.217 -2.179 -2.297 -2.239 -2.189 -2.244 -2.254 -2.152 -2.227 -2.349 -2.197 -2.192 -2.274 -2.214 -2.197 -2.207 -2.202 -2.222 -2.192 -2.154 -2.247 -2.259 -2.184 -2.162 -2.289 -2.224 -2.182 -2.177 -2.217 -2.259 -2.184 -2.167 -2.282 -2.327 -2.257 -2.224 -2.172 -2.252 -2.169 -2.207 -2.259 -2.199 -2.132 -2.242 -2.257 -2.212 -2.257 -2.304 -2.232 -2.237 -2.299 -2.282 -2.217 -2.202 -2.169 -2.164 -2.177 -2.209 -2.267 -2.207 -2.239 -2.279 -2.187 -2.232 -2.257 -2.189 -2.197 -2.259 -2.207 -2.109 -2.187 -2.219 -2.287 -2.199 -2.262 -2.259 -2.162 -2.237 -2.204 -2.169 -2.247 -2.192 -2.177 -2.162 -2.207 -2.177 -2.257 -2.217 -2.269 -2.277 -2.257 -2.259 -2.297 -2.244 -2.224 -2.187 -2.172 -2.219 -2.177 -2.239 -2.212 -2.247 -2.262 -2.254 -2.197 -2.137 -2.319 -2.234 -2.114 -2.249 -2.277 -2.242 -2.267 -2.167 -2.097 -2.217 -2.214 -2.274 -2.239 -2.189 -2.252 -2.254 -2.194 -2.284 -2.272 -2.277 -2.199 -2.224 -2.232 -2.237 -2.232 -2.239 -2.302 -2.257 -2.264 -2.129 -2.234 -2.259 -2.197 -2.244 -2.232 -2.177 -2.177 -2.242 -2.282 -2.262 -2.237 -2.219 -2.239 -2.269 -2.182 -2.167 -2.229 -2.174 -2.227 -2.299 -2.292 -2.294 -2.304 -2.252 -2.244 -2.119 -2.264 -2.294 -2.184 -2.327 -2.329 -2.254 -2.272 -2.257 -2.257 -2.267 -2.204 -2.197 -2.237 -2.217 -2.259 -2.257 -2.299 -2.264 -2.169 -2.262 -2.237 -2.202 -2.189 -2.199 -2.299 -2.197 -2.167 -2.262 -2.207 -2.224 -2.252 -2.359 -2.299 -2.214 -2.254 -2.352 -2.222 -2.242 -2.302 -2.232 -2.219 -2.212 -2.262 -2.279 -2.227 -2.297 -2.277 -2.259 -2.272 -2.259 -2.259 -2.182 -2.217 -2.264 -2.259 -2.302 -2.352 -2.262 -2.219 -2.237 -2.269 -2.177 -2.169 -2.307 -2.347 -2.272 -2.137 -2.212 -2.259 -2.304 -2.189 -2.202 -2.219 -2.249 -2.272 -2.172 -2.262 -2.227 -2.179 -2.257 -2.312 -2.172 -2.182 -2.282 -2.267 -2.264 -2.229 -2.269 -2.217 -2.184 -2.217 -2.282 -2.124 -2.177 -2.207 -2.154 -2.262 -2.207 -2.184 -2.227 -2.249 -2.244 -2.177 -2.214 -2.269 -2.209 -2.157 -2.167 -2.199 -2.237 -2.229 -2.269 -2.099 -2.127 -2.202 -2.237 -2.257 -2.157 -2.217 -2.242 -2.232
1.813 1.531 1.29 1.062 0.801 0.512 0.239 -0.036 -0.362 -0.482 -0.698 -0.903 -0.967 -1.079 -1.044 -1.04 -0.976 -0.895 -1.02 -1.364 -1.609 -1.951 -2.287 -2.222 -2.227 -1.889 -1.599 -1.285 -1.106 -1.276 -1.393 -1.355 -1.309 -1.621 -1.95 -2.269 -2.292 -2.224 -1.94 -2.267 -2.319 -2.237 -1.896 -1.896 -2.257 -2.287 -1.948 -1.784 -1.568 -1.588 -1.933 -2.232 -2.239 -2.279 -2.102 -1.926 -2.232 -2.262 -2.212 -2.234 -2.259 -2.257 -2.187 -2.184 -2.227 -2.222 -2.254 -2.257 -2.164 -2.212 -2.179 -1.958 -1.924 -2.202 -2.284 -2.239 -2.204 -2.182 -2.249 -2.287 -2.202 -1.923 -2.262 -2.282 -2.169 -2.232 -2.282 -2.224 -2.247 -2.234 -2.187 -2.332 -2.279 -2.197 -2.222 -2.224 -2.222 -2.217 -2.242 -2.279 -2.184 -2.264 -2.217 -2.242 -2.264 -2.252 -2.234 -2.269 -2.274 -2.217 -2.204 -2.194 -2.267 -2.214 -2.122 -2.289 -2.284 -2.269 -2.174 -2.182 -2.232 -2.149 -2.172 -2.192 -2.239 -2.234 -2.247 -2.297 -2.309 -2.252 -2.207 -2.184 -2.217 -2.214 -2.154 -2.229 -2.279 -2.167 -2.262 -2.222 -2.194 -2.262 -2.207 -2.202 -2.232 -2.239 -2.177 -2.182 -2.229 -2.269 -2.134 -2.234 -2.324 -2.259 -2.224 -2.269 -2.267 -2.209 -2.172 -2.247 -2.214 -2.219 -2.282 -2.239 -2.219 -2.202 -2.292 -2.169 -2.242 -2.292 -2.272 -2.204 -2.179 -2.227 -2.227 -2.179 -2.179 -2.234 -2.277 -2.202 -2.177 -2.294 -2.227 -2.277 -2.192 -2.234 -2.262 -2.239 -2.167 -2.192 -2.334 -2.262 -2.242 -2.192 -2.282 -2.232 -2.197 -2.244 -2.214 -2.107 -2.292 -2.277 -2.197 -2.229 -2.247 -2.217 -2.204 -2.279 -2.247 -2.204 -2.224 -2.137 -2.162 -2.169 -2.139 -2.242 -2.202 -2.252 -2.272 -2.227 -2.329 -2.307 -2.207 -2.149 -2.202 -2.187 -2.207 -2.182 -2.252 -2.312 -2.232 -2.279 -2.239 -2.317 -2.279 -2.229 -2.147 -2.254 -2.219 -2.289 -2.204 -2.242 -2.199 -2.277 -2.252 -2.254 -2.274 -2.302 -2.272 -2.289 -2.259 -2.219 -2.169 -2.164 -2.212 -2.129 -2.232 -2.244 -2.242 -2.264 -2.257 -2.207 -2.187 -2.259 -2.254 -2.214 -2.292 -2.289 -2.242 -2.289 -2.239 -2.202 -2.152 -2.257 -2.319 -2.274 -2.202 -2.219 -2.214 -2.194 -2.222 -2.259 -2.329 -2.259 -2.244 -2.207 -2.182 -2.179 -2.177 -2.197 -2.184 -2.199 -2.187 -2.224 -2.317 -2.194 -2.204 -2.229 -2.252 -2.227 -2.189 -2.262 -2.257 -2.209 -2.277 -2.232 -2.234 -2.127 -2.207 -2.234 -2.152 -2.279 -2.257 -2.234 -2.257 -2.259 -2.217 -2.234 -2.219 -2.232 -2.224 -2.234 -2.307 -2.282 -2.222 -2.192 -2.259 -2.272 -2.227 -2.224 -2.222 -2.219 -2.189 -2.184 -2.219 -2.269 -2.294 -2.319 -2.224 -2.187 -2.182 -2.172 -2.182 -2.314 -2.307 -2.249 -2.292 -2.234 -2.224 -2.252 -2.254 -2.239 -2.182 -2.212 -2.304 -2.297 -2.229 -2.297 -2.274 -2.222 -2.227 -2.212 -2.212 -2.232 -2.339 -2.289 -2.279 -2.329 -2.347 -2.237 -2.207 -2.204 -2.244 -2.212 -2.317 -2.329 -2.274 -2.259 -2.277 -2.292 -2.229 -2.217 -2.167 -2.232 -2.207 -2.137 -2.179 -2.364 -2.332 -2.207 -2.192 -2.189 -2.289 -2.264 -2.229 -2.242 -2.214 -2.197 -2.207 -2.267 -2.214 -2.192 -2.252 -2.224 -2.227 -9999 -9999 -2.187 -2.182 -2.129 -2.157 -2.157 -2.184 -2.207 -2.244 -2.209 -2.232 -2.192 -2.139 -2.179 -2.207 -2.177 -2.239 -2.259 -2.182 -2.222 -2.204 -2.227 -2.209 -2.177 -2.239 -2.204 -2.269 -2.184 -2.244 -2.252 -2.197 -2.194 -2.182 -2.242
1.736 1.42 1.228 0.956 0.661 0.507 0.188 -0.202 -0.517 -0.731 -0.969 -1.114 -1.22 -1.388 -1.367 -1.337 -1.266 -1.143 -1.026 -1.214 -1.596 -1.841 -1.892 -2.244 -2.219 -1.81 -1.656 -1.321 -1.23 -1.402 -1.445 -1.362 -1.31 -1.541 -1.81 -1.966 -2.214 -1.934 -2.259 -2.239 -2.262 -2.254 -1.948 -1.911 -2.237 -2.244 -2.234 -1.933 -1.887 -1.73 -1.917 -2.204 -2.184 -2.219 -1.933 -1.954 -2.229 -2.242 -2.237 -2.232 -2.289 -2.249 -2.189 -2.157 -2.239 -2.179 -2.189 -2.302 -2.199 -2.189 -1.863 -2.204 -2.199 -2.209 -2.232 -2.279 -2.209 -2.179 -2.299 -2.257 -2.219 -2.182 -1.979 -2.289 -2.149 -2.274 -2.272 -2.249 -2.242 -2.264 -2.232 -2.349 -2.234 -2.282 -2.252 -2.219 -2.192 -2.234 -2.234 -2.322 -2.237 -2.257 -2.247 -2.242 -2.199 -2.284 -2.164 -2.252 -2.217 -2.229 -2.249 -2.179 -2.227 -2.234 -2.184 -2.257 -2.279 -2.257 -2.167 -2.214 -2.234 -2.189 -2.189 -2.207 -2.164 -2.217 -2.199 -2.264 -2.269 -2.202 -2.252 -2.254 -2.214 -2.209 -2.144 -2.257 -2.244 -2.202 -2.219 -2.247 -2.234 -2.252 -2.199 -2.204 -2.209 -2.247 -2.182 -2.254 -2.209 -2.264 -2.242 -2.197 -2.279 -2.229 -2.199 -2.309 -2.239 -2.204 -2.269 -2.282 -2.214 -2.282 -2.247 -2.239 -2.204 -2.194 -2.287 -2.184 -2.207 -2.229 -2.242 -2.202 -2.144 -2.309 -2.287 -2.192 -2.174 -2.187 -2.294 -2.242 -2.197 -2.284 -2.292 -2.232 -2.214 -2.214 -2.262 -2.257 -2.219 -2.179 -2.197 -2.284 -2.227 -2.192 -2.292 -2.179 -2.157 -2.224 -2.254 -2.139 -2.242 -2.322 -2.164 -2.219 -2.312 -2.177 -2.212 -2.264 -2.252 -2.229 -2.227 -2.164 -2.174 -2.192 -2.244 -2.227 -2.214 -2.304 -2.174 -2.187 -2.187 -2.314 -2.229 -2.157 -2.174 -2.202 -2.242 -2.182 -2.227 -2.289 -2.224 -2.217 -2.249 -2.357 -2.297 -2.222 -2.199 -2.204 -2.227 -2.149 -2.212 -2.219 -2.222 -2.217 -2.229 -2.217 -2.227 -2.317 -2.317 -2.289 -2.242 -2.234 -2.192 -2.162 -2.162 -2.142 -2.267 -2.197 -2.269 -2.247 -2.292 -2.284 -2.212 -2.312 -2.239 -2.199 -2.229 -2.222 -2.174 -2.197 -2.169 -2.234 -2.219 -2.254 -2.279 -2.247 -2.194 -2.282 -2.194 -2.259 -2.239 -2.239 -2.292 -2.277 -2.212 -2.172 -2.204 -2.179 -2.189 -2.197 -2.279 -2.149 -2.204 -2.254 -2.234 -2.214 -2.159 -2.197 -2.152 -2.217 -2.182 -2.297 -2.269 -2.189 -2.289 -2.214 -2.252 -2.179 -2.247 -2.254 -2.229 -2.217 -2.257 -2.187 -2.277 -2.272 -2.214 -2.294 -2.269 -2.252 -2.219 -2.272 -2.227 -2.222 -2.219 -2.199 -2.299 -2.279 -2.249 -2.267 -2.277 -2.172 -2.242 -2.264 -2.209 -2.287 -2.217 -2.279 -2.247 -2.182 -2.232 -2.247 -2.187 -2.319 -2.344 -2.282 -2.237 -2.194 -2.252 -2.309 -2.264 -2.262 -2.222 -2.224 -2.269 -2.247 -2.194 -2.249 -2.234 -2.264 -2.307 -2.264 -2.147 -2.249 -2.289 -2.284 -2.284 -2.327 -2.254 -2.242 -2.237 -2.242 -2.179 -2.164 -2.264 -2.249 -2.169 -2.284 -2.224 -2.242 -2.214 -2.177 -2.207 -2.232 -2.204 -2.234 -2.199 -2.292 -2.227 -2.277 -2.214 -2.137 -2.207 -2.219 -2.129 -2.144 -2.194 -2.192 -2.199 -2.257 -2.239 -2.222 -2.174 -2.257 -2.219 -9999 -9999 -2.292 -2.224 -2.172 -2.187 -2.149 -2.219 -2.277 -2.297 -2.204 -2.157 -2.137 -2.187 -2.177 -2.204 -2.139 -2.207 -2.217 -2.242 -2.259 -2.274 -2.224 -2.219 -2.242 -2.257 -2.214 -2.207 -2.239 -2.189 -2.294 -2.257 -2.132 -2.219 -2.212
1.682 1.441 1.183 0.951 0.608 0.354 -0.008 -0.327 -0.623 -0.878 -1.147 -1.394 -1.5 -1.666 -1.764 -1.633 -1.555 -1.364 -1.338 -1.2 -1.378 -1.622 -1.713 -1.911 -1.956 -1.774 -1.633 -1.403 -1.597 -1.635 -1.61 -1.564 -1.396 -1.333 -1.551 -1.812 -1.92 -1.877 -2.237 -2.229 -2.254 -2.259 -2.264 -1.921 -2.124 -2.224 -2.227 -2.274 -2.187 -1.905 -1.981 -2.267 -2.212 -2.252 -2.282 -2.234 -1.89 -1.903 -1.951 -1.945 -1.94 -2.212 -2.222 -2.162 -2.282 -2.262 -2.189 -2.197 -1.891 -1.886 -2.142 -2.219 -2.264 -2.242 -2.267 -2.299 -2.184 -2.194 -2.297 -2.297 -2.197 -2.157 -2.289 -2.262 -2.254 -2.289 -2.274 -2.247 -2.242 -2.189 -2.207 -2.249 -2.217 -2.217 -2.257 -2.274 -2.202 -2.249 -2.217 -2.257 -2.219 -2.202 -2.267 -2.237 -2.264 -2.282 -2.222 -2.219 -2.242 -2.259 -2.204 -2.212 -2.237 -2.247 -2.252 -2.209 -2.272 -2.264 -2.254 -2.227 -2.219 -2.192 -2.244 -2.254 -2.164 -2.229 -2.219 -2.227 -2.209 -2.177 -2.244 -2.222 -2.207 -2.282 -2.147 -2.197 -2.222 -2.187 -2.177 -2.274 -2.194 -2.254 -2.209 -2.189 -2.247 -2.234 -2.209 -2.229 -2.212 -2.272 -2.217 -2.269 -2.289 -2.239 -2.192 -2.262 -2.297 -2.249 -2.229 -2.269 -2.147 -2.214 -2.247 -2.267 -2.229 -2.232 -2.164 -2.179 -2.209 -2.249 -2.192 -2.167 -2.212 -2.267 -2.262 -2.229 -2.184 -2.194 -2.289 -2.194 -2.242 -2.277 -2.287 -2.212 -2.277 -2.242 -2.229 -2.232 -2.192 -2.187 -2.212 -2.252 -2.282 -2.204 -2.229 -2.229 -2.239 -2.207 -2.229 -2.169 -2.274 -2.272 -2.157 -2.227 -2.279 -2.222 -2.222 -2.247 -2.274 -2.227 -2.162 -2.134 -2.144 -2.194 -2.237 -2.174 -2.177 -2.224 -2.229 -2.217 -2.132 -2.332 -2.259 -2.199 -2.177 -2.207 -2.172 -2.127 -2.147 -2.247 -2.294 -2.189 -2.217 -2.257 -2.222 -2.262 -2.229 -2.282 -2.249 -2.199 -2.304 -2.179 -2.192 -2.197 -2.152 -2.184 -2.169 -2.242 -2.272 -2.289 -2.272 -2.244 -2.279 -2.249 -2.142 -2.189 -2.314 -2.157 -2.159 -2.309 -2.314 -2.267 -2.214 -2.362 -2.217 -2.142 -2.117 -2.207 -2.222 -2.214 -2.244 -2.164 -2.254 -2.267 -2.277 -2.282 -2.264 -2.314 -2.297 -2.319 -2.222 -2.212 -2.252 -2.287 -2.287 -2.239 -2.252 -2.272 -2.242 -2.272 -2.252 -2.217 -2.264 -2.204 -2.247 -2.237 -2.207 -2.117 -2.129 -2.184 -2.139 -2.279 -2.289 -2.264 -2.302 -2.252 -2.269 -2.254 -2.234 -2.157 -2.164 -2.192 -2.277 -2.209 -2.242 -2.207 -2.239 -2.202 -2.219 -2.264 -2.284 -2.294 -2.222 -2.259 -2.267 -2.207 -2.277 -2.172 -2.194 -2.247 -2.244 -2.207 -2.242 -2.289 -2.252 -2.219 -2.242 -2.307 -2.214 -2.204 -2.192 -2.217 -2.267 -2.287 -2.269 -2.319 -2.304 -2.237 -2.339 -2.437 -2.254 -2.262 -9999 -9999 -2.244 -2.274 -2.244 -2.202 -2.172 -2.199 -2.212 -2.209 -2.159 -2.354 -2.234 -2.264 -2.284 -2.247 -2.167 -2.232 -2.242 -2.222 -2.252 -2.257 -2.307 -2.257 -2.204 -2.274 -2.247 -2.179 -2.202 -2.222 -2.294 -2.344 -2.184 -2.192 -2.197 -2.252 -2.202 -2.192 -2.199 -2.187 -2.212 -2.234 -2.142 -2.202 -2.237 -2.232 -2.229 -2.242 -2.227 -2.209 -2.179 -2.184 -2.132 -2.179 -2.232 -2.214 -2.297 -2.272 -2.212 -2.272 -2.237 -2.154 -2.239 -2.172 -2.184 -2.207 -2.254 -2.252 -2.152 -2.144 -2.242 -2.247 -2.264 -2.227 -2.357 -2.249 -2.214 -2.252 -2.282 -2.164 -2.254 -2.249 -2.134 -2.247 -2.247 -2.069 -2.184 -2.182
1.786 1.497 1.071 0.757 0.456 0.192 -0.051 -0.333 -0.713 -1.013 -1.255 -1.517 -1.776 -1.976 -2.063 -1.956 -1.799 -1.584 -1.577 -1.546 -1.542 -1.403 -1.478 -1.574 -1.68 -1.554 -1.375 -1.578 -1.86 -1.935 -1.921 -1.849 -1.527 -1.232 -1.352 -1.573 -1.792 -1.839 -2.259 -2.312 -2.264 -2.262 -2.272 -2.239 -1.952 -2.277 -2.232 -2.247 -2.179 -2.169 -1.887 -1.947 -2.284 -2.299 -2.217 -2.197 -1.884 -1.896 -1.901 -1.965 -2.257 -2.242 -2.227 -2.274 -2.227 -2.222 -2.279 -2.257 -2.244 -2.194 -2.254 -2.199 -2.212 -2.234 -2.257 -2.264 -2.239 -2.217 -2.227 -2.262 -2.184 -2.187 -2.254 -2.229 -2.199 -2.237 -1.946 -2.244 -2.262 -2.202 -2.317 -2.334 -2.262 -2.219 -2.274 -2.244 -2.224 -2.297 -2.222 -2.294 -2.252 -2.254 -2.222 -2.212 -2.249 -2.252 -2.247 -2.192 -2.212 -2.287 -2.264 -2.139 -2.264 -2.279 -2.214 -2.257 -2.227 -2.239 -2.262 -2.194 -2.184 -2.232 -2.269 -2.252 -2.219 -2.232 -2.227 -2.214 -2.182 -2.234 -2.262 -2.219 -2.212 -2.189 -2.194 -2.232 -2.254 -2.199 -2.244 -2.227 -2.222 -2.229 -2.192 -2.134 -2.262 -2.212 -2.237 -2.194 -2.224 -2.199 -2.249 -2.202 -2.219 -2.287 -2.229 -2.207 -2.347 -2.214 -2.244 -2.219 -2.247 -2.289 -2.192 -2.239 -2.249 -2.272 -2.237 -2.199 -2.197 -2.244 -2.249 -2.247 -2.199 -2.194 -2.204 -2.162 -2.167 -2.204 -2.252 -2.194 -2.209 -2.287 -2.259 -2.177 -2.264 -2.282 -2.217 -2.234 -2.157 -2.222 -2.247 -2.207 -2.207 -2.224 -2.252 -2.257 -2.224 -2.174 -2.222 -2.244 -2.182 -2.197 -2.194 -2.187 -2.277 -2.272 -2.209 -2.279 -2.307 -2.274 -2.199 -2.204 -2.194 -2.162 -2.167 -2.094 -2.169 -2.172 -2.174 -2.234 -2.177 -2.359 -2.297 -2.222 -2.219 -2.227 -2.242 -2.212 -2.127 -2.217 -2.314 -2.199 -2.199 -2.267 -2.284 -2.229 -2.174 -2.292 -2.274 -2.227 -2.287 -2.207 -2.209 -2.157 -2.227 -2.199 -2.212 -2.257 -2.289 -2.279 -2.344 -2.219 -2.279 -2.249 -2.147 -2.122 -2.352 -2.202 -2.169 -2.237 -2.352 -2.219 -2.202 -2.312 -2.274 -2.174 -2.222 -2.259 -2.192 -2.207 -2.237 -2.262 -2.199 -2.187 -2.104 -2.202 -2.217 -2.252 -2.232 -2.274 -2.229 -2.207 -2.259 -2.214 -2.302 -2.262 -2.262 -2.269 -2.204 -2.229 -2.244 -2.232 -2.202 -2.284 -2.337 -2.274 -2.209 -2.139 -2.149 -2.204 -2.147 -2.239 -2.322 -2.247 -2.214 -2.274 -2.289 -2.284 -2.262 -2.157 -2.244 -2.269 -2.214 -2.304 -2.287 -2.172 -2.209 -2.299 -2.314 -2.182 -2.219 -2.279 -9999 -9999 -9999 -2.224 -2.254 -2.117 -2.072 -2.194 -2.267 -2.202 -2.274 -2.269 -2.217 -2.212 -2.254 -2.272 -2.174 -2.209 -2.204 -9999 -9999 -2.299 -2.172 -2.184 -2.229 -2.244 -2.322 -2.352 -2.207 -2.197 -9999 -9999 -2.242 -2.257 -2.227 -2.249 -2.207 -2.149 -2.184 -2.249 -2.182 -2.309 -2.207 -2.199 -2.247 -2.254 -2.232 -2.287 -2.212 -2.189 -2.272 -2.292 -2.264 -2.232 -2.279 -2.259 -2.267 -2.234 -2.212 -2.162 -2.232 -2.302 -2.199 -2.344 -2.257 -2.207 -2.242 -2.167 -2.129 -2.144 -2.212 -2.219 -2.177 -2.149 -2.169 -2.157 -2.189 -2.189 -2.272 -2.174 -2.179 -2.234 -2.202 -2.162 -2.277 -2.234 -2.222 -2.239 -2.187 -2.317 -2.332 -2.234 -2.159 -2.147 -2.184 -2.212 -2.277 -2.212 -2.157 -2.202 -2.184 -2.197 -2.192 -2.179 -2.279 -2.222 -2.199 -2.189 -2.154 -2.182 -2.254 -2.262 -2.222 -2.257 -2.244 -2.179 -2.264 -2.287
1.684 1.392 1.094 0.758 0.428 0.178 -0.082 -0.37 -0.661 -1.051 -1.296 -1.593 -1.898 -2.274 -2.272 -2.239 -1.941 -1.898 -1.928 -1.883 -1.803 -1.523 -1.205 -1.273 -1.365 -1.556 -1.601 -1.8 -1.999 -2.279 -2.242 -1.953 -1.635 -1.575 -1.583 -1.786 -1.957 -2.242 -2.229 -2.247 -2.307 -2.257 -2.209 -2.217 -1.94 -2.282 -2.234 -2.234 -2.264 -1.967 -1.834 -1.93 -2.252 -2.264 -2.227 -2.227 -2.227 -2.254 -2.224 -2.294 -2.212 -2.182 -2.222 -2.239 -2.219 -2.234 -2.352 -1.935 -1.931 -1.921 -2.204 -2.232 -2.182 -2.229 -2.187 -2.249 -2.264 -2.189 -2.262 -2.334 -2.244 -2.242 -2.152 -1.924 -1.945 -2.244 -2.252 -2.264 -2.229 -2.224 -2.272 -2.274 -2.302 -2.224 -2.247 -2.214 -2.157 -2.242 -2.269 -2.227 -2.219 -2.277 -2.284 -2.214 -2.259 -2.242 -2.282 -2.199 -2.087 -2.267 -2.237 -2.147 -2.127 -2.164 -2.224 -2.197 -2.224 -2.242 -2.264 -2.187 -2.107 -2.247 -2.262 -2.154 -2.209 -2.242 -2.234 -2.229 -2.209 -2.297 -2.229 -2.227 -2.217 -2.182 -2.222 -2.224 -2.179 -2.167 -2.202 -2.229 -2.204 -2.284 -2.214 -2.164 -2.252 -2.197 -2.172 -2.197 -2.167 -2.204 -2.309 -2.249 -2.197 -2.294 -2.254 -2.207 -2.239 -2.204 -2.212 -2.247 -2.164 -2.319 -2.294 -2.214 -2.264 -2.252 -2.219 -2.219 -2.199 -2.199 -2.247 -2.209 -2.147 -2.239 -2.212 -2.192 -2.197 -2.197 -2.242 -2.182 -2.167 -2.282 -2.269 -2.184 -2.159 -2.237 -2.187 -2.232 -2.194 -2.242 -2.237 -2.179 -2.187 -2.177 -2.252 -2.279 -2.207 -2.204 -2.219 -2.267 -2.224 -2.122 -2.202 -2.232 -2.234 -2.304 -2.242 -2.247 -2.352 -2.287 -2.182 -2.157 -2.199 -2.204 -2.132 -2.164 -2.199 -2.189 -2.152 -2.202 -2.239 -2.254 -2.274 -2.227 -2.239 -2.257 -2.257 -2.227 -2.167 -2.199 -2.274 -2.252 -2.159 -2.239 -2.252 -2.202 -2.262 -2.344 -2.244 -2.209 -2.169 -2.262 -2.257 -2.184 -2.164 -2.229 -2.264 -2.332 -2.282 -2.224 -2.294 -2.304 -2.317 -2.237 -2.179 -2.087 -2.127 -2.217 -2.192 -2.212 -2.247 -2.214 -2.247 -2.337 -2.274 -2.242 -2.247 -2.282 -2.229 -2.172 -2.212 -2.234 -2.182 -2.179 -2.209 -2.292 -2.262 -2.204 -2.274 -2.279 -2.202 -2.204 -2.222 -2.257 -2.262 -2.289 -2.299 -2.252 -2.209 -2.187 -2.267 -2.237 -2.242 -2.337 -2.477 -2.227 -2.169 -2.252 -2.299 -2.187 -2.159 -2.167 -2.289 -2.229 -2.189 -2.337 -2.367 -2.269 -2.222 -2.157 -2.187 -2.222 -2.164 -2.269 -2.217 -2.234 -2.234 -2.232 -2.294 -2.207 -2.242 -2.274 -9999 -9999 -2.297 -2.259 -2.177 -2.174 -2.157 -2.197 -2.264 -2.172 -2.259 -2.229 -2.167 -2.277 -2.342 -2.327 -2.187 -2.172 -2.202 -2.187 -2.307 -2.334 -2.232 -2.212 -2.207 -2.199 -2.242 -2.257 -2.237 -2.222 -2.222 -2.227 -2.262 -2.197 -2.232 -2.269 -2.244 -2.157 -2.217 -2.322 -2.252 -2.247 -2.232 -2.159 -2.287 -2.294 -2.249 -2.274 -2.222 -2.279 -2.324 -2.309 -2.157 -2.237 -2.372 -2.317 -2.174 -2.282 -2.239 -2.129 -2.184 -2.207 -2.257 -2.322 -2.269 -2.262 -2.237 -2.159 -2.102 -2.174 -2.144 -2.162 -2.204 -2.214 -2.217 -2.177 -2.127 -2.142 -2.289 -2.149 -2.174 -2.244 -2.237 -2.214 -2.242 -2.229 -2.192 -2.187 -2.189 -2.244 -2.307 -2.309 -2.219 -2.182 -2.217 -2.267 -2.229 -2.172 -2.212 -2.159 -2.167 -2.287 -2.192 -2.244 -2.179 -2.162 -2.154 -2.232 -2.209 -2.224 -2.267 -2.199 -2.107 -2.214 -2.184 -2.219 -2.279 -2.209
1.662 1.409 1.098 0.83 0.498 0.185 -0.129 -0.374 -0.715 -1.044 -1.263 -1.535 -1.826 -1.939 -1.972 -1.956 -1.919 -2.199 -2.202 -2.259 -1.947 -1.582 -1.209 -1.315 -1.555 -1.803 -1.916 -1.903 -2.257 -2.274 -2.142 -1.924 -1.842 -1.876 -1.865 -1.88 -2.229 -2.197 -2.139 -2.237 -2.287 -1.939 -1.898 -1.969 -1.979 -2.217 -2.257 -2.254 -1.925 -1.82 -1.605 -1.961 -2.252 -2.287 -2.242 -2.277 -1.912 -2.212 -2.159 -2.204 -2.172 -2.172 -2.232 -2.184 -2.187 -2.297 -1.964 -1.898 -1.798 -1.771 -1.911 -1.936 -2.192 -2.189 -2.254 -2.239 -2.174 -2.122 -2.214 -2.264 -2.217 -2.224 -2.192 -2.194 -2.217 -2.249 -2.267 -2.252 -2.184 -2.214 -2.207 -2.257 -2.229 -2.257 -2.247 -2.232 -2.147 -2.202 -2.217 -2.204 -2.222 -2.299 -2.282 -2.232 -2.269 -2.289 -2.257 -2.307 -2.257 -2.209 -2.227 -2.204 -2.217 -2.239 -2.244 -2.194 -2.249 -2.274 -2.317 -2.204 -2.122 -2.247 -2.297 -2.157 -2.227 -2.292 -2.212 -2.184 -2.242 -2.284 -2.164 -2.227 -2.279 -2.182 -2.167 -2.182 -2.207 -2.179 -2.192 -2.234 -2.212 -2.239 -2.184 -2.224 -2.237 -2.219 -2.227 -2.214 -2.219 -2.229 -2.262 -2.224 -2.184 -2.279 -2.259 -2.259 -2.312 -2.259 -2.232 -2.229 -2.222 -2.254 -2.272 -2.222 -2.212 -2.244 -2.217 -2.202 -2.207 -2.204 -2.284 -2.232 -2.172 -2.294 -2.274 -2.199 -2.202 -2.157 -2.227 -2.202 -2.182 -2.309 -2.309 -2.189 -2.132 -2.284 -2.264 -2.204 -2.242 -2.242 -2.209 -2.132 -2.207 -2.222 -2.272 -2.227 -2.202 -2.247 -2.162 -2.197 -2.222 -2.119 -2.167 -2.272 -2.249 -2.269 -2.224 -2.187 -2.354 -2.329 -2.189 -2.244 -2.244 -2.237 -2.157 -2.212 -2.212 -2.219 -2.187 -2.239 -2.174 -2.277 -2.304 -2.242 -2.157 -2.214 -2.254 -2.122 -2.182 -2.242 -2.259 -2.179 -2.199 -2.272 -2.284 -2.194 -2.212 -2.274 -2.199 -2.212 -2.289 -2.277 -2.222 -2.187 -2.122 -2.114 -2.237 -2.234 -2.322 -2.279 -2.267 -2.257 -2.319 -2.339 -2.147 -2.189 -2.267 -2.232 -2.289 -2.319 -2.292 -2.267 -2.252 -2.309 -2.297 -2.252 -2.289 -2.297 -2.244 -2.112 -2.204 -2.229 -2.169 -2.214 -2.279 -2.302 -2.232 -2.227 -2.274 -2.239 -2.204 -2.247 -2.164 -2.234 -2.207 -2.219 -2.232 -2.184 -2.214 -2.227 -2.297 -2.222 -2.182 -2.174 -2.239 -2.242 -2.229 -2.252 -2.282 -2.224 -2.212 -2.217 -2.254 -2.229 -2.327 -2.359 -2.264 -2.234 -2.157 -2.164 -2.169 -2.239 -2.219 -2.219 -2.272 -2.304 -2.327 -2.244 -2.207 -2.227 -2.234 -2.279 -2.169 -2.247 -2.247 -2.292 -2.222 -2.207 -2.219 -2.234 -2.212 -2.174 -2.199 -2.217 -2.222 -2.204 -2.294 -2.327 -2.232 -2.232 -2.334 -2.229 -2.227 -2.227 -2.232 -2.234 -2.224 -2.242 -2.172 -2.217 -2.274 -2.239 -2.212 -2.204 -2.259 -2.142 -2.227 -2.302 -2.274 -2.157 -2.272 -2.192 -2.179 -2.199 -2.279 -2.267 -2.234 -2.204 -2.287 -2.262 -2.194 -2.204 -2.292 -2.259 -2.252 -2.297 -2.277 -2.174 -2.197 -2.319 -2.282 -2.152 -2.182 -2.219 -2.292 -2.322 -9999 -2.26 -2.212 -2.182 -2.227 -2.197 -2.142 -2.147 -2.152 -2.199 -2.272 -2.272 -2.242 -2.157 -2.254 -2.189 -2.102 -2.237 -2.224 -2.234 -2.274 -2.344 -2.252 -2.142 -2.157 -2.252 -2.262 -2.214 -2.242 -2.214 -2.249 -2.242 -2.217 -2.182 -2.164 -2.189 -2.229 -2.249 -2.162 -2.294 -2.177 -2.184 -2.254 -2.229 -2.199 -2.229 -2.187 -2.167 -2.249 -2.299 -2.174 -2.179 -2.184 -2.149
1.747 1.396 1.128 0.856 0.532 0.266 2.386 2.376 -0.581 -0.968 -1.192 -1.326 -1.521 -1.59 -1.605 -1.623 -1.935 -2.319 -2.222 -2.207 -1.965 -1.616 -1.287 -1.54 -1.778 -1.949 -2.269 -2.257 -2.219 -2.239 -2.179 -1.914 -1.959 -2.222 -2.157 -1.863 -2.242 -2.259 -2.189 -2.264 -2.029 -1.863 -1.629 -1.657 -1.816 -1.855 -2.202 -2.242 -1.905 -1.671 -1.616 -1.958 -2.277 -2.249 -2.249 -2.227 -2.284 -2.227 -2.154 -2.222 -2.227 -2.244 -2.194 -2.207 -2.279 -2.279 -2.192 -2.239 -1.928 -1.776 -1.929 -2.254 -1.889 -2.227 -2.309 -2.207 -2.194 -2.182 -2.252 -2.192 -2.229 -2.249 -2.192 -2.219 -2.244 -2.287 -2.219 -2.207 -2.197 -2.209 -2.202 -2.222 -2.292 -2.227 -2.227 -2.332 -2.249 -2.279 -2.262 -2.219 -2.194 -2.299 -2.272 -2.259 -2.274 -2.257 -2.267 -2.217 -2.314 -2.222 -2.234 -2.172 -2.199 -2.277 -2.174 -2.277 -2.294 -2.284 -2.269 -2.222 -2.192 -2.247 -2.289 -2.222 -2.264 -2.362 -2.192 -2.199 -2.309 -2.262 -2.227 -2.237 -2.289 -2.192 -2.119 -2.217 -2.244 -2.172 -2.237 -2.197 -2.199 -2.224 -2.219 -2.234 -2.219 -2.174 -2.262 -2.182 -2.202 -2.197 -2.294 -2.164 -2.227 -2.242 -2.252 -2.229 -2.224 -2.257 -2.204 -2.192 -2.234 -2.197 -2.237 -2.262 -2.234 -2.269 -2.257 -2.204 -2.142 -2.214 -2.159 -2.209 -2.207 -2.277 -2.212 -2.164 -2.172 -2.269 -2.269 -2.219 -2.199 -2.309 -2.279 -2.204 -2.212 -2.279 -2.274 -2.289 -2.234 -2.204 -2.202 -2.172 -2.217 -2.159 -2.247 -2.224 -2.202 -2.249 -2.212 -2.199 -2.162 -2.149 -2.162 -2.227 -2.282 -2.234 -2.194 -2.132 -2.327 -2.334 -2.242 -2.199 -2.262 -2.252 -2.214 -2.229 -2.182 -2.254 -2.269 -2.217 -2.207 -2.194 -2.242 -2.272 -2.164 -2.159 -2.229 -2.184 -2.172 -2.279 -2.267 -2.232 -2.252 -2.269 -2.234 -2.237 -2.294 -2.179 -2.237 -2.314 -2.247 -2.249 -2.204 -2.269 -2.222 -2.092 -2.192 -2.252 -2.232 -2.264 -2.229 -2.217 -2.292 -2.157 -2.249 -2.219 -2.252 -2.232 -2.332 -2.282 -2.232 -2.344 -2.214 -2.264 -2.277 -2.254 -2.312 -2.314 -2.347 -2.159 -2.249 -2.239 -2.174 -2.194 -2.264 -2.269 -2.174 -2.194 -2.254 -2.189 -2.199 -2.262 -2.254 -2.247 -2.202 -2.199 -2.259 -2.277 -2.274 -2.244 -2.284 -2.272 -2.162 -2.184 -2.189 -2.197 -2.217 -2.247 -2.304 -2.197 -2.199 -2.254 -2.222 -2.244 -2.314 -2.264 -2.222 -2.164 -2.209 -2.147 -2.142 -2.282 -2.254 -2.212 -2.217 -2.269 -2.312 -2.207 -2.214 -2.229 -2.239 -2.254 -2.119 -2.204 -2.237 -2.269 -2.217 -2.217 -2.247 -2.234 -2.162 -2.109 -2.157 -2.167 -2.219 -2.202 -2.287 -2.259 -2.207 -2.282 -2.339 -2.219 -2.144 -2.174 -2.152 -2.162 -9999 -2.289 -2.154 -2.242 -2.262 -2.274 -9999 -9999 -9999 -2.277 -2.279 -2.274 -2.312 -2.217 -2.204 -2.239 -2.227 -2.182 -2.342 -2.347 -2.239 -2.264 -2.307 -2.312 -2.187 -2.157 -2.254 -2.297 -2.227 -2.239 -2.287 -2.247 -2.237 -2.239 -2.272 -2.199 -2.219 -2.242 -2.282 -2.264 -9999 -9999 -2.204 -2.172 -2.252 -2.197 -2.187 -2.092 -2.199 -2.212 -2.257 -2.242 -2.232 -2.129 -2.232 -2.189 -2.064 -2.214 -2.202 -2.217 -2.277 -2.292 -2.287 -2.247 -2.159 -2.244 -2.207 -2.112 -2.192 -2.232 -2.182 -2.209 -2.187 -2.184 -2.182 -2.197 -2.374 -2.184 -2.152 -2.262 -2.129 -2.157 -2.222 -2.197 -2.147 -2.222 -2.169 -2.194 -2.254 -2.299 -2.192 -2.204 -2.247 -2.239
1.88 1.488 1.169 0.873 0.652 0.321 0.077 -0.173 -0.411 -0.698 -0.967 -1.071 -1.269 -1.24 -1.32 -1.63 -1.897 -2.179 -2.182 -1.91 -1.717 -1.534 -1.409 -1.645 -1.889 -2.224 -2.324 -2.252 -1.931 -2.299 -1.907 -1.767 -1.936 -2.264 -1.916 -1.855 -2.244 -2.262 -2.179 -1.915 -1.873 -1.597 -1.409 -1.366 -1.576 -1.791 -1.919 -1.958 -1.937 -1.884 -1.944 -1.949 -2.244 -2.259 -2.274 -2.244 -2.242 -2.252 -2.169 -2.147 -2.189 -2.247 -2.212 -2.174 -2.232 -2.274 -2.214 -2.177 -1.938 -1.946 -2.207 -2.274 -2.224 -1.899 -1.965 -2.324 -2.227 -2.324 -2.254 -2.252 -1.946 -1.952 -2.207 -2.202 -2.302 -2.232 -2.294 -2.237 -2.234 -2.242 -2.252 -2.219 -2.257 -2.234 -2.164 -2.254 -2.244 -2.264 -2.227 -2.227 -2.279 -2.289 -2.247 -2.194 -2.244 -2.297 -2.242 -2.229 -2.237 -2.214 -2.219 -2.214 -2.329 -2.209 -2.174 -2.294 -2.309 -2.254 -2.224 -2.199 -2.242 -2.262 -2.247 -2.187 -2.222 -2.249 -2.182 -2.294 -2.289 -2.274 -2.202 -2.217 -2.247 -2.227 -2.119 -2.274 -2.197 -2.224 -2.269 -2.149 -2.227 -2.284 -2.262 -2.242 -2.202 -2.257 -2.207 -2.237 -2.182 -2.219 -2.297 -2.164 -2.244 -2.284 -2.199 -2.227 -2.299 -2.249 -2.202 -2.262 -2.242 -2.182 -2.154 -2.247 -2.229 -2.177 -2.252 -2.182 -2.174 -2.227 -2.259 -2.217 -2.202 -2.184 -2.174 -2.204 -2.184 -2.279 -2.239 -2.219 -2.189 -2.297 -2.347 -2.244 -2.227 -2.209 -2.204 -2.229 -2.252 -2.252 -2.242 -2.172 -2.184 -2.212 -2.264 -2.224 -2.257 -2.274 -2.197 -2.214 -2.179 -2.159 -2.147 -2.184 -2.229 -2.214 -2.214 -2.207 -2.292 -2.339 -2.264 -2.204 -2.274 -2.227 -2.229 -2.177 -2.189 -2.202 -2.239 -2.229 -2.182 -2.227 -2.257 -2.224 -2.139 -2.174 -2.199 -2.194 -2.194 -2.234 -2.234 -2.232 -2.217 -2.237 -2.192 -2.167 -2.239 -2.247 -2.239 -2.279 -2.234 -2.179 -2.187 -2.269 -2.179 -2.219 -2.202 -2.289 -2.204 -2.262 -2.229 -2.207 -2.257 -2.209 -2.244 -2.159 -2.274 -2.229 -2.272 -2.289 -2.199 -2.267 -2.229 -2.272 -2.314 -2.334 -2.344 -2.297 -2.307 -2.192 -2.247 -2.229 -2.092 -2.222 -2.264 -2.244 -2.234 -2.249 -2.207 -2.217 -2.234 -2.244 -2.199 -2.209 -2.272 -2.292 -2.302 -2.299 -2.289 -2.289 -2.344 -2.259 -2.242 -2.282 -2.294 -2.277 -2.234 -2.202 -2.249 -2.202 -2.157 -2.202 -2.217 -2.209 -2.217 -2.284 -2.269 -2.194 -2.184 -2.239 -2.244 -2.209 -2.224 -2.144 -2.164 -2.282 -2.292 -2.212 -2.274 -2.239 -2.152 -2.247 -2.214 -2.232 -2.292 -2.367 -2.257 -2.242 -2.247 -2.214 -2.157 -2.109 -2.142 -2.122 -2.219 -2.244 -2.279 -2.274 -2.254 -2.287 -2.302 -2.257 -2.239 -2.247 -2.194 -9999 -9999 -9999 -2.267 -2.194 -2.249 -2.294 -2.227 -2.222 -2.269 -2.289 -2.237 -2.234 -2.304 -2.252 -2.172 -2.144 -2.192 -2.144 -2.342 -2.379 -2.254 -2.319 -2.207 -2.259 -2.229 -2.229 -2.297 -2.382 -2.222 -2.182 -2.269 -2.252 -2.202 -2.227 -2.194 -2.197 -2.252 -2.309 -2.369 -2.249 -9999 -9999 -9999 -2.264 -2.162 -2.219 -2.227 -2.189 -2.204 -2.229 -2.182 -2.217 -2.184 -2.194 -2.312 -2.252 -2.202 -2.247 -2.222 -2.149 -2.187 -2.267 -2.327 -2.324 -2.222 -2.199 -2.252 -2.257 -2.267 -2.254 -2.257 -2.169 -2.182 -2.167 -2.162 -2.257 -2.209 -2.144 -2.207 -2.222 -2.127 -2.217 -2.259 -2.129 -2.132 -2.294 -2.217 -2.169 -2.212 -2.254 -2.194 -2.242 -2.212 -2.229
1.775 1.6 1.299 0.991 0.74 0.416 0.19 -0.003 -0.288 -0.541 -0.693 -0.799 -1.113 -1.356 -1.538 -1.632 -1.841 -1.862 -1.927 -1.855 -1.502 -1.305 -1.322 -1.66 -1.894 -2.177 -2.222 -2.139 -1.919 -1.993 -1.739 -1.661 -1.946 -2.274 -2.169 -1.885 -2.202 -2.224 -1.88 -1.809 -1.665 -1.587 -1.588 -1.706 -1.667 -1.895 -2.289 -2.274 -2.249 -2.174 -2.272 -2.259 -1.908 -2.234 -2.307 -2.189 -2.217 -2.214 -2.199 -2.217 -2.249 -2.299 -2.274 -2.209 -2.239 -2.239 -2.249 -2.219 -2.192 -2.229 -2.252 -2.262 -2.182 -2.152 -2.257 -2.269 -2.232 -2.237 -2.237 -2.267 -2.232 -2.254 -2.169 -2.197 -2.284 -2.219 -2.284 -2.227 -2.222 -2.169 -2.207 -2.214 -2.257 -2.269 -2.247 -2.237 -2.157 -2.317 -2.199 -2.209 -2.282 -2.277 -2.294 -2.199 -2.269 -2.289 -2.212 -2.177 -2.274 -2.274 -2.227 -2.214 -2.287 -2.227 -2.139 -2.312 -2.354 -2.222 -2.279 -2.279 -2.267 -2.244 -2.212 -2.197 -2.277 -2.267 -2.192 -2.262 -2.264 -2.174 -2.182 -2.284 -2.237 -2.227 -2.169 -2.267 -2.189 -2.209 -2.217 -2.177 -2.214 -2.307 -2.274 -2.244 -2.182 -2.274 -2.157 -2.192 -2.202 -2.267 -2.244 -2.174 -2.229 -2.297 -2.234 -2.259 -2.242 -2.269 -2.254 -2.247 -2.329 -2.214 -2.202 -2.229 -2.269 -2.287 -2.222 -2.169 -2.167 -2.269 -2.214 -2.202 -2.244 -2.234 -2.229 -2.187 -2.214 -2.204 -2.179 -2.184 -2.262 -2.219 -2.317 -2.222 -2.232 -2.197 -2.212 -2.264 -2.199 -2.247 -2.227 -2.217 -2.229 -2.259 -2.289 -2.269 -2.264 -2.339 -2.267 -2.262 -2.197 -2.222 -2.192 -2.144 -2.229 -2.242 -2.229 -2.222 -2.224 -2.279 -2.244 -2.217 -2.277 -2.169 -2.242 -2.199 -2.194 -2.167 -2.219 -2.227 -2.184 -2.207 -2.304 -2.207 -2.149 -2.272 -2.242 -2.127 -2.242 -2.237 -2.182 -2.154 -2.202 -2.227 -2.302 -2.242 -2.267 -2.227 -2.234 -2.217 -2.249 -2.212 -2.159 -2.219 -2.264 -2.219 -2.184 -2.284 -2.314 -2.227 -2.147 -2.262 -2.204 -2.182 -2.164 -2.182 -2.242 -2.304 -2.287 -2.244 -2.217 -2.222 -2.222 -2.299 -2.227 -2.312 -2.382 -2.244 -2.242 -2.237 -2.299 -2.229 -2.194 -2.214 -2.242 -2.259 -2.212 -2.257 -2.222 -2.227 -2.272 -2.287 -2.262 -2.237 -2.297 -2.249 -2.227 -2.309 -2.242 -2.189 -2.219 -2.164 -2.264 -2.329 -2.254 -2.252 -2.307 -2.302 -2.209 -2.177 -2.149 -2.132 -2.149 -2.197 -2.222 -2.322 -2.304 -2.212 -2.237 -2.217 -2.212 -2.227 -2.252 -2.287 -2.259 -2.297 -2.264 -2.184 -2.224 -2.257 -2.169 -2.267 -2.309 -2.239 -2.224 -2.364 -2.327 -2.197 -2.217 -2.222 -2.194 -2.182 -2.244 -2.349 -2.212 -2.199 -2.267 -2.204 -2.237 -2.312 -2.267 -2.207 -2.247 -2.287 -2.224 -2.247 -9999 -2.352 -2.299 -2.202 -2.204 -2.194 -2.164 -2.212 -2.197 -2.254 -2.264 -2.262 -2.304 -2.307 -2.179 -2.189 -2.184 -2.154 -2.307 -2.329 -2.172 -2.192 -2.249 -2.264 -2.289 -2.277 -2.312 -2.362 -2.289 -2.232 -2.317 -2.212 -2.217 -9999 -9999 -2.227 -2.224 -2.244 -2.272 -2.322 -2.27 -9999 -2.357 -2.329 -2.207 -2.252 -2.222 -2.239 -2.382 -2.299 -2.187 -2.222 -2.184 -2.179 -2.247 -2.244 -2.172 -2.239 -2.219 -2.142 -2.172 -2.277 -2.292 -2.294 -2.219 -2.182 -2.197 -2.199 -2.174 -2.204 -2.252 -2.272 -2.254 -2.167 -2.237 -2.317 -2.217 -2.144 -2.174 -2.279 -2.187 -2.214 -2.299 -2.117 -2.109 -2.212 -2.174 -2.212 -2.154 -2.249 -2.219 -2.174 -2.172 -2.197
1.442 1.42 1.21 0.971 0.741 0.476 0.309 0.122 -0.137 -0.45 -0.635 -0.921 -1.255 -1.506 -1.799 -1.999 -1.93 -1.901 -1.819 -1.604 -1.406 -1.111 -1.195 -1.54 -1.785 -1.851 -1.906 -1.934 -1.835 -1.657 -1.863 -2.001 -1.887 -2.003 -1.975 -1.859 -1.892 -1.893 -1.954 -2.009 -1.913 -1.754 -1.808 -1.977 -1.845 -1.766 -1.889 -2.229 -1.858 -2.229 -2.314 -2.237 -2.204 -2.224 -2.242 -1.897 -2.264 -2.217 -2.187 -2.199 -2.227 -2.227 -2.272 -1.886 -1.916 -1.923 -2.262 -2.259 -2.234 -2.169 -2.199 -2.222 -2.182 -2.252 -2.304 -2.274 -2.282 -2.259 -2.229 -2.254 -2.299 -2.272 -2.242 -2.199 -2.292 -2.209 -2.239 -2.214 -2.137 -2.189 -2.262 -2.259 -2.239 -2.232 -2.262 -2.272 -2.182 -2.152 -2.219 -2.184 -2.197 -2.242 -2.274 -2.249 -2.244 -2.254 -2.224 -2.279 -2.292 -2.267 -2.187 -2.207 -2.274 -2.202 -2.152 -2.307 -2.317 -2.222 -2.209 -2.244 -2.287 -2.289 -2.209 -2.279 -2.284 -2.249 -2.137 -2.269 -2.287 -2.194 -2.232 -2.307 -2.197 -2.222 -2.144 -2.217 -2.237 -2.282 -2.192 -2.244 -2.212 -2.239 -2.282 -2.232 -2.257 -2.257 -2.212 -2.222 -2.209 -2.222 -2.264 -2.194 -2.167 -2.287 -2.272 -2.277 -2.269 -2.277 -2.237 -2.252 -2.277 -2.169 -2.227 -2.202 -2.217 -2.312 -2.272 -2.184 -2.214 -2.257 -2.184 -2.222 -2.169 -2.204 -2.239 -2.204 -2.244 -2.222 -2.184 -2.194 -2.214 -2.237 -2.272 -2.239 -2.234 -2.189 -2.209 -2.287 -2.212 -2.269 -2.234 -2.184 -2.192 -2.309 -2.269 -2.274 -2.282 -2.292 -2.292 -2.189 -2.209 -2.197 -2.192 -2.207 -2.202 -2.244 -2.247 -2.252 -2.227 -2.257 -2.257 -2.224 -2.279 -2.249 -2.234 -2.269 -2.154 -2.217 -2.244 -2.222 -2.204 -2.209 -2.187 -2.192 -2.184 -2.217 -2.192 -2.172 -2.199 -2.262 -2.199 -2.132 -2.267 -2.264 -2.249 -2.217 -2.249 -2.224 -2.222 -2.222 -2.274 -2.179 -2.199 -2.207 -2.267 -2.274 -2.137 -2.194 -2.317 -2.252 -2.097 -2.202 -2.189 -2.277 -2.209 -2.192 -2.214 -2.262 -2.177 -2.139 -2.187 -2.204 -2.179 -2.237 -2.309 -2.334 -2.344 -2.242 -2.217 -2.299 -2.322 -2.207 -2.194 -2.214 -2.264 -2.249 -2.217 -2.217 -2.172 -2.204 -2.207 -2.209 -2.242 -2.169 -2.249 -2.232 -2.272 -2.257 -2.237 -2.219 -2.262 -2.187 -2.244 -2.277 -2.232 -2.237 -2.242 -2.282 -2.212 -2.232 -2.202 -2.169 -2.179 -2.159 -2.202 -2.289 -2.282 -2.182 -2.264 -2.249 -2.209 -2.244 -2.209 -2.257 -2.204 -2.194 -2.217 -2.257 -2.297 -2.294 -2.254 -2.214 -2.244 -2.239 -2.264 -2.304 -2.287 -2.169 -2.212 -2.199 -2.202 -2.152 -2.272 -2.287 -2.207 -2.219 -2.274 -2.224 -2.219 -2.249 -2.229 -2.199 -2.244 -2.167 -2.152 -2.442 -2.427 -2.312 -2.292 -2.249 -2.167 -2.099 -2.124 -2.232 -2.192 -2.187 -2.224 -2.259 -2.274 -2.312 -2.229 -2.252 -2.257 -2.274 -2.264 -2.164 -2.097 -2.169 -2.302 -2.289 -2.364 -2.337 -2.342 -2.317 -2.307 -2.252 -9999 -2.254 -2.239 -9999 -9999 -2.227 -2.192 -2.194 -2.197 -2.227 -2.244 -2.309 -9999 -2.334 -2.204 -2.189 -2.157 -2.269 -2.424 -2.339 -2.234 -2.217 -2.219 -2.157 -2.267 -2.229 -2.139 -2.152 -2.239 -2.257 -2.257 -2.239 -2.277 -2.282 -2.222 -2.162 -2.117 -2.197 -2.204 -2.257 -2.264 -2.274 -2.244 -2.227 -2.274 -2.292 -2.169 -2.117 -2.212 -2.239 -2.287 -2.247 -2.237 -2.279 -2.147 -2.157 -2.229 -2.197 -2.227 -2.217 -2.244 -2.177 -2.194 -2.172
1.035 1.107 1.068 0.765 0.461 0.256 0.14 0.071 -0.176 -0.458 -0.662 -1.002 -1.34 -1.539 -1.881 -2.224 -2.234 -2.192 -1.936 -1.656 -1.317 -1.37 -1.501 -1.595 -1.541 -1.616 -1.601 -1.676 -1.58 -1.637 -2.048 -2.297 -2.259 -1.989 -1.626 -1.549 -1.546 -1.884 -2.264 -2.274 -2.159 -1.866 -1.912 -2.267 -1.956 -1.815 -1.789 -1.968 -2.194 -1.882 -2.297 -2.214 -2.172 -2.167 -2.011 -2.219 -2.204 -2.232 -2.244 -2.197 -2.192 -2.247 -2.289 -2.294 -2.249 -2.314 -1.944 -2.222 -2.212 -2.202 -2.247 -2.214 -2.194 -2.207 -2.214 -2.224 -2.247 -2.222 -2.242 -2.257 -2.302 -2.242 -2.227 -2.174 -2.234 -2.267 -2.294 -2.242 -2.224 -2.257 -2.242 -2.297 -2.254 -2.169 -2.272 -2.307 -2.227 -2.254 -2.269 -2.189 -2.159 -2.272 -2.242 -2.212 -2.187 -2.219 -2.279 -2.254 -2.237 -2.279 -2.259 -2.209 -2.332 -2.182 -2.217 -2.269 -2.299 -2.249 -2.234 -2.277 -2.267 -2.232 -2.229 -2.212 -2.252 -2.219 -2.277 -2.302 -2.232 -2.197 -2.187 -2.212 -2.234 -2.279 -2.192 -2.177 -2.252 -2.257 -2.212 -2.224 -2.237 -2.267 -2.244 -2.299 -2.284 -2.269 -2.227 -2.187 -2.232 -2.209 -2.252 -2.232 -2.219 -2.232 -2.297 -2.312 -2.212 -2.232 -2.284 -2.224 -2.244 -2.202 -2.197 -2.134 -2.162 -2.284 -2.237 -2.194 -2.269 -2.222 -2.197 -2.247 -2.179 -2.184 -2.234 -2.197 -2.172 -2.194 -2.197 -2.232 -2.227 -2.242 -2.247 -2.224 -2.204 -2.212 -2.177 -2.172 -2.227 -2.244 -2.217 -2.214 -2.232 -2.292 -2.224 -2.249 -2.322 -2.227 -2.279 -2.222 -2.197 -2.152 -2.174 -2.187 -2.162 -2.242 -2.224 -2.227 -2.262 -2.234 -2.249 -2.257 -2.297 -2.284 -2.222 -2.234 -2.194 -2.194 -2.239 -2.239 -2.247 -2.247 -2.219 -2.152 -2.169 -2.229 -2.222 -2.219 -2.159 -2.232 -2.224 -2.177 -2.239 -2.232 -2.164 -2.237 -2.264 -2.207 -2.222 -2.219 -2.324 -2.167 -2.182 -2.122 -2.224 -2.207 -2.192 -2.202 -2.282 -2.269 -2.142 -2.177 -2.192 -2.224 -2.204 -2.227 -2.189 -2.192 -2.192 -2.209 -2.234 -2.249 -2.242 -2.309 -2.249 -2.249 -2.329 -2.214 -2.207 -2.252 -2.264 -2.209 -2.142 -2.217 -2.247 -2.289 -2.229 -2.214 -2.212 -2.247 -2.192 -2.257 -2.289 -2.219 -2.292 -2.227 -2.264 -2.314 -2.289 -2.229 -2.234 -2.157 -2.252 -2.249 -2.252 -2.314 -2.249 -2.237 -2.309 -2.247 -2.262 -2.227 -2.167 -2.149 -2.147 -2.239 -2.267 -2.199 -2.324 -2.264 -2.167 -2.167 -2.237 -2.224 -2.199 -2.239 -2.274 -2.314 -2.274 -2.214 -2.222 -2.204 -2.189 -2.177 -2.192 -2.247 -2.257 -2.182 -2.224 -2.282 -2.269 -2.157 -2.279 -2.289 -2.199 -2.167 -2.307 -2.284 -2.187 -2.284 -2.229 -2.189 -2.234 -2.217 -2.224 -2.389 -2.342 -2.282 -2.297 -2.249 -2.167 -2.087 -2.089 -2.244 -2.134 -2.202 -2.289 -2.247 -2.272 -2.224 -2.209 -2.234 -2.237 -2.294 -2.197 -2.122 -2.129 -2.149 -2.282 -2.327 -2.359 -2.349 -2.289 -2.274 -2.272 -2.299 -9999 -9999 -9999 -2.252 -2.227 -2.214 -2.199 -2.209 -2.164 -2.107 -2.232 -9999 -9999 -9999 -2.224 -2.252 -2.252 -2.267 -2.312 -2.319 -2.309 -2.229 -2.279 -2.292 -2.242 -2.237 -2.199 -2.122 -2.204 -2.304 -2.299 -2.272 -2.274 -2.249 -2.209 -2.137 -2.167 -2.259 -2.314 -2.247 -2.232 -2.264 -2.217 -2.192 -2.157 -2.204 -2.217 -2.159 -2.257 -2.272 -2.222 -2.294 -2.289 -2.184 -2.154 -2.189 -2.249 -2.194 -2.217 -2.244 -2.207 -2.239 -2.199 -2.242
0.772 0.813 0.832 0.545 0.285 0.106 -0.049 -0.174 -0.308 -0.36 -0.717 -1.011 -1.293 -1.542 -1.957 -2.297 -2.217 -1.892 -1.776 -1.595 -1.395 -1.542 -1.75 -1.924 -1.782 -1.535 -1.344 -1.337 -1.406 -1.529 -1.959 -2.309 -2.277 -1.974 -1.608 -1.431 -1.717 -1.951 -2.204 -2.169 -2.219 -2.312 -1.935 -2.269 -2.304 -1.998 -1.867 -1.92 -2.219 -2.232 -2.327 -2.242 -1.894 -1.925 -1.945 -2.277 -2.169 -2.227 -2.224 -2.229 -2.222 -2.164 -2.224 -2.254 -2.264 -2.272 -2.272 -2.299 -2.234 -2.252 -2.232 -2.237 -2.202 -2.252 -2.212 -2.224 -2.302 -2.254 -2.192 -2.302 -2.262 -2.234 -2.204 -2.224 -2.187 -2.247 -2.277 -2.242 -2.214 -2.222 -2.247 -2.247 -2.247 -2.157 -2.234 -2.237 -2.212 -2.212 -2.267 -2.154 -2.209 -2.269 -2.309 -2.227 -2.162 -2.137 -2.259 -2.337 -2.214 -2.249 -2.327 -2.257 -2.222 -2.242 -2.322 -2.272 -2.259 -2.317 -2.289 -2.284 -2.314 -2.234 -2.207 -2.204 -2.182 -2.262 -2.299 -2.244 -2.224 -2.247 -2.239 -2.237 -2.262 -2.327 -2.244 -2.117 -2.307 -2.264 -2.202 -2.307 -2.277 -2.284 -2.247 -2.282 -2.274 -2.267 -2.239 -2.202 -2.224 -2.214 -2.212 -2.292 -2.239 -2.219 -2.217 -2.304 -2.222 -2.187 -2.264 -2.244 -2.234 -2.219 -2.297 -2.164 -2.287 -2.327 -2.242 -2.159 -2.244 -2.212 -2.254 -2.297 -2.194 -2.249 -2.262 -2.182 -2.132 -2.222 -2.209 -2.237 -2.247 -2.244 -2.247 -2.277 -2.234 -2.259 -2.232 -2.184 -2.217 -2.202 -2.212 -2.212 -2.267 -2.304 -2.192 -2.234 -2.259 -2.234 -2.267 -2.257 -2.217 -2.207 -2.134 -2.187 -2.147 -2.172 -2.264 -2.257 -2.282 -2.314 -2.247 -2.214 -2.279 -2.264 -2.229 -2.244 -2.222 -2.169 -2.192 -2.174 -2.239 -2.242 -2.284 -2.182 -2.207 -2.237 -2.262 -2.197 -2.124 -2.219 -2.204 -2.184 -2.224 -2.242 -2.177 -2.254 -2.252 -2.159 -2.217 -2.252 -2.277 -2.169 -2.194 -2.137 -2.202 -2.234 -2.202 -2.207 -2.279 -2.287 -2.237 -2.252 -2.262 -2.262 -2.169 -2.249 -2.214 -2.122 -2.219 -2.167 -2.182 -2.267 -2.304 -2.229 -2.214 -2.292 -2.254 -2.252 -2.207 -2.177 -2.282 -2.242 -2.164 -2.244 -2.337 -2.302 -2.234 -2.234 -2.227 -2.234 -2.227 -2.207 -2.264 -2.279 -2.257 -2.204 -2.242 -2.294 -2.277 -2.234 -2.252 -2.239 -2.227 -2.242 -2.287 -2.344 -2.294 -2.247 -2.259 -2.182 -2.227 -2.247 -2.149 -2.164 -2.204 -2.234 -2.219 -2.177 -2.284 -2.217 -2.142 -2.172 -2.217 -2.212 -2.312 -2.319 -2.234 -2.292 -2.247 -2.282 -2.324 -2.264 -2.242 -2.229 -2.214 -2.209 -2.264 -2.189 -2.177 -2.249 -2.234 -2.177 -2.192 -2.247 -2.212 -2.184 -2.204 -2.199 -2.209 -2.252 -2.244 -2.272 -2.222 -9999 -9999 -9999 -2.244 -2.237 -2.202 -2.219 -2.214 -2.182 -2.167 -2.237 -2.172 -2.252 -2.229 -2.269 -2.304 -2.282 -9999 -2.234 -2.272 -2.294 -2.267 -2.219 -2.179 -2.214 -2.362 -2.357 -2.312 -2.299 -2.214 -2.222 -2.222 -2.292 -9999 -9999 -2.277 -2.237 -2.232 -2.129 -2.212 -2.229 -2.124 -2.149 -2.264 -2.269 -2.227 -2.267 -2.242 -2.262 -2.222 -2.122 -2.219 -2.262 -2.217 -2.239 -2.197 -2.189 -2.244 -2.314 -2.314 -2.252 -2.212 -2.234 -2.244 -2.279 -2.282 -2.152 -2.132 -2.209 -2.274 -2.307 -2.337 -2.239 -2.092 -2.249 -2.322 -2.209 -2.107 -2.099 -2.174 -2.192 -2.197 -2.284 -2.317 -2.352 -2.222 -2.187 -2.227 -2.169 -2.187 -2.214 -2.154 -2.184 -2.239 -2.354 -2.187 -2.249
0.491 0.523 0.586 0.371 0.084 -0.141 -0.242 -0.436 -0.606 -0.669 -0.707 -1.013 -1.298 -1.522 -1.801 -1.982 -1.857 -1.726 -1.539 -1.367 -1.529 -1.76 -1.866 -2.234 -1.938 -1.583 -1.543 -1.35 -1.528 -1.705 -1.896 -1.991 -1.976 -1.785 -1.512 -1.608 -1.863 -1.828 -1.879 -2.257 -2.237 -2.259 -1.923 -2.204 -2.294 -2.257 -2.055 -1.936 -2.219 -2.227 -2.249 -2.187 -2.262 -2.244 -1.941 -1.879 -2.222 -2.229 -2.199 -2.214 -2.187 -1.942 -1.97 -1.963 -2.249 -2.242 -2.299 -2.234 -2.259 -2.262 -2.197 -2.187 -2.289 -2.172 -2.192 -2.279 -2.259 -2.239 -2.237 -2.254 -2.279 -2.184 -2.234 -2.254 -2.134 -2.229 -2.302 -2.227 -2.222 -2.192 -2.232 -2.244 -2.247 -2.217 -2.204 -2.252 -2.227 -2.239 -2.294 -2.202 -2.167 -2.297 -2.279 -2.229 -2.229 -2.222 -2.237 -2.304 -2.182 -2.164 -2.219 -2.249 -2.157 -2.202 -2.257 -2.254 -2.197 -2.297 -2.314 -2.292 -2.202 -2.272 -2.222 -2.212 -2.249 -2.229 -2.259 -2.264 -2.222 -2.284 -2.277 -2.259 -2.289 -2.262 -2.177 -2.149 -2.259 -2.239 -2.212 -2.284 -2.292 -2.297 -2.222 -2.249 -2.352 -2.242 -2.199 -2.132 -2.187 -2.242 -2.239 -2.259 -2.244 -2.147 -2.144 -2.237 -2.209 -2.197 -2.322 -2.264 -2.282 -2.237 -2.282 -2.177 -2.184 -2.359 -2.284 -2.194 -2.207 -2.242 -2.227 -2.242 -2.202 -2.242 -2.242 -2.204 -2.174 -2.249 -2.224 -2.252 -2.227 -2.252 -2.207 -2.302 -2.197 -2.202 -2.244 -2.169 -2.247 -2.257 -2.184 -2.204 -2.232 -2.209 -2.199 -2.272 -2.239 -2.277 -2.237 -2.299 -2.254 -2.217 -2.207 -2.237 -2.192 -2.172 -2.249 -2.292 -2.269 -2.304 -2.209 -2.224 -2.252 -2.292 -2.242 -2.204 -2.184 -2.269 -2.182 -2.242 -2.229 -2.262 -2.227 -2.214 -2.237 -2.162 -2.264 -2.144 -2.189 -2.269 -2.179 -2.224 -2.244 -2.237 -2.187 -2.259 -2.317 -2.224 -2.239 -2.304 -2.232 -2.217 -2.244 -2.154 -2.172 -2.179 -2.204 -2.149 -2.199 -2.344 -2.272 -2.197 -2.287 -2.244 -2.189 -2.252 -2.194 -2.184 -2.267 -2.204 -2.144 -2.152 -2.247 -2.229 -2.172 -2.334 -2.287 -2.294 -2.262 -2.259 -2.229 -2.307 -2.109 -2.202 -2.232 -2.227 -2.219 -2.232 -2.224 -2.274 -2.249 -2.254 -2.197 -2.249 -2.262 -2.204 -2.247 -2.284 -2.312 -2.314 -2.207 -2.197 -2.219 -2.227 -2.162 -2.267 -2.267 -2.219 -2.277 -2.184 -2.147 -2.147 -2.154 -2.152 -2.272 -2.227 -2.159 -2.192 -2.269 -2.154 -2.072 -2.177 -2.267 -2.182 -2.297 -2.344 -2.197 -2.177 -2.177 -2.239 -2.239 -2.254 -2.254 -2.202 -2.229 -2.254 -2.254 -2.179 -2.227 -2.232 -2.232 -2.247 -2.189 -2.184 -2.209 -2.204 -2.189 -2.292 -2.254 -2.204 -2.227 -2.259 -2.277 -9999 -9999 -9999 -2.14 -2.199 -2.229 -2.294 -2.334 -2.264 -2.267 -2.272 -2.269 -2.242 -2.207 -2.337 -2.297 -2.274 -9999 -9999 -2.267 -2.324 -2.257 -2.174 -2.214 -2.259 -2.317 -2.272 -2.249 -2.254 -2.207 -2.204 -2.187 -2.287 -2.297 -2.267 -2.274 -2.282 -2.284 -2.227 -2.214 -2.259 -2.304 -2.344 -2.304 -2.319 -2.297 -2.297 -2.244 -2.289 -2.187 -2.154 -2.217 -2.242 -2.212 -2.189 -2.217 -2.232 -2.202 -2.249 -2.179 -2.159 -2.192 -9999 -9999 -2.242 -2.279 -2.239 -2.139 -2.184 -2.272 -2.329 -2.299 -2.232 -2.119 -2.167 -2.272 -2.177 -2.144 -2.217 -2.177 -2.187 -2.207 -2.182 -2.307 -2.287 -2.199 -2.199 -2.227 -2.129 -2.202 -2.232 -2.129 -2.174 -2.264 -2.219 -2.192 -2.222
0.229 0.221 0.286 0.245 -0.009 -0.306 -0.476 -0.656 -0.87 -0.988 -0.99 -1.046 -1.149 -1.322 -1.523 -1.684 -1.671 -1.593 -1.372 -1.332 -1.637 -1.863 -2.189 -2.242 -1.917 -1.931 -1.815 -1.677 -1.808 -1.862 -2.184 -2.207 -2.242 -1.91 -1.75 -1.63 -1.966 -2.262 -2.214 -1.905 -2.239 -2.279 -1.994 -2.222 -2.289 -2.272 -1.958 -1.913 -2.184 -2.277 -2.254 -2.294 -2.247 -2.279 -2.259 -1.921 -1.855 -1.879 -1.86 -1.854 -1.93 -1.816 -1.601 -1.878 -2.269 -2.242 -2.239 -2.284 -2.254 -2.279 -2.197 -2.072 -2.304 -2.204 -2.194 -2.294 -2.254 -2.239 -2.184 -2.197 -2.214 -2.174 -2.257 -2.222 -2.197 -2.269 -2.282 -2.204 -2.287 -2.192 -2.212 -2.252 -2.194 -2.217 -2.269 -2.259 -2.244 -2.242 -2.264 -2.227 -2.204 -2.262 -2.317 -2.287 -2.239 -2.187 -2.287 -2.274 -2.249 -2.202 -2.202 -2.232 -2.262 -2.197 -2.277 -2.287 -2.274 -2.264 -2.299 -2.302 -2.177 -2.262 -2.297 -2.204 -2.252 -2.242 -2.257 -2.224 -2.259 -2.259 -2.249 -2.254 -2.332 -2.267 -2.154 -2.212 -2.239 -2.289 -2.237 -2.262 -2.289 -2.284 -2.152 -2.292 -2.357 -2.202 -2.182 -2.204 -2.254 -2.262 -2.162 -2.199 -2.269 -2.179 -2.234 -2.342 -2.234 -2.242 -2.294 -2.239 -2.257 -2.194 -2.282 -2.227 -2.249 -2.267 -2.262 -2.164 -2.182 -2.262 -2.179 -2.234 -2.192 -2.219 -2.209 -2.227 -2.194 -2.252 -2.202 -2.167 -2.229 -2.267 -2.249 -2.322 -2.219 -2.184 -2.259 -2.164 -2.222 -2.189 -2.224 -2.194 -2.229 -2.257 -2.239 -2.257 -2.262 -2.274 -2.262 -2.307 -2.292 -2.214 -2.202 -2.202 -2.179 -2.179 -2.244 -2.292 -2.292 -2.239 -2.212 -2.177 -2.247 -2.324 -2.262 -2.217 -2.197 -2.217 -2.192 -2.217 -2.169 -2.209 -2.224 -2.232 -2.272 -2.152 -2.239 -2.177 -2.244 -2.277 -2.224 -2.202 -2.157 -2.179 -2.239 -2.254 -2.309 -2.212 -2.224 -2.274 -2.282 -2.169 -2.169 -2.242 -2.179 -2.229 -2.239 -2.217 -2.164 -2.187 -2.257 -2.222 -2.244 -2.219 -2.247 -2.264 -2.169 -2.192 -2.234 -2.219 -2.147 -2.139 -2.242 -2.247 -2.247 -2.292 -2.247 -2.239 -2.274 -2.252 -2.239 -2.277 -2.177 -2.164 -2.229 -2.212 -2.267 -2.222 -2.252 -2.294 -2.252 -2.177 -2.207 -2.197 -2.242 -2.282 -2.249 -2.259 -2.284 -2.239 -2.157 -2.177 -2.287 -2.204 -2.267 -2.299 -2.282 -2.239 -2.207 -2.244 -2.162 -2.189 -2.169 -2.212 -2.279 -2.292 -2.202 -2.239 -2.297 -2.214 -2.204 -2.307 -2.257 -2.162 -2.187 -2.322 -2.204 -2.192 -2.252 -2.249 -2.224 -2.237 -2.307 -2.247 -2.247 -2.357 -2.284 -2.289 -2.269 -2.269 -2.202 -2.234 -2.284 -2.312 -2.284 -2.149 -2.212 -2.317 -2.237 -2.207 -2.212 -2.229 -2.237 -2.192 -2.072 -9999 -9999 -9999 -9999 -2.269 -2.349 -2.294 -2.234 -2.207 -2.259 -2.297 -2.247 -2.317 -2.309 -2.249 -2.232 -2.237 -2.259 -2.317 -2.302 -2.224 -2.337 -2.342 -2.304 -2.239 -2.234 -2.227 -2.204 -2.279 -2.257 -2.187 -2.262 -2.234 -2.207 -2.264 -2.317 -2.254 -2.247 -2.282 -2.362 -2.397 -2.257 -9999 -9999 -9999 -2.327 -2.227 -9999 -2.132 -2.202 -2.337 -2.274 -2.229 -2.299 -2.167 -2.192 -2.162 -2.194 -2.219 -2.282 -9999 -9999 -9999 -2.279 -2.259 -2.209 -2.137 -2.187 -2.254 -2.254 -2.222 -2.197 -2.172 -2.282 -2.229 -2.272 -2.292 -2.182 -2.134 -2.212 -2.189 -2.234 -2.217 -2.204 -2.227 -2.182 -2.202 -2.204 -2.237 -2.209 -2.249 -2.254 -2.139 -2.189 -2.249
-0.13 -0.116 -0 0.079 -0.182 -0.421 -0.711 -0.956 -1.138 -1.225 -1.286 -1.287 -1.278 -1.108 -1.248 -1.387 -1.423 -1.33 -1.143 -1.292 -1.59 -1.726 -1.849 -1.939 -2.227 -2.219 -1.912 -1.965 -1.905 -2.217 -2.269 -2.352 -2.192 -2.194 -1.874 -1.603 -1.956 -2.297 -2.209 -1.875 -1.965 -2.319 -2.209 -1.916 -1.984 -1.955 -1.883 -2.207 -2.167 -2.257 -2.229 -2.224 -2.207 -2.284 -2.222 -1.938 -1.838 -1.958 -2.249 -2.179 -1.943 -2.02 -1.96 -1.88 -2.269 -2.277 -2.187 -2.287 -2.354 -2.224 -2.107 -2.237 -2.269 -2.264 -2.224 -2.249 -2.274 -2.267 -2.197 -2.249 -2.149 -2.169 -2.249 -2.204 -2.199 -2.269 -2.229 -2.169 -2.299 -2.257 -2.184 -2.284 -2.197 -2.219 -2.279 -2.292 -2.144 -2.189 -2.212 -2.274 -2.219 -2.207 -2.309 -2.212 -2.237 -2.247 -2.189 -2.259 -2.262 -2.232 -2.217 -2.277 -2.234 -2.177 -2.224 -2.267 -2.244 -2.252 -2.322 -2.229 -2.179 -2.199 -2.292 -2.227 -2.234 -2.217 -2.257 -2.244 -2.237 -2.224 -2.217 -2.252 -2.299 -2.284 -2.202 -2.259 -2.282 -2.224 -2.269 -2.224 -2.289 -2.249 -2.172 -2.174 -2.269 -2.239 -2.227 -2.252 -2.247 -2.234 -2.174 -2.239 -2.239 -2.149 -2.204 -2.299 -2.229 -2.227 -2.204 -2.224 -2.274 -2.242 -2.232 -2.199 -2.209 -2.232 -2.252 -2.177 -2.242 -2.224 -2.244 -2.229 -2.177 -2.209 -2.212 -2.209 -2.207 -2.179 -2.219 -2.252 -2.157 -2.222 -2.284 -2.247 -2.159 -2.242 -2.262 -2.202 -2.214 -2.212 -2.317 -2.259 -2.162 -2.234 -2.229 -2.202 -2.234 -2.277 -2.229 -2.227 -2.314 -2.247 -2.242 -2.197 -2.172 -2.169 -2.247 -2.322 -2.262 -2.192 -2.237 -2.284 -2.249 -2.259 -2.307 -2.234 -2.137 -2.204 -2.219 -2.224 -2.214 -2.242 -2.259 -2.227 -2.229 -2.192 -2.247 -2.147 -2.219 -2.272 -2.212 -2.184 -2.139 -2.184 -2.199 -2.229 -2.239 -2.259 -2.237 -2.247 -2.244 -2.247 -2.252 -2.237 -2.199 -2.152 -2.239 -2.259 -2.207 -2.182 -2.284 -2.232 -2.234 -2.232 -2.274 -2.257 -2.209 -2.252 -2.264 -2.249 -2.192 -2.144 -2.214 -2.147 -2.159 -2.294 -2.252 -2.247 -2.319 -2.257 -2.239 -2.222 -2.234 -2.167 -2.252 -2.204 -2.252 -2.267 -2.182 -2.177 -2.322 -2.152 -2.179 -2.224 -2.262 -2.269 -2.244 -2.269 -2.314 -2.237 -2.127 -2.229 -2.319 -2.182 -2.307 -2.287 -2.332 -2.284 -2.172 -2.127 -2.122 -2.232 -2.067 -2.134 -2.152 -2.182 -2.172 -2.207 -2.292 -2.239 -2.234 -2.294 -2.244 -2.217 -2.229 -2.317 -2.242 -2.282 -2.272 -2.252 -2.217 -2.219 -2.347 -2.242 -2.139 -2.319 -2.267 -2.292 -2.242 -2.249 -2.187 -2.217 -2.274 -2.232 -2.247 -2.139 -2.202 -2.289 -2.254 -2.197 -2.269 -2.277 -2.172 -2.219 -2.154 -2.184 -9999 -9999 -2.247 -2.244 -2.232 -2.329 -2.282 -2.277 -2.257 -2.239 -2.327 -9999 -9999 -9999 -2.249 -2.212 -2.267 -2.244 -2.234 -2.142 -2.274 -2.362 -2.317 -2.272 -2.277 -2.317 -2.307 -2.274 -2.234 -2.224 -2.249 -2.302 -2.184 -2.252 -2.287 -2.224 -2.187 -2.237 -2.304 -2.327 -2.247 -9999 -9999 -9999 -2.262 -2.274 -9999 -2.107 -2.107 -2.192 -2.129 -2.237 -9999 -2.284 -2.207 -2.112 -2.207 -2.164 -2.162 -9999 -9999 -2.144 -2.204 -2.202 -2.167 -2.157 -2.279 -2.222 -2.242 -2.274 -2.294 -2.337 -2.189 -2.247 -2.282 -2.217 -2.199 -2.209 -2.222 -2.187 -2.217 -2.224 -2.189 -2.234 -2.172 -2.172 -2.277 -2.232 -2.127 -2.202 -2.162 -2.144 -2.232 -2.232
-0.464 -0.428 -0.267 -0.259 -0.32 -0.575 -0.86 -1.107 -1.388 -1.52 -1.591 -1.559 -1.483 -1.356 -1.132 -1.008 -1.047 -1.014 -0.808 -1.092 -1.376 -1.548 -1.61 -1.853 -2.187 -2.197 -2.262 -2.252 -2.239 -2.297 -2.372 -2.09 -1.978 -1.914 -1.888 -1.781 -1.772 -1.931 -2.219 -2.202 -1.931 -2.202 -2.319 -2.224 -1.986 -1.941 -2.227 -2.237 -2.167 -2.219 -2.262 -2.159 -2.184 -2.242 -2.247 -2.232 -1.898 -1.892 -2.222 -2.197 -2.234 -2.259 -2.274 -2.207 -2.294 -2.317 -2.174 -2.192 -2.237 -2.282 -2.247 -2.262 -2.252 -2.292 -2.259 -2.252 -2.279 -2.287 -2.219 -2.289 -2.227 -2.237 -2.199 -2.182 -2.189 -2.232 -2.199 -2.242 -2.229 -2.222 -2.184 -2.287 -2.214 -2.264 -2.302 -2.347 -2.227 -2.167 -2.202 -2.239 -2.212 -2.254 -2.282 -2.217 -2.224 -2.214 -2.234 -2.222 -2.259 -2.262 -2.254 -2.209 -2.239 -2.254 -2.187 -2.232 -2.172 -2.162 -2.377 -2.269 -2.234 -2.232 -2.237 -2.209 -2.249 -2.199 -2.212 -2.279 -2.264 -2.282 -2.277 -2.304 -2.282 -2.277 -2.232 -2.304 -2.259 -2.239 -2.197 -2.224 -2.319 -2.242 -2.154 -2.209 -2.319 -2.247 -2.184 -2.264 -2.272 -2.207 -2.182 -2.254 -2.249 -2.234 -2.269 -2.304 -2.232 -2.234 -2.234 -2.242 -2.279 -2.277 -2.224 -2.242 -2.197 -2.219 -2.232 -2.222 -2.272 -2.179 -2.267 -2.262 -2.192 -2.184 -2.259 -2.217 -2.167 -2.204 -2.237 -2.179 -2.187 -2.234 -2.227 -2.262 -2.192 -2.252 -2.267 -2.249 -2.197 -2.217 -2.294 -2.254 -2.192 -2.217 -2.237 -2.192 -2.259 -2.314 -2.209 -2.294 -2.337 -2.224 -2.229 -2.197 -2.182 -2.159 -2.202 -2.292 -2.179 -2.192 -2.272 -2.237 -2.222 -2.204 -2.289 -2.309 -2.144 -2.272 -2.232 -2.219 -2.232 -2.129 -2.267 -2.297 -2.219 -2.217 -2.237 -2.234 -2.214 -2.239 -2.239 -2.237 -2.144 -2.177 -2.187 -2.247 -2.219 -2.272 -2.267 -2.247 -2.334 -2.267 -2.249 -2.177 -2.232 -2.177 -2.207 -2.207 -2.194 -2.242 -2.304 -2.222 -2.162 -2.179 -2.312 -2.292 -2.267 -2.304 -2.257 -2.244 -2.194 -2.197 -2.202 -2.152 -2.204 -2.302 -2.169 -2.239 -2.309 -2.254 -2.272 -2.232 -2.282 -2.222 -2.164 -2.227 -2.212 -2.259 -2.172 -2.229 -2.284 -2.159 -2.132 -2.217 -2.222 -2.334 -2.309 -2.262 -2.324 -2.277 -2.144 -2.234 -2.239 -2.189 -2.234 -2.302 -2.307 -2.217 -2.277 -2.214 -2.259 -2.284 -2.179 -2.102 -2.227 -2.274 -2.204 -2.282 -2.319 -2.207 -2.157 -2.282 -2.264 -2.267 -2.247 -2.174 -2.199 -2.249 -2.207 -2.292 -2.237 -2.179 -2.242 -2.219 -2.169 -2.292 -2.234 -2.167 -2.244 -2.304 -2.232 -2.204 -2.202 -2.232 -2.217 -2.159 -2.197 -2.269 -2.219 -2.174 -2.229 -2.297 -2.294 -2.272 -2.249 -2.227 -2.174 -2.242 -2.274 -2.272 -2.327 -2.314 -2.242 -2.252 -2.189 -2.212 -2.207 -2.277 -9999 -2.332 -2.262 -2.219 -2.192 -2.184 -2.224 -2.127 -2.227 -2.364 -2.394 -2.327 -2.244 -2.264 -2.357 -2.252 -2.132 -2.252 -2.277 -2.352 -2.172 -2.292 -9999 -2.259 -2.212 -2.217 -2.214 -2.277 -2.367 -2.204 -2.2 -2.197 -2.162 -2.277 -2.307 -2.15 -2.194 -2.129 -2.104 -2.159 -9999 -9999 -2.242 -2.214 -2.219 -2.174 -2.232 -2.254 -2.102 -2.082 -2.192 -2.189 -2.162 -2.202 -2.264 -2.242 -2.254 -2.294 -2.339 -2.294 -2.297 -2.229 -2.237 -2.292 -2.262 -2.232 -2.234 -2.214 -2.247 -2.212 -2.207 -2.252 -2.217 -2.207 -2.212 -2.279 -2.174 -2.182 -2.199 -2.189 -2.267 -2.244
