ncols 457
nrows 32
xllcorner    456056
yllcorner    85686
cellsize     2
NODATA_value -9999
11.614 12.467 17.212 21.924 21.634 25.879 17.892 15.274 13.977 13.462 14.304 14.889 14.894 14.849 14.882 14.897 14.922 14.944 14.992 15.037 15.057 15.067 15.074 15.064 15.084 15.072 15.107 15.089 15.114 15.082 15.109 15.122 15.074 15.079 15.104 15.134 15.127 15.079 15.044 15.057 15.077 15.154 15.197 15.242 15.229 15.192 15.212 15.207 15.192 15.199 15.159 15.194 15.304 15.387 15.412 15.392 15.437 15.484 15.454 15.497 15.529 15.592 15.652 15.697 15.717 15.774 15.824 15.897 16.054 16.504 16.967 17.099 15.714 13.344 12.562 11.802 11.659 11.287 11.097 10.662 9.509 7.649 7.147 6.737 6.442 6.259 5.917 5.712 5.532 5.412 5.114 5.244 5.159 5.079 5.092 5.087 5.102 5.039 5.037 5.047 5.052 5.034 5.014 4.974 4.943 4.899 4.886 4.865 4.835 4.824 4.806 4.782 4.776 4.742 4.696 4.651 4.946 5.329 6.197 5.692 4.99 4.481 4.446 4.478 4.495 4.509 4.46 4.382 4.514 4.566 4.69 4.638 4.612 4.669 4.971 5.55 5.456 5.478 4.601 4.726 4.768 4.838 4.924 4.932 4.9 4.444 4.455 4.901 4.731 4.561 4.626 4.764 5.239 5.044 4.609 4.261 4.49 4.991 4.82 4.717 4.701 4.458 4.31 4.447 4.671 4.559 4.295 4.319 4.305 4.531 4.362 4.646 4.831 5.319 5.686 5.853 5.622 4.744 4.421 4.309 4.316 5.452 6.901 9.417 8.552 5.443 5.217 4.673 4.918 4.778 5.097 5.613 5.187 5.218 5.17 9.387 10.125 7.311 5.473 6.796 6.808 5.497 5.43 5.639 8.889 11.554 13.792 12.757 7.932 5.994 5.897 5.644 5.522 5.427 5.242 5.132 5.004 4.879 4.759 4.669 4.602 4.624 4.644 4.612 4.664 4.704 4.724 4.667 4.614 4.624 4.614 4.752 4.752 4.697 4.702 4.704 4.712 4.667 4.604 4.582 4.579 4.664 4.672 5.204 5.612 5.392 5.529 4.792 4.569 4.589 4.602 4.622 4.607 4.544 4.517 4.627 4.709 4.714 4.722 4.682 4.392 4.147 4.727 5.592 6.397 6.737 6.467 4.527 4.662 4.607 4.674 4.724 4.412 4.417 4.722 4.73 4.702 4.67 4.657 4.582 4.662 4.645 4.652 4.697 4.765 4.74 5.062 4.932 4.922 5.125 4.795 4.825 4.785 4.787 4.825 4.855 4.835 4.99 5.832 5.205 4.883 4.904 4.922 4.953 4.909 4.904 4.956 4.964 4.972 4.943 4.901 4.849 4.868 4.91 4.882 4.897 4.96 5.575 5.165 4.977 5.33 5.012 5.06 5.125 4.932 5.005 5.12 4.932 4.912 5.05 5.48 5.785 6.082 6.12 6.912 5.24 5.08 5.175 5.362 5.562 6.007 6.587 7.077 7.53 8.035 8.66 9.297 9.902 10.462 12.002 11.767 12.31 12.815 13.435 14.115 14.84 20.77 27.597 28.285 28.647 27.027 27.687 18.017 17.94 19.08 18.22 18.052 18.227 17.92 17.77 17.612 17.437 17.3 17.17 16.982 16.787 16.65 16.405 16.527 16.045 15.85 15.65 15.5 15.315 15.302 14.952 14.827 14.585 14.447 14.197 14.06 14.035 13.537 13.362 13.112 12.847 12.622 12.497 12.902 11.867 11.555 11.237 10.92 10.63 10.302 10.02 9.75 9.597 9.445 9.245 8.775 8.495 9.1 8.35 7.952 7.49 7.245 7.02 6.797 6.625 6.455 6.28 6.132 6.165 5.877 5.805 5.745 5.755 6.025 6.55 5.845 5.755 5.807 5.835 5.865 5.83 6.022 5.535 5.205 4.937 5.05 4.765 4.592 4.502 4.467 4.51 4.612 4.65 4.777 4.76 7.035 7.682 4.557 6.125 5.185 4.877 4.512
11.694 11.989 12.399 18.339 23.484 19.664 15.237 14.367 13.852 13.722 14.697 15.019 14.947 14.937 14.944 14.987 15.039 15.047 15.107 15.139 15.169 15.174 15.192 15.187 15.209 15.164 15.169 15.207 15.202 15.187 15.224 15.219 15.214 15.212 15.202 15.234 15.247 15.214 15.184 15.222 15.272 15.289 15.337 15.357 15.382 15.354 15.349 15.349 15.372 15.374 15.389 15.357 15.469 15.552 15.602 15.619 15.667 15.619 15.634 15.684 15.744 15.802 15.847 15.934 15.977 16.007 16.022 16.052 16.232 16.277 16.112 16.489 15.549 13.642 12.924 12.209 11.454 12.394 10.392 11.134 11.642 9.617 7.449 6.954 6.667 6.389 6.022 5.807 5.529 5.342 5.487 5.407 5.472 5.409 5.087 5.062 5.079 5.052 5.082 5.092 5.097 5.017 5.017 4.997 4.972 4.927 4.917 4.87 4.856 4.803 4.81 4.78 4.794 4.795 4.731 4.894 5.442 5.32 5.844 4.793 4.762 4.897 4.899 4.774 4.605 4.439 5.057 4.921 4.538 4.566 4.575 4.607 4.636 4.609 4.999 5.074 5.226 5.397 5.4 4.561 4.489 4.677 4.819 4.626 5.049 4.885 4.847 4.87 4.979 5.114 4.909 5.142 5.347 5.334 4.934 4.452 4.977 5.346 5.198 5.338 4.603 4.386 4.562 4.738 4.966 5.125 4.81 4.305 4.356 4.946 4.966 4.796 4.965 5.098 6.171 5.599 5.387 4.448 4.37 4.284 4.367 6.004 4.796 5.092 9.337 5.625 5.639 5.634 7.136 6.903 5.463 5.103 5.585 5.598 7.069 11.729 10.839 5.548 6.497 6.806 7.155 5.796 5.576 5.802 13.752 9.722 10.114 13.857 10.187 6.302 6.277 6.112 5.947 6.017 5.899 5.589 5.212 5.032 4.889 4.737 4.719 5.362 5.477 5.024 4.842 5.124 5.424 4.852 4.612 4.582 4.669 4.794 4.802 4.819 4.822 5.447 5.724 5.384 4.682 4.657 4.582 4.622 4.949 5.484 5.649 5.332 5.022 4.774 4.689 4.694 4.682 4.629 4.622 4.569 4.639 4.757 4.562 4.529 4.214 3.984 3.894 3.999 4.324 4.544 4.682 4.617 4.679 4.697 4.787 4.777 4.727 4.709 4.655 4.367 4.685 4.757 4.752 4.655 4.657 4.597 4.642 4.687 4.677 4.747 4.78 4.825 4.89 5.04 4.945 5.007 4.817 4.827 4.842 4.795 4.82 4.867 4.845 4.837 4.855 4.889 4.872 4.917 4.958 4.961 4.929 4.957 4.976 4.967 4.99 4.916 4.879 4.822 5.154 5.075 4.905 4.972 4.932 4.97 4.985 4.972 4.98 4.96 4.982 4.997 4.997 4.99 4.955 4.897 4.957 5.032 5.195 5.162 5.125 5.122 5.98 5.455 5.205 5.202 5.607 5.932 6.122 6.61 7.21 7.782 8.107 8.742 9.327 9.877 10.465 11.2 11.697 12.322 12.915 13.675 14.135 14.72 17.692 22.432 23.837 25.765 24.382 23.46 18.595 18.07 17.93 17.932 18.147 17.89 17.892 17.835 17.697 17.292 17.135 16.982 16.882 16.907 16.6 16.372 16.03 15.97 15.68 15.567 15.407 15.267 15.022 14.82 14.645 14.775 14.365 14.405 14.11 15.487 13.402 13.172 12.925 12.925 12.432 12.23 11.952 11.632 11.397 11.03 10.715 10.385 10.087 9.787 9.555 9.352 10.39 8.877 8.595 8.812 8.31 7.832 7.657 7.287 7.115 6.85 6.657 6.502 6.37 6.222 6.067 5.92 5.8 5.657 5.657 5.577 5.54 5.625 5.677 5.825 5.86 5.792 5.852 5.737 6.555 5.54 5.275 4.895 4.935 5.282 4.645 4.572 4.522 4.532 5.997 4.777 4.85 4.755 5.19 5.917 5.59 6.162 4.852 5.12 4.772
11.814 12.137 12.262 12.502 16.742 16.734 14.512 14.419 13.884 14.064 14.902 15.034 15.057 15.027 15.032 15.062 15.092 15.139 15.197 15.249 15.277 15.269 15.267 15.284 15.272 15.249 15.289 15.299 15.302 15.297 15.324 15.332 15.337 15.327 15.322 15.334 15.369 15.397 15.352 15.399 15.439 15.442 15.472 15.507 15.524 15.517 15.499 15.512 15.539 15.559 15.582 15.547 15.564 15.679 15.769 15.799 15.832 15.867 15.832 15.879 15.939 16.007 16.052 16.129 16.152 16.224 16.249 16.292 16.369 16.389 16.259 16.507 17.779 14.394 13.324 12.727 13.294 11.287 11.449 11.962 11.947 10.904 7.607 7.904 7.119 6.327 5.957 5.792 5.694 5.477 4.964 4.467 5.869 6.054 5.109 5.032 4.994 5.007 5.047 5.109 5.109 5.049 5.034 4.997 4.967 4.959 4.94 4.898 4.877 4.845 4.844 4.816 4.866 4.928 5.676 7.899 6.314 7.915 6.949 5.859 5.189 4.903 5.033 5.733 5.903 5.493 6.43 4.567 4.594 4.61 4.592 4.591 4.591 4.614 4.58 4.949 5.279 4.999 4.433 4.347 4.518 4.639 4.75 4.734 4.996 5.015 4.669 5.04 5.099 5.188 5.312 5.436 5.348 5.452 4.985 5.148 5.325 5.5 5.474 5.362 5.168 4.55 5.067 4.53 5.159 5.732 5.519 5.388 5.325 5 5.417 5.365 5.458 5.075 5.352 5.34 6.333 5.39 4.539 4.331 4.488 4.777 5.122 5.082 5.627 5.911 5.232 5.02 6.274 6.236 5.272 5.082 6.868 9.253 8.64 7.348 5.7 6.448 6.2 5.771 6.431 5.934 5.762 6.097 6.189 8.622 11.322 15.839 15.382 6.482 6.494 6.372 6.202 5.964 5.707 5.554 5.457 5.377 5.087 4.914 5.024 5.317 5.207 5.014 5.447 6.504 7.029 6.394 5.119 4.847 4.792 5.244 5.589 5.154 5.054 5.757 5.402 5.539 4.969 4.779 4.587 4.642 4.859 5.204 5.009 4.724 4.677 4.737 4.747 4.662 4.607 4.612 4.607 4.442 4.282 4.062 3.874 3.867 3.997 4.329 4.637 4.762 4.814 4.832 4.839 4.804 4.792 4.949 4.939 4.957 4.727 4.759 4.555 4.445 4.787 4.752 4.785 4.637 4.725 4.7 4.717 4.742 4.687 4.775 4.852 5.032 4.887 4.78 4.85 4.837 4.802 4.847 4.907 4.817 4.825 4.817 4.827 4.862 4.865 4.92 4.94 4.977 4.982 4.905 4.961 4.98 4.992 4.973 4.982 4.996 4.895 4.889 5.092 4.915 4.922 5.165 5.387 4.922 5.002 4.965 4.922 4.985 5.115 5.092 5.032 5.102 4.967 4.922 5.155 5.127 5.112 5.12 5.112 5.13 5.542 5.295 6.025 5.162 5.632 6.222 6.195 6.915 7.54 7.842 8.33 9.15 9.595 9.97 10.55 11.1 11.727 12.567 13.565 13.907 14.247 14.777 15.422 17.462 19.37 21.07 19.2 17.865 18.462 18.082 17.805 17.772 17.725 17.657 17.715 17.677 17.305 17.15 17.02 16.96 16.675 16.807 16.365 16.197 15.957 15.75 15.692 15.375 15.477 15.122 14.86 14.647 14.48 14.49 14.537 13.947 13.762 13.515 13.28 12.997 12.807 12.512 12.292 12.05 11.865 11.51 11.172 10.862 10.53 10.18 9.895 9.63 9.385 9.647 8.86 8.592 8.377 8.567 7.952 7.63 7.375 7.13 6.907 6.727 6.52 6.362 6.182 6.027 5.837 5.765 5.625 5.612 5.552 5.64 5.475 5.555 5.77 5.957 5.96 6.262 5.922 5.915 5.967 5.45 5.125 5.152 4.917 4.75 4.692 4.82 4.66 4.647 6.665 8.237 4.83 4.735 6.717 5.205 6.75 5.292 4.94 5.085 5.065
12.029 12.509 12.487 12.639 13.562 14.597 14.727 14.392 13.949 14.442 15.144 15.147 15.149 15.124 15.127 15.157 15.192 15.219 15.259 15.329 15.367 15.367 15.349 15.417 15.422 15.407 15.362 15.389 15.397 15.384 15.424 15.422 15.454 15.452 15.444 15.462 15.517 15.567 15.557 15.537 15.562 15.592 15.604 15.639 15.682 15.687 15.684 15.687 15.702 15.702 15.729 15.757 15.772 15.817 15.917 15.987 16.007 16.079 16.052 16.094 16.159 16.192 16.272 16.342 16.334 16.422 16.472 16.522 16.549 16.612 16.652 16.022 16.787 14.294 13.829 13.754 13.647 11.652 10.719 10.184 11.394 9.449 9.419 8.859 7.192 6.592 6.432 6.064 5.529 5.577 5.044 4.637 4.879 5.504 5.149 4.964 4.924 4.927 5.007 5.097 5.109 5.077 5.014 4.992 4.932 4.957 4.937 4.897 4.883 4.879 4.881 4.907 4.888 5.408 7.389 7.605 7.941 6.778 5.598 7.611 6.282 5.123 5.02 5.838 5.808 4.621 6.359 4.716 4.622 4.618 4.601 4.606 4.626 4.639 4.573 4.561 4.587 4.623 4.5 4.385 4.494 4.601 4.746 4.554 4.804 4.507 4.534 4.893 5.208 5.437 4.577 4.605 5.303 5.901 4.864 4.616 5.091 5.439 5.639 5.252 4.725 4.881 4.99 4.629 4.657 4.725 5.027 5.526 4.986 4.631 4.664 5.063 5.112 4.596 4.67 4.961 5.521 4.716 4.507 4.653 5.285 5.376 5.246 5.022 4.839 5.199 4.929 5.281 5.838 5.146 5.794 5.879 4.991 8.737 6.464 5.761 5.678 5.433 5.553 5.912 5.875 5.669 5.802 6.099 6.692 13.089 10.252 11.854 14.132 7.617 6.657 6.629 6.464 6.147 5.907 5.712 5.684 5.557 5.134 4.994 4.989 4.834 4.859 4.929 5.089 5.147 5.112 5.199 5.177 5.544 6.384 5.739 5.827 5.127 5.194 5.237 5.257 5.479 6.087 4.954 4.607 4.627 4.717 4.817 4.859 4.777 4.752 4.739 4.697 4.519 5.749 5.444 5.472 3.777 3.984 4.184 4.384 4.857 4.707 4.822 4.812 4.942 4.929 4.909 4.894 4.952 4.932 4.842 4.944 4.927 5.074 4.972 4.562 4.415 4.847 4.82 4.785 4.642 4.782 4.845 4.97 4.842 4.787 4.8 4.767 4.817 4.82 4.797 4.82 4.807 4.827 4.857 4.892 4.912 4.915 4.915 4.907 4.942 4.975 4.967 4.968 4.976 4.963 4.949 5.013 4.983 4.994 5.01 5.032 5.004 4.914 5.07 5.032 4.91 4.94 4.995 5.077 4.975 6.102 4.97 4.962 4.955 5.012 5.027 5.127 5.18 5.025 4.967 5.235 5.305 5.442 5.19 5.122 5.242 5.395 5.39 5.35 5.237 5.497 6.195 6.545 7.242 7.672 8.107 8.417 9.052 9.787 10.277 10.622 11.385 11.822 12.445 13.305 13.74 14.462 14.922 15.537 16.195 16.955 17.887 17.13 17.447 17.61 17.695 17.835 17.652 18.11 17.57 17.46 17.357 17.16 17.03 16.847 16.742 16.5 16.315 16.137 16.105 15.807 15.652 15.465 15.22 15.065 14.92 14.667 14.542 14.385 14.305 14.29 13.825 13.51 13.327 13.08 12.842 12.6 12.32 12.067 11.875 11.595 11.342 10.96 10.69 10.332 10.015 9.715 9.467 9.175 8.965 8.84 8.41 8.282 7.907 7.945 7.532 7.195 6.982 6.785 6.74 6.407 6.195 5.975 5.805 5.73 5.712 5.602 5.577 5.495 5.517 5.525 5.57 5.947 6.657 7.68 6.725 5.732 5.645 5.417 5.445 5.067 5.55 5.65 4.717 4.65 4.68 4.677 4.722 4.85 5.8 8.34 5.602 4.987 5.932 5.832 5.155 5.262 4.81 4.805
12.154 12.732 13.094 12.824 13.104 14.527 14.839 14.507 14.149 14.714 15.219 15.232 15.234 15.209 15.214 15.254 15.287 15.307 15.339 15.399 15.449 15.467 15.464 15.507 15.487 15.464 15.469 15.459 15.492 15.512 15.534 15.557 15.577 15.614 15.604 15.614 15.679 15.739 15.774 15.732 15.714 15.752 15.732 15.767 15.827 15.834 15.859 15.852 15.874 15.879 15.882 15.909 15.947 15.954 16.042 16.157 16.212 16.274 16.297 16.299 16.339 16.414 16.459 16.559 16.579 16.647 16.719 16.744 16.817 16.872 17.159 17.639 18.099 14.654 14.432 13.774 14.307 12.414 11.182 10.329 10.272 9.372 8.842 8.849 7.439 6.882 6.597 6.357 6.137 5.489 5.149 5.187 5.002 5.289 5.192 5.237 4.924 4.927 4.987 5.072 5.084 5.039 5.012 4.969 4.957 4.942 4.912 4.914 4.914 4.942 4.943 4.903 4.901 6.042 6.698 8.663 8.465 9.657 6.445 5.251 5.246 5.003 4.909 5.321 5.484 4.873 5.466 5.464 4.712 4.589 4.874 4.542 4.664 4.717 4.562 4.669 4.714 4.633 4.601 4.601 4.545 4.589 4.533 4.426 4.508 4.457 4.454 4.545 4.489 5.035 4.529 4.319 4.502 4.637 5.178 4.646 4.662 4.536 4.974 5.462 4.846 4.591 6.39 4.933 5.56 4.72 4.678 4.878 4.867 5.098 4.687 4.54 4.646 4.708 4.68 4.726 4.736 4.606 4.473 4.798 6.218 6.17 5.954 4.971 5.037 5.072 5.063 5.235 5.923 5.603 7.592 5.371 8.216 6.943 5.284 7.193 6.693 5.676 6.212 7.434 6.885 5.934 5.922 6.234 6.719 8.914 9.217 13.634 9.649 8.894 6.962 6.777 6.627 6.282 6.109 5.969 5.734 5.732 5.414 5.792 8.112 9.819 8.069 5.159 5.047 4.997 4.957 4.777 5.262 5.442 6.942 6.462 5.304 5.244 5.277 4.989 5.007 5.029 5.379 4.902 4.644 4.714 4.762 4.837 4.879 4.707 4.619 4.422 4.124 4.402 10.414 7.324 4.937 4.472 4.764 4.789 4.892 5.252 4.862 4.897 4.889 5.002 4.854 4.984 4.887 5.019 4.922 4.777 4.722 4.959 5.164 5.082 4.645 4.417 4.735 4.842 4.692 4.677 4.86 4.867 4.76 4.73 4.77 4.77 4.752 4.752 4.792 4.797 4.832 4.85 4.907 4.865 4.87 4.902 4.925 4.897 4.92 4.957 4.948 4.958 4.921 4.985 5.019 4.922 4.938 5.002 5.03 5.01 5.035 4.973 4.891 4.98 4.962 4.99 4.962 5.025 4.987 4.98 5.047 5.112 5.15 5.055 5.01 5.132 5.33 5.055 4.965 4.997 5.2 5.287 5.09 5.19 5.337 5.387 5.097 5.365 5.392 5.21 5.897 6.332 7.01 7.43 7.79 8.397 8.68 9.347 9.95 10.327 10.987 11.745 12.032 12.8 13.47 14.13 14.695 15.26 15.755 16.335 16.805 16.927 17.347 17.382 17.547 17.667 17.585 17.83 17.537 17.427 17.332 17.175 17.005 16.925 16.63 16.602 16.487 16.13 15.975 15.957 15.66 15.46 15.307 15.075 14.862 14.71 14.56 14.397 14.472 14.33 13.762 13.602 13.332 13.127 12.942 12.64 12.38 12.145 11.905 11.605 11.392 11.122 11.05 10.475 10.157 9.845 9.592 9.385 9.012 8.742 8.445 8.207 7.997 7.697 7.46 7.287 7.05 6.902 6.607 7.64 7.112 6.232 5.92 5.72 5.67 5.677 5.6 5.535 5.467 5.42 5.52 5.562 5.647 7.027 7.137 6.125 5.367 5.617 5.245 5.325 5.335 5.725 5.277 5.35 4.812 4.697 4.867 4.84 4.735 6.677 10.052 5.327 4.737 5.665 5.145 5.16 5.065 4.667 4.652
12.274 12.497 13.472 13.392 13.114 13.807 14.672 14.582 14.312 14.957 15.327 15.309 15.319 15.287 15.267 15.289 15.339 15.377 15.419 15.474 15.492 15.554 15.527 15.554 15.564 15.584 15.582 15.564 15.587 15.619 15.634 15.659 15.699 15.739 15.752 15.799 15.809 15.864 15.904 15.872 15.842 15.884 15.919 15.954 15.979 15.997 16.024 16.029 16.052 16.044 16.057 16.107 16.112 16.147 16.204 16.304 16.397 16.432 16.494 16.539 16.559 16.589 16.677 16.757 16.804 16.884 16.957 17.012 17.059 17.149 17.152 17.184 16.132 15.197 14.744 13.997 14.297 12.629 11.659 11.604 10.652 10.227 10.757 8.952 7.602 7.017 6.902 6.819 6.184 5.602 5.334 5.452 5.534 5.049 5.012 5.234 4.954 4.944 4.979 5.004 5.037 4.982 4.987 4.982 4.952 4.922 4.919 4.922 4.969 4.944 4.882 5.014 5.684 5.459 8.204 8.734 6.459 7.349 4.872 4.817 9.284 6.074 5.636 5.415 5.272 5.566 5.971 5.103 5.163 5.194 5.87 5.387 5.55 4.65 5.229 4.717 4.604 4.561 4.551 4.565 4.504 4.5 4.48 4.405 4.383 4.406 5.003 4.582 4.577 5.116 5.139 7.09 5.889 4.775 5.62 4.371 6.238 6.119 5.575 6.631 4.821 5.953 6.382 6.141 6.758 7.312 5.107 4.791 6.437 6.371 5.688 6.167 4.806 4.458 4.611 4.575 4.931 4.853 4.833 5.155 7.591 7.252 6.584 5.153 5.038 5.537 5.708 6.2 8.815 6.915 6.579 6.448 7.396 6.477 6.353 7.046 9.177 6.504 6.026 5.938 5.922 5.944 6.384 14.594 12.977 13.909 16.147 11.299 10.542 7.157 6.984 6.954 6.844 6.774 7.254 6.984 6.109 5.702 6.852 13.219 14.242 11.082 11.317 9.077 5.207 5.012 4.859 4.687 4.814 5.049 5.402 6.254 4.974 5.284 5.224 4.967 4.922 5.019 4.957 4.784 4.704 4.849 4.844 4.592 4.434 4.124 3.929 4.027 4.614 5.147 4.667 4.902 4.877 4.827 4.834 4.814 4.909 5.394 4.867 4.917 4.884 5.019 4.877 4.789 4.842 4.784 4.777 4.677 4.872 5.039 5.729 5.084 5.407 8.58 8.312 5.267 4.815 4.802 4.892 4.79 4.76 4.787 4.795 4.76 4.757 4.78 4.832 4.862 4.9 4.877 4.955 4.94 4.967 5.01 4.99 4.994 5.001 4.944 4.975 4.99 4.996 4.986 4.908 4.957 5.03 5.038 4.997 5.032 4.998 4.99 4.909 4.921 4.974 4.987 5.007 4.99 5.205 5.095 5.132 5.097 5.06 5.13 4.977 5.002 5.03 5.045 5.26 5.2 5.077 5.44 5.287 5.762 5.695 5.325 5.1 5.475 5.282 5.772 8.245 6.742 7.31 7.675 8.065 8.642 8.905 9.425 10.035 10.52 11.257 11.872 12.387 13.15 13.842 14.582 15.045 15.462 16.187 16.645 16.75 16.975 17.355 17.315 17.575 17.505 17.73 17.415 17.387 17.3 17.177 17.03 16.822 16.65 16.527 16.365 16.197 15.947 15.987 15.702 15.522 15.32 15.36 14.932 14.697 14.567 14.402 14.222 14.457 14.02 13.797 13.367 13.122 12.962 12.757 12.465 12.227 11.995 11.705 11.46 11.122 10.85 10.607 10.262 9.967 9.63 9.377 9.202 8.882 8.555 8.29 7.995 7.75 7.512 7.315 7.087 6.85 6.67 6.452 7.43 7.44 6.102 5.857 5.72 5.645 5.602 5.652 5.545 5.44 5.437 5.455 5.48 5.55 5.607 5.945 5.435 5.235 5.08 5.072 4.962 4.882 4.922 4.842 4.935 4.807 4.782 4.882 4.84 4.787 5.082 8.98 5.115 5.17 4.987 4.922 5.2 5.082 4.857 4.757
12.407 12.414 13.127 13.767 13.442 13.507 14.329 14.627 14.479 15.144 15.394 15.382 15.377 15.319 15.309 15.372 15.412 15.469 15.502 15.539 15.599 15.649 15.649 15.682 15.679 15.689 15.719 15.684 15.682 15.744 15.774 15.792 15.859 15.879 15.902 15.939 15.954 15.979 16.037 16.057 16.034 16.037 16.062 16.097 16.127 16.142 16.194 16.202 16.229 16.247 16.259 16.279 16.317 16.347 16.344 16.444 16.554 16.627 16.689 16.759 16.779 16.814 16.877 16.974 17.052 17.082 17.172 17.237 17.287 17.359 17.407 18.327 15.847 15.212 14.959 14.357 15.929 12.342 12.317 12.042 13.219 12.537 10.259 8.749 7.764 7.959 7.987 7.249 6.687 5.897 5.432 5.419 5.202 5.159 4.984 4.789 4.819 5.049 4.982 4.917 4.914 4.947 4.964 4.992 4.949 4.919 4.964 4.984 4.972 4.904 4.849 5.404 7.802 7.247 5.852 9.862 9.367 8.799 6.784 4.877 9.822 10.062 10.09 5.365 5.093 6.774 5.304 6.154 5.942 7.765 6.585 6.378 5.277 4.648 6.573 5.712 4.53 4.147 4.233 4.187 4.448 4.494 4.435 4.433 4.511 4.572 5.035 4.352 5.546 6.071 6.31 7.995 8.022 7.075 6.526 6.28 8.635 8.836 8.973 6.344 4.707 7.85 5.972 6.901 7.05 7.692 4.903 6.219 5.969 5.88 6.854 6.955 7.198 5.919 4.617 4.836 6.076 9.378 5.808 5.097 6.351 8.377 8.176 5.088 5.33 5.665 8.495 9.222 6.77 7.387 7.132 7.055 7.116 6.325 5.77 5.988 6.203 6.694 5.912 5.807 6.179 6.152 6.459 12.647 9.019 19.544 17.469 11.894 15.597 9.812 7.197 7.069 6.894 6.869 7.487 6.827 6.187 5.897 8.419 10.779 11.607 17.217 17.489 13.779 11.714 7.002 4.779 5.082 4.974 5.057 5.434 6.802 5.434 5.289 5.507 5.004 4.807 5.069 4.862 4.734 4.812 4.577 4.114 3.987 4.134 4.314 4.564 4.829 5.092 5.057 5.212 5.267 4.917 4.942 4.897 4.887 5.004 4.967 5.252 4.822 4.754 4.744 4.914 4.737 4.749 4.809 4.844 4.764 4.789 4.879 5.502 5.219 6.047 8.987 7.472 7.872 5.227 4.892 4.81 4.795 4.785 4.802 4.807 4.777 4.82 4.822 4.865 4.94 4.912 4.932 4.936 4.971 4.969 4.947 4.947 4.947 4.971 5.008 4.961 5.027 5.036 4.944 4.975 4.981 5.019 4.987 5.044 5.063 4.988 4.965 5.148 5.157 4.995 4.995 5.01 5.167 5.17 5.062 5.015 5.377 5.037 5.002 5.08 5.062 5.052 5.075 5.212 4.982 5.095 5.767 5.212 5.49 5.2 5.055 5.19 5.757 6.602 13.727 8.212 7.027 7.612 7.897 8.35 8.817 9.37 9.742 10.312 10.937 11.617 11.995 12.767 13.427 14.23 15.592 15.525 15.937 16.417 16.855 16.73 17.072 17.097 17.397 17.472 17.5 17.422 17.337 17.27 17.17 17.11 16.842 16.68 16.587 16.487 16.305 16.035 15.797 15.742 15.53 15.375 15.155 14.977 14.787 14.582 14.427 14.525 14.612 15.17 14.667 13.42 13.322 12.95 12.742 12.515 12.277 12.072 11.782 11.587 11.215 10.95 10.627 10.36 10.042 9.732 9.437 9.2 8.92 8.65 8.365 8.102 7.897 7.657 7.432 7.207 6.985 6.787 6.51 6.867 6.945 7.205 5.895 5.712 5.647 5.58 5.502 5.465 5.41 5.382 5.47 5.422 5.39 5.357 5.34 5.517 5.807 5.405 5.137 5.057 4.99 5.01 4.815 4.882 5.525 4.732 4.88 4.885 4.85 4.717 6.067 5.805 5.07 5.137 4.762 4.912 5.23 4.947 4.92 4.64
12.492 12.532 12.789 13.789 14.127 13.752 14.002 14.627 14.587 15.232 15.404 15.422 15.427 15.377 15.379 15.404 15.489 15.519 15.582 15.612 15.644 15.714 15.769 15.777 15.834 15.787 15.839 15.839 15.859 15.869 15.902 15.917 15.994 16.014 16.054 16.082 16.097 16.119 16.179 16.232 16.222 16.182 16.197 16.254 16.272 16.309 16.349 16.397 16.429 16.474 16.474 16.487 16.524 16.559 16.552 16.617 16.742 16.817 16.899 16.979 17.042 17.044 17.107 17.202 17.257 17.322 17.404 17.502 17.529 17.599 17.612 18.907 16.322 15.429 15.074 17.057 15.689 14.549 12.059 11.649 11.302 11.352 10.257 8.947 8.477 8.949 8.617 7.709 7.069 6.277 5.469 5.432 5.304 5.282 5.207 5.134 4.772 5.107 6.464 5.299 4.862 4.894 4.944 4.964 4.949 4.917 4.957 4.952 4.914 4.892 4.844 4.894 6.179 7.167 5.197 6.714 9.144 4.989 6.482 8.474 7.872 8.317 5.509 5.257 4.969 5.724 7.241 5.762 6.011 6.244 6.342 7.495 6.611 5.748 5.598 5.679 5.108 4.451 4.257 4.207 4.357 4.278 4.415 4.404 4.544 4.816 5.684 4.74 7.138 8.278 8.684 8.508 8.131 7.297 8.455 7.184 7.296 6.91 6.254 6.217 6.448 7.427 6.982 6.525 5.589 6.617 7.312 6.102 6.408 5.146 6.281 8.526 8.552 8.119 6.582 7.656 9.055 8.1 7.295 5.806 5.825 6.61 7.31 5.668 5.611 5.786 6.291 8.165 8.233 7.545 6.745 6.222 7.504 6.503 6.387 6.252 6.731 8.029 5.974 6.179 6.094 6.297 6.534 6.989 7.389 12.709 11.517 16.467 16.114 12.302 7.537 7.464 7.787 7.134 7.452 6.959 6.294 6.147 8.392 6.649 9.354 13.964 9.907 7.602 12.119 7.569 4.939 4.892 4.767 5.287 5.297 6.297 5.877 5.084 5.039 5.427 5.132 4.847 4.759 4.814 4.522 4.094 4.297 4.872 4.997 4.937 4.904 5.027 5.237 5.149 5.239 4.932 4.924 4.919 4.844 4.779 4.789 4.859 4.729 4.754 4.847 4.804 4.792 4.824 4.832 4.812 4.972 4.817 4.894 5.039 5.117 5.094 5.465 6.052 9.537 6.62 5.667 4.95 4.782 4.74 4.835 4.812 4.81 4.87 4.966 5.009 4.935 4.943 4.971 4.943 4.937 5.006 5.009 5.001 5.023 5.03 5.023 5.003 5.057 5.027 4.981 4.969 4.953 4.98 4.997 5.024 5.061 5.006 4.983 5.146 5.622 5.656 5.148 5.032 5.01 5.142 5.33 5.165 5.042 5.097 5.055 5.095 5.057 5.235 5.182 5.08 6.947 6.215 5.175 6.112 5.532 5.025 5.075 5.147 5.2 6.175 16.557 22.27 12.415 8.375 7.985 8.252 8.712 9.56 9.645 9.987 10.515 11.117 11.85 12.352 13.155 13.835 14.477 15.42 15.7 16.215 16.532 16.657 16.795 17.21 17.185 17.512 17.34 17.302 17.297 17.22 17.152 17.005 16.89 16.725 16.537 16.345 16.242 16.087 15.96 15.665 15.567 15.38 15.27 14.99 14.802 14.597 14.442 14.41 14.217 14.375 14.045 13.46 13.282 13.03 12.805 12.535 12.302 12.065 11.96 11.595 11.275 10.992 10.732 10.462 10.17 9.832 9.517 9.257 8.995 8.715 8.455 8.182 7.945 7.782 7.502 7.275 7.215 7 6.625 6.532 7.2 6.62 6.03 5.67 5.742 5.67 5.472 5.415 5.397 5.342 5.29 5.377 5.467 5.415 5.4 5.395 5.44 5.492 5.397 5.327 5.305 4.887 5.035 4.962 4.885 5.197 4.777 4.762 4.76 4.707 6.455 4.462 4.612 4.86 4.74 4.865 4.805 4.787 4.822 4.727 4.765
12.587 12.679 12.714 13.362 14.544 14.304 14.074 14.479 14.782 15.347 15.399 15.469 15.487 15.427 15.452 15.477 15.537 15.589 15.664 15.717 15.752 15.802 15.867 15.879 15.919 15.934 15.962 15.974 15.989 16.009 16.032 16.044 16.092 16.127 16.192 16.219 16.237 16.272 16.302 16.357 16.397 16.367 16.367 16.417 16.417 16.474 16.527 16.572 16.629 16.664 16.684 16.709 16.712 16.752 16.789 16.772 16.882 17.022 17.104 17.187 17.264 17.294 17.372 17.447 17.492 17.562 17.622 17.752 17.787 17.779 17.899 19.427 17.149 15.512 16.609 17.262 18.444 18.464 16.419 12.902 11.372 11.489 11.389 10.809 8.802 9.024 8.892 8.322 7.819 6.854 5.577 5.324 5.357 5.314 5.184 5.129 4.974 4.894 5.177 5.052 4.852 4.834 4.894 4.939 4.929 4.904 4.977 4.944 4.889 4.849 4.812 4.772 4.957 5.379 5.064 5.049 5.217 5.219 4.814 6.697 6.209 5.204 6.221 6.17 7.889 5.162 5.972 5.047 5.683 5.792 8.195 7.719 7.191 8.033 7.489 7.629 7.258 6.013 4.936 5.068 -9999 -9999 -9999 5.071 5.24 6.01 7.105 8.353 7.84 7.999 7.748 7.523 8.542 8.87 9.45 9.963 7.569 8.384 9.676 8.929 7.526 8.017 7.502 7.688 8.713 10.076 11.533 9.948 8.543 8.143 9.176 9.963 9.535 8.161 8.546 8.652 11.556 8.68 5.605 5.517 5.808 5.097 5.382 5.16 6.833 6.902 7.402 8.404 7.48 7.377 6.292 5.743 5.768 6.004 5.831 5.842 5.772 5.802 6.314 6.262 6.462 6.527 6.779 7.252 9.877 16.564 14.194 16.027 13.654 9.257 7.717 7.854 8.364 7.537 7.387 7.157 6.472 7.539 14.697 14.184 16.502 12.997 6.889 7.774 13.379 7.589 4.859 4.844 4.844 5.109 5.272 5.164 4.984 4.869 5.094 5.699 5.514 5.097 4.842 4.739 4.012 4.352 4.959 5.159 5.099 5.097 5.359 5.499 5.067 5.084 4.979 4.927 4.744 4.832 4.894 4.747 4.729 4.744 4.839 4.902 5.039 4.734 4.787 5.349 5.014 4.802 5.282 4.922 5.157 6.029 6.024 5.019 5.29 5.045 5.627 5.555 5.27 4.892 4.807 4.815 4.849 4.827 4.916 4.908 4.911 4.935 4.982 4.926 4.971 5.02 4.974 5.01 5.008 5.022 5.028 5.008 4.996 4.97 4.952 4.974 5.01 5.02 4.988 4.983 5.024 5.028 5.007 5.031 5.219 5.734 5.49 5.543 5.329 5.41 5.19 5.05 5.195 5.135 5.112 5.222 5.14 5.077 5.067 5.007 6.242 5.615 9.005 7.26 5.397 6.44 6.44 5.312 5.085 5.14 5.265 5.852 13.31 17.15 12.912 12.855 8.572 8.592 9.187 9.522 9.86 10.37 10.95 11.567 11.985 13.035 13.63 14.2 14.71 15.085 15.602 16.132 16.502 16.625 16.952 17.465 17.84 17.327 17.267 17.252 17.17 17.137 17.032 17.015 16.755 16.585 16.392 16.22 16.042 16.015 16.43 15.54 15.342 15.382 15.077 14.847 14.62 14.425 14.267 14.147 14.46 14.915 13.955 13.31 13.112 12.85 12.57 12.347 12.102 12.017 11.602 11.332 11.065 10.762 10.485 10.245 10.027 9.632 9.345 9.057 8.822 8.69 8.282 7.982 7.8 8.412 7.34 7.11 6.91 6.835 6.935 6.452 6.47 6.345 5.81 6.052 5.93 5.505 5.422 5.355 5.387 5.277 5.285 5.292 5.31 5.427 5.502 5.5 5.44 5.45 8.395 5.37 5.48 5.06 4.995 4.747 4.835 4.852 4.88 4.735 4.717 4.655 4.967 4.597 4.902 4.885 4.85 4.917 4.91 4.775 4.927 4.84 4.757
12.647 12.779 12.807 13.082 14.679 14.737 14.509 14.522 14.872 15.462 15.477 15.477 15.514 15.514 15.512 15.539 15.597 15.672 15.727 15.797 15.844 15.917 15.967 16.039 16.052 16.079 16.102 16.127 16.142 16.129 16.124 16.194 16.202 16.262 16.327 16.354 16.384 16.407 16.454 16.499 16.564 16.562 16.517 16.567 16.607 16.659 16.704 16.744 16.794 16.857 16.872 16.914 16.942 16.964 17.027 17.044 17.087 17.219 17.329 17.399 17.492 17.584 17.669 17.734 17.772 17.839 17.887 17.949 18.032 18.034 18.387 19.394 16.882 17.059 16.202 14.519 13.287 13.584 13.987 13.114 12.279 11.879 12.314 12.704 9.737 8.569 9.252 8.577 8.152 7.329 5.907 5.679 5.334 5.297 5.279 5.492 5.772 6.067 4.907 5.379 5.067 4.859 4.849 4.902 4.944 4.974 4.972 4.957 4.872 4.844 4.814 4.774 4.842 5.119 5.154 5.014 4.917 4.839 5.022 6.104 5.484 4.819 6.441 6.003 5.758 4.984 6.111 6.865 5.501 7.13 7.014 7.513 5.594 8.04 7.901 8.013 6.816 5.718 6.31 6.019 8.071 7.267 4.447 5.809 8.279 7.794 8.275 8.817 9.607 9.757 9.197 9.045 8.858 9.031 9.227 10.179 9.591 8.837 10.418 8.268 7.537 8.824 9.613 9.581 8.999 10.457 10.8 9.472 10.376 8.515 10.725 11.41 12.065 8.813 8.931 11.344 9.252 9.476 5.796 4.636 6.168 6.792 6.21 5.14 7.293 9.347 7.323 6.985 7.231 6.71 5.98 5.67 5.986 6.265 5.796 5.876 5.862 5.952 6.919 6.672 6.737 6.762 7.119 7.614 7.957 9.379 12.669 8.807 8.229 8.289 8.142 8.119 8.837 8.732 7.269 7.274 6.752 6.877 6.634 7.129 8.509 8.152 6.749 6.899 9.169 5.162 5.017 4.952 5.199 5.179 4.914 4.862 4.829 4.872 5.089 5.329 5.129 5.137 4.857 4.492 3.959 4.734 5.162 5.194 5.189 5.317 5.094 5.069 4.842 4.984 4.797 4.777 5.317 4.974 4.724 4.734 4.742 4.704 4.997 4.932 5.122 4.924 4.879 4.944 5.132 4.899 5.154 5.039 5.962 6.104 5.217 4.957 5.102 5.025 4.935 4.855 4.843 4.815 4.799 4.854 4.822 4.866 4.893 4.931 4.973 4.971 4.982 4.962 4.969 4.985 4.978 4.983 4.99 5.016 5.02 5.014 4.999 5.035 4.991 5.006 5.008 4.989 5.002 4.996 4.999 4.996 5.015 5.262 5.582 5.612 5.436 5.683 5.525 5.332 5.26 5.162 5.107 5.105 5.27 5.235 5.107 5.112 5.092 5.22 5.68 5.12 5.87 6.637 5.697 5.677 5.872 5.142 5.177 5.097 5.542 6.41 10.787 8.875 9.552 8.207 8.64 9.115 9.537 9.83 10.202 10.84 11.367 11.872 12.475 13.327 13.862 14.36 14.81 15.357 16.252 16.745 16.672 16.73 17.215 17.34 17.407 17.345 17.162 17.11 17.065 17.067 16.88 16.792 16.622 16.437 16.28 16.077 15.887 16.267 16.887 15.397 15.415 15.01 16.072 14.96 14.542 14.285 14.275 14.155 15.725 14.74 13.327 13.11 12.902 12.667 12.422 12.202 11.947 11.65 11.38 11.087 10.827 10.562 10.272 9.99 9.697 9.43 9.177 8.902 8.82 8.71 8.207 8.087 8.62 7.96 7.182 6.965 8.08 6.835 7.185 6.325 6.185 5.975 5.742 5.637 5.572 5.465 5.392 5.372 5.33 5.287 5.447 5.3 5.255 5.315 5.507 5.497 5.39 5.405 8.037 5.295 5.492 5.05 5.022 4.91 4.845 4.93 4.837 4.752 4.502 4.647 4.732 4.812 4.812 4.8 4.977 4.93 4.992 4.885 4.885 4.8 4.592
12.697 12.849 12.939 12.984 13.879 14.839 15.049 14.642 14.877 15.372 15.534 15.472 15.532 15.544 15.587 15.614 15.687 15.754 15.822 15.887 15.952 16.042 16.062 16.159 16.197 16.192 16.219 16.262 16.267 16.274 16.254 16.324 16.359 16.389 16.464 16.492 16.557 16.559 16.584 16.629 16.722 16.769 16.737 16.699 16.782 16.809 16.869 16.937 16.989 17.027 17.122 17.109 17.134 17.189 17.224 17.299 17.339 17.419 17.562 17.622 17.734 17.849 17.997 18.014 18.064 18.089 18.129 18.202 18.262 18.259 18.264 19.072 17.487 17.787 16.617 17.179 16.587 15.167 13.532 12.722 11.849 12.427 12.569 11.902 10.212 9.002 9.084 8.434 8.399 7.429 6.292 6.079 5.749 5.472 5.157 5.094 5.197 5.657 5.734 5.207 7.089 5.447 4.864 4.882 4.924 4.974 4.987 4.957 4.919 4.837 4.824 4.784 4.782 4.909 4.894 4.917 5.107 5.134 4.789 5.897 5.754 6.057 5.221 5.199 4.895 4.899 6.416 6.305 5.161 10.293 9.546 9.495 8.669 9.211 9.318 8.753 8.581 6.923 6.516 6.087 6.985 7.586 7.576 7.244 7.684 8.205 8.121 9.619 8.863 10.998 10.801 8.764 8.187 9.449 11.121 10.846 8.943 8.706 10.231 10.787 9.162 8.692 9.852 10.256 11.979 11.291 11.561 8.468 13.996 13.1 11.631 11.985 13.256 12.863 9.095 9.466 6.768 9.063 8.269 5.321 5.565 7.904 9.795 9.187 7.514 8.01 6.393 5.86 6.46 6.57 5.739 5.889 6.279 6.281 5.927 6.152 6.009 6.277 6.797 6.819 7.017 7.257 7.294 7.827 8.474 8.652 8.099 8.677 8.919 8.597 8.459 8.319 8.237 8.114 7.199 7.284 6.999 7.022 6.837 7.117 6.732 6.302 6.472 8.269 5.604 5.337 6.329 6.107 5.077 5.002 4.924 4.934 5.019 5.052 5.092 5.144 5.057 4.979 4.802 4.102 4.432 4.847 5.094 5.244 5.224 5.107 4.987 4.757 4.767 4.852 4.744 4.747 4.749 4.807 4.794 4.949 5.034 5.187 4.844 4.867 4.799 5.192 4.959 4.984 5.462 5.139 5.819 5.392 4.939 5.049 5.588 5.55 5.097 4.739 4.926 4.895 4.852 4.826 4.867 4.864 4.92 4.893 4.902 4.944 4.936 4.963 4.967 4.992 4.995 5.01 4.996 5.014 5.035 5.021 5.02 4.989 5.011 5.004 4.999 5.174 5.55 5.082 5.017 5.005 4.965 4.946 5.183 5.614 5.607 5.72 5.342 5.303 5.475 5.475 5.172 5.14 5.19 5.105 5.167 5.18 5.035 5.295 5.145 5.292 6.102 5.52 5.365 5.422 5.452 5.227 5.127 5.122 5.5 5.735 6.122 6.82 7.217 7.712 8.23 8.637 9.13 9.472 9.912 10.225 10.75 11.657 11.897 12.337 13.477 13.547 14.077 14.69 15.217 15.732 16.515 16.895 16.677 16.83 17.425 17.417 17.46 17.117 17.08 17.032 17.007 16.857 16.77 16.615 16.492 16.342 16.102 15.922 15.75 15.59 16.012 15.907 15.145 15.237 16.065 15.26 14.797 14.137 13.967 13.805 13.607 13.575 13.157 12.952 12.737 12.625 12.242 12.245 11.697 11.42 11.145 10.882 10.592 10.335 10.057 9.767 9.467 9.195 8.962 8.74 8.66 8.472 8.14 8.157 8.957 7.355 7.155 6.827 6.705 6.455 6.555 6.392 6.185 5.895 5.79 5.687 5.605 5.502 5.385 5.417 5.302 5.337 5.292 5.3 5.32 5.332 5.38 5.47 5.372 5.402 5.597 5.32 4.845 4.802 4.895 4.91 4.982 4.915 4.905 5 5.827 6.13 5.807 5.1 4.835 4.957 4.87 4.975 4.977 5.04 4.825 4.585 4.65
12.804 12.919 13.057 13.022 13.454 14.537 15.182 15.092 14.939 15.409 15.519 15.484 15.537 15.577 15.664 15.707 15.762 15.824 15.914 15.992 16.067 16.139 16.207 16.257 16.347 16.354 16.347 16.359 16.414 16.432 16.444 16.459 16.504 16.532 16.567 16.647 16.694 16.744 16.757 16.829 16.872 16.949 16.952 16.934 16.957 17.022 17.104 17.134 17.199 17.229 17.322 17.349 17.407 17.437 17.482 17.547 17.597 17.627 17.777 17.897 18.007 18.049 18.149 18.229 18.274 18.317 18.399 18.442 18.464 18.507 18.547 18.989 20.417 15.727 20.127 13.999 15.114 15.779 13.249 12.594 12.162 11.844 11.214 10.969 10.359 9.207 8.772 8.454 7.852 7.192 6.559 6.214 5.972 5.632 6.507 6.082 4.969 5.839 5.132 5.372 6.379 5.089 5.782 4.927 4.912 4.944 4.972 4.914 4.927 4.877 4.812 4.777 4.769 4.792 4.932 4.879 5.227 5.097 5.819 5.284 5.069 5.377 4.743 5.083 5.003 5.076 4.915 4.724 7.572 9.526 8.979 10.499 10.506 9.714 7.936 9.364 9.584 8.822 8.346 5.902 7.052 8.664 8.011 6.931 7.584 9.587 8.555 9.417 9.916 11.882 11.793 12.51 10.491 9.667 10.44 10.608 11.884 10.867 10.557 12.613 8.841 5.47 7.592 10.1 11.811 8.863 9.641 7.65 7.237 10.96 8.915 10.998 10.407 9.096 6.167 4.438 5.564 6.713 5.649 7.672 7.664 8.325 10.126 8.586 6.513 6.249 5.989 5.812 5.956 6.609 6.122 5.906 6.038 6.064 5.959 6.219 6.214 6.517 7.134 7.197 7.264 7.599 7.707 8.019 8.479 8.502 8.162 8.419 8.744 8.159 8.687 8.489 8.787 8.939 7.662 7.487 7.429 7.527 7.317 7.279 6.887 7.009 6.809 6.479 6.219 6.089 10.872 8.052 5.237 5.179 5.254 6.402 9.387 5.087 4.959 5.024 4.962 4.929 4.662 4.232 4.864 4.974 5.124 5.202 5.327 5.127 5.037 4.772 4.812 4.884 4.822 4.764 4.832 4.772 4.869 4.897 5.024 5.014 4.952 4.912 4.917 5.304 5.019 4.992 5.102 5.212 5.475 5.163 5.252 5.265 5.58 5.456 5.411 5.365 4.747 4.81 4.827 4.871 4.881 4.884 4.93 4.937 4.959 4.954 4.986 4.993 5.04 5.035 5.005 5.023 5.042 4.988 5.032 5.032 5.001 4.976 4.985 4.981 5.752 6.597 6.517 5.308 5.412 5.158 4.966 5.151 5.038 5.156 5.099 5.254 5.131 5.215 5.54 5.315 5.137 5.242 5.87 5.397 5.112 5.13 5.045 5.11 5.135 5.21 6.505 5.247 5.212 5.557 5.36 5.07 5.16 5.397 5.785 6.175 6.557 6.997 7.442 7.947 8.522 9.065 9.535 9.855 10.165 10.61 11.26 11.842 12.83 12.777 13.352 19.742 18.712 22.77 18.332 17.215 16.717 16.81 16.802 16.997 17.232 17.972 17.825 17.085 17.05 16.975 16.875 16.77 16.6 16.475 16.465 16.737 15.952 15.79 15.617 15.452 15.365 15.102 14.93 14.975 14.65 14.39 14.332 14.142 13.822 13.59 13.422 13.267 13.035 12.752 12.522 12.305 12.062 11.815 11.542 11.26 10.947 10.652 10.352 10.08 9.837 9.57 9.33 9.052 8.882 9.03 8.4 8.1 8 8.275 7.827 7.47 7.672 6.835 6.557 6.312 6.282 6.047 6.037 5.695 5.602 5.667 5.517 5.41 5.435 5.335 5.4 5.237 5.21 5.27 5.375 5.355 5.772 7.502 7.777 5.355 5.205 4.94 4.797 4.77 4.95 5.017 5.225 4.962 4.91 5.427 5.365 5.18 5.432 4.812 4.802 4.877 4.755 4.89 4.7 4.877 4.765 4.465 4.985
13.642 12.994 13.097 13.157 13.279 14.302 15.207 15.372 15.127 15.442 15.584 15.489 15.504 15.589 15.714 15.799 15.849 15.924 15.997 16.107 16.172 16.232 16.297 16.344 16.442 16.497 16.499 16.519 16.532 16.587 16.609 16.599 16.627 16.684 16.709 16.792 16.864 16.924 16.954 16.979 17.069 17.117 17.147 17.164 17.167 17.237 17.264 17.327 17.404 17.472 17.542 17.604 17.669 17.692 17.752 17.804 17.869 17.884 17.992 18.162 18.239 18.264 18.354 18.449 18.489 18.554 18.624 18.672 18.724 18.709 18.727 18.207 18.964 15.882 15.352 15.357 14.974 13.787 13.224 12.704 12.944 11.944 12.682 12.194 10.977 10.249 8.897 8.844 8.379 7.799 6.784 6.954 6.424 5.919 7.319 8.862 6.414 5.559 5.007 5.359 5.344 8.004 5.672 4.942 4.927 4.922 4.899 4.874 4.874 4.892 4.824 4.774 4.714 4.672 4.774 4.849 4.899 4.819 4.839 4.739 4.622 4.789 4.721 4.813 5.228 4.582 4.7 4.567 6.302 8.355 9.028 9.683 10.258 9.355 7.478 7.235 7.258 8.285 7.1 4.827 6.61 7.671 7.537 6.482 6.17 8.336 9.198 7.908 7.434 11.335 9.694 10.158 9.662 5.228 5.536 7.754 8.591 5.65 3.888 5.019 5.952 8.096 5.052 4.386 4.6 6.852 5.026 4.656 5.018 7.608 6.291 5.74 5.168 4.469 4.758 4.583 4.409 4.995 4.691 5.086 4.786 8.747 9.578 6.754 6.575 5.801 6.039 6.528 6.027 5.925 5.775 5.761 5.907 5.902 5.967 6.277 6.557 6.737 6.924 7.032 7.344 7.707 7.962 8.272 8.652 9.434 9.414 8.269 8.239 8.522 9.244 11.967 9.147 8.852 7.794 7.754 7.769 7.582 7.537 7.159 6.962 6.799 6.657 6.282 6.144 5.862 5.847 5.604 5.407 5.312 6.237 10.839 9.237 4.524 4.512 4.484 4.667 4.549 4.202 4.792 5.144 4.912 5.117 5.117 5.422 5.557 5.139 4.789 4.759 4.797 4.822 4.904 4.872 4.839 4.874 5.394 5.097 5.074 5.039 4.952 5.244 5.439 4.915 4.986 5.124 4.914 5.057 5.333 5.543 5.241 5.422 5.32 5.218 4.976 4.744 4.86 4.888 4.885 4.89 4.912 4.924 4.929 4.947 4.955 4.999 4.985 5.036 5.047 5.024 5.029 5.026 4.998 5.013 5.009 5.016 4.978 5.042 5.486 5.621 6.038 5.782 5.443 5.137 5.064 4.996 5.415 5.136 5.362 5.448 5.095 5.35 5.21 5.137 5.252 5.157 5.267 5.17 5.157 5.105 5.28 5.115 5.51 5.067 5.217 6.182 5.2 5.177 5.44 5.315 5.24 5.377 5.59 6.03 6.61 6.78 7.345 7.787 8.43 8.897 9.39 9.87 10.225 10.605 11.137 11.632 12.147 12.757 20.64 26.18 28.777 25.937 25.552 25.267 20.275 17.63 16.77 17.007 17.58 17.25 17.785 17.035 17.022 17.035 16.85 16.77 16.637 16.502 16.48 16.24 16.045 15.807 15.66 15.47 15.43 15.207 15.03 15.477 14.612 14.422 14.2 14.055 13.985 13.672 13.447 13.247 13.087 12.855 12.587 12.357 12.135 11.862 11.615 11.332 11.045 10.725 10.435 10.142 9.905 9.605 9.387 9.095 8.862 8.6 8.475 8.217 8.047 8.47 8.577 7.612 7.47 7.465 6.615 6.527 6.432 6.132 6.132 6.555 6.837 5.692 5.547 5.6 5.512 5.355 5.372 5.25 5.207 5.185 5.26 5.337 5.325 7.485 10.23 7.845 9.007 5.392 4.96 4.822 4.852 4.995 5.117 5.027 5.012 4.76 4.997 4.845 5.132 4.947 4.655 4.595 4.815 4.8 4.897 4.797 4.797 4.492 4.465 4.682
14.214 13.402 13.159 13.234 13.287 13.842 15.037 15.637 15.344 15.309 15.739 15.507 15.547 15.622 15.762 15.879 15.974 16.027 16.089 16.197 16.269 16.334 16.404 16.454 16.529 16.599 16.642 16.654 16.722 16.714 16.732 16.742 16.749 16.817 16.879 16.959 17.017 17.069 17.129 17.164 17.224 17.297 17.342 17.407 17.362 17.414 17.469 17.522 17.617 17.697 17.774 17.824 17.899 17.964 18.029 18.059 18.152 18.219 18.254 18.384 18.457 18.517 18.612 18.699 18.729 18.809 18.889 18.957 18.942 19.262 18.734 18.399 19.517 22.417 19.604 18.709 17.644 14.732 14.194 12.914 12.814 12.262 12.539 12.432 11.602 10.722 9.392 8.519 8.607 7.499 7.232 7.077 6.637 6.154 9.172 9.379 8.517 6.554 5.119 5.454 5.097 6.042 7.552 7.507 6.179 4.892 4.817 4.809 4.732 4.754 4.702 4.622 4.682 4.587 4.574 4.742 4.637 4.549 4.482 4.524 4.477 4.569 4.702 4.687 4.796 4.65 4.48 4.772 5.426 5.086 5.679 6.478 6.333 6.689 6.972 6.205 6.444 6.252 5.964 5.997 7.031 5.585 5.4 4.829 5.157 7.932 9.231 6.411 7.253 8.372 6.517 5.182 5.2 4.971 5.033 5.973 4.678 5.457 4.994 4.693 4.69 4.701 4.544 4.693 4.953 6.797 5.45 4.675 7.549 9.365 5.805 4.734 4.788 4.995 4.9 4.933 10.479 6.551 4.24 4.349 4.267 7.361 9.602 6.709 6.796 6.436 6.529 6.201 6.267 6.145 5.999 5.882 6.122 6.297 6.287 6.802 7.284 6.739 6.924 7.209 10.379 10.672 8.404 8.542 8.777 8.604 8.592 9.147 8.489 9.684 10.357 9.757 9.149 8.964 8.519 9.302 8.064 7.809 7.554 7.354 7.274 6.937 6.719 6.557 6.352 6.129 7.937 5.732 5.452 4.982 4.919 6.604 8.839 6.939 7.477 4.784 7.354 9.822 5.159 4.877 4.892 4.882 4.994 4.977 5.072 5.409 4.902 4.822 4.839 4.882 6.317 6.439 5.787 4.952 5.179 5.164 5.157 5.331 5.078 4.89 4.99 5.182 5.192 4.941 4.971 5.027 5.274 5.307 5.176 5.36 5.416 5.204 5.255 4.94 4.763 4.973 5.044 4.94 4.903 4.931 4.975 4.941 4.949 4.979 4.998 5.002 5.03 5.042 5.046 5.017 5.029 5.043 5.044 5.007 5.011 4.962 5.204 5.814 5.483 5.505 5.155 5.046 5.414 5.051 5.032 5.079 5.078 5.871 5.232 5.006 5.125 5.172 5.232 5.192 5.282 5.43 5.28 5.25 5.102 5.245 5.045 5.127 5.165 5.167 5.22 5.117 5.337 5.342 5.277 5.4 5.605 5.92 6.332 6.697 7.232 7.775 8.452 8.837 9.255 9.757 10.145 10.62 11.17 11.605 12.122 12.64 15.715 24.15 30.245 32.33 33.255 31.937 28.455 25.727 19.32 16.962 17.892 18.17 17.36 17.107 17.022 16.987 16.875 16.762 16.657 16.542 16.34 16.22 16.125 15.885 15.685 15.552 15.507 15.36 15.055 15.242 14.622 14.622 14.36 14.067 13.92 13.807 13.515 13.267 13.072 12.88 12.67 12.452 12.242 12.025 11.695 11.42 11.122 10.797 10.522 10.217 9.957 9.712 9.43 9.192 8.92 8.792 8.51 8.172 8.072 8.347 8.477 7.507 7.225 9.142 8.327 6.637 6.407 6.237 5.97 6.365 8.317 9.045 6.502 5.71 5.895 6.012 5.427 5.377 5.305 5.235 5.327 5.982 7.075 5.335 9.335 6.847 6.095 8.4 7.285 4.905 4.95 4.925 5.022 5.38 5.017 4.877 4.542 4.662 5.08 5.007 4.92 4.837 4.692 4.67 4.822 4.965 4.975 4.8 5.155 5.125 4.527
14.184 13.822 13.314 13.357 13.432 13.554 14.644 15.569 15.722 15.399 15.684 15.602 15.597 15.689 15.827 15.969 16.054 16.147 16.194 16.269 16.352 16.434 16.514 16.577 16.647 16.727 16.797 16.812 16.852 16.844 16.889 16.887 16.922 16.989 17.037 17.102 17.179 17.232 17.297 17.327 17.412 17.454 17.532 17.607 17.599 17.604 17.684 17.764 17.839 17.934 17.987 18.074 18.184 18.214 18.264 18.337 18.424 18.487 18.509 18.577 18.674 18.764 18.882 18.962 19.034 19.074 19.164 19.194 19.187 20.127 21.522 22.687 26.644 29.242 26.567 25.067 18.459 17.097 15.054 13.064 12.932 12.387 13.049 12.519 11.734 11.029 10.454 9.862 8.179 8.239 7.669 7.564 9.584 7.349 9.339 9.377 7.467 6.052 5.562 5.437 5.152 5.042 6.147 10.057 6.327 5.954 5.197 4.854 4.877 4.802 4.862 4.887 4.917 4.812 4.772 4.839 4.784 4.759 4.752 4.737 4.682 4.757 4.742 4.808 5.03 5.64 6.891 4.829 4.902 4.811 4.883 5.244 5.376 6.235 6.872 6.802 7.589 7.169 8.497 6.172 5.263 5.066 5.101 4.979 5.743 9.711 8.876 8.815 7.427 9.512 6.708 5.095 4.775 5.371 5.208 4.885 4.914 6.305 5.157 4.75 4.706 4.739 5.064 4.719 5.149 6.129 4.683 4.698 4.602 5.006 5.556 4.573 4.835 5.274 5.252 4.991 4.905 4.917 13.717 6.971 4.589 7.487 8.253 6.606 6.059 6.334 6.974 7.724 9.814 8.819 6.407 6.304 6.417 6.509 6.567 7.922 6.869 7.312 7.354 8.594 8.294 8.994 8.724 8.827 9.034 8.989 11.209 13.162 9.969 9.169 9.814 8.842 8.994 9.604 8.839 8.657 8.332 8.029 7.852 7.557 7.309 7.229 8.654 6.839 6.574 6.232 8.004 6.164 6.692 7.692 8.527 10.804 10.184 7.532 7.034 7.847 6.404 6.119 5.029 5.007 4.642 4.699 5.059 5.324 5.052 5.229 5.154 5.477 5.079 4.844 4.834 4.889 5.05 5.06 5.63 5.549 5.306 5.526 5.209 5.137 5.084 6.783 5.616 5.377 5.698 5.387 5.576 5.327 5.208 5.271 5.269 5.166 5.089 5.14 4.865 5.208 5.331 5.04 5.158 5.248 5.269 5.298 5.178 4.989 5.003 4.988 5.016 5.08 5.081 5.042 5.063 5.124 5.066 5.019 4.978 4.966 5.095 5.19 5.376 5.107 5.108 5.031 5.226 5.027 5.098 5.063 4.957 5.064 5.177 5.042 5.152 5.11 5.985 5.327 5.955 5.477 5.477 5.317 5.212 5.462 5.492 5.162 5.3 5.13 5.112 5.202 5.415 5.447 5.345 5.442 5.625 6.49 6.637 7.162 7.577 8.192 8.685 9.24 9.767 10.185 10.625 11.167 11.64 12.165 12.66 13.082 15.275 24.947 30.092 33.307 31.412 33.305 30.465 25.195 21.035 17.362 17.99 17.25 17.185 17.05 17.065 16.9 16.835 16.7 16.585 16.377 16.215 16.085 15.915 15.722 15.542 15.502 15.42 15.145 14.845 14.98 14.772 14.327 14.29 13.94 13.87 13.59 13.322 13.132 12.915 12.74 12.507 12.282 12.047 11.787 11.49 11.24 10.887 10.585 10.315 10.017 9.85 9.512 9.23 8.952 8.73 8.672 8.575 8.162 7.835 7.707 7.532 7.4 7.175 8.022 8.845 6.42 6.232 6.147 5.84 6.225 6.795 6.212 5.752 6.242 6.325 5.69 5.412 5.497 5.315 5.657 5.582 5.707 5.232 5.31 9.5 6.287 6.95 5.225 10.507 4.94 4.867 4.93 4.997 4.987 4.882 5.062 5.005 4.915 5.082 4.982 5.04 4.912 4.79 4.94 4.662 4.787 4.76 4.637 4.932 4.755 4.827
14.474 14.242 13.572 13.417 13.499 13.539 14.114 15.392 15.912 15.572 15.622 15.789 15.712 15.814 15.914 16.057 16.172 16.237 16.267 16.344 16.434 16.524 16.619 16.702 16.772 16.849 16.934 16.962 16.974 16.997 17.032 17.074 17.089 17.112 17.177 17.257 17.324 17.417 17.464 17.544 17.569 17.639 17.729 17.804 17.887 17.852 17.904 17.992 18.089 18.177 18.259 18.324 18.427 18.502 18.557 18.614 18.664 18.727 18.757 18.782 18.874 18.999 19.124 19.222 19.309 19.337 19.402 19.462 19.412 20.614 21.997 24.614 25.127 24.602 22.914 24.484 20.787 19.617 15.054 13.237 13.742 12.414 12.764 12.309 11.342 11.324 10.364 9.767 9.074 8.379 7.924 7.664 7.289 6.957 7.294 9.174 7.852 6.969 6.442 5.924 5.622 5.029 4.979 5.317 6.187 7.444 6.589 5.179 4.972 4.837 4.799 4.859 4.832 4.787 4.822 5.017 5.104 5.057 4.854 4.847 4.729 6.039 5.929 4.999 6.555 5.432 5.382 4.978 5.592 6.792 6.145 5.662 5.684 5.694 6.593 6.761 6.191 5.389 5.449 5.019 4.811 4.706 4.757 4.931 5.482 7.077 7.374 6.701 6.878 7.573 6.029 5.048 4.86 5.298 5.499 4.687 5.223 7.43 5.197 4.901 4.878 4.916 5.186 5.489 6.658 5.302 4.852 4.813 5.307 6.558 5.669 4.864 4.941 5.068 6.439 5.346 4.435 4.707 7.082 7.62 5.717 5.818 6.386 6.171 6.208 6.178 6.343 8.969 9.449 8.809 6.904 6.829 6.809 6.847 6.762 7.094 6.912 8.217 9.119 8.137 8.254 8.854 9.244 9.229 9.349 9.427 9.382 9.429 9.354 9.334 9.187 9.107 10.022 10.049 9.219 8.847 8.579 8.402 8.732 8.069 7.802 7.419 8.317 7.464 6.657 6.767 7.187 6.807 7.859 11.329 9.884 15.094 6.424 6.032 5.724 5.767 6.832 7.727 5.614 6.692 5.327 4.712 4.697 5.139 5.444 5.479 5.384 5.947 5.379 4.86 4.826 4.971 5.139 5.043 5.302 5.41 5.241 5.312 5.106 5.054 5.325 5.99 6.371 6.527 6.002 5.477 5.181 5.103 5.378 5.366 5.419 5.989 5.095 4.892 4.947 5.244 5.456 5.289 5.045 5.556 5.583 5.552 5.515 5.104 5.053 5.044 5.004 5.153 5.162 5.059 5.138 5.098 5.057 5.023 5.008 5.072 5.061 5.113 5.251 5.077 5.146 6.37 5.142 4.928 4.979 5.096 4.996 5.415 5.687 5.047 5.04 5.132 5.23 5.36 5.302 5.475 5.437 5.415 5.342 5.335 5.057 5.125 5.162 5.117 5.175 5.275 5.37 5.295 5.46 5.695 6.085 6.517 7.155 7.57 8.09 8.505 8.975 9.552 10.07 10.615 11.077 11.67 12.277 12.67 13.167 13.66 15.7 22.21 26.222 33.22 33.132 32.552 30.5 29.185 21.26 17.627 17.285 17.265 17.122 17.175 17.007 16.897 16.72 16.61 16.46 16.577 16.087 15.98 15.772 15.617 15.442 15.397 15.2 14.89 14.672 14.502 14.315 14.15 13.952 13.78 13.642 13.515 13.185 13.007 12.787 12.545 12.347 12.105 11.865 11.65 11.325 11.055 10.717 10.412 10.112 9.845 9.562 9.322 9.042 8.762 8.572 8.335 8.402 8.027 7.78 7.722 8.05 7.72 7.472 9.027 6.727 6.415 6.132 5.94 5.91 6.327 6.417 6.577 5.72 5.515 5.83 5.602 5.462 6.152 5.302 5.375 5.635 5.24 5.22 7.222 6.597 5.282 6.752 5.092 6.335 5.32 5.09 5.047 5.022 4.942 4.937 5.61 5.217 5.237 5.102 4.942 5.1 5.255 5.165 4.875 4.877 4.667 4.485 4.805 5 4.882 4.78
14.727 14.454 13.999 13.512 13.602 13.639 13.872 15.477 16.124 15.797 15.607 16.132 15.987 15.964 16.039 16.172 16.284 16.339 16.394 16.462 16.534 16.644 16.727 16.812 16.899 16.969 17.039 17.117 17.139 17.152 17.199 17.224 17.277 17.292 17.352 17.419 17.474 17.564 17.632 17.702 17.794 17.857 17.939 18.032 18.097 18.132 18.139 18.224 18.347 18.424 18.527 18.577 18.652 18.759 18.822 18.872 18.917 18.967 18.999 19.047 19.114 19.252 19.367 19.719 19.649 19.652 19.694 19.744 19.712 19.627 19.549 18.819 18.927 21.987 20.184 20.549 19.084 17.332 15.272 14.354 14.754 13.339 12.192 12.147 11.679 10.807 10.359 9.849 9.819 9.077 8.242 8.072 7.737 7.629 8.384 9.392 7.382 7.294 6.784 6.317 6.192 5.389 5.147 5.299 4.879 5.232 6.032 6.009 5.417 4.919 4.784 4.834 4.842 4.807 4.879 5.039 5.232 5.337 5.879 6.137 5.267 4.759 5.272 5.167 4.982 5.007 4.823 4.819 4.953 5.878 7.484 5.657 6.002 5.699 5.479 5.899 6.067 5.019 5.413 5.307 5.007 4.978 4.711 4.846 5.758 6.213 5.742 5.314 5.953 7.338 5.123 4.955 4.696 4.718 6.032 4.635 4.613 5.003 4.873 4.766 4.832 4.851 4.957 5.467 4.943 5.026 4.923 5.1 5.338 6.645 5.671 5.176 5.159 5.596 6.178 4.783 4.456 5.461 7.074 6.069 6.156 6.424 6.96 6.74 6.987 6.237 7.877 11.887 11.034 7.309 6.979 7.347 7.327 7.769 6.837 6.942 7.169 7.504 8.357 10.074 8.809 8.909 9.352 9.659 9.784 9.894 9.802 10.522 9.679 9.654 9.542 10.037 9.834 9.594 9.469 9.292 8.994 8.804 8.799 8.199 7.824 7.817 9.562 8.644 7.547 7.912 7.809 7.372 7.364 13.674 15.014 9.932 6.399 6.282 6.294 6.112 11.932 12.959 10.639 8.297 5.994 5.189 4.907 4.704 5.025 5.351 5.464 6.134 5.493 5.15 4.885 4.95 5.074 5.022 5.129 5.145 5.169 5.242 5.291 5.082 5.28 5.425 6.031 5.649 5.443 5.364 5.188 5.238 5.206 5.709 5.447 5.515 5.368 5.116 4.811 5.085 5.243 5.193 5.09 5.82 5.369 5.174 5.2 5.21 5.151 5.147 5.129 5.013 5.035 5.103 5.29 5.48 5.54 5.334 5.101 5.062 5.098 5.904 5.173 5.058 4.982 5.083 4.979 5.02 5.012 4.989 5.317 5.987 5.355 4.982 5.127 5.227 5.185 5.315 5.782 5.592 5.285 5.287 5.24 5.535 5.24 5.142 5.462 5.17 5.212 5.242 5.722 5.537 5.945 6.342 7.365 7.08 7.51 8.102 8.412 9.207 10.007 14.147 10.895 11.21 14.665 13.727 13.352 13.24 13.79 14.162 16.242 24.645 22.235 25.672 30.17 31.787 30.767 27.405 17.945 17.355 17.38 17.242 17.167 17.067 17.252 16.867 16.757 16.622 16.535 16.352 16.012 15.775 15.72 18.102 17.13 15.362 15.002 15.245 15.52 14.365 14.18 13.997 13.83 13.65 13.435 13.235 13.077 12.832 12.63 12.45 12.152 11.942 11.692 11.72 11.122 10.845 10.52 10.242 9.945 9.64 9.395 9.145 8.92 8.6 8.34 8.162 8.022 7.95 8.005 7.39 7.217 7.35 6.707 6.455 6.262 6.965 5.995 6.17 5.862 6.78 7.775 7.545 6.375 5.492 5.442 5.382 5.347 5.552 5.202 5.36 5.37 5.247 6.35 5.472 5.332 5.217 5.115 5.03 6.672 5.38 5.09 5.067 4.98 4.82 6.272 4.625 5.327 5.372 5.09 5.115 5.15 5.372 5.182 4.942 4.882 4.725 4.547 4.602 4.69 4.632 4.712
14.967 14.724 14.354 13.789 13.692 13.782 13.802 14.649 15.537 16.047 15.759 16.057 16.357 16.109 16.197 16.287 16.412 16.479 16.527 16.594 16.669 16.749 16.832 16.919 17.002 17.077 17.169 17.267 17.309 17.329 17.352 17.382 17.452 17.494 17.497 17.572 17.632 17.719 17.857 17.917 18.007 18.079 18.134 18.222 18.319 18.409 18.434 18.487 18.594 18.714 18.782 18.867 18.932 18.999 19.089 19.134 19.169 19.219 19.282 19.357 19.389 19.487 19.634 19.767 19.862 19.992 20.047 20.082 20.039 19.899 21.207 18.557 19.989 21.007 20.777 19.824 15.877 14.037 14.004 13.392 13.964 14.232 12.452 11.842 11.627 10.487 10.057 9.669 9.902 9.202 8.659 9.459 7.944 8.204 8.879 8.412 8.419 7.324 7.122 6.592 6.737 5.814 5.157 5.804 5.739 4.709 5.242 6.839 5.702 5.182 4.879 4.869 4.847 4.874 5.009 5.029 5.129 5.067 5.469 5.079 5.037 4.832 4.749 4.859 4.877 4.849 5.178 4.824 4.786 6.364 8.937 7.663 4.981 5.123 5.036 5.344 5.364 6.216 5.739 5.564 5.323 5.424 5.139 5.052 5.364 8.511 6.217 7.629 6.553 4.795 5.348 5.386 6.147 5.024 5.559 4.661 4.742 4.726 4.815 4.832 4.948 4.999 5.014 5.145 5.531 4.946 5.154 5.181 5.481 7.924 5.734 5.31 5.049 5.781 5.403 4.969 6.456 6.517 5.846 6.509 6.471 7.695 11.466 8.401 6.599 6.761 7.227 10.697 15.409 10.174 7.059 7.702 12.044 11.214 7.124 7.302 7.479 8.099 8.837 9.439 9.562 9.414 9.669 10.102 10.222 12.479 16.297 13.514 10.819 10.372 13.474 11.372 10.772 10.012 9.862 9.737 9.367 9.169 8.964 8.737 8.879 8.827 8.502 8.299 8.202 7.959 7.792 7.662 7.457 10.497 11.322 8.029 6.957 6.832 6.704 6.479 8.267 8.742 8.752 11.519 10.164 5.452 5.414 4.992 4.772 4.786 5.06 5.5 5.715 4.882 5.067 5.093 5.059 4.956 4.981 5.159 5.063 5.716 5.353 5.289 5.348 5.302 5.434 5.296 5.203 5.204 5.223 5.508 5.065 5.427 5.687 5.721 5.296 5.071 5.003 5.153 5.215 5.025 4.978 5.076 5.534 5.241 5.103 5.126 5.082 5.241 5.136 5.151 5.07 5.073 5.147 5.155 6.087 5.201 5.138 5.362 5.265 5.526 5.018 5.015 5.035 5.124 5.095 5.032 5.574 5.802 5.027 5.28 5.662 5.025 5.002 5.367 5.37 5.377 5.537 5.665 5.465 5.175 5.327 5.422 5.34 5.215 5.35 5.395 5.285 5.387 5.785 5.677 5.98 6.38 7.042 7.787 8.102 8.362 9.107 10.232 10.177 17.417 13.662 12.925 24.092 19.485 17.025 17.74 14.177 14.59 17.255 16.532 19.837 25.305 27.562 29.107 22.655 19.602 17.26 17.332 17.35 17.225 17.115 17.227 17.117 16.83 16.615 16.435 16.355 16.017 15.825 15.645 15.542 17.872 18.332 15.425 14.77 15.137 15.302 14.477 14.1 13.875 13.672 13.542 13.345 13.117 12.862 12.642 12.452 12.25 11.99 11.817 11.902 11.232 10.942 10.63 10.35 10.06 9.762 9.48 9.22 9 8.962 8.472 8.192 8.012 8.29 7.972 8.015 7.52 7.067 6.76 6.575 6.35 6.155 6.357 5.932 5.892 5.857 5.905 5.975 5.552 5.472 5.732 6.407 5.342 5.335 5.27 5.14 5.22 5.247 5.107 5.137 5.157 5.352 5.26 5.58 6.112 8.15 6.1 4.957 5.007 4.857 4.695 4.565 4.785 5.99 5.182 5.127 5.135 5.262 5.15 4.947 4.942 4.76 4.62 4.872 4.54 4.982 4.905 4.685
15.239 15.019 14.624 14.189 13.774 13.907 13.907 14.094 15.202 16.022 16.042 15.932 16.432 16.239 16.309 16.412 16.527 16.599 16.669 16.734 16.787 16.894 16.967 17.054 17.157 17.234 17.292 17.367 17.444 17.487 17.512 17.557 17.619 17.664 17.699 17.727 17.789 17.887 17.999 18.102 18.207 18.284 18.362 18.472 18.549 18.672 18.732 18.754 18.857 18.942 19.034 19.104 19.157 19.212 19.354 19.409 19.462 19.519 19.574 19.669 19.732 19.762 19.899 20.049 20.172 20.309 20.387 20.392 20.352 20.222 19.999 20.004 18.694 15.872 15.219 15.134 14.602 14.212 13.872 13.759 13.912 13.729 12.504 11.484 11.237 11.247 10.267 10.019 10.384 9.464 10.324 8.844 8.372 10.904 8.579 8.569 8.757 7.947 7.257 7.402 7.362 6.522 5.452 5.222 5.674 5.139 5.144 6.737 5.882 5.264 5.094 4.902 4.854 4.864 4.954 5.122 5.127 4.957 5.034 5.417 5.104 4.812 4.744 4.794 5.149 5.164 5.276 5.086 4.803 4.589 8.546 5.566 4.962 5.236 5.061 5.588 5.493 5.695 5.346 5.465 4.86 5.324 5.367 5.737 5.662 5.978 6.135 4.946 6.538 5.595 5.869 6.27 5.58 5.56 4.789 4.805 5.431 5.086 4.944 4.829 4.861 4.99 4.926 5.025 5.819 6.078 5.653 5.081 5.205 4.968 6.774 6.822 9.157 10.439 8.452 8.422 9.519 7.743 6.29 6.702 7.65 9.125 13.655 7.394 6.651 7.077 10.587 9.539 6.972 7.079 7.192 7.449 7.944 8.089 7.487 8.102 7.857 8.524 9.202 9.992 9.624 10.037 10.294 10.442 10.727 13.279 14.792 11.239 13.527 14.277 19.452 13.267 11.842 10.414 10.212 10.194 9.944 9.849 10.002 10.157 9.194 9.032 8.967 8.869 8.652 9.204 8.622 8.267 7.957 8.089 8.992 8.724 7.492 7.517 8.454 6.762 6.756 7.936 9.485 11.42 12.542 6.009 5.55 5.563 5.085 4.931 4.871 4.979 5.143 5.009 5.328 5.948 6.107 5.398 5.405 5.499 5.258 5.667 5.643 5.602 5.674 5.929 6.28 5.93 5.451 5.47 5.183 5.169 5.226 5.715 5.945 5.72 5.62 5.433 5.393 5.091 5.014 4.993 5.006 5.141 5.487 5.189 5.323 5.569 5.199 5.196 5.19 5.104 5.061 5.112 5.273 6.002 6.771 5.13 5.404 5.422 5.137 5.25 5.175 5.193 5.247 5.161 5.052 4.997 5.305 4.975 4.965 4.95 4.967 5.125 5.287 5.312 5.36 5.402 5.55 5.312 5.28 5.365 5.222 5.372 5.442 5.495 5.355 5.657 6.21 5.452 5.602 5.66 6.03 6.965 7.565 8.167 8.462 8.875 9.477 9.892 16.14 19.14 25.247 27.745 29.39 20.127 20.275 20.855 17.572 17.092 15.772 16.307 17.355 18.682 19.682 21.892 19.115 17.327 17.435 17.42 17.337 17.207 17.142 17.242 17.017 16.732 16.595 16.395 16.145 15.932 15.777 15.56 16.342 15.93 15.792 14.872 14.645 14.547 14.372 14.152 13.967 13.77 13.71 13.35 13.155 13.05 12.742 12.485 12.302 12.07 11.977 11.807 11.367 11.035 10.752 10.45 10.16 9.9 9.61 9.382 9.09 8.865 8.772 8.315 8.092 7.97 8.615 8.372 7.787 7.337 6.97 6.692 6.425 6.187 6.037 6.022 6.027 5.85 5.902 5.99 6.045 5.845 5.575 5.49 5.357 5.372 5.322 5.235 5.235 5.13 5.08 5.047 5.047 5.06 5.055 5.217 5.175 5.955 5.435 4.905 4.97 4.935 5.362 4.54 5.077 5.32 5.737 5.175 5.115 5.267 5.185 5.062 4.955 4.937 4.58 4.64 4.735 4.667 5.71 5.43 4.782
15.937 15.257 14.934 14.567 13.977 13.924 14.032 14.014 14.764 15.774 16.222 15.984 16.324 16.454 16.389 16.537 16.634 16.722 16.794 16.854 16.912 16.989 17.094 17.207 17.294 17.399 17.477 17.514 17.612 17.677 17.687 17.734 17.782 17.839 17.894 17.914 18.017 18.104 18.207 18.302 18.402 18.497 18.594 18.667 18.789 18.892 19.009 19.039 19.084 19.179 19.254 19.329 19.414 19.484 19.602 19.704 19.742 19.799 19.864 19.959 20.039 20.119 20.202 20.364 20.497 20.624 20.719 20.754 20.722 20.589 20.249 19.492 16.647 15.822 15.389 15.244 14.757 14.409 14.172 13.757 13.692 13.284 12.414 11.917 11.842 11.289 10.629 10.444 14.674 13.439 10.934 9.207 9.399 9.982 9.347 8.917 9.092 8.539 8.202 7.529 7.472 6.534 5.754 5.282 5.117 5.252 5.082 6.962 6.379 5.514 5.992 5.204 4.882 4.847 4.867 5.019 4.989 4.957 4.917 5.002 5.007 4.834 4.779 5.332 5.637 5.484 5.307 4.984 4.798 5.32 5.202 5.034 5.075 5.91 5.489 5.44 5.065 5.184 4.977 4.865 4.788 5.226 6.97 6.561 5.768 5.386 5.685 4.951 5.558 5.025 6.105 5.796 5.837 5.363 5.329 4.899 5.152 5.871 5.375 5.097 4.965 4.966 5.17 5.404 7.038 7.197 5.712 10.168 5.558 5.29 9.031 15.902 13.176 14.365 10.125 7.98 7.886 6.536 6.601 6.651 7.382 11.276 9.73 6.829 7.476 7.764 7.259 7.124 7.222 7.449 7.229 7.862 7.924 10.122 11.919 13.252 11.722 9.679 9.112 9.902 9.917 10.252 10.672 10.989 11.314 18.542 16.134 16.972 14.507 13.537 11.559 11.749 11.052 11.984 13.182 10.574 10.287 10.134 10.502 9.707 9.364 9.392 9.742 12.192 9.424 9.127 8.572 8.462 8.164 8.054 8.044 8.042 8.158 8.262 7.574 7.121 7.414 9.887 7.576 10.376 8.417 7.949 5.957 5.948 5.208 5.186 5.462 5.002 5.352 5.035 6.634 5.95 7.799 5.824 5.098 5.419 5.498 5.567 5.529 5.429 5.396 6.06 6.258 5.909 5.618 5.341 5.125 5.017 5.202 5.147 5.518 5.433 5.582 5.198 5.094 5.136 5.146 5.089 5.06 5.039 5.592 5.042 5.407 5.188 5.11 5.156 5.111 5.187 5.098 5.114 5.182 5.322 5.134 5.083 5.096 5.148 5.304 5.3 5.25 5.282 5.325 5.172 5.127 5.22 5.31 5.017 5.082 5.17 5.042 5.075 5.27 5.27 5.36 5.265 5.445 5.23 5.397 5.297 5.332 5.32 5.195 5.15 5.17 5.315 5.447 5.382 6.027 5.732 6.42 7.6 8.13 8.477 8.822 9.377 9.91 10.36 15.457 16.275 30.387 31.672 31.917 20.057 31.372 29.27 23.362 26.575 20.117 17.295 16.9 17.222 17.9 18.55 17.387 17.552 17.542 17.467 17.362 17.235 17.135 17.007 16.895 17.085 17.09 16.36 16.047 15.867 15.697 15.62 15.3 15.167 14.917 14.692 14.495 14.372 14.175 13.937 13.737 13.58 13.702 13.195 12.947 12.982 12.595 12.342 12.127 11.95 11.67 11.415 11.12 10.857 10.67 10.287 10.055 9.687 10.752 9.18 8.977 8.77 8.472 8.377 8 7.85 8.197 7.592 7.64 6.935 7.122 6.682 6.897 6.145 5.987 6.01 5.925 5.697 5.627 5.617 5.722 5.652 5.46 5.425 5.365 5.47 5.195 5.405 5.352 5.15 4.985 5.11 5.21 5.13 4.997 5.062 5.075 5.125 5.277 4.91 4.85 4.73 4.965 4.64 5.335 5.485 5.397 5.43 5.247 5.285 5.205 5.112 4.99 4.672 4.795 4.965 4.865 4.822 4.785 5 5.08
17.257 15.409 15.157 14.799 14.357 14.004 14.094 14.152 14.227 15.597 16.242 16.129 16.179 16.684 16.514 16.627 16.719 16.829 16.907 16.957 17.064 17.117 17.214 17.347 17.407 17.512 17.589 17.672 17.727 17.832 17.889 17.934 17.962 18.042 18.092 18.174 18.224 18.309 18.434 18.527 18.642 18.739 18.849 18.917 19.009 19.124 19.237 19.329 19.319 19.387 19.482 19.564 19.672 19.789 19.869 19.972 20.082 20.112 20.177 20.242 20.359 20.454 20.527 20.674 20.819 20.954 21.062 21.119 21.057 20.947 20.607 18.772 17.497 15.917 15.464 15.202 14.882 14.504 14.174 14.012 13.627 13.394 12.797 12.522 12.512 11.634 11.492 11.117 11.307 13.697 10.454 10.634 9.857 9.967 9.777 9.457 10.534 9.382 8.582 7.737 7.364 6.432 5.889 5.639 5.137 5.124 5.109 6.687 6.194 5.327 5.712 5.459 5.059 4.907 4.874 4.884 5.054 5.229 5.037 5.277 5.212 5.064 4.947 5.139 5.767 5.832 5.712 4.922 4.801 4.913 5.63 5.355 5.038 5.365 5.819 6.789 5.922 5.057 5.051 5.05 5.574 5.232 5.644 5.892 5.834 4.976 5.107 5.016 5.14 4.832 5.163 5.933 5.168 5.018 6.2 5.108 5.242 5.405 5.215 5.206 5.255 5.299 5.851 5.599 7.473 8.012 8.41 11.451 9.899 5.706 7.41 14.539 16.095 18.398 11.962 6.537 6.605 6.721 6.899 6.683 6.896 7.103 7.043 6.982 6.992 8.637 7.109 7.044 7.377 8.944 7.452 7.457 7.824 9.594 15.724 17.657 13.587 11.844 9.569 10.734 14.189 14.219 12.457 11.354 11.672 11.987 22.574 27.952 25.194 27.752 20.354 19.857 15.649 12.607 19.152 17.842 13.537 16.442 10.507 10.314 9.987 11.457 12.889 12.277 9.787 9.067 8.702 9.574 12.41 8.276 8.201 8.261 8.965 8.327 8.143 7.631 7.826 10.101 7.679 9.689 6.86 7.228 6.423 6.17 5.929 5.957 5.404 5.155 5.104 5.129 5.869 6.041 6.358 5.197 5.21 5.425 5.486 5.401 5.219 5.086 5.465 5.786 5.799 5.841 5.646 5.175 5.017 4.999 5.182 5.121 5.25 5.372 5.209 5.048 5.081 5.292 5.214 5.283 5.161 4.969 5.282 6.218 5.266 5.346 5.256 5.105 5.118 5.227 5.219 5.205 5.134 5.165 5.203 5.262 5.315 5.365 5.31 5.227 5.317 5.307 5.135 5.147 5.125 5.277 5.13 5.077 5.115 5.622 5.807 5.247 5.282 5.315 5.242 5.252 5.412 5.755 5.315 5.42 5.37 6.67 5.432 5.75 6.63 5.237 5.32 5.277 5.48 5.872 6.717 7.77 8.497 8.875 9.555 10.035 10.415 11.237 11.542 18.922 23.472 30.975 30.135 30.57 29.897 31.057 28.625 27.402 19.767 17.42 17.23 17.502 17.592 17.495 17.57 17.63 17.56 17.497 17.352 17.28 17.117 16.967 16.817 16.872 16.557 16.247 15.977 15.79 15.657 15.437 15.207 15.08 14.897 14.602 14.51 14.24 13.987 13.822 13.59 13.405 13.205 12.945 12.745 12.53 12.315 12.187 13.122 11.635 11.4 11.155 10.925 10.652 10.407 10.222 9.832 9.742 9.917 9.105 8.745 8.507 8.225 8.517 7.987 7.982 7.745 7.225 7 6.847 6.645 6.285 6.217 6.215 6 5.925 5.807 5.902 5.887 5.685 5.577 5.43 5.382 5.355 5.25 5.162 5.185 5.192 5.617 5.147 5.072 5.14 5.205 4.972 5.147 5.235 5.13 5.145 5.395 5.285 4.835 4.565 4.375 5.172 6.032 5.682 5.385 5.207 5.265 5.222 5.225 5.257 4.82 4.767 4.95 5.045 4.85 4.94 4.875 4.985 5.655
18.769 15.972 15.292 14.859 14.389 14.222 14.174 14.277 14.249 15.627 16.029 16.312 16.212 16.647 16.792 16.709 16.807 16.912 16.999 17.082 17.182 17.252 17.352 17.472 17.577 17.669 17.717 17.839 17.922 18.007 18.084 18.124 18.192 18.239 18.317 18.399 18.447 18.537 18.609 18.737 18.862 18.952 19.102 19.177 19.272 19.362 19.469 19.557 19.592 19.627 19.744 19.847 19.959 20.077 20.147 20.277 20.379 20.432 20.527 20.589 20.707 20.819 20.859 20.964 21.144 21.254 21.412 21.487 21.429 21.294 20.922 19.262 17.914 16.279 15.764 15.359 15.082 14.772 14.452 14.179 14.324 13.514 13.299 12.882 13.719 12.939 12.297 11.687 12.227 13.779 10.999 10.204 9.809 10.097 9.872 9.572 10.662 9.719 8.832 8.054 7.434 6.534 6.087 5.677 7.697 5.109 5.059 5.064 5.032 4.677 4.432 4.607 4.932 5.014 4.894 4.899 4.969 5.072 5.439 5.422 5.582 5.142 5.122 5.069 5.559 5.647 5.857 5.007 4.904 5.052 5.289 5.024 5.055 5.271 5.133 5.081 5.258 5.336 5.695 5.18 5.029 5.008 5.043 5.228 5.286 4.993 4.962 5.028 5.037 4.938 5.624 5.749 5.327 6.67 6.192 7.022 5.191 5.231 5.274 5.183 5.267 5.454 5.948 5.362 6.585 5.05 4.614 5.383 7.662 6.194 7.409 13.421 17.353 8.368 6.601 6.501 6.79 6.741 6.81 6.875 6.922 7.01 7.119 7.234 7.307 7.449 7.187 7.239 7.589 9.164 7.559 7.732 8.224 9.034 14.037 17.649 17.904 20.404 12.729 15.099 17.862 16.719 19.152 13.274 12.042 14.164 22.427 29.324 28.847 29.579 22.582 14.712 14.919 11.879 14.277 11.264 13.609 13.532 10.454 10.569 10.369 10.867 12.162 9.877 9.472 9.198 9.09 16.074 14.949 8.474 8.434 8.861 11.245 8.087 8.45 7.911 7.83 9.681 8.017 7.927 7.429 7.533 8.279 6.899 6.106 6.771 6.233 5.99 5.144 5.011 5.854 4.972 4.93 5.005 5.063 5.894 6.072 5.424 5.162 5.399 5.815 5.902 5.471 5.861 5.678 5.201 5.354 5.084 5.321 5.198 5.194 5.225 5.445 5.222 5.106 5.449 5.37 5.16 5.018 5.028 5.231 5.528 5.538 5.7 5.834 5.192 5.26 5.391 5.421 5.207 5.097 5.255 5.33 5.275 5.185 5.217 5.332 5.312 5.352 5.255 5.277 5.22 5.577 5.165 5.19 5.047 5.215 5.395 5.667 5.952 5.337 5.437 5.46 5.232 5.357 5.735 5.21 5.4 5.255 5.865 5.815 5.677 7.45 5.235 5.317 5.21 5.472 6.075 7.055 8.265 9.067 9.537 10.132 10.715 11.055 12.07 12.132 12.737 22.917 28.182 28.907 30.765 31.682 24.96 30.462 30.112 18.592 17.245 17.567 18.35 17.62 17.647 17.705 17.67 17.575 17.462 17.347 17.36 17.29 17.257 17.772 17.055 16.455 16.097 15.885 15.717 15.5 15.255 15.1 14.907 14.742 14.527 14.305 14.09 13.952 14.005 13.847 13.345 13.002 12.782 12.572 12.36 12.12 12.09 11.68 11.445 11.2 11.005 10.705 10.442 10.315 10.007 9.652 9.41 9.102 9.002 8.602 8.442 8.712 7.97 8.39 7.725 8.73 7.615 6.96 6.732 6.512 6.247 6.097 6.025 5.94 6 5.857 5.787 5.735 5.852 5.632 5.455 5.427 5.392 5.232 5.162 5.137 5.157 5.26 5.29 5.2 5.075 5.16 4.967 5.24 5.195 5.117 5.312 5.22 5.33 4.622 4.642 4.79 5.36 5.862 5.475 5.375 5.597 5.397 5.255 5.102 4.902 4.98 4.9 4.985 4.957 5.102 5.06 5.02 5.057 5.497
19.269 17.337 15.672 15.327 14.919 14.492 14.362 14.369 14.437 14.529 15.699 16.564 16.337 16.457 16.962 16.812 16.897 17.014 17.107 17.217 17.317 17.427 17.469 17.609 17.707 17.779 17.889 18.014 18.054 18.179 18.284 18.344 18.419 18.469 18.522 18.622 18.682 18.757 18.864 18.947 19.059 19.169 19.302 19.389 19.484 19.594 19.687 19.812 19.892 19.932 20.029 20.157 20.247 20.347 20.439 20.552 20.712 20.787 20.839 20.934 21.007 21.097 21.239 21.304 21.452 21.634 21.762 21.829 21.794 21.719 21.862 20.162 18.569 16.982 16.144 15.692 15.372 14.982 14.704 14.512 14.202 13.842 13.429 13.329 13.982 15.349 12.667 13.004 13.477 12.752 11.652 11.157 10.369 9.914 9.949 9.822 9.964 9.842 9.547 8.669 8.239 6.914 6.452 6.324 5.534 5.272 5.199 5.127 5.242 5.117 4.622 4.404 4.504 4.709 4.932 6.762 5.142 4.989 5.059 5.239 5.444 5.187 5.114 5.147 5.144 5.082 5.029 5.087 5.139 5.279 5.154 5.209 5.17 5.073 5.053 5.112 5.445 6.06 5.957 5.516 5.229 5.321 5.569 5.738 5.448 5.579 5.125 5.13 5.199 5.239 5.827 5.703 5.365 10.722 8.785 8.07 5.328 5.244 6.941 9.748 7.993 5.62 5.822 3.932 8.197 5.385 4.836 4.93 5.837 5.695 6.144 10.312 6.61 6.378 6.589 6.764 6.838 7.045 7.26 7.234 7.169 7.279 7.307 7.367 7.442 7.492 7.514 7.489 7.894 8.747 7.852 8.027 8.344 8.932 10.487 14.079 17.372 18.594 18.037 16.344 16.274 18.489 21.622 21.257 14.432 17.849 27.602 27.759 27.199 23.124 22.972 26.812 20.637 12.274 12.064 11.567 11.167 11.469 10.864 10.352 10.252 10.14 10.089 10.007 9.776 9.518 14.409 21.98 22.221 9.768 8.566 9.172 9.142 8.268 8.205 8.135 8.414 9.664 9.589 7.521 7.724 8.524 10.248 9.005 6.765 6.077 9.278 8.887 5.576 5.074 5.846 4.901 4.88 5.095 4.905 5.091 5.546 5.245 5.323 5.613 5.876 5.974 5.592 5.851 5.503 5.157 5.145 5.962 5.035 4.92 4.999 5.009 5.033 4.981 5.159 5.191 5.191 5.038 5.021 5.067 5.287 6.198 5.333 5.825 5.142 5.315 5.767 5.595 5.752 5.16 5.202 5.17 5.202 5.282 5.26 5.245 5.257 5.205 5.227 5.267 5.212 5.255 5.155 5.077 5.157 5.07 5.215 6.645 5.617 5.17 5.22 5.247 5.555 5.355 5.587 5.885 5.19 5.155 5.382 6.775 7.497 6.412 6.815 5.322 5.342 5.317 5.797 6.545 7.695 8.697 9.717 10.232 10.755 11.1 11.66 12.192 14.26 13.192 19.155 25.292 29.005 26.972 27.065 27.577 22.072 24.892 20.605 17.617 18.872 18.55 17.705 17.792 17.727 17.71 17.59 17.435 17.447 17.332 17.147 16.907 17.255 16.56 16.21 15.99 15.807 15.635 15.435 15.23 15.012 14.815 14.682 14.39 14.18 13.98 15.485 15.012 13.762 13.96 12.905 12.64 12.415 12.182 11.955 11.737 11.472 11.262 10.99 10.745 10.5 10.512 10.065 9.815 9.5 9.207 8.957 8.76 8.46 10.71 10 7.92 7.767 8.2 8.045 7.857 6.832 6.687 6.705 6.332 6.13 6.017 6.02 5.95 5.85 5.732 5.685 5.61 5.53 5.452 5.455 5.372 5.195 5.162 5.207 5.217 5.267 5.412 5.197 5.03 4.97 4.955 5.002 4.877 4.88 4.965 4.962 4.842 4.44 4.635 5.365 5.515 6.72 5.567 5.265 5.475 5.415 5.052 4.9 4.845 4.93 4.987 5.075 5.06 5.225 5.48 5.35 5.072 5.912
18.067 16.027 16.667 15.942 16.204 15.529 14.447 14.394 14.549 14.579 15.157 16.544 16.607 16.464 16.872 16.924 17.007 17.139 17.242 17.342 17.439 17.537 17.629 17.714 17.837 17.949 18.049 18.162 18.239 18.359 18.474 18.587 18.622 18.689 18.754 18.829 18.919 18.969 19.052 19.164 19.269 19.409 19.507 19.622 19.717 19.777 19.914 20.074 20.187 20.267 20.312 20.424 20.549 20.654 20.769 20.862 20.979 21.104 21.192 21.262 21.364 21.452 21.582 21.699 21.772 21.932 22.087 22.194 22.202 22.117 21.969 20.522 18.569 19.957 17.554 16.152 16.582 15.529 14.957 14.642 14.344 14.112 13.689 13.462 13.334 12.934 12.807 12.909 13.274 12.974 12.404 11.439 11.684 10.434 9.882 10.189 10.259 10.052 9.229 9.142 8.667 7.397 6.782 7.167 5.989 8.442 7.987 5.197 5.227 5.199 5.094 5.072 4.684 4.489 4.784 10.964 6.644 5.704 5.184 5.169 5.064 5.077 5.152 5.212 5.142 5.077 5.042 5.304 5.547 5.417 5.499 5.524 5.489 5.334 5.961 5.449 5.848 5.869 5.593 5.477 5.331 5.829 5.786 8.736 5.857 5.486 5.254 5.088 5.403 5.073 5.254 5.537 5.396 7.003 6.375 4.878 4.877 8.261 11.06 13.426 11.88 6.564 5.337 5.426 5.415 5.528 5.668 5.784 6.919 6.122 6.32 6.94 6.567 6.719 6.842 6.967 7.049 7.372 7.437 7.382 7.597 7.664 7.529 7.574 7.579 8.267 8.062 7.797 8.084 8.114 8.112 8.387 9.997 9.487 9.487 11.527 16.994 21.134 21.167 14.242 15.022 19.262 21.047 21.364 17.892 19.992 26.887 21.184 25.267 28.137 26.674 17.512 13.112 12.912 14.007 22.257 15.128 18.643 19.903 11.705 10.359 10.205 10.128 9.943 9.807 9.722 14.292 10.747 11.406 9.268 8.604 8.783 8.617 9.169 8.322 8.244 8.161 8.665 8.239 7.559 8.203 11.255 11.317 9.965 8.106 7.052 8.548 9.16 5.6 5.114 4.837 4.887 4.845 4.944 4.913 4.924 5.111 5.026 5.35 5.571 5.739 5.537 5.505 5.782 6.612 7.012 6.03 5.731 5.012 4.907 4.979 4.968 4.949 5.015 5.023 5.047 5.076 5.032 5.254 5.209 5.34 5.377 5.255 5.37 5.5 5.267 5.13 5.14 5.292 5.367 5.192 5.232 5.292 5.347 5.355 5.262 5.19 5.247 5.275 5.252 5.307 5.422 5.382 5.735 5.4 5.257 5.152 5.385 5.14 5.23 5.395 5.277 5.28 7.057 5.697 6.477 5.285 5.477 5.267 5.285 5.365 5.575 5.337 5.36 5.28 5.595 6.07 6.767 7.872 9.135 10.325 10.9 11.317 11.727 12.207 13.4 13.782 14.35 15.27 19.955 25.392 21.355 22.967 28.117 20.702 19.952 18.747 17.945 17.76 17.805 17.815 17.82 17.777 17.642 17.572 17.472 17.92 17.42 16.952 16.755 16.54 16.327 16.28 15.97 15.74 15.522 15.41 15.225 14.957 14.745 14.56 14.327 14.117 14.195 14.29 13.795 13.767 13.107 12.802 12.505 12.455 12.512 11.872 11.562 11.312 11.457 10.802 10.772 10.337 10.157 9.89 9.587 9.582 9.145 8.837 8.59 8.467 9.362 9.012 8.685 9.235 7.787 7.185 6.917 7.025 6.802 6.337 6.37 6.485 6.042 6.022 5.945 5.832 5.78 5.752 5.635 5.497 5.415 5.395 5.327 5.215 5.195 5.19 5.285 5.385 5.482 4.977 4.915 5 5.035 4.907 4.815 4.912 4.767 4.787 4.567 4.452 5.047 5.372 5.895 6.065 5.42 5.337 5.397 5.152 4.915 4.825 5.055 5.03 5.05 5.185 5.392 5.37 5.152 5.252 5.385 5.775
16.672 17.369 17.827 17.397 15.339 14.712 14.517 14.427 14.637 14.697 14.807 16.249 16.842 16.557 16.807 17.107 17.124 17.224 17.324 17.454 17.564 17.689 17.789 17.899 18.007 18.122 18.199 18.327 18.419 18.537 18.659 18.767 18.859 18.899 18.979 19.029 19.119 19.219 19.262 19.382 19.479 19.599 19.697 19.819 19.972 20.057 20.177 20.329 20.464 20.572 20.627 20.724 20.862 20.999 21.104 21.159 21.262 21.399 21.502 21.632 21.707 21.779 21.914 22.027 22.152 22.262 22.442 22.569 22.612 22.492 22.287 21.062 19.807 21.602 17.542 18.374 18.157 19.102 15.547 14.809 14.574 14.454 14.602 14.599 13.674 13.339 12.799 12.934 13.367 13.037 12.644 12.027 11.444 10.942 10.459 9.857 10.239 9.647 9.357 9.254 8.172 7.962 7.172 6.864 6.472 9.704 10.429 6.754 5.867 5.622 9.674 5.817 5.557 5.057 5.284 10.564 9.684 5.302 5.552 6.339 5.254 5.182 5.214 5.239 5.302 5.172 5.372 5.627 5.404 5.177 5.249 5.397 5.239 5.209 5.334 5.274 5.229 5.234 5.274 5.129 5.134 5.374 5.452 7.414 6.694 5.182 5.154 5.227 5.319 5.152 6.577 5.87 4.958 4.698 5.532 4.723 4.429 7.022 10.541 14.552 11.801 7.439 5.758 5.799 5.903 6.157 6.279 6.524 6.502 6.522 6.715 6.764 6.804 6.987 7.089 7.212 7.317 7.579 7.707 7.847 8.057 12.344 13.014 8.069 7.819 7.929 7.904 7.967 8.054 8.119 8.404 8.827 9.484 9.759 12.819 17.382 14.857 20.169 23.964 19.762 15.999 18.227 20.187 22.189 22.087 16.284 18.119 23.217 26.889 25.222 25.884 19.074 13.524 13.352 16.32 22.982 16.986 22.012 15.12 10.544 10.445 10.367 10.193 10.002 9.782 9.624 9.471 9.411 9.177 8.874 8.509 9.269 8.938 9.064 8.736 8.749 8.267 8.247 8.021 7.74 8.587 10.9 11.782 13.601 12.924 12.966 10.774 10.691 8.35 5.127 5.013 5.332 5.012 5.014 5.008 4.907 4.969 5.191 5.655 5.568 5.435 5.452 5.381 5.527 6.313 6.88 5.639 5.4 5.186 5.032 5.164 5.303 5.194 5.005 4.984 5.082 5.467 5.135 5.135 5.105 7.48 5.155 5.292 5.127 5.787 5.49 5.095 5.28 5.355 5.247 5.182 5.207 5.295 5.307 5.315 5.255 5.225 5.255 5.29 5.422 5.397 5.472 6.075 5.677 5.48 5.135 5.81 5.07 5.46 5.27 5.067 5.125 5.13 6.15 5.405 5.61 5.967 5.46 5.325 6.722 5.65 5.527 5.37 5.337 5.522 6 6.445 7.135 8.242 10.33 10.922 11.545 11.9 12.36 12.8 13.382 14.845 15.705 15.1 16.725 22.877 20.705 17.837 22.237 18.495 18.35 17.942 17.755 17.797 17.915 17.932 17.885 17.825 17.675 17.632 17.65 17.277 17.105 16.945 16.637 16.417 16.245 16.132 16.047 15.637 15.452 15.33 15.162 15.187 14.827 14.53 14.285 14.387 14.9 13.565 13.352 13.165 13.052 12.745 12.435 12.24 12.442 11.897 11.972 12.142 10.91 10.627 10.447 10.18 9.92 9.967 9.935 9.965 9.077 8.762 8.505 8.33 8.145 8.582 9.95 10.495 8.87 7.095 6.817 6.547 6.757 6.22 6.175 6.172 6.182 6.185 6.23 5.97 5.945 5.905 5.615 5.465 5.41 5.312 5.3 5.292 5.32 5.32 5.37 5.357 5.16 5.037 4.995 4.952 4.87 4.78 4.94 4.977 4.845 4.597 4.86 4.905 5.37 5.26 5.842 5.495 5.315 5.232 5.265 4.987 4.927 5.057 5.147 5.162 5.23 5.22 5.232 5.222 5.952 5.395 5.357 5.622
16.629 17.664 17.197 16.354 15.447 15.099 15.464 14.647 14.682 14.787 14.807 16.032 16.739 16.704 16.769 17.359 17.347 17.334 17.469 17.572 17.697 17.842 17.937 18.047 18.162 18.279 18.369 18.482 18.617 18.717 18.829 18.954 19.064 19.139 19.184 19.239 19.309 19.417 19.502 19.564 19.682 19.799 19.937 20.072 20.237 20.359 20.467 20.579 20.727 20.879 20.964 21.054 21.159 21.299 21.404 21.489 21.572 21.692 21.862 21.979 22.047 22.157 22.277 22.404 22.532 22.654 22.772 22.947 22.989 22.994 23.104 22.807 20.342 19.287 18.262 19.284 15.829 15.639 15.249 15.117 14.892 14.557 14.447 16.009 14.397 14.139 13.644 13.292 12.934 13.409 12.994 12.437 12.089 12.077 12.077 10.824 10.859 10.492 9.214 8.804 8.367 8.114 7.677 7.322 6.919 6.687 6.297 5.907 5.654 9.592 7.897 5.904 6.092 5.852 5.734 5.707 5.582 4.862 4.874 5.212 5.357 5.509 5.402 5.294 5.304 5.217 5.184 5.299 5.157 5.119 5.124 5.139 5.162 5.202 5.219 5.239 5.197 5.277 5.487 5.214 5.217 5.179 5.589 7.602 9.174 6.649 5.262 6.114 4.737 5.257 6.807 4.882 4.532 4.562 5.469 4.709 5.257 5.437 5.857 8.529 9.509 8.604 5.979 5.999 8.369 11.412 6.919 6.952 6.949 6.994 7.042 7.182 7.187 7.224 7.419 7.487 7.614 7.772 7.927 7.994 8.019 8.204 8.149 8.152 8.312 8.062 7.957 8.064 8.262 8.439 8.699 9.319 9.537 11.652 15.952 17.647 20.299 19.002 21.762 18.872 13.144 13.202 14.959 21.187 19.519 14.567 16.254 23.432 17.244 15.454 20.412 17.07 14.061 13.972 17.221 25.162 25.199 20.984 23.139 14.149 12.496 11.973 10.391 10.3 10.061 9.745 9.599 9.499 9.307 9.183 8.772 8.784 9.042 8.901 8.731 8.595 8.393 8.215 8.295 7.835 8.085 11.703 12.219 17.319 15.076 12.413 10.235 14.581 6.743 5.283 6.305 5.978 5.06 4.98 5.182 4.982 5.058 5.223 5.473 5.81 5.416 5.15 5.664 5.413 5.261 5.441 5.339 5.427 5.251 5.204 5.408 7.404 5.185 5.102 5.56 5.86 6.677 6.267 5.462 5.097 5.012 5.717 6.16 5.157 6.217 5.517 5.132 5.167 5.222 5.175 5.24 5.22 5.187 5.222 5.27 5.275 5.237 5.255 5.24 5.292 5.372 5.285 5.367 5.68 5.687 5.925 6.327 5.925 5.032 5.43 5.175 5.15 5.092 5.135 5.23 5.35 7.022 5.57 5.35 5.47 5.79 5.442 5.44 5.357 6.065 7.42 8.082 11.055 12.82 10.822 11.412 12.055 12.555 13.03 13.452 13.915 14.962 16.16 16.035 15.88 17.687 18.717 17.05 18.477 17.857 18.032 17.782 17.897 17.905 17.98 17.93 17.837 17.737 17.685 18.025 17.772 17.197 17.002 16.85 16.587 16.417 16.175 15.952 15.74 15.53 15.45 15.275 15.367 15.482 14.865 14.487 14.165 13.917 13.762 13.487 13.325 13.022 12.852 12.567 12.622 12.295 11.757 11.505 11.36 11.762 11.435 10.657 11.305 10.442 9.74 9.475 9.432 9.037 9.05 9.517 8.317 8.235 8.03 9.05 9.935 8.937 7.44 6.972 6.635 6.507 6.56 6.262 6.202 6.127 6.26 6.322 6.212 5.975 6.11 5.877 5.73 5.59 5.432 5.347 5.347 6.805 5.462 5.472 5.46 5.242 5.012 4.977 5.03 4.905 4.76 4.917 5.035 4.877 5.502 6.842 5.097 5.56 5.43 5.422 5.41 5.382 5.392 5.175 5.035 4.92 5.09 5.32 5.237 5.277 5.25 5.272 5.245 5.2 5.727 5.515 5.547 6.132
17.137 16.677 16.612 16.519 15.847 15.254 14.899 14.757 14.732 14.882 14.964 15.227 16.754 16.959 16.812 17.164 17.537 17.484 17.604 17.712 17.839 17.987 18.104 18.224 18.299 18.427 18.562 18.672 18.794 18.894 18.997 19.129 19.259 19.344 19.407 19.454 19.529 19.602 19.699 19.749 19.882 20.034 20.197 20.324 20.484 20.624 20.719 20.844 20.997 21.149 21.292 21.377 21.487 21.612 21.709 21.824 21.907 22.012 22.152 22.307 22.407 22.502 22.629 22.764 22.879 23.029 23.142 23.292 23.409 23.424 24.514 26.399 22.494 22.027 19.214 17.562 16.447 15.769 15.504 15.347 15.147 14.882 14.709 14.557 14.404 14.427 14.542 14.169 14.174 12.749 12.834 12.714 12.637 13.109 12.619 11.534 11.337 11.652 10.747 9.617 8.887 8.797 8.269 7.692 7.502 7.097 7.037 6.559 7.942 7.234 6.249 6.902 6.842 6.202 5.982 6.117 5.254 4.804 4.424 4.624 5.347 5.119 5.782 5.829 5.392 5.469 5.247 5.244 5.074 5.182 5.102 5.312 5.229 5.224 5.007 5.142 5.147 5.479 4.814 4.759 4.712 4.484 4.557 6.532 6.589 4.917 4.437 4.187 4.542 5.579 5.307 5.279 6.884 7.579 6.772 8.817 11.764 7.219 5.629 7.144 10.202 7.484 6.379 6.574 6.897 7.414 7.172 7.202 7.342 7.364 7.352 7.642 8.324 7.507 7.714 7.724 7.984 8.149 10.687 10.109 8.119 8.169 8.227 8.239 8.367 8.222 8.172 8.272 8.402 8.747 9.087 9.884 9.927 11.914 20.809 23.569 19.122 19.017 18.812 21.112 16.282 13.809 14.139 14.509 14.534 14.594 14.882 15.279 19.002 15.122 17.77 17.164 14.698 17.533 22.874 23.084 27.168 25.084 21.274 12.685 12.408 11.846 10.476 10.471 10.173 9.882 9.684 9.521 9.393 9.429 9.199 9.075 8.965 8.887 8.994 8.825 8.874 8.39 8.416 8.113 7.908 10.826 12.373 14.412 14.399 9.184 16.499 15.605 7.389 5.319 8.61 5.76 5.116 5.477 5.038 5.071 5.422 5.021 5.276 5.48 5.764 5.981 6.201 6.423 6.229 6.415 5.366 5.079 5.199 5.294 5.599 5.182 5.055 4.992 6.05 5.302 5.727 5.885 5.86 5.417 5.09 5.105 6.027 5.785 5.78 5.345 5.237 5.262 5.212 5.242 5.24 5.257 5.242 5.237 5.252 5.19 5.2 5.287 5.255 5.237 5.272 5.282 5.927 6.407 6.27 6.18 5.905 5.075 4.98 5.065 5.355 5.117 5.38 6.277 7.312 8.487 5.407 5.65 6.597 5.862 5.575 5.482 5.395 5.622 6.095 6.395 10.947 9.982 13.412 12.232 12.517 12.64 13.232 14.945 14.015 14.537 15.105 17.232 16.615 16.295 16.665 17.235 17.692 17.8 18.032 17.882 17.92 18.745 18.095 19.237 18.49 17.82 17.702 17.577 17.407 17.285 17.075 16.897 16.755 16.582 16.362 17.167 16.41 15.725 15.49 15.21 15.032 15.877 15.4 14.545 14.317 14.19 13.895 13.762 13.362 13.212 12.93 12.71 12.467 12.192 12.025 11.632 11.737 11.57 10.797 10.992 10.985 10.455 9.815 9.61 9.377 9.087 9.022 8.675 9.37 8.162 8.092 7.932 9.312 9.412 8.857 7.912 8.197 7.357 7.755 6.412 6.207 6.155 6.382 6.54 6.27 6.175 6.067 5.945 5.967 5.655 5.56 5.415 5.39 5.402 5.525 5.475 5.577 5.51 5.285 5.11 5.087 4.947 4.805 4.747 5.307 4.985 5.032 4.517 6.242 5.365 5.79 5.6 5.495 5.332 5.39 5.367 5.222 4.967 4.982 5.227 5.312 5.237 5.277 5.375 5.27 5.237 5.262 6.7 5.887 5.797 5.885
19.087 16.587 16.344 16.379 15.812 15.444 15.064 15.054 15.062 14.909 15.074 15.109 15.692 16.719 16.947 17.059 17.734 18.504 17.742 17.859 17.957 18.112 18.272 18.392 18.479 18.607 18.742 18.842 18.962 19.062 19.179 19.294 19.454 19.562 19.604 19.649 19.749 19.799 19.899 20.027 20.104 20.289 20.454 20.587 20.704 20.869 21.007 21.129 21.282 21.434 21.579 21.687 21.797 21.912 22.014 22.169 22.284 22.352 22.449 22.652 22.792 22.864 22.974 23.109 23.242 23.422 23.517 23.644 23.764 23.847 24.094 26.149 23.972 20.969 21.599 20.867 18.129 16.672 17.017 22.237 20.649 15.249 14.917 14.679 14.399 14.347 14.307 14.179 15.184 15.084 13.849 12.417 12.369 12.234 11.814 11.237 10.657 11.319 11.029 9.899 9.137 8.912 8.499 8.064 7.752 7.679 7.767 7.467 8.627 7.484 6.394 7.132 6.479 6.059 6.119 6.162 5.549 5.247 4.974 4.927 5.297 5.304 7.137 12.067 6.354 13.737 4.922 4.949 4.369 4.842 5.277 5.304 5.712 5.987 6.634 5.684 5.504 4.962 4.459 4.294 4.452 4.349 4.477 6.584 6.914 5.582 6.224 5.054 5.109 5.009 5.239 6.239 8.844 5.702 6.819 7.299 9.389 7.882 7.714 6.594 6.534 6.769 7.032 7.467 7.374 7.552 7.572 7.429 7.487 7.507 7.589 7.834 8.007 7.857 8.064 8.042 8.252 8.307 10.944 9.114 8.502 8.549 9.037 8.432 8.499 8.407 8.449 8.572 8.734 9.149 9.847 10.314 10.779 14.317 20.074 23.457 15.204 18.382 21.512 22.179 17.959 14.469 14.879 15.119 15.214 15.142 15.147 15.214 15.244 15.864 16.665 16.771 15.184 15.603 16.353 20.781 19.35 16.358 14.346 11.695 12.89 11.2 10.745 10.536 10.279 10.054 9.741 9.609 9.339 9.679 13.988 9.576 9.586 9.152 8.993 9.222 8.935 8.622 8.525 8.566 8.026 7.745 9.092 12.269 15.509 9.695 12.486 8.63 7.112 5.484 6.041 5.482 5.552 5.717 6.285 5.482 5.839 5.166 5.074 5.487 5.898 5.955 5.689 6.219 6.474 6.849 5.359 5.039 5.387 5.372 5.377 5.417 5.117 4.957 5.495 5.155 5.28 5.22 5.372 5.385 5.142 5.285 5.72 5.775 6.182 5.25 5.275 5.285 5.2 5.247 5.317 5.29 5.252 5.247 5.217 5.227 5.252 5.282 5.26 5.287 5.975 5.317 5.567 5.525 7.215 6.005 6.155 5.065 5.24 5.142 5.04 5.207 5.34 5.275 5.285 5.255 5.487 6.02 6.36 5.587 5.527 5.317 5.525 5.912 6.262 6.757 9.837 13.802 13.702 15.252 20.48 18.612 13.782 15.53 15.727 15.325 15.6 16.042 16.447 16.792 18.445 17.682 17.9 18.092 17.922 17.93 18.427 18.277 18.777 18.945 18.012 17.82 17.68 17.54 17.55 17.325 16.952 16.78 16.717 16.355 16.242 17.17 16.24 15.537 15.342 15.387 15.832 15.2 14.615 14.4 14.167 14.175 13.772 13.797 13.395 13.062 12.84 12.627 12.417 12.102 11.795 11.517 11.317 10.987 10.927 10.392 10.19 9.952 9.625 9.395 9.295 9.285 8.802 8.56 8.257 8.182 7.937 8.127 7.782 8.045 8.315 7.542 7.37 9.16 8.53 7.127 6.742 6.2 6.225 6.09 6.06 6.285 6.117 5.807 5.86 5.687 5.47 5.382 5.43 5.502 5.72 8.38 5.602 5.49 5.157 5.057 4.995 4.84 4.79 4.875 5.12 4.905 5.132 4.797 4.915 6.31 6.167 6.162 5.265 5.317 5.345 5.142 5.942 5.022 5.287 5.295 5.257 5.372 5.282 5.35 5.365 5.425 5.415 6.432 6.437 6.055 6.125
19.592 18.947 20.267 16.952 16.457 15.824 15.724 15.784 15.702 15.149 15.189 15.244 15.354 16.367 16.999 17.074 17.512 18.362 17.874 17.999 18.134 18.274 18.397 18.552 18.667 18.774 18.907 19.027 19.137 19.224 19.354 19.467 19.602 19.732 19.797 19.857 19.939 20.024 20.139 20.302 20.397 20.522 20.707 20.869 20.982 21.147 21.312 21.424 21.542 21.734 21.884 22.004 22.132 22.184 22.337 22.479 22.612 22.694 22.799 22.997 23.144 23.242 23.367 23.479 23.619 23.772 23.917 23.999 24.182 24.284 24.337 25.989 24.894 22.227 20.954 19.524 19.247 18.794 18.889 23.852 17.822 17.024 18.659 16.399 14.787 14.422 14.662 14.674 15.202 14.984 14.079 14.354 13.369 13.069 12.167 11.899 11.342 11.419 10.667 10.157 9.472 9.222 9.209 8.567 8.354 8.267 8.559 8.127 7.679 7.657 7.209 6.779 6.457 6.214 5.974 5.942 5.757 5.507 5.447 5.477 5.467 5.612 9.032 7.144 17.902 17.874 12.147 10.464 4.927 5.112 5.864 6.229 6.119 8.082 7.922 5.854 5.759 5.339 6.232 5.549 5.052 5.012 5.199 5.434 5.529 5.579 6.457 5.917 5.437 5.377 5.537 6.379 7.747 7.494 5.867 6.197 6.112 6.332 7.947 7.082 7.119 7.272 7.384 7.512 7.519 7.609 7.559 7.517 7.567 7.729 7.909 8.007 8.509 8.117 8.244 8.274 8.424 8.449 8.432 8.474 8.559 8.474 8.529 8.629 8.632 8.672 8.754 8.929 9.142 9.472 10.172 11.372 11.454 11.562 17.347 17.559 19.204 26.954 28.864 26.914 20.427 19.539 15.827 18.409 17.027 15.777 15.972 15.959 15.842 15.862 15.836 15.768 16.023 15.893 15.778 15.42 15.165 21.092 14.329 17.847 16.656 15.703 15.905 14.732 12.782 11.079 10.773 10.408 9.889 11.142 15.404 9.97 10.22 11.487 9.179 9.245 8.987 8.866 9.617 9.566 8.885 8.019 9.394 13.18 11.509 11.965 10.188 7.166 6.747 5.726 5.363 5.327 5.039 4.981 5.153 5.5 5.916 6.372 5.192 7.187 6.517 5.854 6.119 6.042 6.314 5.184 5.197 5.159 5.207 5.649 5.444 5.139 5.245 5.345 5.115 5.255 5.685 5.927 5.15 5.142 5.225 5.96 6.897 5.56 5.48 5.19 5.215 5.237 5.207 5.632 5.387 5.245 5.19 5.237 5.222 5.25 5.357 5.23 5.272 5.357 6.092 6.052 5.995 5.515 5.94 5.665 5.147 5.24 5.187 5.195 5.265 5.122 5.092 5.095 5.14 5.13 5.46 5.797 5.662 5.45 5.47 5.477 6.052 6.13 6.567 7.45 8.557 10.38 12.335 16.02 16.677 15.415 19.102 16.17 15.275 15.78 16.13 16.622 16.922 17.217 17.817 18.135 18.217 18.047 18.007 18.642 18.455 18.25 18.892 18.462 18.252 17.78 17.635 17.462 17.535 17.032 16.845 16.63 16.407 16.29 15.987 15.91 15.625 15.417 15.202 15.762 15.557 15.015 14.797 14.36 14.057 13.922 13.755 14.152 13.422 12.96 12.762 12.575 12.275 11.982 11.7 11.407 11.39 11.087 10.727 10.25 9.987 9.752 9.485 9.252 9.15 8.79 8.602 8.44 8.407 8.095 7.815 7.582 7.385 7.81 8.85 7.285 8.95 8.847 8.127 7.54 6.52 6.225 6.082 6.057 6.035 5.972 5.97 5.877 5.722 5.807 5.637 5.415 5.465 6.957 5.682 8.792 6.83 5.44 5.107 5.097 4.98 4.817 4.937 5.085 5.132 4.79 4.612 5.26 5.875 5.74 5.645 5.497 5.277 5.305 5.165 5.137 5.125 5.172 5.27 5.452 5.327 5.387 5.402 5.372 5.375 5.512 5.697 5.735 6.287 6.252 6.175
22.284 22.982 23.157 19.644 16.779 16.012 15.862 15.797 15.804 15.474 15.249 15.367 15.362 16.272 16.972 17.239 17.727 19.627 18.724 18.139 18.282 18.414 18.574 18.724 18.857 18.969 19.067 19.202 19.312 19.417 19.524 19.649 19.767 19.882 20.009 20.102 20.192 20.297 20.412 20.527 20.657 20.739 20.932 21.107 21.252 21.389 21.549 21.729 21.832 21.987 22.164 22.297 22.419 22.547 22.669 22.819 22.937 23.044 23.159 23.282 23.469 23.627 23.742 23.854 24.014 24.149 24.307 24.454 24.554 24.682 24.744 24.899 25.792 23.039 22.129 20.852 20.704 18.679 19.529 20.207 18.114 19.067 16.669 15.237 15.072 14.669 14.924 14.982 14.927 15.489 14.294 15.447 15.484 14.867 13.654 12.152 11.907 11.407 11.282 11.109 10.247 9.717 9.212 8.924 8.969 8.792 8.522 8.529 8.469 8.569 7.979 7.824 7.249 6.709 6.432 6.214 6.064 5.987 5.847 5.802 5.839 11.369 13.699 16.304 16.254 18.477 11.219 8.884 8.489 5.289 5.642 7.287 9.657 8.312 6.292 5.634 5.604 7.499 8.839 5.512 5.464 5.484 5.494 5.569 5.589 5.849 5.929 6.317 5.652 5.597 5.762 5.982 6.079 6.099 5.999 6.107 8.372 6.824 7.217 7.394 7.669 7.577 7.619 7.684 7.769 8.062 7.654 7.702 7.807 8.069 8.154 8.247 8.904 8.404 8.527 8.524 8.544 8.639 8.564 8.592 8.664 8.684 8.707 8.874 9.009 9.147 9.239 9.654 9.744 10.122 10.462 11.039 11.024 12.857 12.137 16.369 20.352 27.574 29.357 27.164 23.092 17.802 23.519 19.544 19.917 16.542 16.809 16.892 16.637 16.709 16.472 16.682 16.313 16.157 16.091 16.047 15.876 17.212 15.465 19.921 14.826 15.424 18.984 21.448 17.276 13.01 12.476 11.775 13.916 17.172 13.305 10.987 10.85 10.711 9.855 9.124 9.037 9.465 9.546 8.815 9.304 9.177 8.962 8.067 14.198 8.483 7.283 11.284 6.613 5.748 5.437 5.238 5.11 5.227 5.387 5.189 5.172 5.722 8.587 6.372 5.769 5.927 5.734 5.592 5.497 5.952 5.837 5.337 5.457 5.447 5.489 5.419 5.585 5.425 5.14 5.68 5.112 5.122 5.34 5.3 5.115 5.242 5.322 5.095 5.142 5.182 5.31 5.225 5.23 5.28 5.297 5.212 5.152 5.217 5.34 5.377 5.282 5.76 5.722 5.45 5.455 5.487 5.22 5.8 5.197 5.1 5.332 5.677 5.245 5.322 5.502 5.09 5.065 5.067 5.09 5.697 5.247 5.28 5.345 5.295 5.427 5.857 6.072 6.447 7.115 8.155 9.257 10.572 13.48 15.71 16.727 15.527 17.625 15.522 15.945 16.417 16.812 17.185 17.682 18.435 18.12 18.32 18.225 18.062 18.107 18.425 18.48 18.625 18.015 18.715 17.77 17.59 17.465 17.447 17.157 16.97 16.76 16.64 16.257 16.067 15.835 15.855 15.92 15.302 15.382 15.267 15.047 14.745 14.552 14.75 13.96 13.71 13.785 13.355 13.137 12.902 12.64 12.99 12.327 11.872 11.615 11.285 10.972 10.705 10.715 10.07 9.795 9.977 9.422 9.105 8.962 8.787 8.472 8.34 8.207 8.192 7.687 8.102 7.195 7.865 9.155 6.857 6.947 7.237 7.197 6.417 9.037 7.967 6.205 6.652 5.992 5.86 5.707 5.842 5.927 5.51 5.412 6.027 5.582 8.635 10.017 11.18 6.48 5.295 9.065 4.97 5.015 4.917 5.355 5.277 4.945 4.51 4.657 5.24 6.415 6.745 5.57 5.415 5.41 5.327 5.675 5.645 5.077 5.395 5.34 5.597 5.475 5.312 5.547 5.68 5.68 5.74 5.935 5.895 6.357 6.235 7.027
23.332 23.089 22.409 20.374 16.899 16.629 15.922 16.189 17.479 16.349 15.369 15.462 15.552 15.852 16.762 17.387 17.382 18.674 18.352 18.274 18.434 18.557 18.717 18.882 19.034 19.137 19.257 19.377 19.479 19.587 19.712 19.842 19.947 20.062 20.242 20.369 20.442 20.534 20.629 20.749 20.899 21.004 21.149 21.342 21.517 21.654 21.822 21.994 22.144 22.267 22.459 22.619 22.762 22.882 22.984 23.137 23.277 23.389 23.532 23.639 23.822 23.972 24.094 24.232 24.362 24.522 24.694 24.864 24.952 25.079 25.169 25.217 25.312 24.882 23.379 27.072 20.617 19.597 20.547 21.159 18.332 18.867 17.972 15.414 15.369 14.832 15.034 14.994 14.699 15.344 14.934 14.762 15.419 15.524 15.187 13.862 12.914 12.152 11.454 11.889 11.662 11.034 9.847 9.574 9.222 9.194 8.777 8.729 9.067 8.934 8.857 8.177 7.732 7.417 6.937 6.887 6.617 6.489 6.417 8.799 11.749 9.542 16.809 17.234 18.477 11.324 16.594 15.489 10.749 6.432 5.604 6.037 6.824 5.682 6.099 5.754 6.029 6.527 7.072 6.044 5.799 5.859 5.817 5.844 5.879 6.064 5.987 5.894 5.734 5.802 6.049 6.327 6.432 6.349 6.484 6.592 6.977 7.357 7.704 7.839 7.774 8.452 12.804 8.247 7.914 7.992 8.189 8.077 8.172 8.374 8.422 8.412 8.607 8.727 8.747 8.752 8.672 8.679 8.657 8.699 8.817 8.834 9.019 9.117 9.254 11.912 11.052 10.187 10.299 10.667 10.984 11.332 11.509 12.839 12.302 13.052 17.804 27.197 34.117 29.594 18.652 16.764 18.452 19.092 17.117 17.299 17.459 17.379 17.419 17.417 17.427 17.42 17.179 16.814 16.758 16.714 16.741 17 16.004 15.775 15.75 15.37 15.244 18.795 21.539 14.695 17.195 14.885 13.23 15.937 10.18 10.428 10.568 9.703 9.435 9.183 8.928 8.966 8.698 8.667 9.055 8.847 8.455 8.375 8.157 6.881 10.846 7.877 5.887 5.617 5.544 5.402 5.312 5.309 5.049 5.147 5.217 6.717 5.749 5.144 5.617 6.022 5.702 5.707 6.239 6.284 5.124 5.214 5.239 5.432 5.529 5.512 5.52 5.235 5.162 5.782 5.5 5.182 5.295 5.205 5.092 5.112 4.965 5.055 5.135 5.217 5.32 5.23 5.18 5.26 5.237 5.195 5.137 5.167 5.212 5.325 5.21 5.312 5.27 5.452 5.242 5.392 5.202 5.277 5.112 6.1 5.857 7.502 8.657 6.757 5.955 5.185 5.197 5.272 5.242 5.42 5.452 5.445 5.525 5.362 5.65 6.035 6.192 6.905 7.747 8.735 10.02 12.38 15.645 15.907 17.277 17.137 17.317 16.395 16.53 17.012 17.397 17.675 17.977 18.665 18.467 18.387 18.147 18.307 18.432 18.382 18.27 17.99 19.13 17.99 17.61 17.535 17.737 17.217 17.01 16.8 16.6 16.44 16.13 15.927 15.747 15.675 15.522 15.44 15.032 16.367 16.917 14.905 14.452 14.68 13.87 13.65 13.44 13.39 12.98 12.797 12.555 13.64 13.142 12.147 11.405 11.142 10.825 10.532 10.24 9.94 9.67 9.415 9.175 8.977 8.767 8.547 8.372 8.192 7.975 7.785 8.32 7.337 7.047 7 7.077 6.655 6.407 6.85 6.465 6.237 9.442 8.362 6.067 5.872 5.845 5.777 5.72 5.647 5.547 5.5 5.49 5.49 5.437 5.677 7.507 11.91 11.652 7.417 11.302 5.145 5.06 5.095 5.185 5.3 4.837 4.857 5.372 5.627 5.65 5.812 5.65 5.505 5.732 5.405 5.595 5.707 5.525 5.217 5.35 5.492 5.577 5.41 5.562 5.905 5.832 6.017 5.77 6.267 6.03 6.837 7.055
22.497 20.799 18.684 18.677 17.142 16.849 17.642 17.552 19.242 16.479 15.704 15.529 15.674 15.669 16.219 17.534 17.627 17.597 19.119 18.782 18.559 18.697 18.872 19.027 19.202 19.342 19.422 19.549 19.669 19.762 19.889 20.024 20.164 20.287 20.439 20.637 20.694 20.777 20.897 21.009 21.142 21.272 21.389 21.589 21.772 21.942 22.092 22.264 22.437 22.569 22.734 22.937 23.077 23.237 23.354 23.457 23.637 23.769 23.889 24.017 24.144 24.319 24.484 24.617 24.764 24.924 25.052 25.217 25.389 25.474 25.594 25.609 25.599 25.172 24.047 27.717 29.342 25.534 23.144 21.699 17.379 16.492 15.972 15.524 15.357 15.127 15.092 15.004 14.739 14.692 14.602 14.432 14.544 14.917 14.129 13.937 13.227 13.194 12.897 11.539 11.299 11.427 10.449 10.407 10.282 10.232 10.452 10.077 9.702 8.712 8.427 8.312 7.882 7.619 7.567 7.294 7.074 6.859 6.642 12.579 12.987 10.717 18.772 18.627 19.377 13.872 10.187 12.427 9.312 6.469 6.597 6.239 6.114 6.149 6.084 6.084 6.099 6.154 6.097 6.042 6.007 6.164 6.224 6.284 7.837 6.954 6.467 6.409 6.144 6.149 6.762 6.599 6.732 6.734 6.922 7.169 7.642 7.867 8.054 8.084 8.027 8.077 8.447 8.267 8.869 8.067 8.427 8.534 8.557 8.617 8.754 8.524 8.929 10.807 9.357 8.827 8.894 8.879 8.892 8.959 9.037 9.177 9.317 9.479 9.714 10.039 10.554 10.534 10.707 10.902 11.204 11.697 11.689 11.992 12.699 13.877 15.459 21.817 30.552 30.062 20.669 18.154 17.407 20.759 21.619 18.192 18.244 18.534 18.384 18.067 18.202 18.133 18.146 17.572 17.596 17.514 17.237 17.166 16.926 16.755 16.578 16.259 16.013 22.221 23.064 16.239 15.291 20.947 14.207 12.655 10.271 10.037 9.99 9.742 9.552 9.257 8.907 8.86 8.878 8.818 9.069 10.581 8.417 9.29 10.824 6.93 6.582 9.212 8.479 5.709 5.542 5.402 5.344 5.789 5.234 5.032 5.002 5.262 5.247 6.614 6.042 5.332 5.517 5.837 6.287 5.609 6.209 6.407 7.764 7.167 5.612 5.204 5.435 5.272 5.242 5.34 5.405 5.072 5.072 5.09 5.087 5.137 5.21 5.08 5.122 5.242 5.235 5.17 5.137 5.23 5.272 5.152 5.102 5.11 5.122 5.26 5.332 5.28 5.295 5.605 5.432 5.352 5.32 5.515 5.15 5.562 7.04 8.275 6.305 5.72 5.802 5.27 5.245 5.615 5.532 5.37 5.51 5.62 6.027 5.625 5.845 5.942 6.645 9.912 8.572 9.627 11.002 14.89 18.115 20.41 16.102 16.295 16.925 16.847 17.175 17.557 17.922 18.207 18.422 18.73 18.525 18.267 18.277 18.805 18.532 18.867 17.992 18.222 18.132 17.692 17.512 17.725 17.67 17.025 16.895 16.725 16.497 16.267 16.032 15.837 15.657 15.502 15.307 15.102 15.102 14.92 14.982 14.832 15.462 14.262 13.737 13.572 13.91 13.165 12.86 12.632 12.395 13.46 12.84 11.615 11.265 10.955 10.675 10.367 10.092 9.785 9.942 10.147 9.047 8.82 8.815 8.397 8.215 8.075 7.867 8.26 7.89 7.175 6.947 7.067 7.062 6.625 6.48 6.64 6.33 6.457 6.425 6.962 6.005 5.895 6.03 5.74 5.715 5.587 5.49 5.687 5.712 5.435 6.992 5.355 6.227 6.87 10.43 10.625 6.352 5.032 5.26 5.107 5.41 5.412 4.805 5.41 6.445 6.657 5.75 5.865 5.542 5.322 5.185 5.68 5.225 5.572 5.185 5.357 5.497 5.517 5.597 5.545 5.62 5.952 5.975 5.972 6.127 6.097 6.862 6.98 7.357
