ncols 436
nrows 31
xllcorner    456052
yllcorner    91730
cellsize     2
NODATA_value -9999
48.378 48.348 48.343 48.328 48.333 48.296 48.281 48.273 48.223 48.241 48.218 48.176 48.168 48.158 48.156 48.146 48.143 48.103 48.098 48.083 48.058 48.041 48.003 47.971 47.971 47.953 47.908 47.893 47.856 47.836 47.811 47.796 47.748 47.716 47.696 47.668 47.636 47.578 47.538 47.531 47.458 47.416 47.376 47.343 47.311 47.268 47.238 47.216 47.173 47.141 47.083 47.011 46.998 46.901 46.886 46.823 46.786 46.711 46.688 46.641 46.626 46.581 46.546 46.511 46.463 46.401 46.341 46.241 46.316 46.258 46.213 46.138 46.091 46.036 45.963 45.926 45.861 45.808 45.778 45.766 45.733 45.736 45.728 45.651 45.561 45.546 45.461 45.408 45.343 45.298 45.228 45.151 45.086 45.001 44.911 44.868 44.771 44.681 44.648 44.581 44.543 44.486 44.426 44.381 44.313 44.256 44.203 44.146 44.056 44.018 43.936 43.833 43.818 43.801 43.846 43.816 43.756 43.756 43.688 43.646 43.496 43.743 46.751 44.139 43.484 43.213 43.096 42.948 43.137 43.323 42.846 42.64 42.536 42.444 42.37 42.274 42.224 42.173 42.106 42.038 41.976 41.898 41.826 41.721 41.638 41.558 41.481 41.416 41.333 41.223 41.133 41.063 41.008 40.913 40.851 40.756 40.708 40.633 40.531 40.436 40.376 40.301 40.206 40.113 40.026 39.978 39.893 39.783 39.711 39.631 39.536 39.431 39.343 39.258 39.146 39.038 38.958 38.846 38.733 38.661 38.581 38.518 38.391 38.321 38.246 38.146 38.046 37.976 37.893 37.793 37.668 37.568 37.478 37.338 37.211 37.146 37.018 36.903 36.811 36.696 36.578 36.436 36.341 36.231 36.108 35.991 35.886 35.776 35.688 35.596 35.483 35.458 35.406 35.378 35.343 35.301 35.213 35.118 41.231 42.948 42.848 49.983 46.078 37.683 42.733 39.576 46.676 46.616 47.818 51.133 47.581 46.261 42.591 42.748 33.701 32.136 31.998 32.358 31.933 31.771 31.908 31.341 31.126 30.806 30.771 32.621 35.091 41.171 39.283 29.893 29.761 29.498 32.421 42.431 34.876 28.786 28.636 28.138 28.011 37.323 46.488 46.581 42.196 44.643 44.291 45.461 43.611 32.476 26.058 25.231 24.873 24.641 25.158 26.123 23.403 23.843 23.768 23.686 23.656 23.566 23.501 23.463 23.468 23.443 23.461 23.463 23.551 23.708 23.833 23.998 24.141 24.261 24.353 24.418 24.496 24.556 24.628 24.723 24.838 24.968 25.101 25.216 25.373 25.528 25.683 25.878 26.071 26.273 26.488 26.666 26.918 27.166 27.403 27.668 27.896 28.108 28.336 28.568 28.738 28.851 28.953 29.083 29.208 29.298 29.369 29.534 29.741 29.904 30.084 30.254 30.416 30.604 30.754 30.896 31.041 31.211 31.361 31.526 31.671 31.816 31.996 32.216 32.461 32.621 32.756 32.894 33.019 33.126 33.259 33.374 33.494 33.634 33.781 33.911 34.024 34.089 34.124 34.196 34.271 34.401 34.509 34.629 34.659 34.909 37.116 37.321 35.904 35.846 35.961 36.011 36.106 36.196 36.216 36.191 36.219 36.334 36.456 36.594 36.704 36.811 36.919 37.016 37.139 37.211 37.346 37.439 37.559 37.684 37.801 37.911 38.046 38.161 38.256 38.364 38.501 38.619 38.764 38.864 38.971 39.096 39.264 39.446 39.574 39.689 39.841 39.956 40.071 40.234 40.344 40.469 40.594 40.734 40.886 41.024 41.176 41.279 41.431 41.571 41.716 41.831 41.969 42.106 42.214 42.326 42.444 42.596 42.701 42.814 42.941 43.046 43.121 43.224 43.344 43.434 43.546 43.624
48.446 48.458 48.421 48.401 48.401 48.388 48.368 48.358 48.331 48.326 48.303 48.296 48.278 48.291 48.253 48.256 48.246 48.196 48.178 48.158 48.151 48.148 48.118 48.083 48.056 48.036 48.006 47.961 47.933 47.901 47.898 47.843 47.806 47.783 47.733 47.721 47.683 47.623 47.601 47.583 47.528 47.458 47.436 47.416 47.376 47.306 47.271 47.243 47.228 47.191 47.171 47.081 47.073 46.973 46.926 46.871 46.821 46.793 46.733 46.718 46.673 46.628 46.583 46.541 46.528 46.448 46.398 46.303 46.336 46.318 46.233 46.186 46.118 46.073 46.028 45.986 45.928 45.871 45.833 45.798 45.786 45.786 45.731 45.691 45.643 45.583 45.516 45.468 45.433 45.336 45.296 45.203 45.121 45.033 44.988 44.906 44.806 44.736 44.676 44.593 44.538 44.528 44.461 44.446 44.373 44.356 44.251 44.218 44.106 44.011 43.923 43.861 43.846 43.866 43.871 43.781 43.766 43.748 43.713 43.656 43.526 44.143 45.008 43.791 43.392 43.214 43.149 42.959 43.142 43.053 42.721 42.655 42.534 42.467 42.375 42.322 42.284 42.22 42.153 42.083 41.998 41.921 41.841 41.758 41.671 41.613 41.521 41.406 41.318 41.246 41.166 41.081 40.981 40.928 40.848 40.766 40.706 40.633 40.563 40.483 40.391 40.291 40.233 40.171 40.031 39.963 39.886 39.823 39.733 39.623 39.561 39.491 39.386 39.273 39.156 39.078 39.006 38.896 38.811 38.736 38.626 38.528 38.433 38.351 38.266 38.156 38.096 37.998 37.901 37.803 37.713 37.588 37.486 37.403 37.263 37.141 37.013 36.913 36.803 36.663 36.581 36.501 36.351 36.241 36.146 36.026 35.863 35.766 35.696 35.578 35.511 35.476 35.456 35.366 35.316 35.313 35.198 35.216 41.243 43.533 48.106 47.283 45.136 41.116 35.386 37.468 45.853 43.458 46.203 39.016 41.773 46.726 46.388 35.948 32.373 32.166 32.256 32.453 31.841 31.751 31.348 31.111 30.861 30.816 31.873 41.426 43.333 45.591 41.693 32.218 35.671 29.536 29.226 30.471 28.796 34.948 30.991 28.343 30.473 38.318 45.321 41.503 33.116 32.273 30.088 41.211 41.373 25.928 26.498 30.466 29.776 24.648 25.203 27.283 24.201 23.806 23.788 23.726 23.653 23.541 23.498 23.516 23.503 23.506 23.531 23.528 23.581 23.661 23.786 23.948 24.081 24.236 24.358 24.476 24.568 24.666 24.726 24.791 24.911 25.033 25.186 25.316 25.448 25.561 25.691 25.871 26.023 26.198 26.428 26.616 26.891 27.123 27.373 27.658 27.911 28.111 28.383 28.631 28.783 28.961 29.081 29.246 33.411 34.413 29.559 29.706 29.894 30.001 30.174 30.336 30.516 30.694 30.856 31.021 31.171 31.336 31.469 31.646 31.821 31.966 32.101 32.296 32.511 32.691 32.816 32.936 33.059 33.179 33.304 33.419 33.559 33.734 33.874 33.979 34.114 34.139 34.201 34.271 34.379 34.484 34.599 34.674 34.739 35.669 37.206 36.599 35.809 35.911 35.996 36.079 36.194 36.271 36.256 36.219 36.309 36.479 36.564 36.664 36.791 36.919 37.029 37.116 37.219 37.271 37.416 37.479 37.626 37.709 37.851 37.951 38.069 38.169 38.274 38.371 38.496 38.606 38.754 38.871 38.999 39.139 39.299 39.454 39.601 39.731 39.896 40.006 40.164 40.291 40.406 40.534 40.649 40.794 40.936 41.079 41.229 41.359 41.499 41.629 41.731 41.879 42.031 42.136 42.241 42.361 42.499 42.624 42.751 42.876 42.996 43.131 43.204 43.284 43.376 43.476 43.579 43.661
48.548 48.551 48.541 48.498 48.498 48.491 48.448 48.456 48.423 48.428 48.421 48.381 48.368 48.378 48.336 48.321 48.343 48.301 48.293 48.286 48.233 48.226 48.188 48.163 48.148 48.126 48.076 48.058 48.051 48.003 47.976 47.901 47.861 47.848 47.811 47.791 47.736 47.713 47.683 47.658 47.581 47.521 47.498 47.448 47.408 47.378 47.348 47.316 47.273 47.258 47.201 47.151 47.101 47.043 46.993 46.923 46.883 46.831 46.793 46.768 46.723 46.698 46.651 46.631 46.571 46.481 46.463 46.331 46.388 46.366 46.291 46.256 46.163 46.141 46.091 46.031 45.963 45.941 45.908 45.881 45.843 45.841 45.786 45.678 45.656 45.638 45.558 45.491 45.466 45.378 45.328 45.263 45.171 45.136 45.038 44.926 44.843 44.771 44.718 44.648 44.591 44.541 44.486 44.468 44.411 44.368 44.293 44.196 44.116 44.008 43.928 43.873 43.838 43.836 43.836 43.783 43.781 43.766 43.751 43.658 43.628 44.068 44.441 43.608 43.307 43.25 43.084 43.111 43.229 42.86 42.742 42.658 42.549 42.474 42.397 42.346 42.311 42.214 42.155 42.073 42.011 41.898 41.848 41.756 41.678 41.588 41.506 41.423 41.356 41.303 41.183 41.116 41.021 40.948 40.878 40.813 40.736 40.661 40.563 40.486 40.388 40.308 40.218 40.133 40.071 40.011 39.903 39.831 39.741 39.676 39.598 39.493 39.406 39.321 39.211 39.093 39.023 38.923 38.846 38.721 38.631 38.543 38.446 38.361 38.258 38.173 38.103 38.011 37.913 37.841 37.718 37.601 37.508 37.406 37.256 37.191 37.048 36.941 36.796 36.706 36.603 36.493 36.376 36.266 36.131 36.003 35.888 35.808 35.723 35.611 35.558 35.498 35.423 35.391 35.316 35.311 35.191 35.631 43.508 47.866 52.193 50.346 46.058 37.436 34.168 34.223 37.321 42.546 41.058 42.921 40.051 37.063 40.868 41.223 32.503 33.883 32.616 31.963 31.681 31.523 31.318 31.101 30.923 30.841 34.693 44.756 46.793 45.608 44.986 36.636 35.183 29.393 29.313 29.028 30.141 38.866 35.108 33.498 41.846 45.716 45.996 45.028 47.733 33.443 30.903 29.126 30.936 38.226 36.416 37.973 33.476 24.666 24.688 23.398 23.506 23.873 23.798 23.773 23.671 23.578 23.538 23.531 23.513 23.533 23.558 23.583 23.613 23.691 23.783 23.903 24.068 24.201 24.338 24.486 24.608 24.766 24.856 24.953 25.058 25.163 25.278 25.408 25.521 25.596 25.743 25.876 25.993 26.178 26.336 26.581 26.858 27.081 27.311 27.553 27.798 28.061 28.308 28.573 28.791 28.956 29.128 29.698 36.556 31.906 30.921 32.564 30.021 30.184 30.259 30.441 30.624 30.771 30.934 31.104 31.269 31.441 31.616 31.826 31.981 32.114 32.229 32.396 32.574 32.709 32.841 32.976 33.101 33.239 33.351 33.469 33.631 33.791 33.941 34.046 34.141 34.204 34.276 34.394 34.469 34.561 34.651 34.719 34.974 37.041 36.991 36.069 35.901 35.981 36.051 36.136 36.271 36.339 36.299 36.291 36.499 36.616 36.716 36.824 36.956 37.054 37.174 37.274 37.341 37.411 37.471 37.614 37.744 37.829 37.976 38.044 38.164 38.256 38.359 38.454 38.566 38.664 38.809 38.911 39.051 39.176 39.346 39.469 39.604 39.741 39.879 39.996 40.156 40.299 40.416 40.526 40.674 40.806 40.956 41.066 41.229 41.366 41.501 41.654 41.779 41.916 42.054 42.186 42.301 42.416 42.549 42.691 42.811 42.924 43.021 43.141 43.234 43.339 43.429 43.516 43.626 43.729
48.636 48.626 48.621 48.598 48.588 48.596 48.551 48.563 48.546 48.516 48.521 48.478 48.448 48.471 48.423 48.408 48.441 48.398 48.401 48.358 48.343 48.328 48.301 48.253 48.241 48.193 48.166 48.126 48.103 48.058 48.033 48.001 47.951 47.928 47.873 47.851 47.813 47.761 47.723 47.698 47.651 47.576 47.548 47.501 47.441 47.433 47.418 47.351 47.341 47.298 47.253 47.196 47.156 47.086 47.038 46.991 46.958 46.906 46.838 46.821 46.773 46.746 46.723 46.678 46.623 46.568 46.518 46.398 46.441 46.436 46.366 46.283 46.218 46.178 46.123 46.078 46.028 45.981 45.948 45.928 45.908 45.868 45.823 45.741 45.668 45.636 45.588 45.526 45.453 45.423 45.368 45.306 45.236 45.126 45.088 44.986 44.893 44.838 44.753 44.716 44.638 44.593 44.563 44.473 44.416 44.356 44.301 44.241 44.148 44.051 43.978 43.928 43.866 43.851 43.796 43.751 43.821 43.793 43.736 43.638 43.816 44.481 43.788 43.461 43.337 43.259 43.05 43.246 43.229 43.099 42.783 42.671 42.563 42.489 42.403 42.344 42.293 42.222 42.159 42.091 42.011 41.946 41.876 41.793 41.703 41.611 41.563 41.481 41.348 41.293 41.221 41.133 41.041 40.976 40.903 40.831 40.746 40.661 40.598 40.523 40.433 40.331 40.241 40.186 40.088 40.003 39.901 39.853 39.768 39.666 39.591 39.523 39.413 39.313 39.221 39.136 39.028 38.921 38.821 38.716 38.653 38.536 38.478 38.393 38.286 38.203 38.101 38.013 37.933 37.831 37.706 37.626 37.531 37.403 37.278 37.191 37.043 36.931 36.828 36.703 36.561 36.493 36.373 36.273 36.141 36.021 35.911 35.833 35.733 35.646 35.566 35.541 35.493 35.408 35.331 35.313 35.188 38.741 43.151 48.638 52.396 47.473 37.881 35.748 37.763 34.186 34.223 33.656 40.071 42.688 40.823 42.376 43.911 41.611 33.481 32.281 32.058 31.876 31.726 31.528 31.431 31.046 30.966 30.891 33.106 43.361 43.173 36.558 32.513 31.481 29.671 29.373 34.803 39.286 28.888 31.236 29.788 38.226 46.336 46.493 37.561 37.576 43.723 45.488 44.366 40.233 40.948 42.056 36.258 30.533 25.371 24.793 28.246 27.023 26.013 23.881 23.811 23.793 23.688 23.596 23.546 23.538 23.543 23.563 23.578 23.628 23.681 23.731 23.816 23.918 24.058 24.211 24.366 24.486 24.641 24.801 24.946 25.113 25.258 25.361 25.416 25.538 25.616 25.711 25.846 25.971 26.001 26.173 26.306 26.518 26.788 27.043 27.288 27.493 27.706 27.998 28.231 28.476 28.696 28.946 29.176 33.583 32.771 30.536 29.909 30.024 31.999 30.331 30.419 30.619 30.759 30.894 31.054 31.184 31.374 31.546 31.746 31.981 32.161 32.276 32.336 32.464 32.621 32.746 32.874 32.994 33.131 33.279 33.404 33.534 33.669 33.859 34.001 34.126 34.196 34.279 34.361 34.441 34.584 34.649 34.699 34.729 35.664 37.309 37.026 35.991 35.966 36.071 36.141 36.219 36.324 36.321 36.304 36.421 36.626 36.719 36.831 36.926 37.011 37.079 37.199 37.296 37.414 37.489 37.579 37.659 37.791 37.919 38.041 38.171 38.246 38.361 38.486 38.584 38.696 38.851 38.936 39.014 39.124 39.246 39.436 39.569 39.711 39.864 39.984 40.096 40.206 40.349 40.476 40.601 40.741 40.869 40.996 41.149 41.264 41.406 41.536 41.676 41.821 41.959 42.091 42.196 42.316 42.446 42.564 42.701 42.801 42.926 43.034 43.124 43.251 43.319 43.429 43.536 43.651 43.784
48.703 48.721 48.708 48.681 48.663 48.696 48.633 48.626 48.618 48.606 48.618 48.583 48.566 48.578 48.543 48.518 48.533 48.483 48.466 48.481 48.466 48.421 48.411 48.353 48.331 48.316 48.276 48.233 48.186 48.163 48.108 48.068 48.026 47.996 47.948 47.911 47.886 47.833 47.796 47.758 47.701 47.646 47.628 47.583 47.516 47.501 47.436 47.411 47.396 47.363 47.311 47.271 47.231 47.173 47.086 47.046 46.993 46.958 46.898 46.871 46.861 46.788 46.778 46.761 46.693 46.638 46.623 46.456 46.503 46.516 46.428 46.371 46.278 46.236 46.178 46.133 46.081 46.026 46.003 45.983 45.941 45.901 45.831 45.768 45.701 45.663 45.621 45.561 45.491 45.416 45.356 45.318 45.268 45.186 45.113 45.056 44.963 44.898 44.831 44.721 44.683 44.646 44.568 44.483 44.436 44.376 44.296 44.236 44.151 44.068 44.023 43.973 43.846 43.873 43.768 43.768 43.838 43.806 43.703 43.653 43.866 44.696 44.231 43.416 43.325 43.232 43.092 43.245 42.981 42.864 42.773 42.659 42.575 42.477 42.409 42.377 42.324 42.256 42.173 42.131 42.048 41.961 41.868 41.826 41.728 41.636 41.551 41.473 41.398 41.316 41.238 41.148 41.071 40.986 40.916 40.841 40.778 40.721 40.598 40.518 40.426 40.363 40.268 40.161 40.106 40.036 39.943 39.838 39.748 39.688 39.601 39.501 39.388 39.318 39.266 39.146 39.043 38.956 38.873 38.748 38.641 38.546 38.496 38.401 38.293 38.198 38.136 38.038 37.951 37.868 37.736 37.648 37.521 37.428 37.313 37.191 37.078 36.941 36.858 36.758 36.598 36.518 36.398 36.291 36.186 36.091 35.931 35.836 35.731 35.663 35.616 35.531 35.488 35.386 35.378 35.326 35.203 42.338 50.776 50.221 45.068 40.281 39.448 36.976 41.578 34.003 34.458 35.761 49.596 39.846 41.176 42.058 37.988 37.636 38.318 32.153 32.076 32.103 31.928 31.751 31.266 31.108 31.008 30.826 33.358 43.808 44.078 30.303 30.048 29.901 31.916 33.158 35.686 37.888 28.693 28.481 29.483 37.031 43.228 43.433 36.736 32.046 38.958 42.271 44.681 36.023 35.786 28.763 26.308 25.078 27.646 30.486 25.876 36.518 28.321 23.843 23.801 23.791 23.711 23.621 23.558 23.548 23.548 23.563 23.631 23.686 23.741 23.773 23.883 24.021 24.146 24.283 24.411 24.538 24.656 24.811 24.973 25.173 25.373 25.498 25.593 25.738 25.856 25.941 26.038 26.151 26.246 26.356 26.418 26.618 26.788 27.033 27.261 27.471 27.681 27.906 28.146 28.403 28.633 28.923 29.161 35.383 31.223 29.798 30.036 30.241 30.486 30.484 30.654 30.769 30.891 31.029 31.221 31.371 31.496 31.636 31.854 32.121 32.321 32.396 32.446 32.549 32.684 32.806 32.946 33.054 33.179 33.331 33.434 33.591 33.766 33.931 34.074 34.176 34.256 34.346 34.411 34.526 34.631 34.706 34.729 34.861 37.334 38.724 37.049 35.954 36.026 36.164 36.189 36.251 36.394 36.319 36.324 36.526 36.716 36.759 36.891 37.001 37.074 37.141 37.271 37.376 37.471 37.579 37.646 37.741 37.854 37.964 38.079 38.191 38.269 38.396 38.506 38.601 38.724 38.871 38.999 39.116 39.186 39.336 39.499 39.654 39.801 39.891 40.024 40.179 40.336 40.441 40.556 40.689 40.826 40.961 41.056 41.229 41.381 41.501 41.631 41.779 41.904 42.039 42.184 42.291 42.429 42.494 42.619 42.754 42.876 42.969 43.114 43.189 43.301 43.419 43.499 43.569 43.699 43.834
48.798 48.821 48.808 48.778 48.786 48.783 48.736 48.723 48.711 48.726 48.723 48.691 48.668 48.661 48.646 48.628 48.618 48.616 48.601 48.591 48.556 48.496 48.531 48.463 48.428 48.413 48.378 48.333 48.288 48.246 48.226 48.176 48.126 48.121 48.028 48.001 47.951 47.921 47.873 47.836 47.791 47.721 47.696 47.621 47.601 47.561 47.503 47.478 47.478 47.418 47.376 47.318 47.276 47.233 47.168 47.123 47.071 47.046 46.956 46.933 46.911 46.863 46.853 46.811 46.756 46.708 46.671 46.528 46.588 46.556 46.521 46.423 46.336 46.293 46.251 46.176 46.151 46.071 46.048 46.023 45.993 45.946 45.856 45.823 45.753 45.648 45.621 45.593 45.503 45.433 45.376 45.333 45.273 45.228 45.153 45.073 44.993 44.906 44.841 44.791 44.698 44.651 44.581 44.503 44.443 44.391 44.341 44.228 44.146 44.048 44.073 43.951 43.873 43.858 43.786 43.803 43.836 43.796 43.678 43.738 44.756 45.078 43.371 43.376 43.369 43.242 43.251 43.153 43.011 42.856 42.783 42.672 42.579 42.502 42.452 42.417 42.331 42.249 42.182 42.11 42.021 41.956 41.883 41.828 41.728 41.648 41.556 41.503 41.398 41.308 41.241 41.163 41.106 41.011 40.941 40.863 40.783 40.688 40.618 40.536 40.463 40.361 40.261 40.173 40.096 40.018 39.958 39.878 39.786 39.708 39.611 39.523 39.423 39.363 39.251 39.156 39.073 38.951 38.863 38.781 38.683 38.593 38.521 38.443 38.333 38.286 38.143 38.093 37.993 37.878 37.771 37.676 37.588 37.471 37.333 37.208 37.116 36.996 36.861 36.771 36.636 36.546 36.408 36.296 36.181 36.093 35.968 35.886 35.758 35.658 35.638 35.563 35.483 35.433 35.428 35.376 38.713 42.996 49.948 46.688 43.406 36.826 34.266 34.203 34.058 35.746 35.116 39.756 49.098 40.013 39.401 33.316 32.698 32.601 32.486 32.258 32.083 31.891 31.716 31.591 31.296 31.101 30.998 30.926 31.618 36.793 33.798 30.271 30.041 30.556 29.551 29.253 29.683 29.583 28.618 28.488 28.203 28.336 30.638 30.913 40.166 44.158 39.856 39.403 32.956 43.296 40.418 31.253 28.091 27.218 27.421 26.768 33.933 36.378 31.911 23.813 23.828 23.811 23.708 23.636 23.601 23.566 23.573 23.581 23.653 23.713 23.768 23.853 24.003 24.148 24.291 24.388 24.466 24.606 24.718 24.873 25.041 25.218 25.386 25.536 25.713 25.858 26.018 26.213 26.311 26.488 26.483 26.593 26.741 26.796 26.926 27.108 27.316 27.498 27.701 27.886 28.093 28.338 28.623 28.906 31.596 29.416 29.631 29.906 30.971 31.096 34.549 30.709 30.861 30.929 31.069 31.226 31.386 31.541 31.681 31.801 31.981 32.221 32.449 32.534 32.551 32.636 32.781 32.886 32.971 33.116 33.249 33.384 33.514 33.681 33.831 33.996 34.141 34.219 34.319 34.374 34.469 34.576 34.696 34.751 34.789 35.189 37.471 37.746 36.249 36.034 36.086 36.191 36.236 36.309 36.399 36.364 36.441 36.654 36.791 36.841 36.926 36.999 37.121 37.216 37.351 37.439 37.564 37.651 37.729 37.809 37.939 38.019 38.126 38.254 38.361 38.471 38.586 38.684 38.814 38.934 39.041 39.166 39.289 39.401 39.524 39.676 39.816 39.954 40.106 40.219 40.359 40.471 40.596 40.726 40.851 41.004 41.134 41.256 41.376 41.516 41.659 41.809 41.951 42.076 42.239 42.361 42.474 42.626 42.691 42.826 42.974 43.069 43.206 43.266 43.364 43.459 43.544 43.661 43.771 43.889
48.908 48.918 48.873 48.893 48.868 48.878 48.851 48.833 48.813 48.798 48.786 48.778 48.751 48.761 48.733 48.746 48.721 48.713 48.683 48.688 48.663 48.601 48.603 48.548 48.516 48.498 48.458 48.411 48.358 48.333 48.283 48.248 48.193 48.163 48.116 48.098 48.046 47.986 47.943 47.918 47.851 47.813 47.756 47.676 47.656 47.601 47.586 47.543 47.531 47.488 47.461 47.383 47.346 47.303 47.213 47.201 47.143 47.111 47.026 47.001 46.986 46.928 46.908 46.871 46.808 46.796 46.751 46.646 46.591 46.608 46.566 46.493 46.378 46.363 46.336 46.248 46.216 46.146 46.128 46.091 46.063 46.016 45.923 45.893 45.773 45.691 45.663 45.593 45.503 45.471 45.398 45.368 45.338 45.276 45.171 45.111 45.058 44.973 44.866 44.796 44.738 44.661 44.616 44.553 44.476 44.416 44.341 44.248 44.138 44.091 44.088 43.996 43.916 43.903 43.831 43.888 43.856 43.803 43.748 43.901 45.583 43.538 43.421 43.416 43.356 43.16 43.181 43.229 42.958 42.885 42.793 42.704 42.604 42.525 42.46 42.398 42.333 42.272 42.19 42.125 42.048 41.988 41.881 41.808 41.741 41.676 41.558 41.491 41.416 41.341 41.271 41.186 41.113 41.046 40.951 40.873 40.811 40.726 40.663 40.583 40.481 40.413 40.328 40.213 40.121 40.066 39.993 39.908 39.816 39.726 39.638 39.563 39.463 39.346 39.278 39.171 39.081 38.963 38.888 38.813 38.701 38.601 38.558 38.461 38.341 38.278 38.186 38.098 37.991 37.903 37.803 37.711 37.586 37.491 37.356 37.253 37.141 37.013 36.901 36.781 36.631 36.551 36.443 36.328 36.216 36.106 35.976 35.893 35.788 35.711 35.658 35.608 35.526 35.468 35.451 35.353 36.218 42.978 46.073 48.358 41.918 35.701 34.273 34.311 34.123 36.551 42.178 47.416 44.891 44.996 45.753 34.556 32.718 32.668 32.513 34.141 32.018 31.846 31.666 31.511 31.291 31.133 31.011 30.963 30.798 30.446 31.248 38.908 39.138 46.451 41.451 30.118 37.773 42.668 29.443 28.578 34.748 43.273 41.823 44.103 47.643 48.501 46.971 45.651 39.188 42.798 42.898 35.871 29.488 34.013 33.311 30.888 28.728 31.213 25.776 23.871 23.891 23.838 23.726 23.663 23.603 23.568 23.598 23.651 23.693 23.758 23.858 23.931 24.088 24.236 24.396 24.493 24.578 24.693 24.841 25.001 25.143 25.328 25.481 25.596 25.731 25.928 26.131 26.286 26.511 26.693 26.858 26.998 27.171 27.108 27.201 27.311 27.443 27.576 27.721 27.911 28.068 28.298 28.588 30.321 42.786 32.651 30.556 29.936 35.416 33.311 37.294 31.536 31.344 32.009 31.241 31.386 31.554 31.704 31.874 32.014 32.129 32.316 32.539 32.619 32.664 32.746 32.861 32.966 33.076 33.219 33.341 33.466 33.601 33.774 33.921 34.064 34.209 34.306 34.381 34.459 34.519 34.581 34.711 34.769 34.846 35.879 37.781 37.434 36.056 36.089 36.169 36.241 36.286 36.369 36.441 36.396 36.549 36.706 36.811 36.929 36.956 37.034 37.156 37.296 37.391 37.476 37.566 37.701 37.796 37.896 37.996 38.091 38.186 38.331 38.416 38.519 38.631 38.754 38.871 39.004 39.131 39.226 39.336 39.466 39.591 39.731 39.904 40.016 40.136 40.281 40.409 40.516 40.639 40.779 40.894 41.026 41.174 41.321 41.424 41.574 41.704 41.874 42.006 42.151 42.289 42.389 42.504 42.649 42.771 42.876 43.016 43.099 43.251 43.311 43.434 43.524 43.609 43.724 43.854 43.919
48.993 49.011 48.983 48.981 48.963 48.956 48.953 48.926 48.896 48.888 48.883 48.878 48.866 48.846 48.828 48.813 48.803 48.783 48.823 48.783 48.738 48.726 48.711 48.651 48.618 48.576 48.551 48.488 48.481 48.403 48.353 48.341 48.248 48.246 48.193 48.153 48.123 48.081 48.033 48.001 47.936 47.838 47.838 47.753 47.728 47.686 47.656 47.621 47.591 47.568 47.526 47.461 47.396 47.373 47.296 47.241 47.213 47.176 47.103 47.048 47.051 46.996 46.973 46.926 46.873 46.858 46.826 46.688 46.653 46.648 46.641 46.523 46.486 46.408 46.406 46.323 46.293 46.228 46.188 46.131 46.118 46.088 46.031 45.943 45.868 45.801 45.736 45.676 45.601 45.573 45.491 45.458 45.453 45.331 45.308 45.253 45.121 45.081 44.993 44.931 44.836 44.771 44.708 44.616 44.548 44.486 44.398 44.296 44.203 44.151 44.146 44.048 43.978 43.948 43.853 43.928 43.871 43.813 43.771 44.008 44.626 43.738 43.381 43.418 43.353 43.168 43.174 43.195 42.991 42.872 42.785 42.685 42.587 42.504 42.471 42.437 42.36 42.285 42.236 42.168 42.071 41.981 41.921 41.861 41.778 41.688 41.606 41.523 41.441 41.368 41.273 41.228 41.151 41.066 40.956 40.923 40.861 40.771 40.661 40.606 40.506 40.421 40.328 40.223 40.191 40.083 39.991 39.901 39.828 39.753 39.666 39.561 39.468 39.398 39.291 39.186 39.101 39.008 38.888 38.813 38.713 38.638 38.528 38.448 38.368 38.291 38.191 38.101 38.006 37.946 37.821 37.728 37.616 37.511 37.346 37.238 37.121 37.016 36.888 36.773 36.693 36.586 36.443 36.356 36.258 36.123 35.996 35.926 35.816 35.706 35.686 35.616 35.533 35.463 35.478 35.373 35.516 42.813 46.368 48.186 44.208 38.173 34.328 34.378 34.128 37.158 36.188 42.411 38.563 38.286 38.793 33.068 33.893 33.006 32.888 33.453 32.001 31.866 31.736 31.456 31.318 31.113 32.356 40.531 35.823 31.098 38.128 48.133 44.536 36.803 37.236 30.116 40.973 46.283 33.551 32.903 44.201 47.378 38.683 37.631 41.148 44.708 40.271 41.908 42.658 42.458 43.491 43.761 31.411 35.673 35.033 30.951 24.028 23.563 23.698 23.993 23.938 23.856 23.761 23.686 23.633 23.588 23.608 23.653 23.736 23.836 23.916 24.031 24.138 24.281 24.468 24.583 24.696 24.806 24.961 25.133 25.313 25.468 25.641 25.738 25.861 26.003 26.246 26.401 26.593 26.746 26.938 27.108 27.266 27.393 27.513 27.596 27.681 27.751 27.863 28.016 28.133 28.318 28.568 30.101 36.251 31.543 29.636 29.798 30.366 30.346 33.139 35.991 31.061 31.541 31.421 31.544 31.671 31.861 32.016 32.196 32.299 32.461 32.591 32.694 32.774 32.874 32.979 33.054 33.176 33.304 33.431 33.574 33.714 33.864 34.021 34.179 34.301 34.366 34.444 34.474 34.554 34.651 34.736 34.806 35.056 36.604 38.021 36.944 36.041 36.134 36.214 36.281 36.326 36.419 36.429 36.486 36.639 36.766 36.841 36.996 37.051 37.131 37.229 37.361 37.491 37.541 37.689 37.766 37.906 38.014 38.074 38.224 38.304 38.404 38.489 38.604 38.694 38.804 38.911 39.079 39.186 39.301 39.419 39.551 39.684 39.801 39.941 40.061 40.211 40.356 40.494 40.621 40.729 40.856 40.986 41.114 41.249 41.356 41.506 41.654 41.796 41.936 42.069 42.181 42.316 42.419 42.551 42.691 42.801 42.944 43.089 43.191 43.279 43.391 43.479 43.556 43.656 43.791 43.886 43.979
49.086 49.091 49.056 49.073 49.058 49.061 49.031 49.001 49.006 48.998 48.978 48.961 48.943 48.941 48.933 48.913 48.906 48.898 48.888 48.861 48.838 48.801 48.776 48.711 48.701 48.676 48.641 48.561 48.528 48.493 48.453 48.421 48.331 48.326 48.283 48.251 48.201 48.141 48.098 48.028 48.016 47.928 47.876 47.836 47.786 47.733 47.716 47.671 47.628 47.606 47.578 47.528 47.488 47.411 47.328 47.311 47.248 47.231 47.166 47.136 47.113 47.063 47.038 47.016 46.951 46.928 46.853 46.796 46.691 46.726 46.691 46.618 46.518 46.468 46.483 46.411 46.343 46.283 46.248 46.206 46.173 46.163 46.088 45.976 45.936 45.866 45.798 45.733 45.671 45.613 45.538 45.496 45.511 45.416 45.356 45.301 45.226 45.176 45.076 45.021 44.956 44.828 44.753 44.696 44.588 44.511 44.448 44.346 44.261 44.198 44.228 44.116 44.021 43.958 43.951 43.966 43.896 43.843 43.828 43.931 43.923 43.783 43.403 43.441 43.271 43.175 43.309 43.196 42.976 42.873 42.784 42.695 42.604 42.544 42.514 42.441 42.375 42.316 42.246 42.162 42.086 42.008 41.941 41.861 41.796 41.731 41.638 41.556 41.466 41.381 41.318 41.236 41.151 41.081 40.998 40.941 40.871 40.798 40.696 40.603 40.513 40.426 40.348 40.263 40.191 40.111 40.006 39.946 39.841 39.766 39.693 39.603 39.468 39.393 39.308 39.196 39.101 39.008 38.931 38.836 38.751 38.641 38.538 38.471 38.396 38.306 38.248 38.146 38.038 37.908 37.833 37.738 37.631 37.503 37.378 37.273 37.146 37.018 36.938 36.811 36.711 36.583 36.483 36.368 36.218 36.111 36.058 35.946 35.803 35.748 35.708 35.638 35.578 35.471 35.503 35.366 37.756 37.721 47.706 46.713 44.453 34.436 34.398 34.343 34.138 33.963 33.806 33.803 33.631 37.638 41.943 32.863 32.723 35.053 37.258 38.128 32.386 31.976 31.698 31.418 31.231 33.728 42.716 46.638 45.228 38.308 46.863 46.863 40.228 43.731 33.273 29.171 31.336 33.028 39.078 38.741 32.636 30.866 27.636 27.421 27.236 38.771 48.093 47.381 30.878 39.173 45.796 45.076 33.458 33.761 32.606 27.058 24.623 23.751 23.696 24.081 24.001 23.861 23.766 23.706 23.666 23.618 23.596 23.678 23.776 23.866 23.976 24.118 24.233 24.343 24.498 24.623 24.741 24.891 25.063 25.261 25.408 25.556 25.751 25.913 26.003 26.181 26.361 26.723 28.136 26.883 27.031 27.223 27.398 27.503 27.691 27.801 27.853 28.018 28.098 28.183 28.278 28.426 28.618 28.866 29.128 29.383 29.508 31.608 30.139 31.759 32.636 34.431 31.061 31.286 31.471 31.641 31.731 31.906 32.106 32.304 32.466 32.586 32.699 32.791 32.851 32.964 33.076 33.166 33.271 33.411 33.514 33.674 33.821 33.969 34.116 34.261 34.379 34.429 34.486 34.516 34.571 34.684 34.781 34.869 35.656 37.401 38.284 36.524 36.116 36.159 36.261 36.301 36.376 36.454 36.454 36.534 36.704 36.809 36.874 36.996 37.071 37.179 37.269 37.416 37.514 37.609 37.746 37.824 37.939 38.036 38.129 38.249 38.371 38.509 38.604 38.666 38.774 38.884 38.984 39.106 39.244 39.356 39.481 39.611 39.729 39.861 39.959 40.119 40.276 40.406 40.521 40.681 40.771 40.924 41.069 41.199 41.321 41.476 41.581 41.719 41.851 41.989 42.141 42.259 42.404 42.519 42.644 42.746 42.866 42.961 43.106 43.216 43.304 43.424 43.506 43.609 43.761 43.881 43.964 44.071
49.163 49.146 49.163 49.136 49.128 49.121 49.131 49.066 49.098 49.073 49.051 49.058 49.023 49.016 49.026 48.991 48.988 48.968 48.943 48.956 48.903 48.856 48.843 48.796 48.758 48.731 48.693 48.626 48.603 48.553 48.518 48.501 48.436 48.383 48.348 48.288 48.253 48.193 48.143 48.088 48.058 47.973 47.933 47.916 47.836 47.808 47.786 47.713 47.703 47.663 47.636 47.596 47.521 47.491 47.403 47.368 47.326 47.296 47.226 47.186 47.178 47.128 47.096 47.066 46.998 46.961 46.906 46.876 46.723 46.793 46.723 46.638 46.578 46.528 46.518 46.471 46.393 46.348 46.298 46.256 46.223 46.198 46.148 46.038 45.986 45.901 45.841 45.793 45.758 45.683 45.583 45.563 45.578 45.476 45.416 45.373 45.296 45.233 45.146 45.076 45.003 44.896 44.803 44.751 44.658 44.561 44.493 44.386 44.278 44.298 44.258 44.171 44.108 44.013 44.043 43.998 43.918 43.873 43.933 44.946 44.046 43.543 43.423 43.448 43.228 43.236 43.209 43.115 42.992 42.892 42.805 42.707 42.613 42.555 42.522 42.469 42.39 42.318 42.251 42.17 42.085 42.023 41.946 41.878 41.826 41.723 41.641 41.581 41.508 41.408 41.318 41.243 41.156 41.101 41.028 40.946 40.883 40.798 40.721 40.621 40.538 40.451 40.366 40.281 40.191 40.108 40.016 39.926 39.863 39.766 39.678 39.591 39.488 39.406 39.333 39.186 39.113 39.041 38.933 38.858 38.731 38.676 38.583 38.466 38.393 38.306 38.236 38.121 38.048 37.956 37.843 37.748 37.631 37.533 37.413 37.263 37.161 37.058 36.926 36.803 36.708 36.603 36.496 36.368 36.268 36.153 36.021 35.943 35.838 35.761 35.711 35.668 35.601 35.508 35.518 35.391 39.598 37.246 47.861 51.516 44.966 34.386 34.483 34.593 37.936 41.863 33.833 35.361 37.723 39.081 43.296 39.086 32.723 33.338 36.206 34.681 31.938 31.898 32.223 31.493 31.173 32.658 43.508 46.323 44.318 45.736 45.816 47.146 49.253 46.636 36.916 29.178 30.418 40.296 46.998 36.321 28.023 27.798 27.601 27.396 27.576 34.203 46.986 42.608 27.688 36.376 46.498 37.968 30.283 29.961 34.348 26.771 25.156 23.881 23.623 24.111 24.046 23.901 23.823 23.758 23.698 23.656 23.633 23.688 23.798 23.918 24.051 24.198 24.301 24.413 24.563 24.708 24.853 24.986 25.178 25.366 25.501 25.668 25.828 25.961 26.116 26.273 26.446 26.663 28.601 27.448 27.233 27.361 27.491 27.673 27.866 27.938 28.131 28.251 28.376 28.426 28.468 28.598 28.756 28.966 29.228 29.466 35.323 32.131 33.066 32.351 32.506 31.039 31.076 31.231 31.466 31.664 31.809 31.966 32.126 32.329 32.514 32.669 32.789 32.844 32.939 33.051 33.169 33.266 33.384 33.516 33.619 33.801 33.936 34.064 34.206 34.316 34.424 34.494 34.526 34.576 34.654 34.711 34.809 34.939 36.771 37.871 37.814 36.141 36.151 36.211 36.316 36.351 36.424 36.496 36.494 36.621 36.789 36.886 36.929 37.051 37.124 37.216 37.331 37.444 37.544 37.684 37.786 37.861 37.939 38.079 38.184 38.286 38.396 38.529 38.604 38.716 38.829 38.914 39.046 39.151 39.266 39.399 39.531 39.649 39.799 39.924 40.029 40.169 40.291 40.456 40.559 40.706 40.821 40.981 41.094 41.236 41.366 41.496 41.636 41.746 41.909 42.059 42.209 42.326 42.461 42.571 42.679 42.806 42.929 43.049 43.179 43.286 43.354 43.474 43.561 43.689 43.791 43.889 43.979 44.114
49.226 49.208 49.231 49.206 49.183 49.193 49.208 49.173 49.168 49.136 49.146 49.128 49.108 49.061 49.066 49.066 49.038 49.016 49.008 49.006 48.983 48.958 48.906 48.873 48.851 48.816 48.761 48.716 48.703 48.633 48.596 48.546 48.506 48.468 48.428 48.373 48.323 48.263 48.198 48.158 48.108 48.038 48.018 47.968 47.898 47.861 47.828 47.801 47.768 47.711 47.696 47.631 47.578 47.513 47.451 47.401 47.353 47.336 47.293 47.213 47.226 47.191 47.148 47.116 47.061 47.031 46.941 46.928 46.751 46.848 46.811 46.718 46.643 46.586 46.563 46.508 46.446 46.393 46.343 46.288 46.278 46.243 46.203 46.098 46.018 45.976 45.906 45.828 45.813 45.748 45.661 45.628 45.631 45.566 45.526 45.438 45.366 45.316 45.208 45.136 45.073 44.976 44.856 44.773 44.693 44.588 44.538 44.408 44.326 44.326 44.251 44.198 44.138 44.066 44.096 44.048 43.953 43.876 44.173 43.951 43.761 43.533 43.511 43.433 43.266 43.253 43.21 43.078 43.005 42.888 42.803 42.718 42.634 42.573 42.511 42.455 42.411 42.324 42.256 42.166 42.121 42.043 41.976 41.916 41.828 41.726 41.671 41.581 41.496 41.438 41.351 41.293 41.191 41.106 41.066 40.971 40.886 40.813 40.741 40.641 40.551 40.433 40.388 40.288 40.203 40.108 40.031 39.936 39.866 39.773 39.713 39.593 39.523 39.388 39.348 39.248 39.151 39.038 38.958 38.861 38.781 38.661 38.573 38.496 38.411 38.313 38.216 38.138 38.073 37.976 37.858 37.763 37.661 37.526 37.411 37.308 37.178 37.068 36.963 36.851 36.756 36.618 36.473 36.398 36.281 36.171 36.068 36.001 35.871 35.788 35.718 35.668 35.588 35.566 35.531 35.368 40.938 44.526 49.693 45.603 50.136 34.928 34.216 34.201 37.033 40.793 35.568 33.716 38.181 40.426 34.678 32.921 32.668 32.448 32.366 32.071 31.963 31.926 31.678 31.473 31.198 31.208 30.943 39.513 43.713 48.378 50.651 47.773 46.933 50.271 46.863 31.391 31.971 43.961 38.336 28.308 28.201 28.831 34.331 37.821 31.793 27.511 39.113 45.201 28.643 30.851 39.446 36.743 31.928 26.921 31.563 29.396 24.566 24.026 23.806 24.168 24.066 23.943 23.828 23.791 23.756 23.706 23.668 23.706 23.836 23.938 24.078 24.203 24.361 24.488 24.648 24.793 24.946 25.088 25.266 25.451 25.603 25.746 25.918 26.051 26.178 26.378 26.501 26.638 26.793 27.141 27.318 27.461 27.611 27.831 28.066 28.726 28.523 28.518 28.593 28.661 28.691 28.808 28.976 29.113 29.376 30.491 36.941 33.286 30.539 32.261 30.726 32.174 31.081 31.196 31.421 31.629 31.864 32.056 32.204 32.354 32.551 32.689 32.836 32.916 33.014 33.134 33.266 33.396 33.511 33.634 33.749 33.914 34.049 34.179 34.301 34.391 34.459 34.524 34.569 34.649 34.706 34.799 34.909 35.349 37.284 38.279 37.264 36.146 36.199 36.306 36.351 36.394 36.466 36.489 36.514 36.716 36.921 36.971 37.029 37.139 37.244 37.356 37.456 37.569 37.684 37.801 37.926 38.001 38.079 38.199 38.294 38.391 38.489 38.614 38.691 38.796 38.924 39.029 39.114 39.211 39.311 39.461 39.544 39.671 39.844 39.946 40.049 40.181 40.329 40.471 40.579 40.704 40.846 40.961 41.129 41.271 41.396 41.534 41.679 41.799 41.966 42.114 42.231 42.391 42.516 42.621 42.719 42.894 43.011 43.091 43.226 43.364 43.409 43.509 43.626 43.726 43.849 43.991 44.074 44.169
49.291 49.273 49.281 49.253 49.231 49.263 49.261 49.233 49.218 49.186 49.201 49.181 49.161 49.163 49.136 49.113 49.111 49.103 49.076 49.071 49.021 48.996 48.963 48.978 48.906 48.886 48.848 48.781 48.743 48.711 48.666 48.643 48.586 48.518 48.503 48.433 48.358 48.316 48.278 48.231 48.173 48.131 48.088 48.021 47.968 47.931 47.908 47.853 47.808 47.788 47.741 47.673 47.616 47.578 47.538 47.458 47.453 47.393 47.351 47.296 47.256 47.246 47.228 47.151 47.131 47.078 46.973 46.961 46.831 46.883 46.833 46.796 46.691 46.631 46.623 46.583 46.516 46.471 46.391 46.341 46.338 46.296 46.236 46.146 46.093 46.043 45.976 45.901 45.851 45.806 45.733 45.688 45.706 45.626 45.543 45.488 45.433 45.368 45.268 45.188 45.103 45.031 44.931 44.856 44.758 44.616 44.553 44.433 44.373 44.353 44.301 44.246 44.183 44.161 44.133 44.053 43.966 43.853 44.213 43.691 43.691 43.556 43.578 43.373 43.303 43.281 43.216 43.108 42.996 42.885 42.801 42.709 42.657 42.64 42.559 42.51 42.436 42.335 42.277 42.202 42.117 42.066 41.991 41.896 41.826 41.751 41.698 41.618 41.528 41.476 41.376 41.298 41.211 41.148 41.076 40.998 40.896 40.848 40.763 40.658 40.588 40.483 40.403 40.308 40.206 40.156 40.058 39.991 39.881 39.786 39.728 39.618 39.508 39.423 39.351 39.241 39.131 39.048 38.986 38.878 38.771 38.706 38.641 38.533 38.418 38.361 38.263 38.166 38.066 37.973 37.886 37.751 37.636 37.543 37.441 37.328 37.171 37.111 36.998 36.858 36.758 36.613 36.483 36.363 36.251 36.163 36.066 35.961 35.881 35.838 35.726 35.698 35.596 35.643 35.573 36.061 40.913 43.966 41.023 39.168 40.481 37.176 34.183 34.138 34.141 42.468 46.491 35.641 35.478 37.768 35.778 32.843 32.658 32.451 32.313 32.081 32.623 31.886 31.553 31.278 31.233 31.208 31.051 30.913 32.428 40.381 43.726 46.591 49.878 51.966 42.446 34.161 30.066 30.641 28.826 28.451 28.116 31.668 42.653 47.291 43.776 28.571 35.688 46.446 42.251 26.283 26.223 27.586 32.883 26.438 30.648 30.538 26.728 28.798 23.846 24.136 24.053 23.978 23.873 23.843 23.771 23.711 23.711 23.753 23.876 24.001 24.118 24.246 24.391 24.513 24.688 24.856 25.013 25.186 25.356 25.516 25.661 25.866 26.011 26.133 26.253 26.406 26.558 26.751 26.921 27.133 27.303 27.523 27.773 27.931 28.218 31.621 31.041 28.731 28.773 28.936 29.001 29.086 29.213 29.338 29.508 29.766 31.741 32.683 32.911 35.164 34.139 30.929 30.989 31.136 31.376 31.616 31.836 32.079 32.274 32.449 32.589 32.716 32.839 32.961 33.091 33.214 33.344 33.496 33.631 33.751 33.886 34.016 34.134 34.259 34.336 34.416 34.499 34.546 34.616 34.706 34.776 34.889 34.989 35.796 37.779 38.309 36.656 36.159 36.211 36.364 36.396 36.456 36.531 36.479 36.591 36.821 36.969 37.009 37.096 37.186 37.294 37.406 37.531 37.641 37.739 37.844 37.944 38.109 38.164 38.274 38.406 38.461 38.554 38.664 38.774 38.884 38.954 39.104 39.246 39.331 39.434 39.539 39.621 39.779 39.906 40.049 40.136 40.304 40.426 40.551 40.654 40.781 40.886 41.024 41.136 41.266 41.401 41.549 41.709 41.831 41.964 42.109 42.241 42.364 42.529 42.676 42.776 42.896 43.019 43.121 43.236 43.356 43.451 43.574 43.666 43.771 43.906 44.004 44.101 44.186
49.361 49.351 49.326 49.323 49.326 49.351 49.338 49.306 49.276 49.268 49.241 49.261 49.208 49.188 49.206 49.163 49.203 49.198 49.153 49.128 49.098 49.066 49.036 49.016 48.968 48.938 48.913 48.848 48.811 48.788 48.731 48.693 48.641 48.601 48.541 48.508 48.438 48.408 48.336 48.303 48.218 48.198 48.151 48.088 48.038 47.991 47.953 47.941 47.863 47.836 47.813 47.741 47.701 47.638 47.613 47.543 47.501 47.456 47.406 47.361 47.311 47.301 47.231 47.201 47.168 47.113 47.026 46.968 46.866 46.918 46.883 46.836 46.761 46.683 46.661 46.633 46.566 46.536 46.488 46.418 46.393 46.341 46.311 46.181 46.131 46.078 46.026 45.948 45.888 45.848 45.778 45.746 45.721 45.666 45.611 45.528 45.488 45.421 45.318 45.238 45.153 45.088 45.001 44.901 44.798 44.663 44.536 44.473 44.401 44.353 44.333 44.273 44.171 44.238 44.166 44.018 43.943 44.108 44.296 43.893 43.743 43.653 43.576 43.333 43.353 43.278 43.178 43.108 43.009 42.878 42.789 42.753 42.69 42.648 42.585 42.523 42.452 42.373 42.29 42.218 42.172 42.071 42.003 41.923 41.848 41.783 41.711 41.628 41.553 41.461 41.396 41.316 41.226 41.168 41.088 40.988 40.923 40.841 40.758 40.673 40.616 40.531 40.431 40.333 40.276 40.156 40.071 40.008 39.918 39.831 39.728 39.646 39.541 39.448 39.366 39.256 39.186 39.071 38.968 38.896 38.796 38.698 38.618 38.518 38.451 38.348 38.248 38.143 38.081 37.973 37.876 37.788 37.703 37.563 37.438 37.356 37.206 37.111 36.978 36.838 36.766 36.618 36.526 36.413 36.333 36.186 36.063 35.968 35.893 35.831 35.768 35.711 35.631 35.648 35.578 39.061 39.298 42.016 42.566 34.961 37.011 39.798 34.118 34.021 34.051 39.723 39.893 33.956 37.318 46.146 33.048 32.903 32.798 32.516 32.248 32.106 39.203 46.696 37.583 31.273 31.243 31.216 31.406 31.503 32.461 37.396 36.076 38.426 44.481 45.753 33.693 29.103 30.176 34.106 39.283 38.691 34.211 29.801 32.236 35.128 31.613 34.708 41.393 36.773 32.023 26.388 26.076 26.071 35.446 31.508 30.891 29.891 27.223 27.978 24.688 24.106 24.086 24.026 23.921 23.873 23.801 23.743 23.733 23.826 23.916 24.048 24.148 24.291 24.413 24.553 24.743 24.893 25.063 25.226 25.398 25.558 25.708 25.866 26.053 26.211 26.358 26.498 26.666 26.898 27.046 27.231 27.398 27.646 27.866 28.013 29.606 28.586 29.406 28.848 28.993 29.088 29.198 29.356 29.463 29.596 29.768 29.916 30.063 30.236 30.469 31.921 31.486 30.929 30.996 31.136 31.361 31.596 31.846 32.076 32.334 32.556 32.684 32.801 32.869 32.984 33.119 33.251 33.406 33.569 33.714 33.869 34.009 34.181 34.234 34.301 34.401 34.451 34.549 34.586 34.676 34.784 34.884 34.974 35.101 36.969 38.271 38.099 36.289 36.246 36.286 36.384 36.441 36.506 36.551 36.539 36.696 36.831 36.949 37.049 37.129 37.239 37.384 37.486 37.596 37.714 37.824 37.906 38.066 38.164 38.241 38.329 38.436 38.519 38.619 38.709 38.821 38.921 39.006 39.136 39.239 39.379 39.474 39.586 39.706 39.839 39.991 40.111 40.214 40.376 40.486 40.659 40.764 40.869 40.999 41.134 41.266 41.409 41.554 41.626 41.801 41.949 42.089 42.206 42.316 42.446 42.554 42.704 42.836 42.914 43.041 43.141 43.246 43.346 43.459 43.584 43.656 43.741 43.859 43.954 44.066 44.161
49.418 49.366 49.408 49.403 49.386 49.398 49.406 49.341 49.353 49.331 49.311 49.308 49.298 49.256 49.251 49.246 49.231 49.226 49.221 49.201 49.188 49.133 49.123 49.101 49.026 48.986 48.946 48.931 48.866 48.846 48.801 48.778 48.711 48.681 48.628 48.568 48.516 48.476 48.406 48.363 48.323 48.246 48.196 48.171 48.096 48.053 48.028 47.986 47.953 47.911 47.868 47.793 47.753 47.718 47.663 47.586 47.536 47.493 47.438 47.406 47.366 47.338 47.303 47.246 47.208 47.138 47.078 47.026 46.906 46.966 46.906 46.868 46.791 46.738 46.688 46.691 46.618 46.573 46.526 46.488 46.446 46.398 46.346 46.233 46.176 46.123 46.061 45.988 45.951 45.906 45.838 45.796 45.763 45.728 45.651 45.593 45.516 45.453 45.358 45.276 45.218 45.141 45.041 44.948 44.831 44.726 44.536 44.498 44.468 44.401 44.363 44.331 44.251 44.301 44.226 44.066 44.023 44.906 44.858 44.421 43.761 43.673 43.598 43.388 43.363 43.293 43.206 43.099 43.001 42.926 42.835 42.755 42.7 42.662 42.588 42.52 42.452 42.391 42.3 42.247 42.165 42.085 42.016 41.938 41.846 41.803 41.701 41.626 41.556 41.468 41.406 41.331 41.231 41.168 41.108 41.013 40.933 40.863 40.808 40.703 40.613 40.541 40.426 40.326 40.256 40.183 40.106 40.043 39.933 39.858 39.783 39.691 39.563 39.493 39.388 39.283 39.166 39.086 38.991 38.926 38.803 38.713 38.641 38.556 38.466 38.361 38.321 38.228 38.118 37.991 37.926 37.813 37.703 37.568 37.481 37.361 37.246 37.121 37.013 36.916 36.768 36.683 36.571 36.451 36.343 36.238 36.141 36.038 35.913 35.891 35.823 35.726 35.633 35.661 35.568 35.741 36.773 39.836 35.738 35.353 34.433 34.213 34.081 35.571 34.343 36.888 39.041 33.563 41.421 47.421 42.658 32.836 32.763 32.561 32.291 32.181 35.538 46.091 48.673 32.206 31.216 32.308 39.858 37.453 42.341 41.656 31.806 29.943 31.398 36.958 33.728 29.766 36.071 36.906 37.351 39.768 41.051 32.733 34.483 27.573 31.771 43.443 36.751 27.046 26.726 29.618 27.948 33.358 42.053 32.503 29.581 26.496 25.148 24.343 23.488 24.063 24.118 24.051 23.943 23.916 23.806 23.753 23.783 23.853 23.953 24.056 24.191 24.318 24.456 24.606 24.751 24.926 25.093 25.251 25.446 25.578 25.756 25.913 26.081 26.263 26.398 26.576 26.791 26.986 27.153 27.351 27.531 27.748 27.968 28.193 28.376 28.543 28.701 28.826 29.091 29.196 29.398 29.536 29.726 29.901 30.036 30.143 30.271 30.398 30.516 30.631 30.779 30.984 31.151 31.259 31.411 31.591 31.796 32.051 32.324 32.561 32.771 32.899 32.969 33.054 33.174 33.316 33.446 33.626 33.796 33.969 34.096 34.254 34.344 34.366 34.404 34.501 34.566 34.649 34.729 34.829 34.946 35.046 35.406 37.656 38.481 37.699 36.241 36.274 36.366 36.411 36.484 36.514 36.554 36.614 36.779 36.894 36.999 37.101 37.216 37.316 37.454 37.574 37.656 37.764 37.884 37.979 38.071 38.204 38.274 38.374 38.496 38.561 38.711 38.796 38.929 38.984 39.109 39.206 39.324 39.444 39.556 39.666 39.769 39.901 40.039 40.146 40.274 40.381 40.544 40.649 40.736 40.906 41.039 41.161 41.281 41.401 41.564 41.674 41.849 41.996 42.154 42.289 42.406 42.531 42.676 42.776 42.911 43.049 43.134 43.279 43.351 43.439 43.569 43.714 43.764 43.871 43.964 44.059 44.136 44.211
49.476 49.468 49.468 49.453 49.438 49.451 49.451 49.441 49.401 49.396 49.383 49.373 49.356 49.326 49.318 49.306 49.286 49.293 49.258 49.236 49.238 49.198 49.168 49.163 49.068 49.063 49.006 48.986 48.931 48.916 48.861 48.808 48.801 48.706 48.671 48.633 48.578 48.546 48.486 48.441 48.398 48.321 48.261 48.233 48.176 48.133 48.098 48.051 48.006 47.976 47.921 47.866 47.808 47.751 47.711 47.641 47.573 47.548 47.503 47.456 47.396 47.371 47.333 47.291 47.241 47.181 47.108 47.043 46.956 46.973 46.941 46.913 46.866 46.766 46.723 46.706 46.658 46.611 46.546 46.521 46.456 46.433 46.386 46.276 46.241 46.191 46.131 46.063 46.003 45.963 45.891 45.843 45.811 45.786 45.703 45.653 45.558 45.483 45.408 45.351 45.256 45.178 45.081 44.978 44.883 44.788 44.623 44.566 44.508 44.441 44.411 44.371 44.323 44.333 44.231 44.101 44.073 45.698 46.166 44.571 43.756 43.723 43.511 43.436 43.416 43.323 43.236 43.106 43.033 42.947 42.834 42.746 42.703 42.639 42.611 42.545 42.471 42.385 42.313 42.258 42.171 42.114 42.028 41.956 41.883 41.821 41.733 41.651 41.603 41.526 41.428 41.363 41.286 41.188 41.126 41.043 40.956 40.876 40.816 40.718 40.641 40.571 40.451 40.351 40.291 40.228 40.106 40.036 39.938 39.873 39.786 39.683 39.583 39.513 39.383 39.296 39.198 39.118 39.008 38.918 38.851 38.771 38.656 38.583 38.516 38.433 38.306 38.196 38.131 38.033 37.946 37.816 37.721 37.638 37.538 37.396 37.286 37.188 37.056 36.948 36.833 36.711 36.566 36.466 36.358 36.261 36.196 36.041 35.966 35.921 35.851 35.763 35.653 35.666 35.561 35.773 38.756 41.146 37.898 36.301 34.501 34.246 34.938 34.996 38.991 33.818 33.598 33.426 34.286 33.168 32.996 32.776 33.443 33.781 37.546 38.196 34.743 34.998 38.126 31.466 31.283 36.696 45.848 43.673 35.541 34.141 33.238 34.643 30.601 31.048 38.421 31.126 30.876 29.253 32.676 33.888 29.741 28.016 28.763 27.623 29.748 34.458 33.213 32.768 30.548 43.468 32.423 27.103 29.203 31.506 26.576 24.646 24.906 24.178 23.506 24.141 24.106 24.051 23.968 23.926 23.826 23.798 23.823 23.878 23.986 24.098 24.228 24.373 24.501 24.631 24.776 24.928 25.111 25.296 25.461 25.643 25.803 25.956 26.138 26.296 26.463 26.638 26.818 27.051 27.263 27.453 27.658 27.853 28.058 28.266 28.456 28.636 28.828 28.961 29.106 29.316 29.503 29.681 29.876 30.108 30.293 30.371 30.458 30.581 30.679 30.809 30.934 31.109 31.274 31.411 31.536 31.589 31.789 32.019 32.296 32.536 32.794 32.976 33.094 33.176 33.294 33.404 33.511 33.691 33.834 33.999 34.181 34.311 34.411 34.469 34.526 34.549 34.646 34.709 34.781 34.886 35.029 35.146 36.076 37.869 38.251 36.914 36.294 36.341 36.404 36.484 36.521 36.599 36.604 36.696 36.904 36.974 37.119 37.159 37.279 37.406 37.551 37.696 37.749 37.866 37.941 38.079 38.174 38.279 38.314 38.434 38.546 38.656 38.766 38.854 38.961 39.069 39.161 39.259 39.379 39.489 39.606 39.709 39.791 39.959 40.079 40.194 40.326 40.454 40.581 40.694 40.814 40.936 41.101 41.241 41.336 41.471 41.584 41.759 41.884 42.001 42.139 42.289 42.411 42.519 42.649 42.786 42.914 43.019 43.156 43.266 43.376 43.486 43.579 43.704 43.839 43.949 44.036 44.116 44.209 44.301
49.516 49.511 49.521 49.506 49.491 49.498 49.503 49.491 49.463 49.448 49.421 49.421 49.403 49.391 49.396 49.368 49.358 49.341 49.301 49.308 49.301 49.268 49.231 49.206 49.178 49.106 49.103 49.036 49.001 48.971 48.926 48.873 48.851 48.801 48.751 48.716 48.646 48.586 48.523 48.503 48.458 48.383 48.326 48.271 48.238 48.188 48.171 48.098 48.043 48.003 47.981 47.923 47.843 47.813 47.746 47.683 47.628 47.613 47.531 47.503 47.426 47.426 47.363 47.321 47.278 47.186 47.153 47.093 46.988 46.988 46.978 46.943 46.888 46.828 46.753 46.731 46.676 46.633 46.563 46.546 46.496 46.453 46.408 46.331 46.288 46.226 46.181 46.126 46.063 46.013 45.963 45.878 45.861 45.816 45.768 45.703 45.643 45.506 45.458 45.388 45.306 45.228 45.146 45.033 44.948 44.806 44.696 44.638 44.563 44.521 44.466 44.381 44.408 44.366 44.236 44.143 44.233 45.688 45.838 44.336 43.748 43.733 43.473 43.486 43.408 43.308 43.248 43.125 43.036 42.925 42.842 42.774 42.737 42.696 42.635 42.574 42.499 42.425 42.333 42.256 42.191 42.103 42.053 41.976 41.893 41.813 41.731 41.656 41.603 41.523 41.451 41.383 41.323 41.221 41.171 41.096 41.001 40.933 40.838 40.778 40.663 40.571 40.508 40.431 40.328 40.246 40.148 40.076 39.998 39.888 39.791 39.678 39.606 39.506 39.413 39.336 39.251 39.148 39.048 38.961 38.863 38.763 38.701 38.616 38.503 38.408 38.338 38.243 38.143 38.021 37.958 37.878 37.741 37.633 37.521 37.423 37.288 37.158 37.076 36.958 36.828 36.733 36.618 36.521 36.378 36.221 36.176 36.051 35.981 35.921 35.866 35.788 35.693 35.691 35.561 35.768 39.811 37.121 38.066 39.058 37.601 34.321 35.666 46.253 46.976 38.201 33.543 33.341 33.348 33.098 33.073 36.171 37.193 41.278 48.971 40.653 33.628 31.728 31.383 31.376 31.266 31.736 39.476 48.396 34.573 38.653 41.726 39.018 33.813 34.853 40.931 33.356 33.751 28.821 29.461 30.146 28.113 27.951 27.803 27.523 27.353 27.153 31.056 29.488 26.626 30.243 26.271 25.701 29.526 27.218 24.816 24.776 25.066 24.083 23.663 24.023 24.098 24.066 23.988 23.936 23.868 23.851 23.871 23.943 24.008 24.108 24.241 24.403 24.536 24.698 24.831 24.963 25.126 25.338 25.516 25.683 25.861 26.003 26.203 26.366 26.511 26.681 26.861 27.091 27.316 27.518 27.733 27.951 28.143 28.348 28.548 28.713 28.898 29.036 29.206 29.383 29.556 29.768 30.008 30.248 30.411 30.553 30.653 30.773 30.874 30.991 31.154 31.289 31.414 31.551 31.701 31.806 31.844 32.036 32.266 32.516 32.779 32.964 33.156 33.289 33.401 33.504 33.621 33.774 33.901 34.061 34.219 34.321 34.429 34.516 34.614 34.661 34.721 34.781 34.861 34.914 35.026 35.179 36.529 37.931 38.114 36.591 36.331 36.394 36.476 36.539 36.616 36.651 36.671 36.834 37.001 37.071 37.174 37.246 37.349 37.479 37.586 37.694 37.779 37.904 38.009 38.139 38.226 38.344 38.396 38.516 38.629 38.746 38.854 38.914 39.056 39.126 39.214 39.336 39.474 39.586 39.691 39.776 39.909 40.029 40.136 40.239 40.374 40.521 40.639 40.761 40.859 40.979 41.126 41.241 41.359 41.509 41.646 41.794 41.929 42.064 42.199 42.361 42.444 42.591 42.691 42.826 42.976 43.081 43.196 43.311 43.391 43.526 43.654 43.754 43.836 43.926 44.034 44.081 44.199 44.299
49.538 49.556 49.578 49.556 49.556 49.578 49.543 49.568 49.546 49.528 49.506 49.493 49.486 49.461 49.423 49.438 49.418 49.418 49.386 49.366 49.368 49.336 49.313 49.273 49.241 49.211 49.153 49.101 49.066 49.023 48.993 48.928 48.896 48.861 48.823 48.791 48.741 48.691 48.616 48.561 48.501 48.436 48.393 48.343 48.291 48.241 48.203 48.168 48.143 48.086 48.013 47.998 47.911 47.863 47.816 47.728 47.678 47.653 47.596 47.538 47.491 47.483 47.393 47.383 47.301 47.248 47.176 47.136 47.038 46.978 47.018 46.958 46.918 46.858 46.786 46.768 46.721 46.673 46.581 46.548 46.506 46.493 46.461 46.388 46.356 46.308 46.226 46.176 46.133 46.071 46.006 45.941 45.893 45.901 45.783 45.731 45.658 45.566 45.496 45.438 45.368 45.306 45.201 45.083 45.011 44.833 44.751 44.751 44.646 44.583 44.543 44.436 44.458 44.366 44.263 44.241 44.741 45.578 44.896 43.888 43.826 43.668 43.543 43.536 43.453 43.338 43.258 43.123 43.041 42.935 42.84 42.809 42.773 42.715 42.639 42.596 42.505 42.432 42.367 42.274 42.2 42.112 42.056 41.986 41.921 41.853 41.793 41.728 41.616 41.546 41.493 41.386 41.313 41.283 41.216 41.126 41.036 40.976 40.878 40.808 40.693 40.621 40.538 40.443 40.371 40.286 40.216 40.111 40.018 39.943 39.841 39.741 39.638 39.546 39.458 39.353 39.246 39.161 39.076 38.998 38.878 38.793 38.736 38.623 38.531 38.423 38.358 38.243 38.148 38.043 37.958 37.841 37.736 37.688 37.548 37.413 37.291 37.198 37.091 36.963 36.861 36.746 36.608 36.521 36.386 36.288 36.211 36.053 36.023 35.958 35.886 35.796 35.731 35.716 35.548 37.308 41.401 43.751 43.538 50.311 46.123 40.368 42.798 46.073 38.808 33.778 33.616 33.351 34.058 33.246 33.091 33.758 36.216 49.781 52.108 44.698 38.493 31.723 31.431 31.441 31.338 31.226 32.391 34.123 35.501 38.653 38.798 37.738 37.186 30.611 31.961 36.086 43.976 40.903 28.846 28.446 28.028 27.981 32.396 37.531 27.378 31.631 34.311 27.086 26.603 26.328 25.983 25.676 25.633 25.793 24.698 24.806 24.648 23.786 23.816 24.068 24.098 24.013 23.996 23.996 23.936 23.918 23.961 23.991 24.051 24.141 24.263 24.426 24.561 24.741 24.873 25.036 25.191 25.361 25.556 25.733 25.908 26.051 26.253 26.446 26.606 26.771 26.931 27.131 27.356 27.568 27.773 27.993 28.216 28.403 28.553 28.786 29.001 29.146 29.313 29.498 29.683 29.861 30.073 30.316 30.491 30.668 30.783 30.908 31.069 31.186 31.311 31.421 31.551 31.674 31.811 31.929 31.996 32.119 32.291 32.501 32.716 32.939 33.171 33.354 33.501 33.614 33.751 33.889 34.034 34.156 34.274 34.379 34.426 34.499 34.626 34.686 34.781 34.894 34.966 35.026 35.129 35.254 36.726 37.819 37.631 36.344 36.374 36.441 36.521 36.624 36.709 36.696 36.771 36.946 37.066 37.121 37.254 37.344 37.439 37.539 37.649 37.764 37.861 37.966 38.081 38.194 38.299 38.416 38.499 38.584 38.676 38.796 38.909 38.976 39.059 39.186 39.296 39.406 39.509 39.624 39.734 39.839 39.971 40.076 40.211 40.336 40.464 40.589 40.701 40.841 40.951 41.061 41.161 41.324 41.451 41.559 41.704 41.839 41.994 42.126 42.264 42.376 42.441 42.594 42.734 42.851 42.956 43.106 43.214 43.336 43.421 43.534 43.684 43.809 43.899 44.009 44.106 44.166 44.294 44.349
49.606 49.626 49.621 49.641 49.618 49.638 49.631 49.623 49.576 49.583 49.568 49.563 49.561 49.523 49.536 49.511 49.491 49.478 49.466 49.448 49.426 49.408 49.383 49.346 49.286 49.251 49.233 49.213 49.158 49.093 49.071 49.011 48.983 48.906 48.863 48.833 48.786 48.721 48.666 48.641 48.583 48.526 48.456 48.396 48.348 48.308 48.268 48.228 48.191 48.146 48.106 48.066 47.993 47.913 47.861 47.793 47.756 47.688 47.668 47.611 47.538 47.521 47.466 47.416 47.373 47.316 47.243 47.146 47.113 47.001 47.066 47.011 46.951 46.891 46.841 46.801 46.748 46.693 46.631 46.583 46.541 46.508 46.481 46.441 46.413 46.336 46.296 46.238 46.176 46.138 46.056 46.003 45.933 45.923 45.836 45.781 45.703 45.613 45.548 45.478 45.413 45.363 45.236 45.143 45.068 44.908 44.841 44.833 44.701 44.658 44.578 44.511 44.526 44.426 44.336 44.296 45.161 45.368 44.546 43.896 43.891 43.656 43.618 43.558 43.473 43.388 43.256 43.134 43.042 42.96 42.866 42.832 42.79 42.742 42.663 42.608 42.53 42.454 42.406 42.312 42.233 42.149 42.068 42.006 41.946 41.853 41.798 41.718 41.658 41.581 41.506 41.446 41.383 41.316 41.223 41.141 41.066 40.986 40.903 40.833 40.738 40.656 40.553 40.468 40.386 40.306 40.208 40.151 40.071 39.948 39.866 39.771 39.671 39.576 39.466 39.356 39.298 39.176 39.088 38.993 38.928 38.811 38.731 38.648 38.581 38.483 38.361 38.276 38.191 38.081 37.941 37.883 37.773 37.663 37.541 37.413 37.351 37.226 37.126 36.988 36.881 36.746 36.603 36.511 36.398 36.291 36.228 36.091 36.053 35.948 35.911 35.838 35.813 35.713 35.581 41.913 42.436 49.196 52.303 51.843 40.168 35.793 39.481 42.528 33.873 33.753 33.633 33.373 34.068 33.658 33.391 33.408 33.173 41.046 36.686 35.186 32.943 31.976 31.531 33.356 34.518 34.066 31.973 30.781 31.221 30.816 32.916 30.778 29.833 29.678 30.023 44.826 45.218 40.158 28.711 28.518 28.163 28.356 37.638 45.328 28.373 35.853 35.361 29.008 27.243 31.096 28.333 25.763 31.518 26.728 24.706 24.861 24.566 23.548 23.908 24.108 24.058 24.003 23.958 24.026 24.026 24.013 24.023 24.041 24.103 24.206 24.298 24.458 24.601 24.773 24.938 25.081 25.248 25.408 25.578 25.773 25.941 26.096 26.298 26.506 26.691 26.853 27.008 27.191 27.411 27.603 27.821 28.038 28.253 28.441 28.636 28.841 29.036 29.238 29.396 29.578 29.773 29.951 30.128 30.311 30.506 30.671 30.833 30.956 31.134 31.316 31.449 31.569 31.624 31.739 31.884 31.994 32.119 32.204 32.361 32.496 32.699 32.944 33.154 33.356 33.554 33.696 33.834 33.961 34.114 34.244 34.369 34.446 34.491 34.546 34.651 34.704 34.819 34.926 35.009 35.086 35.154 35.451 36.936 37.721 36.959 36.361 36.416 36.471 36.574 36.626 36.689 36.709 36.806 36.999 37.131 37.176 37.296 37.401 37.481 37.556 37.676 37.839 37.904 38.054 38.139 38.244 38.346 38.476 38.536 38.644 38.761 38.861 38.954 39.051 39.104 39.246 39.356 39.421 39.569 39.686 39.784 39.891 40.009 40.144 40.264 40.374 40.496 40.641 40.761 40.894 40.991 41.131 41.251 41.381 41.514 41.649 41.776 41.904 42.051 42.171 42.304 42.419 42.519 42.659 42.786 42.904 43.041 43.136 43.274 43.384 43.484 43.589 43.714 43.844 43.921 44.049 44.146 44.231 44.286 44.374
49.686 49.666 49.701 49.698 49.688 49.711 49.696 49.678 49.651 49.656 49.618 49.636 49.618 49.621 49.576 49.581 49.553 49.563 49.551 49.521 49.493 49.461 49.423 49.388 49.351 49.316 49.286 49.248 49.208 49.171 49.101 49.071 49.058 48.998 48.946 48.881 48.851 48.776 48.733 48.663 48.633 48.561 48.513 48.478 48.426 48.371 48.321 48.283 48.258 48.188 48.166 48.111 48.038 47.993 47.931 47.848 47.806 47.771 47.711 47.648 47.566 47.568 47.503 47.428 47.393 47.333 47.268 47.198 47.171 47.026 47.101 47.061 46.993 46.941 46.888 46.821 46.756 46.733 46.666 46.601 46.566 46.541 46.516 46.501 46.453 46.401 46.361 46.293 46.223 46.191 46.118 46.073 45.996 45.978 45.891 45.821 45.738 45.666 45.596 45.503 45.441 45.421 45.361 45.233 45.078 44.966 44.918 44.866 44.791 44.706 44.596 44.608 44.586 44.456 44.413 45.568 46.878 46.348 44.631 43.958 43.913 43.671 43.676 43.588 43.481 43.393 43.271 43.156 43.091 42.976 42.884 42.892 42.819 42.765 42.706 42.609 42.564 42.489 42.419 42.341 42.247 42.179 42.13 42.068 41.981 41.893 41.838 41.743 41.711 41.616 41.553 41.488 41.398 41.326 41.271 41.188 41.116 41.031 40.948 40.871 40.756 40.686 40.586 40.503 40.408 40.321 40.218 40.163 40.043 39.956 39.886 39.781 39.688 39.593 39.496 39.426 39.301 39.216 39.126 39.011 38.926 38.851 38.756 38.668 38.571 38.478 38.366 38.281 38.168 38.083 37.988 37.886 37.761 37.681 37.578 37.481 37.328 37.208 37.086 36.983 36.873 36.748 36.656 36.543 36.383 36.313 36.216 36.096 36.036 35.958 35.911 35.781 35.818 35.716 35.561 42.316 48.158 49.813 54.136 41.723 40.128 35.341 39.483 34.986 33.998 34.421 33.626 33.453 33.871 33.988 33.093 32.886 32.748 32.481 36.301 44.506 32.926 31.693 31.603 32.986 39.758 36.328 31.073 31.386 30.711 34.136 44.226 38.958 32.176 29.738 35.291 47.011 49.243 38.931 28.736 31.333 28.296 32.526 43.963 31.593 27.513 29.171 29.208 27.888 31.171 38.963 30.768 30.528 38.838 34.673 24.771 26.048 25.776 23.653 24.056 24.106 24.073 23.971 23.953 24.001 24.028 24.046 24.088 24.138 24.148 24.228 24.338 24.448 24.623 24.791 24.978 25.141 25.316 25.501 25.666 25.808 25.973 26.146 26.323 26.501 26.708 26.898 27.081 27.288 27.501 27.696 27.876 28.096 28.298 28.458 28.663 28.863 29.061 29.268 29.438 29.633 29.848 30.046 30.213 30.381 30.531 30.676 30.846 30.976 31.159 31.366 31.551 31.724 31.844 31.931 32.001 32.101 32.189 32.289 32.401 32.554 32.739 32.961 33.156 33.344 33.551 33.751 33.891 34.001 34.154 34.319 34.436 34.486 34.584 34.649 34.696 34.766 34.881 34.979 35.059 35.116 35.196 35.606 37.446 38.061 36.569 36.411 36.471 36.519 36.621 36.661 36.711 36.736 36.869 37.036 37.161 37.296 37.399 37.491 37.629 37.711 37.791 37.869 37.986 38.111 38.191 38.306 38.384 38.469 38.569 38.664 38.801 38.859 39.009 39.076 39.169 39.289 39.396 39.471 39.624 39.716 39.864 39.951 40.064 40.179 40.299 40.439 40.539 40.679 40.804 40.906 41.014 41.184 41.276 41.424 41.571 41.659 41.826 41.954 42.094 42.219 42.326 42.459 42.609 42.739 42.851 42.979 43.084 43.219 43.306 43.411 43.561 43.699 43.799 43.859 43.939 44.054 44.139 44.254 44.321 44.411
49.733 49.723 49.766 49.768 49.756 49.751 49.781 49.758 49.721 49.711 49.686 49.688 49.683 49.668 49.666 49.648 49.638 49.626 49.626 49.583 49.566 49.541 49.508 49.448 49.441 49.386 49.338 49.288 49.258 49.203 49.201 49.161 49.081 49.051 49.006 48.963 48.916 48.848 48.808 48.748 48.703 48.641 48.583 48.546 48.493 48.443 48.401 48.361 48.303 48.236 48.216 48.153 48.098 48.033 48.001 47.916 47.873 47.818 47.778 47.718 47.651 47.621 47.543 47.521 47.451 47.356 47.316 47.241 47.196 47.056 47.133 47.101 47.046 46.971 46.923 46.871 46.813 46.753 46.726 46.668 46.606 46.606 46.591 46.563 46.493 46.466 46.411 46.338 46.273 46.226 46.171 46.113 46.041 46.043 45.926 45.853 45.781 45.716 45.651 45.568 45.511 45.456 45.391 45.283 45.131 45.023 45.001 44.898 44.876 44.781 44.653 44.723 44.628 44.493 44.456 44.976 45.938 45.708 44.748 43.993 43.883 43.731 43.696 43.616 43.521 43.381 43.273 43.168 43.062 42.982 42.941 42.889 42.824 42.773 42.721 42.649 42.579 42.503 42.423 42.344 42.277 42.208 42.144 42.066 41.991 41.918 41.826 41.786 41.713 41.618 41.531 41.476 41.393 41.361 41.281 41.183 41.133 41.063 40.976 40.898 40.796 40.711 40.616 40.523 40.431 40.351 40.271 40.181 40.103 39.993 39.911 39.813 39.746 39.626 39.528 39.461 39.368 39.261 39.156 39.046 38.971 38.863 38.783 38.668 38.566 38.501 38.416 38.291 38.218 38.108 38.006 37.886 37.778 37.688 37.563 37.461 37.348 37.261 37.103 36.993 36.883 36.773 36.678 36.551 36.413 36.328 36.216 36.108 36.086 35.988 35.903 35.803 35.831 35.703 37.118 39.846 46.933 43.028 42.236 43.598 35.013 34.391 34.116 34.016 33.996 33.731 33.631 33.411 34.336 35.333 33.463 32.888 32.786 32.523 32.956 37.808 33.168 31.661 31.618 31.583 34.366 32.938 31.371 39.676 41.988 40.501 47.641 45.551 38.341 30.326 38.956 46.476 48.771 45.886 43.048 34.931 35.133 47.646 41.388 29.101 31.146 35.778 32.548 26.973 29.941 34.176 39.211 30.931 28.381 26.313 29.088 24.841 25.526 24.401 24.158 24.166 24.108 24.016 23.981 24.006 24.038 24.056 24.066 24.133 24.211 24.306 24.383 24.486 24.646 24.811 25.006 25.178 25.356 25.523 25.691 25.838 26.016 26.183 26.356 26.563 26.751 26.916 27.113 27.328 27.556 27.746 27.953 28.163 28.316 28.511 28.716 28.898 29.101 29.278 29.463 29.691 29.886 30.066 30.226 30.403 30.578 30.748 30.896 31.018 31.179 31.366 31.616 31.829 31.996 32.111 32.206 32.246 32.291 32.394 32.514 32.609 32.769 32.941 33.126 33.329 33.546 33.766 33.916 34.054 34.201 34.326 34.441 34.541 34.619 34.694 34.756 34.834 34.941 35.051 35.114 35.174 35.294 36.194 37.971 37.711 36.399 36.451 36.534 36.621 36.699 36.726 36.751 36.804 36.979 37.166 37.266 37.366 37.464 37.581 37.726 37.794 37.859 37.959 38.041 38.136 38.264 38.366 38.449 38.544 38.684 38.726 38.851 38.934 39.051 39.141 39.219 39.339 39.449 39.516 39.656 39.769 39.906 40.034 40.161 40.264 40.369 40.491 40.584 40.741 40.869 40.959 41.084 41.229 41.321 41.456 41.586 41.709 41.881 41.974 42.101 42.221 42.366 42.484 42.616 42.761 42.879 43.066 43.159 43.254 43.384 43.481 43.616 43.724 43.809 43.904 44.006 44.099 44.146 44.264 44.339 44.449
49.796 49.796 49.831 49.833 49.833 49.846 49.836 49.798 49.781 49.793 49.773 49.756 49.753 49.716 49.716 49.711 49.688 49.678 49.676 49.661 49.628 49.591 49.563 49.528 49.488 49.471 49.406 49.358 49.321 49.278 49.248 49.206 49.151 49.106 49.068 49.008 48.966 48.926 48.863 48.826 48.763 48.713 48.643 48.606 48.546 48.471 48.463 48.413 48.356 48.306 48.296 48.223 48.163 48.106 48.058 47.981 47.933 47.878 47.821 47.741 47.693 47.666 47.613 47.561 47.503 47.443 47.341 47.286 47.231 47.086 47.161 47.116 47.066 47.013 46.956 46.931 46.883 46.823 46.766 46.753 46.701 46.681 46.656 46.628 46.561 46.531 46.473 46.411 46.326 46.276 46.198 46.156 46.121 46.071 45.993 45.896 45.808 45.738 45.681 45.596 45.563 45.521 45.433 45.288 45.171 45.103 45.073 44.983 44.916 44.846 44.768 44.758 44.656 44.508 44.526 46.271 46.088 44.661 44.388 44.046 43.828 43.803 43.743 43.658 43.541 43.386 43.296 43.191 43.088 42.978 42.976 42.913 42.845 42.801 42.731 42.664 42.579 42.52 42.434 42.345 42.28 42.2 42.146 42.083 42.018 41.933 41.863 41.801 41.726 41.636 41.586 41.496 41.431 41.361 41.278 41.221 41.161 41.068 41.003 40.921 40.856 40.728 40.651 40.558 40.491 40.388 40.296 40.236 40.128 40.008 39.933 39.831 39.723 39.631 39.543 39.456 39.361 39.271 39.143 39.086 38.981 38.891 38.783 38.718 38.603 38.498 38.403 38.311 38.186 38.088 37.996 37.908 37.776 37.681 37.566 37.476 37.346 37.246 37.128 37.016 36.881 36.751 36.641 36.528 36.413 36.338 36.203 36.123 36.061 35.968 35.946 35.828 35.821 35.713 36.286 36.991 44.038 46.626 47.503 34.956 34.468 34.263 35.281 42.836 34.928 36.176 34.123 33.666 34.261 35.366 33.218 32.956 32.776 32.671 32.353 32.176 32.013 31.773 31.696 31.673 31.443 31.401 31.173 37.646 48.406 48.973 43.721 39.566 31.886 31.003 30.968 41.041 46.156 47.823 34.571 29.281 37.551 47.046 40.223 27.841 27.601 31.311 28.476 27.008 27.286 28.946 34.043 33.318 27.096 24.936 25.196 25.946 28.758 27.956 25.661 24.286 24.183 24.078 24.033 24.021 24.043 24.051 24.106 24.128 24.211 24.301 24.461 24.541 24.653 24.781 24.973 25.161 25.368 25.536 25.703 25.853 26.041 26.236 26.411 26.596 26.801 26.958 27.151 27.358 27.561 27.751 27.961 28.183 28.373 28.553 28.751 28.921 29.093 29.311 29.491 29.673 29.891 30.048 30.226 30.411 30.588 30.761 30.921 31.078 31.241 31.411 31.639 31.864 32.066 32.234 32.356 32.414 32.471 32.569 32.646 32.754 32.841 32.934 33.099 33.301 33.571 33.774 33.956 34.096 34.221 34.359 34.479 34.546 34.656 34.741 34.826 34.904 35.026 35.126 35.194 35.274 35.394 36.616 38.001 37.256 36.424 36.499 36.579 36.679 36.749 36.799 36.816 36.904 37.086 37.224 37.329 37.461 37.544 37.661 37.776 37.869 37.976 38.071 38.166 38.269 38.394 38.489 38.596 38.661 38.769 38.874 38.984 39.039 39.141 39.236 39.331 39.426 39.491 39.606 39.766 39.849 39.941 40.086 40.199 40.321 40.469 40.541 40.694 40.801 40.884 41.024 41.136 41.264 41.424 41.496 41.639 41.761 41.879 42.031 42.154 42.281 42.409 42.526 42.649 42.789 42.924 43.086 43.199 43.294 43.434 43.526 43.651 43.724 43.861 43.944 44.054 44.114 44.234 44.294 44.376 44.449
49.838 49.866 49.853 49.866 49.876 49.883 49.883 49.878 49.856 49.833 49.826 49.831 49.788 49.793 49.786 49.763 49.746 49.731 49.713 49.698 49.703 49.676 49.618 49.591 49.531 49.498 49.498 49.441 49.388 49.326 49.328 49.268 49.201 49.168 49.106 49.066 49.026 48.978 48.928 48.851 48.828 48.756 48.708 48.678 48.593 48.553 48.508 48.476 48.431 48.371 48.321 48.296 48.241 48.153 48.103 48.068 47.976 47.918 47.876 47.803 47.748 47.698 47.658 47.576 47.533 47.486 47.416 47.318 47.293 47.148 47.188 47.191 47.133 47.046 46.976 46.953 46.921 46.848 46.816 46.773 46.746 46.743 46.728 46.716 46.606 46.573 46.526 46.473 46.383 46.331 46.273 46.201 46.138 46.121 46.026 45.943 45.861 45.803 45.698 45.648 45.576 45.551 45.471 45.283 45.216 45.168 45.121 45.026 44.938 44.851 44.866 44.801 44.673 44.611 44.723 46.883 46.493 44.411 44.108 44.083 43.853 43.856 43.763 43.658 43.551 43.433 43.331 43.193 43.101 43.008 43.021 42.953 42.889 42.819 42.746 42.674 42.616 42.541 42.456 42.386 42.311 42.237 42.167 42.116 42.041 41.956 41.871 41.816 41.731 41.653 41.606 41.543 41.448 41.401 41.321 41.226 41.166 41.071 41.011 40.901 40.843 40.718 40.676 40.583 40.493 40.393 40.323 40.228 40.108 40.051 39.946 39.856 39.753 39.653 39.571 39.453 39.343 39.271 39.158 39.058 38.996 38.901 38.788 38.693 38.586 38.516 38.383 38.296 38.208 38.103 37.988 37.913 37.786 37.683 37.563 37.446 37.356 37.246 37.121 37.016 36.891 36.761 36.658 36.536 36.421 36.363 36.206 36.148 36.086 36.013 35.936 35.833 35.838 35.713 35.881 38.408 42.273 45.998 39.583 34.781 34.518 34.233 38.943 39.803 33.903 34.748 33.551 33.653 33.566 34.281 33.241 32.981 33.183 33.056 32.468 32.236 32.413 31.808 31.848 32.533 31.416 31.413 31.153 31.783 35.358 40.341 47.301 41.986 37.733 43.923 43.993 37.141 42.806 35.136 29.276 28.956 35.243 41.213 35.016 27.806 28.813 31.173 27.408 29.091 30.326 32.331 34.796 30.501 30.223 25.178 25.253 25.166 26.321 33.136 28.896 24.361 24.208 24.098 24.068 24.056 24.043 24.073 24.113 24.158 24.218 24.321 24.428 24.583 24.721 24.853 24.966 25.133 25.311 25.498 25.658 25.858 26.043 26.218 26.446 26.648 26.826 27.016 27.188 27.403 27.583 27.776 27.958 28.176 28.373 28.576 28.781 28.948 29.133 29.333 29.521 29.683 29.838 30.023 30.211 30.378 30.566 30.738 30.906 31.101 31.319 31.489 31.709 31.929 32.116 32.304 32.449 32.546 32.669 32.776 32.844 32.909 32.991 33.006 33.124 33.301 33.539 33.744 33.964 34.159 34.306 34.426 34.541 34.626 34.711 34.796 34.876 34.969 35.099 35.211 35.256 35.391 35.519 37.486 38.246 36.834 36.489 36.559 36.659 36.731 36.781 36.861 36.921 37.036 37.159 37.314 37.419 37.519 37.609 37.704 37.791 37.911 38.014 38.086 38.199 38.324 38.426 38.529 38.634 38.726 38.821 38.924 39.041 39.114 39.186 39.326 39.421 39.506 39.624 39.769 39.879 39.941 40.061 40.201 40.289 40.439 40.536 40.651 40.766 40.871 40.996 41.116 41.216 41.334 41.491 41.564 41.726 41.866 41.991 42.124 42.189 42.351 42.471 42.599 42.739 42.851 42.986 43.094 43.254 43.326 43.491 43.581 43.696 43.796 43.891 44.009 44.061 44.161 44.234 44.321 44.416 44.489
49.946 49.941 49.963 49.966 49.963 49.971 49.938 49.926 49.891 49.891 49.916 49.876 49.841 49.843 49.836 49.811 49.818 49.808 49.783 49.788 49.758 49.746 49.673 49.676 49.606 49.576 49.531 49.511 49.441 49.393 49.383 49.318 49.288 49.228 49.168 49.141 49.093 49.036 48.983 48.913 48.891 48.831 48.771 48.743 48.681 48.626 48.573 48.548 48.473 48.431 48.391 48.338 48.271 48.211 48.178 48.111 48.026 47.976 47.926 47.866 47.796 47.773 47.708 47.636 47.558 47.516 47.436 47.391 47.331 47.208 47.201 47.213 47.181 47.101 47.036 46.976 46.958 46.891 46.853 46.803 46.773 46.766 46.746 46.748 46.671 46.636 46.581 46.513 46.423 46.388 46.311 46.213 46.156 46.123 46.036 45.948 45.881 45.823 45.743 45.698 45.621 45.546 45.463 45.311 45.261 45.248 45.151 45.048 44.983 44.851 44.916 44.831 44.703 44.673 45.128 46.548 45.516 44.388 44.243 44.166 43.938 43.908 43.826 43.706 43.568 43.428 43.346 43.201 43.108 43.054 43.04 42.985 42.924 42.848 42.777 42.717 42.635 42.571 42.481 42.41 42.327 42.253 42.202 42.121 42.068 41.956 41.898 41.828 41.776 41.723 41.621 41.551 41.471 41.393 41.331 41.256 41.171 41.088 41.021 40.928 40.838 40.778 40.663 40.578 40.478 40.386 40.306 40.206 40.121 40.028 39.931 39.851 39.776 39.668 39.558 39.453 39.408 39.301 39.183 39.108 39.003 38.926 38.813 38.718 38.648 38.553 38.421 38.338 38.248 38.131 38.031 37.926 37.811 37.736 37.593 37.483 37.383 37.281 37.138 37.011 36.933 36.808 36.663 36.558 36.481 36.363 36.178 36.136 36.076 36.038 35.923 35.838 35.841 35.676 37.328 45.191 45.498 51.611 47.911 44.823 40.568 34.338 35.128 38.413 36.271 33.723 33.656 33.861 33.661 40.451 33.128 35.853 42.721 51.273 41.646 32.736 32.078 31.861 31.976 32.471 31.491 31.296 38.908 49.371 36.861 33.001 44.518 51.321 48.996 48.918 49.256 46.211 31.583 29.211 28.983 29.171 37.866 44.303 30.923 35.138 41.588 34.071 32.563 27.193 26.598 26.478 28.266 29.691 32.078 26.883 26.971 24.933 23.681 25.316 25.163 24.483 24.281 24.156 24.133 24.096 24.068 24.076 24.078 24.151 24.241 24.326 24.461 24.618 24.763 24.906 25.066 25.183 25.281 25.426 25.628 25.816 26.001 26.228 26.436 26.668 26.863 27.056 27.223 27.408 27.593 27.798 27.986 28.158 28.353 28.556 28.758 28.946 29.128 29.341 29.526 29.673 29.828 30.023 30.186 30.358 30.548 30.731 30.896 31.118 31.304 31.519 31.709 31.924 32.164 32.339 32.491 32.661 32.811 32.946 33.071 33.106 33.136 33.174 33.216 33.364 33.529 33.719 33.921 34.164 34.404 34.564 34.621 34.689 34.791 34.869 34.974 35.071 35.186 35.286 35.389 35.504 35.891 37.616 37.481 36.534 36.569 36.629 36.719 36.784 36.831 36.914 37.004 37.151 37.301 37.366 37.476 37.571 37.684 37.764 37.879 37.981 38.059 38.164 38.261 38.379 38.471 38.579 38.686 38.796 38.879 38.984 39.069 39.159 39.251 39.354 39.474 39.564 39.704 39.821 39.926 40.046 40.146 40.271 40.401 40.516 40.599 40.711 40.831 40.949 41.111 41.219 41.351 41.461 41.581 41.711 41.854 41.986 42.086 42.251 42.354 42.466 42.596 42.734 42.814 42.944 43.064 43.214 43.351 43.436 43.566 43.646 43.766 43.914 43.966 44.136 44.181 44.284 44.316 44.431 44.479 44.576
49.951 49.983 50.013 49.991 50.021 50.046 49.993 49.966 50.008 49.968 49.946 49.913 49.946 49.903 49.906 49.888 49.858 49.873 49.843 49.821 49.798 49.786 49.736 49.713 49.663 49.638 49.611 49.568 49.521 49.463 49.446 49.391 49.328 49.293 49.251 49.193 49.151 49.101 49.046 48.981 48.943 48.888 48.841 48.786 48.741 48.681 48.656 48.621 48.553 48.491 48.441 48.413 48.371 48.308 48.233 48.176 48.111 48.033 47.976 47.936 47.868 47.816 47.756 47.691 47.636 47.531 47.486 47.406 47.341 47.253 47.206 47.246 47.211 47.118 47.088 47.013 46.996 46.923 46.871 46.823 46.798 46.801 46.773 46.761 46.718 46.683 46.613 46.556 46.483 46.421 46.353 46.288 46.203 46.163 46.096 46.001 45.913 45.848 45.751 45.693 45.613 45.581 45.503 45.373 45.321 45.283 45.173 45.086 45.011 44.951 44.966 44.866 44.761 44.716 45.526 46.451 44.883 44.321 44.388 44.096 44.001 43.933 43.816 43.721 43.566 43.466 43.348 43.223 43.096 43.097 43.063 42.997 42.929 42.854 42.792 42.724 42.67 42.566 42.503 42.412 42.352 42.259 42.217 42.122 42.088 41.988 41.918 41.848 41.781 41.673 41.621 41.543 41.478 41.398 41.316 41.271 41.176 41.113 41.018 40.943 40.858 40.761 40.683 40.603 40.503 40.428 40.341 40.271 40.161 40.056 39.983 39.901 39.806 39.681 39.606 39.498 39.403 39.323 39.241 39.133 39.051 38.941 38.886 38.773 38.653 38.573 38.448 38.358 38.221 38.151 38.081 37.951 37.823 37.713 37.623 37.526 37.386 37.293 37.188 37.023 36.881 36.796 36.678 36.558 36.408 36.343 36.236 36.181 36.083 36.051 35.963 35.868 35.838 35.663 37.251 41.943 44.563 54.766 48.203 43.861 47.826 43.741 34.418 34.388 33.923 33.701 33.778 37.578 36.586 33.471 33.228 40.616 45.881 50.703 46.428 47.173 35.838 33.058 41.308 42.896 31.548 31.461 35.598 36.536 34.151 31.063 38.498 44.823 43.481 49.396 51.586 44.528 30.753 29.276 29.008 28.821 29.386 31.728 28.026 37.241 47.721 48.851 37.583 28.313 26.581 26.333 30.308 32.118 30.943 27.563 27.621 25.418 23.726 24.406 24.618 24.553 24.358 24.223 24.191 24.133 24.093 24.093 24.156 24.248 24.346 24.476 24.613 24.776 24.913 25.033 25.138 25.278 25.408 25.558 25.673 25.811 26.003 26.226 26.426 26.651 26.866 27.081 27.253 27.431 27.646 27.833 28.031 28.218 28.378 28.581 28.738 28.908 29.108 29.323 29.511 29.673 29.833 29.971 30.153 30.336 30.533 30.721 30.901 31.066 31.301 31.524 31.759 31.971 32.204 32.396 32.561 32.759 32.914 33.069 33.214 33.286 33.296 33.311 33.306 33.391 33.529 33.689 33.886 34.139 34.406 34.621 34.736 34.794 34.864 34.989 35.069 35.149 35.259 35.359 35.476 35.556 36.356 38.406 37.811 36.524 36.629 36.671 36.774 36.849 36.881 36.956 37.066 37.226 37.369 37.444 37.529 37.621 37.706 37.806 37.906 38.059 38.134 38.274 38.374 38.441 38.551 38.649 38.734 38.836 38.941 39.024 39.121 39.221 39.321 39.409 39.539 39.641 39.771 39.879 39.996 40.109 40.221 40.334 40.471 40.561 40.674 40.764 40.884 41.016 41.169 41.234 41.409 41.509 41.629 41.756 41.874 42.034 42.144 42.234 42.376 42.514 42.674 42.784 42.874 43.021 43.174 43.291 43.411 43.524 43.656 43.761 43.846 43.969 44.071 44.144 44.239 44.346 44.399 44.504 44.564 44.646
50.073 50.118 50.111 50.123 50.093 50.083 50.073 50.026 50.051 50.021 50.013 49.973 49.981 49.971 49.971 49.928 49.928 49.911 49.893 49.873 49.863 49.828 49.778 49.776 49.736 49.716 49.661 49.623 49.596 49.551 49.486 49.438 49.381 49.358 49.293 49.248 49.196 49.151 49.093 49.043 49.016 48.966 48.901 48.878 48.811 48.756 48.708 48.661 48.636 48.558 48.496 48.481 48.396 48.343 48.296 48.236 48.163 48.108 48.041 47.991 47.906 47.863 47.821 47.716 47.668 47.593 47.516 47.451 47.401 47.293 47.246 47.256 47.236 47.186 47.126 47.088 47.016 46.951 46.886 46.861 46.838 46.818 46.776 46.791 46.768 46.723 46.673 46.613 46.516 46.458 46.396 46.291 46.208 46.196 46.106 46.021 45.956 45.883 45.786 45.738 45.668 45.561 45.481 45.403 45.358 45.256 45.186 45.096 45.003 45.058 44.988 44.881 44.801 44.816 46.186 46.211 45.018 44.356 44.391 44.041 44.036 43.968 43.836 43.738 43.588 43.473 43.353 43.258 43.178 43.138 43.082 43.011 42.964 42.892 42.814 42.74 42.674 42.588 42.522 42.431 42.365 42.288 42.204 42.136 42.093 42.008 41.938 41.853 41.778 41.701 41.638 41.573 41.483 41.433 41.373 41.296 41.181 41.131 41.061 40.991 40.881 40.783 40.701 40.621 40.538 40.458 40.363 40.273 40.193 40.121 40.026 39.916 39.808 39.728 39.636 39.528 39.418 39.326 39.231 39.116 39.056 38.943 38.853 38.753 38.666 38.571 38.476 38.361 38.258 38.148 38.078 37.948 37.861 37.763 37.643 37.523 37.421 37.316 37.173 37.018 36.921 36.793 36.666 36.591 36.458 36.401 36.251 36.186 36.103 36.063 35.931 35.928 35.841 35.683 37.031 42.181 49.066 45.398 49.168 50.461 48.338 38.456 34.293 34.273 35.441 33.998 33.818 33.728 33.591 33.431 33.303 33.166 34.333 39.958 50.751 46.613 33.223 32.201 38.783 33.918 35.041 34.583 31.236 31.043 30.966 30.823 30.941 33.283 40.768 49.281 49.658 47.763 31.486 29.273 29.031 28.691 28.396 28.313 27.998 32.323 43.601 43.623 36.871 38.203 26.621 26.463 27.408 30.698 28.836 26.601 25.493 24.171 23.846 24.603 24.681 24.608 24.411 24.258 24.198 24.161 24.083 24.151 24.236 24.368 24.486 24.636 24.788 24.936 25.068 25.171 25.271 25.386 25.531 25.691 25.848 25.963 26.046 26.241 26.423 26.631 26.871 27.086 27.261 27.446 27.671 27.881 28.048 28.233 28.398 28.593 28.746 28.926 29.081 29.306 29.476 29.613 29.783 29.966 30.128 30.298 30.496 30.688 30.858 31.086 31.281 31.534 31.729 31.966 32.206 32.461 32.636 32.821 32.981 33.144 33.259 33.384 33.441 33.436 33.414 33.441 33.524 33.659 33.851 34.134 34.429 34.649 34.801 34.891 34.964 35.071 35.156 35.251 35.371 35.459 35.551 35.611 36.971 38.609 37.256 36.581 36.679 36.719 36.841 36.879 36.921 36.954 37.064 37.236 37.381 37.504 37.556 37.676 37.789 37.874 37.961 38.099 38.206 38.279 38.389 38.476 38.589 38.704 38.806 38.919 38.999 39.104 39.201 39.309 39.396 39.489 39.596 39.709 39.821 39.936 40.059 40.151 40.276 40.411 40.531 40.629 40.759 40.851 40.959 41.079 41.256 41.349 41.501 41.571 41.709 41.831 41.969 42.081 42.209 42.306 42.451 42.581 42.701 42.834 42.951 43.074 43.206 43.316 43.446 43.559 43.704 43.819 43.909 43.996 44.104 44.216 44.289 44.359 44.464 44.539 44.619 44.664
50.161 50.191 50.191 50.206 50.243 50.166 50.111 50.098 50.096 50.066 50.063 50.048 50.028 50.033 49.998 49.983 49.991 49.971 49.926 49.941 49.916 49.906 49.843 49.833 49.783 49.741 49.706 49.683 49.648 49.598 49.568 49.511 49.456 49.446 49.353 49.296 49.263 49.216 49.176 49.111 49.073 49.023 48.948 48.926 48.881 48.818 48.781 48.696 48.678 48.638 48.573 48.533 48.493 48.403 48.366 48.286 48.218 48.161 48.113 48.038 47.986 47.888 47.841 47.771 47.713 47.638 47.546 47.493 47.446 47.383 47.256 47.321 47.278 47.236 47.148 47.106 47.056 46.981 46.933 46.906 46.863 46.833 46.848 46.821 46.826 46.748 46.711 46.648 46.571 46.473 46.418 46.316 46.233 46.213 46.143 46.051 45.966 45.896 45.803 45.731 45.663 45.578 45.493 45.438 45.371 45.291 45.226 45.141 45.038 45.096 45.016 44.891 44.841 45.211 46.576 46.636 45.393 44.483 44.393 44.108 44.096 44.003 43.878 43.763 43.638 43.511 43.398 43.293 43.198 43.209 43.155 43.061 43.003 42.93 42.848 42.77 42.697 42.621 42.557 42.452 42.382 42.308 42.229 42.193 42.108 42.033 41.971 41.908 41.823 41.753 41.671 41.608 41.528 41.458 41.391 41.308 41.248 41.156 41.086 40.983 40.881 40.793 40.731 40.621 40.551 40.488 40.373 40.281 40.193 40.098 39.998 39.913 39.813 39.733 39.636 39.571 39.473 39.361 39.273 39.176 39.066 38.958 38.871 38.796 38.676 38.578 38.483 38.386 38.268 38.171 38.086 37.971 37.873 37.726 37.626 37.553 37.408 37.291 37.188 37.091 36.961 36.831 36.718 36.628 36.483 36.373 36.248 36.191 36.101 36.033 35.963 35.928 35.831 35.648 36.748 46.576 44.591 49.023 49.886 37.193 36.786 34.511 41.803 34.458 34.521 34.303 33.836 33.753 33.616 33.546 33.348 33.266 32.956 32.713 36.106 35.686 32.026 32.683 32.078 33.206 42.393 47.308 44.938 47.948 32.716 30.766 30.703 30.446 39.561 50.301 46.028 46.181 45.803 32.426 29.046 28.743 28.391 28.066 27.908 28.191 29.003 28.231 27.891 30.488 26.593 26.566 27.438 27.791 29.906 28.603 25.548 23.996 24.126 27.191 24.736 24.618 24.423 24.258 24.171 24.141 24.141 24.211 24.356 24.486 24.608 24.756 24.923 25.058 25.173 25.296 25.386 25.526 25.683 25.831 25.951 26.076 26.216 26.333 26.466 26.631 26.856 27.041 27.228 27.461 27.683 27.883 28.098 28.276 28.423 28.593 28.768 28.926 29.111 29.286 29.418 29.583 29.778 29.941 30.131 30.288 30.473 30.673 30.891 31.068 31.261 31.504 31.734 31.936 32.181 32.429 32.659 32.869 33.051 33.199 33.326 33.414 33.494 33.546 33.546 33.549 33.564 33.641 33.854 34.126 34.406 34.636 34.844 34.991 35.054 35.131 35.224 35.331 35.436 35.546 35.606 35.731 37.351 38.561 36.806 36.624 36.716 36.779 36.861 36.924 36.994 36.974 37.096 37.269 37.411 37.544 37.606 37.706 37.806 37.954 38.054 38.179 38.249 38.369 38.434 38.541 38.636 38.721 38.839 38.936 39.019 39.124 39.214 39.331 39.454 39.576 39.661 39.781 39.904 40.014 40.119 40.204 40.349 40.506 40.594 40.674 40.829 40.944 41.039 41.191 41.309 41.424 41.544 41.669 41.784 41.906 42.034 42.146 42.246 42.379 42.519 42.661 42.766 42.869 42.994 43.124 43.266 43.404 43.491 43.641 43.741 43.869 43.954 44.046 44.139 44.244 44.319 44.434 44.521 44.571 44.641 44.706
50.208 50.223 50.278 50.271 50.231 50.176 50.193 50.106 50.111 50.113 50.091 50.083 50.076 50.071 50.046 50.043 50.021 50.031 50.003 49.976 49.968 49.966 49.911 49.868 49.863 49.823 49.773 49.741 49.706 49.676 49.596 49.591 49.541 49.491 49.436 49.396 49.338 49.303 49.208 49.171 49.126 49.081 49.043 48.976 48.931 48.876 48.816 48.788 48.748 48.691 48.666 48.598 48.526 48.466 48.396 48.348 48.261 48.236 48.146 48.088 48.028 47.938 47.913 47.831 47.748 47.696 47.621 47.548 47.476 47.403 47.296 47.361 47.323 47.266 47.208 47.136 47.098 47.058 46.981 46.961 46.913 46.868 46.886 46.891 46.853 46.811 46.763 46.691 46.601 46.511 46.458 46.348 46.261 46.218 46.156 46.078 45.978 45.918 45.841 45.788 45.668 45.618 45.501 45.441 45.383 45.268 45.203 45.171 45.126 45.126 45.031 44.888 44.876 45.896 46.703 46.531 44.951 44.661 44.326 44.188 44.128 44.008 43.906 43.786 43.658 43.516 43.441 43.298 43.281 43.226 43.165 43.079 43.015 42.95 42.869 42.786 42.717 42.638 42.565 42.497 42.422 42.339 42.278 42.21 42.132 42.063 41.996 41.916 41.833 41.766 41.688 41.633 41.556 41.461 41.416 41.316 41.248 41.176 41.096 41.011 40.891 40.818 40.738 40.651 40.573 40.468 40.383 40.293 40.206 40.118 40.038 39.943 39.843 39.736 39.653 39.611 39.478 39.368 39.291 39.176 39.068 38.991 38.876 38.796 38.698 38.596 38.503 38.363 38.271 38.188 38.103 37.966 37.873 37.753 37.638 37.546 37.411 37.316 37.208 37.081 36.976 36.846 36.726 36.586 36.486 36.386 36.283 36.161 36.113 36.063 35.953 35.938 35.778 35.663 38.133 48.126 51.243 51.773 43.796 34.791 34.686 35.798 39.451 34.443 34.306 34.121 33.873 33.793 33.743 33.711 33.868 35.186 34.308 32.818 32.488 32.156 32.063 31.896 32.008 33.256 43.648 39.788 38.618 35.596 31.753 30.728 30.843 30.448 35.473 44.993 39.571 37.606 32.168 29.506 28.931 32.758 42.598 32.588 31.121 31.446 39.698 32.831 27.021 26.996 26.686 26.426 27.018 28.626 35.586 35.748 25.191 24.113 24.521 27.103 25.068 24.618 24.363 24.238 24.178 24.191 24.243 24.313 24.441 24.613 24.763 24.911 25.043 25.186 25.288 25.396 25.521 25.661 25.768 25.896 26.046 26.191 26.333 26.471 26.601 26.723 26.861 26.983 27.168 27.376 27.603 27.863 28.083 28.286 28.458 28.631 28.788 28.948 29.108 29.256 29.406 29.578 29.738 29.921 30.091 30.298 30.471 30.653 30.866 31.068 31.271 31.499 31.721 31.964 32.169 32.374 32.616 32.854 33.049 33.219 33.391 33.484 33.564 33.664 33.681 33.676 33.701 33.746 33.884 34.116 34.424 34.674 34.871 35.056 35.151 35.199 35.289 35.404 35.521 35.609 35.676 35.839 37.564 38.204 36.641 36.686 36.749 36.801 36.901 36.996 37.051 37.069 37.139 37.286 37.439 37.576 37.689 37.786 37.909 38.031 38.146 38.256 38.379 38.476 38.529 38.651 38.741 38.844 38.934 39.049 39.126 39.214 39.306 39.436 39.486 39.629 39.716 39.849 39.969 40.069 40.164 40.266 40.411 40.546 40.644 40.731 40.871 41.006 41.141 41.239 41.331 41.474 41.579 41.709 41.859 41.984 42.094 42.199 42.349 42.464 42.601 42.706 42.821 42.956 43.096 43.191 43.331 43.456 43.609 43.684 43.804 43.906 44.011 44.101 44.226 44.299 44.404 44.459 44.561 44.631 44.716 44.771
50.201 50.228 50.286 50.278 50.218 50.193 50.216 50.123 50.161 50.158 50.131 50.121 50.131 50.121 50.098 50.093 50.083 50.106 50.043 50.051 50.021 50.008 49.971 49.946 49.906 49.868 49.818 49.793 49.763 49.746 49.673 49.633 49.583 49.543 49.468 49.448 49.396 49.341 49.288 49.236 49.191 49.148 49.086 49.043 48.991 48.931 48.878 48.846 48.813 48.746 48.681 48.641 48.598 48.538 48.448 48.418 48.313 48.253 48.218 48.123 48.073 47.986 47.946 47.856 47.798 47.721 47.643 47.573 47.503 47.441 47.333 47.378 47.318 47.281 47.231 47.163 47.141 47.111 47.031 46.993 46.976 46.946 46.946 46.933 46.923 46.833 46.783 46.731 46.636 46.558 46.476 46.368 46.298 46.231 46.193 46.096 46.011 45.926 45.846 45.776 45.676 45.596 45.503 45.453 45.386 45.303 45.231 45.148 45.201 45.098 45.006 44.903 44.893 46.506 47.141 46.656 44.726 44.671 44.293 44.221 44.136 44.038 43.911 43.783 43.673 43.543 43.421 43.328 43.313 43.263 43.193 43.11 43.033 42.977 42.879 42.824 42.739 42.673 42.574 42.502 42.431 42.356 42.304 42.25 42.154 42.098 42.028 41.941 41.868 41.803 41.726 41.656 41.568 41.511 41.418 41.346 41.266 41.193 41.101 41.028 40.966 40.851 40.743 40.673 40.558 40.481 40.388 40.308 40.223 40.141 40.058 39.948 39.866 39.753 39.668 39.568 39.471 39.353 39.296 39.176 39.098 39.001 38.891 38.793 38.721 38.618 38.491 38.373 38.293 38.186 38.078 37.971 37.881 37.771 37.641 37.533 37.443 37.311 37.171 37.086 36.986 36.848 36.761 36.606 36.501 36.421 36.293 36.201 36.148 36.068 35.953 35.968 35.823 35.803 38.566 45.956 50.033 45.248 39.776 34.758 35.756 38.256 35.408 34.536 36.193 36.056 35.011 34.236 33.721 33.841 34.396 34.928 34.261 33.373 32.736 32.236 32.081 32.128 32.173 32.993 38.133 36.951 31.346 31.068 30.958 31.768 34.178 31.428 35.951 29.963 31.118 29.603 29.476 29.293 31.833 39.173 46.401 49.641 38.843 36.008 40.598 34.161 27.378 36.268 38.163 28.193 27.426 29.073 30.063 26.598 25.413 24.123 27.026 25.161 25.108 24.581 24.316 24.211 24.221 24.288 24.381 24.488 24.611 24.746 24.891 25.036 25.168 25.288 25.421 25.543 25.633 25.748 25.878 26.021 26.153 26.341 26.471 26.601 26.731 26.848 26.958 27.051 27.151 27.336 27.531 27.778 28.021 28.253 28.476 28.661 28.811 28.971 29.118 29.273 29.411 29.591 29.743 29.916 30.101 30.296 30.476 30.656 30.873 31.081 31.276 31.489 31.731 31.944 32.154 32.359 32.569 32.799 32.999 33.204 33.404 33.524 33.646 33.756 33.844 33.871 33.866 33.871 33.949 34.149 34.384 34.686 34.914 35.091 35.204 35.284 35.354 35.479 35.579 35.664 35.749 36.174 37.766 37.619 36.644 36.716 36.806 36.881 36.956 37.054 37.109 37.164 37.279 37.371 37.486 37.616 37.679 37.811 37.951 38.064 38.146 38.269 38.359 38.456 38.571 38.696 38.779 38.879 38.981 39.086 39.244 39.281 39.346 39.504 39.586 39.694 39.819 39.909 40.044 40.144 40.226 40.341 40.484 40.586 40.694 40.804 40.914 41.031 41.174 41.266 41.389 41.499 41.606 41.739 41.861 41.979 42.136 42.249 42.359 42.506 42.651 42.786 42.909 43.004 43.139 43.294 43.414 43.529 43.636 43.749 43.884 43.981 44.059 44.171 44.254 44.374 44.449 44.524 44.614 44.671 44.776 44.844
50.241 50.243 50.291 50.296 50.258 50.233 50.243 50.163 50.201 50.201 50.163 50.153 50.168 50.181 50.161 50.128 50.131 50.123 50.118 50.101 50.073 50.026 50.016 49.991 49.961 49.911 49.876 49.851 49.798 49.786 49.741 49.686 49.628 49.606 49.538 49.483 49.433 49.398 49.353 49.271 49.236 49.213 49.126 49.088 49.046 49.001 48.933 48.878 48.851 48.813 48.728 48.691 48.648 48.581 48.521 48.486 48.366 48.323 48.251 48.201 48.131 48.041 47.966 47.908 47.828 47.756 47.686 47.603 47.548 47.481 47.351 47.403 47.366 47.323 47.293 47.226 47.188 47.156 47.083 47.053 46.996 46.961 46.971 46.958 46.961 46.898 46.828 46.753 46.661 46.558 46.516 46.416 46.291 46.256 46.201 46.113 46.006 45.918 45.861 45.788 45.691 45.576 45.521 45.461 45.413 45.298 45.216 45.161 45.236 45.093 44.978 44.953 45.466 46.811 46.978 45.736 44.841 44.706 44.316 44.241 44.166 44.041 43.903 43.781 43.698 43.571 43.476 43.351 43.366 43.291 43.223 43.147 43.078 43.009 42.93 42.854 42.769 42.701 42.614 42.537 42.439 42.375 42.312 42.244 42.157 42.118 42.033 41.948 41.886 41.796 41.736 41.666 41.571 41.496 41.408 41.341 41.281 41.181 41.121 41.046 40.928 40.836 40.723 40.671 40.571 40.468 40.393 40.296 40.243 40.148 40.041 39.923 39.863 39.761 39.661 39.578 39.476 39.373 39.301 39.213 39.101 39.013 38.886 38.803 38.701 38.606 38.501 38.438 38.316 38.178 38.103 38.008 37.871 37.748 37.653 37.558 37.436 37.293 37.213 37.113 36.981 36.848 36.768 36.603 36.528 36.426 36.326 36.218 36.126 36.058 35.971 35.983 35.826 35.876 39.286 40.878 44.596 44.428 40.846 38.101 35.028 38.258 34.933 34.583 34.541 34.346 34.091 33.838 33.666 33.578 33.396 33.208 38.718 49.513 37.936 32.241 32.126 32.193 32.251 31.781 31.586 31.353 31.228 31.138 34.443 41.958 46.881 43.903 40.241 30.021 29.818 29.693 34.733 40.578 42.536 47.733 46.011 40.133 27.946 27.933 29.731 27.401 39.038 46.636 41.673 26.683 26.576 33.331 30.373 26.501 30.601 26.186 24.731 24.821 25.011 24.476 24.328 24.206 24.248 24.376 24.523 24.636 24.761 24.876 25.026 25.161 25.258 25.376 25.513 25.641 25.773 25.891 26.011 26.113 26.263 26.438 26.583 26.736 26.863 26.996 27.123 27.206 27.321 27.413 27.553 27.723 27.931 28.196 28.408 28.641 28.826 29.006 29.153 29.308 29.446 29.586 29.733 29.881 30.076 30.283 30.478 30.683 30.883 31.096 31.321 31.521 31.734 31.934 32.154 32.341 32.524 32.759 32.971 33.149 33.334 33.506 33.656 33.809 33.931 34.061 34.094 34.059 34.081 34.201 34.396 34.636 34.899 35.109 35.234 35.319 35.419 35.529 35.634 35.739 35.849 36.511 38.106 37.199 36.664 36.764 36.831 36.924 37.001 37.064 37.096 37.199 37.359 37.436 37.541 37.659 37.756 37.914 38.029 38.114 38.239 38.341 38.449 38.536 38.639 38.761 38.869 38.964 39.031 39.166 39.244 39.289 39.444 39.531 39.614 39.761 39.856 39.949 40.096 40.176 40.269 40.421 40.529 40.664 40.786 40.879 40.959 41.091 41.211 41.331 41.471 41.581 41.706 41.854 41.946 42.069 42.209 42.331 42.456 42.609 42.704 42.829 42.936 43.071 43.204 43.309 43.449 43.566 43.641 43.751 43.889 43.994 44.099 44.214 44.319 44.416 44.506 44.581 44.671 44.734 44.819 44.899
50.373 50.316 50.266 50.301 50.298 50.278 50.256 50.251 50.231 50.246 50.216 50.221 50.226 50.198 50.198 50.173 50.183 50.181 50.168 50.146 50.116 50.091 50.071 50.041 50.028 50.003 49.926 49.893 49.868 49.841 49.776 49.728 49.693 49.636 49.593 49.538 49.493 49.458 49.401 49.346 49.286 49.276 49.191 49.126 49.103 49.048 48.981 48.936 48.911 48.853 48.783 48.771 48.721 48.628 48.561 48.511 48.403 48.351 48.306 48.218 48.171 48.098 48.018 47.953 47.863 47.803 47.716 47.658 47.583 47.521 47.373 47.421 47.416 47.381 47.333 47.251 47.211 47.176 47.113 47.071 47.026 46.996 46.976 46.963 46.991 46.943 46.848 46.803 46.693 46.588 46.528 46.416 46.323 46.271 46.208 46.113 46.026 45.953 45.856 45.801 45.681 45.593 45.531 45.493 45.436 45.328 45.278 45.181 45.198 45.093 45.008 44.968 46.211 47.046 46.198 45.106 44.866 44.606 44.326 44.316 44.203 44.081 43.943 43.828 43.718 43.606 43.481 43.428 43.356 43.288 43.23 43.152 43.105 43.02 42.943 42.863 42.77 42.694 42.609 42.548 42.467 42.388 42.331 42.25 42.173 42.111 42.026 41.936 41.876 41.803 41.743 41.661 41.561 41.493 41.428 41.343 41.276 41.198 41.106 41.013 40.933 40.831 40.718 40.666 40.571 40.493 40.386 40.301 40.233 40.128 40.021 39.958 39.848 39.743 39.651 39.601 39.501 39.401 39.308 39.218 39.096 39.008 38.928 38.838 38.718 38.613 38.516 38.416 38.308 38.226 38.111 37.966 37.866 37.783 37.666 37.548 37.466 37.363 37.238 37.121 37.003 36.893 36.773 36.621 36.511 36.396 36.303 36.248 36.166 36.073 36.036 35.938 35.848 35.796 36.548 36.943 37.486 42.341 42.313 38.086 34.673 34.468 34.478 34.463 34.276 34.178 34.063 33.966 33.663 33.543 33.361 33.181 37.851 48.876 40.553 32.283 32.206 32.246 32.091 31.716 31.568 31.471 31.268 31.128 38.891 49.233 52.213 50.601 49.708 36.238 36.233 47.353 47.806 41.661 46.451 46.148 38.248 29.446 27.896 28.433 31.616 28.653 41.186 45.218 37.958 26.498 26.268 25.718 25.878 26.046 34.701 24.848 24.826 24.751 26.003 24.393 24.386 24.298 24.313 24.428 24.606 24.743 24.871 24.976 25.088 25.248 25.373 25.491 25.601 25.728 25.868 25.996 26.151 26.276 26.396 26.578 26.713 26.843 27.003 27.148 27.286 27.436 27.533 27.618 27.703 27.796 27.916 28.118 28.323 28.541 28.771 28.958 29.151 29.333 29.491 29.616 29.751 29.921 30.066 30.273 30.481 30.708 30.958 31.143 31.346 31.556 31.756 31.949 32.144 32.349 32.529 32.694 32.916 33.099 33.281 33.439 33.639 33.811 33.991 34.154 34.279 34.276 34.269 34.299 34.396 34.614 34.859 35.049 35.214 35.356 35.469 35.581 35.641 35.764 35.919 36.934 38.504 37.006 36.711 36.831 36.914 36.959 37.024 37.121 37.156 37.244 37.389 37.484 37.601 37.711 37.831 37.949 38.096 38.186 38.306 38.399 38.481 38.606 38.719 38.854 38.941 38.991 39.144 39.246 39.306 39.411 39.519 39.639 39.731 39.844 39.924 40.014 40.159 40.261 40.366 40.491 40.574 40.709 40.826 40.911 41.046 41.151 41.239 41.366 41.501 41.569 41.724 41.886 41.956 42.096 42.259 42.366 42.486 42.646 42.749 42.866 43.006 43.091 43.259 43.364 43.476 43.664 43.729 43.856 43.959 44.066 44.144 44.239 44.364 44.476 44.549 44.651 44.689 44.751 44.834 44.936
51.298 50.381 50.298 50.293 50.323 50.326 50.338 50.261 50.281 50.263 50.278 50.263 50.256 50.253 50.248 50.238 50.216 50.228 50.208 50.183 50.163 50.151 50.126 50.083 50.061 50.028 49.963 49.951 49.913 49.861 49.836 49.796 49.751 49.688 49.661 49.581 49.556 49.521 49.443 49.401 49.368 49.316 49.266 49.211 49.146 49.118 49.043 48.998 48.948 48.906 48.823 48.808 48.741 48.673 48.601 48.568 48.456 48.408 48.348 48.276 48.213 48.108 48.041 47.976 47.926 47.838 47.786 47.686 47.646 47.568 47.431 47.438 47.473 47.433 47.358 47.278 47.233 47.211 47.138 47.076 47.058 47.023 46.978 46.968 46.996 46.966 46.893 46.826 46.738 46.623 46.561 46.451 46.336 46.273 46.268 46.146 46.058 45.958 45.893 45.816 45.676 45.573 45.556 45.506 45.428 45.333 45.271 45.266 45.213 45.086 45.078 45.111 48.761 45.808 45.553 45.528 44.696 44.481 44.346 44.286 44.206 44.066 43.948 43.841 43.721 43.601 43.496 43.476 43.426 43.328 43.251 43.191 43.112 43.039 42.94 42.882 42.794 42.732 42.63 42.542 42.469 42.416 42.352 42.279 42.192 42.106 42.041 41.943 41.878 41.818 41.736 41.623 41.566 41.468 41.418 41.358 41.276 41.186 41.096 41.001 40.923 40.813 40.751 40.666 40.578 40.498 40.416 40.323 40.218 40.128 40.041 39.983 39.861 39.763 39.698 39.586 39.481 39.401 39.313 39.213 39.121 39.018 38.926 38.813 38.723 38.638 38.513 38.411 38.346 38.208 38.103 37.981 37.896 37.801 37.668 37.576 37.466 37.353 37.246 37.158 37.038 36.893 36.793 36.638 36.553 36.438 36.326 36.253 36.178 36.073 36.038 35.933 35.856 36.641 37.566 37.998 35.276 35.143 35.103 34.873 34.731 34.548 34.461 34.308 34.101 34.183 34.086 33.918 33.658 34.703 39.628 44.348 44.191 44.171 32.471 32.338 32.503 32.286 33.178 31.726 32.421 31.541 31.241 31.211 38.541 48.851 51.093 47.578 48.748 49.706 46.731 44.511 32.226 30.903 42.556 43.948 43.738 37.813 27.981 30.463 38.831 27.463 37.713 40.278 30.751 26.671 27.343 25.911 28.466 27.028 28.983 24.343 24.823 24.728 24.511 24.366 24.341 24.408 24.398 24.483 24.651 24.823 24.966 25.068 25.211 25.336 25.483 25.601 25.703 25.803 25.973 26.108 26.268 26.416 26.576 26.716 26.863 26.988 27.123 27.263 27.428 27.603 27.766 27.858 27.926 27.991 28.038 28.143 28.303 28.458 28.653 28.888 29.113 29.301 29.496 29.653 29.793 29.928 30.088 30.276 30.498 30.736 30.941 31.166 31.384 31.566 31.761 31.956 32.154 32.339 32.516 32.661 32.849 33.046 33.214 33.414 33.631 33.804 34.001 34.214 34.371 34.469 34.441 34.454 34.474 34.581 34.759 34.966 35.194 35.361 35.506 35.614 35.681 35.791 35.961 38.049 38.914 36.814 36.766 36.884 36.991 37.029 37.114 37.121 37.201 37.311 37.421 37.569 37.679 37.791 37.931 38.054 38.171 38.261 38.381 38.506 38.569 38.691 38.789 38.886 38.979 39.071 39.214 39.294 39.369 39.474 39.579 39.666 39.786 39.904 40.009 40.134 40.224 40.331 40.464 40.574 40.691 40.789 40.911 41.039 41.156 41.241 41.349 41.466 41.529 41.681 41.834 41.926 42.019 42.176 42.276 42.431 42.599 42.661 42.789 42.954 43.009 43.144 43.296 43.369 43.529 43.676 43.764 43.866 43.984 44.051 44.184 44.279 44.376 44.514 44.539 44.646 44.764 44.791 44.899 44.959
