ncols 437
nrows 31
xllcorner    456098
yllcorner    92290
cellsize     2
NODATA_value -9999
27.679 27.569 27.374 27.211 27.011 26.889 26.699 26.566 26.366 26.174 25.911 25.574 25.591 25.749 26.459 27.061 27.664 26.976 27.589 27.754 26.504 24.996 24.496 24.834 24.029 23.871 24.174 23.496 23.369 23.226 23.304 22.936 22.986 22.746 22.559 22.595 22.823 22.166 22.096 22.195 21.934 21.719 22.084 21.897 22.326 22.271 21.724 21.399 21.599 20.971 20.799 20.716 20.474 20.336 20.174 20.081 20.036 21.251 23.346 22.514 23.906 22.459 21.844 19.219 20.661 19.396 18.946 18.896 18.824 18.694 18.656 18.576 18.509 18.441 18.446 18.566 18.541 18.396 18.421 18.399 18.306 18.276 17.986 17.969 17.831 17.776 17.719 17.624 17.546 17.464 17.386 17.336 17.264 17.186 17.094 17.036 16.984 16.934 16.909 16.826 16.789 16.729 16.684 16.639 16.579 16.547 16.509 16.489 16.459 16.404 16.357 16.292 16.217 16.159 16.144 16.064 16.012 15.989 15.939 15.854 15.819 15.764 15.729 15.679 15.602 15.554 15.492 15.452 15.379 15.314 15.269 15.189 15.119 15.052 15.012 14.932 14.834 14.784 14.737 14.679 14.657 14.604 14.524 14.459 14.419 14.419 14.339 14.302 14.274 14.229 14.177 14.149 14.129 14.107 14.062 14.039 14.039 14.014 13.984 14.082 14.359 14.217 14.232 15.382 15.124 14.379 14.267 14.917 14.107 17.894 15.192 14.992 14.377 14.244 13.899 14.024 14.182 14.382 14.809 14.169 14.059 14.022 13.947 13.929 13.882 13.834 13.802 13.779 13.797 13.779 13.722 13.674 13.604 13.594 13.617 13.609 13.599 13.622 13.667 13.634 13.669 13.714 13.769 13.734 13.644 13.494 13.357 13.199 13.114 13.119 13.122 13.134 13.137 13.107 13.057 13.074 13.049 13.044 13.032 13.014 12.987 12.957 12.892 12.799 12.799 12.757 12.764 12.729 12.682 12.632 12.559 12.477 12.454 12.349 12.297 12.227 12.044 11.817 11.512 11.197 10.934 10.674 11.147 12.074 11.587 10.792 10.512 10.382 11.134 11.357 11.824 11.972 12.922 12.929 11.992 10.922 11.024 11.162 11.329 11.514 11.689 11.827 11.942 12.082 12.219 12.387 12.512 12.607 12.707 12.814 12.917 13.034 13.117 13.199 13.189 13.244 13.297 13.329 13.417 14.227 14.779 14.229 17.719 18.122 16.547 14.009 14.192 15.289 15.774 14.249 14.384 14.174 14.274 14.824 14.297 14.312 14.434 14.487 14.547 16.247 15.594 14.562 14.589 15.017 15.057 15.129 15.052 15.252 15.714 18.524 15.847 15.662 15.569 15.284 15.572 15.514 15.532 16.089 15.749 15.749 16.167 15.924 15.969 16.374 16.172 17.144 19.209 16.547 16.522 16.664 17.704 18.122 16.822 17.074 17.467 21.384 17.079 17.229 18.454 17.437 17.504 17.609 17.537 17.779 17.777 17.872 17.972 18.092 18.857 18.894 18.602 18.779 18.917 19.124 19.254 19.197 19.372 19.467 19.567 19.792 20.287 21.252 21.374 22.642 22.509 23.589 21.919 22.469 22.627 22.777 22.927 22.987 23.114 23.184 23.232 23.297 23.384 23.322 23.342 23.369 23.449 23.632 23.857 24.154 24.429 24.557 24.829 24.829 24.739 24.962 25.627 26.482 27.837 26.517 30.099 33.714 32.247 29.267 30.709 31.999 32.587 31.242 27.944 28.002 28.057 29.724 31.189 30.984 31.932 32.372 32.884 36.282 35.164 32.962 32.532 30.419 34.382 34.519 33.842 33.637 34.417 32.754 32.987 35.407 41.194 37.729 35.329 33.714 33.369 33.532 33.872 33.777 33.942 34.052 34.279 34.609 35.517
27.569 27.396 27.261 27.126 26.951 26.794 26.631 26.426 26.269 26.114 25.934 25.779 25.579 25.386 25.139 24.836 24.984 25.464 25.974 25.936 27.479 27.981 26.616 24.871 24.134 24.314 24.034 23.619 23.411 23.241 23.119 22.959 22.754 22.715 22.52 22.379 22.21 22.101 21.986 21.901 21.93 21.653 21.614 21.706 21.577 21.646 22.232 21.222 20.974 21.179 21.061 21.139 20.479 21.561 20.134 19.974 19.866 19.904 20.456 21.904 23.446 23.794 23.966 22.021 20.594 19.554 19.434 18.911 18.794 19.476 18.614 18.631 18.486 18.499 18.514 18.499 18.559 18.426 18.471 18.434 18.336 18.306 18.039 17.966 17.851 17.801 17.739 17.649 17.549 17.491 17.404 17.334 17.251 17.194 17.111 17.059 16.991 16.939 16.884 16.831 16.771 16.729 16.687 16.627 16.644 16.574 16.549 16.527 16.482 16.399 16.374 16.309 16.259 16.177 16.134 16.074 16.024 15.974 15.909 15.874 15.812 15.754 15.724 15.684 15.597 15.557 15.492 15.412 15.367 15.264 15.217 15.159 15.127 15.052 14.964 14.932 14.834 14.789 14.757 14.699 14.672 14.622 14.599 14.527 14.474 14.447 14.397 14.359 14.297 14.249 14.209 14.182 14.117 14.099 14.084 14.054 14.037 14.042 14.047 14.239 14.504 14.507 15.982 16.964 17.374 16.292 14.732 15.134 14.567 16.507 15.749 14.964 14.232 14.069 13.942 14.172 14.634 14.787 14.392 14.172 14.144 14.074 14.014 13.954 13.914 13.907 13.879 13.844 13.847 13.847 13.814 13.802 13.694 13.669 13.664 13.669 13.657 13.632 13.677 13.707 13.702 13.747 13.767 13.787 13.727 13.644 13.487 13.327 13.222 13.184 13.172 13.189 13.182 13.154 13.119 13.112 13.104 13.072 13.062 13.039 13.037 12.987 12.929 12.867 12.802 12.797 12.782 12.747 12.724 12.649 12.589 12.522 12.477 12.384 12.299 12.289 12.112 11.869 11.579 11.302 10.999 10.744 11.084 12.622 12.992 11.569 12.787 14.432 12.887 11.289 11.707 11.824 12.422 12.517 11.832 10.994 11.057 11.237 11.439 11.604 11.742 11.884 11.992 12.167 12.312 12.454 12.574 12.689 12.792 12.904 13.017 13.137 13.189 13.267 13.289 13.317 13.377 13.437 13.547 13.979 14.499 13.699 14.469 15.702 14.649 14.494 14.617 17.129 17.419 14.279 14.272 14.317 14.609 14.457 14.349 16.902 16.272 14.562 14.589 18.384 17.719 14.649 14.957 15.832 15.924 15.042 15.414 16.817 15.834 15.954 16.349 15.749 15.647 15.504 15.657 15.602 15.667 15.864 15.792 15.899 15.957 15.979 16.047 16.179 16.287 16.369 16.524 17.414 17.447 16.804 17.407 20.042 24.764 18.304 17.312 18.427 17.144 17.167 17.319 17.709 17.572 17.474 18.297 17.739 17.982 17.944 17.974 18.169 18.352 20.022 19.354 19.019 18.789 18.982 19.114 19.504 21.557 23.164 20.072 19.747 21.627 22.819 23.127 22.577 22.649 21.644 21.864 22.434 22.697 22.874 22.967 23.027 23.144 23.242 23.302 23.339 23.424 23.437 23.394 23.417 23.462 23.629 23.854 24.134 24.424 24.537 24.567 24.607 24.692 24.762 25.534 28.032 30.064 28.299 29.854 32.074 30.399 29.547 29.639 30.992 30.309 31.957 29.059 27.907 28.089 30.034 30.944 33.219 33.634 33.779 33.399 36.392 34.902 33.782 31.954 31.094 34.664 34.559 35.424 37.962 35.469 34.942 34.269 35.169 36.847 36.897 35.469 33.967 33.972 33.579 33.589 33.782 34.022 34.174 34.279 34.457 34.722
29.256 27.354 27.236 26.964 26.861 26.696 26.539 26.349 26.226 26.021 25.919 25.699 25.579 25.411 25.204 25.029 24.841 24.669 24.451 24.301 24.831 24.996 25.099 24.644 24.564 24.481 24.111 23.736 23.539 23.534 23.359 22.926 22.799 22.804 22.679 22.441 22.322 22.122 21.938 23.089 23.508 21.554 21.472 21.42 21.387 21.351 21.26 21.112 20.881 22.151 20.706 20.771 20.459 20.281 20.049 19.921 19.804 19.791 19.696 20.624 19.664 19.666 22.136 21.429 22.059 20.889 19.104 19.436 19.121 18.986 18.614 18.506 18.446 18.441 18.494 18.514 18.519 18.459 18.484 18.506 18.354 18.356 18.031 18.089 17.891 17.861 17.801 17.686 17.619 17.541 17.446 17.339 17.256 17.181 17.139 17.074 17.029 16.969 16.871 16.839 16.769 16.714 16.657 16.669 16.607 16.587 16.564 16.552 16.522 17.204 16.874 16.629 16.259 16.187 16.129 16.074 16.012 15.964 15.894 15.874 15.809 15.749 15.682 15.644 15.594 15.537 15.447 15.412 15.324 15.252 15.192 15.142 15.097 15.032 14.944 14.907 14.844 14.782 14.772 14.747 14.702 14.647 14.627 14.597 14.534 14.472 14.412 14.344 14.324 14.294 14.244 14.217 14.174 14.139 14.117 14.112 14.079 14.054 14.109 14.354 14.469 14.509 14.619 15.827 16.597 15.349 14.254 14.497 14.372 15.947 15.999 14.499 14.257 14.032 14.034 14.402 15.619 15.309 14.334 14.227 14.187 14.097 14.049 14.027 13.982 13.942 13.949 13.922 13.894 13.884 13.897 13.869 13.804 13.737 13.732 13.704 13.714 13.717 13.739 13.747 13.749 13.789 13.812 13.799 13.764 13.749 13.619 13.447 13.324 13.237 13.184 13.207 13.197 13.152 13.157 13.169 13.157 13.107 13.097 13.084 13.074 13.034 12.987 12.932 12.839 12.802 12.797 12.789 12.754 12.697 12.637 12.577 12.507 12.424 12.349 12.307 12.172 11.914 11.617 11.344 11.047 10.809 11.259 13.612 10.612 10.987 12.187 14.649 12.139 10.802 11.494 11.622 12.209 12.562 12.019 11.024 11.149 11.292 11.477 11.649 11.804 11.934 12.054 12.214 12.379 12.534 12.639 12.772 12.869 12.964 13.077 13.209 13.272 13.344 13.379 13.417 13.477 13.532 14.512 14.152 13.967 13.814 15.054 15.007 14.539 14.567 18.397 14.314 15.582 14.559 14.372 14.369 14.469 14.494 14.454 19.397 18.239 14.634 14.739 14.734 14.744 14.647 14.784 15.614 15.577 15.169 15.147 15.354 16.609 16.704 15.787 17.044 16.622 15.617 17.107 19.662 15.829 16.467 15.882 15.887 15.947 16.039 16.057 16.217 16.574 16.482 16.579 18.247 17.512 17.179 16.844 16.867 18.849 17.279 17.582 17.107 17.192 17.269 17.414 17.772 17.532 17.549 18.179 17.842 18.002 18.124 18.149 18.562 20.504 21.272 18.622 19.617 18.844 18.922 19.077 19.792 20.519 19.627 20.774 20.874 21.694 21.329 21.192 23.299 22.462 21.697 22.307 22.477 22.807 22.929 22.997 23.069 23.147 23.257 23.304 23.339 23.449 23.489 23.432 23.457 23.522 23.679 23.917 24.184 24.369 24.459 24.567 24.647 24.704 24.762 26.324 28.554 26.802 26.562 28.807 30.549 29.974 28.049 28.667 30.199 30.147 31.912 29.589 27.812 28.849 32.192 32.019 36.909 35.897 34.874 33.702 34.967 34.274 33.107 30.887 30.439 32.949 33.024 33.117 35.262 32.714 35.154 35.314 36.307 35.572 36.147 34.582 35.862 34.577 33.607 33.587 33.757 34.027 34.222 34.299 34.449 34.707
27.411 28.586 28.629 26.866 26.714 26.536 26.401 26.249 26.099 25.949 25.799 25.609 25.449 25.329 25.141 25.011 24.849 24.681 24.516 24.359 24.209 24.104 23.974 23.886 23.774 23.826 23.911 23.831 23.711 23.496 23.499 23.109 22.836 22.721 22.564 22.625 23.085 22.171 21.927 22.471 22.163 21.583 21.472 21.418 21.757 21.232 21.108 21.048 20.905 21.579 20.649 20.464 20.406 20.486 20.036 19.899 19.799 19.716 19.596 19.519 19.961 19.256 19.256 19.904 19.921 19.161 18.809 18.801 18.871 18.689 18.586 18.529 18.476 18.439 18.446 18.396 18.459 18.484 18.574 18.531 18.404 18.369 18.091 18.151 18.011 17.891 17.801 17.691 17.639 17.559 17.454 17.359 17.274 17.189 17.154 17.051 17.009 16.936 16.859 16.796 16.761 16.719 16.672 16.639 16.614 16.577 16.597 17.552 18.204 18.669 17.207 17.397 16.289 16.222 16.122 16.072 16.029 15.952 15.887 15.854 15.807 15.734 15.694 15.659 15.602 15.524 15.462 15.397 15.309 15.262 15.189 15.114 15.052 14.997 14.934 14.884 14.839 14.807 14.759 14.749 14.737 14.697 14.672 14.627 14.562 14.519 14.427 14.379 14.337 14.299 14.277 14.239 14.224 14.177 14.157 14.152 14.132 14.122 14.184 14.427 14.519 14.634 14.414 14.367 15.089 15.199 14.444 14.412 15.347 15.757 15.407 14.334 14.207 13.992 14.174 14.414 14.674 14.569 14.334 14.279 14.234 14.162 14.089 14.067 14.024 14.004 13.987 13.952 13.954 13.947 13.969 13.947 13.929 13.859 13.812 13.752 13.757 13.764 13.759 13.767 13.817 13.824 13.852 13.824 13.837 13.797 13.769 13.609 13.437 13.312 13.242 13.222 13.194 13.179 13.187 13.192 13.177 13.149 13.117 13.112 13.102 13.079 13.032 12.974 12.939 12.879 12.827 12.829 12.814 12.749 12.667 12.592 12.562 12.464 12.412 12.339 12.189 11.942 11.654 11.377 11.062 10.889 11.402 11.079 11.282 10.907 9.629 10.492 10.539 11.037 11.182 11.532 12.004 12.139 11.672 11.039 11.184 11.334 11.519 11.674 11.817 11.974 12.117 12.284 12.449 12.569 12.702 12.834 12.937 13.057 13.177 13.312 13.362 13.422 13.479 13.512 13.589 14.477 18.414 14.069 14.262 15.152 20.077 20.927 21.192 15.912 14.264 14.749 14.864 14.507 14.522 14.532 14.537 14.572 14.582 14.882 16.734 16.349 14.752 14.664 14.769 14.964 15.199 15.084 14.877 15.054 15.379 16.842 15.532 15.909 15.759 16.007 15.802 15.704 18.357 20.409 15.889 16.077 16.537 16.189 16.122 16.152 16.169 16.302 16.567 18.684 17.664 16.634 18.384 18.674 17.704 16.962 17.002 17.069 17.144 17.169 17.257 17.299 17.472 17.642 17.794 17.944 17.837 17.894 18.054 18.109 18.114 18.342 19.702 18.759 18.617 20.892 21.232 20.044 19.222 19.264 20.797 23.402 20.722 21.797 20.124 21.469 21.399 23.144 22.729 21.744 22.479 22.517 22.852 22.929 22.914 23.034 23.129 23.232 23.274 23.334 23.454 23.404 23.454 23.522 23.529 23.714 23.912 24.204 24.409 24.542 24.604 24.629 24.697 24.787 25.012 27.957 26.842 28.944 31.834 28.859 28.214 27.767 27.732 30.139 30.559 30.347 29.869 27.754 28.564 33.969 34.452 34.094 36.379 38.204 34.212 36.369 32.062 37.159 31.294 30.264 31.192 31.552 32.052 32.529 32.729 33.652 35.692 34.964 32.794 33.387 33.219 33.332 33.714 34.294 34.224 34.094 34.032 34.189 34.317 34.457 34.707
29.439 27.269 27.029 26.879 26.694 26.489 26.336 26.161 26.019 25.831 25.624 25.536 25.386 25.221 25.086 24.919 24.771 24.644 24.489 24.359 24.209 23.976 23.879 23.766 23.624 23.516 23.451 23.394 23.264 23.331 23.339 23.349 23.146 22.799 22.75 22.454 22.479 22.236 21.976 21.846 21.732 21.6 21.48 21.729 21.301 21.179 21.11 21.37 21.101 20.779 20.519 20.359 20.966 20.329 20.054 19.854 19.761 19.654 19.566 19.676 19.574 19.176 19.149 20.356 18.891 19.404 18.754 18.926 19.019 19.576 19.566 19.106 18.541 18.486 18.451 18.459 18.551 18.519 18.591 18.574 18.444 18.446 18.199 18.111 18.141 18.009 17.896 17.821 17.746 17.641 17.539 17.456 17.389 17.281 17.191 17.119 17.034 16.951 16.859 16.789 16.769 16.717 16.674 16.664 16.727 16.597 18.952 19.642 20.069 20.099 16.412 16.369 16.337 16.199 16.157 16.079 16.012 15.939 15.889 15.822 15.807 15.749 15.699 15.627 15.582 15.522 15.454 15.372 15.319 15.237 15.142 15.094 15.054 14.989 14.914 14.869 14.829 14.832 14.802 14.762 14.759 14.722 14.689 14.654 14.587 14.534 14.479 14.417 14.367 14.319 14.294 14.279 14.252 14.217 14.202 14.202 14.197 14.177 14.274 14.627 14.947 14.939 14.442 14.479 14.629 14.492 14.362 14.519 15.529 17.239 15.477 14.422 14.147 14.032 15.154 14.324 14.964 14.399 14.369 14.339 14.262 14.219 14.157 14.114 14.089 14.062 14.024 14.007 14.009 14.012 14.007 14.019 14.007 13.972 13.899 13.862 13.812 13.797 13.819 13.854 13.854 13.874 13.872 13.857 13.849 13.869 13.869 13.812 13.587 13.429 13.339 13.272 13.217 13.207 13.222 13.202 13.199 13.187 13.167 13.137 13.117 13.124 13.089 13.009 12.992 12.954 12.902 12.874 12.854 12.797 12.724 12.632 12.594 12.504 12.442 12.392 12.244 12.004 11.704 11.449 11.174 10.977 11.107 11.287 12.432 12.389 10.094 10.799 11.264 11.192 11.579 11.667 11.779 11.917 11.272 11.097 11.224 11.367 11.527 11.699 11.879 12.012 12.152 12.297 12.484 12.632 12.787 12.914 13.032 13.139 13.262 13.382 13.469 13.522 13.574 13.629 13.692 14.367 15.889 14.637 15.609 16.004 20.544 19.322 15.979 14.922 14.327 14.864 14.712 14.672 14.774 14.642 14.712 14.902 14.784 15.014 16.107 14.782 14.824 14.722 14.802 15.009 15.114 15.017 15.497 15.567 15.867 15.422 15.504 15.892 16.039 15.887 16.049 15.774 15.764 17.827 16.149 16.607 16.342 16.147 16.207 16.269 16.384 16.502 16.464 17.292 18.109 16.872 16.814 17.212 16.962 16.977 17.312 17.172 17.184 19.577 19.272 17.392 17.554 17.714 17.609 17.817 17.867 17.967 18.032 18.062 18.277 18.712 21.974 22.369 18.639 19.034 18.984 18.974 19.182 19.297 19.567 22.827 21.007 22.689 26.084 20.882 20.607 22.659 23.887 21.179 22.457 22.574 22.814 22.902 22.937 23.062 23.157 23.189 23.234 23.334 23.392 23.439 23.457 23.544 23.597 23.717 23.934 24.199 24.424 24.532 24.574 24.609 24.687 24.847 24.897 27.097 26.479 29.964 31.537 30.174 28.867 27.704 27.539 27.967 28.642 29.347 29.299 27.704 29.299 35.224 39.449 40.159 39.414 41.999 36.892 35.772 33.129 30.379 30.004 30.484 31.122 31.437 31.692 33.104 33.959 32.664 32.167 32.167 32.419 32.677 32.984 33.149 33.287 34.504 34.804 33.957 34.039 34.194 34.314 34.517 34.754
27.636 27.291 27.044 27.004 26.599 26.456 26.204 26.054 25.849 25.829 25.556 25.431 25.296 25.156 25.044 24.839 24.656 24.536 24.389 24.344 25.301 24.001 23.839 23.759 23.551 23.439 23.336 23.196 23.089 22.996 22.896 22.769 22.781 22.924 22.785 22.668 22.429 22.364 22.206 22.01 21.751 21.596 21.555 21.565 21.368 21.202 21.124 22.657 22.206 22.251 20.579 20.446 20.404 20.899 20.456 19.791 19.711 19.584 19.471 19.294 19.141 19.139 19.044 18.981 18.874 18.801 18.764 18.896 20.309 20.369 21.366 22.054 19.994 18.979 18.921 18.464 18.511 18.474 18.639 18.594 18.479 18.396 18.099 18.071 18.219 18.026 17.859 17.826 18.006 17.701 17.554 17.546 17.486 17.419 17.341 17.291 17.141 17.091 16.999 16.889 16.886 16.789 16.749 16.694 16.639 18.249 18.267 18.529 21.557 19.752 17.202 16.337 16.282 16.189 16.137 16.069 16.014 15.934 15.894 15.854 15.787 15.742 15.672 15.614 15.569 15.499 15.444 15.409 15.292 15.252 15.152 15.087 15.017 14.972 14.922 14.879 14.817 14.837 14.812 14.782 14.739 14.704 14.714 14.664 14.592 14.572 14.502 14.437 14.387 14.382 14.329 14.297 14.292 14.274 14.277 14.287 14.252 14.352 14.934 14.789 14.822 14.567 14.907 15.037 15.272 14.994 14.849 14.497 14.692 15.887 15.062 14.282 14.102 14.142 14.424 15.117 16.049 14.394 14.409 14.407 14.322 14.264 14.219 14.204 14.162 14.157 14.117 14.047 14.057 14.069 14.087 14.077 14.082 14.069 14.014 13.929 13.894 13.889 13.917 13.904 13.899 13.907 13.902 13.917 13.902 13.917 13.917 13.907 13.787 13.609 13.432 13.344 13.279 13.239 13.239 13.242 13.214 13.239 13.224 13.199 13.184 13.127 13.104 13.089 13.044 13.002 12.977 12.892 12.854 12.854 12.779 12.697 12.647 12.564 12.477 12.444 12.249 12.039 11.782 11.514 11.259 11.137 11.367 11.704 11.584 11.469 10.294 10.499 10.662 11.682 11.837 12.069 12.057 12.652 11.917 11.137 11.267 11.407 11.562 11.749 11.872 12.019 12.184 12.332 12.519 12.679 12.822 12.987 13.102 13.217 13.362 13.469 13.532 13.632 13.672 13.739 14.397 15.932 17.459 14.399 16.507 14.477 15.374 15.772 14.907 15.674 14.417 14.894 14.869 14.719 14.699 14.709 15.662 15.039 14.834 14.932 14.924 15.082 14.879 14.824 15.202 15.039 15.232 15.367 15.237 15.254 15.589 15.597 16.024 15.997 16.052 16.002 15.927 15.759 16.084 16.222 16.254 16.177 16.997 16.269 16.499 17.337 17.094 16.869 16.654 16.737 17.289 16.754 18.084 17.794 17.434 18.209 17.137 17.089 17.177 17.337 17.387 17.412 17.709 17.707 17.704 18.782 17.959 17.952 18.074 18.164 18.209 18.424 21.237 19.929 18.712 18.789 18.984 19.014 19.134 19.407 19.662 21.077 22.302 24.377 24.252 20.869 21.034 20.574 20.684 20.879 21.822 23.084 22.814 22.952 22.969 23.097 23.194 23.249 23.244 23.322 23.372 23.429 23.484 23.579 23.662 23.839 23.989 24.204 24.422 24.527 24.612 24.609 24.684 24.849 24.962 25.027 25.694 26.677 29.319 30.569 29.169 27.532 27.479 27.472 27.392 30.119 33.952 27.677 28.719 33.072 41.619 39.247 37.824 32.394 31.709 30.127 29.552 29.749 29.947 30.572 32.352 31.837 31.762 34.374 35.687 33.367 31.897 32.137 32.369 32.647 33.354 33.862 33.387 34.169 35.089 35.377 34.359 34.829 34.677 34.599 34.799
28.846 29.309 29.179 29.056 28.154 27.204 28.201 30.511 34.651 35.506 33.024 27.324 25.409 25.619 25.111 24.919 25.974 24.504 24.329 24.229 24.091 23.971 24.824 24.156 26.796 24.194 23.316 23.211 23.059 22.916 22.804 22.654 22.566 22.506 22.404 22.489 22.267 22.268 22.167 22.056 21.953 21.88 21.938 21.731 21.518 22.21 21.972 21.586 22.926 22.244 20.551 20.424 20.751 20.694 19.906 19.781 19.729 19.556 19.434 19.286 19.166 19.554 19.219 18.929 18.861 18.801 18.754 18.744 18.696 19.346 20.251 21.666 22.384 21.464 19.659 18.574 18.514 18.496 18.649 18.661 18.516 18.419 18.151 18.106 18.136 18.081 17.911 17.826 17.701 17.589 17.604 17.474 17.459 17.364 17.299 17.211 17.156 17.061 17.014 16.989 16.844 16.799 16.757 16.719 16.709 16.629 16.544 19.612 16.487 16.442 18.679 16.444 16.292 16.244 16.162 16.109 15.997 15.944 15.887 15.814 15.759 15.694 15.657 15.622 15.542 15.467 15.439 15.357 15.304 15.224 15.164 15.084 15.037 14.979 14.914 14.899 14.869 14.829 14.799 14.784 14.752 14.712 14.702 14.682 14.627 14.579 14.494 14.432 14.407 14.382 14.382 14.369 14.339 14.319 14.347 14.344 14.289 14.362 14.422 14.504 15.064 14.824 14.794 15.284 15.289 15.432 14.989 15.782 16.169 14.949 14.349 14.247 14.164 14.252 15.204 16.587 14.544 14.452 14.452 14.462 14.404 14.329 14.309 14.289 14.254 14.217 14.194 14.124 14.119 14.152 14.124 14.144 14.114 14.114 14.089 14.049 14.007 13.959 13.952 13.962 13.972 13.937 13.934 13.957 13.922 13.964 13.984 13.969 13.924 13.852 13.654 13.454 13.347 13.267 13.259 13.262 13.257 13.262 13.252 13.232 13.209 13.162 13.157 13.144 13.082 13.062 13.017 12.984 12.914 12.879 12.812 12.729 12.702 12.587 12.524 12.472 12.334 12.102 11.842 11.589 11.382 11.234 11.529 11.422 11.122 10.892 10.462 10.214 10.177 11.449 11.824 11.944 12.242 12.384 12.179 11.214 11.304 11.432 11.589 11.747 11.914 12.044 12.204 12.382 12.569 12.729 12.867 13.024 13.167 13.297 13.409 13.522 13.642 13.674 13.752 13.862 15.459 15.287 13.979 14.182 20.349 15.022 14.907 15.132 15.047 15.164 14.532 14.822 14.682 14.719 14.759 14.867 15.049 14.919 15.047 15.012 14.944 14.867 14.804 14.824 14.867 14.912 14.997 15.474 15.412 15.347 16.467 15.959 15.954 16.244 16.154 15.934 15.917 15.969 16.747 16.274 16.419 16.539 16.522 16.234 16.277 16.759 16.629 16.412 17.117 17.012 16.939 17.064 17.197 17.314 17.257 17.297 17.802 18.877 17.834 18.344 18.054 18.012 18.139 18.309 17.857 17.819 18.162 18.087 18.139 18.234 18.297 18.464 18.524 18.797 18.824 18.857 19.222 20.197 19.232 19.412 19.999 20.754 20.169 20.624 22.367 23.144 22.122 20.579 20.747 21.069 21.887 22.682 22.849 22.969 23.009 23.159 23.204 23.244 23.334 23.354 23.337 23.429 23.512 23.589 23.699 23.884 24.102 24.357 24.502 24.599 24.647 24.674 24.697 24.809 24.947 25.022 25.382 26.957 27.672 29.242 27.862 27.484 27.569 28.839 29.384 34.054 33.737 29.282 28.487 34.284 41.719 41.027 37.642 34.092 30.797 29.249 29.419 29.632 30.034 31.022 33.422 33.534 32.487 35.877 35.149 32.714 31.889 32.162 32.389 32.657 33.642 34.257 33.444 37.062 38.047 38.072 37.887 37.784 35.577 34.654 34.779
28.834 28.359 28.864 28.654 27.361 29.504 27.926 33.534 36.556 38.811 37.294 30.539 28.436 29.239 25.256 25.734 25.424 24.646 24.451 24.291 24.154 24.429 24.769 25.609 27.051 24.949 23.269 23.214 23.104 22.964 22.864 22.731 22.546 22.464 22.359 22.211 22.17 22.027 21.957 21.845 21.751 21.599 21.793 21.815 21.789 21.474 21.224 22.176 21.393 22.349 21.116 20.456 20.226 20.109 19.959 19.829 19.689 19.556 19.456 19.296 19.726 19.134 19.021 18.956 18.849 18.809 18.791 18.754 18.684 18.744 18.616 19.299 20.514 22.131 20.266 18.641 18.579 18.574 18.661 18.671 18.534 18.494 18.396 18.071 17.959 18.114 17.809 17.759 17.681 17.606 17.519 17.419 17.391 17.351 17.291 17.186 17.114 17.031 16.971 16.926 16.824 16.769 16.739 16.702 16.599 16.587 16.529 16.512 16.427 16.467 16.369 16.342 16.262 16.197 16.152 16.084 16.664 15.944 15.909 15.864 15.819 15.792 15.754 15.687 15.594 15.524 15.449 15.374 15.302 15.209 15.127 15.079 15.004 14.967 14.929 14.872 14.862 14.862 14.822 14.797 14.752 14.727 14.692 14.682 14.672 14.649 14.572 14.512 14.452 14.437 14.434 14.412 14.422 14.404 14.384 14.357 14.352 14.469 14.527 14.512 14.529 14.899 14.982 15.507 15.387 15.494 14.842 15.374 17.204 15.464 15.124 14.259 14.254 14.757 18.097 18.994 15.179 14.459 14.517 14.474 14.452 14.384 14.384 14.342 14.324 14.279 14.269 14.212 14.192 14.187 14.207 14.224 14.222 14.194 14.164 14.149 14.112 14.059 14.032 14.034 14.007 14.002 13.999 13.989 13.989 14.004 13.994 13.982 13.977 13.974 13.859 13.674 13.429 13.339 13.327 13.282 13.274 13.277 13.277 13.299 13.249 13.189 13.164 13.167 13.154 13.124 13.109 13.034 12.969 12.914 12.842 12.794 12.739 12.657 12.597 12.507 12.367 12.159 11.922 11.652 11.442 11.359 11.652 11.489 11.159 11.002 10.847 10.449 10.022 11.074 11.874 11.977 12.282 12.469 11.859 11.254 11.334 11.474 11.629 11.787 11.939 12.087 12.282 12.437 12.597 12.764 12.929 13.062 13.207 13.369 13.459 13.564 13.674 13.759 13.839 14.332 16.109 15.899 17.854 15.854 14.587 14.504 16.017 15.919 14.977 14.829 14.862 14.994 14.914 14.942 14.977 14.972 14.977 15.147 15.149 15.029 15.014 14.962 15.017 15.159 15.022 15.177 15.139 15.169 15.137 15.212 15.682 17.642 16.182 15.964 16.067 15.927 15.872 15.894 15.899 16.739 16.737 16.572 16.937 16.222 16.347 16.562 16.799 16.414 16.584 17.269 18.302 17.782 17.052 17.784 17.187 17.009 17.562 19.139 18.312 18.804 18.067 17.844 17.919 17.799 18.389 18.347 18.587 18.284 18.209 18.397 18.434 18.464 18.667 18.989 20.767 20.902 20.892 21.047 21.599 19.399 19.677 21.037 19.894 19.929 22.919 21.074 20.849 21.679 21.287 21.167 21.862 22.392 22.849 22.982 23.017 23.114 23.182 23.262 23.367 23.379 23.362 23.434 23.539 23.599 23.697 23.872 24.122 24.394 24.574 24.664 24.737 24.807 24.792 24.834 24.952 25.029 25.287 30.129 29.602 30.299 27.419 27.489 28.669 30.357 31.499 31.107 29.187 27.682 29.657 32.572 35.612 41.354 38.317 30.607 29.087 29.192 29.477 30.029 31.477 32.049 32.992 34.274 32.982 32.947 32.689 31.662 31.827 32.154 33.034 33.107 33.487 34.102 33.539 37.337 39.262 39.362 39.102 39.162 36.507 34.647 34.877
28.966 27.216 26.876 26.816 28.391 26.834 26.379 28.596 33.431 36.824 35.929 30.039 32.336 32.966 30.149 25.561 26.169 25.256 25.914 24.409 24.166 23.729 24.129 24.501 24.734 23.441 23.289 23.134 22.999 22.871 22.819 22.686 22.591 22.504 22.404 22.286 22.193 22.012 21.915 21.831 21.734 21.635 21.586 21.396 21.26 23.83 21.326 23.583 21.451 23.025 21.896 22.509 21.046 20.429 20.081 19.924 19.754 19.614 19.484 19.371 19.786 19.224 19.109 19.029 18.924 18.864 18.854 18.824 18.769 18.661 18.624 18.659 18.624 18.616 18.801 18.576 18.669 18.649 18.709 18.701 18.601 18.644 18.461 18.099 17.951 17.806 17.816 18.196 17.594 17.521 17.526 17.311 17.276 17.261 17.171 17.091 17.019 16.984 16.881 16.851 16.929 16.724 16.704 16.667 16.562 16.522 16.414 16.439 16.369 16.364 16.299 16.234 16.134 16.089 16.102 16.734 18.057 15.904 15.812 15.792 15.729 15.732 15.727 15.654 15.592 15.569 15.492 15.459 15.529 15.339 15.282 15.219 15.144 15.064 15.019 14.979 14.959 14.927 14.894 14.822 14.784 14.749 14.727 14.682 14.654 14.624 14.604 14.577 14.524 14.479 14.502 14.494 14.472 14.454 14.442 14.394 14.484 14.627 14.802 14.529 14.472 14.562 14.952 15.362 15.537 15.054 14.874 16.309 18.107 15.639 16.244 14.277 14.604 14.757 15.274 15.619 14.587 14.582 14.567 14.552 14.499 14.452 14.479 14.464 14.402 14.382 14.319 14.297 14.297 14.279 14.279 14.297 14.279 14.249 14.252 14.197 14.184 14.137 14.092 14.074 14.079 14.079 14.052 14.024 14.032 14.037 14.024 14.022 14.012 14.027 13.987 13.867 13.624 13.429 13.382 13.322 13.309 13.307 13.309 13.304 13.297 13.227 13.207 13.199 13.149 13.169 13.142 13.092 13.064 12.984 12.867 12.827 12.779 12.714 12.657 12.557 12.407 12.232 11.957 11.712 11.497 11.414 11.744 11.482 11.174 11.152 10.959 10.704 10.224 11.147 11.832 12.217 12.377 12.652 12.099 11.297 11.354 11.537 11.674 11.824 11.979 12.137 12.317 12.477 12.642 12.809 12.954 13.119 13.274 13.379 13.497 13.604 13.707 13.817 13.939 14.677 15.479 15.257 16.432 17.212 15.662 19.069 17.479 16.037 15.444 15.222 15.264 15.367 15.297 15.387 15.402 15.622 15.287 15.409 16.504 15.479 15.137 15.169 15.214 15.199 15.857 17.914 18.237 15.722 16.079 15.729 15.639 15.614 15.679 15.952 16.267 16.402 15.872 15.912 15.957 16.072 16.114 16.289 17.864 16.264 16.834 17.227 16.427 16.577 16.594 16.659 17.367 18.632 16.869 17.349 18.577 17.459 17.134 18.437 17.689 17.657 17.642 17.582 17.869 17.842 17.872 17.924 18.007 18.142 18.229 18.372 18.784 19.424 18.889 19.809 22.339 20.279 21.117 22.494 19.769 19.539 20.292 20.999 19.909 20.282 22.164 20.984 20.794 21.674 21.254 21.112 21.907 22.507 22.979 22.939 23.022 23.114 23.204 23.294 23.382 23.369 23.389 23.444 23.564 23.669 23.759 23.879 24.129 24.377 24.562 24.714 24.814 24.912 24.992 24.987 24.977 25.032 25.114 30.117 28.507 27.192 27.229 27.399 28.214 30.979 31.682 31.462 27.829 27.512 31.989 32.894 36.737 39.627 36.629 28.684 29.679 31.649 33.134 32.724 33.197 32.644 33.704 34.377 34.109 31.827 34.237 34.289 32.659 33.697 34.379 36.264 34.612 34.889 33.644 37.119 38.364 38.464 38.549 38.607 36.167 35.009 34.884
27.441 26.944 26.784 26.634 26.886 29.361 31.674 26.869 27.239 27.909 25.651 25.461 25.359 26.754 27.321 31.774 30.659 32.706 27.371 24.469 23.889 25.576 24.184 23.854 22.886 23.039 23.196 23.296 23.071 22.936 22.761 22.599 22.479 22.394 22.344 22.284 22.163 22.018 21.945 21.886 21.731 21.66 21.535 21.452 21.379 21.263 22.331 21.368 22.954 24.299 21.336 21.051 20.964 21.141 20.806 20.509 20.324 20.131 19.741 19.474 19.326 19.244 20.211 19.896 19.039 18.954 18.966 18.826 18.814 18.736 18.769 18.781 18.676 18.659 18.649 18.699 19.481 19.264 18.904 18.829 18.696 19.036 18.954 18.456 17.934 17.794 17.936 17.656 17.776 17.599 17.524 17.306 17.191 17.156 17.076 16.994 16.976 16.884 16.911 16.851 16.824 16.754 16.604 17.412 17.099 17.034 16.519 16.399 16.354 16.244 16.292 16.184 16.119 16.169 16.064 16.569 18.999 16.307 15.882 15.797 15.724 15.689 15.702 15.654 15.629 15.572 15.542 15.494 15.429 15.459 15.324 15.279 15.192 15.149 15.117 15.134 15.362 15.564 15.474 15.202 14.989 14.894 14.854 14.894 14.792 14.774 14.764 14.747 14.662 14.617 14.592 14.539 14.522 14.534 14.519 14.487 14.592 14.727 14.719 14.567 14.612 14.629 15.207 15.539 15.292 14.869 15.792 16.712 16.447 15.214 14.544 14.357 14.752 15.874 16.819 14.942 14.642 14.664 14.659 14.619 14.564 14.547 14.539 14.502 14.479 14.429 14.399 14.359 14.334 14.344 14.352 14.352 14.362 14.332 14.277 14.254 14.262 14.267 14.189 14.137 14.129 14.117 14.114 14.092 14.072 14.069 14.064 14.044 14.067 14.062 14.079 14.004 13.812 13.564 13.467 13.394 13.349 13.347 13.319 13.337 13.339 13.277 13.257 13.214 13.207 13.194 13.177 13.139 13.092 13.057 12.942 12.834 12.824 12.784 12.744 12.642 12.484 12.292 12.017 11.807 11.597 11.492 11.774 11.464 11.252 11.202 11.087 10.964 10.904 10.919 11.942 12.277 12.267 12.659 12.197 11.329 11.419 11.579 11.709 11.854 12.017 12.197 12.359 12.539 12.667 12.847 12.994 13.152 13.337 13.452 13.539 13.632 13.767 13.892 14.292 14.752 14.317 15.067 14.982 16.272 14.707 18.309 17.989 17.874 16.377 15.122 15.624 15.429 15.412 15.437 15.479 15.509 18.752 18.822 15.324 15.337 15.632 15.469 15.397 15.412 15.989 16.969 15.834 15.679 15.722 15.747 15.834 15.957 15.942 15.952 16.014 16.344 16.154 16.457 17.749 16.904 16.402 16.657 17.264 16.417 17.214 17.959 19.599 17.304 16.982 16.732 16.947 19.124 20.359 20.144 20.857 17.912 17.082 17.209 17.269 17.634 17.549 18.587 17.839 18.127 18.024 18.209 18.127 18.214 18.472 18.434 18.479 18.572 18.757 19.242 21.009 20.502 20.147 21.662 22.162 20.939 21.554 21.347 21.917 22.352 24.149 23.819 22.084 21.432 21.532 21.652 22.034 22.449 22.642 22.827 22.927 23.059 23.164 23.264 23.349 23.389 23.457 23.482 23.572 23.697 23.784 23.924 24.137 24.364 24.519 24.689 24.847 24.972 25.072 25.072 25.067 25.069 25.159 27.009 30.802 27.827 29.114 28.329 29.652 30.727 31.882 30.699 27.667 27.429 32.819 32.159 33.982 37.087 31.319 28.719 31.642 33.212 31.814 34.474 33.774 31.267 32.669 34.342 31.912 32.682 35.939 38.482 34.342 35.994 36.119 36.879 35.494 35.039 33.324 35.724 36.467 36.177 36.704 37.219 35.147 34.659 34.907
27.039 26.889 26.741 27.174 27.826 28.514 33.061 32.606 29.991 34.011 28.026 25.584 25.214 25.574 26.264 29.469 33.594 34.381 33.496 29.129 23.794 24.444 27.876 27.759 24.304 24.114 23.126 22.644 22.896 23.771 22.701 22.664 25.324 22.416 22.266 22.211 22.994 22.037 21.953 21.858 21.798 21.658 21.581 21.485 21.392 21.291 23.683 23.744 23.903 21.464 20.916 20.821 20.779 20.971 20.851 20.911 20.581 20.516 20.591 20.459 20.084 19.701 19.466 19.409 19.284 19.026 18.924 18.924 18.774 18.769 18.786 18.729 18.689 18.761 18.814 18.921 19.341 18.821 18.919 18.884 18.756 18.711 19.016 19.314 18.061 17.934 17.991 18.124 17.641 17.506 17.424 17.289 17.224 17.159 17.139 17.189 17.064 16.991 16.936 16.901 16.871 16.792 16.709 17.067 16.629 16.687 16.452 16.439 16.404 16.359 16.367 16.212 16.299 16.259 16.174 16.244 16.159 16.037 15.922 15.842 15.842 15.767 15.779 15.739 15.687 15.594 15.557 15.889 15.739 15.509 15.544 15.319 15.177 15.142 15.094 15.134 15.432 15.912 15.752 15.419 15.077 15.164 14.834 17.029 15.342 14.834 14.822 14.812 14.779 14.744 14.689 14.694 14.704 14.697 14.639 14.667 14.714 14.709 14.639 14.642 14.632 14.822 14.852 14.949 14.929 14.677 15.609 16.959 15.869 14.854 14.377 14.427 14.579 15.062 15.292 14.987 14.782 14.752 14.694 14.697 14.672 14.624 14.604 14.567 14.522 14.497 14.454 14.427 14.419 14.427 14.459 14.434 14.429 14.389 14.334 14.289 14.307 14.322 14.297 14.224 14.192 14.147 14.139 14.137 14.134 14.099 14.132 14.119 14.077 14.087 14.094 14.047 13.949 13.709 13.542 13.469 13.414 13.377 13.329 13.354 13.324 13.322 13.267 13.229 13.227 13.217 13.209 13.199 13.177 13.127 13.042 12.917 12.827 12.804 12.789 12.724 12.567 12.369 12.074 11.887 11.707 11.572 11.754 11.474 11.417 11.199 11.134 10.992 10.842 11.217 12.117 11.637 11.924 12.642 11.997 11.384 11.487 11.592 11.799 11.902 12.099 12.267 12.407 12.579 12.749 12.879 13.059 13.214 13.387 13.479 13.594 13.664 13.822 13.979 14.634 14.694 14.359 15.814 14.697 17.827 20.162 18.004 15.159 16.869 15.349 15.137 15.512 15.429 15.537 15.564 15.574 15.584 15.649 18.724 16.359 15.157 15.389 15.627 15.692 16.822 15.734 15.712 15.779 15.832 15.854 15.957 15.992 16.099 16.199 16.709 17.399 16.397 16.779 18.999 21.534 16.852 17.024 16.942 17.022 18.449 22.909 20.139 18.232 16.969 17.117 17.092 17.264 19.849 19.409 20.799 20.999 19.604 17.404 17.697 18.049 17.804 21.502 25.299 18.844 18.989 17.937 18.299 18.752 18.084 18.279 18.574 18.379 18.577 18.669 19.914 20.962 19.844 19.912 23.522 23.272 21.494 20.914 20.337 20.544 22.717 23.659 22.777 23.274 22.984 21.644 21.819 22.082 22.432 22.617 22.732 22.822 22.969 23.112 23.202 23.274 23.369 23.459 23.552 23.632 23.742 23.842 23.932 24.137 24.414 24.569 24.757 24.894 25.044 25.167 25.164 25.129 25.144 25.172 25.247 28.119 29.004 30.424 32.299 29.969 29.169 31.379 30.247 27.334 27.407 27.842 27.974 28.797 31.447 29.784 30.497 30.512 30.889 31.062 37.884 33.829 30.002 30.849 31.267 32.582 33.484 33.554 35.954 35.402 37.094 35.844 35.504 35.714 34.547 33.482 36.319 33.729 33.772 34.097 34.719 34.372 34.787 34.957
27.069 26.849 26.674 26.816 26.384 26.781 30.204 33.354 33.216 33.491 30.091 26.424 25.119 25.024 24.934 24.731 25.971 28.539 33.806 29.321 27.909 29.974 29.949 30.394 25.271 24.381 27.106 25.664 23.816 25.884 25.069 23.369 22.116 22.889 22.329 22.134 22.072 21.953 21.894 21.811 21.687 21.58 21.561 21.505 21.424 21.35 22.269 21.253 21.044 20.974 20.91 20.824 20.779 20.669 20.556 20.516 20.546 20.606 20.686 20.809 20.721 20.506 20.471 20.136 20.056 19.634 19.351 18.989 18.869 18.889 18.761 18.739 18.786 18.786 18.934 19.204 19.371 18.901 18.931 18.924 18.794 18.739 18.751 19.264 18.249 18.094 19.421 18.499 17.881 17.629 17.486 17.406 17.374 17.286 17.806 17.299 17.179 17.076 17.076 17.039 16.936 17.197 16.809 16.737 16.694 16.732 16.514 16.482 16.404 16.379 16.334 16.349 16.299 16.329 16.202 16.209 16.734 16.114 16.057 16.002 15.992 15.912 15.839 15.797 15.757 15.739 15.619 15.727 15.722 15.879 15.449 15.322 15.239 15.184 15.109 15.122 15.447 16.219 16.122 15.594 15.292 15.032 16.674 18.484 16.389 15.092 15.329 14.859 14.794 14.777 14.767 14.727 14.707 14.684 14.744 14.734 14.799 14.752 14.689 14.782 14.782 14.764 14.757 14.769 14.722 14.849 19.037 15.667 15.564 14.874 14.404 14.584 15.259 15.212 15.569 15.234 14.939 14.819 14.777 14.764 14.744 14.709 14.687 14.642 14.604 14.572 14.539 14.514 14.527 14.509 14.517 14.522 14.507 14.454 14.437 14.394 14.362 14.362 14.357 14.322 14.262 14.217 14.207 14.197 14.179 14.147 14.139 14.149 14.142 14.127 14.104 14.062 14.017 13.914 13.722 13.557 13.454 13.404 13.339 13.342 13.337 13.322 13.314 13.287 13.254 13.234 13.244 13.232 13.217 13.162 13.112 13.004 12.894 12.857 12.849 12.814 12.674 12.469 12.207 11.957 11.782 11.649 11.732 11.482 11.324 11.262 11.187 11.142 10.744 11.024 11.477 11.362 11.597 12.567 12.277 11.557 11.572 11.702 11.839 12.012 12.172 12.334 12.477 12.677 12.804 12.967 13.122 13.302 13.437 13.554 13.619 13.724 13.859 14.189 15.062 15.829 14.387 14.977 14.927 15.699 17.949 16.314 15.192 14.847 14.837 14.899 14.957 15.122 15.154 15.172 15.229 15.324 15.267 15.317 15.277 15.554 15.354 15.564 15.572 15.747 15.604 15.877 16.027 15.834 15.897 15.949 16.059 16.067 16.087 16.284 19.884 19.777 19.474 18.537 24.134 19.517 16.867 16.792 17.302 19.462 19.794 18.312 17.537 17.187 17.239 17.452 17.442 18.327 17.652 17.582 17.754 17.544 17.664 17.957 20.957 20.887 20.114 21.784 19.524 21.547 20.244 19.814 22.392 20.982 20.652 19.159 18.662 18.657 21.197 21.124 19.202 20.359 22.454 21.657 24.754 25.624 25.222 23.262 20.217 25.699 24.379 26.044 28.352 22.769 22.064 21.612 21.882 22.307 22.432 22.564 22.634 22.789 22.842 23.179 23.207 23.324 23.524 23.647 23.674 23.777 23.862 23.994 24.179 24.512 24.754 24.884 24.932 24.987 25.062 25.059 25.079 25.209 25.237 25.272 25.702 30.762 33.312 35.629 29.069 28.127 30.329 30.782 27.469 27.387 27.517 27.674 27.809 29.317 30.892 31.257 30.847 29.584 30.729 32.614 32.309 31.349 31.502 30.674 34.029 34.372 33.159 38.477 38.037 38.424 35.584 34.559 34.827 35.592 36.432 35.214 35.722 33.754 33.994 34.564 34.672 34.914 35.019
26.846 26.776 26.659 26.484 26.324 26.164 30.309 31.824 32.204 29.776 32.136 26.651 25.214 24.921 24.694 24.789 24.441 24.366 26.124 26.024 25.314 28.954 29.831 28.609 29.219 28.034 27.266 23.109 23.089 22.631 22.514 25.394 26.969 26.349 23.709 22.354 21.644 21.75 21.785 21.745 21.749 21.655 21.553 21.421 21.319 21.244 21.172 21.134 21.078 21.002 20.928 20.864 20.824 20.731 20.606 20.546 20.469 20.369 20.319 20.249 20.394 20.514 20.644 20.794 20.591 20.354 20.889 21.049 19.784 19.304 19.734 19.006 18.869 18.939 19.001 19.196 19.126 18.961 18.916 18.939 18.854 18.759 18.766 19.096 18.334 18.129 18.914 18.524 18.171 18.024 17.769 17.779 17.774 17.706 17.469 17.419 17.346 17.289 17.056 17.049 17.069 17.004 16.947 16.862 16.752 16.672 16.607 16.569 16.527 16.474 16.427 16.452 16.362 16.332 16.299 16.252 16.377 16.149 16.152 16.059 16.102 15.974 15.904 15.902 15.962 15.829 15.754 15.642 15.554 15.527 15.482 15.399 15.342 15.232 15.219 15.159 15.212 15.857 16.107 15.387 15.047 15.109 15.559 17.069 15.247 14.994 15.224 15.052 14.804 14.837 14.832 14.949 14.779 14.732 14.817 14.749 14.727 14.712 14.872 14.872 14.779 14.817 14.819 14.724 14.694 17.422 16.974 14.349 16.259 14.849 14.539 15.417 17.054 16.707 16.027 15.517 15.192 14.947 14.852 14.839 14.799 14.799 14.777 14.714 14.707 14.672 14.647 14.659 14.642 14.619 14.599 14.587 14.582 14.534 14.509 14.472 14.442 14.404 14.394 14.402 14.357 14.292 14.232 14.219 14.219 14.207 14.204 14.179 14.189 14.154 14.154 14.154 14.099 14.017 13.897 13.732 13.542 13.464 13.402 13.342 13.289 13.327 13.324 13.322 13.302 13.259 13.284 13.244 13.237 13.229 13.162 13.052 12.977 12.907 12.894 12.882 12.777 12.612 12.292 11.997 11.832 11.714 11.777 11.567 11.437 11.267 11.162 10.844 10.857 11.459 11.079 11.287 11.557 12.242 11.969 11.652 11.649 11.764 11.919 12.074 12.257 12.409 12.572 12.744 12.879 13.022 13.199 13.384 13.524 13.604 13.669 13.782 13.954 14.657 15.784 15.379 14.792 15.442 17.032 15.779 15.099 15.377 15.229 14.964 15.127 15.059 15.562 16.867 15.157 15.112 15.102 15.137 15.227 15.204 15.374 15.727 15.252 15.527 15.447 15.487 15.524 15.624 15.729 15.652 15.697 15.684 15.894 15.999 16.159 16.257 16.237 16.742 20.862 16.709 17.877 17.607 17.182 17.164 16.812 18.444 20.627 18.377 16.892 16.932 17.154 20.679 17.459 17.682 17.699 17.432 17.434 17.549 17.782 17.889 19.972 18.592 18.474 21.107 18.389 18.752 19.007 19.024 21.084 21.752 19.797 18.937 19.022 19.152 21.027 20.677 21.354 21.724 22.387 22.604 25.132 25.462 26.567 24.814 24.282 28.812 24.437 27.337 28.324 25.739 23.674 21.539 21.664 21.987 22.549 22.252 22.217 22.302 22.527 23.077 23.207 23.404 23.639 23.724 23.779 23.894 24.079 24.312 24.534 24.697 24.757 24.772 24.834 24.889 24.979 25.027 25.047 25.139 25.314 25.402 25.497 29.572 32.787 34.079 29.844 27.342 31.102 29.752 27.694 27.419 27.524 27.874 29.547 31.269 30.724 29.919 29.537 29.057 29.657 31.252 29.412 29.529 29.892 29.797 30.849 32.849 32.604 37.262 38.824 38.237 36.512 35.224 33.594 33.839 36.059 34.552 35.707 34.734 34.232 36.054 35.822 36.889 35.222
26.826 26.771 26.724 26.399 27.804 29.749 25.851 28.014 29.581 30.049 32.699 27.256 25.611 28.719 26.904 24.466 24.334 24.196 24.021 23.989 23.756 23.531 23.859 26.849 26.849 31.716 28.631 27.131 27.614 24.226 22.686 23.594 26.454 22.386 22.101 21.991 23.446 22.142 22.121 21.274 21.213 21.344 21.766 23.237 21.915 21.251 21.165 21.059 21.011 20.914 20.815 20.811 20.741 20.759 20.641 20.611 20.546 20.434 20.351 20.279 20.441 20.151 20.114 20.214 20.364 20.341 20.229 20.549 20.811 20.664 20.639 19.816 19.626 20.094 20.189 19.521 19.074 19.006 18.991 18.956 18.929 18.784 18.831 19.119 18.779 18.264 18.339 18.381 18.559 17.961 18.171 18.529 18.354 18.334 17.814 17.891 17.991 17.591 17.156 17.151 17.129 17.504 16.999 16.947 16.872 16.799 16.774 16.742 16.874 16.577 16.554 16.524 16.464 16.427 16.372 16.342 16.282 16.249 16.157 16.194 16.119 16.019 15.967 15.904 15.974 15.964 15.854 15.747 15.707 15.649 15.512 15.504 15.627 15.454 15.307 15.204 15.222 15.304 15.317 15.644 15.059 15.039 15.107 15.052 15.012 14.989 15.164 15.019 14.914 14.877 14.804 14.844 14.809 14.787 15.259 15.164 14.807 14.792 14.959 14.877 14.874 14.797 14.774 14.717 14.709 15.547 16.552 14.584 15.554 14.644 15.069 16.572 17.232 16.364 16.172 15.592 15.287 15.147 14.999 14.892 14.862 14.872 15.009 14.822 14.922 14.837 14.792 14.767 14.742 14.699 14.694 14.687 14.662 14.612 14.567 14.547 14.509 14.492 14.469 14.487 14.452 14.379 14.319 14.274 14.249 14.252 14.247 14.267 14.229 14.237 14.224 14.212 14.167 14.122 14.042 13.869 13.662 13.539 13.442 13.382 13.357 13.339 13.332 13.342 13.322 13.304 13.294 13.267 13.234 13.269 13.202 13.137 13.027 12.987 12.979 12.954 12.847 12.682 12.382 12.097 11.884 11.769 12.004 11.677 11.502 11.484 11.179 10.854 10.957 11.272 11.432 11.692 11.924 12.117 11.882 11.827 11.734 11.827 11.989 12.159 12.319 12.472 12.649 12.822 12.964 13.109 13.287 13.472 13.559 13.659 13.754 13.897 14.067 14.484 15.554 15.737 14.874 16.539 19.362 15.997 15.149 15.114 15.587 15.182 15.179 15.477 19.192 20.137 15.247 15.234 15.132 15.222 15.362 15.157 15.149 15.277 15.429 15.574 16.554 15.654 15.774 15.899 15.904 16.729 15.834 16.294 16.029 16.877 17.127 16.454 16.069 16.142 16.399 16.459 16.457 16.427 16.549 16.494 16.572 16.667 19.064 17.609 16.827 16.742 16.892 17.122 17.054 17.169 17.222 17.229 17.224 17.337 17.367 17.512 18.317 17.752 17.907 17.947 18.327 22.372 21.057 18.392 18.714 19.159 18.832 19.004 19.044 21.597 20.819 19.692 19.987 20.229 21.499 21.424 24.657 21.162 21.897 22.344 25.802 26.332 25.677 27.474 30.629 32.489 24.979 21.814 23.694 25.162 26.999 22.444 21.962 22.139 22.304 22.754 23.189 23.502 23.762 23.882 24.029 24.194 24.324 24.654 27.112 29.922 29.654 26.762 24.787 24.897 24.952 24.974 25.039 25.104 25.274 25.449 25.527 25.707 28.104 27.697 28.457 30.469 34.469 31.927 27.314 27.387 27.634 29.889 32.857 31.739 28.872 28.754 28.849 29.049 29.554 31.149 29.612 30.489 30.742 30.499 30.644 32.492 31.649 34.307 37.532 35.622 38.529 36.582 32.697 33.389 35.137 35.197 34.472 34.637 34.372 34.949 36.724 37.277 37.179
26.819 26.751 26.821 26.339 29.081 33.519 28.091 27.656 29.721 31.576 34.069 29.406 25.109 24.651 24.536 24.381 24.299 24.114 23.956 23.786 23.599 23.464 23.459 23.706 24.121 26.284 24.081 26.334 25.446 26.501 26.831 23.329 23.814 21.861 21.776 22.691 24.479 21.354 21.536 21.684 22.11 22.226 23.375 23.774 24.097 21.426 21.195 21.218 20.956 20.917 20.88 20.824 20.831 20.711 20.561 20.509 20.476 20.414 20.349 20.351 20.594 20.294 20.126 20.039 19.929 19.894 19.836 19.816 19.929 20.131 20.334 20.244 20.201 20.891 19.676 19.271 19.104 19.081 19.019 19.004 18.941 18.884 18.751 18.741 19.006 18.814 18.359 18.299 18.121 17.966 18.186 18.391 19.091 18.719 18.264 17.954 17.716 17.471 17.296 17.256 17.269 18.977 17.119 17.072 16.997 16.859 16.944 16.779 17.417 17.819 16.729 16.559 16.527 16.479 16.467 16.407 16.424 16.312 16.237 16.209 16.152 16.059 16.029 16.152 16.027 15.909 15.847 15.822 15.734 15.632 15.604 15.602 15.657 15.619 15.444 15.304 15.262 15.209 15.179 15.194 15.492 17.199 16.724 15.319 15.049 15.032 14.977 14.962 14.914 14.902 14.859 14.867 14.819 14.837 16.089 15.232 15.119 14.922 14.934 14.909 14.854 14.804 14.829 14.807 15.092 18.432 15.914 14.854 15.002 14.702 14.797 14.994 16.857 16.919 15.897 15.497 15.262 15.247 15.189 15.107 15.017 15.237 15.007 15.037 15.019 14.987 14.977 14.914 14.874 14.872 14.877 14.849 14.819 14.732 14.702 14.649 14.624 14.589 14.579 14.537 14.512 14.512 14.399 14.357 14.314 14.294 14.312 14.324 14.309 14.294 14.299 14.252 14.239 14.209 14.172 14.012 13.834 13.709 13.529 13.447 13.392 13.352 13.364 13.352 13.357 13.322 13.334 13.287 13.287 13.294 13.254 13.207 13.104 13.049 13.069 12.997 12.897 12.782 12.432 12.152 11.909 11.802 12.322 11.872 11.622 12.692 11.114 10.664 11.064 11.122 11.497 11.809 11.969 12.559 12.282 11.949 11.804 11.902 12.057 12.227 12.382 12.534 12.719 12.877 13.029 13.184 13.392 13.544 13.649 13.714 13.829 13.979 14.144 14.689 15.529 14.827 14.782 15.467 16.752 15.177 15.064 15.169 15.239 15.277 15.359 16.462 18.419 15.684 15.414 15.349 15.239 15.204 15.694 15.409 16.229 15.542 15.764 22.969 20.714 17.539 16.057 17.109 16.284 17.929 16.402 16.437 18.657 17.922 16.549 16.549 16.394 16.329 16.282 16.289 16.512 17.567 16.602 16.539 16.642 19.022 19.657 17.169 17.204 17.332 17.807 18.567 18.132 20.659 24.654 19.687 17.272 17.394 17.452 17.414 17.527 17.599 17.877 17.894 18.287 18.679 18.092 18.102 18.244 18.392 19.502 21.579 20.692 20.577 21.117 19.502 20.974 20.062 21.579 20.472 20.962 20.227 20.334 23.012 27.834 26.719 29.312 27.432 27.679 28.784 24.844 25.582 26.394 25.027 24.842 23.342 22.504 22.417 22.602 22.964 23.442 23.759 23.764 24.039 24.207 25.012 25.827 28.004 31.609 32.647 31.552 30.074 25.022 24.922 24.937 24.967 25.134 25.089 25.257 25.479 25.597 25.664 25.842 26.079 27.967 30.699 32.239 30.287 27.347 27.409 30.499 30.882 30.344 28.907 28.959 28.547 28.817 29.094 29.732 29.927 29.532 31.592 31.619 31.572 30.967 33.377 32.467 31.902 32.539 31.994 35.402 32.724 32.449 33.007 33.982 35.364 35.024 34.684 34.047 34.357 35.584 36.552 35.994
26.764 26.659 26.544 26.284 26.476 28.426 26.546 27.834 27.789 27.121 32.781 30.644 25.371 24.576 24.516 24.651 24.564 24.581 23.884 23.721 23.504 23.399 24.071 23.106 23.951 24.036 23.054 22.779 22.711 22.636 23.776 24.236 26.669 25.789 24.139 24.644 24.442 23.112 22.73 22.646 23.271 24.967 22.553 23.576 23.856 19.992 19.944 20.502 21.549 20.637 20.659 20.758 20.714 20.694 20.616 20.496 20.426 20.359 20.324 20.246 20.264 20.184 20.129 20.079 20.049 19.971 19.876 19.804 19.701 19.631 19.551 19.494 19.486 19.446 19.306 19.221 19.164 19.111 19.531 19.874 19.746 19.046 18.836 18.744 18.794 19.209 18.986 18.384 18.234 18.129 18.096 18.434 18.881 18.659 18.204 18.046 17.611 17.401 17.396 17.351 17.364 19.452 18.767 17.369 17.089 16.964 16.907 17.099 18.149 18.992 17.849 16.604 16.607 16.574 16.537 16.477 16.464 16.344 16.349 16.342 16.224 16.667 16.842 17.437 17.214 16.747 16.324 16.087 15.774 15.734 15.709 15.637 15.559 15.549 15.614 15.417 15.372 15.289 15.289 15.212 15.212 16.077 17.167 16.952 15.362 15.167 15.059 15.022 14.977 14.947 14.939 14.977 15.017 14.982 15.642 15.474 15.244 17.459 15.274 15.057 14.962 14.942 14.879 14.929 17.069 17.054 15.969 15.232 14.879 14.809 14.912 16.027 17.019 17.062 15.644 15.382 15.389 15.357 15.174 15.217 15.202 15.827 15.234 16.367 15.174 15.409 15.107 15.117 15.097 15.114 15.067 15.022 15.034 14.957 14.969 14.902 14.819 14.869 14.909 14.809 14.784 14.774 14.679 14.629 14.542 14.507 14.497 14.507 14.462 14.439 14.414 14.452 14.492 14.412 14.304 14.252 14.139 13.937 13.792 13.642 13.542 13.442 13.394 13.377 13.407 13.412 13.402 13.344 13.334 13.319 13.267 13.224 13.172 13.147 13.114 13.067 12.947 12.804 12.534 12.197 11.982 11.909 12.629 12.427 11.764 12.887 11.097 10.654 10.914 13.149 12.524 11.982 11.992 12.409 12.212 11.892 11.849 11.992 12.144 12.292 12.432 12.619 12.782 12.952 13.109 13.284 13.434 13.614 13.712 13.802 13.914 14.069 14.304 15.089 15.882 15.612 14.759 14.924 15.007 15.349 15.192 15.282 15.349 15.397 15.604 15.319 15.442 15.409 15.469 15.492 15.407 15.282 15.429 15.359 15.439 16.694 16.464 23.752 27.739 24.524 16.257 16.352 16.522 19.307 21.662 16.494 16.634 17.262 16.962 16.679 16.714 16.422 16.392 16.579 16.599 16.524 16.694 16.967 16.717 19.492 16.992 16.992 16.902 17.537 21.492 19.499 22.314 20.009 18.499 17.517 17.429 17.392 17.602 17.772 17.702 17.707 18.222 18.062 17.814 17.912 18.014 18.182 18.287 18.364 19.217 22.932 18.729 19.027 18.977 19.019 19.249 19.982 23.299 24.334 20.259 21.192 20.747 21.309 28.814 24.464 29.582 26.132 29.032 27.987 24.474 27.602 27.504 23.387 25.034 25.284 22.879 22.664 22.842 23.277 23.662 23.714 23.799 24.187 24.282 26.534 27.722 29.087 31.194 32.684 31.864 30.207 25.419 24.944 25.434 26.492 28.437 27.009 25.719 26.149 25.632 25.702 25.852 26.017 26.782 29.784 30.342 28.369 27.257 27.959 32.192 31.519 32.087 29.047 28.764 28.592 28.772 29.097 29.639 29.309 29.457 31.479 31.634 31.552 31.059 31.589 31.764 31.274 32.134 32.074 32.214 32.352 32.464 32.732 33.142 34.687 35.492 34.209 33.997 34.174 34.727 35.479 35.552
26.806 26.734 26.556 27.546 26.836 25.856 25.731 27.026 27.316 25.461 28.824 27.994 24.709 24.534 24.871 24.569 24.339 23.984 23.771 23.716 23.486 24.479 23.541 23.051 23.071 22.854 22.661 23.881 25.344 22.509 22.481 22.361 22.299 23.551 24.571 26.786 26.771 24.998 25.152 24.842 27.6 27.136 23.517 20.501 21.285 21.296 20.644 20.51 21.572 22.183 21.052 19.661 21.941 20.344 20.369 20.486 20.629 20.371 20.316 20.234 20.156 20.079 20.106 20.024 20.001 19.931 19.881 19.841 19.764 19.681 19.639 19.566 19.479 19.454 19.336 19.301 19.259 19.199 19.236 19.364 19.516 19.189 18.881 18.811 18.784 18.914 19.174 18.964 18.396 18.326 18.264 18.154 18.451 18.409 17.971 17.756 17.626 17.489 17.411 17.444 17.344 17.399 17.579 17.242 17.159 17.109 17.034 16.929 17.699 18.137 17.727 16.727 16.692 16.647 16.612 16.564 16.582 16.754 16.579 16.942 16.554 16.874 17.007 18.212 17.824 17.087 16.842 16.459 15.894 15.967 16.092 15.909 15.674 15.607 15.609 15.467 15.472 15.527 15.434 15.374 15.292 15.312 16.302 16.189 15.299 15.307 15.187 15.164 15.179 15.152 15.114 15.117 15.119 15.352 15.892 15.459 15.579 15.627 15.892 15.952 15.989 15.332 15.054 15.044 16.924 18.797 20.637 16.277 15.007 16.289 16.759 16.487 18.447 16.219 15.492 15.464 15.604 15.612 15.639 15.349 15.339 15.297 15.814 15.292 15.589 15.342 15.209 15.242 15.224 15.187 15.117 15.209 15.159 15.054 14.974 14.977 14.897 14.874 14.887 14.894 14.787 14.754 14.769 14.712 14.627 14.662 14.632 14.597 14.574 14.674 14.514 14.487 15.232 14.517 14.404 14.432 14.457 14.262 14.034 13.894 13.754 13.624 13.574 13.589 13.532 13.477 13.529 13.522 13.527 13.472 13.449 13.394 13.329 13.304 13.307 13.297 13.209 13.057 12.722 12.299 12.109 12.357 12.857 12.487 11.627 11.487 10.752 11.119 11.997 12.997 13.144 12.727 13.607 12.599 12.394 11.849 11.924 12.044 12.202 12.344 12.527 12.709 12.867 13.024 13.179 13.364 13.514 13.672 13.789 13.899 14.042 14.187 14.614 15.292 14.672 15.002 15.059 16.179 17.127 15.529 15.342 15.559 15.784 15.489 15.452 15.442 15.477 15.594 15.549 15.617 15.519 15.414 15.537 15.474 17.132 16.569 19.334 27.212 27.992 27.737 16.537 16.727 18.662 26.144 26.487 17.492 16.569 16.762 17.539 17.414 17.234 16.497 16.529 16.667 16.557 16.794 16.734 16.799 16.812 22.312 21.877 17.104 16.997 17.132 18.019 18.422 17.759 17.374 17.432 17.422 17.514 17.584 17.722 17.632 17.722 17.739 18.204 18.462 20.234 19.397 18.259 18.544 22.404 18.632 18.614 20.664 18.719 18.887 19.044 19.104 19.149 19.407 22.389 24.559 19.989 19.977 20.132 20.264 20.497 26.577 30.749 28.329 26.167 26.499 26.254 27.587 27.274 25.972 27.469 26.402 22.917 22.749 22.852 23.357 23.642 23.684 23.832 24.269 24.327 24.509 25.954 26.494 30.384 32.329 32.292 30.612 26.814 24.872 25.587 28.449 29.657 28.387 26.059 26.087 26.027 25.752 25.914 26.077 26.337 27.482 27.657 27.334 27.309 28.677 31.579 31.077 28.417 28.309 28.449 28.594 28.752 28.927 29.629 30.017 29.962 31.182 30.939 31.402 31.552 32.374 31.034 31.189 31.847 31.899 32.247 32.362 32.834 32.827 32.932 36.222 35.997 34.179 34.182 34.047 34.862 35.359 35.589
29.706 28.646 29.259 26.534 26.689 25.841 25.659 25.566 25.466 25.274 24.964 24.814 24.671 24.646 27.504 31.899 27.286 23.946 23.741 23.549 23.726 24.424 27.469 23.281 22.969 22.886 22.599 23.074 23.719 22.236 22.436 22.424 22.111 22.034 21.829 22.181 23.856 21.893 22.009 22.113 23.586 26.297 25.642 21.606 23.861 22.839 24.796 23.961 22.654 22.402 24.997 21.703 21.686 19.924 19.991 19.176 19.846 19.364 19.649 19.781 20.386 20.244 20.104 20.029 19.981 19.874 19.811 19.746 19.619 19.644 19.609 19.581 19.524 19.444 19.384 19.359 19.299 19.201 19.114 19.119 19.064 19.004 18.926 18.874 18.816 18.774 18.826 19.071 19.094 18.711 18.381 18.266 18.054 17.789 17.786 17.621 17.539 17.516 17.526 17.429 17.519 17.379 17.324 17.484 17.272 17.207 17.072 16.999 17.072 17.074 17.252 16.797 16.742 16.667 16.657 16.642 16.617 16.612 17.024 17.247 16.842 16.424 16.394 17.039 16.794 16.657 16.449 16.119 16.007 17.027 16.909 17.034 16.059 15.687 15.632 15.562 15.617 15.597 15.619 15.487 15.499 15.539 15.379 15.432 15.464 15.437 15.447 15.577 15.847 15.479 15.322 15.352 15.312 15.239 16.282 16.699 18.012 16.237 16.509 17.254 16.349 15.939 15.509 15.402 16.847 16.699 16.262 15.229 15.067 17.172 16.569 16.389 17.444 15.709 15.697 15.869 16.124 16.522 16.212 15.784 16.437 16.417 16.227 16.144 16.329 15.674 15.344 15.442 15.324 15.267 15.177 15.247 15.254 15.197 15.072 15.027 15.029 15.002 14.937 14.922 14.882 14.914 14.764 14.822 14.742 14.699 14.707 14.557 14.582 14.604 14.579 15.059 14.492 14.577 14.477 14.499 14.547 14.407 14.244 14.069 13.859 13.744 13.684 13.714 13.612 13.517 13.549 13.577 13.522 13.762 13.449 13.407 13.374 13.347 13.342 13.347 13.217 13.157 12.924 12.402 12.227 12.802 12.799 12.657 11.704 11.979 10.859 10.639 10.647 11.159 12.652 12.744 12.699 13.007 12.627 12.019 12.027 12.147 12.299 12.469 12.577 12.764 12.922 13.097 13.269 13.434 13.574 13.739 13.862 13.992 14.144 14.379 14.887 15.264 15.909 15.437 14.987 15.327 15.837 15.322 15.524 15.922 15.594 15.457 15.492 15.542 16.049 15.589 15.764 15.589 15.622 15.639 15.619 15.902 16.317 18.387 24.889 25.772 27.362 22.724 17.542 17.029 17.324 19.357 23.037 18.114 17.104 16.864 17.214 17.124 17.837 16.852 16.647 16.554 16.677 17.444 16.879 16.907 17.304 20.389 23.584 21.207 17.127 17.232 17.424 17.309 17.354 17.544 17.589 17.519 17.532 17.629 17.792 17.712 17.749 17.814 18.432 19.069 23.259 20.454 18.404 20.832 25.979 25.244 21.324 20.462 18.912 18.979 20.319 20.279 19.389 19.584 19.542 19.659 19.714 19.909 20.042 20.289 20.359 26.017 31.184 30.502 32.334 27.819 25.834 27.137 28.254 28.619 27.907 25.767 23.297 22.747 22.874 23.302 23.587 23.627 23.859 24.244 24.314 24.354 24.744 25.624 29.882 31.899 32.564 31.402 29.827 24.792 25.034 27.897 29.432 28.799 26.164 25.437 25.504 25.829 25.942 26.167 26.389 26.617 26.887 27.124 27.242 29.019 33.227 30.499 28.209 28.374 28.457 28.562 28.707 28.869 29.397 29.729 30.354 30.957 30.017 30.227 31.169 32.187 31.772 31.152 31.664 32.347 32.962 32.349 32.467 32.692 33.529 35.027 35.934 33.789 33.904 34.109 34.472 34.672 36.944
30.494 31.036 31.639 27.561 26.491 26.091 25.846 25.386 25.219 25.149 24.929 24.779 25.026 26.286 25.911 26.164 24.109 23.794 23.644 23.491 23.294 23.339 23.104 22.976 22.934 22.989 22.539 22.809 23.561 22.039 21.981 21.896 21.881 21.901 22.349 21.879 21.656 21.382 21.224 20.967 20.647 21.207 23.177 22.624 22.677 20.434 20.911 22.113 22.026 22.98 25.724 25.187 22.676 19.731 19.949 19.786 19.696 18.954 20.261 20.056 19.549 20.164 20.091 20.164 19.711 19.779 19.816 19.766 19.719 19.646 19.501 19.409 19.431 19.356 19.311 19.329 19.259 19.239 19.199 19.154 19.094 19.039 18.996 18.964 18.919 18.824 18.764 18.704 18.666 18.651 18.714 18.936 18.866 18.969 18.704 18.604 18.084 18.054 18.304 18.051 18.111 17.952 17.602 17.777 17.592 18.629 17.199 17.107 17.057 16.942 16.939 17.032 17.057 16.834 16.747 16.787 16.759 16.812 17.184 17.249 17.057 16.764 16.389 16.374 16.487 16.247 16.182 16.129 16.194 16.497 17.212 16.977 16.299 15.864 15.742 15.707 15.699 15.744 15.642 15.584 15.564 15.569 15.624 15.467 15.437 15.454 16.187 17.429 16.952 16.464 15.687 15.492 15.424 15.452 16.829 17.152 16.057 16.674 16.897 17.624 17.209 15.644 15.444 16.942 17.464 17.022 15.522 15.242 15.234 15.849 17.639 18.112 17.504 16.004 16.104 16.147 16.274 16.609 16.632 16.484 16.539 16.422 16.727 16.522 16.409 16.214 15.709 15.817 15.422 15.392 15.334 15.259 15.272 15.237 15.159 15.087 15.047 15.027 14.994 14.967 14.932 14.964 14.877 14.864 14.869 14.759 14.744 14.619 14.592 14.557 14.632 14.737 14.499 14.499 14.544 14.492 14.579 14.497 14.362 14.232 14.039 13.777 13.742 13.742 13.724 13.594 13.572 13.567 13.602 13.539 13.517 13.429 13.444 13.452 13.402 13.424 13.359 13.197 12.969 12.484 12.329 12.489 12.699 12.497 11.899 11.662 10.504 12.764 11.302 11.099 12.284 12.352 12.277 12.469 12.457 12.479 12.614 12.677 12.642 12.797 12.824 13.022 13.117 13.239 13.474 13.564 13.707 13.829 13.942 14.087 14.234 14.572 15.564 15.834 15.129 14.992 15.002 15.132 15.212 15.219 15.429 15.442 15.429 15.499 18.902 15.792 16.189 15.627 15.667 15.789 15.662 16.654 15.949 17.014 16.502 17.052 17.747 20.134 20.892 17.234 17.004 17.124 17.252 17.252 18.737 17.152 17.232 17.197 18.174 19.272 17.687 16.964 17.154 16.672 16.917 19.104 19.487 16.927 17.167 18.259 19.617 20.497 19.089 17.309 18.187 17.537 17.467 17.552 17.597 17.639 17.627 17.622 17.862 17.802 17.944 17.927 18.092 18.129 18.362 18.314 18.387 18.612 19.872 21.472 18.817 21.764 20.254 19.187 19.229 19.494 19.612 19.647 19.982 19.839 19.954 20.094 20.227 22.394 21.269 24.744 26.907 29.382 29.319 27.492 25.042 32.494 30.577 29.317 25.999 25.599 23.254 22.942 24.349 25.532 25.432 23.642 23.689 24.164 24.287 24.339 24.707 24.972 28.929 31.399 32.667 30.827 28.769 24.847 24.829 25.729 28.229 25.532 25.079 25.279 25.457 26.897 28.119 27.737 26.449 26.637 26.859 27.107 27.224 28.932 32.187 30.847 28.292 28.367 28.644 29.259 28.822 28.977 29.917 29.442 30.597 31.849 30.672 30.202 31.302 32.532 32.294 31.132 31.482 31.734 31.979 32.327 33.689 33.217 35.957 40.237 39.322 33.944 34.339 34.074 34.392 34.742 36.817
31.674 31.574 31.039 29.106 27.304 27.151 30.754 28.241 25.089 24.921 25.504 26.704 24.921 25.101 24.276 27.954 26.596 25.651 24.329 23.741 23.299 25.209 23.469 22.909 22.914 22.504 22.569 22.276 22.124 21.976 22.496 21.766 22.226 21.794 21.769 21.659 21.609 21.576 21.338 21.041 20.668 20.055 20.561 20.587 20.869 21.528 20.299 20.694 19.976 21.03 20.101 20.602 20.411 23.159 25.959 26.909 21.339 20.699 20.016 20.161 20.499 22.086 19.931 21.294 18.669 18.491 20.041 22.414 19.554 19.499 19.571 19.554 20.729 19.751 21.541 21.551 19.214 19.169 19.139 19.041 19.034 18.961 18.979 18.951 18.851 18.884 18.804 18.706 18.636 18.581 18.564 18.466 18.426 18.356 18.354 18.476 18.514 18.534 18.501 18.504 18.416 18.404 18.569 18.172 18.237 18.462 17.922 17.554 17.349 17.194 17.162 17.459 17.467 17.307 17.109 17.297 17.069 17.154 17.192 17.484 16.984 16.839 16.632 16.412 16.354 16.282 16.219 16.139 16.084 16.599 16.937 16.494 16.174 16.057 15.924 15.939 15.854 15.777 15.777 15.764 15.817 15.904 15.832 15.629 15.674 15.697 16.679 17.997 17.662 16.677 15.662 15.609 16.174 15.629 15.809 15.839 16.034 16.882 17.487 18.452 17.119 16.264 15.907 16.794 18.147 17.607 15.619 15.364 15.334 15.667 20.057 20.802 17.059 16.119 16.337 16.614 16.692 16.922 17.019 16.857 16.552 16.804 16.887 16.597 16.664 16.469 16.609 17.422 16.104 15.509 15.399 15.414 15.334 15.344 15.337 15.254 15.152 15.119 15.107 15.004 15.192 15.039 15.094 14.897 14.879 14.832 14.864 14.709 14.747 14.659 14.647 14.582 14.569 14.577 14.539 14.512 14.557 14.587 14.659 14.384 14.182 13.962 13.817 13.762 13.789 13.887 13.729 13.599 13.597 13.584 13.489 13.474 13.429 13.377 13.467 13.477 13.322 13.237 12.897 12.552 12.574 12.679 12.934 12.749 11.959 12.252 12.122 12.212 13.379 11.459 11.834 11.527 11.414 11.739 12.107 12.597 13.102 13.412 12.922 13.144 13.304 13.567 13.612 13.484 13.507 13.762 13.859 13.912 14.029 14.197 14.474 15.052 16.869 15.069 15.739 15.109 15.934 16.189 15.232 15.402 15.599 15.679 15.469 15.707 17.527 15.622 16.069 20.057 15.779 15.754 15.794 15.707 16.197 17.752 16.939 16.492 16.354 16.847 17.984 20.907 16.964 17.654 17.374 17.094 17.362 17.264 17.209 17.139 18.379 18.787 17.499 17.132 17.117 16.737 16.757 20.202 18.252 17.107 17.032 17.149 17.232 17.379 17.284 17.637 21.772 20.562 18.482 17.842 17.614 17.622 17.714 17.777 17.769 17.902 18.049 18.032 18.212 18.144 18.252 18.319 18.569 18.654 18.654 18.757 18.994 20.337 19.839 19.584 19.379 19.554 19.632 19.692 20.252 19.877 20.047 20.254 20.394 20.532 20.714 23.367 25.777 27.704 27.387 27.032 25.904 26.894 26.209 26.377 25.049 23.449 22.237 23.912 26.274 25.832 27.022 25.589 26.134 25.752 24.369 24.319 24.409 24.859 26.059 28.082 29.377 25.507 24.662 24.757 24.829 25.399 27.667 25.927 28.117 27.812 27.289 27.557 29.022 28.509 27.707 27.637 29.484 28.589 27.222 29.512 35.882 30.109 28.224 28.357 28.477 29.764 29.014 29.154 28.964 29.009 30.894 33.207 31.349 32.569 31.079 30.797 30.952 31.182 31.497 31.719 31.954 32.142 33.904 33.557 35.567 38.819 38.302 33.909 33.994 34.097 35.872 35.159 37.812
31.219 30.236 29.404 28.046 26.761 26.581 25.926 25.586 25.071 24.859 27.694 28.331 25.761 24.441 24.066 24.089 24.819 25.796 23.729 23.786 23.349 23.154 23.146 22.886 22.849 22.481 22.781 22.214 22.089 21.919 21.794 21.686 21.709 21.581 21.439 21.619 21.826 21.576 21.658 20.735 20.427 20.484 20.822 22.298 29.175 25.472 21.458 20.152 19.954 20.319 19.872 19.925 19.864 20.679 23.581 24.694 22.714 20.079 20.051 20.231 20.811 19.869 19.786 19.936 19.746 20.051 19.919 26.049 23.536 21.854 22.839 19.581 19.176 19.254 22.229 19.321 19.296 19.221 19.226 19.081 19.006 18.891 18.926 18.876 18.841 18.809 18.791 18.711 18.686 18.646 18.609 18.584 18.541 18.476 18.419 18.389 18.306 18.246 18.156 18.111 18.096 18.019 17.984 18.072 18.092 18.022 18.132 18.027 18.027 18.012 17.759 17.859 17.799 18.032 17.927 17.809 17.564 17.572 17.317 17.459 17.187 16.979 16.819 16.814 16.734 16.397 16.482 16.587 16.197 16.252 16.284 16.347 16.164 16.122 16.037 15.994 16.039 15.949 15.819 15.799 15.809 15.929 15.859 15.824 16.017 15.837 15.737 16.094 16.337 16.174 15.914 15.797 15.842 15.907 15.784 15.742 16.424 16.679 17.354 18.349 16.924 15.967 15.909 16.534 17.549 16.684 15.542 17.104 16.134 17.867 19.339 18.474 16.989 16.424 16.594 16.672 16.699 16.954 17.104 16.889 16.747 17.022 16.699 17.122 16.942 17.027 17.554 16.514 16.262 15.749 15.557 15.532 15.499 15.432 15.464 15.344 15.282 15.222 15.164 15.124 15.267 15.357 15.107 15.027 14.959 14.962 14.887 14.884 14.774 14.727 14.649 14.644 14.722 14.734 14.722 14.762 15.272 15.134 14.914 14.614 14.422 14.337 14.107 13.882 14.052 14.192 14.117 13.912 13.852 13.682 13.599 13.569 13.494 13.394 13.479 13.462 13.412 13.314 12.994 12.847 13.009 13.032 13.089 12.889 12.277 11.589 11.219 11.364 13.547 10.557 10.592 10.804 10.869 11.404 12.027 12.552 13.264 13.652 13.247 13.369 13.522 14.137 14.264 13.792 13.822 13.762 13.854 13.972 14.114 14.304 14.809 15.107 16.619 18.037 17.252 15.529 15.627 15.522 15.212 15.547 15.814 15.577 15.554 15.622 15.694 19.057 17.042 20.714 17.189 16.007 15.927 15.852 16.389 16.874 16.542 16.534 16.444 17.352 23.379 20.652 16.839 17.372 17.322 17.322 17.577 17.212 17.237 17.442 17.854 17.882 17.054 17.252 16.844 17.059 16.797 16.889 16.914 17.119 17.182 17.392 17.584 18.577 18.742 17.842 21.762 22.532 18.392 17.789 17.837 17.762 17.784 17.897 17.874 18.007 18.104 18.154 18.187 18.264 18.309 18.357 18.632 18.627 18.727 20.264 20.219 19.832 20.474 19.557 19.974 19.609 19.779 19.869 20.422 20.544 20.334 20.409 20.512 20.729 21.662 22.932 25.117 25.582 24.954 25.102 24.102 25.544 25.402 26.729 25.062 23.909 22.492 24.334 27.517 26.144 26.784 24.984 25.312 26.872 25.644 25.492 25.237 24.637 24.574 24.742 25.352 24.582 25.374 26.399 26.064 27.867 28.194 29.199 32.872 29.382 30.754 31.147 32.587 30.089 30.002 30.047 29.809 28.439 27.259 29.187 39.162 32.822 28.599 28.404 28.622 29.657 28.782 28.902 28.934 28.979 31.289 33.439 30.942 30.589 30.854 30.837 30.939 31.139 31.464 31.692 31.899 32.487 32.647 33.284 33.399 34.319 34.589 33.794 33.922 33.994 34.649 35.684 37.997
31.044 29.541 27.194 26.641 26.619 27.056 26.856 25.354 24.976 24.706 25.966 27.321 25.061 24.389 24.004 23.834 23.889 23.741 23.384 23.296 24.841 27.944 22.921 22.741 22.589 22.401 22.241 22.099 21.944 22.074 21.804 21.769 21.579 21.566 21.304 22.241 22.486 22.259 22.068 20.175 20.601 20.693 20.978 20.803 25.143 23.197 21.701 20.805 20.103 20.227 20.037 20.352 19.932 19.886 19.764 21.084 20.551 19.831 20.499 19.944 21.391 20.839 20.214 19.926 20.224 21.256 21.399 21.339 24.319 21.351 22.536 22.021 19.416 18.629 20.804 18.361 18.264 18.326 18.511 18.794 18.929 18.984 19.221 18.939 18.814 18.806 18.814 18.779 18.654 18.601 18.566 18.551 18.446 18.459 18.446 18.446 18.354 18.321 18.289 18.219 18.159 18.187 18.064 18.072 17.929 17.897 17.832 17.779 17.664 17.674 17.624 17.614 17.574 17.534 17.509 17.667 17.517 17.522 17.552 17.514 17.632 17.572 17.517 17.504 17.497 17.167 16.977 17.377 17.054 16.672 16.764 16.717 16.752 16.519 16.072 16.124 16.392 16.212 16.179 16.122 16.142 16.152 16.222 16.034 16.362 16.809 16.974 15.902 16.102 16.039 15.952 15.912 16.037 16.182 16.032 16.122 16.292 16.387 16.622 16.402 16.789 17.372 17.529 17.179 16.739 16.174 15.674 15.904 16.874 18.154 17.654 16.464 16.462 16.314 16.262 16.187 16.464 16.537 16.574 16.749 16.564 16.652 16.782 16.479 16.694 16.667 17.124 16.347 16.169 15.699 15.639 15.634 15.609 15.582 15.514 15.469 15.382 15.297 15.269 15.169 15.122 15.232 15.317 15.194 15.117 15.037 14.979 15.004 14.962 14.852 14.804 14.789 14.837 15.087 15.292 15.339 15.589 15.672 15.469 15.007 14.452 14.302 14.129 14.227 14.349 14.544 14.549 14.542 14.187 13.884 13.684 13.622 13.692 13.622 13.689 13.702 13.612 13.552 13.482 13.404 13.472 13.417 13.262 12.927 12.242 13.277 11.467 11.089 10.827 10.652 10.402 12.844 12.174 12.307 12.159 12.979 14.354 13.784 13.964 13.882 13.927 14.157 14.312 14.247 14.209 14.137 13.997 14.059 14.164 14.342 14.732 16.387 15.622 15.839 15.392 15.537 15.454 15.354 15.329 15.544 15.629 15.749 15.794 15.734 15.837 15.722 17.229 16.597 15.922 15.869 15.919 16.277 16.434 16.612 16.567 16.507 16.557 17.082 18.732 16.784 16.819 17.467 17.304 17.534 17.564 16.999 17.104 17.884 18.009 16.982 16.817 16.804 16.767 16.882 17.359 18.594 17.049 17.134 17.214 17.267 17.347 17.972 17.732 17.639 19.659 20.744 17.742 17.719 18.147 17.939 17.959 18.047 18.169 18.182 19.084 22.857 18.747 18.294 18.369 18.534 18.639 22.269 20.382 18.814 19.699 19.142 19.329 19.389 19.609 19.674 19.794 19.947 20.144 20.309 21.357 20.892 20.537 20.714 21.132 23.304 25.547 25.224 25.272 25.167 25.487 23.309 25.397 25.484 27.209 27.489 24.079 24.192 26.897 27.572 28.827 24.859 26.797 28.384 26.797 27.004 26.114 25.667 24.694 25.014 25.822 26.012 27.117 27.209 26.497 28.767 30.332 31.772 29.374 29.687 30.052 31.489 32.904 30.614 30.122 34.804 33.342 28.219 29.692 33.347 36.492 32.314 29.867 28.804 28.639 30.779 30.677 31.042 31.729 29.534 30.977 33.104 30.767 30.259 30.607 30.924 31.052 31.124 31.417 31.694 31.894 32.177 32.477 32.837 33.082 35.164 33.852 33.792 33.877 34.052 34.482 34.824 37.714
26.741 29.486 27.731 26.614 26.776 26.916 26.176 25.266 26.476 29.534 24.531 24.349 24.196 24.051 23.994 23.839 23.566 23.451 23.299 23.239 23.074 22.966 22.726 22.534 22.404 22.269 22.079 22.219 21.844 22.399 22.066 21.571 21.354 21.324 21.346 21.184 22.761 22.691 20.313 20.465 20.76 20.796 21.162 21.621 22.086 23.189 24.966 21.563 22.254 20.282 20.21 20.157 19.994 19.846 19.796 22.589 22.964 19.966 20.216 23.456 22.989 22.849 20.204 20.044 20.026 22.019 21.441 20.746 25.941 20.011 22.326 20.106 22.779 22.094 20.961 19.231 18.921 18.639 18.554 18.501 18.876 18.076 19.146 18.849 18.921 19.354 19.061 18.934 18.861 18.889 18.726 18.599 18.411 18.414 18.419 18.331 18.246 18.286 18.259 18.194 18.134 18.159 18.084 18.047 17.997 17.939 17.954 17.889 17.794 17.754 17.707 17.627 17.662 17.599 17.519 17.467 17.397 17.364 17.327 17.269 17.229 17.172 17.127 17.104 17.022 17.019 17.062 17.044 17.069 17.117 17.224 17.147 17.279 17.002 16.874 16.932 17.084 17.202 17.352 17.157 16.919 16.954 16.947 16.977 16.667 17.064 17.767 17.047 16.922 16.567 16.929 17.052 16.897 16.374 16.489 17.002 16.634 17.052 17.602 17.377 18.222 20.442 20.259 18.107 18.059 16.597 15.922 15.852 15.927 15.982 15.989 16.054 16.069 16.072 16.037 16.014 15.967 15.912 15.882 15.842 15.884 15.802 15.779 15.762 15.684 15.702 15.664 15.674 15.669 15.584 15.539 15.504 15.442 15.454 15.372 15.329 15.299 15.217 15.144 15.207 15.159 15.097 15.169 15.197 15.009 15.002 14.939 14.967 14.937 14.962 14.887 14.882 14.902 15.054 15.429 15.514 15.727 15.687 15.579 15.067 14.692 14.609 14.352 14.379 14.534 14.629 14.709 14.577 14.349 14.084 13.819 13.757 13.882 13.954 14.037 14.209 14.162 14.099 13.987 13.724 13.522 13.314 13.162 13.142 12.254 12.842 12.232 11.569 12.004 12.694 10.427 11.427 14.367 13.647 13.259 13.369 13.504 13.719 13.792 13.997 14.192 14.274 14.249 14.439 14.404 14.369 14.127 14.104 14.289 14.414 14.672 15.034 14.892 15.127 15.267 15.484 16.057 15.674 16.647 15.522 15.587 15.637 15.644 15.734 15.742 15.699 15.714 15.767 15.832 15.849 16.204 16.477 16.637 16.594 16.649 16.822 17.397 16.897 16.722 16.794 16.842 17.909 17.502 17.832 17.759 17.142 17.822 17.684 17.417 17.264 17.437 17.997 16.867 18.097 20.319 22.807 19.054 17.274 17.432 17.344 17.392 17.482 17.554 17.597 18.214 18.024 19.077 17.959 18.269 18.884 18.289 18.154 18.149 18.152 18.859 21.267 18.467 18.324 18.452 18.554 19.869 22.924 28.339 20.119 20.059 19.687 19.337 19.472 19.649 20.712 20.059 20.077 20.192 22.897 22.589 21.954 22.164 21.797 21.189 22.592 24.807 25.699 25.129 27.092 27.107 25.844 24.377 25.934 25.659 31.294 25.664 23.257 25.927 25.897 26.734 27.892 28.792 29.729 30.032 27.549 27.177 26.912 25.717 26.282 26.632 26.867 27.619 28.017 29.237 29.279 31.747 29.819 29.002 29.914 28.049 29.212 29.912 28.767 31.794 34.557 32.077 35.759 36.567 33.839 32.952 34.287 32.547 29.752 28.817 33.667 33.867 34.092 34.287 34.559 33.879 33.819 31.299 30.387 30.619 30.859 30.897 31.057 31.334 31.657 31.889 32.124 32.362 32.554 35.779 35.624 34.062 33.659 34.182 34.247 34.809 34.944 39.504
26.791 26.514 27.114 27.346 26.619 25.936 25.504 25.959 26.856 25.041 24.406 24.281 24.099 24.116 23.871 23.644 23.486 23.331 24.549 24.271 25.331 26.026 24.761 22.319 22.384 22.544 22.124 24.046 22.569 21.999 21.534 21.269 21.041 21.104 21.191 21.329 21.191 20.751 23.389 21.798 21.023 20.856 20.876 20.632 23.447 28.005 26.213 28.016 25.044 20.536 20.283 20.304 20.356 19.925 19.871 21.126 20.866 20.064 20.049 21.146 21.389 20.746 21.994 20.141 20.984 22.129 22.121 22.296 23.976 20.421 20.521 23.554 19.994 20.571 19.716 19.664 19.446 19.316 19.124 19.044 19.134 18.861 18.794 19.561 18.569 20.391 19.844 18.281 19.024 19.701 18.834 19.266 18.744 18.419 18.436 18.409 18.396 18.359 18.274 18.199 18.119 18.064 18.027 17.942 17.969 17.954 17.929 17.842 17.852 17.782 17.737 17.787 17.699 17.619 17.607 17.532 17.482 17.489 17.409 17.362 17.317 17.284 17.202 17.182 17.167 17.069 17.072 17.047 16.942 16.939 16.882 16.822 16.854 16.814 16.759 16.834 16.744 16.727 16.777 16.859 16.747 16.822 16.757 16.892 16.774 16.919 16.799 17.014 17.029 16.812 16.744 16.792 16.814 16.774 17.007 17.102 17.227 17.477 17.657 17.389 17.417 18.044 17.342 17.604 16.967 16.244 16.217 16.152 16.329 16.239 16.462 16.327 16.307 16.454 16.619 16.392 16.144 16.294 16.072 16.139 16.167 16.012 15.974 15.912 15.882 15.889 15.937 15.884 15.799 15.704 15.692 15.734 15.687 15.634 15.507 15.474 15.414 15.367 15.267 15.227 15.142 15.082 15.052 14.999 14.964 14.904 14.827 14.782 14.774 14.757 14.684 14.664 14.604 14.547 14.622 14.494 14.502 14.559 14.479 14.399 14.354 14.232 14.152 14.274 14.267 14.039 13.972 14.069 13.814 13.634 13.654 13.614 13.782 14.054 14.177 14.167 14.787 14.657 14.377 14.007 13.697 13.409 13.382 13.134 13.044 12.879 13.214 11.302 12.612 10.884 12.919 11.957 13.787 13.817 14.274 13.794 13.414 13.772 14.057 13.857 13.979 14.177 13.927 14.027 14.234 14.452 14.244 14.214 14.344 14.499 14.684 14.854 15.439 15.134 15.922 16.587 15.822 15.809 15.649 15.602 15.564 15.669 15.642 15.734 15.952 17.027 15.894 15.884 15.887 16.052 16.137 18.107 16.722 16.809 16.852 17.884 17.932 17.504 16.812 17.002 17.014 17.112 17.357 19.847 23.104 17.967 17.599 17.964 18.422 17.484 18.794 20.094 21.567 22.757 22.024 27.847 22.417 17.649 17.464 17.522 17.737 17.664 17.664 17.674 17.864 17.914 17.912 18.164 18.059 20.252 27.287 18.837 18.264 18.334 18.334 18.509 18.549 18.544 18.547 18.704 19.642 19.289 19.084 19.224 19.654 19.694 19.517 19.692 19.922 20.572 20.167 20.219 20.364 22.769 21.112 24.034 23.904 21.537 21.562 22.454 24.467 24.154 24.619 24.967 25.572 25.564 26.294 26.044 26.802 28.247 26.322 24.389 28.334 29.354 27.439 31.522 33.322 27.924 26.272 26.027 27.069 27.132 26.404 25.749 27.329 30.969 32.234 30.879 32.004 28.339 34.552 32.609 29.494 28.547 26.402 27.002 26.867 30.112 31.662 32.204 32.687 35.977 36.054 37.767 37.264 37.704 32.714 30.887 28.544 33.557 33.962 33.727 33.812 34.869 35.299 34.934 32.259 30.482 30.854 30.789 30.857 30.964 31.214 31.494 31.727 31.972 32.814 32.387 36.359 34.459 33.837 34.354 34.374 34.849 35.012 35.034 40.074
28.111 26.724 27.554 26.861 25.726 25.196 24.926 24.769 24.611 24.369 24.301 24.186 24.031 23.829 23.726 23.534 23.291 23.469 24.451 24.896 22.976 24.481 24.686 22.669 22.056 21.856 22.664 24.079 24.756 22.781 21.376 21.326 21.689 21.141 20.966 25.916 24.204 22.411 25.771 25.512 22.391 20.743 20.93 20.658 21.117 21.353 22.266 25.043 22.359 20.545 20.424 20.629 20.21 19.997 20.189 21.656 22.659 20.189 20.171 20.559 20.309 20.329 20.324 20.731 20.211 21.634 25.889 21.044 26.531 26.314 25.881 23.184 20.009 19.969 19.886 19.714 19.684 19.546 19.484 20.736 19.511 19.134 18.889 18.764 18.749 18.711 18.846 18.639 18.649 18.434 18.866 19.439 19.836 18.119 17.974 18.011 18.161 18.286 18.239 18.226 18.224 18.174 18.184 18.087 18.034 17.984 17.932 17.834 17.799 17.769 17.707 17.652 17.637 17.619 17.564 17.512 17.457 17.454 17.407 17.399 17.302 17.319 17.284 17.229 17.154 17.119 17.142 17.094 17.027 17.049 17.027 16.967 16.944 16.934 16.897 16.892 16.857 16.842 16.817 16.812 16.807 16.772 16.774 16.679 16.717 16.679 16.709 16.674 16.624 16.639 16.597 16.647 16.642 16.649 16.629 16.622 16.589 16.612 16.647 16.614 16.624 16.659 16.677 16.547 16.487 16.474 16.429 16.442 16.937 16.944 16.864 17.099 17.072 17.329 17.137 17.309 17.384 17.092 17.374 17.414 17.132 16.594 17.017 17.164 16.614 16.574 16.819 16.484 16.584 16.324 16.257 16.504 16.354 16.144 16.129 16.109 16.324 16.279 16.147 15.644 15.592 15.587 15.877 15.582 15.167 15.204 15.067 15.114 15.059 14.967 14.982 14.872 14.762 14.724 14.722 14.737 14.699 14.667 14.592 14.529 14.537 14.424 14.282 14.209 14.044 13.912 13.819 13.724 13.622 13.577 13.519 13.479 13.424 13.374 13.269 13.292 13.659 14.189 13.934 13.462 13.449 13.132 13.152 13.032 12.972 13.804 12.762 13.222 13.882 10.619 12.882 14.052 13.317 14.167 15.392 14.449 13.504 13.489 13.514 13.112 13.549 13.629 13.612 13.707 13.932 14.207 14.457 14.354 14.439 14.584 14.737 14.907 15.677 16.222 19.577 19.657 16.509 17.824 18.409 15.879 15.607 15.639 16.272 15.882 17.244 16.497 15.977 15.942 16.064 16.042 20.732 20.377 16.699 16.842 17.159 18.629 20.232 17.019 17.152 17.092 17.354 17.232 17.817 17.412 17.679 17.679 16.949 17.977 17.149 17.564 19.249 18.227 18.897 17.529 23.214 26.824 22.662 22.502 17.594 17.562 17.667 17.994 17.877 19.589 19.279 19.537 18.077 18.142 18.249 19.674 23.909 18.439 18.394 18.364 18.457 18.552 18.579 18.822 18.759 18.897 19.074 21.394 19.414 20.454 20.237 19.722 19.707 19.837 21.214 20.207 21.737 20.507 21.139 21.952 21.097 22.919 23.427 22.077 21.829 22.034 24.967 25.294 24.162 24.422 25.679 25.454 26.269 26.459 27.472 28.532 28.119 26.944 28.872 29.342 27.867 30.974 35.817 28.534 26.369 26.937 28.494 28.562 28.944 26.827 25.069 29.177 31.479 27.559 31.609 28.527 35.567 30.159 29.907 28.882 28.564 28.464 26.767 28.482 32.352 29.509 30.599 32.794 37.174 38.329 37.622 36.239 34.044 30.209 28.997 33.654 34.229 33.857 33.769 33.467 33.899 33.322 31.534 34.197 32.659 32.497 30.767 31.124 31.317 31.534 31.779 32.009 32.267 37.329 37.662 36.194 34.139 33.899 34.927 35.377 34.862 36.474 38.969
27.486 26.454 25.851 25.409 25.579 25.101 24.826 24.631 24.476 24.279 24.099 24.044 24.006 29.336 30.004 26.104 24.564 23.499 25.844 31.686 31.839 29.934 25.851 23.876 22.424 22.059 23.626 25.169 25.399 24.676 22.734 21.566 22.701 23.021 21.756 24.306 29.006 21.234 20.624 20.63 20.792 20.688 20.719 20.711 21.005 21.362 21.008 22.384 22.442 20.661 21.025 20.226 20.791 21.803 20.251 23.729 24.589 26.511 21.566 23.481 20.574 20.379 20.586 20.361 20.304 20.399 20.541 20.931 24.264 23.629 22.101 20.334 20.101 20.191 19.976 19.949 19.869 19.731 19.639 21.961 19.416 19.254 19.039 19.014 18.884 18.721 18.631 18.676 18.594 18.561 18.521 18.431 19.206 20.946 23.234 20.506 18.164 18.359 19.041 18.564 18.174 18.314 19.057 18.124 18.202 17.852 17.857 17.857 17.844 17.864 17.797 17.794 17.752 17.664 17.597 17.569 17.527 17.444 17.362 17.329 17.309 17.262 17.202 17.207 17.104 17.049 17.069 17.062 17.022 16.969 16.934 16.994 16.959 16.932 16.939 16.899 16.929 16.879 16.857 16.862 16.827 16.834 16.802 16.819 16.794 16.817 16.799 16.797 16.749 16.779 16.729 16.742 16.712 16.729 16.724 16.714 16.719 16.707 16.704 16.699 16.632 16.627 16.632 16.682 16.637 16.702 16.607 16.624 16.632 16.562 16.564 16.527 16.529 16.614 16.517 16.467 16.487 16.399 16.572 16.507 16.599 16.557 16.457 16.474 16.442 16.484 16.474 16.817 16.924 17.187 16.369 16.607 16.794 16.619 16.769 16.514 16.554 16.467 16.757 16.619 16.692 16.709 16.632 16.147 16.372 15.949 15.947 15.944 15.897 15.779 15.502 15.487 15.324 15.174 15.259 14.967 14.914 15.087 15.052 14.947 14.992 15.042 15.109 14.907 14.677 14.714 14.592 14.447 14.219 14.204 14.144 14.132 13.949 13.637 13.434 13.479 13.667 14.082 13.994 13.662 13.274 13.002 12.937 12.912 12.669 13.972 13.214 13.022 11.392 12.007 12.699 13.584 13.469 13.519 14.394 14.654 13.999 13.367 14.509 14.724 14.674 14.074 14.169 13.859 14.149 14.192 14.497 14.492 14.474 14.609 15.034 15.744 15.949 16.259 17.524 17.487 16.524 20.062 19.004 15.909 16.649 15.959 16.227 16.547 17.044 16.607 16.774 16.212 16.217 16.232 17.759 17.754 22.622 17.344 17.119 18.037 17.687 17.149 17.077 17.007 17.264 17.452 18.517 17.102 17.049 18.112 19.344 17.554 17.362 18.202 20.542 17.939 17.529 17.514 17.637 18.832 23.724 17.957 17.942 17.829 18.504 20.959 18.307 18.974 19.034 18.444 18.444 18.874 18.649 18.537 19.944 22.289 18.704 18.722 18.704 18.734 18.812 18.919 18.984 19.104 19.277 19.372 19.369 19.527 19.724 20.104 19.884 20.037 20.492 20.914 20.859 22.807 21.872 22.004 21.142 21.327 22.252 21.834 22.029 22.424 25.312 25.532 25.174 25.117 25.327 26.062 26.624 25.529 28.819 25.807 25.879 26.917 27.967 31.529 34.519 35.869 33.484 26.954 27.107 27.549 27.554 29.909 28.929 28.859 27.119 27.924 28.662 27.097 29.362 29.842 30.244 29.584 28.794 28.354 28.084 29.502 30.219 29.049 28.242 30.477 30.904 31.387 35.499 35.167 36.164 34.514 31.679 29.474 28.529 33.077 34.157 33.647 33.629 32.117 31.369 30.304 32.937 38.077 40.714 36.822 32.014 31.274 31.564 31.774 32.042 32.289 32.624 35.219 36.722 34.404 34.217 34.147 34.392 34.742 34.912 37.502 38.979
25.609 25.514 25.984 25.344 25.316 25.131 24.759 24.571 24.391 24.189 24.051 23.919 28.854 36.564 38.466 36.174 26.496 30.386 33.674 27.364 31.429 30.649 28.116 25.849 22.244 25.294 28.386 29.389 26.654 23.409 22.084 21.756 22.919 22.516 25.861 29.751 27.209 20.571 20.649 20.425 20.481 20.706 20.786 21.01 21.503 22.639 25.065 23.537 23.332 21.495 21.762 20.765 20.896 25.171 23.259 30.456 25.034 26.021 25.286 21.504 20.479 20.564 20.464 20.581 20.604 20.571 23.946 23.866 25.099 24.266 21.984 20.704 20.221 20.209 20.109 19.976 19.901 19.831 19.771 19.586 19.491 19.314 19.181 19.126 19.139 21.614 18.759 18.586 18.551 18.541 18.461 18.439 18.579 20.114 19.834 18.654 18.294 18.244 18.174 18.074 18.879 18.866 18.476 17.886 17.804 17.604 17.794 17.491 17.311 17.689 17.401 17.619 17.361 17.481 17.349 17.514 17.566 17.504 17.419 17.361 17.304 17.374 17.301 17.316 17.269 17.189 17.176 17.134 17.074 17.024 17.014 16.971 16.931 16.896 16.879 16.871 16.864 16.811 16.796 16.789 16.806 16.756 16.784 16.756 16.744 16.756 16.779 16.741 16.771 16.761 16.726 16.707 16.722 16.734 16.729 16.704 16.734 16.739 16.734 16.729 16.709 16.729 16.722 16.714 16.707 16.734 16.682 16.664 16.669 16.722 16.727 16.622 16.644 16.637 16.622 16.632 16.552 16.522 16.494 16.447 16.452 16.424 16.374 16.367 16.339 16.297 16.214 16.192 16.172 16.142 16.117 16.022 16.022 15.949 15.907 15.897 15.844 15.787 15.722 15.699 15.667 15.624 15.614 15.752 15.554 15.457 15.497 15.424 15.404 15.697 15.507 15.549 15.442 15.274 15.172 15.322 15.397 15.392 15.502 15.212 15.297 15.362 15.407 15.637 15.282 15.117 15.097 15.027 15.137 14.997 15.097 15.007 15.594 15.562 15.812 15.569 14.967 14.137 14.297 14.277 14.122 13.949 14.494 15.392 13.812 13.744 13.272 12.082 11.744 12.747 13.902 14.007 13.452 13.864 14.269 14.322 14.389 14.954 15.579 15.164 17.094 15.129 15.097 14.539 14.774 14.949 14.727 14.592 14.594 16.129 18.014 17.294 15.724 15.912 15.997 18.069 15.732 16.972 17.369 17.402 18.237 16.547 16.717 17.684 16.269 16.724 16.559 16.412 17.269 20.442 18.679 19.047 23.074 16.844 17.197 17.194 17.074 17.419 17.107 16.979 17.312 17.422 17.392 17.177 18.042 17.449 18.707 18.369 18.602 17.484 18.204 17.842 20.417 17.922 17.834 17.877 18.097 18.512 18.032 18.377 18.377 18.562 18.319 18.349 19.332 18.509 19.797 20.264 19.024 18.784 21.664 19.957 19.232 18.932 19.097 20.334 19.149 19.454 19.417 19.537 19.539 19.707 19.702 19.929 20.004 20.659 25.224 21.279 21.154 20.779 20.922 26.169 21.722 21.404 21.439 22.102 22.019 21.937 22.194 22.449 31.294 32.569 26.192 25.122 25.024 24.854 25.784 25.994 23.324 23.354 25.762 26.707 28.177 29.807 29.592 30.479 28.327 26.307 26.589 27.327 27.609 27.064 27.332 27.777 26.169 28.357 28.299 29.882 29.632 29.494 30.932 30.204 28.782 29.094 30.744 29.267 28.772 28.307 29.504 30.574 30.129 29.207 33.027 35.124 31.722 28.284 28.207 29.607 28.402 28.874 30.009 30.924 30.004 29.774 29.599 30.777 34.457 39.349 34.624 35.169 31.269 31.484 31.684 31.992 32.389 32.742 32.814 34.587 37.769 36.089 34.417 34.314 34.432 34.617 35.252 37.462 39.177
25.604 25.424 25.309 25.136 24.964 25.049 24.736 24.531 24.381 24.181 24.044 23.909 29.034 37.016 42.134 39.859 34.884 32.576 31.431 35.106 32.381 28.681 29.066 26.984 24.944 24.469 24.536 23.411 22.764 24.659 23.821 22.821 22.136 24.179 22.271 27.366 23.569 20.634 20.639 20.808 20.281 20.711 21.269 21.091 21.307 25.674 31.108 28.025 24.663 20.837 20.793 20.777 20.746 21.268 20.516 21.166 20.556 29.496 23.069 20.561 20.619 20.601 20.661 20.611 20.566 20.659 22.684 23.241 23.499 20.576 20.499 20.419 20.346 20.346 20.291 20.101 19.996 19.921 19.814 19.696 19.569 19.446 19.299 21.871 22.121 20.896 21.154 19.286 19.754 18.629 18.534 18.499 18.486 18.396 18.224 19.939 18.184 18.144 18.471 18.349 18.149 18.654 19.246 17.981 17.909 17.896 17.986 17.851 17.641 17.726 17.521 18.084 17.379 17.814 17.494 17.726 17.264 17.369 17.844 18.624 16.919 17.906 16.859 17.101 17.051 17.104 17.146 17.084 17.649 17.186 17.146 17.194 18.556 17.401 17.039 17.044 16.976 16.934 16.911 16.921 16.864 16.851 16.841 16.851 16.826 16.839 16.849 16.751 16.724 16.764 16.699 16.737 16.674 16.697 16.694 16.662 16.664 16.652 16.639 16.619 16.677 16.644 16.677 16.652 16.647 16.602 16.652 16.642 16.659 16.629 16.597 16.587 16.624 16.612 16.597 16.584 16.549 16.544 16.504 16.464 16.464 16.424 16.447 16.412 16.349 16.299 16.254 16.282 16.219 16.192 16.199 16.127 16.112 16.042 16.012 15.927 15.959 15.892 15.819 15.774 15.752 15.657 15.622 15.609 15.609 15.537 15.459 15.369 15.382 15.319 15.327 15.257 15.197 15.122 15.117 15.032 15.004 14.917 14.917 14.847 14.812 15.037 15.352 14.797 14.677 14.577 14.549 14.469 14.444 14.377 14.329 14.304 14.332 14.462 14.377 14.582 14.372 14.112 14.079 14.027 14.014 13.979 14.227 14.047 14.049 13.867 13.917 13.784 13.927 13.789 13.549 14.002 13.884 13.944 14.069 14.032 14.074 14.272 14.324 15.032 15.829 15.074 14.757 14.652 14.814 14.804 14.894 14.824 15.009 17.697 21.564 19.154 17.444 18.422 16.742 16.282 15.934 18.757 19.032 18.492 19.514 18.164 16.342 17.439 18.122 16.962 16.657 16.709 17.092 17.559 16.867 17.632 23.407 17.127 19.832 19.427 21.104 18.407 17.547 17.252 17.364 18.122 17.837 18.712 18.412 18.059 18.064 19.624 19.889 19.799 19.089 19.327 20.872 19.507 20.834 19.114 19.154 19.934 18.684 19.292 19.899 18.967 19.229 19.292 21.179 21.437 21.592 20.832 22.414 22.074 25.592 20.759 19.962 20.904 20.559 21.014 20.037 21.237 20.264 22.629 21.462 20.717 20.927 20.729 22.169 20.867 22.924 23.812 23.904 23.714 21.812 24.062 21.664 21.919 22.844 22.147 22.122 22.464 22.434 23.394 33.427 31.394 25.427 25.094 24.424 25.234 26.312 24.492 24.504 26.559 24.934 25.909 28.039 28.507 28.194 26.794 29.959 27.454 28.134 27.459 27.117 27.627 27.592 30.109 26.822 27.654 31.889 29.734 29.519 33.307 29.994 29.419 28.242 28.897 30.014 29.394 29.287 29.562 30.289 30.652 29.919 32.182 31.894 30.272 31.554 28.147 28.344 29.514 28.782 29.042 29.457 29.277 29.517 29.589 29.812 31.374 32.112 34.419 33.022 31.214 31.509 31.787 32.042 32.154 32.669 33.009 33.159 37.752 39.559 37.429 34.597 34.587 34.727 34.887 35.944 36.727 37.712
25.554 25.486 25.134 25.039 24.981 24.914 25.001 24.469 24.289 24.164 24.029 23.844 25.376 32.369 40.036 37.564 38.106 30.649 36.699 34.859 25.839 25.224 26.411 23.189 25.146 23.309 25.126 22.851 24.724 23.361 23.226 22.076 22.056 22.319 20.799 20.736 20.694 20.669 21.066 20.944 20.374 20.478 21.744 21.507 22.912 26.331 30.371 29.315 24.34 21.763 20.671 21.125 20.774 21.078 21.574 21.454 21.939 22.106 21.379 20.759 20.726 21.081 21.381 20.761 20.679 20.711 20.839 20.834 20.721 20.739 20.666 20.751 20.559 20.369 20.306 20.284 20.144 19.999 19.891 19.756 19.659 19.526 20.506 20.584 23.724 24.734 21.911 18.811 18.691 18.626 20.384 20.231 18.721 18.331 18.179 18.316 18.216 18.124 18.021 19.239 20.176 18.139 18.289 18.004 17.974 17.991 17.886 17.906 17.676 17.669 17.646 17.624 17.681 17.604 17.969 17.991 17.986 17.881 18.616 18.786 18.546 17.551 17.221 17.611 19.381 17.954 17.189 17.991 16.901 16.906 16.716 17.049 17.089 16.831 17.696 17.029 17.041 16.679 16.779 16.966 17.159 16.841 16.781 16.766 16.766 16.694 19.819 17.711 17.516 18.141 16.829 16.887 16.897 16.962 16.929 16.819 16.779 16.727 16.724 16.734 16.709 16.679 16.659 16.704 16.632 16.654 16.817 17.204 17.064 17.472 17.442 17.372 17.509 17.037 17.014 17.102 16.872 16.779 16.899 16.704 16.717 16.547 16.577 16.389 16.352 16.317 16.249 16.282 16.232 16.124 16.109 16.097 16.079 16.069 16.004 15.932 15.859 15.777 15.759 15.742 15.662 15.659 15.664 15.574 15.487 15.492 15.439 15.459 15.379 15.362 15.324 15.307 15.247 15.204 15.157 15.104 15.064 15.072 14.997 14.929 14.972 14.874 14.897 14.894 14.747 14.709 14.632 14.602 14.604 14.497 14.429 14.372 14.354 14.272 14.252 14.214 14.174 14.147 14.109 14.079 14.017 13.987 13.972 13.934 13.922 13.897 13.854 13.849 13.864 13.874 13.857 13.924 13.949 14.002 14.042 14.029 14.059 14.127 14.189 14.252 14.344 14.382 14.477 14.569 14.622 14.684 14.742 14.802 14.882 15.559 19.597 17.747 15.937 16.282 15.392 15.529 15.474 16.747 20.159 18.774 19.987 20.994 15.957 16.364 16.112 16.137 16.182 16.234 16.329 16.409 16.514 16.597 17.589 16.717 16.822 16.857 18.349 19.837 19.017 17.214 17.214 17.369 17.402 17.464 17.564 17.629 17.714 18.622 18.157 17.987 18.087 18.042 18.344 19.289 18.479 18.409 18.532 20.474 19.832 20.192 18.852 18.867 18.902 19.044 19.049 21.094 19.564 19.934 20.177 19.914 19.857 19.712 19.809 20.064 20.077 20.094 22.682 25.999 24.162 24.019 23.177 21.167 21.107 22.019 21.227 21.397 23.049 23.994 23.317 21.999 22.067 22.107 22.359 22.537 23.174 24.919 22.952 23.052 23.004 26.082 30.214 29.929 24.234 24.712 24.742 24.439 24.767 27.167 25.402 25.579 26.827 25.509 26.292 28.007 27.837 27.679 30.169 29.322 29.804 27.227 26.512 29.127 28.029 28.269 28.702 28.599 30.247 30.284 33.732 33.189 32.659 30.332 29.957 29.734 29.072 31.779 29.207 29.449 30.624 30.109 30.979 31.707 34.677 34.807 33.052 28.859 28.549 28.934 28.729 30.194 29.967 29.487 30.129 30.282 30.234 30.604 31.274 35.044 34.927 33.567 32.107 32.289 32.847 32.519 33.357 33.139 34.044 35.572 38.139 37.507 34.602 34.707 35.542 35.099 35.832 36.089 35.572
26.966 27.341 25.184 24.974 24.971 24.864 24.864 24.341 24.186 24.089 23.981 23.799 25.236 29.331 36.129 31.246 35.586 34.696 35.931 31.504 24.741 23.581 24.499 23.769 22.954 23.196 22.056 22.116 25.121 23.509 22.399 23.656 24.989 23.046 21.396 20.864 20.631 20.691 20.691 20.654 20.661 20.668 21.439 23.682 25.356 23.606 23.252 24.254 21.244 20.733 21.211 21.278 24.547 23.762 20.97 21.016 20.841 21.121 23.086 20.826 21.119 21.409 21.099 20.986 20.924 20.964 20.901 20.901 20.854 20.811 20.826 20.834 20.641 20.561 20.411 20.461 20.494 20.164 19.974 20.004 19.881 19.724 19.544 24.194 19.734 21.744 24.274 18.964 18.814 18.721 19.356 19.804 19.321 19.026 18.346 18.149 18.106 18.086 18.211 19.299 20.244 18.764 18.361 18.014 17.991 18.261 17.834 17.811 17.666 17.789 17.656 17.634 17.631 17.566 18.056 17.774 17.621 17.516 18.169 17.419 17.966 20.649 18.451 17.661 17.556 17.379 17.271 17.091 17.189 16.979 17.056 16.926 17.201 17.149 16.861 16.824 16.839 17.374 16.741 16.981 17.174 16.539 16.439 16.751 18.041 19.049 17.089 18.044 17.741 18.379 18.189 16.537 16.482 16.512 16.237 16.252 16.577 17.237 16.462 16.344 17.354 16.394 16.357 19.017 17.687 16.769 16.807 17.012 17.419 17.227 17.789 17.759 17.969 17.694 17.579 18.002 17.769 17.527 17.522 17.772 17.707 17.529 17.354 17.254 17.394 17.569 16.984 17.249 17.484 17.227 16.949 16.809 16.784 16.882 16.737 16.599 16.492 16.202 16.314 16.112 15.984 16.029 15.939 15.707 15.737 15.514 15.464 15.452 15.397 15.399 15.434 15.264 15.189 15.119 15.084 15.032 15.002 14.919 14.932 14.872 14.827 14.787 14.769 14.712 14.694 14.704 14.609 14.562 14.539 14.444 14.382 14.392 14.324 14.322 14.244 14.212 14.209 14.169 14.114 14.114 14.039 14.009 13.999 13.934 13.939 13.922 13.909 13.944 13.979 13.924 13.964 13.984 14.089 14.092 14.089 14.142 14.182 14.217 14.282 14.329 14.374 14.462 14.559 14.627 14.677 14.732 14.809 14.952 14.957 15.037 15.149 16.022 19.064 16.549 15.404 15.432 15.522 15.587 15.687 15.804 16.012 15.934 15.999 16.064 16.174 16.222 16.272 16.347 16.377 16.482 16.552 16.649 16.739 16.797 16.872 16.919 17.034 19.044 18.024 17.204 17.289 17.377 17.402 17.487 17.587 17.662 17.702 17.774 17.872 17.917 17.997 18.072 18.159 18.177 18.289 18.342 18.377 18.469 18.572 18.684 18.759 18.862 18.877 18.959 19.007 19.099 19.189 19.274 19.389 19.419 19.529 19.579 19.699 19.822 19.904 20.162 22.414 28.472 30.049 29.389 26.657 25.924 22.217 20.797 20.947 21.089 21.119 21.234 21.342 21.457 21.597 21.717 21.889 21.939 22.087 22.157 22.267 22.429 22.574 23.487 27.164 32.722 25.574 23.199 23.337 23.447 23.614 23.882 23.969 24.129 24.309 24.379 24.374 24.962 25.179 27.302 27.617 29.617 27.322 25.417 25.934 26.424 26.894 26.307 26.467 28.132 28.934 31.362 31.297 29.744 28.312 27.799 28.274 27.962 29.464 29.429 28.849 29.212 29.322 28.784 28.722 29.379 31.889 32.457 31.177 28.629 28.737 28.859 28.977 29.552 33.232 30.869 30.119 30.662 31.512 31.414 32.132 34.452 34.979 35.082 33.964 33.662 34.104 34.639 35.332 36.074 36.619 37.452 35.882 35.789 35.159 35.594 35.394 36.389 37.429 37.759 37.122
28.376 28.496 25.871 24.876 24.866 24.624 24.481 24.594 24.101 24.119 25.466 23.729 23.556 28.444 28.649 25.484 37.191 36.689 32.756 25.129 22.571 25.719 25.416 23.884 24.579 24.266 22.879 23.329 25.191 26.556 26.244 22.416 23.506 23.696 25.546 21.151 20.524 20.461 21.596 20.896 23.685 22.928 22.281 23.173 24.661 26.111 21.793 21.091 20.971 20.655 20.984 20.69 20.84 20.783 20.719 21.696 22.164 24.886 23.721 20.969 20.996 20.954 21.311 21.134 21.124 21.051 21.049 21.219 21.554 21.694 21.061 20.901 21.041 20.599 20.559 20.426 20.276 20.176 21.961 20.444 24.169 20.386 19.744 19.711 19.514 21.739 22.979 21.681 19.224 20.446 19.151 19.629 18.806 18.601 18.361 18.249 18.081 18.116 18.181 18.634 19.324 18.191 18.079 18.854 18.676 17.974 19.466 17.814 20.434 18.614 17.684 17.746 17.666 17.806 17.709 18.204 17.594 17.564 17.506 18.184 17.514 22.259 19.076 17.699 17.366 17.239 17.511 17.434 17.204 17.279 17.216 18.731 16.976 16.934 17.004 16.846 17.091 17.004 17.564 17.166 17.019 16.776 16.784 16.636 17.101 17.771 17.844 18.676 17.394 17.479 18.481 17.854 16.624 16.662 17.429 17.979 21.264 20.632 18.092 17.727 18.237 20.929 18.429 16.799 18.349 19.349 16.709 16.674 16.692 16.794 17.027 17.104 17.184 17.134 17.052 16.972 16.827 16.889 16.802 16.734 16.657 16.642 16.667 16.642 16.769 16.837 16.822 16.772 16.669 16.687 16.552 16.607 16.614 16.529 16.444 16.462 16.699 16.544 16.697 16.772 16.587 16.697 16.714 16.677 16.402 16.152 16.487 16.562 16.497 16.432 16.387 16.309 16.174 16.157 15.782 15.954 15.877 15.692 15.657 15.564 15.124 15.372 15.327 15.437 15.267 14.979 14.862 15.069 14.639 14.624 14.729 14.684 14.399 14.359 14.402 14.212 14.219 14.167 14.112 14.072 13.992 13.959 13.934 13.972 13.887 13.967 13.974 13.907 13.909 13.894 13.949 13.974 14.037 14.014 14.064 14.969 14.939 15.622 14.267 14.279 14.399 14.459 14.514 14.557 14.677 14.739 14.829 14.892 14.914 15.039 15.094 15.167 15.279 15.262 15.314 15.397 15.514 15.622 15.642 15.784 15.872 15.944 16.022 16.069 16.149 16.192 16.322 16.397 16.482 16.502 16.579 16.667 16.722 16.789 16.914 17.002 17.024 17.152 17.139 17.229 17.317 17.337 17.427 17.499 17.557 17.637 17.702 17.787 17.854 17.952 17.962 18.017 18.149 18.222 18.294 18.374 18.447 18.512 18.532 18.634 18.709 18.799 18.874 18.954 19.037 19.149 19.202 19.294 19.387 19.479 19.564 19.634 19.767 19.884 19.907 20.104 21.609 23.854 25.302 26.122 22.879 21.369 20.699 20.827 20.914 21.002 21.099 21.237 21.369 21.509 21.607 21.727 21.842 21.987 22.122 22.199 22.287 22.449 22.582 22.714 24.139 26.589 24.067 23.239 23.304 23.469 23.607 23.724 23.882 24.027 24.214 24.334 24.404 24.499 24.667 24.977 27.954 29.329 25.074 25.269 25.407 25.504 25.647 25.797 25.869 26.034 26.119 26.337 26.354 26.462 26.587 26.784 26.909 27.054 27.172 27.339 27.497 27.624 27.717 27.864 28.029 28.204 28.314 28.479 28.599 28.747 28.904 29.077 29.214 29.572 30.599 29.964 30.134 30.289 30.659 30.864 30.907 32.709 32.224 32.432 32.842 34.339 34.272 34.259 35.474 35.787 36.904 36.679 36.114 36.144 35.569 36.047 36.014 37.099 38.379 39.867 38.372
