ncols 440
nrows 32
xllcorner    456012
yllcorner    86230
cellsize     2
NODATA_value -9999
17.626 17.594 17.506 17.416 17.354 17.291 17.219 17.124 17.066 16.991 16.911 16.841 16.734 16.674 16.561 16.506 16.416 16.341 16.269 16.186 16.114 16.021 15.916 15.809 15.751 15.674 15.651 15.574 15.496 15.421 15.359 15.361 15.354 15.286 15.231 15.211 15.184 15.119 15.071 15.016 14.959 14.824 14.706 14.649 14.536 15.986 13.326 13.309 13.241 13.011 12.774 12.819 12.741 12.976 12.549 12.404 12.656 13.244 13.036 14.086 13.834 13.479 13.396 13.156 12.814 12.436 12.094 12.204 13.511 12.629 11.999 12.131 12.154 12.254 12.876 11.871 11.644 11.628 12.225 11.474 11.136 11.19 11.066 11.204 13.448 11.45 11.215 11.388 11.918 11.295 12.095 12.282 12.625 12.42 12.606 12.022 12.596 12.914 12.098 11.296 11.752 11.451 11.214 11.235 11.512 11.867 11.739 12.278 12.858 13.707 14.45 14.37 14.116 14.209 14.304 14.379 14.479 14.584 14.726 14.946 14.966 15.054 15.274 15.266 15.529 15.691 15.601 15.811 15.774 15.809 15.854 16.121 16.109 16.216 16.479 16.366 16.404 16.451 16.534 16.679 16.719 16.689 16.909 16.739 17.252 17.614 18.094 18.319 18.414 18.179 17.797 17.452 17.737 17.404 17.397 17.987 17.899 17.134 17.314 17.594 18.052 17.577 17.197 17.089 17.092 17.057 17.337 17.132 17.532 17.164 17.282 17.202 17.212 17.474 17.339 17.309 17.224 17.359 17.377 17.249 17.304 17.114 17.092 17.052 17.014 16.952 17.314 16.982 16.962 17.457 17.309 17.167 17.364 17.004 17.037 17.267 17.214 17.254 17.097 17.524 18.279 17.979 17.614 17.124 17.054 17.367 16.799 16.849 16.784 16.622 16.657 16.499 16.442 16.439 16.387 16.189 16.139 16.284 16.309 16.379 16.684 17.322 16.619 16.784 16.847 16.937 17.182 17.574 17.102 17.172 17.244 17.877 17.352 17.924 17.704 17.552 17.522 17.412 17.584 17.309 17.302 17.579 17.382 17.372 17.369 17.479 17.254 17.047 16.954 17.009 16.862 16.634 16.582 16.454 16.334 16.497 16.409 16.447 16.354 16.129 15.967 16.257 15.969 15.967 16.297 15.927 15.829 15.884 15.649 15.719 15.654 15.399 15.379 15.304 15.382 15.649 15.392 15.419 15.389 15.389 14.989 15.063 15.193 15.119 14.883 15.087 15.043 14.628 14.674 14.492 14.649 14.637 14.267 14.297 14.214 14.414 14.489 14.007 14.262 13.907 14.367 14.044 14.157 13.997 13.879 14.037 13.799 13.469 13.829 13.462 13.597 13.827 13.382 13.247 13.787 13.949 13.599 13.504 13.737 13.672 13.622 13.899 13.837 13.187 13.849 13.344 13.304 13.107 13.132 13.957 13.534 13.147 12.947 13.299 13.169 12.654 12.579 12.592 12.697 12.719 12.324 12.227 12.084 12.002 11.862 11.779 11.707 11.632 11.584 11.534 11.462 11.444 11.399 11.352 11.312 11.277 11.224 11.197 11.139 11.092 11.077 11.032 11.012 10.964 10.944 10.889 10.857 10.804 10.762 10.699 10.649 10.609 10.569 10.567 10.519 10.492 10.449 10.417 10.427 10.427 10.424 10.379 10.367 10.354 10.322 10.267 10.197 10.139 10.027 9.934 9.794 9.729 9.729 9.717 9.76 11.577 10.227 8.86 8.7 8.535 8.472 8.412 8.387 8.33 8.26 8.11 7.955 7.752 7.565 7.365 7.107 6.875 6.662 6.4 6.122 5.902 5.872 5.8 6.817 6.067 5.567 4.822 5.455 5.725 6.157 5.525 5.19 5.142 5.062 5 4.995 4.957 4.95 5 5.06 5.08 5.062 5.035 5.05 5.082
17.641 17.514 17.469 17.404 17.331 17.261 17.206 17.121 17.044 16.969 16.911 16.826 16.729 16.659 16.566 16.494 16.434 16.309 16.264 16.169 16.076 16.026 15.934 15.826 15.771 15.704 15.621 15.544 15.479 15.421 15.401 15.401 15.366 15.284 15.259 15.239 15.171 15.119 15.076 15.001 14.954 14.864 14.776 14.649 14.566 15.721 14.081 13.156 13.176 13.064 13.029 12.951 12.801 12.804 12.746 12.529 13.529 12.706 12.801 12.836 13.104 13.096 13.266 13.011 12.569 12.586 12.644 12.964 13.794 13.566 12.316 12.259 11.919 11.8 11.869 11.793 11.745 12.44 13.487 12.339 11.537 10.937 11.099 11.132 11.529 10.945 10.985 10.956 11.651 12.608 12.27 12.756 12.766 12.932 12.81 11.998 11.634 11.956 11.734 11.222 11.171 11.168 11.206 11.242 11.094 11.235 11.176 11.547 13.044 13.895 16.486 16.648 14.188 14.1 14.176 14.311 14.396 14.474 14.504 14.674 14.811 14.899 15.006 15.179 15.384 15.334 15.521 15.519 15.631 15.771 15.829 15.936 15.944 16.034 16.399 16.296 16.294 16.259 16.366 16.444 16.606 16.449 16.659 16.859 16.849 18.019 18.097 17.882 17.977 18.282 17.902 17.674 17.989 17.609 17.034 17.957 17.874 17.729 17.832 17.977 17.942 17.399 17.207 16.937 17.204 17.142 17.137 16.964 17.042 17.239 17.262 17.187 17.439 17.429 17.077 17.144 17.237 17.144 17.157 16.969 17.062 16.979 16.937 16.889 16.987 16.864 17.404 17.332 16.937 17.277 17.632 16.947 17.374 16.904 16.942 17.072 17.057 16.937 17.127 17.434 18.237 18.174 17.247 17.129 16.979 16.892 16.737 16.667 16.582 16.574 16.449 16.439 16.312 16.314 16.357 16.152 16.079 16.182 16.237 16.254 16.507 17.189 16.647 16.607 16.707 16.857 16.897 17.244 17.394 17.699 17.114 17.299 17.134 17.319 17.254 17.402 17.759 17.472 17.364 17.652 17.817 17.329 17.152 17.187 16.982 17.219 16.902 16.894 16.722 16.724 16.667 16.762 16.384 16.699 16.284 16.347 16.314 16.337 16.022 15.957 15.854 15.897 15.937 15.742 15.769 15.674 15.819 15.657 15.727 15.704 15.449 15.389 15.327 15.414 15.419 15.519 15.314 15.207 15.252 15.182 15.332 14.922 15.258 14.898 15.284 14.874 14.65 14.713 14.765 14.551 14.678 14.424 14.491 14.863 14.218 14.078 14.157 13.989 14.369 14.309 13.832 14.049 14.107 13.819 14.314 13.517 13.597 13.604 13.852 13.517 13.274 13.389 13.232 13.154 13.397 13.457 13.312 13.707 13.372 13.627 14.112 13.837 13.174 13.089 13.189 13.867 13.137 13.472 13.037 12.929 12.929 13.274 12.912 13.349 13.484 14.082 12.512 12.514 12.409 12.554 12.934 12.539 12.062 11.894 11.799 11.687 11.612 11.559 11.482 11.434 11.417 11.394 11.347 11.312 11.282 11.224 11.192 11.162 11.107 11.039 11.022 10.997 10.949 10.919 10.889 10.844 10.819 10.774 10.729 10.674 10.647 10.577 10.549 10.509 10.502 10.454 10.429 10.392 10.409 10.372 10.369 10.362 10.339 10.337 10.289 10.234 10.177 10.114 9.987 9.887 9.772 9.679 9.652 9.664 9.647 10.382 12.09 9.132 8.74 8.56 8.497 8.475 8.415 8.372 8.277 8.132 7.937 7.72 7.53 7.327 7.082 6.87 6.655 6.377 6.06 5.787 6.037 6.09 5.63 5.83 5.345 5.472 5.107 5.222 5.882 5.492 5.245 5.065 5.062 5.04 5.005 4.96 4.985 5.017 5.065 5.06 5.037 5.047 5.097 5.135
17.574 17.504 17.459 17.399 17.331 17.279 17.181 17.104 17.031 16.939 16.889 16.794 16.706 16.661 16.604 16.484 16.406 16.329 16.234 16.139 16.074 15.999 15.944 15.879 15.796 15.706 15.656 15.564 15.494 15.449 15.464 15.406 15.381 15.309 15.269 15.239 15.176 15.099 15.046 14.971 14.954 14.849 14.806 14.751 14.626 14.459 14.279 13.409 13.041 13.201 13.151 13.269 13.024 13.616 15.266 19.764 17.346 16.824 14.099 14.156 12.966 12.961 13.354 13.014 12.699 14.104 13.044 12.666 12.811 13.514 12.916 14.323 11.727 11.76 11.81 11.785 12.498 11.799 13.04 11.893 11.604 11.821 10.922 11.025 11.242 11.161 11.318 11.69 11.358 11.596 11.313 11.286 12.094 13.819 13.363 12.815 11.239 11.344 11.234 10.969 10.828 10.835 10.84 10.958 11.09 10.997 10.905 11.134 13.396 14.475 14.704 16.3 15.483 13.969 14.021 14.139 14.266 14.291 14.394 14.736 14.611 14.836 14.899 14.999 15.191 15.379 15.349 15.496 15.419 15.646 15.709 15.734 15.746 16.029 16.259 16.129 16.276 16.199 16.236 16.509 16.324 16.549 16.491 16.681 16.844 17.372 17.687 17.234 17.709 17.564 17.844 17.319 17.507 17.347 16.924 17.787 17.794 17.099 18.279 17.624 17.639 17.997 17.414 16.872 17.132 17.154 17.147 17.024 17.182 16.927 16.849 17.082 17.049 17.087 17.184 17.254 17.162 17.034 17.104 17.252 16.857 17.057 16.927 17.214 17.109 16.759 17.047 17.047 17.494 16.992 17.449 17.144 16.979 16.927 17.177 17.099 17.027 16.919 16.827 17.129 18.214 17.957 17.239 16.954 17.217 16.859 16.709 16.744 16.519 16.592 16.584 16.327 16.229 16.239 16.239 16.102 16.007 16.094 16.094 16.124 16.209 16.377 16.474 16.552 16.572 16.824 16.729 16.814 16.867 16.944 16.957 17.027 17.109 17.367 17.889 17.292 17.669 17.734 17.984 17.212 17.169 17.339 17.139 17.382 17.132 16.889 16.877 16.737 16.684 16.619 16.604 16.704 16.504 16.529 16.302 16.104 16.047 16.019 15.987 16.012 15.824 15.919 16.214 15.824 15.797 15.724 15.797 15.664 15.389 15.492 15.452 15.634 15.657 15.292 15.317 15.397 15.692 15.262 15.309 15.124 15.272 14.904 14.997 14.779 15.218 14.912 15.212 15.262 14.81 15.049 14.772 14.479 14.3 14.338 14.179 14.188 14.089 14.137 14.012 14.659 14.002 14.377 14.029 13.722 13.884 13.437 13.657 13.479 13.769 13.569 13.249 13.282 13.847 13.422 13.849 14.052 13.382 13.357 13.364 13.219 13.519 13.229 13.264 13.169 13.072 13.024 13.452 13.022 13.139 13.389 12.899 13.292 13.277 12.754 12.599 12.512 12.867 13.017 12.257 12.214 12.449 13.349 12.142 11.824 11.729 11.619 11.532 11.467 11.417 11.367 11.357 11.327 11.287 11.252 11.217 11.157 11.157 11.112 11.067 11.032 10.977 10.949 10.924 10.897 10.842 10.814 10.772 10.749 10.699 10.642 10.614 10.569 10.514 10.509 10.469 10.434 10.399 10.367 10.362 10.324 10.339 10.339 10.307 10.287 10.229 10.199 10.152 10.057 9.979 9.874 9.739 9.644 9.582 9.572 9.567 9.572 12.272 10.207 8.71 8.542 8.49 8.45 8.36 8.297 8.165 8.012 7.85 7.692 7.515 7.3 7.055 6.835 6.58 6.497 5.977 5.757 5.602 5.617 5.74 6.135 6.422 6.942 6.545 5.32 5.777 5.512 5.21 5.062 5.055 5.055 5.002 4.97 4.962 5.015 5.062 5.037 5.022 5.092 5.11 5.147
17.539 17.466 17.469 17.384 17.296 17.226 17.151 17.061 17.031 16.944 16.874 16.781 16.719 16.659 16.539 16.476 16.374 16.279 16.229 16.136 16.066 16.019 15.951 15.869 15.786 15.726 15.659 15.589 15.561 15.509 15.454 15.436 15.391 15.334 15.284 15.204 15.124 15.081 15.019 15.006 15.191 15.104 14.779 14.696 14.651 14.574 14.764 15.086 13.299 13.241 13.244 13.206 13.069 14.676 17.091 21.191 20.104 16.196 15.424 18.446 14.859 12.639 13.596 12.864 13.141 13.224 14.369 13.061 12.198 12.592 12.361 13.072 11.831 11.76 11.729 12.44 12.064 12.198 12.771 11.829 11.732 11.4 11.127 11.906 11.503 11.043 11.407 11.433 11.377 11.389 11.913 12.088 13.148 12.996 12.824 12.456 11.456 11.282 10.84 10.802 10.902 10.656 11.161 10.724 10.809 10.827 10.81 10.86 12.329 13.802 14.146 14.395 15.177 14.076 14.014 13.937 14.081 14.259 14.184 14.319 14.444 14.571 14.694 14.839 15.041 14.996 15.209 15.304 15.244 15.596 15.561 15.654 15.686 15.876 16.121 16.031 16.071 16.189 16.179 16.264 16.351 16.519 16.399 16.411 16.737 17.502 17.814 17.194 17.289 17.362 17.497 17.902 18.012 17.429 16.982 18.272 17.337 17.029 17.827 17.729 17.674 17.122 17.064 16.762 16.784 16.809 17.014 16.922 17.079 17.092 17.247 17.044 17.192 17.029 17.124 17.189 16.764 17.022 17.089 17.107 17.019 16.959 17.054 16.944 16.747 16.667 16.652 17.089 17.814 17.222 17.692 17.054 17.734 17.104 16.819 17.152 17.077 16.717 16.977 16.892 17.969 17.784 17.389 17.339 16.737 16.704 16.594 16.562 16.482 16.377 16.309 16.227 16.137 16.134 16.137 16.024 15.914 15.944 15.954 16.009 16.089 16.454 16.457 16.597 16.524 16.764 16.937 16.864 16.887 17.077 16.957 17.114 17.239 17.207 17.232 17.204 17.067 17.107 17.182 17.167 17.007 17.099 17.142 17.014 16.754 17.039 16.809 16.714 16.642 16.464 16.467 16.349 16.484 16.187 16.134 16.042 15.957 15.952 15.837 15.859 15.779 15.652 15.844 16.079 16.057 15.512 15.542 15.442 15.637 15.247 15.252 15.439 15.304 15.202 15.224 15.277 15.134 15.184 15.549 15.369 15.219 15.494 14.915 14.744 15.104 14.538 15.261 14.775 14.829 14.757 14.37 14.39 14.255 14.021 14.021 13.886 14.457 14.097 13.899 13.949 14.224 13.684 14.162 13.789 13.804 13.559 13.474 13.642 13.477 13.384 13.612 13.239 13.097 12.974 13.589 13.739 13.699 12.954 12.929 12.954 12.912 13.167 13.447 13.269 13.282 12.899 13.372 13.249 12.834 12.802 12.969 12.737 12.687 12.879 12.452 12.442 12.354 12.412 12.379 12.107 12.069 12.359 13.964 12.569 11.662 11.549 11.472 11.389 11.352 11.319 11.297 11.264 11.244 11.209 11.169 11.144 11.099 11.047 11.012 10.972 10.947 10.882 10.877 10.854 10.827 10.794 10.752 10.709 10.669 10.632 10.587 10.542 10.514 10.482 10.444 10.379 10.359 10.332 10.324 10.307 10.277 10.297 10.269 10.239 10.207 10.182 10.089 10.024 9.932 9.839 9.724 9.614 9.482 9.457 9.5 9.472 10.867 11.455 8.655 8.545 8.762 8.615 9.002 8.192 8.102 8.285 7.87 7.787 7.45 7.272 7.012 6.727 6.475 6.202 5.832 5.872 6.107 5.66 5.947 5.947 10.767 10.86 7.137 5.392 5.657 5.505 5.187 5.077 5.057 5.055 4.995 5.005 4.99 5.027 5.077 5.072 5.092 5.082 5.175 5.205
17.524 17.454 17.399 17.326 17.269 17.196 17.131 17.089 17.011 16.914 16.859 16.769 16.686 16.609 16.521 16.459 16.381 16.276 16.229 16.171 16.104 16.004 15.961 15.879 15.794 15.751 15.734 15.654 15.599 15.564 15.506 15.461 15.371 15.304 15.234 15.176 15.104 15.296 15.651 16.399 16.531 15.796 14.729 14.641 14.576 14.404 14.619 15.274 15.001 13.764 13.294 13.276 13.151 16.906 20.976 17.764 20.361 22.706 21.764 18.171 13.064 14.044 16.564 14.734 14.286 15.839 13.999 13.575 12.351 11.945 11.858 11.891 11.905 11.88 11.687 12.131 12.344 12.786 12.89 12.53 11.929 11.857 11.468 11.7 11.351 11.025 12.047 11.608 12.341 11.423 13.445 12.524 12.435 13.093 14.518 11.952 11.024 10.793 10.75 11.433 12.135 12.125 10.822 10.553 10.734 11.003 10.989 10.832 11.342 13.381 12.626 14.785 13.989 13.772 13.993 13.787 13.916 14.071 14.131 14.346 14.329 14.406 14.604 14.611 14.814 14.946 15.284 15.119 15.121 15.204 15.299 15.334 15.539 15.786 15.784 15.824 16.161 16.041 16.204 16.391 16.164 16.354 16.514 16.346 16.812 17.379 17.594 17.492 17.682 17.449 17.017 17.292 17.414 16.924 16.739 17.882 17.422 17.459 17.259 17.817 17.884 17.717 17.257 16.707 16.929 16.669 16.762 16.872 17.107 16.762 16.894 16.937 16.984 16.924 16.927 16.797 16.864 16.872 16.742 16.679 16.682 16.954 16.697 16.637 16.662 16.727 16.819 16.929 16.792 17.104 16.952 16.644 17.054 16.817 17.292 16.864 16.684 16.629 16.669 16.909 17.977 17.834 16.892 16.832 16.784 16.724 16.519 16.529 16.347 16.367 16.232 16.207 16.054 16.049 16.067 15.939 15.829 15.877 15.884 15.887 15.974 16.129 16.664 16.609 16.914 16.542 17.032 16.907 16.822 16.814 16.922 17.247 17.204 17.282 17.304 16.934 17.029 17.022 17.349 17.187 16.962 16.922 16.942 16.899 16.932 16.954 16.752 16.764 16.527 16.409 16.594 16.134 16.302 16.142 16.314 16.134 15.862 15.962 15.879 15.939 15.732 15.519 15.777 15.884 16.044 15.387 15.497 15.364 15.314 15.239 15.189 15.087 15.192 15.044 15.239 15.132 15.379 15.129 15.159 15.254 14.972 15.157 14.65 14.95 14.811 14.482 14.63 14.831 14.3 14.116 14.42 14.469 14.344 13.937 14.18 13.83 13.816 14.119 13.692 14.154 13.789 13.647 13.627 13.442 13.444 13.489 13.679 13.437 13.934 13.219 13.132 13.069 13.067 13.357 12.879 13.059 12.829 12.784 12.729 13.129 12.864 12.749 12.844 13.044 12.852 12.892 12.679 13.467 12.667 12.774 13.007 13.217 12.629 12.569 12.484 12.604 12.582 12.194 12.074 11.992 11.932 11.882 12.274 13.607 12.547 11.514 11.407 11.349 11.309 11.259 11.254 11.219 11.212 11.169 11.112 11.082 11.052 11.009 10.959 10.932 10.887 10.849 10.839 10.799 10.777 10.729 10.722 10.687 10.654 10.617 10.559 10.509 10.464 10.437 10.374 10.342 10.329 10.289 10.282 10.259 10.237 10.247 10.224 10.197 10.144 10.107 10.039 9.994 9.899 9.797 9.687 9.559 9.449 9.399 9.402 9.342 9.442 12.232 10.725 9.76 11.165 11.29 11.53 9.21 10.877 9.96 8.077 7.885 7.37 7.165 6.89 6.635 6.377 6.085 5.855 6.05 6.127 5.772 6.06 6.555 9.46 11.12 6.34 5.525 5.682 5.517 5.155 5.08 5.072 5.047 4.98 5.027 5.012 5.05 5.082 5.112 5.107 5.125 5.16 5.222
17.499 17.416 17.376 17.301 17.241 17.209 17.129 17.034 16.964 16.891 16.819 16.754 16.661 16.594 16.501 16.474 16.379 16.296 16.219 16.174 16.099 16.034 15.956 15.874 15.839 15.806 15.746 15.709 15.631 15.564 15.474 15.416 15.344 15.289 15.234 15.471 16.266 16.754 16.396 15.904 15.226 14.861 14.724 14.654 14.581 14.476 14.461 14.754 15.181 14.576 12.921 13.314 13.289 15.626 21.066 21.676 20.434 22.986 22.474 19.086 13.801 19.094 18.324 13.919 13.594 12.16 12.455 12.326 11.941 11.896 11.938 11.783 11.764 11.715 12.257 12.296 12.878 13.299 13.843 12.234 11.512 12.88 11.617 11.19 12.031 11.529 10.843 11.052 12.306 14.068 12.097 11.388 11.012 12.163 11.164 11.097 11.039 10.54 11.735 12.335 10.912 10.976 10.621 10.657 10.691 10.774 11.02 10.77 10.766 11.426 12.132 12.637 14.747 14.042 14.91 13.995 13.761 13.937 14.064 14.116 14.234 14.339 14.381 14.544 14.601 14.751 14.879 14.896 14.969 15.264 15.199 15.259 15.621 15.594 15.619 15.746 15.809 15.789 15.916 16.161 16.299 16.091 16.156 16.284 16.297 16.724 17.062 17.157 17.572 17.809 17.222 17.387 17.147 16.869 16.559 17.182 17.124 17.627 17.409 17.292 17.024 17.557 16.952 16.619 16.744 16.624 16.764 16.784 16.944 16.892 16.832 16.809 17.022 16.829 17.157 16.862 16.887 16.712 16.722 16.904 16.497 16.667 16.649 16.654 16.722 16.954 16.507 16.534 17.084 16.769 17.062 16.817 16.517 16.799 16.709 16.854 16.654 16.617 16.649 16.662 17.764 17.469 16.964 16.517 16.509 16.424 16.494 16.479 16.487 16.169 16.244 16.112 15.997 15.972 15.957 15.849 15.714 15.752 15.752 15.782 15.869 16.404 16.214 16.462 16.297 16.587 16.672 16.739 17.064 16.729 17.667 17.097 16.779 16.852 17.132 16.894 16.837 16.984 17.054 17.024 16.924 16.702 16.704 16.747 16.877 16.719 16.449 16.362 16.482 16.444 16.502 16.164 16.152 16.124 16.124 15.917 16.229 15.992 15.689 15.612 15.557 15.434 15.472 15.744 15.427 15.382 15.324 15.232 15.849 15.549 15.474 15.457 15.057 14.987 15.262 14.959 14.909 14.777 14.817 14.774 14.554 14.764 14.939 14.641 14.661 14.459 14.52 14.592 14.183 14.1 14.096 14.053 13.958 13.881 14.074 14.062 13.958 13.764 13.874 13.777 14.294 13.829 13.742 13.489 13.712 13.492 13.222 13.307 13.622 13.062 13.092 13.099 12.907 13.134 12.857 13.382 13.087 12.694 12.737 12.809 12.897 12.689 13.012 13.382 12.654 12.752 12.782 12.992 12.834 12.657 12.612 12.774 12.729 12.609 12.659 12.342 12.179 12.139 12.032 11.914 11.907 11.772 11.764 12.002 13.249 12.529 11.442 11.312 11.264 11.217 11.204 11.174 11.164 11.152 11.102 11.047 11.007 10.984 10.937 10.887 10.844 10.817 10.812 10.799 10.757 10.714 10.677 10.659 10.612 10.574 10.517 10.462 10.432 10.394 10.324 10.272 10.239 10.224 10.214 10.199 10.202 10.174 10.159 10.132 10.087 10.037 9.982 9.937 9.857 9.757 9.644 9.522 9.407 9.297 9.302 9.317 9.27 10.52 12.16 11.925 11.855 11.825 11.712 9.717 10.457 13.012 10.672 7.502 7.245 7.105 7.082 6.49 6.272 6.01 5.852 6 5.705 5.635 5.697 5.535 4.932 8.255 5.332 5.5 5.745 5.377 5.185 5.092 5.092 5.075 4.995 4.992 5.002 5.04 5.062 5.092 5.107 5.135 5.162 5.217
17.421 17.384 17.316 17.284 17.221 17.154 17.089 17.016 16.934 16.861 16.819 16.709 16.629 16.554 16.489 16.479 16.396 16.304 16.214 16.176 16.089 16.026 15.989 15.934 15.869 15.856 15.789 15.704 15.606 15.524 15.469 15.394 15.376 15.644 16.354 16.804 16.194 15.384 14.839 14.714 14.699 14.729 14.719 14.671 14.631 14.554 14.461 14.381 14.911 15.131 14.514 13.266 13.471 14.581 19.874 21.831 21.281 21.709 22.049 22.339 19.919 21.599 20.054 12.534 12.069 11.922 11.996 11.992 11.81 11.872 11.794 11.742 11.74 12.236 12.853 11.715 13.341 12.562 13.106 13.632 12.298 13.032 13.734 10.663 11.237 10.805 11.809 11.317 11.162 11.246 13.417 11.782 10.928 11.097 11.043 10.921 10.738 10.75 11.466 11.28 10.774 10.662 10.497 10.497 10.575 10.633 10.82 10.871 10.688 10.916 11.626 12.674 13.135 15.415 17.142 14.467 13.664 13.727 13.935 14.066 14.121 14.236 14.311 14.374 14.431 14.604 14.671 14.851 14.876 15.086 15.096 15.064 15.201 15.594 15.766 15.644 15.729 15.839 15.924 16.134 15.951 16.129 16.066 16.131 16.137 16.612 16.724 17.124 17.429 17.477 17.487 16.772 17.302 17.552 16.462 17.027 17.109 17.157 16.617 16.834 17.114 17.484 17.489 16.494 16.604 16.502 16.704 16.609 16.564 16.619 16.592 16.792 16.834 16.714 16.919 16.799 16.719 16.577 16.772 16.699 16.789 16.452 16.512 16.474 16.742 16.407 16.377 16.402 17.064 16.682 17.002 16.617 16.762 16.819 16.929 16.492 17.077 16.682 16.579 16.689 17.027 17.644 17.054 16.469 16.467 16.369 16.289 16.229 16.209 16.139 16.044 16.172 15.929 15.879 15.892 15.812 15.614 15.647 15.627 15.682 15.782 15.829 15.929 16.832 16.604 16.442 16.892 16.824 16.667 16.674 17.177 16.862 16.592 16.642 16.934 16.877 16.794 16.859 17.087 16.832 16.879 16.749 16.679 16.659 16.599 16.484 16.297 16.447 16.822 16.464 16.217 16.347 16.144 16.362 15.704 15.899 15.822 15.649 15.454 15.599 15.772 15.307 15.249 15.229 15.567 15.189 15.282 15.042 15.087 15.059 14.989 15.037 15.024 15.022 14.882 15.052 15.084 14.912 14.684 14.867 14.567 14.574 14.5 14.264 14.432 14.384 14.415 14.68 14.456 14.427 14.082 13.963 13.963 14.132 13.918 14.017 13.841 13.874 13.567 13.604 13.729 13.904 13.632 13.552 13.302 13.262 13.322 13.087 13.019 12.994 13.379 13.372 13.104 13.282 12.997 12.892 12.694 12.622 12.832 12.912 12.622 12.572 12.587 12.837 12.712 12.514 12.497 12.472 12.449 12.504 12.474 12.654 12.357 12.317 12.252 12.197 12.057 12.274 12.277 12.232 12.304 11.947 11.632 11.607 11.749 12.737 12.299 11.312 11.217 11.212 11.172 11.119 11.104 11.099 11.057 11.034 10.984 10.954 10.902 10.867 10.817 10.779 10.777 10.759 10.727 10.679 10.637 10.584 10.559 10.512 10.459 10.409 10.369 10.319 10.289 10.237 10.189 10.179 10.164 10.134 10.139 10.102 10.094 10.064 10.029 9.977 9.942 9.862 9.804 9.719 9.604 9.489 9.397 9.259 9.215 9.245 9.217 9.265 11.832 11.987 11.617 11.542 11.425 11.395 14.315 16.24 14.457 8.525 6.97 6.755 6.82 6.342 6.28 6.075 6.032 5.85 5.635 5.582 5.887 5.717 5.085 7.752 5.212 5.707 5.667 5.472 5.155 5.075 5.052 4.995 4.94 4.992 4.955 4.977 5.067 5.092 5.12 5.137 5.165 5.232
17.419 17.384 17.321 17.246 17.204 17.139 17.076 17.001 16.926 16.864 16.739 16.689 16.619 16.574 16.536 16.441 16.364 16.291 16.226 16.169 16.114 16.076 16.029 15.976 15.931 15.856 15.754 15.684 15.614 15.509 15.489 15.849 16.199 16.479 16.106 15.341 14.884 14.794 14.761 14.721 14.706 14.729 14.724 14.694 14.631 14.584 14.516 14.411 14.376 15.106 14.931 13.104 13.166 13.421 15.829 19.694 20.841 20.156 21.444 20.429 18.279 18.629 16.499 12.194 12.022 11.874 12.016 11.991 11.901 11.959 11.936 12.394 12.909 13.056 12.755 13.78 13.751 12.639 14.136 13.659 13.555 11.707 11.296 10.806 10.842 10.726 10.819 10.788 11.666 12.309 12.281 11.319 11.424 11.177 11.028 11.063 11.097 10.86 10.416 10.534 10.465 10.484 10.435 10.468 10.395 10.475 10.608 10.787 10.993 10.91 11.073 11.851 12.808 13.433 14.374 14.57 13.693 13.583 13.752 13.906 13.939 14.074 14.129 14.351 14.381 14.444 14.734 14.641 14.731 15.024 14.859 15.044 15.204 15.436 15.479 15.399 15.526 15.741 15.769 15.811 15.951 15.886 16.001 16.044 16.102 16.497 17.004 16.574 17.414 17.427 17.142 16.689 16.924 17.079 16.317 17.249 17.192 16.934 16.512 16.617 17.062 17.579 17.037 16.572 16.654 16.574 16.602 16.664 16.599 16.659 16.609 16.619 16.649 16.497 16.714 16.699 16.542 16.477 16.382 16.469 16.439 16.469 16.802 16.852 16.747 16.297 16.407 16.307 16.594 16.477 17.142 16.827 16.659 16.512 17.347 16.562 16.497 16.682 16.692 16.409 17.522 17.529 16.682 16.557 16.507 16.469 16.327 16.237 16.234 16.012 15.997 15.994 15.832 15.789 15.802 15.709 15.559 15.539 15.509 15.589 15.652 15.852 15.842 16.357 16.749 16.234 16.697 17.047 16.549 16.704 16.582 16.447 16.757 16.714 16.854 16.702 16.657 16.709 16.562 16.832 16.859 16.799 16.877 16.409 16.627 16.259 16.149 16.352 16.469 15.957 16.104 16.322 16.057 16.169 16.159 15.989 15.792 15.609 15.717 15.544 15.372 15.572 15.309 15.212 15.232 15.297 15.412 14.969 15.622 14.992 14.882 15.029 14.957 14.979 14.767 15.339 14.824 14.794 14.842 14.647 14.407 14.359 14.864 14.278 14.271 14.324 14.053 14.156 14.101 13.899 13.919 14.233 14.326 13.934 13.77 13.631 14.051 13.689 13.487 13.582 13.734 13.874 13.584 13.452 13.272 13.534 13.402 13.377 13.139 12.939 12.912 12.964 12.939 12.927 13.327 13.252 12.847 12.614 12.694 12.717 12.629 12.649 12.639 12.554 12.524 12.417 12.434 12.457 12.429 12.399 12.534 12.577 12.312 12.469 12.619 12.387 12.152 12.224 12.244 12.719 12.249 11.907 12.154 11.497 11.449 11.512 12.162 12.157 11.209 11.174 11.149 11.082 11.079 11.029 10.999 10.979 10.944 10.899 10.842 10.794 10.749 10.714 10.714 10.679 10.649 10.627 10.569 10.534 10.522 10.449 10.409 10.354 10.314 10.269 10.237 10.184 10.147 10.122 10.094 10.067 10.062 10.047 9.999 9.987 9.949 9.897 9.822 9.789 9.734 9.642 9.562 9.459 9.364 9.242 9.13 9.155 9.14 9.112 10.5 11.727 11.457 11.255 11.13 13.032 15.475 16.6 17.447 12.977 9.432 6.685 6.542 6.457 6.39 6.225 6.122 5.857 5.61 5.875 6.692 5.607 5.012 8.3 4.977 5.98 5.747 5.407 5.172 5.03 5.057 4.99 4.972 4.977 4.937 4.987 5.045 5.095 5.12 5.117 5.162 5.252
17.391 17.329 17.279 17.224 17.161 17.106 17.041 16.966 16.861 16.816 16.754 16.659 16.629 16.551 16.499 16.424 16.371 16.289 16.251 16.199 16.149 16.116 16.054 16.014 15.924 15.816 15.756 15.724 15.654 16.259 16.749 16.614 15.879 15.216 14.936 14.871 14.839 14.824 14.791 14.771 14.751 14.741 14.739 14.704 14.646 14.604 14.496 14.414 14.294 14.276 14.829 14.299 12.624 13.029 13.346 15.241 16.861 18.251 20.464 20.656 17.081 14.704 14.211 12.015 12.258 12.051 11.964 11.905 11.788 12.449 12.112 12.687 13.571 14.398 13.399 13.859 13.658 12.719 11.997 12.321 12.86 12.397 12.055 11.869 10.973 10.963 10.7 11.203 14.09 13.701 12.238 11.216 11.538 11.093 10.913 10.983 11.168 11.153 10.593 10.571 10.398 10.396 10.353 10.31 10.383 10.39 10.543 10.643 10.878 10.777 11.046 11.465 12.464 13.906 12.337 14.863 13.834 13.496 13.601 13.743 13.934 13.906 14.001 14.116 14.244 14.431 14.504 14.541 14.751 14.781 14.804 14.834 15.029 15.284 15.616 15.414 15.399 15.586 15.536 15.551 15.684 15.894 15.954 16.041 16.152 16.272 16.599 17.009 17.244 16.994 17.149 17.037 16.647 16.909 16.302 17.219 17.279 16.607 16.777 16.374 16.667 17.067 16.804 16.612 16.477 16.482 16.387 16.462 16.739 16.544 16.677 16.572 16.597 16.434 16.594 16.717 16.689 16.574 16.304 16.494 16.554 16.589 16.342 16.359 16.504 16.202 16.547 16.764 16.429 16.389 16.769 16.342 16.709 16.994 16.832 16.279 16.319 16.274 16.327 16.337 17.472 17.674 16.837 16.309 16.929 16.409 16.427 16.189 16.042 15.949 15.962 15.954 15.774 15.732 15.709 15.672 15.464 15.452 15.397 15.467 15.527 15.644 15.972 16.742 16.539 16.352 17.197 16.484 16.604 16.579 16.894 16.359 16.447 16.412 16.564 16.644 16.549 16.667 16.957 16.787 16.739 16.842 16.637 16.617 16.469 16.352 16.207 16.169 16.257 15.882 15.947 16.027 15.719 15.959 15.849 15.497 15.689 15.657 15.517 15.547 15.742 15.202 15.162 15.304 15.164 15.094 15.027 15.014 15.012 14.829 14.869 14.682 14.942 14.872 14.892 14.779 14.799 14.762 14.462 14.737 14.654 14.349 14.252 14.221 14.292 14.397 14.143 13.922 13.959 13.874 13.767 13.972 13.963 13.835 13.949 13.774 13.766 13.617 13.569 13.662 13.312 14.019 13.702 13.654 13.449 13.282 13.079 13.387 13.242 13.324 12.949 12.799 12.942 12.789 12.682 12.537 12.622 12.509 12.512 12.489 12.419 12.429 12.394 12.477 12.392 12.397 12.464 12.414 12.497 12.502 12.492 12.714 12.597 12.639 12.622 12.492 12.632 12.317 12.054 11.974 11.764 11.857 11.697 11.497 11.349 11.302 11.319 12.117 11.789 11.132 11.094 11.074 11.037 10.994 10.949 10.927 10.887 10.844 10.767 10.727 10.689 10.659 10.632 10.632 10.572 10.569 10.522 10.479 10.464 10.419 10.362 10.302 10.272 10.219 10.169 10.129 10.089 10.069 10.034 10.012 9.982 9.979 9.934 9.897 9.879 9.834 9.777 9.722 9.659 9.592 9.507 9.409 9.307 9.209 9.095 9.045 9.08 9.032 9.212 11.742 11.472 10.997 10.827 11.485 14.13 15.08 17.325 14.062 9.56 6.615 6.58 6.477 6.372 6.365 6.34 6.197 5.602 8.137 9.815 7.292 5.547 6.27 5.11 5.717 5.587 5.29 5.14 5.002 5.01 4.997 5.012 4.952 4.93 4.967 5.037 5.082 5.11 5.172 5.18 5.262
17.359 17.339 17.246 17.176 17.114 17.051 16.969 16.899 16.834 16.799 16.734 16.684 16.604 16.549 16.501 16.451 16.384 16.364 16.301 16.204 16.194 16.124 16.049 15.999 15.924 15.839 15.849 16.044 16.751 16.974 16.104 15.294 15.039 14.979 14.961 14.926 14.894 14.831 14.809 14.784 14.719 14.716 14.721 14.666 14.614 14.564 14.519 14.424 14.331 14.139 14.154 13.749 12.631 12.576 13.134 13.181 13.336 18.479 19.189 19.831 19.694 16.256 19.318 13.808 12.202 12.465 11.883 11.799 12.41 13.423 13.622 14.187 14.087 14.089 14.53 14.493 13.498 13.947 14.554 12.184 13.477 13.37 14.269 12.664 11.788 11.122 11.165 14.176 14.978 11.459 11.67 11.396 10.862 10.959 10.799 11.017 11.11 10.914 10.742 10.619 10.4 10.244 10.334 10.309 10.35 10.389 10.495 10.585 10.804 10.722 10.956 11.266 11.665 12.185 14.153 15.677 14.354 13.528 13.49 13.621 13.737 13.921 13.911 13.989 14.166 14.179 14.341 14.529 14.546 14.644 14.684 14.841 15.066 15.056 15.269 15.249 15.294 15.561 15.499 15.621 15.751 15.801 15.791 15.891 15.974 16.394 16.872 16.754 17.029 17.009 17.034 17.129 17.054 16.194 16.212 17.087 17.292 17.062 16.724 16.954 16.812 17.347 17.229 16.462 16.427 16.389 16.472 16.397 16.447 16.617 16.594 16.647 16.494 16.484 16.409 16.602 16.344 16.277 16.387 16.659 16.352 16.864 16.219 16.304 16.372 16.132 16.559 16.884 16.334 16.827 16.934 16.302 17.079 16.982 16.982 16.617 16.284 16.222 16.252 16.244 17.157 17.409 16.567 16.559 16.422 16.277 16.432 16.049 15.994 15.899 15.894 15.867 15.747 15.622 15.664 15.597 15.372 15.364 15.309 15.364 15.469 15.919 15.957 16.354 16.124 16.342 16.072 16.109 16.517 16.364 16.672 16.299 16.372 16.389 16.612 16.419 16.567 16.884 16.517 17.032 16.517 16.669 16.582 16.374 16.119 15.962 16.124 16.144 16.577 15.837 15.879 15.689 15.884 15.562 15.754 15.574 15.432 15.672 15.252 15.467 15.104 15.109 15.102 14.969 15.004 14.887 14.902 14.802 14.934 14.797 14.642 14.672 14.739 14.714 14.699 14.752 14.754 14.522 14.664 14.499 14.227 14.149 14.372 14.402 14.063 14.153 13.935 14.093 13.776 14.008 13.905 13.734 13.961 14.183 13.746 13.971 13.849 13.491 13.324 13.444 13.262 13.367 13.657 13.557 13.279 13.034 13.344 13.244 13.042 12.844 12.737 12.642 12.627 12.579 12.534 12.487 12.709 12.887 12.482 12.622 12.712 12.587 12.402 12.579 12.602 12.389 12.434 12.757 12.802 12.909 12.332 12.244 12.254 12.219 12.289 12.179 12.117 12.397 12.512 11.752 11.727 11.729 11.792 11.567 11.332 11.237 11.209 11.229 11.447 11.224 11.074 10.997 10.989 10.927 10.902 10.864 10.829 10.779 10.717 10.689 10.644 10.612 10.579 10.559 10.542 10.514 10.477 10.442 10.409 10.379 10.319 10.247 10.227 10.162 10.124 10.084 10.042 9.997 9.962 9.929 9.932 9.894 9.872 9.827 9.802 9.762 9.712 9.679 9.604 9.519 9.449 9.372 9.272 9.177 9.062 9.007 9.015 8.997 8.98 10.31 11.51 12.785 13.292 9.69 9.607 12.507 11.995 11.462 6.792 6.602 6.507 6.77 6.892 7.487 5.917 5.722 5.522 7.295 8.362 6.64 6.605 5.79 5.477 5.742 5.412 5.262 5.075 4.955 4.997 4.962 4.982 4.945 4.93 4.95 5.037 5.067 5.115 5.142 5.212 5.31
17.339 17.284 17.214 17.164 17.076 17.011 16.964 16.891 16.849 16.826 16.724 16.656 16.611 16.541 16.489 16.489 16.446 16.349 16.301 16.256 16.199 16.139 16.086 16.014 15.964 16.144 16.681 17.009 16.544 15.731 15.189 15.126 15.071 15.036 14.996 14.956 14.904 14.826 14.801 14.761 14.689 14.669 14.666 14.619 14.596 14.561 14.521 14.444 14.316 14.179 14.084 13.979 14.361 12.751 12.891 13.169 13.161 14.126 15.081 18.036 20.039 21.144 20.466 15.693 12.283 12.162 11.801 12.017 12.954 13.174 15.068 13.777 14.62 14.952 14.274 14.159 14.77 13.573 13.85 13.385 13.026 11.792 12.026 13.446 11.666 12.088 12.801 15.779 14.867 13.764 11.791 10.421 10.758 10.787 10.779 10.74 10.698 10.902 10.834 10.582 10.171 10.186 10.173 10.295 10.294 10.342 10.309 10.722 10.908 10.967 10.921 11.048 12.093 11.73 13.197 14.971 15.062 13.825 13.423 13.505 13.744 13.743 13.824 14.024 14.051 14.119 14.189 14.486 14.476 14.621 14.564 14.721 14.824 15.079 15.306 15.104 15.294 15.394 15.314 15.554 15.636 15.626 15.894 15.936 16.132 16.449 16.764 16.997 16.622 17.054 16.937 16.367 16.272 16.672 16.064 16.457 16.602 16.422 16.469 16.632 16.504 17.629 17.522 16.322 16.459 16.444 16.387 16.217 16.299 16.384 16.497 16.334 16.267 16.442 16.569 16.599 16.337 16.294 16.439 16.242 16.244 16.272 16.247 16.104 16.094 16.064 16.117 16.374 16.217 16.707 16.607 16.297 16.817 16.457 16.834 16.592 16.109 16.239 16.232 16.087 17.024 17.284 16.957 16.122 16.642 16.174 16.204 16.044 15.907 15.892 15.792 15.692 15.652 15.544 15.574 15.559 15.322 15.307 15.257 15.267 15.347 15.454 15.929 15.977 15.934 16.324 16.012 16.652 16.502 16.634 16.102 16.154 16.169 16.482 16.279 16.322 16.324 16.309 16.464 16.339 16.432 16.459 16.437 16.174 16.372 15.854 15.999 16.044 15.984 15.837 15.902 15.662 15.779 15.644 15.412 15.322 15.352 15.437 15.139 15.177 15.327 14.937 15.082 14.934 14.847 14.767 14.714 14.664 14.624 14.654 14.574 14.554 14.529 14.559 14.849 14.734 14.662 14.609 14.492 14.384 14.394 14.117 13.989 14.197 14.077 13.969 13.81 14.132 13.81 13.776 13.806 13.697 13.91 13.745 13.85 13.454 13.406 13.349 13.377 13.497 13.527 13.519 13.877 13.084 13.317 12.897 12.847 12.834 12.812 12.822 13.099 12.697 12.619 12.547 12.514 12.454 12.659 12.812 12.662 12.779 13.024 12.332 12.407 12.649 12.734 12.282 12.294 12.267 12.214 12.217 12.192 12.184 12.229 12.169 12.047 12.567 12.074 12.112 11.894 11.767 12.007 11.657 11.572 11.702 11.329 11.197 11.137 11.102 11.069 11.199 11.562 10.984 10.927 10.877 10.822 10.792 10.774 10.739 10.707 10.614 10.567 10.549 10.509 10.507 10.477 10.444 10.419 10.399 10.369 10.309 10.272 10.224 10.164 10.124 10.072 10.024 9.967 9.929 9.902 9.854 9.852 9.834 9.799 9.794 9.727 9.724 9.672 9.607 9.544 9.474 9.409 9.332 9.234 9.142 9.017 8.915 8.912 8.925 8.907 9.062 10.9 12.925 13.807 8.845 8.86 9.02 7.522 7.097 6.757 6.625 6.565 6.79 7 7.54 6.27 5.575 6.112 8.242 5.837 5.607 7.305 5.855 4.882 5.602 5.43 5.282 5.047 4.92 4.94 4.927 4.952 4.932 4.915 4.96 5.022 5.077 5.092 5.13 5.22 5.33
17.299 17.236 17.166 17.126 17.051 17.001 16.919 16.894 16.839 16.771 16.709 16.651 16.584 16.579 16.566 16.511 16.446 16.401 16.314 16.281 16.206 16.149 16.096 16.154 16.289 16.511 16.899 15.894 15.351 15.221 15.199 15.151 15.124 15.076 15.004 14.954 14.901 14.849 14.784 14.726 14.664 14.659 14.664 14.616 14.591 14.551 14.511 14.431 14.311 14.189 14.086 14.144 13.964 13.014 12.409 13.119 13.371 13.189 13.616 13.366 19.561 21.525 17.457 12.701 12.352 12.206 12.072 13.185 14.269 13.445 13.283 14.093 13.88 13.418 13.637 13.312 12.818 12.946 13.125 12.322 12.705 11.248 10.895 11.597 11.433 12.296 15.184 14.77 15.408 14.258 11.703 10.761 10.668 10.672 10.746 10.836 10.646 10.753 10.648 10.595 10.217 10.16 10.194 10.16 10.37 10.411 10.571 10.776 10.805 10.937 11.002 11.132 11.191 11.594 12.598 14.79 15.247 14.396 13.391 13.416 13.556 13.71 13.759 13.816 13.916 14.049 14.071 14.269 14.366 14.564 14.599 14.686 14.939 14.974 15.164 15.139 15.171 15.359 15.509 15.391 15.651 15.621 15.649 15.761 15.777 16.027 16.354 16.767 16.667 17.102 16.299 16.387 16.627 17.409 16.209 16.139 16.609 17.069 16.422 16.394 16.472 16.822 16.999 16.594 16.169 16.087 16.222 16.229 16.232 16.497 16.214 16.172 16.197 16.387 16.254 16.224 16.469 16.109 16.417 16.432 16.227 16.284 16.147 16.482 16.257 15.992 16.224 17.047 16.732 16.282 16.329 16.712 16.859 16.657 16.822 16.569 16.027 16.152 16.149 16.104 16.892 17.129 17.162 16.424 16.157 16.149 15.972 15.919 15.797 15.869 15.732 15.607 15.547 15.484 15.509 15.494 15.257 15.212 15.197 15.179 15.259 15.334 15.949 15.644 15.667 15.929 16.069 16.064 16.037 16.039 16.909 16.199 16.122 16.169 16.289 16.114 16.119 16.234 16.182 16.379 16.367 16.532 16.044 16.284 15.979 16.302 15.924 15.969 15.884 15.902 15.689 15.647 15.622 15.334 15.649 15.202 15.199 15.207 15.049 15.049 15.207 15.139 14.872 14.802 14.697 14.829 14.607 14.594 14.504 14.507 14.449 14.604 14.819 14.504 14.349 14.362 14.642 14.269 14.127 14.334 14.289 14.257 13.957 14.297 13.939 13.78 13.815 13.937 13.773 13.856 13.713 13.697 13.89 13.697 13.982 13.357 13.31 13.254 13.169 13.174 13.427 13.714 13.477 13.002 12.874 12.864 12.784 12.879 12.927 12.792 13.299 12.784 12.582 12.557 12.467 12.384 12.569 12.637 12.659 12.502 12.914 12.417 12.287 12.332 12.669 12.257 12.217 12.232 12.152 12.314 12.214 12.164 12.404 12.174 11.989 12.387 12.264 11.987 11.769 11.709 11.764 11.834 11.597 11.734 11.417 11.182 11.069 11.017 10.989 11.004 11.072 11.084 10.887 10.827 10.789 10.739 10.714 10.694 10.629 10.604 10.537 10.502 10.479 10.457 10.429 10.419 10.377 10.362 10.342 10.279 10.232 10.179 10.109 10.067 10.019 9.972 9.912 9.872 9.854 9.804 9.784 9.769 9.724 9.714 9.677 9.649 9.609 9.549 9.502 9.444 9.367 9.302 9.204 9.107 8.99 8.885 8.845 8.87 8.855 8.817 9.925 10.737 10.102 9.217 8.175 7.797 7.977 7.2 6.807 6.732 6.437 6.34 6.132 5.94 5.56 5.485 6.19 7.485 6.167 6.765 8.812 7.382 4.927 5.457 5.335 5.307 5.03 4.947 4.917 4.907 4.905 4.925 4.892 4.907 4.987 5.052 5.117 5.162 5.257 5.362
17.271 17.204 17.146 17.101 17.024 16.994 16.941 16.871 16.806 16.771 16.684 16.659 16.654 16.606 16.551 16.519 16.466 16.424 16.359 16.294 16.224 16.251 16.356 16.846 16.499 15.809 15.461 15.386 15.306 15.274 15.226 15.179 15.139 15.069 15.011 14.966 14.896 14.821 14.754 14.719 14.686 14.629 14.634 14.604 14.559 14.526 14.476 14.436 14.356 14.179 14.079 14.009 13.874 13.286 12.511 12.741 13.154 13.071 14.556 14.044 13.282 17.34 12.836 12.313 12.275 12.17 11.994 13.956 14.577 13.698 14.344 13.53 13.623 12.156 11.94 12.517 11.28 11.895 11.358 11.124 10.705 11.537 12.15 11.004 10.769 10.748 10.768 13.739 14.522 14.953 14.484 12.903 10.65 10.677 10.621 10.65 10.674 10.62 10.595 10.561 10.311 10.189 10.155 10.142 10.154 10.209 10.719 10.732 10.844 10.938 10.991 10.91 11.095 11.296 11.901 13.547 14.655 14.043 13.504 13.393 13.478 13.644 13.675 13.719 13.911 13.894 13.991 14.159 14.474 14.481 14.509 14.589 14.761 14.909 15.046 15.044 15.199 15.441 15.154 15.384 15.346 15.519 15.756 15.556 15.804 15.952 15.989 17.107 17.029 16.869 16.997 16.612 17.059 17.197 16.224 16.247 17.377 17.069 16.807 16.554 16.439 16.562 17.084 16.302 16.042 16.079 16.207 16.132 16.122 16.292 16.337 16.162 16.292 16.207 16.494 16.294 16.197 16.012 15.984 16.009 16.087 16.137 16.094 16.284 16.094 15.869 15.909 16.604 16.502 16.264 16.477 16.572 16.282 16.472 17.029 16.149 16.107 16.024 16.399 15.937 16.792 17.322 17.302 16.619 16.174 16.037 15.869 15.829 15.749 15.779 15.632 15.607 15.489 15.402 15.427 15.427 15.222 15.114 15.124 15.114 15.167 15.559 15.464 15.564 15.739 15.739 15.792 15.834 15.924 16.159 16.494 16.112 16.197 16.234 16.329 16.159 16.162 16.362 16.154 16.184 16.084 15.987 15.952 16.012 15.952 16.002 15.789 15.984 15.592 15.604 15.814 15.544 15.434 15.382 15.562 15.272 15.007 14.964 14.949 14.904 14.929 14.752 15.082 14.779 15.009 14.884 14.529 14.484 14.439 14.452 14.532 14.432 14.429 14.489 14.404 14.257 14.182 14.259 14.169 14.379 14.129 14.317 13.924 13.944 14.232 13.709 14.008 13.75 13.804 13.666 13.574 13.672 14.008 13.869 13.519 13.285 13.228 13.179 13.104 13.079 13.034 12.962 12.944 12.884 12.884 13.289 13.022 12.987 12.942 12.812 12.582 12.767 12.612 12.497 13.007 12.397 12.537 12.407 12.499 12.287 12.397 12.304 12.189 12.629 12.237 12.372 12.227 12.447 12.387 12.329 12.122 12.402 12.107 12.342 12.074 11.864 11.874 11.959 11.909 11.757 11.542 11.487 11.722 11.747 11.367 11.207 11.117 11.027 10.944 10.907 10.924 10.919 11.047 10.827 10.759 10.734 10.679 10.639 10.624 10.552 10.499 10.487 10.444 10.392 10.402 10.374 10.332 10.297 10.294 10.227 10.174 10.147 10.067 10.009 9.972 9.924 9.869 9.829 9.802 9.752 9.764 9.699 9.669 9.654 9.644 9.624 9.572 9.519 9.442 9.399 9.342 9.289 9.169 9.077 8.962 8.855 8.792 8.79 8.777 8.72 9.445 10.662 10.037 8.587 7.775 7.755 7.457 8.597 6.902 6.52 6.31 6.165 5.98 5.857 5.487 5.367 5.36 5.692 6.52 5.02 5.712 6.972 5.495 5.775 5.457 5.442 5.025 4.917 4.877 4.88 4.89 4.92 4.917 4.912 4.965 5.037 5.122 5.192 5.307 5.385
17.224 17.199 17.166 17.081 17.026 16.966 16.894 16.881 16.819 16.721 16.694 16.701 16.634 16.621 16.586 16.521 16.461 16.416 16.359 16.336 16.704 17.609 16.924 16.784 15.664 15.509 15.444 15.421 15.361 15.309 15.249 15.181 15.134 15.076 14.999 14.936 14.886 14.796 14.751 14.716 14.691 14.651 14.614 14.591 14.539 14.491 14.466 14.454 14.411 14.276 14.151 14.091 13.941 13.634 12.934 12.371 12.904 12.996 12.964 12.789 12.34 12.276 12.273 12.827 12.271 12.628 13.402 14.3 13.771 12.699 11.945 12.05 11.11 11.184 11.827 10.538 13.23 10.834 10.899 10.514 10.668 10.684 10.759 10.743 10.724 10.676 11.224 10.805 12.828 13.681 -9999 -9999 11.033 10.633 10.563 10.457 10.5 10.527 10.605 10.543 10.294 -9999 -9999 -9999 10.704 10.662 10.753 10.889 10.816 10.816 11.428 10.935 10.941 11.11 11.369 12.545 14.044 13.781 14.025 13.33 13.414 13.567 13.713 13.648 13.809 13.836 14.016 14.134 14.194 14.294 14.436 14.494 14.734 15.131 14.819 15.176 15.104 15.281 15.301 15.311 15.454 15.629 15.556 15.521 15.559 15.664 16.357 16.777 16.594 17.102 16.487 16.802 16.577 16.562 15.969 16.164 17.052 16.617 16.972 16.707 16.602 16.692 16.662 16.574 15.897 16.034 16.252 16.234 16.374 16.169 16.257 16.177 16.074 16.144 16.149 16.257 16.097 16.154 16.089 16.202 15.912 16.302 16.069 15.984 15.809 15.782 15.899 16.302 15.859 16.034 15.862 16.899 16.529 16.852 16.384 16.449 15.967 16.127 16.102 15.919 16.214 16.937 16.869 16.162 15.967 16.129 15.687 15.749 15.639 15.637 15.637 15.467 15.427 15.314 15.314 15.347 15.179 15.017 15.059 15.027 15.089 15.382 15.722 15.837 15.689 15.502 15.949 16.027 16.217 15.759 16.044 15.932 15.899 15.977 15.999 16.012 15.929 15.894 16.059 15.897 15.794 15.894 15.857 15.742 15.667 15.652 15.727 15.887 15.499 15.444 15.389 15.602 15.279 15.049 15.167 15.217 14.892 14.904 14.782 14.772 14.714 14.652 14.619 14.582 14.579 14.602 14.437 14.409 14.367 14.337 14.304 14.302 14.202 14.264 14.199 14.364 14.172 14.177 14.152 14.072 14.412 14.262 13.794 13.783 13.919 13.759 13.887 13.69 13.53 13.526 13.618 13.418 13.422 13.265 13.281 13.266 13.703 13.239 13.319 13.209 13.357 13.099 13.049 12.897 13.039 13.094 12.822 12.804 12.724 12.654 12.584 12.722 12.447 12.477 12.707 12.497 12.434 12.552 12.224 12.232 12.264 12.424 12.252 12.254 12.227 12.397 12.224 12.409 12.569 12.052 12.159 12.339 12.179 11.924 12.027 11.847 12.187 12.497 11.862 11.802 11.537 11.437 11.357 11.484 11.374 11.057 10.979 10.992 10.917 10.874 10.847 10.839 10.882 10.894 10.757 10.709 10.659 10.597 10.584 10.529 10.472 10.442 10.399 10.382 10.347 10.332 10.279 10.267 10.227 10.184 10.127 10.089 10.032 9.964 9.922 9.867 9.834 9.787 9.744 9.704 9.687 9.669 9.624 9.599 9.599 9.562 9.519 9.452 9.397 9.349 9.302 9.217 9.127 9.022 8.917 8.807 8.722 8.702 8.715 8.707 8.95 10.525 11.425 10.537 7.735 7.612 7.327 6.9 6.742 6.422 6.357 6.13 5.845 5.677 5.467 5.28 6.417 6.277 6.262 4.865 4.915 5.08 5.04 5.44 5.475 5.357 5.022 4.867 4.877 4.882 4.9 4.902 4.895 4.917 4.955 5.045 5.162 5.217 5.347 5.44
17.221 17.184 17.121 17.071 17.014 16.966 16.904 16.816 16.781 16.754 16.741 16.716 16.676 16.606 16.579 16.534 16.476 16.464 16.549 17.229 17.806 17.134 16.096 15.641 15.576 15.541 15.504 15.456 15.356 15.314 15.279 15.191 15.139 15.079 14.986 14.926 14.889 14.836 14.796 14.724 14.674 14.639 14.606 14.599 14.529 14.494 14.429 14.406 14.371 14.314 14.184 14.061 13.984 13.819 13.304 12.406 12.526 12.904 12.859 12.536 12.278 12.183 12.649 12.778 12.981 12.891 14.501 13.176 13.1 13.86 11.921 11.383 10.926 10.848 10.757 10.628 11.128 11.424 10.748 10.607 10.562 10.722 10.747 10.704 10.595 10.809 11.211 10.449 11.564 -9999 -9999 -9999 -9999 10.293 10.525 10.462 10.43 10.399 10.479 10.502 10.335 -9999 -9999 -9999 10.67 10.652 10.602 10.59 10.767 11.045 11.718 11.051 10.96 10.998 11.231 11.587 12.405 12.688 12.884 13.3 13.344 13.448 13.564 13.661 13.739 13.779 13.896 14.099 14.101 14.231 14.331 14.544 14.684 14.696 14.871 14.966 15.029 15.181 15.164 15.209 15.294 15.476 15.666 15.551 15.449 15.567 16.392 16.359 16.327 16.992 16.757 16.454 16.664 16.694 16.427 16.194 16.797 16.379 16.939 17.034 16.552 16.639 16.712 16.289 16.142 15.852 15.992 15.999 16.109 16.262 15.827 16.007 16.274 16.082 16.209 16.119 15.972 15.824 15.884 15.912 15.807 15.797 15.904 15.844 16.142 15.734 15.672 16.412 16.374 16.179 15.719 16.789 16.272 16.377 16.369 16.229 15.779 15.882 15.817 15.789 16.154 16.672 17.054 16.009 15.729 15.977 15.937 15.699 15.647 15.557 15.484 15.469 15.297 15.202 15.232 15.289 15.139 14.982 15.007 14.964 14.999 15.482 15.664 15.359 15.319 15.394 15.837 15.949 16.229 15.632 16.602 15.847 15.817 15.874 16.337 16.142 15.842 15.837 15.749 15.727 15.712 15.924 15.879 15.644 15.539 15.922 15.479 15.362 15.327 15.302 15.302 15.377 15.104 15.067 15.034 14.912 14.809 14.769 14.719 14.837 14.642 14.589 14.642 14.477 14.444 14.387 14.342 14.314 14.274 14.319 14.197 14.377 14.104 14.054 14.327 14.807 14.192 14.149 14.642 14.232 14.057 13.897 13.889 13.692 13.745 13.969 13.887 13.554 13.476 13.746 13.892 13.367 13.446 13.297 13.42 13.231 13.228 13.061 13.179 13.109 13.069 13.017 13.122 12.857 12.827 12.884 13.092 12.794 12.604 12.784 12.704 12.442 12.407 12.532 12.522 12.672 12.782 12.469 12.202 12.369 12.614 12.302 12.197 12.119 12.242 12.079 12.147 12.307 12.479 12.097 12.054 11.969 11.949 11.904 12.162 11.914 11.759 11.884 11.694 11.992 11.764 11.597 11.397 11.492 11.659 11.192 11.174 11.184 10.994 10.902 10.782 10.739 10.754 10.819 11.282 10.814 10.652 10.594 10.559 10.492 10.442 10.399 10.369 10.349 10.287 10.249 10.249 10.204 10.204 10.149 10.074 10.054 9.989 9.932 9.897 9.817 9.794 9.747 9.687 9.659 9.644 9.617 9.597 9.567 9.557 9.512 9.484 9.442 9.359 9.294 9.252 9.197 9.079 8.979 8.88 8.76 8.66 8.635 8.637 8.662 9.032 10.065 11.412 12.505 8.712 7.997 7.077 6.715 6.472 6.252 6.235 6.032 5.797 5.53 5.335 5.197 5.375 6.27 5.355 4.917 5.85 4.787 5.062 5.397 5.317 5.332 5.067 4.845 4.852 4.85 4.91 4.915 4.907 4.945 5.012 5.1 5.225 5.312 5.417 5.51
17.164 17.149 17.114 17.036 17.009 16.919 16.876 16.849 16.829 16.764 16.746 16.726 16.674 16.619 16.574 16.554 16.976 17.609 17.429 16.814 16.334 15.781 15.726 15.644 15.584 15.584 15.536 15.459 15.396 15.341 15.286 15.191 15.131 15.061 15.014 14.956 14.911 14.876 14.794 14.719 14.659 14.641 14.624 14.564 14.541 14.491 14.429 14.354 14.326 14.316 14.229 14.099 14.011 13.891 13.646 12.784 12.174 12.714 12.471 12.064 11.991 12.289 12.272 13.062 13.45 12.779 12.614 12.677 13.15 11.695 11.775 10.933 11.147 11.13 10.817 10.554 10.491 10.63 10.649 10.586 10.598 10.701 10.732 -9999 -9999 10.49 -9999 10.316 -9999 -9999 -9999 -9999 -9999 -9999 -9999 10.48 10.462 10.457 10.458 10.467 10.304 -9999 -9999 -9999 10.72 10.661 10.651 10.66 10.669 10.873 11.239 10.692 10.782 10.852 11.123 11.37 11.607 12.184 12.646 13.617 13.276 13.365 13.584 13.591 13.645 13.754 13.859 13.971 14.019 14.206 14.456 14.326 14.581 14.694 14.741 14.776 15.044 14.824 14.986 15.021 15.174 15.401 15.406 15.554 15.539 15.582 16.364 16.559 16.737 16.727 16.697 15.997 16.149 16.747 16.109 15.792 17.024 16.724 16.834 16.484 16.674 16.627 16.674 15.769 15.909 15.929 15.954 15.877 16.069 15.839 15.859 16.037 15.972 15.919 16.082 15.992 16.202 15.857 15.927 15.934 15.944 15.647 15.729 15.699 15.957 15.854 15.597 15.722 15.774 15.917 15.837 16.087 16.157 15.714 16.232 16.039 15.999 15.749 15.807 15.849 15.984 16.887 16.937 16.289 15.869 15.834 16.022 15.642 15.632 15.437 15.444 15.327 15.227 15.107 15.144 15.212 15.092 14.927 14.947 14.877 14.927 15.289 15.739 15.727 15.402 15.337 15.599 15.532 15.554 15.517 15.894 16.034 15.734 15.642 15.677 16.054 15.917 15.957 15.719 15.667 15.599 15.837 15.639 15.532 15.604 15.439 15.569 15.272 15.252 15.159 15.227 15.444 15.044 15.034 14.849 14.767 14.719 14.672 14.609 14.647 14.622 14.542 14.684 14.387 14.502 14.319 14.342 14.204 14.372 14.152 14.142 14.342 14.079 14.064 14.202 14.092 13.959 14.364 14.064 13.867 13.944 14.217 14.107 13.667 13.69 13.821 13.774 13.452 13.555 13.346 13.412 13.254 13.397 13.643 13.321 13.154 13.303 13.25 13.395 13.189 13.162 12.997 13.029 12.802 12.789 12.829 13.542 13.189 13.014 13.032 12.534 12.504 12.599 12.559 12.339 12.337 12.512 12.379 12.459 12.529 12.447 12.199 12.397 12.544 12.184 12.192 12.272 11.997 12.507 12.127 12.112 11.904 11.874 11.877 12.059 12.052 11.844 11.767 11.724 11.799 11.474 11.492 11.674 11.387 11.104 11.632 11.897 11.289 11.609 12.049 11.272 10.767 10.672 10.684 10.742 11.007 10.847 10.567 10.549 10.462 10.384 10.349 10.324 10.299 10.262 10.199 10.179 10.159 10.142 10.094 10.052 10.007 9.957 9.904 9.837 9.782 9.752 9.694 9.662 9.629 9.577 9.557 9.544 9.512 9.487 9.467 9.464 9.384 9.324 9.254 9.209 9.129 9.032 8.917 8.83 8.727 8.625 8.582 8.557 8.572 8.617 8.905 10.22 10.242 9.527 8.325 8.307 7.825 6.632 6.107 6.002 6.052 5.67 5.392 5.565 5.275 5.175 5.4 5.622 6.407 9.477 4.8 5.242 5.49 5.36 5.26 5.045 4.867 4.86 4.867 4.907 4.915 4.947 5 5.067 5.18 5.27 5.41 5.49 5.612
17.174 17.124 17.079 17.044 16.981 16.956 16.899 16.844 16.809 16.791 16.744 16.726 16.674 16.631 16.754 17.081 17.921 17.851 17.096 15.986 15.849 15.809 15.761 15.676 15.634 15.601 15.529 15.481 15.414 15.339 15.269 15.204 15.154 15.086 15.046 14.989 14.924 14.839 14.779 14.689 14.641 14.619 14.594 14.574 14.536 14.489 14.406 14.351 14.294 14.301 14.244 14.136 14.031 13.949 13.814 13.299 12.156 12.119 12.156 13.099 12.949 12.751 12.237 12.662 12.679 12.086 11.98 12.807 11.739 11.558 11.079 10.895 10.558 10.518 10.562 10.495 10.485 10.56 10.396 10.331 10.35 10.661 -9999 -9999 -9999 -9999 -9999 -9999 -9999 -9999 -9999 -9999 -9999 -9999 -9999 -9999 -9999 10.337 10.302 10.304 -9999 -9999 -9999 -9999 -9999 -9999 10.462 10.66 10.593 10.565 10.713 10.549 10.717 10.863 11.058 11.175 11.475 12.264 13.155 13.581 13.293 13.307 13.406 13.518 13.579 13.744 13.821 13.904 13.961 14.066 14.184 14.246 14.611 14.456 14.639 14.929 14.831 14.879 14.886 15.091 15.086 15.136 15.434 15.659 15.367 15.532 16.154 16.167 16.089 16.287 16.924 16.754 16.344 16.492 16.007 15.607 16.052 16.842 16.619 16.289 16.572 16.462 16.802 15.974 16.447 15.767 15.872 15.992 15.849 15.764 15.744 15.942 15.802 16.004 15.917 15.862 15.737 15.829 15.794 15.942 15.739 15.589 15.834 15.714 15.944 15.799 15.489 15.972 15.964 15.504 15.522 15.942 15.727 15.887 15.792 15.892 15.729 15.832 15.987 15.919 16.082 16.807 16.757 15.992 15.697 15.754 15.889 15.594 15.397 15.322 15.377 15.314 15.139 15.072 15.064 15.117 15.052 14.857 14.904 14.839 14.884 15.019 15.682 15.927 15.252 15.294 15.297 15.517 15.697 15.442 15.482 15.482 15.589 15.789 15.757 15.802 15.722 15.834 15.752 15.827 15.682 15.557 15.537 15.382 15.362 15.314 15.719 15.714 15.244 15.122 15.219 14.984 14.837 14.962 14.804 14.679 14.632 14.619 14.539 14.702 14.694 14.602 14.504 14.384 14.677 14.272 14.467 14.442 14.332 14.264 14.167 14.292 14.072 14.124 13.967 14.184 14.209 13.817 13.962 13.782 13.864 13.929 13.837 13.682 13.752 13.743 13.601 13.495 13.343 13.35 13.345 13.244 13.397 13.177 13.101 13.408 13.049 13.075 12.986 13.119 12.879 12.822 12.972 13.149 12.719 12.829 12.774 13.072 12.779 12.879 12.744 12.417 12.462 12.727 12.429 12.304 12.422 12.222 12.189 12.207 12.082 12.362 12.157 12.157 12.229 12.034 12.002 11.952 12.064 12.114 11.917 11.999 12.269 12.167 11.807 11.939 11.929 11.977 12.572 11.702 12.562 12.427 12.692 13.032 12.649 13.217 13.404 14.004 13.927 13.914 13.824 11.539 10.619 10.592 10.599 10.637 10.829 10.627 10.514 10.459 10.377 10.337 10.279 10.269 10.194 10.159 10.159 10.124 10.109 10.067 10.024 9.957 9.934 9.867 9.817 9.762 9.707 9.654 9.604 9.569 9.542 9.522 9.499 9.474 9.442 9.409 9.379 9.344 9.304 9.224 9.152 9.082 8.977 8.879 8.765 8.675 8.567 8.525 8.485 8.49 8.52 10.282 10.627 9.367 9.357 8.887 8.33 7.662 6.677 6.77 5.94 5.795 5.617 5.5 5.492 5.622 5.085 5.555 5.477 6.722 9.255 4.935 5.315 5.497 5.397 5.295 4.942 4.86 4.875 4.867 4.912 4.935 4.937 5.012 5.085 5.197 5.32 5.432 5.577 5.71
17.129 17.099 17.081 17.006 17.004 16.961 16.899 16.879 16.861 16.809 16.746 16.749 16.714 16.756 19.099 17.816 17.181 16.261 15.949 15.879 15.856 15.814 15.781 15.691 15.634 15.594 15.524 15.444 15.376 15.311 15.244 15.206 15.161 15.109 15.039 14.976 14.906 14.844 14.794 14.706 14.646 14.609 14.586 14.566 14.506 14.484 14.416 14.354 14.281 14.244 14.254 14.139 14.024 13.951 13.856 13.496 14.449 13.219 12.846 13.571 13.561 13.326 13.292 12.25 12.221 12.464 12.657 13.427 13.246 11.35 11.092 10.771 10.598 10.474 10.437 10.401 10.425 10.439 -9999 -9999 -9999 -9999 -9999 -9999 -9999 -9999 -9999 -9999 -9999 -9999 -9999 -9999 -9999 -9999 -9999 -9999 -9999 10.336 10.325 10.312 -9999 -9999 -9999 -9999 -9999 -9999 -9999 10.242 10.608 10.606 10.605 10.668 10.771 10.766 10.948 11.02 11.342 12.423 12.737 13.742 13.301 13.286 13.389 13.532 13.56 13.624 13.701 13.906 13.976 14.004 14.124 14.361 14.434 14.509 14.509 14.639 14.789 14.859 14.964 15.079 15.011 15.174 15.284 15.386 15.404 15.482 16.429 16.222 16.392 16.644 16.882 16.812 16.477 16.364 16.177 15.589 16.089 16.859 16.667 16.347 16.407 16.227 16.874 16.187 15.587 15.559 15.604 15.669 15.742 15.789 15.837 15.919 15.709 15.982 15.762 15.879 15.789 15.634 15.749 15.577 15.567 15.732 15.634 15.732 15.549 15.429 15.417 15.524 15.662 16.089 15.534 15.757 15.867 15.482 15.682 15.849 15.624 15.669 15.672 15.642 15.742 16.424 16.419 16.092 15.777 15.542 15.552 15.367 15.352 15.229 15.229 15.139 15.129 14.974 14.989 15.037 15.019 14.797 14.837 14.847 14.834 14.909 14.964 15.042 15.149 15.142 15.174 15.587 15.497 15.347 15.384 15.399 15.609 15.717 15.854 15.704 15.924 15.829 15.669 15.474 15.694 15.489 15.399 15.337 15.309 15.442 15.122 15.404 15.467 15.269 15.082 15.047 15.392 14.867 14.754 14.559 14.642 14.547 14.682 14.702 14.494 14.374 14.507 14.427 14.239 14.154 14.232 14.084 14.252 14.179 14.119 13.957 13.927 14.109 13.917 14.009 13.969 13.852 13.924 13.997 13.632 13.829 13.757 13.692 13.632 13.603 13.399 13.3 13.488 13.361 13.139 13.153 13.154 13.207 13.29 13.388 12.968 13.147 13.11 12.942 12.842 12.797 12.919 12.937 12.669 12.717 13.224 12.522 12.499 12.404 12.392 12.544 12.522 12.554 12.232 12.412 12.647 12.447 12.312 12.704 12.009 12.212 12.017 12.822 12.429 12.262 12.354 12.162 12.257 12.057 12.257 12.762 13.182 13.489 12.962 13.444 13.682 13.842 14.629 14.777 14.634 14.497 14.164 13.689 13.267 12.607 12.044 12.212 11.747 11.712 10.807 10.584 10.577 10.514 10.537 10.522 10.559 10.669 10.584 10.459 10.379 10.317 10.262 10.234 10.174 10.162 10.109 10.069 10.054 10.052 9.992 9.934 9.872 9.834 9.774 9.717 9.657 9.607 9.589 9.524 9.492 9.469 9.414 9.404 9.394 9.369 9.337 9.289 9.214 9.154 9.087 9.017 8.934 8.832 8.735 8.62 8.52 8.455 8.427 8.425 8.615 11.117 11.13 10.087 9.38 9.355 7.912 7.372 7.73 6.927 6.087 6.032 5.462 5.537 6.025 5.105 5.115 5.39 5.115 6.105 8.502 5.382 5.487 5.49 5.38 5.34 4.897 4.832 4.87 4.885 4.93 4.97 4.967 5.047 5.11 5.242 5.355 5.482 5.655 5.822
17.114 17.104 17.089 17.086 16.991 16.974 16.921 16.874 16.846 16.811 16.784 16.816 17.589 18.219 19.576 17.116 16.106 16.001 15.954 15.894 15.886 15.874 15.784 15.721 15.679 15.599 15.524 15.449 15.384 15.324 15.276 15.241 15.161 15.079 15.026 14.954 14.899 14.854 14.789 14.726 14.649 14.579 14.561 14.566 14.509 14.451 14.396 14.351 14.274 14.216 14.206 14.154 14.026 13.949 13.879 13.769 15.319 14.989 13.549 13.337 13.628 14.531 15.922 12.497 11.938 12.881 13.546 13.351 11.71 11.349 11.089 10.699 10.505 10.58 10.127 10.128 10.318 -9999 -9999 -9999 -9999 -9999 -9999 -9999 -9999 -9999 -9999 -9999 -9999 -9999 -9999 -9999 -9999 -9999 -9999 -9999 -9999 -9999 -9999 -9999 -9999 -9999 -9999 -9999 -9999 -9999 -9999 -9999 10.551 10.526 10.314 10.624 10.686 10.593 10.752 10.874 11.177 11.996 12.55 13.692 13.262 13.279 13.372 13.472 13.587 13.604 13.666 13.894 13.824 13.946 14.089 14.259 14.424 14.551 14.836 14.734 14.644 14.804 14.971 14.976 15.159 15.036 15.319 15.314 15.219 15.269 16.029 16.152 16.889 16.802 16.634 16.384 16.824 16.149 15.989 15.439 16.304 16.622 16.664 16.499 16.739 16.362 16.769 16.072 15.577 15.772 15.734 15.807 15.604 15.909 15.772 15.669 15.747 15.654 15.737 15.927 15.899 15.649 15.507 15.692 15.569 15.462 15.654 15.479 15.629 15.664 15.402 15.479 15.404 15.624 15.422 15.679 15.764 15.784 15.589 16.094 15.529 15.814 15.842 15.514 15.789 16.384 15.892 15.997 15.662 15.582 15.842 15.249 15.289 15.264 15.192 15.174 15.142 14.884 14.879 14.924 14.914 14.742 14.769 14.774 14.772 14.839 14.889 15.287 15.487 15.199 15.084 15.309 15.627 15.299 15.699 15.374 15.527 15.557 15.734 15.944 15.862 15.597 15.379 15.484 15.329 15.427 15.427 15.387 15.272 15.494 15.352 15.047 15.059 15.012 15.072 14.984 14.999 14.787 14.632 14.532 14.634 14.444 14.397 14.347 14.264 14.279 14.502 14.559 14.322 14.132 14.182 14.014 14.072 13.872 13.882 13.857 13.767 13.772 13.847 13.844 13.824 13.717 13.862 14.127 13.997 13.684 13.784 13.572 13.872 13.41 13.657 13.306 13.38 13.362 13.366 13.293 13.342 13.621 13.282 13.132 12.944 12.885 12.855 12.892 13.087 12.814 12.874 12.557 12.542 12.509 12.987 12.629 12.642 12.799 12.689 13.102 12.539 12.522 12.924 12.467 12.424 12.587 12.939 13.012 12.392 12.622 13.329 13.344 13.079 13.609 14.427 13.867 14.267 14.537 14.864 14.724 14.652 14.844 14.542 14.294 13.939 13.262 13.014 12.489 12.264 11.884 11.249 11.087 11.024 10.952 10.879 10.822 10.737 10.664 10.664 10.697 10.524 10.492 10.532 10.424 10.434 10.454 10.584 10.494 10.392 10.314 10.249 10.207 10.169 10.109 10.077 10.064 10.044 10.002 9.954 9.912 9.859 9.787 9.724 9.664 9.617 9.559 9.529 9.477 9.432 9.407 9.382 9.349 9.332 9.312 9.272 9.224 9.174 9.097 9.024 8.964 8.869 8.792 8.67 8.557 8.465 8.395 8.39 8.355 8.96 10.935 11.56 9.667 9.807 8.502 6.502 7.065 7.922 7.78 6.487 5.635 5.385 5.997 5.482 5.187 5.397 5.412 5.11 4.72 8.132 5.04 5.425 5.51 5.422 5.36 4.937 4.86 4.88 4.915 4.962 4.96 4.972 5.017 5.1 5.222 5.357 5.537 5.725 5.882
17.139 17.131 17.109 17.029 16.999 16.949 16.924 16.929 16.879 16.821 17.661 17.616 17.489 17.211 16.349 16.111 16.054 16.004 15.961 15.926 15.889 15.859 15.786 15.711 15.659 15.571 15.501 15.431 15.386 15.374 15.284 15.214 15.151 15.076 15.029 14.966 14.906 14.859 14.791 14.736 14.639 14.584 14.544 14.551 14.509 14.426 14.369 14.351 14.256 14.181 14.179 14.171 14.039 13.951 13.859 13.854 14.411 15.121 14.104 13.24 13.015 13.966 14.124 13.231 13.114 11.724 12.237 12.032 11.626 11.274 11.121 10.554 11.187 10.789 10.196 10.247 -9999 -9999 -9999 -9999 -9999 -9999 -9999 -9999 -9999 -9999 -9999 -9999 -9999 -9999 -9999 -9999 -9999 -9999 -9999 -9999 -9999 -9999 -9999 -9999 -9999 -9999 -9999 -9999 -9999 -9999 -9999 -9999 -9999 10.283 10.237 10.746 10.669 10.8 10.664 10.718 10.976 11.6 12.926 14.182 13.518 13.247 13.303 13.479 13.47 13.551 13.591 13.674 13.814 13.849 13.961 14.191 14.126 14.346 14.489 14.591 14.984 14.744 14.816 15.034 14.914 15.036 15.161 15.026 15.372 15.344 16.312 16.282 16.224 16.084 16.589 16.639 16.869 16.022 16.077 15.399 15.789 16.269 16.827 16.397 16.542 16.239 16.649 16.197 15.674 15.609 15.542 15.679 15.707 15.779 15.539 15.549 15.692 15.782 15.787 15.649 15.617 15.424 15.542 15.442 15.689 15.579 15.464 15.642 15.382 15.662 15.714 15.254 15.354 15.814 15.372 15.387 16.094 16.134 15.559 15.792 15.287 15.317 15.359 15.479 15.699 15.534 15.834 15.764 15.277 15.374 15.427 15.182 15.084 15.069 15.022 15.049 14.992 14.809 14.799 14.814 14.852 14.669 14.687 14.709 14.687 14.747 14.824 15.184 15.242 15.024 16.234 15.079 15.117 15.959 15.487 15.854 15.327 15.514 15.877 15.424 15.639 15.369 15.334 15.247 15.197 15.199 15.344 15.219 15.392 15.102 15.032 15.009 15.087 14.812 14.899 14.814 14.744 14.672 14.619 14.949 14.589 14.279 14.407 14.229 14.284 14.174 14.117 14.134 14.062 14.057 13.987 13.929 13.947 13.952 13.777 13.769 13.722 13.699 13.672 13.649 13.954 13.654 13.667 13.722 13.517 13.462 13.589 13.664 13.351 13.619 13.273 13.343 13.26 13.41 13.159 13.151 12.985 12.956 12.974 12.938 12.909 13.041 12.93 12.994 12.797 12.952 12.747 12.737 12.892 12.654 12.424 12.462 12.524 12.952 12.902 12.559 12.734 13.372 13.754 12.814 13.199 13.087 13.952 14.679 14.634 14.867 15.079 14.734 14.739 14.339 14.239 13.524 14.039 13.264 12.514 12.907 11.804 11.657 11.712 11.612 11.547 11.492 11.419 11.384 11.312 11.237 11.177 11.112 11.032 10.972 10.882 10.837 10.772 10.704 11.007 10.907 10.477 10.459 10.657 10.572 10.377 10.347 10.417 10.472 10.442 10.294 10.222 10.174 10.122 10.092 10.059 10.019 9.994 9.957 9.909 9.877 9.817 9.754 9.694 9.619 9.579 9.514 9.472 9.447 9.387 9.347 9.319 9.299 9.259 9.249 9.217 9.154 9.092 9.062 8.987 8.897 8.817 8.734 8.635 8.52 8.402 8.325 8.32 8.302 8.31 10.692 9.79 8.887 8.467 7.277 7.565 7.525 7.635 7.397 6.2 5.525 5.39 5.362 5.285 5.345 5.322 6.242 5.042 5.577 8.565 4.802 5.657 5.522 5.385 5.265 4.91 4.86 4.897 4.912 4.99 4.96 4.997 5.06 5.135 5.237 5.372 5.557 5.79 5.967
17.161 17.144 17.096 17.026 16.984 16.969 16.979 17.036 18.034 18.334 17.316 17.106 16.404 16.224 16.154 16.106 16.079 16.031 15.976 15.936 15.846 15.774 15.749 15.706 15.621 15.579 15.521 15.471 15.429 15.329 15.254 15.199 15.146 15.081 15.039 14.964 14.894 14.849 14.774 14.714 14.664 14.599 14.551 14.501 14.459 14.424 14.364 14.329 14.221 14.151 14.146 14.141 14.071 13.951 13.861 13.806 13.884 14.134 13.319 13.274 13.553 13.825 13.886 14.113 13.544 12.632 11.868 11.682 11.561 11.47 11.907 11.26 11.69 10.946 11.971 -9999 -9999 -9999 -9999 -9999 -9999 -9999 -9999 -9999 -9999 -9999 -9999 -9999 -9999 -9999 -9999 -9999 -9999 -9999 -9999 -9999 -9999 -9999 -9999 -9999 -9999 -9999 -9999 -9999 -9999 -9999 -9999 -9999 -9999 -9999 -9999 10.188 10.715 10.731 10.927 11.567 11.306 11.532 12.302 13.155 14.087 13.226 13.25 13.406 13.442 13.578 13.556 13.666 13.734 13.839 13.899 14.129 14.254 14.269 14.379 14.516 14.629 14.509 14.744 14.786 15.066 15.309 15.271 15.121 15.207 15.417 16.152 16.039 16.444 16.492 15.999 16.022 16.097 16.292 16.554 15.567 16.124 16.677 16.599 16.637 16.542 16.247 16.452 15.782 15.359 15.467 15.517 15.519 15.534 15.544 15.482 15.474 15.792 15.572 15.734 15.702 15.454 15.547 15.447 15.284 15.342 15.277 15.302 15.319 15.434 15.514 15.187 15.312 15.549 15.612 15.262 15.322 15.544 15.429 15.707 15.514 15.272 15.607 15.372 15.242 15.324 16.257 15.849 15.187 15.194 15.287 15.294 15.207 15.234 15.027 14.944 14.917 14.852 14.729 14.682 14.722 14.769 14.609 14.619 14.667 14.644 14.682 15.112 15.754 15.564 15.532 15.659 15.052 15.219 15.162 15.162 15.492 15.402 15.534 15.744 15.354 15.254 15.527 15.209 15.309 15.114 15.339 15.067 15.037 14.959 15.187 14.872 15.102 15.197 14.777 15.289 14.947 14.632 14.599 14.474 14.562 14.707 14.247 14.169 14.302 14.239 14.164 14.232 14.132 14.002 14.182 13.947 13.907 13.814 13.779 13.767 13.792 13.674 13.744 13.704 13.642 13.632 13.654 13.892 13.824 13.644 13.402 13.542 13.697 13.427 13.265 13.295 13.104 13.138 12.987 13.117 13.032 13.096 12.916 12.971 12.904 12.774 12.819 12.733 12.829 13.059 13.227 12.742 12.839 12.662 12.654 14.014 13.657 13.314 14.089 14.699 14.344 14.864 15.164 15.059 14.892 15.017 14.569 14.272 13.692 13.549 13.469 12.729 12.409 11.879 12.052 11.882 11.819 11.799 11.764 11.767 11.717 11.707 11.664 11.657 11.602 11.547 11.487 11.414 11.384 11.324 11.237 11.189 11.092 11.027 10.974 10.864 10.802 10.762 10.687 10.619 10.539 10.504 10.412 10.439 10.502 10.347 10.304 10.287 10.312 10.469 10.372 10.204 10.142 10.112 10.079 10.024 9.989 9.949 9.922 9.887 9.824 9.767 9.714 9.652 9.604 9.539 9.484 9.432 9.407 9.349 9.299 9.274 9.242 9.214 9.194 9.177 9.109 9.037 8.994 8.934 8.872 8.787 8.669 8.547 8.47 8.35 8.272 8.272 8.275 8.455 9.977 8.525 7.792 7.79 9.627 11.387 7.98 6.195 5.9 5.727 5.56 5.36 5.24 5.167 5.362 5.322 6.025 6.145 5.49 5.995 4.732 5.535 5.527 5.345 5.137 4.907 4.83 4.877 4.927 4.995 4.95 5.005 5.062 5.162 5.285 5.455 5.642 5.83 6.025
17.159 17.106 17.046 17.021 17.019 17.061 17.639 17.801 18.694 18.434 17.394 16.334 16.229 16.181 16.184 16.134 16.096 16.051 16.011 15.951 15.856 15.794 15.726 15.659 15.656 15.611 15.534 15.471 15.394 15.324 15.239 15.196 15.146 15.094 15.016 14.976 14.879 14.831 14.756 14.734 14.666 14.569 14.536 14.464 14.424 14.401 14.354 14.344 14.264 14.186 14.106 14.129 14.089 13.954 13.854 13.809 13.761 13.419 13.133 13.404 14.116 14.133 14.613 14.419 13.916 12.787 11.712 12.456 12.893 11.531 10.858 10.887 11.217 11.13 12.643 -9999 -9999 -9999 -9999 -9999 -9999 -9999 -9999 -9999 -9999 -9999 -9999 -9999 -9999 -9999 -9999 -9999 -9999 -9999 -9999 -9999 -9999 -9999 -9999 -9999 -9999 -9999 -9999 -9999 -9999 -9999 -9999 -9999 -9999 -9999 -9999 10.436 10.706 10.7 10.848 11.494 11.495 11.374 12.387 13.082 13.797 13.227 13.207 13.355 13.395 13.485 13.529 13.589 13.681 13.759 13.964 14.154 14.256 14.179 14.421 14.669 14.584 14.724 14.806 14.869 14.841 15.014 14.999 14.999 15.319 15.332 15.484 15.834 15.887 16.727 16.112 15.912 16.092 16.467 16.384 15.247 16.507 16.217 16.072 16.397 16.502 16.062 16.499 16.489 15.304 15.264 15.287 15.417 15.457 15.662 15.539 15.509 15.459 15.522 15.439 15.549 15.372 15.577 15.474 15.397 15.712 15.277 15.427 15.599 15.239 15.509 15.459 15.114 15.679 15.167 15.092 15.074 15.189 15.669 15.882 15.374 15.469 15.229 15.192 15.392 15.119 15.892 15.779 15.324 15.317 15.137 14.972 14.967 14.972 15.057 14.852 14.924 14.912 14.672 14.607 14.654 14.644 14.492 14.492 14.599 14.567 14.627 14.759 15.787 15.049 15.967 14.992 15.032 14.942 15.197 15.297 15.052 16.067 15.152 15.187 15.187 15.097 15.169 15.222 15.349 15.057 14.959 14.997 14.997 15.119 14.822 14.782 14.782 14.817 14.612 14.764 14.514 14.552 14.309 14.322 14.534 14.517 14.207 14.102 14.097 14.134 14.182 14.019 13.964 13.879 13.972 13.852 13.742 13.737 13.699 13.729 13.839 13.549 14.067 13.697 13.602 14.029 13.914 13.624 13.512 13.407 13.302 13.279 13.397 13.362 13.115 13.273 13.253 13.003 13.302 13.362 13.019 12.788 12.842 12.901 13.014 13.497 13.77 13.911 14.162 15.219 14.952 14.592 14.307 13.602 14.587 15.409 15.209 14.947 14.637 14.344 13.474 13.592 12.997 12.322 12.417 12.072 12.017 12.042 11.972 11.939 11.952 11.892 11.857 11.849 11.842 11.862 11.819 11.819 11.797 11.769 11.739 11.704 11.669 11.657 11.592 11.519 11.479 11.409 11.364 11.307 11.204 11.142 11.064 10.992 10.932 10.857 10.799 10.714 10.642 10.609 10.662 10.864 10.717 10.442 10.394 10.307 10.277 10.224 10.197 10.224 10.352 11.067 10.272 10.094 10.034 9.992 9.959 9.937 9.909 9.882 9.802 9.742 9.672 9.607 9.564 9.509 9.454 9.409 9.357 9.314 9.239 9.219 9.187 9.147 9.127 9.097 9.074 9.004 8.944 8.864 8.829 8.722 8.614 8.515 8.42 8.302 8.23 8.227 8.242 8.532 9.835 8.74 7.367 7.32 9.637 7.772 5.77 5.715 5.667 5.595 5.505 5.335 5.202 5.272 5.142 5.38 6.38 5.222 5.63 4.48 4.775 5.485 5.507 5.315 5.152 4.88 4.832 4.885 4.907 4.98 4.95 5.047 5.11 5.197 5.327 5.502 5.697 5.87 6.347
17.131 17.091 17.081 17.089 17.431 18.004 17.786 17.636 17.796 16.771 16.334 16.264 16.214 16.199 16.161 16.129 16.101 16.021 15.944 15.904 15.826 15.761 15.731 15.716 15.666 15.586 15.506 15.434 15.381 15.321 15.249 15.196 15.136 15.064 14.986 14.924 14.869 14.811 14.761 14.701 14.649 14.586 14.541 14.464 14.426 14.404 14.359 14.321 14.249 14.164 14.099 14.079 14.056 13.966 13.849 13.786 13.804 13.626 13.923 13.074 13.746 14.233 14.883 14.796 14.232 12.905 11.89 12.446 12.622 12.096 10.888 10.755 11.031 10.906 13.011 -9999 -9999 -9999 -9999 -9999 -9999 -9999 -9999 -9999 -9999 -9999 -9999 -9999 -9999 -9999 -9999 -9999 -9999 -9999 -9999 -9999 -9999 -9999 -9999 -9999 -9999 -9999 -9999 -9999 -9999 -9999 -9999 -9999 -9999 -9999 -9999 10.614 10.628 10.641 10.699 11.064 10.982 11.382 12.274 13.447 13.511 13.252 13.163 13.263 13.451 13.361 13.497 13.636 13.666 13.754 13.849 14.069 14.059 14.251 14.429 14.499 14.466 14.724 14.929 14.791 14.851 14.804 14.939 15.034 15.052 15.017 15.572 15.832 15.429 16.227 15.939 15.912 15.954 16.359 16.479 15.299 16.669 16.329 16.517 16.962 16.297 16.199 16.554 16.177 15.439 15.324 15.307 15.219 15.529 15.527 15.527 15.374 15.492 15.384 15.534 15.509 15.369 15.254 15.284 15.277 15.372 15.099 15.022 15.282 15.229 15.217 14.974 15.147 15.732 15.344 15.859 15.339 15.269 15.524 15.887 15.462 15.149 15.082 15.044 15.189 15.002 15.869 15.704 15.147 15.012 15.159 14.904 14.977 14.924 14.847 14.792 14.687 14.639 14.594 14.517 14.557 14.559 14.437 14.409 14.504 14.522 14.617 15.157 14.904 14.659 14.944 15.212 15.187 15.479 15.059 15.192 15.174 15.084 15.112 15.192 15.197 15.282 15.104 15.002 15.229 15.002 14.884 15.174 14.917 15.037 14.702 15.189 14.692 14.969 14.674 14.449 14.552 14.337 14.514 14.394 14.579 14.262 14.167 14.394 14.337 14.104 14.014 14.059 13.937 13.802 13.774 13.829 13.737 13.662 13.922 13.714 13.629 13.594 13.667 13.587 13.412 13.689 13.477 13.662 13.582 13.529 13.614 13.162 13.197 13.339 13.953 13.391 13.508 13.52 13.921 13.86 15.217 14.479 14.511 15 15.157 15.566 15.573 15.516 15.227 15.042 15.417 15.449 14.972 14.339 14.589 13.444 12.624 12.254 12.224 12.182 12.169 12.142 12.119 12.087 12.034 12.027 11.977 11.964 11.957 11.939 11.944 11.917 11.872 11.872 11.857 11.862 11.842 11.817 11.774 11.759 11.724 11.719 11.664 11.634 11.564 11.487 11.467 11.382 11.342 11.292 11.167 11.139 11.079 10.984 10.919 10.847 10.794 10.712 10.664 10.617 10.574 10.504 10.574 10.352 10.302 10.362 10.257 10.169 10.112 10.117 10.147 10.407 10.667 10.119 10.017 9.989 9.957 9.927 9.897 9.827 9.764 9.709 9.642 9.572 9.529 9.464 9.399 9.347 9.289 9.242 9.204 9.169 9.132 9.087 9.082 9.039 8.999 8.974 8.882 8.829 8.762 8.657 8.562 8.46 8.35 8.237 8.177 8.197 8.212 8.185 9.645 8.497 7.377 7.057 8.427 7.302 5.742 5.907 5.522 5.892 5.452 5.312 5.215 5.24 5.11 5.38 6.122 5.742 4.815 4.452 4.702 5.37 5.482 5.37 5.08 4.857 4.895 4.93 4.925 4.965 4.987 5.057 5.11 5.22 5.372 5.542 5.727 5.905 6.432
17.111 17.084 17.161 17.981 18.426 18.536 17.366 16.556 16.389 16.329 16.319 16.286 16.229 16.209 16.181 16.121 16.056 15.981 15.919 15.886 15.819 15.804 15.756 15.701 15.616 15.554 15.504 15.436 15.391 15.316 15.231 15.166 15.111 15.051 15.001 14.944 14.876 14.799 14.754 14.686 14.644 14.596 14.546 14.481 14.431 14.374 14.339 14.314 14.219 14.144 14.089 14.041 14.026 13.939 13.876 13.804 13.704 13.711 13.34 12.89 15.112 15.041 16.132 14.816 13.775 11.786 11.831 13.1 11.312 11.146 10.908 10.807 10.765 10.727 11.236 -9999 -9999 -9999 -9999 -9999 -9999 -9999 -9999 -9999 -9999 -9999 -9999 -9999 -9999 -9999 -9999 -9999 -9999 -9999 -9999 -9999 -9999 -9999 -9999 -9999 -9999 -9999 -9999 -9999 -9999 -9999 -9999 -9999 -9999 -9999 -9999 10.614 10.551 10.518 10.532 10.871 10.992 11.615 12.769 12.57 13.308 13.352 13.176 13.227 13.313 13.389 13.447 13.559 13.651 13.771 13.751 14.029 13.989 14.109 14.379 14.551 14.624 14.634 14.661 14.766 14.691 14.726 15.001 14.951 15.002 15.032 15.422 15.792 16.232 16.164 15.647 15.567 15.319 15.912 16.494 15.647 16.202 16.272 16.262 16.512 16.554 16.224 16.629 16.944 15.229 15.319 15.512 15.299 15.469 15.332 15.294 15.189 15.189 15.232 15.234 15.327 15.359 15.097 15.214 15.312 15.129 15.027 15.112 15.319 15.219 15.204 14.929 15.049 15.324 15.359 15.482 15.097 14.924 15.499 14.959 15.319 15.127 15.104 15.299 14.959 15.007 15.654 15.104 15.039 14.934 14.894 14.932 14.899 14.844 14.804 14.694 14.637 14.629 14.529 14.467 14.489 14.494 14.382 14.334 14.454 14.472 14.484 14.587 14.532 15.139 14.872 15.324 14.952 15.734 15.017 14.959 15.149 14.992 15.167 15.004 14.912 14.904 14.902 15.039 15.204 14.842 15.207 15.117 14.809 14.792 14.747 14.899 14.677 14.777 14.484 14.359 14.457 14.464 14.269 14.469 14.137 14.202 14.132 13.917 13.994 13.929 14.069 13.922 14.284 13.787 13.727 13.667 13.999 13.959 13.627 13.497 13.514 13.664 13.637 13.597 13.534 13.357 13.332 13.859 14.544 14.627 13.799 14.627 14.902 14.872 15.351 15.435 15.176 15.604 15.413 15.448 15.602 15.321 15.374 15.179 15.281 15.001 14.744 14.29 14.169 13.209 12.932 13.047 12.619 12.397 12.284 12.244 12.282 12.347 12.214 12.179 12.159 12.162 12.132 12.139 12.089 12.054 12.012 12.007 12.009 11.974 11.977 11.924 11.867 11.877 11.847 11.874 11.842 11.812 11.764 11.757 11.704 11.692 11.637 11.639 11.547 11.484 11.467 11.379 11.329 11.264 11.214 11.137 11.027 10.962 10.922 10.827 10.777 10.707 10.647 10.609 10.517 10.499 10.422 10.349 10.272 10.202 10.169 10.114 10.074 10.027 10.047 10.059 10.132 10.162 10.002 9.947 9.919 9.892 9.859 9.809 9.737 9.662 9.594 9.544 9.469 9.422 9.357 9.327 9.274 9.217 9.139 9.117 9.069 9.047 9.027 9.004 8.934 8.902 8.804 8.752 8.677 8.584 8.489 8.395 8.27 8.152 8.142 8.177 8.167 8.112 9.772 9.942 11.195 6.66 8.062 5.767 5.845 6.215 5.632 6.712 6.02 5.332 5.322 5.475 5.857 5.84 5.37 4.952 4.647 4.51 5.067 5.43 5.43 5.272 5.052 4.917 4.897 4.947 4.955 4.982 5.042 5.072 5.132 5.237 5.36 5.552 5.732 5.912 6.672
17.114 17.274 18.234 18.314 17.884 17.029 16.494 16.404 16.364 16.339 16.311 16.279 16.224 16.169 16.119 16.054 16.006 15.954 15.916 15.896 15.856 15.796 15.709 15.656 15.616 15.574 15.506 15.404 15.336 15.286 15.221 15.159 15.109 15.054 15.004 14.916 14.864 14.819 14.764 14.684 14.644 14.574 14.536 14.446 14.389 14.376 14.324 14.244 14.181 14.121 14.079 14.016 13.996 13.931 13.849 13.779 13.722 13.67 13.401 13.01 14.322 15.01 15.422 14.237 12.445 12.42 13.506 11.634 12.235 10.557 10.904 10.762 10.673 10.693 10.731 -9999 -9999 -9999 -9999 -9999 -9999 -9999 -9999 -9999 -9999 -9999 -9999 -9999 -9999 -9999 -9999 -9999 -9999 -9999 -9999 -9999 -9999 -9999 -9999 -9999 -9999 -9999 -9999 -9999 -9999 -9999 -9999 -9999 -9999 -9999 -9999 10.575 10.562 10.59 10.707 10.689 10.918 11.332 12.116 12.929 13.473 13.211 13.188 13.183 13.257 13.442 13.383 13.604 13.569 13.689 13.789 13.869 13.949 14.019 14.311 14.359 14.519 14.396 14.784 14.694 14.914 14.631 14.734 14.891 14.919 15.177 15.724 15.342 15.859 16.412 15.942 16.154 15.532 15.444 15.927 15.319 16.214 16.589 16.079 16.359 15.902 16.434 16.159 16.379 15.432 15.149 15.097 15.427 15.302 15.394 15.384 15.437 15.279 15.097 15.162 15.297 15.254 15.172 15.077 15.259 14.989 15.057 15.119 14.912 15.222 15.039 14.832 14.882 15.257 15.254 15.284 15.447 14.944 15.124 14.952 15.074 14.997 15.072 15.319 14.862 15.137 15.564 15.409 15.019 14.952 14.892 14.799 14.739 14.714 14.607 14.562 14.572 14.504 14.552 14.379 14.392 14.429 14.339 14.252 14.387 14.379 14.417 14.452 15.174 15.017 14.592 14.622 14.692 15.109 14.919 14.962 15.059 14.857 14.847 14.807 14.844 14.929 14.977 14.774 15.004 14.852 14.922 15.044 14.827 15.324 14.794 14.757 14.602 14.672 14.364 14.314 14.229 14.322 14.194 14.142 14.142 14.284 14.159 13.979 13.912 13.912 13.782 13.854 13.807 13.657 13.582 13.614 13.802 13.769 14.652 14.127 14.724 14.934 14.229 14.327 15.309 15.049 15.402 15.439 15.737 15.822 15.644 15.494 15.144 15.254 15.087 14.85 14.494 14.195 14.282 13.843 13.381 13.131 12.779 12.921 12.697 12.485 12.448 12.444 12.426 12.389 12.354 12.302 12.292 12.254 12.247 12.237 12.209 12.209 12.187 12.137 12.142 12.122 12.107 12.114 12.039 12.042 12.012 11.982 11.977 11.954 11.929 11.919 11.874 11.892 11.892 11.869 11.834 11.829 11.784 11.742 11.717 11.679 11.647 11.612 11.562 11.482 11.442 11.382 11.322 11.262 11.174 11.097 11.009 10.947 10.884 10.924 10.894 10.684 10.659 10.594 10.557 10.514 10.429 10.362 10.289 10.199 10.114 10.272 10.064 10.034 9.957 9.922 9.964 10.052 10.019 9.949 9.887 9.847 9.807 9.777 9.699 9.639 9.564 9.497 9.424 9.374 9.297 9.242 9.192 9.144 9.109 9.047 9.007 8.999 8.974 8.929 8.849 8.819 8.752 8.684 8.607 8.517 8.399 8.327 8.2 8.117 8.115 8.13 8.102 8.035 9.407 10.157 10.8 8.175 6.06 5.74 5.742 6.355 5.645 7.077 6.01 5.317 5.142 5.227 5.3 5.225 5.417 5.102 4.74 4.587 5.167 5.457 5.422 5.257 5.027 4.94 4.927 4.95 4.957 5 5.032 5.087 5.172 5.28 5.445 5.585 5.792 5.91 7.097
18.016 18.489 17.729 17.086 16.559 16.464 16.449 16.406 16.354 16.351 16.251 16.204 16.179 16.139 16.099 16.049 16.004 15.986 15.919 15.879 15.804 15.759 15.726 15.644 15.586 15.554 15.471 15.404 15.329 15.259 15.211 15.161 15.099 15.039 14.971 14.929 14.846 14.796 14.751 14.676 14.621 14.561 14.496 14.461 14.394 14.341 14.304 14.231 14.169 14.119 14.041 13.981 13.949 13.879 13.821 13.759 13.712 13.642 13.548 13.404 14.359 15.932 14.537 13.657 12.494 12.136 13.704 13.58 11.193 10.767 10.727 10.63 10.673 10.678 -9999 -9999 -9999 -9999 -9999 -9999 -9999 -9999 -9999 -9999 -9999 -9999 -9999 -9999 -9999 -9999 -9999 -9999 -9999 -9999 -9999 -9999 -9999 -9999 -9999 -9999 -9999 -9999 -9999 -9999 -9999 -9999 -9999 -9999 -9999 -9999 -9999 -9999 10.604 10.62 10.552 10.956 11.032 11.045 11.476 12.649 12.993 13.232 13.196 13.152 13.225 13.296 13.366 13.446 13.629 13.594 13.686 13.799 14.029 13.961 14.381 14.246 14.444 14.326 14.446 14.509 14.534 14.606 14.859 14.824 14.982 15.134 15.449 15.602 15.909 16.074 16.187 15.689 16.089 16.159 16.327 15.217 16.037 16.432 16.572 16.364 16.329 16.182 15.752 16.212 15.089 15.117 15.012 15.049 15.097 15.174 15.302 15.127 15.359 15.282 15.364 15.392 15.189 15.052 15.254 15.002 15.129 15.062 14.904 15.127 14.979 14.864 14.727 14.902 15.567 15.319 14.842 15.242 14.939 15.164 15.267 15.309 14.987 14.862 14.959 14.874 14.757 14.944 15.407 15.329 14.809 14.747 14.839 14.704 14.627 14.652 14.497 14.517 14.502 14.389 14.307 14.307 14.379 14.294 14.202 14.312 14.327 14.324 14.399 15.009 14.482 14.549 14.724 14.567 15.264 15.172 15.044 14.694 14.842 15.029 14.917 15.229 14.742 14.774 14.707 14.682 14.842 14.689 14.879 14.694 14.682 14.607 14.434 14.512 14.349 14.332 14.342 14.397 14.247 14.027 14.124 13.999 14.344 13.962 13.959 14.014 14.982 14.669 14.444 15.089 15.292 15.144 15.489 15.892 15.969 16.087 16.039 15.934 15.849 15.614 15.337 15.652 15.469 15.392 14.939 14.394 14.472 14.149 13.584 13.332 13.159 12.973 12.844 12.761 12.664 12.604 12.571 12.542 12.513 12.524 12.513 12.48 12.468 12.475 12.479 12.411 12.374 12.332 12.294 12.287 12.272 12.292 12.239 12.214 12.207 12.172 12.119 12.152 12.129 12.104 12.102 12.039 12.039 11.999 11.987 11.987 11.939 12.012 11.987 11.894 11.889 11.882 11.857 11.839 11.822 11.782 11.734 11.684 11.699 11.637 11.597 11.539 11.469 11.414 11.337 11.282 11.229 11.152 11.087 10.997 10.939 10.972 10.794 10.879 10.832 10.982 10.579 10.882 10.502 10.392 10.324 10.239 10.207 10.234 10.054 10.049 10.149 10.177 9.814 9.819 9.872 9.939 9.987 9.887 9.822 9.772 9.727 9.647 9.602 9.522 9.462 9.392 9.334 9.249 9.187 9.132 9.082 9.052 8.984 8.959 8.942 8.912 8.867 8.807 8.727 8.667 8.614 8.519 8.422 8.324 8.227 8.147 8.107 8.132 8.135 8.072 7.982 8.872 10.42 9.847 7.105 5.89 5.595 5.57 5.587 5.527 5.595 5.392 5.747 5.32 5.327 5.185 5.245 5.232 4.955 4.695 4.505 5.172 5.45 5.522 5.265 4.99 4.922 4.977 4.99 4.96 5.005 5.032 5.082 5.197 5.317 5.485 5.657 5.81 5.96 8.035
17.846 17.644 16.701 16.546 16.496 16.476 16.459 16.441 16.371 16.289 16.249 16.204 16.161 16.126 16.096 16.064 16.021 15.954 15.874 15.846 15.811 15.756 15.674 15.649 15.581 15.501 15.446 15.374 15.311 15.259 15.214 15.136 15.086 15.029 14.966 14.916 14.851 14.804 14.739 14.651 14.579 14.534 14.501 14.439 14.369 14.324 14.276 14.221 14.161 14.084 14.034 13.976 13.901 13.849 13.794 13.729 13.65 13.581 13.547 13.61 14.221 15.466 13.758 12.369 12.449 13.453 13.145 12.978 11.408 10.789 10.7 10.556 10.579 10.654 -9999 -9999 -9999 -9999 -9999 -9999 -9999 -9999 -9999 -9999 -9999 -9999 -9999 -9999 -9999 -9999 -9999 -9999 -9999 -9999 -9999 -9999 -9999 -9999 -9999 -9999 -9999 -9999 -9999 -9999 -9999 -9999 -9999 -9999 -9999 -9999 -9999 -9999 10.504 10.606 10.571 10.717 10.878 10.871 11.352 12.68 12.756 13.411 13.189 13.108 13.195 13.301 13.338 13.449 13.501 13.571 13.794 13.754 13.826 13.936 14.169 14.301 14.446 14.636 14.519 14.381 14.566 14.644 14.661 14.671 14.692 15.047 15.519 15.617 15.812 16.019 16.189 15.792 16.014 15.949 16.109 15.197 16.022 16.699 16.222 16.259 15.734 16.017 15.942 16.029 15.639 15.374 14.947 15.217 15.182 14.992 15.337 15.084 15.289 14.929 15.124 15.047 15.092 15.124 15.004 14.944 14.762 14.879 14.812 14.749 15.269 14.812 14.704 14.822 15.294 15.014 14.967 15.024 14.674 14.774 14.942 14.844 14.904 14.892 14.769 15.079 14.822 15.319 15.042 15.052 14.774 14.684 14.809 14.722 14.572 14.572 14.507 14.512 14.564 14.397 14.242 14.234 14.292 14.242 14.154 14.219 14.262 14.262 14.392 14.729 14.384 14.789 14.652 14.747 14.972 14.614 14.597 14.617 14.702 14.734 14.839 14.827 14.669 14.704 14.689 14.694 14.814 14.607 14.892 14.697 14.474 14.414 14.582 14.752 14.764 14.527 14.952 15.079 15.009 15.234 14.997 14.719 15.474 15.829 16.089 15.542 16.094 16.122 16.094 16.207 15.999 16.152 16.082 15.534 15.202 15.397 15.114 14.194 13.857 13.747 13.254 13.369 13.042 13.009 12.967 12.924 12.897 12.894 12.867 12.807 12.757 12.735 12.682 12.644 12.615 12.576 12.563 12.538 12.495 12.497 12.487 12.538 12.542 12.496 12.525 12.353 12.314 12.294 12.267 12.262 12.242 12.214 12.184 12.182 12.182 12.169 12.122 12.122 12.097 12.112 12.102 12.052 12.029 12.012 11.982 11.982 12.032 12.209 12.054 11.912 11.889 11.849 11.842 11.817 11.827 11.784 11.732 11.699 11.664 11.622 11.584 11.542 11.464 11.387 11.312 11.262 11.194 11.122 11.052 10.947 10.894 10.832 10.729 10.697 10.682 10.642 10.534 10.624 10.577 10.374 10.292 10.259 10.199 10.122 10.059 9.989 9.992 10.102 9.794 9.722 9.712 9.792 9.874 9.882 9.779 9.702 9.679 9.614 9.539 9.502 9.407 9.332 9.274 9.204 9.137 9.077 9.029 8.974 8.914 8.889 8.887 8.829 8.779 8.742 8.667 8.579 8.507 8.399 8.314 8.232 8.15 8.072 8.072 8.102 8.092 8.047 7.96 8.43 7.487 7.137 6.547 5.902 5.565 5.532 5.637 5.462 5.405 5.372 5.595 5.51 5.632 5.245 5.417 5.377 4.86 4.895 4.622 5.245 5.44 5.377 5.262 4.912 4.907 4.97 4.992 5.015 5.027 5.06 5.14 5.227 5.377 5.56 5.692 5.917 6.632 7.345
17.021 16.679 16.559 16.521 16.501 16.486 16.439 16.394 16.331 16.269 16.236 16.191 16.151 16.129 16.066 16.049 15.966 15.919 15.874 15.846 15.764 15.709 15.651 15.594 15.521 15.471 15.411 15.354 15.299 15.229 15.191 15.136 15.084 15.021 14.966 14.884 14.816 14.746 14.686 14.624 14.569 14.516 14.461 14.391 14.344 14.289 14.246 14.194 14.149 14.081 13.991 13.911 13.876 13.841 13.771 13.694 13.616 13.527 13.672 14.021 13.753 13.838 12.596 12.242 11.951 12.146 12.133 11.073 10.926 10.815 10.521 10.555 10.574 10.345 -9999 -9999 -9999 -9999 -9999 -9999 -9999 -9999 -9999 -9999 -9999 -9999 -9999 -9999 -9999 -9999 -9999 -9999 -9999 -9999 -9999 -9999 -9999 -9999 -9999 -9999 -9999 -9999 -9999 -9999 -9999 -9999 -9999 -9999 -9999 -9999 -9999 -9999 10.445 10.471 10.583 10.523 10.697 10.809 11.319 12.407 12.856 13.327 13.142 13.135 13.186 13.303 13.303 13.469 13.566 13.711 13.634 13.836 13.766 13.964 13.954 14.054 14.384 14.281 14.414 14.524 14.551 14.576 14.969 14.739 14.679 14.864 15.207 15.594 15.547 15.959 16.607 15.652 16.499 15.972 16.237 15.209 15.037 16.454 16.267 16.159 16.444 15.974 15.329 16.189 15.402 14.872 14.884 14.897 15.017 15.024 15.429 15.154 15.224 15.254 14.927 15.234 14.979 14.987 14.849 14.827 14.917 14.832 14.932 14.879 14.849 14.909 14.722 14.622 14.717 15.709 14.577 14.652 14.814 15.302 15.432 14.747 15.092 14.704 14.654 14.749 14.747 14.859 15.177 14.789 14.779 14.549 14.667 14.627 14.479 14.552 14.397 14.364 14.409 14.239 14.179 14.207 14.214 14.184 14.099 14.169 14.229 14.194 14.417 14.379 14.314 14.519 15.057 14.652 14.627 14.484 14.514 14.549 14.592 14.679 14.609 14.892 14.742 14.587 14.674 15.447 15.059 14.942 14.882 15.199 16.279 15.999 16.337 16.719 16.992 16.439 16.624 16.477 16.552 16.524 16.327 16.052 15.867 15.717 15.737 15.532 15.242 14.694 15.099 14.252 13.904 13.612 13.497 13.399 13.209 13.147 13.099 13.084 13.049 13.037 12.979 12.967 12.967 12.934 12.949 12.904 12.882 12.869 12.869 12.772 12.722 12.692 12.634 12.595 12.57 12.735 12.63 12.605 12.502 12.603 12.463 12.425 12.387 12.389 12.335 12.318 12.292 12.249 12.229 12.202 12.202 12.184 12.167 12.154 12.147 12.137 12.099 12.074 12.079 12.092 12.124 12.042 11.999 12.019 11.992 11.994 11.972 11.967 11.967 12.212 12.024 11.864 11.852 11.794 11.792 11.762 11.722 11.674 11.639 11.597 11.557 11.504 11.419 11.372 11.292 11.207 11.174 11.059 11.007 10.924 10.862 10.827 10.699 10.662 10.607 10.532 10.507 10.457 10.374 10.342 10.294 10.352 10.362 10.147 10.104 10.022 9.939 9.917 9.839 9.757 9.677 9.624 9.684 9.767 9.752 9.677 9.604 9.569 9.494 9.407 9.339 9.292 9.222 9.149 9.069 9.017 8.974 8.907 8.857 8.822 8.789 8.744 8.689 8.632 8.557 8.472 8.407 8.307 8.232 8.147 8.09 8.035 8.065 8.13 8.097 8.002 7.967 8.64 6.692 6.61 6.047 6.76 6.202 5.812 5.535 5.51 5.427 5.355 5.515 5.445 5.26 5.197 5.487 5.37 4.915 4.402 4.587 5.347 5.437 5.302 5.305 4.965 4.91 4.972 5.01 5.022 5.045 5.097 5.18 5.232 5.395 5.572 5.71 6.272 8.095 8.66
16.591 16.594 16.574 16.539 16.516 16.466 16.424 16.369 16.314 16.276 16.234 16.204 16.161 16.114 16.049 15.999 15.941 15.909 15.839 15.816 15.739 15.699 15.651 15.586 15.546 15.466 15.391 15.346 15.279 15.231 15.176 15.109 15.046 14.999 14.931 14.851 14.784 14.726 14.664 14.601 14.524 14.504 14.444 14.381 14.296 14.274 14.219 14.184 14.144 14.079 13.981 13.906 13.864 13.796 13.756 13.666 13.583 13.49 13.591 13.6 13.615 12.691 12.316 12.352 12.771 11.52 12.125 11.405 10.888 10.496 10.492 10.545 10.548 -9999 -9999 -9999 -9999 -9999 -9999 -9999 -9999 -9999 -9999 -9999 -9999 -9999 -9999 -9999 -9999 -9999 -9999 -9999 -9999 -9999 -9999 -9999 -9999 -9999 -9999 -9999 -9999 -9999 -9999 -9999 -9999 -9999 -9999 -9999 -9999 -9999 -9999 -9999 -9999 10.573 10.548 10.484 10.611 10.768 11.231 12.178 13.094 13.66 13.15 13.105 13.139 13.275 13.281 13.459 13.444 13.504 13.654 13.784 13.916 13.914 13.926 14.101 14.114 14.154 14.296 14.426 14.414 14.869 14.766 14.814 14.849 14.734 15.049 15.764 15.774 15.857 15.509 15.267 16.424 15.457 15.782 14.969 15.199 15.977 15.337 15.922 16.202 15.999 15.664 15.937 15.557 14.842 14.827 14.814 14.894 15.244 15.044 15.064 15.069 14.989 14.999 14.899 14.992 14.927 14.817 14.837 14.889 15.007 14.794 14.609 14.639 14.727 14.629 14.522 14.527 14.707 14.544 14.552 15.037 15.037 14.937 14.579 15.269 14.594 14.564 14.602 14.857 14.687 15.382 14.677 14.489 14.512 14.562 14.799 14.412 14.404 14.384 14.307 14.342 14.287 14.139 14.107 14.162 14.154 14.047 14.097 14.184 14.147 14.224 14.272 14.247 14.369 14.464 14.432 15.307 14.579 14.827 15.427 14.884 15.007 15.827 15.207 15.067 15.827 16.587 16.969 16.847 16.542 16.122 16.327 16.904 16.217 16.414 16.509 16.032 16.094 15.722 15.772 15.094 14.719 14.369 13.907 14.032 13.832 13.542 13.532 13.512 13.347 13.337 13.322 13.287 13.272 13.237 13.159 13.147 13.212 13.074 13.047 13.002 12.992 12.964 12.959 12.907 12.872 12.879 12.834 12.824 12.862 12.762 12.727 12.659 12.619 12.592 12.565 12.544 12.478 12.436 12.477 12.389 12.4 12.453 12.474 12.419 12.395 12.298 12.293 12.257 12.234 12.232 12.189 12.207 12.169 12.152 12.137 12.122 12.104 12.074 12.059 12.059 12.039 12.034 12.007 11.999 12.002 11.994 12.017 11.974 11.977 11.967 12.069 11.874 11.862 11.834 11.789 11.772 11.727 11.704 11.657 11.622 11.594 11.537 11.484 11.397 11.342 11.264 11.202 11.137 11.029 10.959 10.899 10.869 10.789 10.729 10.634 10.592 10.499 10.429 10.422 10.342 10.309 10.277 10.352 10.227 10.157 10.119 10.042 9.909 9.847 9.804 9.757 9.697 9.617 9.537 9.584 9.677 9.732 9.592 9.512 9.437 9.372 9.294 9.239 9.172 9.082 9.014 8.952 8.884 8.854 8.789 8.724 8.704 8.652 8.597 8.532 8.454 8.392 8.332 8.237 8.174 8.102 8.045 8.03 8.097 8.132 8.037 8.055 8.052 7.365 6.485 6.39 6.762 8.205 7.38 5.945 5.435 5.365 5.31 5.317 5.322 5.21 5.127 5.195 5.3 5.16 5.005 4.647 4.642 5.352 5.457 5.295 5.195 4.935 4.925 4.947 5.017 5.052 5.065 5.127 5.225 5.317 5.457 5.62 5.777 6.52 7.31 9.887
16.596 16.569 16.554 16.544 16.499 16.446 16.389 16.361 16.319 16.269 16.236 16.181 16.111 16.066 16.026 15.981 15.926 15.894 15.849 15.791 15.724 15.679 15.639 15.594 15.536 15.444 15.381 15.334 15.251 15.201 15.134 15.081 15.031 14.929 14.889 14.841 14.764 14.686 14.631 14.576 14.526 14.444 14.424 14.356 14.299 14.236 14.196 14.151 14.129 14.061 13.981 13.876 13.811 13.759 13.701 13.609 13.542 13.453 13.36 13.112 12.974 12.538 12.294 12.177 11.842 11.407 11.578 11.109 10.7 10.483 10.464 10.53 10.541 -9999 -9999 -9999 -9999 -9999 -9999 -9999 -9999 -9999 -9999 -9999 -9999 -9999 -9999 -9999 -9999 -9999 -9999 -9999 -9999 -9999 -9999 -9999 -9999 -9999 -9999 -9999 -9999 -9999 -9999 -9999 -9999 -9999 -9999 -9999 -9999 -9999 -9999 -9999 -9999 10.524 10.52 10.485 10.597 10.802 11.306 12.612 13.106 14.648 13.32 13.088 13.146 13.242 13.287 13.311 13.369 13.474 13.529 13.621 13.859 13.779 14.211 14.131 14.249 14.334 14.224 14.376 14.476 14.426 14.591 14.546 14.652 14.969 15.119 15.649 15.752 16.012 15.862 15.139 16.184 15.632 15.609 15.349 15.117 16.764 15.734 15.469 16.257 15.722 15.597 16.007 15.644 14.762 14.824 14.832 14.982 14.944 15.014 14.804 14.819 15.007 14.834 14.952 14.849 14.782 14.759 14.804 14.759 14.874 14.719 14.657 14.562 14.544 14.549 14.454 14.462 14.542 14.577 14.449 14.494 14.644 14.497 14.694 14.872 14.564 14.667 14.452 14.462 14.592 15.647 14.862 14.599 14.432 14.452 14.454 14.427 14.459 14.284 14.294 14.267 14.114 14.072 14.067 14.099 14.059 13.977 14.039 14.087 14.112 14.234 15.597 15.587 15.867 16.897 15.224 16.592 16.687 16.057 16.597 16.697 16.737 16.672 16.577 16.259 16.744 16.657 16.547 16.064 15.827 15.807 15.564 14.652 14.419 14.634 13.974 14.089 13.864 13.794 13.757 13.724 13.647 13.617 13.532 13.532 13.439 13.424 13.392 13.342 13.334 13.287 13.262 13.232 13.189 13.154 13.107 13.087 13.027 13.007 12.974 12.952 12.902 12.917 12.904 12.844 12.822 12.789 12.779 12.754 12.734 12.692 12.674 12.622 12.587 12.635 12.707 12.495 12.464 12.615 12.382 12.368 12.352 12.406 12.344 12.322 12.297 12.288 12.256 12.229 12.209 12.212 12.179 12.162 12.149 12.137 12.134 12.132 12.097 12.094 12.079 12.037 12.032 12.049 12.029 12.012 12.012 11.992 12.002 11.964 11.964 12.347 12.024 12.169 11.892 11.804 11.777 11.739 11.742 11.689 11.654 11.622 11.579 11.502 11.459 11.372 11.312 11.239 11.179 11.214 11.029 10.934 10.859 10.812 10.769 10.659 10.587 10.542 10.637 10.422 10.362 10.312 10.304 10.272 10.214 10.172 10.117 10.084 10.019 9.929 9.827 9.717 9.719 9.697 9.602 9.482 9.427 9.474 9.532 9.589 9.522 9.397 9.294 9.227 9.149 9.069 9.012 8.942 8.872 8.812 8.772 8.717 8.644 8.609 8.522 8.497 8.444 8.382 8.307 8.249 8.172 8.102 8.052 8.04 8.07 8.11 8.067 8.127 9.28 9.495 7.565 6.575 8.172 7.25 6.742 5.897 5.51 5.817 5.71 5.56 5.262 5.497 5.22 5.072 5.23 5.33 5.125 4.805 4.595 4.78 5.432 5.495 5.272 5.09 4.875 4.905 4.95 5.022 5.082 5.047 5.11 5.245 5.417 5.507 5.627 5.805 6.67 6.972 9.115
16.594 16.566 16.521 16.489 16.444 16.404 16.389 16.339 16.304 16.241 16.179 16.111 16.086 16.069 15.984 15.949 15.924 15.884 15.816 15.761 15.736 15.659 15.621 15.584 15.491 15.431 15.366 15.304 15.254 15.164 15.124 15.054 14.991 14.919 14.864 14.799 14.729 14.666 14.621 14.546 14.499 14.464 14.394 14.336 14.274 14.184 14.169 14.144 14.109 14.061 13.979 13.879 13.786 13.726 13.646 13.564 13.512 13.413 13.296 13.026 12.697 12.378 12.33 12.404 12.654 11.762 11.83 10.833 11.226 11.217 10.619 10.568 -9999 -9999 -9999 -9999 -9999 -9999 -9999 -9999 -9999 -9999 -9999 -9999 -9999 -9999 -9999 -9999 -9999 -9999 -9999 -9999 -9999 -9999 -9999 -9999 -9999 -9999 -9999 -9999 -9999 -9999 -9999 -9999 -9999 -9999 -9999 -9999 -9999 -9999 -9999 -9999 -9999 10.302 10.74 10.626 10.534 10.646 11.648 12.463 13.01 14.441 13.483 13.076 13.102 13.14 13.247 13.345 13.499 13.381 13.614 13.644 13.789 13.811 13.836 14.136 14.074 14.139 14.354 14.406 14.194 14.519 14.319 14.699 14.907 14.607 14.959 15.759 15.632 16.024 15.362 14.864 14.924 15.377 15.972 15.194 14.759 15.979 16.209 15.747 15.917 16.052 15.867 15.649 15.772 14.769 14.879 14.734 14.884 15.042 15.004 14.902 14.957 14.749 14.777 14.827 14.677 14.934 14.617 14.634 14.617 14.564 14.782 14.622 14.572 14.707 14.599 14.397 14.439 14.809 14.682 14.374 14.419 14.499 14.779 14.589 14.469 14.474 14.449 14.529 14.567 14.679 15.382 14.782 14.887 14.527 14.477 14.644 14.422 14.194 14.214 14.119 14.092 14.094 13.994 13.969 14.047 14.057 13.929 13.987 14.029 14.009 14.052 15.347 16.304 16.372 16.689 15.977 16.269 15.744 15.642 14.837 15.227 15.147 14.952 14.954 14.349 14.424 14.557 14.254 14.222 14.182 14.114 14.117 14.084 14.034 13.992 13.899 13.884 13.827 13.794 13.722 13.684 13.612 13.529 13.502 13.432 13.382 13.364 13.334 13.287 13.257 13.232 13.182 13.179 13.149 13.209 13.059 13.012 12.979 13.074 12.942 12.899 12.857 12.807 12.804 12.787 12.757 12.757 12.717 12.697 12.712 12.684 12.644 12.597 12.547 12.527 12.487 12.445 12.393 12.416 12.452 12.316 12.327 12.305 12.282 12.281 12.259 12.319 12.257 12.212 12.204 12.189 12.157 12.122 12.109 12.102 12.102 12.074 12.087 12.057 12.059 12.039 12.039 12.037 12.007 11.997 12.077 12.019 11.979 11.964 11.959 11.922 11.894 11.859 11.837 11.769 11.724 11.712 11.719 11.657 11.617 11.567 11.532 11.457 11.434 11.342 11.279 11.212 11.122 11.134 10.972 10.882 10.809 10.719 10.667 10.602 10.532 10.467 10.394 10.364 10.337 10.269 10.237 10.189 10.157 10.102 10.064 10.014 9.992 10.367 9.859 9.714 9.634 9.647 9.607 9.472 9.377 9.287 9.282 9.384 9.522 9.362 9.237 9.164 9.102 9.014 8.967 8.882 8.802 8.722 8.674 8.612 8.574 8.489 8.449 8.424 8.384 8.332 8.272 8.197 8.127 8.087 8.102 8.102 8.105 8.067 8.055 8.885 9.165 9.965 9.052 6.545 6.232 5.95 5.612 5.417 5.36 5.385 5.41 5.44 5.16 5.217 5.255 5.047 5.132 5.315 5.15 4.777 4.557 4.862 5.5 5.362 5.31 5.007 4.842 4.897 4.95 5.007 5.05 5.097 5.145 5.277 5.457 5.567 5.685 6.245 6.792 6.842 8.087
16.531 16.531 16.464 16.449 16.434 16.421 16.369 16.314 16.219 16.171 16.154 16.101 16.071 16.019 15.981 15.936 15.894 15.866 15.829 15.749 15.696 15.626 15.574 15.536 15.466 15.409 15.351 15.284 15.239 15.151 15.076 15.029 14.976 14.894 14.841 14.774 14.709 14.641 14.599 14.544 14.481 14.436 14.376 14.314 14.241 14.166 14.146 14.104 14.064 14.019 13.951 13.826 13.739 13.689 13.634 13.536 13.496 13.403 13.25 12.914 12.594 12.53 12.599 11.927 12.504 12.018 11.488 10.782 11.389 11.02 10.73 10.703 -9999 -9999 -9999 -9999 -9999 -9999 -9999 -9999 -9999 -9999 -9999 -9999 -9999 -9999 -9999 -9999 -9999 -9999 -9999 -9999 -9999 -9999 -9999 -9999 -9999 -9999 -9999 -9999 -9999 -9999 -9999 -9999 -9999 -9999 -9999 -9999 -9999 -9999 -9999 -9999 10.376 10.392 10.644 10.636 11.035 11.216 11.238 11.897 12.32 13.248 13.339 13.03 13.062 13.113 13.182 13.319 13.359 13.546 13.509 13.661 13.644 13.799 13.961 14.214 14.051 14.216 14.191 14.229 14.374 14.336 14.459 14.499 14.599 14.532 14.764 15.397 15.672 15.444 15.029 15.187 15.132 15.162 15.364 15.454 14.699 15.427 15.259 15.317 16.187 16.204 15.789 15.879 15.652 15.142 14.912 14.664 14.809 14.762 14.657 14.764 14.789 14.844 14.709 14.769 14.722 14.817 14.607 14.537 14.637 14.587 14.569 14.552 14.482 14.569 14.347 14.302 14.304 14.774 14.534 14.282 14.324 14.559 14.374 14.687 14.379 14.342 14.542 14.557 14.372 14.402 14.487 14.642 14.719 14.394 14.609 14.157 14.222 14.234 14.069 14.082 14.047 14.042 13.924 13.924 13.984 13.964 13.912 13.899 13.984 13.942 13.939 14.194 14.432 14.299 14.532 14.127 14.107 14.169 14.207 14.202 14.254 14.239 14.249 14.334 14.252 14.217 14.209 14.174 14.149 14.097 14.094 14.049 14.049 13.967 13.917 13.884 13.782 13.739 13.717 13.614 13.604 13.532 13.502 13.464 13.367 13.372 13.352 13.279 13.217 13.214 13.167 13.127 13.102 13.072 13.037 13.019 12.949 12.919 12.877 12.857 12.842 12.782 12.757 12.754 13.122 12.774 12.917 12.689 12.637 12.662 12.597 12.559 12.714 12.679 12.82 12.601 12.408 12.355 12.338 12.384 12.287 12.277 12.296 12.346 12.253 12.223 12.253 12.187 12.191 12.144 12.134 12.132 12.109 12.094 12.082 12.079 12.059 12.062 12.057 12.022 12.029 12.002 11.992 11.989 11.962 11.972 11.987 11.962 11.932 11.909 11.909 11.897 11.844 11.829 11.747 11.717 11.692 11.674 11.629 11.592 11.527 11.462 11.399 11.519 11.267 11.207 11.144 11.052 10.989 10.909 10.814 10.754 10.669 10.607 10.544 10.462 10.414 10.374 10.404 10.264 10.194 10.172 10.137 10.079 10.029 10.004 9.947 9.887 9.849 9.774 9.747 9.629 9.569 9.559 9.554 9.432 9.294 9.192 9.179 9.194 9.327 9.209 9.122 9.047 8.964 8.897 8.802 8.707 8.652 8.607 8.547 8.494 8.442 8.374 8.362 8.327 8.282 8.197 8.152 8.117 8.149 8.132 8.095 8.032 8.065 8.305 9.157 9.157 7.11 7.555 10.29 5.917 5.58 5.36 5.63 5.222 5.217 5.305 5.235 5.162 5.102 5.162 5.062 5.27 5.355 4.97 4.672 4.395 4.99 5.46 5.337 5.277 5.01 4.832 4.907 4.98 5.015 5.09 5.13 5.185 5.307 5.48 5.635 5.722 6.307 7.172 7.815 9.59
