ncols 442
nrows 31
xllcorner    456112
yllcorner    88576
cellsize     2
NODATA_value -9999
29.361 29.486 29.601 32.213 29.493 29.546 29.563 29.391 29.448 29.618 29.708 29.678 29.668 29.583 29.491 29.321 29.336 29.171 29.238 29.348 29.188 29.106 29.396 29.411 29.301 30.578 30.141 29.408 29.763 30.011 30.128 30.311 30.418 30.538 34.343 30.863 31.281 30.893 30.933 30.908 30.878 30.846 31.228 32.061 31.511 31.296 31.411 31.431 31.436 31.471 31.606 31.761 31.926 32.068 32.206 32.311 32.476 32.603 32.751 32.836 32.988 33.088 33.168 33.296 33.421 33.531 33.663 33.871 34.008 34.161 34.248 34.408 34.568 34.758 34.923 35.061 35.204 35.331 35.45 35.569 35.64 35.727 35.757 35.816 35.898 35.915 35.965 35.987 36.068 36.129 36.185 36.266 36.316 36.386 36.465 36.548 36.598 36.663 36.705 36.761 36.79 36.82 36.856 36.903 36.95 37.018 37.118 37.217 37.315 37.414 37.515 37.62 37.721 37.816 37.949 38.065 38.195 38.32 38.443 38.559 38.668 38.813 38.947 39.08 39.213 39.34 39.502 39.654 39.779 39.928 40.103 40.268 40.427 40.58 40.738 40.878 41.038 41.151 41.316 41.466 41.641 41.788 41.941 42.166 42.351 42.511 42.653 42.821 42.988 43.116 43.298 43.496 43.643 43.818 43.988 44.141 -9999 -9999 -9999 -9999 -9999 -9999 -9999 -9999 -9999 -9999 -9999 -9999 -9999 -9999 -9999 -9999 -9999 -9999 -9999 -9999 -9999 -9999 -9999 -9999 -9999 -9999 -9999 -9999 -9999 -9999 -9999 -9999 -9999 -9999 -9999 -9999 -9999 -9999 -9999 -9999 -9999 -9999 -9999 -9999 -9999 -9999 -9999 -9999 -9999 -9999 -9999 -9999 -9999 -9999 -9999 -9999 -9999 -9999 -9999 -9999 -9999 -9999 -9999 -9999 -9999 -9999 -9999 -9999 -9999 -9999 -9999 -9999 -9999 -9999 -9999 -9999 -9999 -9999 -9999 -9999 -9999 -9999 -9999 -9999 -9999 -9999 -9999 -9999 -9999 -9999 -9999 -9999 -9999 -9999 -9999 -9999 -9999 -9999 -9999 -9999 -9999 -9999 -9999 -9999 -9999 -9999 -9999 -9999 -9999 -9999 -9999 -9999 -9999 -9999 -9999 -9999 -9999 -9999 -9999 -9999 -9999 -9999 -9999 -9999 -9999 -9999 -9999 35.489 35.406 35.306 35.231 35.154 35.071 35.009 34.936 34.881 34.761 34.699 34.636 34.616 34.544 34.474 34.441 34.404 34.356 34.334 34.324 34.304 34.299 34.251 34.101 34.021 34.021 33.859 33.681 33.596 33.506 33.421 33.334 33.219 33.161 33.069 32.976 32.904 32.896 32.866 32.861 32.826 32.741 32.681 32.711 32.689 32.714 32.734 32.806 32.879 33.061 33.479 33.571 33.644 33.754 33.829 34.004 34.161 34.339 34.481 34.609 34.721 34.896 35.046 35.219 35.369 35.526 35.689 35.861 36.071 36.241 36.429 36.611 36.766 36.924 37.074 37.231 37.434 37.591 37.749 37.891 38.031 38.114 38.226 38.321 38.404 38.464 38.554 38.634 38.716 38.776 38.819 38.874 38.934 38.926 38.924 38.934 38.916 38.939 38.916 38.919 38.931 38.931 38.929 38.934 38.921 38.906 38.876 38.851 38.816 38.804 38.741 38.704 38.679 38.661 38.619 38.556 38.451 38.346 38.299 38.259 39.396 38.454 37.991 37.944 37.881 37.776 37.689 37.616 37.499 37.379 37.244 37.149 37.074 37.029 36.971 36.889 36.804 36.771 36.741 36.669 36.624 36.551 36.501 36.369 36.289 36.206 36.111 36.009 35.906 35.796 35.709 35.651 35.564 35.491 35.441 35.371 35.279 35.209 35.171
29.786 29.798 29.616 29.586 29.571 29.633 29.533 29.526 29.651 30.063 33.046 32.906 29.963 29.908 29.953 29.866 29.816 29.678 29.643 29.488 29.308 29.283 29.238 29.143 29.553 29.848 29.971 29.636 29.521 29.723 29.916 30.111 30.206 30.588 31.268 31.071 33.896 30.976 30.678 30.678 30.348 30.378 30.978 31.588 31.191 31.511 31.443 31.541 31.561 31.543 31.638 31.796 31.961 32.103 32.251 32.366 32.523 32.671 32.766 32.863 32.976 33.071 33.186 33.311 33.441 33.583 33.726 33.876 34.003 34.161 34.303 34.423 34.576 34.763 34.927 35.083 35.236 35.36 35.468 35.566 35.673 35.758 35.803 35.856 35.935 35.989 36.041 36.088 36.127 36.186 36.224 36.288 36.353 36.428 36.508 36.588 36.648 36.705 36.762 36.808 36.86 36.912 36.936 37.003 37.048 37.116 37.212 37.285 37.393 37.474 37.577 37.693 37.796 37.894 38.014 38.127 38.259 38.38 38.496 38.59 38.726 38.842 39.006 39.115 39.247 39.401 39.552 39.671 39.82 39.997 40.168 40.333 40.506 40.701 40.838 40.986 41.136 41.256 41.408 41.561 41.718 41.883 42.028 42.218 42.413 42.596 42.773 42.961 43.146 43.353 43.508 43.686 43.861 44.018 44.168 44.306 -9999 -9999 -9999 -9999 -9999 -9999 -9999 -9999 -9999 -9999 -9999 -9999 -9999 -9999 -9999 -9999 -9999 -9999 -9999 -9999 -9999 -9999 -9999 -9999 -9999 -9999 -9999 -9999 -9999 -9999 -9999 -9999 -9999 -9999 -9999 -9999 -9999 -9999 -9999 -9999 -9999 -9999 -9999 -9999 -9999 -9999 -9999 -9999 -9999 -9999 -9999 -9999 -9999 -9999 -9999 -9999 -9999 -9999 -9999 -9999 -9999 -9999 -9999 -9999 -9999 -9999 -9999 -9999 -9999 -9999 -9999 -9999 -9999 -9999 -9999 -9999 -9999 -9999 -9999 -9999 -9999 -9999 -9999 -9999 -9999 -9999 -9999 -9999 -9999 -9999 -9999 -9999 -9999 -9999 -9999 -9999 -9999 -9999 -9999 -9999 -9999 -9999 -9999 -9999 -9999 -9999 -9999 -9999 -9999 -9999 -9999 -9999 -9999 -9999 -9999 -9999 -9999 -9999 -9999 -9999 -9999 -9999 -9999 -9999 -9999 -9999 -9999 35.499 35.394 35.306 35.236 35.166 35.096 35.014 34.959 34.901 34.784 34.719 34.659 34.611 34.556 34.521 34.459 34.406 34.394 34.381 34.379 34.369 34.349 34.279 34.151 34.119 34.046 33.866 33.726 33.616 33.529 33.449 33.351 33.276 33.179 33.101 33.001 32.929 32.924 32.904 32.899 32.866 32.809 32.761 32.756 32.781 32.779 32.821 32.859 32.939 33.141 33.394 33.579 33.741 33.781 33.861 34.019 34.184 34.374 34.519 34.626 34.751 34.926 35.069 35.229 35.411 35.566 35.731 35.886 36.084 36.284 36.461 36.619 36.784 36.934 37.091 37.279 37.424 37.576 37.734 37.896 38.006 38.151 38.246 38.361 38.481 38.541 38.604 38.694 38.786 38.826 38.879 38.934 38.964 38.971 38.954 38.979 38.989 38.986 38.994 38.991 38.996 38.979 38.994 38.984 38.981 38.989 38.939 38.886 38.854 38.814 38.739 38.731 38.716 38.681 38.654 38.584 38.491 38.394 38.341 38.589 39.369 38.139 38.056 37.971 37.891 37.796 37.719 37.641 37.514 37.411 37.266 37.156 37.111 37.046 36.961 36.911 36.861 36.806 36.776 36.714 36.666 36.604 36.516 36.406 36.339 36.249 36.129 36.054 35.941 35.856 35.769 35.686 35.621 35.546 35.479 35.401 35.321 35.256 35.219
30.046 30.273 32.721 29.743 29.748 29.791 29.561 29.548 29.608 29.936 32.581 33.133 30.221 30.328 30.306 30.333 30.323 30.273 30.138 30.006 29.943 29.856 29.776 29.798 29.846 29.986 30.073 30.063 30.081 34.888 29.581 29.613 29.868 30.328 31.141 30.963 32.053 30.288 30.128 30.778 30.513 30.683 31.443 30.891 31.061 31.921 31.816 31.758 31.711 31.661 31.733 31.818 31.988 32.183 32.318 32.426 32.558 32.713 32.811 32.903 33.011 33.108 33.238 33.361 33.458 33.583 33.753 33.878 34.011 34.143 34.289 34.411 34.581 34.748 34.923 35.078 35.221 35.356 35.467 35.564 35.66 35.733 35.797 35.874 35.964 36.035 36.078 36.118 36.157 36.213 36.264 36.315 36.367 36.454 36.532 36.61 36.67 36.755 36.807 36.869 36.922 36.966 37.024 37.073 37.14 37.186 37.271 37.355 37.434 37.525 37.63 37.754 37.851 37.941 38.059 38.19 38.305 38.421 38.526 38.647 38.781 38.912 39.075 39.18 39.292 39.467 39.601 39.733 39.896 40.043 40.208 40.411 40.583 40.753 40.908 41.043 41.183 41.351 41.471 41.631 41.783 41.983 42.156 42.341 42.523 42.701 42.923 43.138 43.306 43.483 43.661 43.851 44.008 44.163 44.343 44.476 -9999 -9999 -9999 -9999 -9999 -9999 -9999 -9999 -9999 -9999 -9999 -9999 -9999 -9999 -9999 -9999 -9999 -9999 -9999 -9999 -9999 -9999 -9999 -9999 -9999 -9999 -9999 -9999 -9999 -9999 -9999 -9999 -9999 -9999 -9999 -9999 -9999 -9999 -9999 -9999 -9999 -9999 -9999 -9999 -9999 -9999 -9999 -9999 -9999 -9999 -9999 -9999 -9999 -9999 -9999 -9999 -9999 -9999 -9999 -9999 -9999 -9999 -9999 -9999 -9999 -9999 -9999 -9999 -9999 -9999 -9999 -9999 -9999 -9999 -9999 -9999 -9999 -9999 -9999 -9999 -9999 -9999 -9999 -9999 -9999 -9999 -9999 -9999 -9999 -9999 -9999 -9999 -9999 -9999 -9999 -9999 -9999 -9999 -9999 -9999 -9999 -9999 -9999 -9999 -9999 -9999 -9999 -9999 -9999 -9999 -9999 -9999 -9999 -9999 -9999 -9999 -9999 -9999 -9999 -9999 -9999 -9999 -9999 -9999 -9999 -9999 -9999 35.484 35.414 35.336 35.241 35.184 35.089 35.046 34.971 34.876 34.809 34.736 34.686 34.636 34.579 34.549 34.519 34.484 34.431 34.419 34.404 34.384 34.391 34.291 34.171 35.611 35.246 33.946 33.789 33.661 33.544 33.449 33.369 33.281 33.206 33.109 33.016 32.951 32.941 32.946 32.941 32.911 32.856 32.801 32.829 32.819 32.854 32.906 32.929 33.001 33.234 33.439 33.614 33.754 33.836 33.899 34.026 34.204 34.386 34.524 34.656 34.809 34.961 35.109 35.286 35.461 35.611 35.754 35.921 36.121 36.304 36.476 36.671 36.794 36.946 37.096 37.301 37.429 37.596 37.744 37.876 38.029 38.154 38.276 38.384 38.474 38.576 38.646 38.749 38.846 38.886 38.929 39.014 39.006 39.024 39.034 39.041 39.051 39.054 39.034 39.041 39.056 39.036 39.026 39.041 39.054 39.036 38.994 38.936 38.886 38.841 38.796 38.764 38.744 38.744 38.671 38.609 38.516 38.444 38.426 38.969 38.644 38.151 38.089 38.019 37.924 37.851 37.764 37.681 37.534 37.401 37.309 37.186 37.146 37.066 37.004 36.914 36.879 36.836 36.784 36.736 36.666 36.624 36.514 36.436 36.379 36.291 36.181 36.061 35.964 35.864 35.801 35.741 35.656 35.594 35.529 35.441 35.341 -9999 -9999
30.668 30.751 30.048 30.056 31.986 30.023 30.796 29.811 29.873 29.953 30.843 32.726 30.061 30.131 30.331 30.376 30.436 30.473 30.418 30.448 30.381 30.346 30.273 30.803 30.226 30.216 30.193 30.268 30.151 33.391 30.053 29.923 29.836 29.858 29.906 29.976 30.098 30.201 30.376 30.511 30.623 30.773 30.866 31.068 31.241 31.908 34.686 36.228 31.951 31.846 31.833 31.891 32.051 32.231 32.388 32.516 32.616 32.738 32.826 32.948 33.038 33.158 33.273 33.388 33.511 33.651 33.765 33.889 34.041 34.154 34.308 34.433 34.563 34.738 34.869 35.038 35.205 35.352 35.472 35.558 35.66 35.759 35.829 35.93 35.997 36.076 36.11 36.152 36.2 36.244 36.282 36.33 36.408 36.472 36.538 36.619 36.705 36.801 36.882 36.93 37.004 37.053 37.1 37.186 37.216 37.286 37.357 37.435 37.493 37.589 37.685 37.802 37.919 38.023 38.14 38.247 38.381 38.487 38.598 38.703 38.867 38.993 39.138 39.243 39.348 39.521 39.643 39.813 39.923 40.098 40.271 40.458 40.653 40.806 40.951 41.128 41.263 41.433 41.593 41.756 41.953 42.128 42.283 42.478 42.661 42.868 43.078 43.251 43.408 43.601 43.771 43.958 44.123 44.288 44.451 -9999 -9999 -9999 -9999 -9999 -9999 -9999 -9999 -9999 -9999 -9999 -9999 -9999 -9999 -9999 -9999 -9999 -9999 -9999 -9999 -9999 -9999 -9999 -9999 -9999 -9999 -9999 -9999 -9999 -9999 -9999 -9999 -9999 -9999 -9999 -9999 -9999 -9999 -9999 -9999 -9999 -9999 -9999 -9999 -9999 -9999 -9999 -9999 -9999 -9999 -9999 -9999 -9999 -9999 -9999 -9999 -9999 -9999 -9999 -9999 -9999 -9999 -9999 -9999 -9999 -9999 -9999 -9999 -9999 -9999 -9999 -9999 -9999 -9999 -9999 -9999 -9999 -9999 -9999 -9999 -9999 -9999 -9999 -9999 -9999 -9999 -9999 -9999 -9999 -9999 -9999 -9999 -9999 -9999 -9999 -9999 -9999 -9999 -9999 -9999 -9999 -9999 -9999 -9999 -9999 -9999 -9999 -9999 -9999 -9999 -9999 -9999 -9999 -9999 -9999 -9999 -9999 -9999 -9999 -9999 -9999 -9999 -9999 -9999 -9999 -9999 -9999 -9999 -9999 35.436 35.354 35.259 35.206 35.121 35.054 34.981 34.909 34.826 34.759 34.721 34.674 34.624 34.594 34.551 34.501 34.501 34.496 34.466 34.431 34.396 34.339 34.186 34.286 34.466 33.951 33.819 33.724 33.576 33.484 33.386 33.284 33.189 33.119 33.021 32.981 32.984 32.991 32.959 32.936 32.881 32.846 32.869 32.891 32.946 32.949 33.014 33.091 33.309 33.491 33.676 33.784 33.864 33.936 34.056 34.256 34.394 34.534 34.686 34.859 35.006 35.154 35.334 35.499 35.646 35.769 36.001 36.161 36.339 36.521 36.674 36.844 36.946 37.136 37.286 37.451 37.596 37.769 37.899 38.021 38.196 38.294 38.411 38.504 38.571 38.684 38.806 38.856 38.929 39.016 39.056 39.079 39.096 39.091 39.139 39.136 39.111 39.121 39.121 39.109 39.079 39.086 39.099 39.096 39.071 39.031 39.001 38.954 38.899 38.846 38.821 38.804 38.761 38.706 38.631 38.564 38.504 38.466 39.301 38.269 38.176 38.131 38.071 37.951 37.881 37.811 37.699 37.576 37.451 37.331 37.239 37.164 37.086 37.026 36.946 36.896 36.861 36.806 36.769 36.714 36.649 36.531 36.481 36.399 36.314 36.199 36.099 35.979 35.904 35.811 35.769 35.696 -9999 -9999 -9999 -9999 -9999 -9999
30.858 32.521 31.118 32.913 35.111 31.276 31.596 30.181 30.341 30.348 30.388 30.428 30.383 30.241 30.281 30.356 30.321 30.423 30.491 30.633 30.693 30.581 30.638 30.671 32.026 30.558 30.528 30.938 32.716 33.308 30.496 30.261 30.163 30.148 30.093 29.866 29.843 30.231 30.681 32.688 30.781 30.838 30.973 31.148 31.436 31.711 32.496 35.758 34.751 32.303 31.988 31.998 32.133 32.266 32.443 32.623 32.738 32.803 32.906 32.971 33.071 33.168 33.315 33.443 33.547 33.693 33.794 33.924 34.05 34.183 34.322 34.459 34.617 34.778 34.908 35.058 35.217 35.339 35.46 35.566 35.687 35.76 35.86 35.959 36.046 36.103 36.151 36.188 36.225 36.268 36.317 36.373 36.446 36.516 36.573 36.652 36.746 36.823 36.904 36.974 37.059 37.127 37.18 37.239 37.316 37.366 37.43 37.497 37.568 37.672 37.777 37.867 37.995 38.098 38.22 38.343 38.453 38.559 38.687 38.794 38.941 39.053 39.203 39.313 39.438 39.576 39.676 39.833 39.993 40.161 40.341 40.528 40.693 40.868 41.028 41.211 41.356 41.551 41.726 41.946 42.123 42.296 42.451 42.633 42.816 43.021 43.236 43.388 43.556 43.763 43.926 44.083 44.263 44.411 44.556 -9999 -9999 -9999 -9999 -9999 -9999 -9999 -9999 -9999 -9999 -9999 -9999 -9999 -9999 -9999 -9999 -9999 -9999 -9999 -9999 -9999 -9999 -9999 -9999 -9999 -9999 -9999 -9999 -9999 -9999 -9999 -9999 -9999 -9999 -9999 -9999 -9999 -9999 -9999 -9999 -9999 -9999 -9999 -9999 -9999 -9999 -9999 -9999 -9999 -9999 -9999 -9999 -9999 -9999 -9999 -9999 -9999 -9999 -9999 -9999 -9999 -9999 -9999 -9999 -9999 -9999 -9999 -9999 -9999 -9999 -9999 -9999 -9999 -9999 -9999 -9999 -9999 -9999 -9999 -9999 -9999 -9999 -9999 -9999 -9999 -9999 -9999 -9999 -9999 -9999 -9999 -9999 -9999 -9999 -9999 -9999 -9999 -9999 -9999 -9999 -9999 -9999 -9999 -9999 -9999 -9999 -9999 -9999 -9999 -9999 -9999 -9999 -9999 -9999 -9999 -9999 -9999 -9999 -9999 -9999 -9999 -9999 -9999 -9999 -9999 -9999 -9999 -9999 -9999 35.469 35.369 35.294 35.221 35.146 35.079 35.006 34.911 34.849 34.799 34.734 34.686 34.659 34.629 34.589 34.586 34.549 34.519 34.491 34.444 34.406 34.301 34.176 34.164 34.059 33.946 33.819 33.806 33.611 33.511 33.419 33.324 33.216 33.124 33.049 33.019 33.011 33.001 32.979 32.964 32.931 32.899 32.914 32.941 32.969 32.976 33.071 33.141 33.369 33.594 33.729 33.859 33.869 33.944 34.094 34.279 34.404 34.539 34.696 34.856 35.019 35.186 35.381 35.514 35.696 35.841 36.021 36.224 36.379 36.534 36.709 36.854 36.964 37.169 37.311 37.464 37.631 37.781 37.906 38.041 38.196 38.299 38.424 38.544 38.639 38.731 38.824 38.909 38.959 39.041 39.079 39.111 39.146 39.164 39.179 39.196 39.206 39.236 39.214 39.201 39.171 39.174 39.151 39.144 39.114 39.059 39.036 39.004 38.951 38.881 38.871 38.861 38.816 38.744 38.656 38.581 38.531 38.941 38.939 38.299 38.219 38.166 38.076 37.996 37.916 37.811 37.719 37.601 37.469 37.341 37.274 37.186 37.139 37.039 36.956 36.946 36.899 36.849 36.806 36.731 36.664 36.576 36.506 36.429 36.344 36.226 36.109 -9999 -9999 -9999 -9999 -9999 -9999 -9999 -9999 -9999 -9999 -9999
30.558 30.598 30.793 31.586 33.258 33.328 32.576 32.038 33.991 31.776 30.731 31.108 30.636 30.561 30.583 30.658 30.723 30.608 30.586 30.646 30.611 30.573 30.628 30.663 30.793 30.926 30.848 30.718 33.428 32.433 31.798 30.488 30.396 30.336 30.243 30.106 30.033 30.123 30.401 30.721 31.188 30.948 31.061 31.266 32.918 35.516 32.903 32.591 32.443 32.106 32.143 32.128 32.163 32.311 32.451 32.638 32.741 32.828 32.941 33.031 33.114 33.197 33.334 33.446 33.561 33.676 33.817 33.973 34.095 34.203 34.335 34.46 34.587 34.721 34.859 35.009 35.15 35.278 35.397 35.507 35.622 35.744 35.85 35.95 36.046 36.1 36.159 36.204 36.245 36.295 36.337 36.384 36.487 36.536 36.603 36.671 36.743 36.842 36.941 37.008 37.095 37.164 37.225 37.286 37.372 37.408 37.454 37.53 37.625 37.7 37.821 37.909 38.061 38.169 38.304 38.392 38.547 38.653 38.783 38.898 39.053 39.141 39.286 39.383 39.516 39.616 39.738 39.908 40.043 40.221 40.408 40.576 40.753 40.958 41.128 41.291 41.481 41.683 41.906 42.096 42.273 42.448 42.623 42.796 42.966 43.173 43.386 43.528 43.718 43.918 44.078 44.261 44.401 44.541 44.691 -9999 -9999 -9999 -9999 -9999 -9999 -9999 -9999 -9999 -9999 -9999 -9999 -9999 -9999 -9999 -9999 -9999 -9999 -9999 -9999 -9999 -9999 -9999 -9999 -9999 -9999 -9999 -9999 -9999 -9999 -9999 -9999 -9999 -9999 -9999 -9999 -9999 -9999 -9999 -9999 -9999 -9999 -9999 -9999 -9999 -9999 -9999 -9999 -9999 -9999 -9999 -9999 -9999 -9999 -9999 -9999 -9999 -9999 -9999 -9999 -9999 -9999 -9999 -9999 -9999 -9999 -9999 -9999 -9999 -9999 -9999 -9999 -9999 -9999 -9999 -9999 -9999 -9999 -9999 -9999 -9999 -9999 -9999 -9999 -9999 -9999 -9999 -9999 -9999 -9999 -9999 -9999 -9999 -9999 -9999 -9999 -9999 -9999 -9999 -9999 -9999 -9999 -9999 -9999 -9999 -9999 -9999 -9999 -9999 -9999 -9999 -9999 -9999 -9999 -9999 -9999 -9999 -9999 -9999 -9999 -9999 -9999 -9999 -9999 -9999 -9999 -9999 -9999 -9999 35.475 35.404 35.304 35.234 35.179 35.094 35.041 34.974 34.896 34.851 34.784 34.739 34.689 34.656 34.651 34.604 34.566 34.531 34.484 34.471 34.426 34.331 34.179 34.226 34.486 33.949 33.849 33.746 33.639 33.546 33.466 33.336 33.239 33.146 33.059 33.064 33.049 33.021 33.009 32.996 32.976 32.954 32.961 33.001 33.054 33.046 33.111 33.224 33.534 36.541 33.744 33.881 33.924 34.004 34.166 34.309 34.424 34.564 34.729 34.904 35.044 35.231 35.414 35.536 35.709 35.879 36.059 36.229 36.386 36.549 36.739 36.886 37.039 37.179 37.371 37.514 37.669 37.814 37.936 38.074 38.216 38.346 38.439 38.564 38.661 38.789 38.886 38.919 38.991 39.074 39.111 39.154 39.174 39.191 39.236 39.254 39.271 39.284 39.271 39.279 39.256 39.241 39.229 39.214 39.176 39.141 39.114 39.046 38.979 38.956 38.904 38.866 38.841 38.751 38.696 38.631 38.591 39.369 38.564 38.316 38.239 38.181 38.101 38.026 37.916 37.834 37.706 37.599 37.459 37.379 37.321 37.226 37.151 37.076 37.016 36.971 36.936 36.869 36.824 36.759 36.686 36.606 -9999 -9999 -9999 -9999 -9999 -9999 -9999 -9999 -9999 -9999 -9999 -9999 -9999 -9999 -9999 -9999
30.543 30.578 30.638 30.726 30.841 31.278 31.696 35.768 34.476 32.958 30.903 31.891 31.066 30.953 30.923 30.958 30.976 31.043 30.983 30.931 30.883 30.991 31.388 30.858 31.283 31.221 31.206 30.931 30.753 32.303 30.801 30.813 30.688 31.176 30.376 30.396 30.541 30.506 30.293 30.508 35.266 30.941 31.103 31.423 34.873 34.526 32.423 32.686 32.928 33.008 32.433 32.243 32.298 32.358 32.498 32.656 32.776 32.861 32.976 33.039 33.133 33.212 33.339 33.465 33.557 33.713 33.849 33.98 34.073 34.209 34.342 34.477 34.608 34.754 34.877 35.019 35.14 35.278 35.395 35.519 35.64 35.769 35.893 35.977 36.067 36.125 36.183 36.232 36.268 36.317 36.379 36.411 36.492 36.544 36.614 36.688 36.771 36.864 36.962 37.041 37.122 37.202 37.267 37.34 37.406 37.459 37.507 37.572 37.652 37.738 37.836 37.953 38.068 38.203 38.361 38.486 38.618 38.711 38.863 38.998 39.093 39.231 39.356 39.453 39.563 39.678 39.813 39.933 40.106 40.293 40.471 40.641 40.841 41.038 41.226 41.401 41.611 41.813 42.011 42.196 42.378 42.603 42.761 42.948 43.121 43.306 43.518 43.686 43.873 44.061 44.218 44.376 44.501 44.643 44.788 -9999 -9999 -9999 -9999 -9999 -9999 -9999 -9999 -9999 -9999 -9999 -9999 -9999 -9999 -9999 -9999 -9999 -9999 -9999 -9999 -9999 -9999 -9999 -9999 -9999 -9999 -9999 -9999 -9999 -9999 -9999 -9999 -9999 -9999 -9999 -9999 -9999 -9999 -9999 -9999 -9999 -9999 -9999 -9999 -9999 -9999 -9999 -9999 -9999 -9999 -9999 -9999 -9999 -9999 -9999 -9999 -9999 -9999 -9999 -9999 -9999 -9999 -9999 -9999 -9999 -9999 -9999 -9999 -9999 -9999 -9999 -9999 -9999 -9999 -9999 -9999 -9999 -9999 -9999 -9999 -9999 -9999 -9999 -9999 -9999 -9999 -9999 -9999 -9999 -9999 -9999 -9999 -9999 -9999 -9999 -9999 -9999 -9999 -9999 -9999 -9999 -9999 -9999 -9999 -9999 -9999 -9999 -9999 -9999 -9999 -9999 -9999 -9999 -9999 -9999 -9999 -9999 -9999 -9999 -9999 -9999 -9999 -9999 -9999 -9999 -9999 -9999 -9999 -9999 35.474 35.436 35.351 35.291 35.199 35.134 35.071 35.016 34.926 34.876 34.809 34.791 34.756 34.721 34.679 34.589 34.544 34.534 34.489 34.484 34.409 34.351 34.229 34.239 34.201 34.279 33.859 33.769 33.716 33.559 33.451 33.364 33.254 33.151 33.081 33.069 33.064 33.051 33.061 33.024 32.996 33.014 33.004 33.001 33.031 33.064 34.451 36.119 35.064 34.026 33.829 33.929 33.961 34.056 34.211 34.334 34.451 34.611 34.774 34.944 35.096 35.311 35.454 35.576 35.754 35.909 36.099 36.279 36.421 36.579 36.774 36.894 37.104 37.246 37.406 37.574 37.711 37.856 37.999 38.129 38.251 38.386 38.481 38.589 38.706 38.826 38.899 38.976 39.039 39.121 39.139 39.141 39.211 39.234 39.271 39.276 39.309 39.319 39.314 39.304 39.306 39.309 39.301 39.281 39.234 39.204 39.179 39.101 39.046 39.019 38.961 38.941 38.859 38.784 38.721 38.681 38.939 39.244 38.416 38.344 38.251 38.201 38.096 38.039 37.969 37.854 37.729 37.626 37.501 37.406 37.346 37.244 37.191 37.084 37.054 37.004 36.941 36.901 -9999 -9999 -9999 -9999 -9999 -9999 -9999 -9999 -9999 -9999 -9999 -9999 -9999 -9999 -9999 -9999 -9999 -9999 -9999 -9999
30.741 30.718 30.726 30.773 30.823 30.903 30.923 31.066 31.088 31.951 33.793 32.521 32.331 31.076 31.171 31.296 34.008 31.303 31.263 31.088 31.141 31.291 31.156 31.198 31.246 31.043 30.986 30.831 30.913 30.806 30.841 30.853 30.786 30.911 30.591 30.776 30.851 30.798 30.678 30.526 33.771 34.156 31.143 32.038 34.076 32.896 31.878 32.198 32.333 37.332 32.931 32.568 32.418 32.467 32.531 32.665 32.786 32.907 33.031 33.1 33.184 33.285 33.403 33.5 33.619 33.758 33.89 33.998 34.118 34.231 34.358 34.491 34.62 34.735 34.875 35.014 35.157 35.282 35.424 35.551 35.661 35.798 35.918 36.022 36.101 36.161 36.224 36.276 36.317 36.369 36.407 36.466 36.511 36.567 36.623 36.687 36.799 36.879 36.956 37.056 37.145 37.244 37.312 37.383 37.441 37.503 37.579 37.648 37.723 37.798 37.906 38.011 38.146 38.276 38.406 38.541 38.661 38.783 38.923 39.048 39.158 39.288 39.418 39.536 39.631 39.701 39.836 39.976 40.131 40.323 40.531 40.703 40.911 41.113 41.341 41.526 41.736 41.928 42.121 42.326 42.523 42.721 42.886 43.061 43.251 43.426 43.608 43.821 44.001 44.168 44.318 44.453 44.611 44.766 -9999 -9999 -9999 -9999 -9999 -9999 -9999 -9999 -9999 -9999 -9999 -9999 -9999 -9999 -9999 -9999 -9999 -9999 -9999 -9999 -9999 -9999 -9999 -9999 -9999 -9999 -9999 -9999 -9999 -9999 -9999 -9999 -9999 -9999 -9999 -9999 -9999 -9999 -9999 -9999 -9999 -9999 -9999 -9999 -9999 -9999 -9999 -9999 -9999 -9999 -9999 -9999 -9999 -9999 -9999 -9999 -9999 -9999 -9999 -9999 -9999 -9999 -9999 -9999 -9999 -9999 -9999 -9999 -9999 -9999 -9999 -9999 -9999 -9999 -9999 -9999 -9999 -9999 -9999 -9999 -9999 -9999 -9999 -9999 -9999 -9999 -9999 -9999 -9999 -9999 -9999 -9999 -9999 -9999 -9999 -9999 -9999 -9999 -9999 -9999 -9999 -9999 -9999 -9999 -9999 -9999 -9999 -9999 -9999 -9999 -9999 -9999 -9999 -9999 -9999 -9999 -9999 -9999 -9999 -9999 -9999 -9999 -9999 -9999 -9999 -9999 -9999 -9999 -9999 -9999 -9999 35.449 35.399 35.314 35.249 35.179 35.086 35.046 34.969 34.956 34.876 34.826 34.789 34.711 34.649 34.584 34.549 34.546 34.514 34.504 34.436 34.369 34.234 34.251 35.571 35.434 33.886 33.791 33.656 33.559 33.469 33.359 33.279 33.171 33.124 33.106 33.101 33.094 33.051 33.066 33.044 33.069 33.081 33.031 32.989 34.166 38.999 35.126 33.606 34.624 33.869 33.949 33.971 34.079 34.256 34.354 34.496 34.659 34.814 35.001 35.174 35.356 35.484 35.644 35.794 35.989 36.129 36.311 36.471 36.646 36.786 36.924 37.129 37.299 37.446 37.614 37.734 37.876 38.039 38.184 38.316 38.429 38.536 38.656 38.796 38.881 38.931 39.004 39.084 39.134 39.161 39.199 39.249 39.289 39.326 39.359 39.351 39.366 39.354 39.339 39.339 39.341 39.311 39.309 39.284 39.264 39.236 39.174 39.106 39.084 39.056 38.976 38.916 38.806 38.774 38.714 39.526 38.734 38.434 38.379 38.294 38.216 38.151 38.069 37.989 37.899 37.731 37.619 37.521 37.436 37.346 37.274 37.211 -9999 -9999 -9999 -9999 -9999 -9999 -9999 -9999 -9999 -9999 -9999 -9999 -9999 -9999 -9999 -9999 -9999 -9999 -9999 -9999 -9999 -9999 -9999 -9999 -9999
30.933 30.946 30.976 30.973 31.003 30.938 30.936 30.968 31.033 31.148 31.211 31.438 32.011 32.376 31.811 32.388 32.661 32.506 32.468 31.463 31.391 32.761 31.696 31.388 31.291 31.258 31.168 31.108 31.053 31.791 32.486 31.071 30.913 30.766 30.806 30.851 30.946 31.131 30.993 32.048 32.668 30.506 30.961 31.846 33.153 31.706 32.145 33.827 32.255 32.409 33.439 34.45 32.749 32.539 32.553 32.67 32.81 32.956 33.055 33.142 33.214 33.299 33.421 33.515 33.655 33.787 33.908 34.032 34.149 34.27 34.376 34.507 34.622 34.768 34.888 35.024 35.16 35.313 35.445 35.579 35.695 35.835 35.943 36.042 36.131 36.209 36.259 36.314 36.369 36.41 36.459 36.488 36.536 36.602 36.647 36.762 36.836 36.908 37.012 37.111 37.184 37.285 37.352 37.427 37.53 37.568 37.623 37.718 37.786 37.908 37.966 38.078 38.183 38.291 38.443 38.563 38.711 38.828 38.983 39.123 39.263 39.376 39.491 39.578 39.668 39.748 39.883 40.036 40.203 40.383 40.546 40.763 40.938 41.161 41.413 41.623 41.833 42.058 42.251 42.448 42.663 42.853 43.016 43.203 43.386 43.603 43.741 43.941 44.111 44.278 44.443 44.611 44.738 44.866 -9999 -9999 -9999 -9999 -9999 -9999 -9999 -9999 -9999 -9999 -9999 -9999 -9999 -9999 -9999 -9999 -9999 -9999 -9999 -9999 -9999 -9999 -9999 -9999 -9999 -9999 -9999 -9999 -9999 -9999 -9999 -9999 -9999 -9999 -9999 -9999 -9999 -9999 -9999 -9999 -9999 -9999 -9999 -9999 -9999 -9999 -9999 -9999 -9999 -9999 -9999 -9999 -9999 -9999 -9999 -9999 -9999 -9999 -9999 -9999 -9999 -9999 -9999 -9999 -9999 -9999 -9999 -9999 -9999 -9999 -9999 -9999 -9999 -9999 -9999 -9999 -9999 -9999 -9999 -9999 -9999 -9999 -9999 -9999 -9999 -9999 -9999 -9999 -9999 -9999 -9999 -9999 -9999 -9999 -9999 -9999 -9999 -9999 -9999 -9999 -9999 -9999 -9999 -9999 -9999 -9999 -9999 -9999 -9999 -9999 -9999 -9999 -9999 -9999 -9999 -9999 -9999 -9999 -9999 -9999 -9999 -9999 -9999 -9999 -9999 -9999 -9999 -9999 -9999 -9999 -9999 35.514 35.439 35.369 35.306 35.231 35.169 35.099 35.044 34.974 34.869 34.811 34.766 34.711 34.659 34.609 34.559 34.534 34.534 34.534 34.466 34.366 34.219 34.356 34.291 33.961 33.989 33.819 33.659 33.541 33.471 33.371 33.279 33.199 33.166 33.151 33.121 33.129 33.064 33.126 33.099 33.051 33.091 33.046 33.079 33.271 34.936 33.911 34.171 33.729 33.906 33.991 34.016 34.131 34.279 34.371 34.529 34.669 34.861 35.034 35.229 35.391 35.536 35.701 35.849 36.026 36.229 36.369 36.524 36.684 36.809 37.004 37.156 37.321 37.489 37.631 37.766 37.914 38.069 38.199 38.356 38.486 38.599 38.726 38.861 38.914 38.989 39.069 39.151 39.176 39.204 39.269 39.289 39.321 39.336 39.381 39.404 39.414 39.391 39.406 39.391 39.396 39.371 39.344 39.354 39.329 39.281 39.206 39.169 39.144 39.099 39.019 38.961 38.846 38.779 38.826 39.674 38.569 38.461 38.401 38.329 38.241 38.164 38.116 38.014 37.881 37.781 37.644 37.539 -9999 -9999 -9999 -9999 -9999 -9999 -9999 -9999 -9999 -9999 -9999 -9999 -9999 -9999 -9999 -9999 -9999 -9999 -9999 -9999 -9999 -9999 -9999 -9999 -9999 -9999 -9999 -9999 -9999
31.118 31.091 31.086 31.123 31.158 31.148 31.131 31.131 31.158 31.173 31.228 31.286 31.316 31.438 31.496 31.753 31.916 31.648 32.303 32.011 31.936 32.828 31.961 31.461 31.428 31.403 31.348 31.331 31.251 31.188 31.398 31.228 31.166 31.183 31.061 31.176 31.081 31.061 31.153 31.101 31.286 30.838 30.993 31.207 31.49 32.183 34.263 34.978 35.006 32.916 33.871 34.62 32.931 32.622 32.622 32.675 32.785 32.911 33.034 33.182 33.279 33.362 33.443 33.553 33.676 33.767 33.88 34.01 34.148 34.262 34.373 34.483 34.626 34.738 34.875 35.012 35.158 35.298 35.442 35.553 35.692 35.818 35.925 36.008 36.113 36.193 36.247 36.33 36.377 36.435 36.489 36.535 36.561 36.631 36.709 36.762 36.873 36.956 37.039 37.16 37.232 37.338 37.406 37.496 37.573 37.651 37.703 37.798 37.888 37.978 38.078 38.158 38.231 38.346 38.481 38.606 38.716 38.881 39.006 39.161 39.256 39.426 39.533 39.603 39.688 39.763 39.903 40.071 40.253 40.431 40.606 40.821 41.066 41.298 41.533 41.763 41.958 42.186 42.386 42.606 42.818 42.978 43.156 43.361 43.516 43.696 43.868 44.031 44.203 44.363 44.553 44.711 44.848 -9999 -9999 -9999 -9999 -9999 -9999 -9999 -9999 -9999 -9999 -9999 -9999 -9999 -9999 -9999 -9999 -9999 -9999 -9999 -9999 -9999 -9999 -9999 -9999 -9999 -9999 -9999 -9999 -9999 -9999 -9999 -9999 -9999 -9999 -9999 -9999 -9999 -9999 -9999 -9999 -9999 -9999 -9999 -9999 -9999 -9999 -9999 -9999 -9999 -9999 -9999 -9999 -9999 -9999 -9999 -9999 -9999 -9999 -9999 -9999 -9999 -9999 -9999 -9999 -9999 -9999 -9999 -9999 -9999 -9999 -9999 -9999 -9999 -9999 -9999 -9999 -9999 -9999 -9999 -9999 -9999 -9999 -9999 -9999 -9999 -9999 -9999 -9999 -9999 -9999 -9999 -9999 -9999 -9999 -9999 -9999 -9999 -9999 -9999 -9999 -9999 -9999 -9999 -9999 -9999 -9999 -9999 -9999 -9999 -9999 -9999 -9999 -9999 -9999 -9999 -9999 -9999 -9999 -9999 -9999 -9999 -9999 -9999 -9999 -9999 -9999 -9999 -9999 -9999 -9999 -9999 -9999 35.525 35.456 35.401 35.346 35.284 35.214 35.126 35.044 34.956 34.876 34.831 34.771 34.716 34.656 34.614 34.576 34.554 34.569 34.564 34.486 34.366 34.246 34.351 34.244 33.966 33.901 33.809 33.644 33.554 33.494 33.409 33.294 33.231 33.216 33.186 33.176 33.179 33.159 33.176 33.154 33.094 33.079 33.039 33.079 33.181 33.349 33.476 33.574 33.751 33.906 34.029 34.056 34.164 34.306 34.416 34.529 34.721 34.889 35.081 35.286 35.414 35.566 35.726 35.896 36.086 36.259 36.411 36.614 36.749 36.876 37.089 37.231 37.374 37.534 37.676 37.834 37.946 38.104 38.249 38.389 38.531 38.634 38.776 38.886 38.979 39.036 39.139 39.171 39.229 39.269 39.294 39.346 39.366 39.389 39.451 39.449 39.449 39.434 39.441 39.434 39.426 39.411 39.399 39.389 39.371 39.289 39.239 39.199 39.161 39.126 39.029 38.946 38.871 38.826 39.486 39.309 38.586 38.511 38.446 38.379 38.289 38.231 38.146 -9999 -9999 -9999 -9999 -9999 -9999 -9999 -9999 -9999 -9999 -9999 -9999 -9999 -9999 -9999 -9999 -9999 -9999 -9999 -9999 -9999 -9999 -9999 -9999 -9999 -9999 -9999 -9999 -9999 -9999 -9999 -9999 -9999 -9999
31.351 31.328 31.338 31.283 31.283 31.251 31.308 31.348 31.353 31.338 31.358 31.328 31.358 31.328 31.431 31.493 31.616 31.748 32.208 35.558 32.378 32.051 32.051 31.788 32.013 31.638 31.531 31.413 31.391 31.363 31.351 31.391 31.448 31.378 31.323 31.746 31.308 31.296 31.292 31.316 31.173 31.125 31.027 31.106 31.292 32.443 35.377 32.946 32.17 32.854 33.248 33.596 34.066 33.771 32.727 32.719 32.76 32.912 33.045 33.196 33.293 33.371 33.454 33.565 33.686 33.8 33.894 33.999 34.136 34.241 34.366 34.5 34.629 34.749 34.873 35.012 35.143 35.302 35.43 35.562 35.67 35.802 35.909 36.018 36.115 36.199 36.256 36.335 36.401 36.457 36.508 36.561 36.617 36.663 36.746 36.81 36.905 36.981 37.081 37.188 37.273 37.383 37.451 37.553 37.618 37.698 37.771 37.863 37.926 38.003 38.121 38.201 38.263 38.398 38.483 38.613 38.773 38.913 39.061 39.183 39.316 39.438 39.543 39.656 39.716 39.826 40.003 40.133 40.288 40.463 40.681 40.901 41.191 41.441 41.663 41.866 42.083 42.308 42.513 42.711 42.908 43.118 43.283 43.483 43.656 43.796 43.983 44.153 44.308 44.458 44.613 44.786 44.936 -9999 -9999 -9999 -9999 -9999 -9999 -9999 -9999 -9999 -9999 -9999 -9999 -9999 -9999 -9999 -9999 -9999 -9999 -9999 -9999 -9999 -9999 -9999 -9999 -9999 -9999 -9999 -9999 -9999 -9999 -9999 -9999 -9999 -9999 -9999 -9999 -9999 -9999 -9999 -9999 -9999 -9999 -9999 -9999 -9999 -9999 -9999 -9999 -9999 -9999 -9999 -9999 -9999 -9999 -9999 -9999 -9999 -9999 -9999 -9999 -9999 -9999 -9999 -9999 -9999 -9999 -9999 -9999 -9999 -9999 -9999 -9999 -9999 -9999 -9999 -9999 -9999 -9999 -9999 -9999 -9999 -9999 -9999 -9999 -9999 -9999 -9999 -9999 -9999 -9999 -9999 -9999 -9999 -9999 -9999 -9999 -9999 -9999 -9999 -9999 -9999 -9999 -9999 -9999 -9999 -9999 -9999 -9999 -9999 -9999 -9999 -9999 -9999 -9999 -9999 -9999 -9999 -9999 -9999 -9999 -9999 -9999 -9999 -9999 -9999 -9999 -9999 -9999 -9999 -9999 -9999 -9999 35.539 35.516 35.496 35.389 35.301 35.204 35.106 35.016 34.944 34.894 34.849 34.791 34.721 34.666 34.626 34.614 34.594 34.564 34.554 34.479 34.376 34.239 34.444 34.476 33.946 33.866 33.744 33.639 33.566 33.501 33.429 33.336 33.284 33.261 33.221 33.209 33.221 33.234 33.219 33.164 33.111 33.086 33.036 33.116 33.251 33.436 33.511 33.644 33.771 33.924 34.054 34.091 34.211 34.324 34.454 34.594 34.756 34.939 35.124 35.294 35.434 35.574 35.759 35.919 36.119 36.299 36.471 36.631 36.766 36.924 37.139 37.279 37.436 37.586 37.744 37.864 38.016 38.174 38.316 38.436 38.559 38.681 38.844 38.914 39.011 39.101 39.166 39.196 39.239 39.309 39.354 39.401 39.441 39.446 39.466 39.489 39.491 39.484 39.491 39.491 39.464 39.431 39.426 39.419 39.376 39.299 39.266 39.241 39.189 39.141 39.049 38.954 38.899 38.816 39.769 39.029 38.621 38.539 -9999 -9999 -9999 -9999 -9999 -9999 -9999 -9999 -9999 -9999 -9999 -9999 -9999 -9999 -9999 -9999 -9999 -9999 -9999 -9999 -9999 -9999 -9999 -9999 -9999 -9999 -9999 -9999 -9999 -9999 -9999 -9999 -9999 -9999 -9999 -9999 -9999 -9999 -9999
31.531 31.531 31.528 31.516 31.478 31.461 31.443 31.453 31.501 31.526 31.541 31.508 31.496 31.471 31.486 31.521 31.516 31.611 31.693 31.793 31.931 32.071 32.261 32.101 31.933 31.928 31.883 31.778 31.766 31.868 31.836 31.428 31.408 31.531 31.533 32.928 34.578 32.01 31.578 31.48 31.595 31.55 31.409 31.213 31.079 31.256 32.675 33.046 31.788 36.956 33.033 33.638 33.511 36.008 34.412 32.846 32.821 32.877 32.997 33.136 33.292 33.395 33.476 33.591 33.683 33.768 33.873 34.015 34.139 34.26 34.392 34.507 34.618 34.747 34.876 35.004 35.144 35.275 35.404 35.537 35.666 35.774 35.88 35.966 36.12 36.177 36.269 36.335 36.405 36.457 36.525 36.575 36.628 36.693 36.753 36.826 36.933 37.031 37.131 37.198 37.288 37.386 37.478 37.551 37.636 37.706 37.783 37.863 37.941 38.081 38.133 38.236 38.293 38.428 38.526 38.653 38.808 38.958 39.091 39.261 39.381 39.486 39.578 39.693 39.751 39.901 40.188 40.223 40.383 40.553 40.793 41.026 41.303 41.553 41.776 41.991 42.208 42.418 42.651 42.848 43.003 43.196 43.368 43.568 43.761 43.911 44.088 44.238 44.413 44.578 44.738 44.911 45.043 -9999 -9999 -9999 -9999 -9999 -9999 -9999 -9999 -9999 -9999 -9999 -9999 -9999 -9999 -9999 -9999 -9999 -9999 -9999 -9999 -9999 -9999 -9999 -9999 -9999 -9999 -9999 -9999 -9999 -9999 -9999 -9999 -9999 -9999 -9999 -9999 -9999 -9999 -9999 -9999 -9999 -9999 -9999 -9999 -9999 -9999 -9999 -9999 -9999 -9999 -9999 -9999 -9999 -9999 -9999 -9999 -9999 -9999 -9999 -9999 -9999 -9999 -9999 -9999 -9999 -9999 -9999 -9999 -9999 -9999 -9999 -9999 -9999 -9999 -9999 -9999 -9999 -9999 -9999 -9999 -9999 -9999 -9999 -9999 -9999 -9999 -9999 -9999 -9999 -9999 -9999 -9999 -9999 -9999 -9999 -9999 -9999 -9999 -9999 -9999 -9999 -9999 -9999 -9999 -9999 -9999 -9999 -9999 -9999 -9999 -9999 -9999 -9999 -9999 -9999 -9999 -9999 -9999 -9999 -9999 -9999 -9999 -9999 -9999 -9999 -9999 -9999 -9999 -9999 -9999 -9999 -9999 -9999 35.539 35.431 35.351 35.261 35.189 35.106 35.024 34.969 34.894 34.866 34.794 34.736 34.669 34.651 34.616 34.584 34.586 34.576 34.499 34.361 34.236 34.741 34.224 33.939 33.834 33.749 33.634 33.549 33.516 33.456 33.379 33.346 33.296 33.259 33.259 33.289 33.254 33.259 33.184 33.169 33.081 33.126 33.219 33.339 33.456 33.536 33.704 33.826 34.004 34.111 34.166 34.269 34.381 34.514 34.654 34.804 34.974 35.169 35.316 35.459 35.631 35.816 35.961 36.116 36.301 36.471 36.626 36.769 36.986 37.179 37.346 37.484 37.641 37.806 37.921 38.061 38.241 38.371 38.506 38.611 38.751 38.891 38.969 39.049 39.154 39.209 39.241 39.284 39.321 39.371 39.409 39.441 39.484 39.516 39.516 39.514 39.524 39.524 39.526 39.491 39.476 39.466 39.436 39.374 39.329 39.311 39.279 39.216 39.164 39.059 39.006 38.949 39.074 -9999 -9999 -9999 -9999 -9999 -9999 -9999 -9999 -9999 -9999 -9999 -9999 -9999 -9999 -9999 -9999 -9999 -9999 -9999 -9999 -9999 -9999 -9999 -9999 -9999 -9999 -9999 -9999 -9999 -9999 -9999 -9999 -9999 -9999 -9999 -9999 -9999 -9999 -9999 -9999 -9999 -9999 -9999
31.701 31.698 31.696 31.666 31.648 31.626 31.626 31.633 31.626 31.593 31.606 31.618 31.641 31.668 31.663 31.651 31.688 31.771 31.736 31.763 31.848 31.908 31.943 32.041 32.198 32.676 32.331 32.391 33.528 32.371 35.52 32.272 31.625 31.548 31.59 31.585 34.493 31.652 31.671 31.719 31.734 32.179 32.704 31.606 31.472 31.372 31.484 31.414 35.667 36.385 32.64 32.356 33.029 35.355 36.301 33.484 32.948 32.907 32.972 33.099 33.244 33.367 33.465 33.584 33.669 33.757 33.872 33.969 34.091 34.212 34.354 34.47 34.595 34.731 34.841 34.957 35.092 35.217 35.353 35.487 35.612 35.732 35.843 35.974 36.084 36.17 36.267 36.339 36.404 36.461 36.526 36.596 36.643 36.696 36.793 36.851 36.913 37.013 37.121 37.203 37.318 37.416 37.501 37.578 37.658 37.741 37.828 37.911 37.993 38.088 38.181 38.248 38.331 38.446 38.578 38.693 38.826 38.988 39.126 39.296 39.436 39.553 39.651 39.741 39.848 40.018 40.486 40.321 40.491 40.721 40.953 41.183 41.426 41.626 41.871 42.066 42.288 42.483 42.703 42.921 43.118 43.263 43.446 43.643 43.808 43.978 44.151 44.316 44.511 44.663 44.801 44.998 45.133 -9999 -9999 -9999 -9999 -9999 -9999 -9999 -9999 -9999 -9999 -9999 -9999 -9999 -9999 -9999 -9999 -9999 -9999 -9999 -9999 -9999 -9999 -9999 -9999 -9999 -9999 -9999 -9999 -9999 -9999 -9999 -9999 -9999 -9999 -9999 -9999 -9999 -9999 -9999 -9999 -9999 -9999 -9999 -9999 -9999 -9999 -9999 -9999 -9999 -9999 -9999 -9999 -9999 -9999 -9999 -9999 -9999 -9999 -9999 -9999 -9999 -9999 -9999 -9999 -9999 -9999 -9999 -9999 -9999 -9999 -9999 -9999 -9999 -9999 -9999 -9999 -9999 -9999 -9999 -9999 -9999 -9999 -9999 -9999 -9999 -9999 -9999 -9999 -9999 -9999 -9999 -9999 -9999 -9999 -9999 -9999 -9999 -9999 -9999 -9999 -9999 -9999 -9999 -9999 -9999 -9999 -9999 -9999 -9999 -9999 -9999 -9999 -9999 -9999 -9999 -9999 -9999 -9999 -9999 -9999 -9999 -9999 -9999 -9999 -9999 -9999 -9999 -9999 -9999 -9999 -9999 -9999 -9999 35.504 35.424 35.359 35.266 35.179 35.109 35.041 34.946 34.914 34.871 34.796 34.736 34.666 34.644 34.614 34.626 34.621 34.586 34.526 34.371 34.256 34.966 34.141 33.916 33.801 33.721 33.659 33.589 33.529 33.466 33.401 33.351 33.336 33.304 33.311 33.314 33.299 33.279 33.231 33.199 33.089 33.186 33.286 33.409 33.506 33.529 33.701 33.859 34.021 34.184 34.201 34.306 34.424 34.569 34.719 34.864 35.041 35.231 35.369 35.509 35.671 35.824 35.986 36.179 36.329 36.506 36.631 36.801 37.009 37.184 37.369 37.541 37.686 37.819 37.966 38.116 38.284 38.429 38.574 38.709 38.839 38.961 39.049 39.124 39.201 39.261 39.266 39.324 39.359 39.421 39.451 39.471 39.486 39.534 39.531 39.544 39.554 39.546 39.536 39.524 39.511 39.506 39.471 39.424 39.396 39.369 39.314 39.266 -9999 -9999 -9999 -9999 -9999 -9999 -9999 -9999 -9999 -9999 -9999 -9999 -9999 -9999 -9999 -9999 -9999 -9999 -9999 -9999 -9999 -9999 -9999 -9999 -9999 -9999 -9999 -9999 -9999 -9999 -9999 -9999 -9999 -9999 -9999 -9999 -9999 -9999 -9999 -9999 -9999 -9999 -9999 -9999 -9999 -9999 -9999 -9999
31.856 31.828 31.796 31.803 31.796 31.816 31.813 31.821 31.848 31.816 31.806 31.808 31.778 31.776 31.796 31.821 31.858 31.863 31.848 31.853 31.846 31.948 31.916 31.973 32.038 32.083 32.176 32.664 33.61 32.925 35.406 32.624 31.924 31.918 31.936 33.817 32.203 32.471 31.947 31.844 31.827 31.887 31.886 31.827 31.798 31.74 31.644 31.727 31.732 32.422 31.992 32.154 32.448 32.833 33.34 33.272 33.102 32.96 32.982 33.093 33.223 33.352 33.435 33.528 33.641 33.752 33.858 33.957 34.095 34.199 34.314 34.437 34.575 34.695 34.802 34.902 35.048 35.17 35.302 35.442 35.563 35.691 35.803 35.909 36.043 36.148 36.228 36.336 36.383 36.458 36.526 36.598 36.668 36.721 36.813 36.883 36.953 37.043 37.156 37.226 37.353 37.431 37.516 37.601 37.698 37.768 37.863 37.951 38.048 38.118 38.193 38.311 38.373 38.503 38.603 38.716 38.831 38.993 39.171 39.323 39.488 39.618 39.703 39.818 39.903 40.061 40.266 40.518 40.641 40.796 41.031 41.316 41.531 41.731 41.956 42.131 42.343 42.576 42.791 42.976 43.181 43.353 43.503 43.708 43.881 44.071 44.261 44.413 44.593 44.751 44.936 45.091 45.256 -9999 -9999 -9999 -9999 -9999 -9999 -9999 -9999 -9999 -9999 -9999 -9999 -9999 -9999 -9999 -9999 -9999 -9999 -9999 -9999 -9999 -9999 -9999 -9999 -9999 -9999 -9999 -9999 -9999 -9999 -9999 -9999 -9999 -9999 -9999 -9999 -9999 -9999 -9999 -9999 -9999 -9999 -9999 -9999 -9999 -9999 -9999 -9999 -9999 -9999 -9999 -9999 -9999 -9999 -9999 -9999 -9999 -9999 -9999 -9999 -9999 -9999 -9999 -9999 -9999 -9999 -9999 -9999 -9999 -9999 -9999 -9999 -9999 -9999 -9999 -9999 -9999 -9999 -9999 -9999 -9999 -9999 -9999 -9999 -9999 -9999 -9999 -9999 -9999 -9999 -9999 -9999 -9999 -9999 -9999 -9999 -9999 -9999 -9999 -9999 -9999 -9999 -9999 -9999 -9999 -9999 -9999 -9999 -9999 -9999 -9999 -9999 -9999 -9999 -9999 -9999 -9999 -9999 -9999 -9999 -9999 -9999 -9999 -9999 -9999 -9999 -9999 -9999 -9999 -9999 -9999 -9999 -9999 35.482 35.439 35.354 35.286 35.204 35.116 35.051 34.969 34.909 34.831 34.791 34.744 34.706 34.676 34.649 34.621 34.629 34.604 34.526 34.396 34.494 35.376 34.046 33.911 33.814 33.766 33.691 33.611 33.569 33.504 33.434 33.424 33.404 33.349 33.344 33.319 33.309 33.326 33.259 33.214 33.124 33.209 33.269 33.469 33.471 33.541 33.706 33.779 34.371 34.186 34.239 34.344 34.484 34.609 34.776 34.926 35.101 35.291 35.404 35.556 35.719 35.869 36.039 36.209 36.341 36.526 36.671 36.876 37.056 37.236 37.401 37.549 37.699 37.864 38.006 38.196 38.326 38.459 38.621 38.756 38.916 38.989 39.091 39.196 39.239 39.289 39.334 39.369 39.404 39.444 39.454 39.481 39.516 39.541 39.534 39.554 39.559 39.554 39.526 39.524 39.524 39.539 39.494 39.431 -9999 -9999 -9999 -9999 -9999 -9999 -9999 -9999 -9999 -9999 -9999 -9999 -9999 -9999 -9999 -9999 -9999 -9999 -9999 -9999 -9999 -9999 -9999 -9999 -9999 -9999 -9999 -9999 -9999 -9999 -9999 -9999 -9999 -9999 -9999 -9999 -9999 -9999 -9999 -9999 -9999 -9999 -9999 -9999 -9999 -9999 -9999 -9999 -9999 -9999 -9999 -9999
32.033 32.003 31.948 31.936 31.956 31.958 31.943 31.953 31.978 31.966 31.958 31.968 31.976 31.953 31.938 31.933 31.951 31.961 31.961 32.011 32.135 32.192 32.057 32.004 32.028 32.074 32.099 32.155 32.279 32.671 33.487 33.6 33.456 32.254 33.686 33.568 33.049 34.689 32.651 31.979 31.932 32.087 33.148 32.062 32.038 31.97 31.94 31.816 31.698 31.859 31.826 32.063 32.383 32.72 32.784 33.291 33.478 33.005 32.979 33.08 33.179 33.294 33.416 33.499 33.611 33.733 33.835 33.947 34.06 34.165 34.288 34.389 34.534 34.642 34.759 34.899 34.987 35.142 35.271 35.386 35.51 35.656 35.776 35.878 36.013 36.126 36.216 36.326 36.391 36.466 36.523 36.608 36.673 36.743 36.836 36.901 36.981 37.071 37.151 37.238 37.348 37.448 37.518 37.616 37.716 37.781 37.883 37.991 38.068 38.151 38.233 38.326 38.391 38.498 38.613 38.746 38.881 39.036 39.201 39.348 39.493 39.658 39.808 39.898 40.016 40.163 40.358 40.608 40.728 40.893 41.166 41.393 41.626 41.818 42.028 42.231 42.433 42.631 42.831 43.051 43.218 43.413 43.591 43.793 43.958 44.126 44.331 44.516 44.693 44.846 45.033 45.191 -9999 -9999 -9999 -9999 -9999 -9999 -9999 -9999 -9999 -9999 -9999 -9999 -9999 -9999 -9999 -9999 -9999 -9999 -9999 -9999 -9999 -9999 -9999 -9999 -9999 -9999 -9999 -9999 -9999 -9999 -9999 -9999 -9999 -9999 -9999 -9999 -9999 -9999 -9999 -9999 -9999 -9999 -9999 -9999 -9999 -9999 -9999 -9999 -9999 -9999 -9999 -9999 -9999 -9999 -9999 -9999 -9999 -9999 -9999 -9999 -9999 -9999 -9999 -9999 -9999 -9999 -9999 -9999 -9999 -9999 -9999 -9999 -9999 -9999 -9999 -9999 -9999 -9999 -9999 -9999 -9999 -9999 -9999 -9999 -9999 -9999 -9999 -9999 -9999 -9999 -9999 -9999 -9999 -9999 -9999 -9999 -9999 -9999 -9999 -9999 -9999 -9999 -9999 -9999 -9999 -9999 -9999 -9999 -9999 -9999 -9999 -9999 -9999 -9999 -9999 -9999 -9999 -9999 -9999 -9999 -9999 -9999 -9999 -9999 -9999 -9999 -9999 -9999 -9999 -9999 -9999 -9999 -9999 -9999 35.484 35.419 35.366 35.299 35.219 35.109 35.059 34.969 34.909 34.871 34.804 34.754 34.731 34.711 34.679 34.634 34.649 34.614 34.529 34.404 34.709 34.899 34.006 33.914 33.831 33.771 33.699 33.681 33.581 33.546 33.494 33.471 33.439 33.394 33.384 33.386 33.671 33.384 33.334 33.261 33.109 33.206 33.226 33.324 33.439 33.684 34.166 36.649 35.004 34.306 34.289 34.394 34.531 34.691 34.856 35.009 35.164 35.339 35.466 35.621 35.761 35.906 36.064 36.211 36.404 36.559 36.694 36.934 37.116 37.271 37.431 37.611 37.774 37.899 38.061 38.221 38.339 38.501 38.664 38.819 38.944 39.039 39.139 39.221 39.296 39.321 39.371 39.426 39.451 39.491 39.511 39.529 39.549 39.566 39.551 39.569 39.561 39.569 39.549 -9999 -9999 -9999 -9999 -9999 -9999 -9999 -9999 -9999 -9999 -9999 -9999 -9999 -9999 -9999 -9999 -9999 -9999 -9999 -9999 -9999 -9999 -9999 -9999 -9999 -9999 -9999 -9999 -9999 -9999 -9999 -9999 -9999 -9999 -9999 -9999 -9999 -9999 -9999 -9999 -9999 -9999 -9999 -9999 -9999 -9999 -9999 -9999 -9999 -9999 -9999 -9999 -9999 -9999 -9999 -9999 -9999
32.153 32.108 32.076 32.061 32.078 32.088 32.063 32.068 32.116 32.113 32.131 32.123 32.101 32.123 32.108 32.115 32.106 32.102 32.088 32.198 32.502 32.504 32.192 32.117 32.147 32.136 32.14 32.192 32.236 32.233 32.244 32.39 32.724 32.672 33.585 33.551 34.483 33.589 32.587 32.202 32.204 32.731 32.886 32.137 32.226 32.185 32.139 32.274 31.966 31.753 31.724 31.87 32.239 32.959 33.609 33.307 34.221 33.526 33.043 33.082 33.184 33.307 33.419 33.521 33.613 33.707 33.816 33.908 34.023 34.155 34.269 34.385 34.505 34.617 34.717 34.852 34.959 35.081 35.193 35.316 35.453 35.606 35.731 35.868 35.998 36.108 36.213 36.301 36.391 36.481 36.528 36.626 36.676 36.786 36.853 36.928 37.033 37.086 37.176 37.281 37.373 37.473 37.556 37.626 37.746 37.841 37.928 38.011 38.091 38.196 38.276 38.378 38.441 38.528 38.661 38.786 38.913 39.083 39.248 39.416 39.561 39.723 39.861 40.031 40.143 40.318 40.476 40.646 40.831 41.043 41.266 41.498 41.706 41.906 42.101 42.278 42.493 42.703 42.913 43.113 43.278 43.463 43.656 43.828 44.013 44.186 44.411 44.563 44.761 44.968 45.121 45.276 -9999 -9999 -9999 -9999 -9999 -9999 -9999 -9999 -9999 -9999 -9999 -9999 -9999 -9999 -9999 -9999 -9999 -9999 -9999 -9999 -9999 -9999 -9999 -9999 -9999 -9999 -9999 -9999 -9999 -9999 -9999 -9999 -9999 -9999 -9999 -9999 -9999 -9999 -9999 -9999 -9999 -9999 -9999 -9999 -9999 -9999 -9999 -9999 -9999 -9999 -9999 -9999 -9999 -9999 -9999 -9999 -9999 -9999 -9999 -9999 -9999 -9999 -9999 -9999 -9999 -9999 -9999 -9999 -9999 -9999 -9999 -9999 -9999 -9999 -9999 -9999 -9999 -9999 -9999 -9999 -9999 -9999 -9999 -9999 -9999 -9999 -9999 -9999 -9999 -9999 -9999 -9999 -9999 -9999 -9999 -9999 -9999 -9999 -9999 -9999 -9999 -9999 -9999 -9999 -9999 -9999 -9999 -9999 -9999 -9999 -9999 -9999 -9999 -9999 -9999 -9999 -9999 -9999 -9999 -9999 -9999 -9999 -9999 -9999 -9999 -9999 -9999 -9999 -9999 -9999 -9999 -9999 -9999 -9999 -9999 35.429 35.364 35.309 35.214 35.096 35.046 34.989 34.919 34.869 34.814 34.764 34.736 34.709 34.686 34.659 34.649 34.626 34.569 34.419 34.756 35.191 34.029 33.944 33.856 33.806 33.754 33.689 33.664 33.584 33.516 33.514 33.479 33.444 33.481 34.069 33.691 33.509 34.201 33.251 33.149 33.336 33.421 33.521 33.619 33.721 36.181 36.526 36.059 36.206 34.376 34.491 34.581 34.754 34.901 35.081 35.254 35.379 35.511 35.666 35.816 35.964 36.109 36.261 36.431 36.581 36.786 36.961 37.149 37.324 37.484 37.701 37.821 37.951 38.109 38.249 38.401 38.539 38.674 38.839 38.964 39.041 39.181 39.261 39.289 39.351 39.404 39.459 39.516 39.544 39.541 39.591 39.571 39.596 -9999 -9999 -9999 -9999 -9999 -9999 -9999 -9999 -9999 -9999 -9999 -9999 -9999 -9999 -9999 -9999 -9999 -9999 -9999 -9999 -9999 -9999 -9999 -9999 -9999 -9999 -9999 -9999 -9999 -9999 -9999 -9999 -9999 -9999 -9999 -9999 -9999 -9999 -9999 -9999 -9999 -9999 -9999 -9999 -9999 -9999 -9999 -9999 -9999 -9999 -9999 -9999 -9999 -9999 -9999 -9999 -9999 -9999 -9999 -9999 -9999 -9999
32.248 32.258 32.211 32.208 32.208 32.216 32.221 32.233 32.233 32.243 32.248 32.236 32.246 32.263 32.275 32.229 32.242 32.235 32.241 32.3 32.325 32.307 32.236 32.249 32.322 32.311 32.307 32.274 32.223 32.203 32.255 32.25 32.328 32.384 32.478 32.645 32.786 33.807 35.304 33.625 32.681 32.429 32.384 32.343 32.476 32.327 32.351 32.42 32.154 31.959 31.978 31.918 32.081 32.561 32.985 33.676 34.613 34.923 33.277 33.148 33.223 33.313 33.425 33.514 33.606 33.656 33.774 33.873 33.969 34.104 34.234 34.36 34.466 34.582 34.688 34.806 34.918 35.016 35.146 35.261 35.416 35.541 35.698 35.818 35.943 36.063 36.196 36.293 36.408 36.493 36.556 36.613 36.693 36.803 36.891 36.996 37.051 37.126 37.226 37.323 37.413 37.481 37.581 37.668 37.793 37.871 37.968 38.038 38.118 38.208 38.321 38.411 38.503 38.603 38.733 38.863 38.993 39.136 39.281 39.443 39.621 39.793 39.943 40.093 40.266 40.431 40.573 40.766 41.001 41.211 41.373 41.571 41.811 41.993 42.158 42.358 42.538 42.763 42.936 43.141 43.383 43.546 43.698 43.911 44.091 44.278 44.483 44.683 44.838 45.021 45.198 45.368 -9999 -9999 -9999 -9999 -9999 -9999 -9999 -9999 -9999 -9999 -9999 -9999 -9999 -9999 -9999 -9999 -9999 -9999 -9999 -9999 -9999 -9999 -9999 -9999 -9999 -9999 -9999 -9999 -9999 -9999 -9999 -9999 -9999 -9999 -9999 -9999 -9999 -9999 -9999 -9999 -9999 -9999 -9999 -9999 -9999 -9999 -9999 -9999 -9999 -9999 -9999 -9999 -9999 -9999 -9999 -9999 -9999 -9999 -9999 -9999 -9999 -9999 -9999 -9999 -9999 -9999 -9999 -9999 -9999 -9999 -9999 -9999 -9999 -9999 -9999 -9999 -9999 -9999 -9999 -9999 -9999 -9999 -9999 -9999 -9999 -9999 -9999 -9999 -9999 -9999 -9999 -9999 -9999 -9999 -9999 -9999 -9999 -9999 -9999 -9999 -9999 -9999 -9999 -9999 -9999 -9999 -9999 -9999 -9999 -9999 -9999 -9999 -9999 -9999 -9999 -9999 -9999 -9999 -9999 -9999 -9999 -9999 -9999 -9999 -9999 -9999 -9999 -9999 -9999 -9999 -9999 -9999 -9999 -9999 -9999 35.431 35.361 35.266 35.181 35.121 35.064 35.004 34.924 34.894 34.846 34.806 34.746 34.709 34.676 34.689 34.664 34.631 34.551 34.399 35.079 35.466 34.066 33.981 33.911 33.834 33.776 33.749 33.721 33.649 33.564 33.541 33.501 33.501 33.476 33.526 37.539 35.191 34.034 33.314 33.259 33.419 33.461 33.574 33.699 33.829 35.304 34.024 34.189 35.026 34.409 34.561 34.686 34.811 34.971 35.156 35.331 35.431 35.561 35.721 35.881 36.039 36.159 36.321 36.464 36.619 36.806 36.996 37.194 37.361 37.551 37.716 37.851 38.001 38.171 38.311 38.451 38.566 38.741 38.899 38.984 39.094 39.189 39.266 39.306 39.349 39.419 39.469 39.521 39.544 -9999 -9999 -9999 -9999 -9999 -9999 -9999 -9999 -9999 -9999 -9999 -9999 -9999 -9999 -9999 -9999 -9999 -9999 -9999 -9999 -9999 -9999 -9999 -9999 -9999 -9999 -9999 -9999 -9999 -9999 -9999 -9999 -9999 -9999 -9999 -9999 -9999 -9999 -9999 -9999 -9999 -9999 -9999 -9999 -9999 -9999 -9999 -9999 -9999 -9999 -9999 -9999 -9999 -9999 -9999 -9999 -9999 -9999 -9999 -9999 -9999 -9999 -9999 -9999 -9999 -9999
32.346 32.351 32.308 32.336 32.318 32.313 32.341 32.333 32.343 32.383 32.386 32.381 32.377 32.385 32.366 32.368 32.325 32.328 32.328 32.322 32.332 32.36 32.329 32.349 32.34 32.376 32.359 32.372 32.371 32.348 32.332 32.324 32.338 32.386 32.38 32.429 32.546 32.694 33.123 33.535 33.881 34.193 32.574 32.629 32.597 32.515 32.532 32.613 32.433 32.229 32.348 32.135 31.967 32.414 32.693 33.909 33.524 34.059 33.467 33.179 33.254 33.375 33.45 33.561 33.614 33.676 33.754 33.87 33.976 34.067 34.206 34.338 34.448 34.571 34.643 34.751 34.881 35.016 35.113 35.208 35.328 35.468 35.618 35.778 35.916 36.016 36.183 36.238 36.338 36.458 36.556 36.643 36.743 36.818 36.913 36.966 37.088 37.166 37.268 37.376 37.468 37.531 37.646 37.751 37.831 37.891 38.011 38.086 38.178 38.261 38.366 38.456 38.548 38.656 38.786 38.913 39.038 39.178 39.306 39.523 39.648 39.821 39.993 40.166 40.331 40.518 40.691 40.853 41.086 41.298 41.461 41.661 41.863 42.028 42.211 42.418 42.611 42.828 43.018 43.223 43.401 43.598 43.823 43.998 44.201 44.363 44.573 44.748 44.933 45.141 45.296 45.453 -9999 -9999 -9999 -9999 -9999 -9999 -9999 -9999 -9999 -9999 -9999 -9999 -9999 -9999 -9999 -9999 -9999 -9999 -9999 -9999 -9999 -9999 -9999 -9999 -9999 -9999 -9999 -9999 -9999 -9999 -9999 -9999 -9999 -9999 -9999 -9999 -9999 -9999 -9999 -9999 -9999 -9999 -9999 -9999 -9999 -9999 -9999 -9999 -9999 -9999 -9999 -9999 -9999 -9999 -9999 -9999 -9999 -9999 -9999 -9999 -9999 -9999 -9999 -9999 -9999 -9999 -9999 -9999 -9999 -9999 -9999 -9999 -9999 -9999 -9999 -9999 -9999 -9999 -9999 -9999 -9999 -9999 -9999 -9999 -9999 -9999 -9999 -9999 -9999 -9999 -9999 -9999 -9999 -9999 -9999 -9999 -9999 -9999 -9999 -9999 -9999 -9999 -9999 -9999 -9999 -9999 -9999 -9999 -9999 -9999 -9999 -9999 -9999 -9999 -9999 -9999 -9999 -9999 -9999 -9999 -9999 -9999 -9999 -9999 -9999 -9999 -9999 -9999 -9999 -9999 -9999 -9999 -9999 -9999 -9999 35.409 35.349 35.294 35.204 35.141 35.089 35.021 34.944 34.904 34.851 34.799 34.779 34.731 34.731 34.701 34.684 34.646 34.546 34.394 35.154 34.971 34.166 34.044 33.961 33.866 33.809 33.779 33.749 33.669 33.619 33.581 33.531 33.521 33.499 33.516 34.716 33.426 33.339 33.316 33.344 33.464 33.546 33.659 33.744 33.951 34.481 34.129 34.241 34.361 34.456 34.584 34.734 34.879 35.066 35.254 35.406 35.534 35.656 35.814 35.951 36.081 36.226 36.386 36.486 36.664 36.851 37.039 37.209 37.424 37.596 37.749 37.896 38.066 38.236 38.351 38.524 38.621 38.791 38.931 39.039 39.139 39.269 39.279 39.339 -9999 -9999 -9999 -9999 -9999 -9999 -9999 -9999 -9999 -9999 -9999 -9999 -9999 -9999 -9999 -9999 -9999 -9999 -9999 -9999 -9999 -9999 -9999 -9999 -9999 -9999 -9999 -9999 -9999 -9999 -9999 -9999 -9999 -9999 -9999 -9999 -9999 -9999 -9999 -9999 -9999 -9999 -9999 -9999 -9999 -9999 -9999 -9999 -9999 -9999 -9999 -9999 -9999 -9999 -9999 -9999 -9999 -9999 -9999 -9999 -9999 -9999 -9999 -9999 -9999 -9999 -9999 -9999 -9999 -9999 -9999
32.451 32.436 32.423 32.396 32.394 32.438 32.438 32.449 32.461 32.472 32.507 32.522 32.511 32.49 32.477 32.468 32.481 32.467 32.451 32.435 32.446 32.448 32.446 32.462 32.476 32.472 32.432 32.43 32.458 32.467 32.484 32.468 32.466 32.462 32.446 32.454 32.48 32.524 32.547 32.622 32.886 33.903 33.166 33.087 32.87 32.697 33.045 33.801 32.594 32.47 32.509 32.379 32.2 32.767 33.161 34.314 33.718 34.825 34.46 33.213 33.308 33.405 33.479 33.594 33.659 33.717 33.768 33.851 33.958 34.083 34.178 34.311 34.418 34.523 34.606 34.723 34.806 34.933 35.058 35.196 35.281 35.421 35.586 35.731 35.848 35.986 36.121 36.236 36.321 36.468 36.518 36.643 36.748 36.843 36.961 37.033 37.123 37.223 37.328 37.436 37.528 37.618 37.693 37.806 37.888 37.966 38.063 38.143 38.238 38.333 38.446 38.531 38.611 38.688 38.816 38.973 39.086 39.236 39.383 39.526 39.696 39.871 40.051 40.241 40.393 40.616 40.786 40.986 41.163 41.346 41.523 41.726 41.926 42.111 42.303 42.486 42.673 42.858 43.081 43.296 43.458 43.658 43.883 44.048 44.251 44.443 44.658 44.838 44.993 45.218 45.368 -9999 -9999 -9999 -9999 -9999 -9999 -9999 -9999 -9999 -9999 -9999 -9999 -9999 -9999 -9999 -9999 -9999 -9999 -9999 -9999 -9999 -9999 -9999 -9999 -9999 -9999 -9999 -9999 -9999 -9999 -9999 -9999 -9999 -9999 -9999 -9999 -9999 -9999 -9999 -9999 -9999 -9999 -9999 -9999 -9999 -9999 -9999 -9999 -9999 -9999 -9999 -9999 -9999 -9999 -9999 -9999 -9999 -9999 -9999 -9999 -9999 -9999 -9999 -9999 -9999 -9999 -9999 -9999 -9999 -9999 -9999 -9999 -9999 -9999 -9999 -9999 -9999 -9999 -9999 -9999 -9999 -9999 -9999 -9999 -9999 -9999 -9999 -9999 -9999 -9999 -9999 -9999 -9999 -9999 -9999 -9999 -9999 -9999 -9999 -9999 -9999 -9999 -9999 -9999 -9999 -9999 -9999 -9999 -9999 -9999 -9999 -9999 -9999 -9999 -9999 -9999 -9999 -9999 -9999 -9999 -9999 -9999 -9999 -9999 -9999 -9999 -9999 -9999 -9999 -9999 -9999 -9999 -9999 -9999 -9999 -9999 35.379 35.369 35.311 35.209 35.149 35.084 35.029 34.981 34.936 34.886 34.824 34.789 34.744 34.719 34.719 34.699 34.661 34.546 34.399 35.344 34.746 34.204 34.086 34.001 33.901 33.851 33.839 33.789 33.721 33.624 33.574 33.551 33.536 33.506 33.579 35.331 33.396 35.036 33.354 33.379 33.481 33.604 33.696 33.809 34.314 34.876 34.206 34.339 34.391 34.499 34.651 34.796 34.951 35.139 35.321 35.446 35.569 35.714 35.896 36.016 36.169 36.289 36.446 36.536 36.731 36.911 37.084 37.244 37.466 37.629 37.809 37.954 38.114 38.269 38.411 38.544 38.686 38.856 38.979 39.079 -9999 -9999 -9999 -9999 -9999 -9999 -9999 -9999 -9999 -9999 -9999 -9999 -9999 -9999 -9999 -9999 -9999 -9999 -9999 -9999 -9999 -9999 -9999 -9999 -9999 -9999 -9999 -9999 -9999 -9999 -9999 -9999 -9999 -9999 -9999 -9999 -9999 -9999 -9999 -9999 -9999 -9999 -9999 -9999 -9999 -9999 -9999 -9999 -9999 -9999 -9999 -9999 -9999 -9999 -9999 -9999 -9999 -9999 -9999 -9999 -9999 -9999 -9999 -9999 -9999 -9999 -9999 -9999 -9999 -9999 -9999 -9999 -9999 -9999 -9999
32.536 32.54 32.511 32.512 32.506 32.513 32.533 32.536 32.545 32.569 32.59 32.601 32.624 32.611 32.594 32.581 32.574 32.577 32.556 32.549 32.55 32.561 32.565 32.563 32.572 32.589 32.583 32.596 32.575 32.549 32.545 32.552 32.566 32.589 32.589 32.584 32.591 32.561 32.56 32.54 32.555 32.638 32.705 32.83 32.972 33.88 33.027 33.492 32.788 35.249 34.181 32.519 32.577 32.057 33.865 33.195 33.228 34.666 33.798 33.214 33.353 33.468 33.53 33.611 33.676 33.723 33.778 33.858 33.938 34.038 34.133 34.278 34.378 34.483 34.586 34.721 34.818 34.911 35.053 35.151 35.283 35.428 35.568 35.698 35.806 35.936 36.058 36.198 36.316 36.433 36.513 36.626 36.738 36.836 36.958 37.088 37.196 37.293 37.398 37.503 37.606 37.683 37.771 37.861 37.928 38.023 38.113 38.213 38.313 38.403 38.451 38.576 38.653 38.748 38.883 39.001 39.128 39.248 39.411 39.573 39.738 39.908 40.101 40.308 40.493 40.656 40.856 41.026 41.223 41.413 41.601 41.763 41.981 42.158 42.368 42.556 42.746 42.936 43.133 43.338 43.528 43.728 43.941 44.148 44.336 44.523 44.741 44.911 45.086 45.288 45.473 -9999 -9999 -9999 -9999 -9999 -9999 -9999 -9999 -9999 -9999 -9999 -9999 -9999 -9999 -9999 -9999 -9999 -9999 -9999 -9999 -9999 -9999 -9999 -9999 -9999 -9999 -9999 -9999 -9999 -9999 -9999 -9999 -9999 -9999 -9999 -9999 -9999 -9999 -9999 -9999 -9999 -9999 -9999 -9999 -9999 -9999 -9999 -9999 -9999 -9999 -9999 -9999 -9999 -9999 -9999 -9999 -9999 -9999 -9999 -9999 -9999 -9999 -9999 -9999 -9999 -9999 -9999 -9999 -9999 -9999 -9999 -9999 -9999 -9999 -9999 -9999 -9999 -9999 -9999 -9999 -9999 -9999 -9999 -9999 -9999 -9999 -9999 -9999 -9999 -9999 -9999 -9999 -9999 -9999 -9999 -9999 -9999 -9999 -9999 -9999 -9999 -9999 -9999 -9999 -9999 -9999 -9999 -9999 -9999 -9999 -9999 -9999 -9999 -9999 -9999 -9999 -9999 -9999 -9999 -9999 -9999 -9999 -9999 -9999 -9999 -9999 -9999 -9999 -9999 -9999 -9999 -9999 -9999 -9999 -9999 -9999 -9999 35.366 35.323 35.231 35.171 35.111 35.066 35.021 34.948 34.888 34.858 34.808 34.748 34.736 34.753 34.718 34.646 34.541 34.398 35.621 34.786 34.196 34.098 34.056 33.963 33.863 33.843 33.831 33.773 33.663 33.578 33.576 33.563 33.518 33.516 33.471 33.421 33.413 33.418 33.498 33.576 33.668 33.771 33.861 34.581 34.686 34.283 34.373 34.451 34.551 34.738 34.861 35.016 35.191 35.326 35.468 35.618 35.786 35.936 36.074 36.206 36.346 36.481 36.641 36.834 36.994 37.164 37.346 37.509 37.681 37.869 38.024 38.179 38.326 38.456 -9999 -9999 -9999 -9999 -9999 -9999 -9999 -9999 -9999 -9999 -9999 -9999 -9999 -9999 -9999 -9999 -9999 -9999 -9999 -9999 -9999 -9999 -9999 -9999 -9999 -9999 -9999 -9999 -9999 -9999 -9999 -9999 -9999 -9999 -9999 -9999 -9999 -9999 -9999 -9999 -9999 -9999 -9999 -9999 -9999 -9999 -9999 -9999 -9999 -9999 -9999 -9999 -9999 -9999 -9999 -9999 -9999 -9999 -9999 -9999 -9999 -9999 -9999 -9999 -9999 -9999 -9999 -9999 -9999 -9999 -9999 -9999 -9999 -9999 -9999 -9999 -9999 -9999 -9999 -9999
32.625 32.611 32.6 32.575 32.583 32.594 32.603 32.618 32.646 32.666 32.689 32.701 32.703 32.695 32.703 32.698 32.655 32.666 32.646 32.654 32.64 32.655 32.672 32.681 32.703 32.737 32.728 32.725 32.721 32.699 32.687 32.686 32.691 32.675 32.707 32.712 32.705 32.689 32.668 32.603 32.566 32.578 32.578 32.628 32.705 32.779 32.867 32.982 33.081 33.532 33.167 32.69 32.779 32.45 32.249 32.886 33.309 33.551 33.145 33.208 33.366 33.481 33.571 33.626 33.701 33.751 33.826 33.886 33.953 34.026 34.116 34.221 34.371 34.483 34.606 34.706 34.791 34.906 35.006 35.138 35.251 35.406 35.528 35.646 35.771 35.901 36.023 36.153 36.238 36.351 36.463 36.586 36.696 36.811 36.961 37.078 37.201 37.286 37.448 37.553 37.631 37.713 37.816 37.903 37.968 38.061 38.151 38.243 38.353 38.416 38.503 38.628 38.731 38.806 38.888 39.023 39.168 39.303 39.411 39.576 39.781 39.986 40.166 40.386 40.548 40.733 40.953 41.093 41.311 41.473 41.661 41.828 42.036 42.196 42.418 42.576 42.778 42.978 43.186 43.383 43.598 43.806 44.043 44.246 44.448 44.628 44.848 44.998 45.196 45.368 -9999 -9999 -9999 -9999 -9999 -9999 -9999 -9999 -9999 -9999 -9999 -9999 -9999 -9999 -9999 -9999 -9999 -9999 -9999 -9999 -9999 -9999 -9999 -9999 -9999 -9999 -9999 -9999 -9999 -9999 -9999 -9999 -9999 -9999 -9999 -9999 -9999 -9999 -9999 -9999 -9999 -9999 -9999 -9999 -9999 -9999 -9999 -9999 -9999 -9999 -9999 -9999 -9999 -9999 -9999 -9999 -9999 -9999 -9999 -9999 -9999 -9999 -9999 -9999 -9999 -9999 -9999 -9999 -9999 -9999 -9999 -9999 -9999 -9999 -9999 -9999 -9999 -9999 -9999 -9999 -9999 -9999 -9999 -9999 -9999 -9999 -9999 -9999 -9999 -9999 -9999 -9999 -9999 -9999 -9999 -9999 -9999 -9999 -9999 -9999 -9999 -9999 -9999 -9999 -9999 -9999 -9999 -9999 -9999 -9999 -9999 -9999 -9999 -9999 -9999 -9999 -9999 -9999 -9999 -9999 -9999 -9999 -9999 -9999 -9999 -9999 -9999 -9999 -9999 -9999 -9999 -9999 -9999 -9999 -9999 -9999 -9999 -9999 35.382 35.326 35.248 35.186 35.138 35.073 35.026 34.966 34.908 34.878 34.818 34.778 34.761 34.776 34.748 34.683 34.543 34.438 35.613 34.906 34.218 34.148 34.046 33.976 33.871 33.838 33.871 33.828 33.736 33.653 33.618 33.568 33.543 33.521 33.453 33.456 33.453 33.493 33.548 33.641 33.736 33.833 33.923 34.821 34.406 34.356 34.426 34.496 34.616 34.766 34.923 35.091 35.266 35.371 35.538 35.693 35.816 35.991 36.111 36.231 36.386 36.529 36.696 36.904 37.071 37.256 37.444 37.619 37.774 37.939 -9999 -9999 -9999 -9999 -9999 -9999 -9999 -9999 -9999 -9999 -9999 -9999 -9999 -9999 -9999 -9999 -9999 -9999 -9999 -9999 -9999 -9999 -9999 -9999 -9999 -9999 -9999 -9999 -9999 -9999 -9999 -9999 -9999 -9999 -9999 -9999 -9999 -9999 -9999 -9999 -9999 -9999 -9999 -9999 -9999 -9999 -9999 -9999 -9999 -9999 -9999 -9999 -9999 -9999 -9999 -9999 -9999 -9999 -9999 -9999 -9999 -9999 -9999 -9999 -9999 -9999 -9999 -9999 -9999 -9999 -9999 -9999 -9999 -9999 -9999 -9999 -9999 -9999 -9999 -9999 -9999 -9999 -9999 -9999
32.683 32.703 32.691 32.671 32.667 32.684 32.698 32.724 32.713 32.743 32.773 32.785 32.792 32.79 32.775 32.768 32.772 32.747 32.741 32.75 32.756 32.758 32.729 32.743 32.769 32.811 32.822 32.826 32.84 32.814 32.797 32.809 32.827 32.798 32.801 32.77 32.786 32.766 32.746 32.731 32.708 32.672 32.639 32.599 32.609 32.69 32.737 32.811 32.9 33.196 34.194 33.353 34.451 33.04 33.566 32.886 33.041 33.056 33.138 33.248 33.353 33.511 33.611 33.678 33.741 33.791 33.821 33.901 33.953 34.038 34.131 34.228 34.343 34.438 34.561 34.668 34.773 34.863 34.968 35.078 35.208 35.321 35.443 35.591 35.726 35.831 35.938 36.056 36.173 36.316 36.448 36.573 36.696 36.798 36.941 37.083 37.221 37.346 37.453 37.558 37.651 37.743 37.818 37.908 38.001 38.076 38.193 38.268 38.341 38.436 38.541 38.643 38.743 38.851 38.961 39.046 39.163 39.318 39.451 39.653 39.826 40.016 40.221 40.408 40.633 40.806 41.003 41.183 41.373 41.528 41.706 41.903 42.111 42.251 42.448 42.666 42.851 43.036 43.221 43.411 43.633 43.853 44.086 44.291 44.513 44.686 44.911 45.051 45.273 45.471 -9999 -9999 -9999 -9999 -9999 -9999 -9999 -9999 -9999 -9999 -9999 -9999 -9999 -9999 -9999 -9999 -9999 -9999 -9999 -9999 -9999 -9999 -9999 -9999 -9999 -9999 -9999 -9999 -9999 -9999 -9999 -9999 -9999 -9999 -9999 -9999 -9999 -9999 -9999 -9999 -9999 -9999 -9999 -9999 -9999 -9999 -9999 -9999 -9999 -9999 -9999 -9999 -9999 -9999 -9999 -9999 -9999 -9999 -9999 -9999 -9999 -9999 -9999 -9999 -9999 -9999 -9999 -9999 -9999 -9999 -9999 -9999 -9999 -9999 -9999 -9999 -9999 -9999 -9999 -9999 -9999 -9999 -9999 -9999 -9999 -9999 -9999 -9999 -9999 -9999 -9999 -9999 -9999 -9999 -9999 -9999 -9999 -9999 -9999 -9999 -9999 -9999 -9999 -9999 -9999 -9999 -9999 -9999 -9999 -9999 -9999 -9999 -9999 -9999 -9999 -9999 -9999 -9999 -9999 -9999 -9999 -9999 -9999 -9999 -9999 -9999 -9999 -9999 -9999 -9999 -9999 -9999 -9999 -9999 -9999 -9999 -9999 -9999 35.403 35.351 35.281 35.236 35.158 35.088 35.041 34.986 34.921 34.873 34.826 34.783 34.766 34.778 34.753 34.673 34.531 34.661 35.761 34.943 34.143 34.091 34.031 33.968 33.906 33.873 33.858 33.808 33.778 33.738 33.668 33.578 33.553 33.551 33.508 33.526 33.536 34.143 33.636 33.703 33.823 33.903 34.001 35.228 34.416 34.401 34.488 34.558 34.708 34.853 34.986 35.178 35.318 35.446 35.593 35.758 35.899 36.044 36.181 36.329 36.446 36.574 36.786 36.961 37.126 37.319 -9999 -9999 -9999 -9999 -9999 -9999 -9999 -9999 -9999 -9999 -9999 -9999 -9999 -9999 -9999 -9999 -9999 -9999 -9999 -9999 -9999 -9999 -9999 -9999 -9999 -9999 -9999 -9999 -9999 -9999 -9999 -9999 -9999 -9999 -9999 -9999 -9999 -9999 -9999 -9999 -9999 -9999 -9999 -9999 -9999 -9999 -9999 -9999 -9999 -9999 -9999 -9999 -9999 -9999 -9999 -9999 -9999 -9999 -9999 -9999 -9999 -9999 -9999 -9999 -9999 -9999 -9999 -9999 -9999 -9999 -9999 -9999 -9999 -9999 -9999 -9999 -9999 -9999 -9999 -9999 -9999 -9999 -9999 -9999 -9999 -9999 -9999 -9999
32.801 32.805 32.805 32.794 32.782 32.786 32.801 32.824 32.802 32.841 32.851 32.865 32.863 32.867 32.853 32.837 32.849 32.852 32.852 32.848 32.867 32.881 32.874 32.865 32.896 32.911 32.904 32.915 32.92 32.9 32.911 32.906 32.907 32.887 32.895 32.895 32.898 32.873 32.83 32.825 32.808 32.793 32.763 32.727 32.715 32.716 32.696 32.669 32.737 32.834 32.935 33.341 34.606 33.101 32.946 32.941 32.918 33.013 33.128 33.243 33.388 33.483 33.596 33.698 33.756 33.788 33.811 33.901 33.976 34.041 34.128 34.208 34.313 34.431 34.531 34.641 34.748 34.848 34.971 35.091 35.216 35.291 35.421 35.536 35.678 35.773 35.908 36.033 36.141 36.278 36.428 36.538 36.701 36.813 36.951 37.093 37.238 37.368 37.483 37.601 37.676 37.766 37.881 37.941 38.041 38.126 38.231 38.306 38.376 38.488 38.581 38.686 38.773 38.876 38.978 39.126 39.231 39.376 39.496 39.681 39.888 40.073 40.276 40.466 40.673 40.878 41.061 41.228 41.416 41.558 41.733 41.923 42.143 42.308 42.506 42.728 42.916 43.073 43.273 43.468 43.688 43.931 44.166 44.358 44.566 44.766 44.956 45.131 45.336 45.561 -9999 -9999 -9999 -9999 -9999 -9999 -9999 -9999 -9999 -9999 -9999 -9999 -9999 -9999 -9999 -9999 -9999 -9999 -9999 -9999 -9999 -9999 -9999 -9999 -9999 -9999 -9999 -9999 -9999 -9999 -9999 -9999 -9999 -9999 -9999 -9999 -9999 -9999 -9999 -9999 -9999 -9999 -9999 -9999 -9999 -9999 -9999 -9999 -9999 -9999 -9999 -9999 -9999 -9999 -9999 -9999 -9999 -9999 -9999 -9999 -9999 -9999 -9999 -9999 -9999 -9999 -9999 -9999 -9999 -9999 -9999 -9999 -9999 -9999 -9999 -9999 -9999 -9999 -9999 -9999 -9999 -9999 -9999 -9999 -9999 -9999 -9999 -9999 -9999 -9999 -9999 -9999 -9999 -9999 -9999 -9999 -9999 -9999 -9999 -9999 -9999 -9999 -9999 -9999 -9999 -9999 -9999 -9999 -9999 -9999 -9999 -9999 -9999 -9999 -9999 -9999 -9999 -9999 -9999 -9999 -9999 -9999 -9999 -9999 -9999 -9999 -9999 -9999 -9999 -9999 -9999 -9999 -9999 -9999 -9999 -9999 -9999 -9999 -9999 35.346 35.271 35.211 35.148 35.111 35.066 34.998 34.931 34.873 34.816 34.798 34.771 34.748 34.751 34.666 34.548 34.703 35.698 34.958 34.136 34.061 34.003 33.943 33.901 33.886 33.826 33.803 33.801 33.753 33.691 33.643 33.603 33.581 33.546 33.571 33.796 37.508 33.803 33.841 33.921 34.008 34.296 35.258 34.388 34.501 34.558 34.663 34.796 34.911 35.081 35.256 35.396 35.536 35.678 35.823 35.979 36.114 36.234 36.389 36.484 -9999 -9999 -9999 -9999 -9999 -9999 -9999 -9999 -9999 -9999 -9999 -9999 -9999 -9999 -9999 -9999 -9999 -9999 -9999 -9999 -9999 -9999 -9999 -9999 -9999 -9999 -9999 -9999 -9999 -9999 -9999 -9999 -9999 -9999 -9999 -9999 -9999 -9999 -9999 -9999 -9999 -9999 -9999 -9999 -9999 -9999 -9999 -9999 -9999 -9999 -9999 -9999 -9999 -9999 -9999 -9999 -9999 -9999 -9999 -9999 -9999 -9999 -9999 -9999 -9999 -9999 -9999 -9999 -9999 -9999 -9999 -9999 -9999 -9999 -9999 -9999 -9999 -9999 -9999 -9999 -9999 -9999 -9999 -9999 -9999 -9999 -9999 -9999 -9999 -9999 -9999 -9999 -9999
32.904 32.874 32.878 32.881 32.873 32.87 32.867 32.887 32.906 32.934 32.958 32.947 32.941 32.958 32.938 32.936 32.944 32.936 32.94 32.927 32.965 32.988 32.981 32.991 33.02 33.037 33.062 33.07 33.051 33.037 33.035 33.05 33.055 33.033 33.024 33.038 33.032 33.022 33.02 32.982 32.902 32.9 32.864 32.86 32.854 32.807 32.782 32.758 32.751 32.778 32.771 32.816 32.818 32.846 32.893 32.878 32.883 32.973 33.121 33.258 33.401 33.491 33.618 33.681 33.741 33.811 33.841 33.916 34.013 34.073 34.146 34.263 34.333 34.423 34.541 34.638 34.763 34.823 34.951 35.063 35.181 35.293 35.401 35.501 35.618 35.746 35.878 35.996 36.131 36.276 36.421 36.571 36.701 36.843 36.986 37.136 37.268 37.403 37.478 37.603 37.703 37.791 37.873 37.966 38.041 38.171 38.243 38.316 38.408 38.513 38.608 38.696 38.811 38.923 39.023 39.148 39.268 39.431 39.593 39.763 39.961 40.138 40.351 40.576 40.753 40.928 41.106 41.273 41.446 41.616 41.778 41.986 42.201 42.381 42.586 42.763 42.978 43.123 43.328 43.553 43.763 43.983 44.228 44.438 44.673 44.861 45.036 45.228 45.406 -9999 -9999 -9999 -9999 -9999 -9999 -9999 -9999 -9999 -9999 -9999 -9999 -9999 -9999 -9999 -9999 -9999 -9999 -9999 -9999 -9999 -9999 -9999 -9999 -9999 -9999 -9999 -9999 -9999 -9999 -9999 -9999 -9999 -9999 -9999 -9999 -9999 -9999 -9999 -9999 -9999 -9999 -9999 -9999 -9999 -9999 -9999 -9999 -9999 -9999 -9999 -9999 -9999 -9999 -9999 -9999 -9999 -9999 -9999 -9999 -9999 -9999 -9999 -9999 -9999 -9999 -9999 -9999 -9999 -9999 -9999 -9999 -9999 -9999 -9999 -9999 -9999 -9999 -9999 -9999 -9999 -9999 -9999 -9999 -9999 -9999 -9999 -9999 -9999 -9999 -9999 -9999 -9999 -9999 -9999 -9999 -9999 -9999 -9999 -9999 -9999 -9999 -9999 -9999 -9999 -9999 -9999 -9999 -9999 -9999 -9999 -9999 -9999 -9999 -9999 -9999 -9999 -9999 -9999 -9999 -9999 -9999 -9999 -9999 -9999 -9999 -9999 -9999 -9999 -9999 -9999 -9999 -9999 -9999 -9999 -9999 -9999 -9999 -9999 -9999 35.341 35.278 35.233 35.171 35.123 35.058 34.998 34.968 34.883 34.838 34.791 34.778 34.763 34.751 34.673 34.553 34.703 35.606 34.786 34.128 34.051 33.951 33.921 33.888 33.841 33.818 33.793 33.771 33.748 33.708 33.683 33.653 33.636 33.613 33.651 35.673 36.116 35.708 33.876 33.986 34.141 34.733 34.913 34.453 34.538 34.638 34.718 34.843 34.971 35.153 35.316 35.458 35.576 35.726 35.888 36.049 -9999 -9999 -9999 -9999 -9999 -9999 -9999 -9999 -9999 -9999 -9999 -9999 -9999 -9999 -9999 -9999 -9999 -9999 -9999 -9999 -9999 -9999 -9999 -9999 -9999 -9999 -9999 -9999 -9999 -9999 -9999 -9999 -9999 -9999 -9999 -9999 -9999 -9999 -9999 -9999 -9999 -9999 -9999 -9999 -9999 -9999 -9999 -9999 -9999 -9999 -9999 -9999 -9999 -9999 -9999 -9999 -9999 -9999 -9999 -9999 -9999 -9999 -9999 -9999 -9999 -9999 -9999 -9999 -9999 -9999 -9999 -9999 -9999 -9999 -9999 -9999 -9999 -9999 -9999 -9999 -9999 -9999 -9999 -9999 -9999 -9999 -9999 -9999 -9999 -9999 -9999 -9999 -9999 -9999 -9999 -9999 -9999
33.005 32.996 32.992 32.984 32.987 32.979 32.984 33.002 33.034 33.054 33.055 33.063 33.032 33.059 33.044 33.065 33.058 33.04 33.036 33.042 33.059 33.081 33.098 33.104 33.124 33.132 33.145 33.141 33.173 33.169 33.168 33.16 33.152 33.145 33.144 33.169 33.177 33.138 33.158 33.125 33.057 33.002 32.981 32.951 32.916 32.923 32.901 32.843 32.838 32.816 32.793 32.786 32.781 32.796 32.783 32.853 32.931 33.028 33.158 33.296 33.396 33.481 33.533 33.631 33.701 33.778 33.866 33.913 33.988 34.086 34.168 34.256 34.326 34.428 34.526 34.616 34.718 34.811 34.931 35.031 35.151 35.261 35.361 35.468 35.601 35.693 35.793 35.943 36.066 36.216 36.391 36.548 36.703 36.856 36.968 37.108 37.231 37.388 37.481 37.611 37.721 37.823 37.896 37.988 38.078 38.171 38.261 38.341 38.463 38.551 38.623 38.753 38.871 38.963 39.076 39.206 39.343 39.508 39.668 39.853 40.061 40.241 40.436 40.643 40.851 41.043 41.168 41.331 41.506 41.678 41.851 42.056 42.246 42.461 42.658 42.868 43.041 43.218 43.436 43.646 43.858 44.061 44.316 44.561 44.763 44.943 45.123 45.318 45.498 -9999 -9999 -9999 -9999 -9999 -9999 -9999 -9999 -9999 -9999 -9999 -9999 -9999 -9999 -9999 -9999 -9999 -9999 -9999 -9999 -9999 -9999 -9999 -9999 -9999 -9999 -9999 -9999 -9999 -9999 -9999 -9999 -9999 -9999 -9999 -9999 -9999 -9999 -9999 -9999 -9999 -9999 -9999 -9999 -9999 -9999 -9999 -9999 -9999 -9999 -9999 -9999 -9999 -9999 -9999 -9999 -9999 -9999 -9999 -9999 -9999 -9999 -9999 -9999 -9999 -9999 -9999 -9999 -9999 -9999 -9999 -9999 -9999 -9999 -9999 -9999 -9999 -9999 -9999 -9999 -9999 -9999 -9999 -9999 -9999 -9999 -9999 -9999 -9999 -9999 -9999 -9999 -9999 -9999 -9999 -9999 -9999 -9999 -9999 -9999 -9999 -9999 -9999 -9999 -9999 -9999 -9999 -9999 -9999 -9999 -9999 -9999 -9999 -9999 -9999 -9999 -9999 -9999 -9999 -9999 -9999 -9999 -9999 -9999 -9999 -9999 -9999 -9999 -9999 -9999 -9999 -9999 -9999 -9999 -9999 -9999 -9999 -9999 -9999 -9999 35.328 35.293 35.243 35.173 35.116 35.061 34.998 34.968 34.868 34.831 34.798 34.793 34.796 34.731 34.673 34.541 34.763 35.531 34.368 34.128 34.053 33.983 33.878 33.868 33.838 33.811 33.778 33.786 33.741 33.683 33.671 33.633 33.626 33.638 33.726 33.743 33.816 33.851 33.946 34.023 34.221 35.336 34.448 34.538 34.613 34.691 34.808 34.921 35.051 35.241 35.378 -9999 -9999 -9999 -9999 -9999 -9999 -9999 -9999 -9999 -9999 -9999 -9999 -9999 -9999 -9999 -9999 -9999 -9999 -9999 -9999 -9999 -9999 -9999 -9999 -9999 -9999 -9999 -9999 -9999 -9999 -9999 -9999 -9999 -9999 -9999 -9999 -9999 -9999 -9999 -9999 -9999 -9999 -9999 -9999 -9999 -9999 -9999 -9999 -9999 -9999 -9999 -9999 -9999 -9999 -9999 -9999 -9999 -9999 -9999 -9999 -9999 -9999 -9999 -9999 -9999 -9999 -9999 -9999 -9999 -9999 -9999 -9999 -9999 -9999 -9999 -9999 -9999 -9999 -9999 -9999 -9999 -9999 -9999 -9999 -9999 -9999 -9999 -9999 -9999 -9999 -9999 -9999 -9999 -9999 -9999 -9999 -9999 -9999 -9999 -9999 -9999 -9999
33.077 33.062 33.052 33.063 33.056 33.049 33.057 33.059 33.082 33.107 33.115 33.136 33.116 33.123 33.119 33.105 33.098 33.099 33.089 33.094 33.118 33.131 33.159 33.157 33.181 33.201 33.22 33.224 33.219 33.221 33.228 33.235 33.247 33.22 33.226 33.256 33.251 33.245 33.228 33.206 33.181 33.161 33.101 33.038 33.021 33.006 32.983 32.961 32.971 32.926 32.896 32.873 32.848 32.856 32.846 32.896 32.978 33.066 33.186 33.278 33.371 33.421 33.513 33.623 33.676 33.758 33.833 33.928 33.976 34.058 34.158 34.251 34.336 34.401 34.523 34.593 34.701 34.776 34.856 34.973 35.078 35.216 35.318 35.413 35.551 35.681 35.756 35.906 36.036 36.181 36.351 36.506 36.676 36.796 36.931 37.096 37.213 37.363 37.453 37.596 37.711 37.816 37.906 38.006 38.083 38.193 38.286 38.381 38.486 38.593 38.698 38.821 38.896 39.013 39.141 39.266 39.416 39.581 39.731 39.938 40.103 40.326 40.536 40.743 40.906 41.066 41.226 41.378 41.561 41.753 41.933 42.118 42.323 42.508 42.736 42.946 43.108 43.333 43.543 43.728 43.953 44.193 44.438 44.651 44.831 45.016 45.193 45.363 45.603 -9999 -9999 -9999 -9999 -9999 -9999 -9999 -9999 -9999 -9999 -9999 -9999 -9999 -9999 -9999 -9999 -9999 -9999 -9999 -9999 -9999 -9999 -9999 -9999 -9999 -9999 -9999 -9999 -9999 -9999 -9999 -9999 -9999 -9999 -9999 -9999 -9999 -9999 -9999 -9999 -9999 -9999 -9999 -9999 -9999 -9999 -9999 -9999 -9999 -9999 -9999 -9999 -9999 -9999 -9999 -9999 -9999 -9999 -9999 -9999 -9999 -9999 -9999 -9999 -9999 -9999 -9999 -9999 -9999 -9999 -9999 -9999 -9999 -9999 -9999 -9999 -9999 -9999 -9999 -9999 -9999 -9999 -9999 -9999 -9999 -9999 -9999 -9999 -9999 -9999 -9999 -9999 -9999 -9999 -9999 -9999 -9999 -9999 -9999 -9999 -9999 -9999 -9999 -9999 -9999 -9999 -9999 -9999 -9999 -9999 -9999 -9999 -9999 -9999 -9999 -9999 -9999 -9999 -9999 -9999 -9999 -9999 -9999 -9999 -9999 -9999 -9999 -9999 -9999 -9999 -9999 -9999 -9999 -9999 -9999 -9999 -9999 -9999 -9999 -9999 35.333 35.291 35.243 35.186 35.103 35.081 35.006 34.938 34.886 34.848 34.816 34.796 34.771 34.738 34.668 34.543 34.861 35.508 34.328 34.156 34.071 33.978 33.913 33.841 33.818 33.798 33.776 33.781 33.751 33.696 33.671 33.633 33.613 33.653 33.708 33.768 33.853 33.951 34.058 34.158 34.716 35.248 34.471 34.603 34.683 34.736 34.873 -9999 -9999 -9999 -9999 -9999 -9999 -9999 -9999 -9999 -9999 -9999 -9999 -9999 -9999 -9999 -9999 -9999 -9999 -9999 -9999 -9999 -9999 -9999 -9999 -9999 -9999 -9999 -9999 -9999 -9999 -9999 -9999 -9999 -9999 -9999 -9999 -9999 -9999 -9999 -9999 -9999 -9999 -9999 -9999 -9999 -9999 -9999 -9999 -9999 -9999 -9999 -9999 -9999 -9999 -9999 -9999 -9999 -9999 -9999 -9999 -9999 -9999 -9999 -9999 -9999 -9999 -9999 -9999 -9999 -9999 -9999 -9999 -9999 -9999 -9999 -9999 -9999 -9999 -9999 -9999 -9999 -9999 -9999 -9999 -9999 -9999 -9999 -9999 -9999 -9999 -9999 -9999 -9999 -9999 -9999 -9999 -9999 -9999 -9999 -9999 -9999 -9999 -9999 -9999 -9999 -9999
33.142 33.142 33.122 33.106 33.107 33.102 33.107 33.137 33.13 33.145 33.168 33.166 33.138 33.147 33.144 33.137 33.127 33.116 33.12 33.136 33.145 33.147 33.18 33.18 33.185 33.212 33.231 33.236 33.251 33.255 33.255 33.272 33.281 33.28 33.286 33.301 33.321 33.283 33.298 33.251 33.253 33.236 33.193 33.161 33.131 33.098 33.103 33.091 33.061 33.036 33.013 32.996 32.983 32.978 33.013 33.006 33.086 33.108 33.208 33.286 33.391 33.421 33.523 33.598 33.656 33.723 33.811 33.906 33.958 34.033 34.121 34.228 34.306 34.406 34.488 34.583 34.666 34.768 34.871 34.956 35.043 35.156 35.261 35.366 35.476 35.606 35.716 35.866 36.026 36.173 36.318 36.468 36.656 36.796 36.958 37.073 37.233 37.341 37.491 37.613 37.698 37.833 37.943 38.038 38.126 38.216 38.313 38.433 38.536 38.643 38.748 38.866 38.978 39.086 39.191 39.323 39.466 39.631 39.808 40.011 40.183 40.371 40.601 40.778 40.946 41.088 41.263 41.438 41.643 41.863 42.063 42.228 42.376 42.606 42.811 43.028 43.201 43.416 43.621 43.831 44.056 44.288 44.491 44.726 44.928 45.123 45.286 45.456 45.666 -9999 -9999 -9999 -9999 -9999 -9999 -9999 -9999 -9999 -9999 -9999 -9999 -9999 -9999 -9999 -9999 -9999 -9999 -9999 -9999 -9999 -9999 -9999 -9999 -9999 -9999 -9999 -9999 -9999 -9999 -9999 -9999 -9999 -9999 -9999 -9999 -9999 -9999 -9999 -9999 -9999 -9999 -9999 -9999 -9999 -9999 -9999 -9999 -9999 -9999 -9999 -9999 -9999 -9999 -9999 -9999 -9999 -9999 -9999 -9999 -9999 -9999 -9999 -9999 -9999 -9999 -9999 -9999 -9999 -9999 -9999 -9999 -9999 -9999 -9999 -9999 -9999 -9999 -9999 -9999 -9999 -9999 -9999 -9999 -9999 -9999 -9999 -9999 -9999 -9999 -9999 -9999 -9999 -9999 -9999 -9999 -9999 -9999 -9999 -9999 -9999 -9999 -9999 -9999 -9999 -9999 -9999 -9999 -9999 -9999 -9999 -9999 -9999 -9999 -9999 -9999 -9999 -9999 -9999 -9999 -9999 -9999 -9999 -9999 -9999 -9999 -9999 -9999 -9999 -9999 -9999 -9999 -9999 -9999 -9999 -9999 -9999 -9999 -9999 -9999 -9999 35.301 35.246 35.186 35.103 35.048 35.016 34.941 34.891 34.831 34.808 34.813 34.776 34.736 34.656 34.528 35.123 35.621 34.356 34.186 34.088 33.993 33.888 33.863 33.833 33.793 33.776 33.758 33.743 33.716 33.668 33.656 33.648 33.706 33.763 33.828 33.873 34.008 34.118 34.211 35.166 34.708 -9999 -9999 -9999 -9999 -9999 -9999 -9999 -9999 -9999 -9999 -9999 -9999 -9999 -9999 -9999 -9999 -9999 -9999 -9999 -9999 -9999 -9999 -9999 -9999 -9999 -9999 -9999 -9999 -9999 -9999 -9999 -9999 -9999 -9999 -9999 -9999 -9999 -9999 -9999 -9999 -9999 -9999 -9999 -9999 -9999 -9999 -9999 -9999 -9999 -9999 -9999 -9999 -9999 -9999 -9999 -9999 -9999 -9999 -9999 -9999 -9999 -9999 -9999 -9999 -9999 -9999 -9999 -9999 -9999 -9999 -9999 -9999 -9999 -9999 -9999 -9999 -9999 -9999 -9999 -9999 -9999 -9999 -9999 -9999 -9999 -9999 -9999 -9999 -9999 -9999 -9999 -9999 -9999 -9999 -9999 -9999 -9999 -9999 -9999 -9999 -9999 -9999 -9999 -9999 -9999 -9999 -9999 -9999 -9999 -9999 -9999
33.247 33.238 33.226 33.205 33.201 33.188 33.197 33.202 33.236 33.243 33.237 33.222 33.236 33.224 33.209 33.206 33.192 33.191 33.193 33.187 33.192 33.208 33.218 33.238 33.239 33.269 33.293 33.312 33.306 33.296 33.278 33.281 33.303 33.298 33.303 33.323 33.353 33.363 33.348 33.311 33.286 33.268 33.226 33.223 33.211 33.183 33.203 33.178 33.178 33.158 33.153 33.133 33.093 33.068 33.096 33.093 33.131 33.171 33.253 33.333 33.403 33.451 33.526 33.596 33.671 33.721 33.808 33.883 33.963 34.038 34.128 34.216 34.283 34.388 34.471 34.606 34.678 34.783 34.878 34.953 35.023 35.128 35.216 35.331 35.468 35.576 35.703 35.828 36.013 36.158 36.311 36.461 36.608 36.771 36.913 37.076 37.241 37.351 37.488 37.626 37.728 37.846 37.943 38.053 38.173 38.283 38.391 38.483 38.561 38.698 38.806 38.921 39.008 39.138 39.258 39.408 39.551 39.723 39.893 40.081 40.268 40.478 40.673 40.828 40.986 41.131 41.303 41.523 43.281 43.438 42.173 42.313 42.461 42.698 42.903 43.138 43.301 43.498 43.723 43.903 44.138 44.358 44.571 44.806 45.001 45.226 45.388 45.551 45.748 -9999 -9999 -9999 -9999 -9999 -9999 -9999 -9999 -9999 -9999 -9999 -9999 -9999 -9999 -9999 -9999 -9999 -9999 -9999 -9999 -9999 -9999 -9999 -9999 -9999 -9999 -9999 -9999 -9999 -9999 -9999 -9999 -9999 -9999 -9999 -9999 -9999 -9999 -9999 -9999 -9999 -9999 -9999 -9999 -9999 -9999 -9999 -9999 -9999 -9999 -9999 -9999 -9999 -9999 -9999 -9999 -9999 -9999 -9999 -9999 -9999 -9999 -9999 -9999 -9999 -9999 -9999 -9999 -9999 -9999 -9999 -9999 -9999 -9999 -9999 -9999 -9999 -9999 -9999 -9999 -9999 -9999 -9999 -9999 -9999 -9999 -9999 -9999 -9999 -9999 -9999 -9999 -9999 -9999 -9999 -9999 -9999 -9999 -9999 -9999 -9999 -9999 -9999 -9999 -9999 -9999 -9999 -9999 -9999 -9999 -9999 -9999 -9999 -9999 -9999 -9999 -9999 -9999 -9999 -9999 -9999 -9999 -9999 -9999 -9999 -9999 -9999 -9999 -9999 -9999 -9999 -9999 -9999 -9999 -9999 -9999 -9999 -9999 -9999 -9999 -9999 35.286 35.243 35.181 35.103 35.048 34.988 34.916 34.888 34.828 34.806 34.816 34.778 34.741 34.683 34.518 35.296 35.693 34.341 34.198 34.096 33.996 33.923 33.858 33.841 33.793 33.793 33.781 33.753 33.718 33.693 33.681 33.698 33.761 33.843 33.938 33.976 34.086 -9999 -9999 -9999 -9999 -9999 -9999 -9999 -9999 -9999 -9999 -9999 -9999 -9999 -9999 -9999 -9999 -9999 -9999 -9999 -9999 -9999 -9999 -9999 -9999 -9999 -9999 -9999 -9999 -9999 -9999 -9999 -9999 -9999 -9999 -9999 -9999 -9999 -9999 -9999 -9999 -9999 -9999 -9999 -9999 -9999 -9999 -9999 -9999 -9999 -9999 -9999 -9999 -9999 -9999 -9999 -9999 -9999 -9999 -9999 -9999 -9999 -9999 -9999 -9999 -9999 -9999 -9999 -9999 -9999 -9999 -9999 -9999 -9999 -9999 -9999 -9999 -9999 -9999 -9999 -9999 -9999 -9999 -9999 -9999 -9999 -9999 -9999 -9999 -9999 -9999 -9999 -9999 -9999 -9999 -9999 -9999 -9999 -9999 -9999 -9999 -9999 -9999 -9999 -9999 -9999 -9999 -9999 -9999 -9999 -9999 -9999 -9999 -9999 -9999 -9999
33.357 33.334 33.322 33.321 33.33 33.32 33.29 33.295 33.312 33.319 33.333 33.319 33.323 33.313 33.318 33.314 33.308 33.292 33.287 33.274 33.288 33.32 33.326 33.331 33.317 33.356 33.351 33.376 33.368 33.373 33.366 33.351 33.343 33.373 33.371 33.383 33.378 33.398 33.391 33.368 33.336 33.313 33.283 33.276 33.236 33.276 33.256 33.261 33.246 33.233 33.221 33.243 33.186 33.161 33.163 33.203 33.208 33.236 33.283 33.358 33.421 33.453 33.543 33.616 33.656 33.756 33.808 33.873 33.968 34.041 34.103 34.208 34.263 34.373 34.468 34.576 34.698 34.801 34.851 34.953 35.038 35.106 35.241 35.316 35.471 35.563 35.718 35.858 36.008 36.153 36.301 36.416 36.616 36.768 36.921 37.066 37.243 37.368 37.518 37.643 37.756 37.886 37.986 38.116 38.201 38.331 38.448 38.531 38.611 38.733 38.858 38.976 39.063 39.161 39.331 39.478 39.646 39.776 39.958 40.163 40.303 40.498 40.701 40.891 41.056 41.218 41.386 41.676 42.961 44.901 44.293 42.431 42.566 42.778 43.006 43.193 43.378 43.576 43.801 43.981 44.211 44.426 44.656 44.898 45.108 45.281 45.493 45.651 -9999 -9999 -9999 -9999 -9999 -9999 -9999 -9999 -9999 -9999 -9999 -9999 -9999 -9999 -9999 -9999 -9999 -9999 -9999 -9999 -9999 -9999 -9999 -9999 -9999 -9999 -9999 -9999 -9999 -9999 -9999 -9999 -9999 -9999 -9999 -9999 -9999 -9999 -9999 -9999 -9999 -9999 -9999 -9999 -9999 -9999 -9999 -9999 -9999 -9999 -9999 -9999 -9999 -9999 -9999 -9999 -9999 -9999 -9999 -9999 -9999 -9999 -9999 -9999 -9999 -9999 -9999 -9999 -9999 -9999 -9999 -9999 -9999 -9999 -9999 -9999 -9999 -9999 -9999 -9999 -9999 -9999 -9999 -9999 -9999 -9999 -9999 -9999 -9999 -9999 -9999 -9999 -9999 -9999 -9999 -9999 -9999 -9999 -9999 -9999 -9999 -9999 -9999 -9999 -9999 -9999 -9999 -9999 -9999 -9999 -9999 -9999 -9999 -9999 -9999 -9999 -9999 -9999 -9999 -9999 -9999 -9999 -9999 -9999 -9999 -9999 -9999 -9999 -9999 -9999 -9999 -9999 -9999 -9999 -9999 -9999 -9999 -9999 -9999 -9999 -9999 -9999 35.278 35.221 35.176 35.073 35.028 34.986 34.913 34.878 34.833 34.813 34.833 34.811 34.781 34.676 34.551 35.531 35.596 34.313 34.158 34.051 33.993 33.923 33.883 33.841 33.788 33.791 33.833 33.778 33.741 33.693 33.691 33.746 -9999 -9999 -9999 -9999 -9999 -9999 -9999 -9999 -9999 -9999 -9999 -9999 -9999 -9999 -9999 -9999 -9999 -9999 -9999 -9999 -9999 -9999 -9999 -9999 -9999 -9999 -9999 -9999 -9999 -9999 -9999 -9999 -9999 -9999 -9999 -9999 -9999 -9999 -9999 -9999 -9999 -9999 -9999 -9999 -9999 -9999 -9999 -9999 -9999 -9999 -9999 -9999 -9999 -9999 -9999 -9999 -9999 -9999 -9999 -9999 -9999 -9999 -9999 -9999 -9999 -9999 -9999 -9999 -9999 -9999 -9999 -9999 -9999 -9999 -9999 -9999 -9999 -9999 -9999 -9999 -9999 -9999 -9999 -9999 -9999 -9999 -9999 -9999 -9999 -9999 -9999 -9999 -9999 -9999 -9999 -9999 -9999 -9999 -9999 -9999 -9999 -9999 -9999 -9999 -9999 -9999 -9999 -9999 -9999 -9999 -9999 -9999 -9999 -9999 -9999 -9999 -9999 -9999 -9999 -9999
33.464 33.441 33.42 33.411 33.404 33.408 33.405 33.389 33.402 33.413 33.418 33.425 33.428 33.396 33.395 33.386 33.377 33.401 33.387 33.372 33.386 33.381 33.393 33.406 33.411 33.418 33.411 33.448 33.443 33.423 33.426 33.413 33.433 33.431 33.443 33.443 33.443 33.473 33.468 33.433 33.433 33.411 33.356 33.336 33.311 33.316 33.301 33.298 33.311 33.336 33.288 33.278 33.278 33.248 33.258 33.263 33.288 33.318 33.356 33.408 33.456 33.511 33.571 33.648 33.676 33.743 33.828 33.918 33.978 34.031 34.078 34.198 34.276 34.366 34.443 34.541 34.653 34.746 34.838 34.931 35.036 35.131 35.258 35.353 35.488 35.611 35.741 35.898 35.993 36.148 36.323 36.461 36.631 36.803 36.936 37.078 37.246 37.383 37.511 37.633 37.756 37.861 37.993 38.131 38.246 38.351 38.471 38.563 38.666 38.786 38.896 39.013 39.126 39.233 39.386 39.523 39.683 39.848 40.013 40.206 40.406 40.553 40.756 40.893 41.088 41.293 41.486 42.988 45.911 45.758 42.956 42.473 42.653 42.853 43.068 43.278 43.461 43.648 43.878 44.051 44.286 44.486 44.728 44.971 45.193 45.368 45.556 45.728 -9999 -9999 -9999 -9999 -9999 -9999 -9999 -9999 -9999 -9999 -9999 -9999 -9999 -9999 -9999 -9999 -9999 -9999 -9999 -9999 -9999 -9999 -9999 -9999 -9999 -9999 -9999 -9999 -9999 -9999 -9999 -9999 -9999 -9999 -9999 -9999 -9999 -9999 -9999 -9999 -9999 -9999 -9999 -9999 -9999 -9999 -9999 -9999 -9999 -9999 -9999 -9999 -9999 -9999 -9999 -9999 -9999 -9999 -9999 -9999 -9999 -9999 -9999 -9999 -9999 -9999 -9999 -9999 -9999 -9999 -9999 -9999 -9999 -9999 -9999 -9999 -9999 -9999 -9999 -9999 -9999 -9999 -9999 -9999 -9999 -9999 -9999 -9999 -9999 -9999 -9999 -9999 -9999 -9999 -9999 -9999 -9999 -9999 -9999 -9999 -9999 -9999 -9999 -9999 -9999 -9999 -9999 -9999 -9999 -9999 -9999 -9999 -9999 -9999 -9999 -9999 -9999 -9999 -9999 -9999 -9999 -9999 -9999 -9999 -9999 -9999 -9999 -9999 -9999 -9999 -9999 -9999 -9999 -9999 -9999 -9999 -9999 -9999 -9999 -9999 -9999 -9999 35.288 35.233 35.173 35.111 35.043 34.993 34.916 34.883 34.848 34.823 34.831 34.831 34.776 34.668 34.576 35.688 35.566 34.296 34.126 34.078 33.968 33.913 33.863 33.836 33.793 33.798 33.803 33.781 -9999 -9999 -9999 -9999 -9999 -9999 -9999 -9999 -9999 -9999 -9999 -9999 -9999 -9999 -9999 -9999 -9999 -9999 -9999 -9999 -9999 -9999 -9999 -9999 -9999 -9999 -9999 -9999 -9999 -9999 -9999 -9999 -9999 -9999 -9999 -9999 -9999 -9999 -9999 -9999 -9999 -9999 -9999 -9999 -9999 -9999 -9999 -9999 -9999 -9999 -9999 -9999 -9999 -9999 -9999 -9999 -9999 -9999 -9999 -9999 -9999 -9999 -9999 -9999 -9999 -9999 -9999 -9999 -9999 -9999 -9999 -9999 -9999 -9999 -9999 -9999 -9999 -9999 -9999 -9999 -9999 -9999 -9999 -9999 -9999 -9999 -9999 -9999 -9999 -9999 -9999 -9999 -9999 -9999 -9999 -9999 -9999 -9999 -9999 -9999 -9999 -9999 -9999 -9999 -9999 -9999 -9999 -9999 -9999 -9999 -9999 -9999 -9999 -9999 -9999 -9999 -9999 -9999 -9999 -9999 -9999 -9999 -9999 -9999
33.562 33.545 33.531 33.517 33.492 33.504 33.49 33.487 33.476 33.486 33.506 33.502 33.484 33.473 33.47 33.468 33.471 33.466 33.446 33.478 33.501 33.483 33.498 33.481 33.471 33.508 33.513 33.531 33.516 33.503 33.508 33.501 33.516 33.526 33.516 33.501 33.536 33.533 33.528 33.538 33.508 33.456 33.403 33.433 33.436 33.396 33.388 33.381 33.388 33.373 33.368 33.376 33.356 33.298 33.331 33.348 33.333 33.403 33.408 33.468 33.486 33.576 33.608 33.643 33.718 33.801 33.858 33.958 34.016 34.063 34.121 34.211 34.273 34.361 34.433 34.523 34.633 34.728 34.833 34.918 35.041 35.123 35.243 35.383 35.516 35.638 35.808 35.946 36.078 36.213 36.333 36.511 36.641 36.831 36.946 37.083 37.243 37.376 37.493 37.628 37.738 37.846 37.986 38.136 38.243 38.393 38.496 38.606 38.708 38.801 38.943 39.051 39.156 39.291 39.423 39.563 39.731 39.913 40.103 40.288 40.468 40.643 40.836 41.018 41.193 41.363 41.563 41.816 43.116 42.758 42.481 42.573 42.766 42.966 43.166 43.373 43.546 43.736 43.958 44.166 44.383 44.591 44.821 45.061 45.263 45.448 45.651 -9999 -9999 -9999 -9999 -9999 -9999 -9999 -9999 -9999 -9999 -9999 -9999 -9999 -9999 -9999 -9999 -9999 -9999 -9999 -9999 -9999 -9999 -9999 -9999 -9999 -9999 -9999 -9999 -9999 -9999 -9999 -9999 -9999 -9999 -9999 -9999 -9999 -9999 -9999 -9999 -9999 -9999 -9999 -9999 -9999 -9999 -9999 -9999 -9999 -9999 -9999 -9999 -9999 -9999 -9999 -9999 -9999 -9999 -9999 -9999 -9999 -9999 -9999 -9999 -9999 -9999 -9999 -9999 -9999 -9999 -9999 -9999 -9999 -9999 -9999 -9999 -9999 -9999 -9999 -9999 -9999 -9999 -9999 -9999 -9999 -9999 -9999 -9999 -9999 -9999 -9999 -9999 -9999 -9999 -9999 -9999 -9999 -9999 -9999 -9999 -9999 -9999 -9999 -9999 -9999 -9999 -9999 -9999 -9999 -9999 -9999 -9999 -9999 -9999 -9999 -9999 -9999 -9999 -9999 -9999 -9999 -9999 -9999 -9999 -9999 -9999 -9999 -9999 -9999 -9999 -9999 -9999 -9999 -9999 -9999 -9999 -9999 -9999 -9999 -9999 -9999 -9999 -9999 -9999 35.226 35.188 35.138 35.083 35.003 34.946 34.906 34.846 34.868 34.848 34.838 34.808 34.686 34.648 35.811 35.281 34.268 34.166 34.046 33.961 33.911 33.863 -9999 -9999 -9999 -9999 -9999 -9999 -9999 -9999 -9999 -9999 -9999 -9999 -9999 -9999 -9999 -9999 -9999 -9999 -9999 -9999 -9999 -9999 -9999 -9999 -9999 -9999 -9999 -9999 -9999 -9999 -9999 -9999 -9999 -9999 -9999 -9999 -9999 -9999 -9999 -9999 -9999 -9999 -9999 -9999 -9999 -9999 -9999 -9999 -9999 -9999 -9999 -9999 -9999 -9999 -9999 -9999 -9999 -9999 -9999 -9999 -9999 -9999 -9999 -9999 -9999 -9999 -9999 -9999 -9999 -9999 -9999 -9999 -9999 -9999 -9999 -9999 -9999 -9999 -9999 -9999 -9999 -9999 -9999 -9999 -9999 -9999 -9999 -9999 -9999 -9999 -9999 -9999 -9999 -9999 -9999 -9999 -9999 -9999 -9999 -9999 -9999 -9999 -9999 -9999 -9999 -9999 -9999 -9999 -9999 -9999 -9999 -9999 -9999 -9999 -9999 -9999 -9999 -9999 -9999 -9999 -9999 -9999 -9999 -9999 -9999 -9999 -9999 -9999 -9999
