ncols 462
nrows 30
xllcorner    456044
yllcorner    93914
cellsize     2
NODATA_value -9999
0.975 0.639 0.286 0.124 -0.126 -0.4 -0.668 -0.858 -1.069 -1.192 -1.503 -1.922 -2.199 -2.122 -1.891 -1.905 -1.813 -1.695 -1.467 -1.346 -1.055 -0.787 -0.473 -0.239 -0.023 0.234 0.212 0.034 -0.215 -0.414 -0.525 -0.649 -0.665 -0.649 -0.641 -0.543 -0.697 -0.793 -0.854 -1.001 -1.244 -1.454 -1.553 -1.56 -1.448 -1.314 -1.557 -1.789 -1.864 -1.85 -1.823 -1.62 -1.882 -2.174 -2.122 -1.862 -1.878 -2.154 -2.157 -2.182 -1.936 -1.895 -2.154 -2.144 -2.112 -1.841 -1.841 -2.152 -2.117 -2.144 -2.194 -2.152 -2.204 -2.157 -2.092 -2.179 -2.154 -2.137 -1.849 -1.865 -2.282 -2.152 -2.152 -2.219 -2.169 -2.157 -2.152 -2.197 -2.207 -2.182 -2.142 -2.177 -1.867 -2.094 -2.157 -2.212 -2.154 -2.149 -2.162 -2.219 -2.219 -2.197 -2.167 -2.189 -2.162 -2.159 -2.207 -2.184 -2.139 -2.184 -2.199 -2.127 -2.142 -2.174 -2.144 -2.124 -2.169 -2.209 -2.174 -2.144 -2.229 -2.202 -2.092 -2.167 -2.267 -2.199 -2.147 -2.229 -2.214 -2.144 -2.152 -2.162 -2.152 -2.202 -2.264 -2.237 -2.164 -2.182 -2.109 -2.194 -2.277 -2.224 -2.157 -2.247 -2.239 -2.247 -2.202 -2.174 -2.157 -2.169 -2.219 -2.174 -2.114 -2.152 -2.199 -2.187 -2.224 -2.237 -2.229 -2.219 -2.127 -2.199 -2.214 -2.204 -2.209 -2.172 -2.229 -2.189 -2.202 -2.254 -2.217 -2.142 -2.142 -2.139 -2.119 -2.204 -2.127 -2.159 -2.187 -2.134 -2.302 -2.244 -2.259 -2.159 -2.117 -2.222 -2.239 -2.189 -2.192 -2.214 -2.229 -2.139 -2.224 -2.129 -2.159 -2.169 -2.249 -2.197 -2.247 -2.152 -2.147 -2.157 -2.202 -2.149 -2.184 -2.244 -2.274 -2.184 -2.154 -2.169 -2.184 -2.169 -2.244 -2.259 -2.162 -2.142 -2.144 -2.229 -2.234 -2.152 -2.249 -2.149 -2.142 -2.159 -2.192 -2.187 -2.202 -2.189 -2.142 -2.187 -2.187 -2.264 -2.187 -2.189 -2.169 -2.194 -2.207 -2.232 -2.224 -2.222 -2.257 -2.272 -2.189 -2.219 -2.274 -2.257 -9999 -9999 -2.117 -2.272 -2.202 -2.264 -2.219 -2.277 -2.224 -2.222 -2.207 -2.174 -2.202 -2.239 -2.242 -2.144 -2.292 -2.297 -2.277 -9999 -9999 -9999 -9999 -9999 -9999 -2.157 -2.167 -2.224 -2.209 -2.247 -9999 -9999 -9999 -9999 -2.147 -2.169 -2.179 -2.172 -2.232 -9999 -9999 -9999 -2.207 -2.167 -2.17 -2.167 -2.207 -2.257 -9999 -2.207 -9999 -9999 -9999 -9999 -2.222 -9999 -9999 -9999 -9999 -9999 -2.189 -9999 -9999 -9999 -2.217 -2.252 -2.224 -9999 -9999 -9999 -2.257 -2.207 -9999 -9999 -2.207 -2.252 -2.232 -2.214 -2.287 -9999 -9999 -2.132 -2.209 -2.152 -2.127 -2.152 -2.112 -2.184 -2.239 -2.232 -2.209 -2.199 -9999 -9999 -2.217 -2.242 -1.927 -1.953 -2.142 -2.249 -2.197 -2.164 -2.222 -2.239 -9999 -9999 -1.873 -2.189 -2.212 -2.212 -2.179 -2.199 -2.18 1.866 -9999 -9999 -2.254 -2.272 -2.234 -2.167 -2.179 -2.244 -2.187 -2.249 -2.344 -9999 -9999 -9999 -9999 -2.021 -2.257 -2.187 -2.087 -2.139 -2.112 -2.097 -1.913 -1.972 -2.259 -2.164 -2.179 -2.202 -1.947 -1.686 -1.955 -1.943 -1.975 -2.257 -2.224 -1.942 -2.227 -2.209 -2.197 -1.965 -1.712 -1.369 -1.385 -1.724 -1.918 -2.192 -2.189 -1.965 -1.691 -1.39 -1.134 -1.111 -1.339 -1.606 -1.879 -1.978 -2.172 -2.312 -2.041 -1.657 -1.356 -1.567 -1.898 -2.132 -2.179 -2.013 -1.95 -2.001 -1.867 -1.683 -1.399 -1.219 -1.093 -1.102 -0.995 -0.891 -0.702 -0.836 -1.076 -1.217 -1.366 -1.423 -1.436 -1.455 -1.409 -1.261 -1.087 -0.867 -0.753 -0.85 -0.816 -0.673 -0.459 -0.27 -0.09 0.19 0.382 0.602 0.799 0.67 0.619 0.528
1.027 0.789 0.448 0.23 -0.005 -0.204 -0.437 -0.634 -0.918 -1.139 -1.449 -1.768 -1.913 -1.858 -1.894 -2.232 -2.144 -1.783 -1.754 -1.535 -1.229 -0.912 -0.562 -0.351 -0.15 0.073 0.069 -0.065 -0.334 -0.557 -0.774 -0.923 -0.978 -0.954 -0.875 -0.778 -0.695 -0.802 -1.028 -1.24 -1.403 -1.738 -1.874 -1.855 -1.718 -1.487 -1.36 -1.497 -1.727 -1.851 -1.728 -1.765 -1.857 -2.149 -2.169 -1.804 -1.745 -1.9 -2.169 -2.139 -2.227 -2.222 -2.214 -1.792 -1.808 -1.756 -1.844 -2.129 -2.127 -2.129 -1.868 -1.863 -1.892 -2.229 -2.157 -2.144 -2.117 -1.913 -1.698 -1.879 -2.229 -2.142 -2.122 -2.179 -2.147 -2.154 -2.142 -2.139 -2.164 -2.207 -2.152 -2.139 -2.157 -2.109 -2.147 -2.202 -2.182 -2.057 -1.855 -2.234 -2.199 -2.214 -2.199 -2.249 -2.184 -2.164 -2.197 -2.227 -2.182 -2.152 -2.177 -2.124 -2.157 -2.164 -2.137 -2.137 -2.222 -2.204 -2.194 -2.139 -2.164 -2.157 -2.119 -2.174 -2.212 -2.149 -2.132 -2.224 -2.207 -2.107 -2.127 -2.149 -2.142 -2.154 -2.337 -2.224 -2.169 -2.139 -2.139 -2.204 -2.239 -2.214 -2.167 -2.172 -2.229 -2.209 -2.252 -2.199 -2.177 -2.184 -2.164 -2.127 -2.122 -2.144 -2.099 -2.187 -2.149 -2.199 -2.217 -2.212 -2.147 -2.167 -2.222 -2.239 -2.202 -2.239 -2.194 -2.134 -2.212 -2.274 -2.224 -2.144 -2.187 -2.132 -2.179 -2.227 -2.129 -2.207 -2.167 -2.164 -2.294 -2.222 -2.217 -2.152 -2.199 -2.159 -2.217 -2.242 -2.144 -2.209 -2.157 -2.114 -2.237 -2.179 -2.152 -2.217 -2.149 -2.194 -2.249 -2.164 -2.157 -2.199 -2.264 -2.232 -2.209 -2.234 -2.254 -2.279 -2.162 -2.197 -2.242 -2.149 -2.222 -2.217 -2.112 -2.119 -2.144 -2.199 -2.202 -2.097 -2.214 -2.152 -2.197 -2.182 -2.194 -2.077 -2.184 -2.197 -2.207 -2.237 -2.242 -2.249 -2.237 -2.187 -2.207 -2.254 -2.274 -2.199 -2.252 -2.257 -2.259 -2.239 -2.104 -2.207 -2.322 -2.304 -9999 -9999 -2.137 -2.207 -2.164 -2.202 -2.154 -2.267 -2.222 -2.197 -2.239 -2.267 -2.267 -2.282 -2.237 -2.167 -2.207 -9999 -2.302 -9999 -9999 -2.327 -9999 -9999 -9999 -9999 -2.224 -2.227 -2.172 -2.154 -9999 -9999 -2.217 -2.179 -2.154 -2.129 -2.082 -2.134 -2.242 -9999 -9999 -9999 -9999 -2.292 -2.289 -9999 -9999 -9999 -9999 -9999 -9999 -9999 -9999 -9999 -9999 -2.199 -9999 -9999 -9999 -9999 -2.212 -2.182 -2.207 -2.207 -2.219 -2.289 -2.239 -2.214 -9999 -9999 -2.3 -9999 -9999 -9999 -2.25 -2.274 -2.269 -2.229 -2.202 -9999 -9999 -9999 -2.182 -2.139 -1.855 -9999 -9999 -2.187 -2.267 -2.229 -2.237 -2.244 -9999 -9999 -2.2 -1.938 -1.918 -1.989 -1.931 -2.259 -2.204 -2.179 -2.229 -2.207 -2.202 1.903 -1.901 -2.254 -2.264 -2.244 -1.964 -2.239 -2.217 -2.187 -2.192 -2.232 -2.214 -2.242 -2.202 -2.212 -2.209 -2.187 -2.119 -2.152 -2.224 -2.169 -9999 -2.327 -2.394 -2.067 -2.269 -2.194 -2.214 -2.119 -1.83 -1.878 -1.877 -2.013 -2.287 -2.219 -1.958 -1.909 -1.786 -1.835 -1.979 -2.267 -2.214 -2.297 -2.194 -1.989 -2.177 -2.249 -1.95 -1.853 -1.653 -1.3 -1.404 -1.724 -1.955 -2.227 -2.267 -2.004 -1.714 -1.371 -1.105 -1.189 -1.426 -1.631 -1.886 -1.975 -2.192 -2.274 -1.993 -1.711 -1.377 -1.58 -1.924 -2.202 -2.244 -1.954 -1.703 -1.714 -1.699 -1.74 -1.658 -1.421 -1.199 -0.985 -0.789 -0.663 -0.488 -0.671 -0.918 -0.97 -1.033 -1.11 -1.178 -1.15 -1.112 -1.022 -0.918 -0.712 -0.496 -0.584 -0.584 -0.412 -0.198 0.006 0.173 0.307 0.489 0.766 0.982 1.013 0.865 0.82
1.074 0.923 0.607 0.389 0.176 -0.065 -0.223 -0.521 -0.815 -1.023 -1.231 -1.474 -1.599 -1.524 -1.834 -2.182 -2.169 -2.049 -1.837 -1.635 -1.327 -1.118 -0.724 -0.512 -0.28 -0.006 -0.159 -0.38 -0.688 -0.817 -1.004 -1.18 -1.256 -1.257 -1.161 -1.032 -0.957 -0.996 -1.205 -1.428 -1.74 -1.911 -2.164 -2.127 -1.863 -1.725 -1.538 -1.717 -1.845 -2.162 -1.862 -1.877 -2.154 -1.894 -2.182 -1.818 -1.881 -1.9 -2.179 -2.174 -2.179 -2.224 -2.187 -2.177 -1.813 -1.841 -2.147 -2.142 -2.157 -2.134 -1.893 -1.563 -1.724 -1.909 -2.129 -2.089 -1.896 -1.877 -1.822 -1.729 -1.879 -2.134 -2.134 -2.194 -2.157 -2.142 -2.172 -2.159 -2.169 -2.167 -2.184 -2.127 -2.197 -2.109 -2.144 -2.242 -2.157 -1.754 -1.871 -2.207 -2.189 -2.132 -2.202 -2.199 -2.232 -2.164 -2.212 -2.189 -2.172 -2.177 -2.214 -2.124 -2.139 -2.142 -2.122 -2.139 -2.202 -2.229 -2.169 -2.109 -2.197 -2.177 -2.124 -2.184 -2.279 -2.174 -2.202 -2.124 -2.222 -2.164 -2.184 -2.149 -2.189 -2.169 -2.202 -2.184 -2.197 -2.142 -2.167 -2.182 -2.232 -2.172 -2.124 -2.169 -2.162 -2.169 -2.262 -2.207 -2.114 -2.249 -2.224 -2.117 -2.134 -2.152 -2.194 -2.182 -2.192 -2.189 -2.252 -2.202 -2.202 -2.164 -2.187 -2.199 -2.117 -2.157 -2.262 -2.209 -2.194 -2.194 -2.194 -2.129 -2.179 -2.099 -2.177 -2.209 -2.144 -2.192 -2.162 -2.177 -2.217 -2.194 -2.202 -2.159 -2.127 -2.257 -2.227 -2.134 -2.177 -2.264 -2.204 -2.179 -2.207 -2.219 -2.154 -2.267 -2.169 -2.269 -2.202 -2.139 -2.149 -2.184 -2.274 -2.239 -2.219 -2.229 -2.232 -2.267 -2.227 -2.117 -2.232 -2.247 -2.214 -2.199 -2.209 -2.152 -2.149 -2.187 -2.179 -2.149 -2.207 -2.207 -2.277 -2.254 -2.212 -2.132 -2.232 -2.219 -2.247 -2.214 -2.252 -2.242 -2.234 -2.262 -2.172 -2.199 -2.154 -2.172 -2.214 -2.232 -2.237 -2.247 -2.124 -2.172 -2.237 -2.272 -2.219 -2.202 -9999 -2.212 -2.199 -2.192 -2.179 -2.209 -2.257 -2.227 -2.204 -2.247 -2.204 -2.244 -2.239 -2.159 -9999 -9999 -2.222 -9999 -9999 -9999 -9999 -9999 -9999 -2.157 -2.267 -2.237 -2.242 -2.209 -9999 -9999 -2.307 -2.242 -2.199 -2.192 -2.162 -9999 -9999 -9999 -9999 -9999 -2.312 -2.282 -9999 -9999 -9999 -9999 -9999 -9999 -9999 -9999 -9999 -9999 -9999 -2.242 1.823 1.883 -9999 -9999 -2.202 -2.17 -2.187 -2.194 -2.224 -2.304 -2.309 -2.249 -9999 -9999 -9999 -2.172 -2.237 -2.307 -2.272 -2.247 -2.282 -2.264 -2.169 -9999 -9999 -2.267 -2.232 -2.152 -1.82 -9999 -9999 -2.237 -2.242 -9999 -9999 -2.224 -2.239 -2.209 -1.891 -1.941 -2.207 -2.229 -2.262 -2.239 -9999 -9999 -1.87 -1.928 -1.931 -2.167 -2.234 -2.487 -2.222 -1.903 -1.941 -2.277 -2.194 -2.112 -1.936 -2.302 -2.234 -1.976 -1.953 -1.911 -2.254 -2.247 -2.189 -2.162 -2.154 -2.147 -2.232 -2.237 -2.284 -1.999 -1.979 -1.962 -2.264 -1.857 -1.767 -1.68 -1.946 -2.259 -2.204 -2.227 -1.977 -1.672 -1.652 -1.995 -2.234 -2.244 -2.194 -2.244 -2.272 -1.969 -2.209 -1.985 -1.943 -1.641 -1.456 -1.228 -1.407 -1.739 -1.915 -2.112 -2.152 -1.961 -1.688 -1.388 -1.179 -1.31 -1.528 -1.792 -1.957 -2.264 -1.937 -1.941 -1.882 -1.684 -1.329 -1.581 -1.817 -1.959 -1.883 -1.839 -1.592 -1.844 -1.985 -2.027 -1.905 -1.593 -1.365 -1.133 -0.876 -0.763 -0.671 -0.635 -0.634 -0.741 -0.756 -0.821 -0.875 -0.787 -0.8 -0.786 -0.66 -0.486 -0.333 -0.31 -0.295 -0.172 -0.036 0.127 0.322 0.475 0.733 1.007 1.212 1.256 1.169 1.101
1.286 1.043 0.731 0.594 0.5 0.213 -0.107 -0.357 -0.648 -0.86 -1.025 -1.128 -1.277 -1.509 -1.751 -1.949 -1.97 -1.843 -1.735 -1.79 -1.514 -1.244 -0.9 -0.59 -0.235 -0.015 -0.268 -0.571 -0.837 -1.018 -1.262 -1.498 -1.545 -1.512 -1.474 -1.263 -1.125 -0.997 -1.246 -1.568 -1.847 -2.199 -2.217 -2.129 -2.152 -1.864 -1.587 -1.877 -2.112 -2.162 -2.224 -2.187 -2.162 -1.961 -1.873 -1.823 -2.147 -2.169 -1.883 -2.147 -2.137 -2.202 -2.177 -2.169 -2.144 -2.167 -2.137 -2.212 -2.207 -2.197 -1.906 -1.735 -1.875 -2.184 -2.152 -2.149 -2.162 -2.172 -2.199 -1.827 -2.169 -2.139 -2.189 -2.204 -2.154 -2.132 -2.259 -2.139 -2.129 -2.209 -2.197 -2.154 -2.249 -2.144 -2.142 -2.207 -2.177 -2.084 -2.174 -2.189 -2.239 -2.152 -2.174 -2.217 -2.207 -2.192 -2.197 -2.219 -2.209 -2.177 -2.212 -2.202 -2.192 -2.207 -2.189 -2.169 -2.189 -2.134 -2.144 -2.107 -2.202 -2.149 -2.147 -2.204 -2.147 -2.157 -2.217 -2.232 -2.222 -2.142 -2.159 -2.184 -2.204 -2.159 -2.147 -2.187 -2.237 -2.114 -2.147 -2.174 -2.184 -2.132 -2.179 -2.169 -2.214 -2.224 -2.242 -2.247 -2.124 -2.234 -2.264 -2.217 -2.187 -2.214 -2.207 -2.169 -2.159 -2.227 -2.209 -2.177 -2.184 -2.132 -2.109 -2.209 -2.194 -2.139 -2.214 -2.167 -2.222 -2.149 -2.152 -2.202 -2.234 -2.169 -2.254 -2.234 -2.179 -2.187 -2.164 -2.169 -2.159 -2.154 -2.139 -2.179 -2.182 -2.187 -2.204 -2.139 -2.197 -2.339 -2.234 -2.222 -2.217 -2.199 -2.154 -2.244 -2.147 -2.187 -2.169 -2.152 -2.172 -2.199 -2.254 -2.209 -2.202 -2.167 -2.262 -2.297 -2.239 -2.189 -2.149 -2.174 -2.232 -2.204 -2.259 -2.177 -2.172 -2.237 -2.257 -2.187 -2.119 -2.147 -2.209 -2.254 -2.172 -2.117 -2.197 -2.252 -2.219 -2.247 -2.279 -2.212 -2.212 -2.279 -2.292 -2.237 -2.154 -2.189 -2.184 -2.212 -2.259 -2.224 -2.184 -2.197 -9999 -2.227 -2.187 -9999 -9999 -9999 -2.284 -2.207 -2.157 -2.182 -2.249 -2.217 -2.212 -2.239 -2.137 -2.164 -2.214 -2.197 -9999 -2.287 -2.29 -2.304 -2.29 -2.297 -9999 -9999 -2.227 -2.187 -2.244 -2.162 -2.162 -2.164 -9999 -9999 -9999 -2.304 -2.272 -2.239 -9999 -9999 -9999 -9999 -9999 -9999 -2.274 -9999 -9999 -9999 -9999 -9999 -9999 -2.137 -2.167 -2.14 -9999 -9999 -9999 -9999 -1.942 1.968 -9999 -9999 -9999 -9999 -2.15 -2.172 -2.187 -2.227 -2.269 -2.259 -9999 -9999 -9999 -2.237 -9999 -9999 -9999 -2.157 -2.192 -2.314 -2.222 -2.149 -2.127 -2.244 -2.234 -2.184 -2.107 -2.134 -2.232 -9999 -9999 -9999 -9999 -2.174 -2.224 -9999 1.963 -1.967 -2.217 -2.269 -2.262 -9999 -9999 -9999 -2.19 -2.222 -2.257 -2.157 -2.172 -2.262 -2.262 -1.93 -1.937 -2.212 -2.209 -2.217 -1.956 -1.951 -1.931 -1.817 -1.94 -2.212 -2.222 -2.252 -2.167 -2.149 -2.137 -1.957 -2.04 -2.019 -1.966 -1.905 -1.751 -1.889 -1.984 -1.772 -1.568 -1.586 -1.793 -1.948 -2.209 -1.993 -1.848 -1.718 -1.626 -1.89 -1.988 -2.207 -2.229 -2.264 -2.247 -2.324 -2.277 -1.927 -1.72 -1.468 -1.272 -1.032 -1.347 -1.644 -1.865 -1.974 -1.919 -1.842 -1.61 -1.349 -1.181 -1.394 -1.636 -1.948 -2.177 -2.254 -2.005 -1.721 -1.726 -1.561 -1.217 -1.455 -1.589 -1.656 -1.625 -1.581 -1.674 -1.918 -2.277 -2.302 -2.038 -1.688 -1.41 -1.1 -1.056 -1.028 -0.856 -0.834 -0.876 -0.889 -0.713 -0.642 -0.635 -0.563 -0.563 -0.478 -0.367 -0.309 -0.183 -0.126 -0.09 0.067 0.227 0.336 0.506 0.66 0.899 1.155 1.334 1.468 1.402 1.3
1.483 1.254 0.955 0.845 0.633 0.265 0.084 -0.219 -0.473 -0.623 -0.76 -0.838 -1.05 -1.337 -1.477 -1.573 -1.898 -2.142 -2.039 -1.849 -1.61 -1.279 -0.986 -0.644 -0.252 0.018 -0.339 -0.607 -0.905 -1.142 -1.455 -1.748 -1.856 -1.837 -1.713 -1.498 -1.242 -0.979 -1.205 -1.547 -1.847 -2.207 -2.219 -2.134 -1.821 -1.739 -1.476 -1.731 -1.884 -2.242 -2.197 -1.83 -1.859 -1.726 -1.83 -2.119 -2.139 -2.139 -2.197 -2.162 -2.119 -2.244 -2.172 -2.254 -2.177 -2.142 -2.137 -2.204 -2.179 -1.866 -1.889 -1.833 -2.087 -2.222 -2.127 -2.117 -2.099 -2.179 -2.184 -1.875 -2.239 -2.114 -2.129 -2.177 -2.162 -2.164 -2.212 -2.172 -2.149 -2.202 -2.202 -2.219 -2.204 -2.157 -2.132 -2.162 -2.167 -2.132 -2.189 -2.199 -2.199 -2.159 -2.177 -2.137 -2.177 -2.149 -2.249 -2.214 -2.202 -2.229 -2.174 -2.157 -2.157 -2.174 -2.187 -2.247 -2.212 -2.184 -2.157 -2.147 -2.154 -2.177 -2.112 -2.199 -2.132 -2.142 -2.122 -2.219 -2.182 -2.127 -2.099 -2.164 -2.149 -2.144 -2.107 -2.242 -2.242 -2.202 -2.157 -2.192 -2.147 -2.099 -2.189 -2.222 -2.182 -2.157 -2.212 -2.267 -2.132 -2.232 -2.217 -2.179 -2.147 -2.179 -2.234 -2.167 -2.174 -2.182 -2.222 -2.204 -2.134 -2.152 -2.109 -2.197 -2.184 -2.169 -2.164 -2.209 -2.169 -2.204 -2.194 -2.212 -2.239 -2.172 -2.202 -2.227 -2.257 -2.222 -2.202 -2.129 -2.154 -2.182 -2.157 -2.132 -2.194 -2.164 -2.187 -2.197 -2.182 -2.299 -2.297 -2.197 -2.202 -2.254 -2.237 -2.272 -2.232 -2.144 -2.159 -2.147 -2.224 -2.152 -2.174 -2.254 -2.262 -2.189 -2.262 -2.247 -2.204 -2.197 -2.194 -2.217 -2.139 -2.239 -2.202 -2.167 -2.204 -2.257 -2.257 -2.219 -2.154 -2.192 -2.214 -2.199 -2.139 -2.099 -2.282 -2.237 -2.264 -2.212 -2.229 -2.162 -2.189 -2.257 -2.279 -2.247 -2.114 -2.189 -2.229 -2.232 -2.229 -2.269 -2.249 -9999 -9999 -9999 -2.194 -9999 -9999 -9999 -2.197 -2.204 -2.172 -2.189 -2.277 -2.307 -2.232 -2.162 -2.174 -2.122 -2.179 -2.197 -2.222 -2.339 -2.244 -2.242 -2.227 -2.234 -2.314 -2.312 -2.274 -2.242 -2.192 -2.177 -2.187 -2.169 -9999 -9999 -2.237 -2.247 -2.262 -2.269 -9999 -9999 -9999 -9999 -9999 -2.252 -9999 -9999 -9999 -9999 -9999 -9999 -9999 -2.23 -2.287 -2.189 -2.087 -9999 -9999 -2.197 -2.172 -2.157 -2.127 -2.307 -2.202 -2.177 -2.167 -9999 -9999 -9999 -2.294 -9999 -9999 -9999 -2.174 -2.209 -2.269 -9999 -9999 -9999 -9999 -2.234 -2.264 -9999 -2.184 -2.232 -2.129 -2.222 -2.217 -2.159 -2.239 -9999 -9999 -9999 -9999 -2.15 -2.174 -9999 -9999 -2.037 -2.239 -2.262 -2.254 -2.229 -2.22 -2.177 -2.187 -2.177 -2.204 -2.217 -2.224 -2.239 -2.209 -1.962 -1.923 -2.194 -2.262 -2.262 -2.294 -2.055 -2.032 -1.892 -2.012 -2.237 -2.244 -2.157 -2.177 -1.907 -1.862 -1.812 -1.882 -1.77 -1.728 -1.926 -2.051 -2.008 -1.896 -1.606 -1.477 -1.444 -1.625 -1.89 -2.189 -2.197 -1.907 -1.977 -1.848 -1.655 -1.853 -1.936 -1.999 -2.003 -2.289 -2.257 -2.038 -1.878 -1.658 -1.324 -1.026 -0.93 -1.243 -1.47 -1.619 -1.693 -1.604 -1.582 -1.44 -1.208 -1.089 -1.355 -1.556 -1.797 -1.909 -1.898 -1.786 -1.669 -1.525 -1.443 -1.316 -1.246 -1.327 -1.374 -1.343 -1.412 -1.685 -1.922 -2.212 -2.302 -2.033 -1.717 -1.445 -1.402 -1.324 -1.244 -1.159 -1.066 -1.169 -1.143 -0.99 -0.824 -0.711 -0.456 -0.254 -0.192 -0.137 -0.149 0.097 0.247 0.298 0.369 0.446 0.569 0.713 0.824 1.09 1.302 1.459 1.596 1.624 1.671
1.646 1.475 1.214 0.953 0.625 0.384 0.241 -0.029 -0.24 -0.235 -0.353 -0.522 -0.896 -1.061 -1.177 -1.556 -1.845 -1.834 -2.089 -1.813 -1.612 -1.243 -0.908 -0.677 -0.327 0.043 -0.32 -0.62 -0.855 -1.209 -1.538 -1.918 -2.157 -2.059 -1.852 -1.544 -1.241 -0.936 -1.19 -1.478 -1.775 -1.889 -1.895 -1.824 -1.748 -1.542 -1.327 -1.516 -1.739 -1.898 -1.887 -1.685 -1.499 -1.859 -2.119 -2.159 -2.177 -2.092 -2.109 -2.167 -2.169 -2.147 -2.159 -2.177 -2.189 -2.192 -2.079 -2.234 -2.199 -2.144 -2.164 -1.865 -2.102 -2.172 -2.157 -2.144 -2.094 -2.172 -2.204 -1.866 -1.829 -2.157 -2.167 -2.119 -2.184 -2.217 -2.152 -2.132 -2.129 -2.209 -2.189 -2.217 -2.212 -2.182 -2.169 -2.209 -2.099 -2.114 -2.194 -2.187 -2.212 -2.232 -2.167 -2.167 -2.187 -2.192 -2.214 -2.222 -2.189 -2.207 -2.182 -2.189 -2.167 -2.209 -2.172 -2.189 -2.187 -2.187 -2.199 -2.162 -2.182 -2.147 -2.144 -2.154 -2.187 -2.127 -2.202 -2.189 -2.219 -2.172 -2.192 -2.187 -2.139 -2.164 -2.137 -2.267 -2.247 -2.202 -2.139 -2.119 -2.119 -2.132 -2.114 -2.219 -2.229 -2.154 -2.172 -2.247 -2.209 -2.147 -2.212 -2.209 -2.132 -2.149 -2.342 -2.124 -2.169 -2.214 -2.237 -2.189 -2.137 -2.157 -2.064 -2.184 -2.204 -2.162 -2.202 -2.099 -2.149 -2.219 -2.164 -2.229 -2.227 -2.109 -2.124 -2.154 -2.284 -2.257 -2.117 -2.167 -2.162 -2.234 -2.197 -2.149 -2.119 -2.142 -2.172 -2.219 -2.174 -2.204 -2.312 -2.199 -2.097 -2.179 -2.202 -2.192 -2.189 -2.162 -2.234 -2.112 -2.244 -2.219 -2.169 -2.242 -2.204 -2.207 -2.254 -2.262 -2.262 -2.192 -2.197 -2.247 -2.154 -2.164 -2.307 -2.177 -2.102 -2.214 -2.209 -2.212 -2.124 -2.204 -2.222 -2.207 -2.189 -2.179 -2.237 -2.252 -2.274 -2.182 -2.242 -2.199 -2.192 -2.217 -2.279 -2.227 -2.204 -2.214 -2.224 -2.229 -2.172 -2.184 -2.314 -2.264 -2.264 -2.402 -2.182 -9999 -2.207 -2.23 -2.212 -2.254 -2.212 -2.209 -2.277 -2.234 -2.237 -2.109 -2.209 -2.244 -2.239 -2.149 -2.122 -2.289 -2.202 -2.194 -2.247 -2.319 -2.339 -2.339 -2.299 -2.294 -2.214 -2.172 -2.229 -2.194 -2.174 -2.224 -2.259 -2.222 -2.222 -2.232 -2.184 -9999 -9999 -2.227 -2.257 -2.284 -9999 -9999 -9999 -2.179 -2.184 -2.227 -2.222 -2.249 -9999 -9999 -2.04 -2.244 -2.364 -2.312 -2.194 -2.182 -2.172 -2.222 -2.219 -2.169 -2.154 -9999 -9999 -9999 -9999 -9999 -9999 -2.277 -2.254 -2.267 -2.289 -9999 -9999 -9999 -9999 -9999 -9999 -9999 -9999 -2.2 -2.174 -2.174 -2.284 -2.242 -2.219 -2.24 -9999 -9999 -2.187 -2.204 -2.267 -2.08 -2.182 -2.09 -2.279 -2.257 -2.252 -2.257 -9999 -2.182 -2.134 -2.137 -2.179 -2.134 -2.197 -1.98 -1.929 -2.262 -2.192 -2.229 -2.259 -2.267 -1.936 -1.986 -2.292 -2.005 -2.029 -2.254 -2.257 -2.134 -2.147 -2.189 -2.192 -2.199 -1.96 -1.941 -2.049 -2.05 -2.204 -2.254 -1.896 -1.634 -1.413 -1.371 -1.647 -1.905 -2.272 -2.254 -2.189 -2.154 -1.91 -1.695 -1.835 -1.882 -1.959 -1.973 -1.96 -1.953 -1.926 -1.625 -1.468 -1.156 -0.921 -0.848 1.718 -1.277 -1.36 -1.369 -1.292 -1.357 -1.301 -1.128 -1.047 -1.259 -1.46 -1.612 -1.673 -1.651 -1.621 -1.696 -1.723 -1.689 -1.547 -1.275 -1.464 -1.663 -1.643 -1.651 -1.635 -1.834 -1.934 -1.862 -1.917 -1.676 -1.696 -1.67 -1.593 -1.414 -1.399 -1.391 -1.431 -1.39 -1.275 -1.08 -0.822 -0.619 -0.366 -0.147 0.015 0.213 0.373 0.507 0.648 0.618 0.748 0.833 1.025 1.122 1.277 1.567 1.526 1.799 1.906 1.843
1.777 1.652 1.459 1.193 0.706 0.572 0.367 0.229 -0.02 -0.076 -0.206 -0.463 -0.734 -0.82 -1.062 -1.288 -1.526 -1.735 -1.81 -1.677 -1.541 -1.216 -0.853 -0.628 -0.296 0.052 -0.292 -0.65 -0.924 -1.177 -1.544 -1.788 -1.849 -1.789 -1.711 -1.466 -1.234 -0.915 -1.053 -1.22 -1.431 -1.725 -1.878 -1.69 -1.588 -1.485 -1.334 -1.3 -1.462 -1.559 -1.541 -1.684 -1.853 -1.922 -1.812 -2.187 -2.179 -2.137 -2.104 -2.157 -2.247 -2.194 -2.152 -2.184 -2.202 -2.139 -2.124 -2.159 -2.134 -2.134 -2.222 -1.847 -2.139 -2.147 -2.167 -2.142 -2.124 -2.162 -2.134 -2.204 -2.089 -1.866 -1.852 -1.818 -2.184 -2.159 -2.159 -2.134 -2.162 -2.199 -2.187 -2.209 -2.182 -1.875 -1.905 -2.194 -2.072 -2.154 -2.229 -2.174 -2.217 -2.224 -2.124 -2.149 -2.179 -2.147 -2.177 -2.212 -2.217 -2.204 -2.164 -2.184 -2.167 -2.162 -2.247 -2.224 -2.144 -2.199 -2.277 -2.174 -2.164 -2.142 -2.137 -2.139 -2.209 -2.129 -2.189 -2.162 -2.134 -2.189 -2.162 -2.152 -2.114 -2.169 -2.139 -2.207 -2.249 -2.209 -2.194 -2.139 -2.142 -2.167 -2.174 -2.159 -2.244 -2.222 -2.162 -2.232 -2.237 -2.124 -2.229 -2.199 -2.124 -2.259 -2.272 -2.219 -2.314 -2.204 -2.197 -2.149 -2.142 -2.199 -2.179 -2.192 -2.134 -2.157 -2.174 -2.209 -2.172 -2.177 -2.222 -2.149 -2.179 -2.129 -2.109 -2.202 -2.269 -2.157 -2.154 -2.117 -2.229 -2.279 -2.222 -2.162 -2.122 -2.114 -2.119 -2.227 -2.149 -2.109 -2.222 -2.204 -2.104 -2.187 -2.227 -2.182 -2.184 -2.224 -2.269 -2.222 -2.122 -2.182 -2.194 -2.262 -2.224 -2.237 -2.237 -2.224 -2.219 -2.179 -2.224 -2.234 -2.152 -2.209 -2.202 -2.169 -2.154 -2.144 -2.224 -2.207 -2.184 -2.209 -2.229 -2.239 -2.254 -2.229 -2.162 -2.182 -2.234 -2.244 -2.269 -2.209 -2.162 -2.177 -2.247 -2.222 -2.232 -2.204 -2.222 -2.257 -2.232 -2.299 -2.269 -2.244 -2.154 -2.289 -2.172 -2.207 -2.262 -2.244 -2.224 -2.284 -9999 -9999 -9999 -2.217 -2.229 -1.927 -2.174 -2.249 -2.284 -2.147 -2.087 -2.129 -2.177 -2.164 -2.212 -2.309 -2.319 -2.292 -2.234 -2.302 -2.242 -2.154 -9999 -9999 -2.192 -2.212 -2.229 -2.244 -2.254 -2.249 -2.192 -2.199 -2.307 -2.259 -2.274 -2.304 -2.252 -2.267 -2.237 -2.204 -2.207 -2.217 -2.237 -9999 -9999 -9999 -9999 -2.192 -9999 -2.36 -2.279 -2.252 -2.222 -2.189 -2.237 -2.214 -2.172 -2.194 -9999 -9999 -2.217 -9999 -9999 -2.33 -2.329 -2.319 -2.312 -2.287 -9999 -9999 -9999 -9999 -9999 -9999 -9999 -9999 -9999 -1.905 -1.971 -2.242 -9999 -2.152 -2.264 -2.267 -2.239 -2.264 -1.995 -2.252 -2.184 -1.999 -2.259 -2.277 -2.237 -2.277 -9999 -9999 -2.18 -2.177 -2.177 -2.169 -2.187 -1.93 -1.92 -2.277 -2.217 -2.174 -2.199 -2.197 -2.179 -2.214 -2.227 -2.242 -1.995 -2.274 -2.239 -2.209 -2.172 -2.157 -2.157 -2.182 -2.247 -1.972 -2.299 -2.297 -2.302 -2.292 -1.94 -1.663 -1.382 -1.293 -1.588 -1.792 -2.007 -2.284 -2.252 -2.314 -1.954 -1.651 -1.904 -2.167 -2.257 -2.274 -1.981 -1.927 -1.687 -1.467 -1.191 -0.986 -0.814 1.938 1.793 -1.023 -1.139 -1.124 -1.014 -1.099 -1.042 -0.864 -0.924 -1.071 -1.205 -1.309 -1.419 -1.427 -1.665 -1.773 -2.005 -1.87 -1.667 -1.479 -1.605 -1.841 -1.863 -1.914 -1.948 -1.828 -1.651 -1.679 -1.647 -1.879 -1.938 -1.988 -1.822 -1.685 -1.716 -1.71 -1.675 -1.619 -1.481 -1.256 -0.949 -0.695 -0.533 -0.291 -0.014 0.258 0.658 0.789 0.946 0.852 0.985 1.069 1.138 1.324 1.512 1.734 1.745 1.878 2.023 1.911
2.011 1.816 1.76 1.589 1.024 0.799 0.605 0.43 0.265 0.218 -0.012 -0.261 -0.428 -0.66 -0.896 -1.036 -1.326 -1.504 -1.512 -1.453 -1.333 -1.102 -0.822 -0.579 -0.24 0.099 -0.113 -0.482 -0.85 -1.051 -1.281 -1.547 -1.576 -1.587 -1.481 -1.296 -1.042 -0.938 -1.203 -1.439 -1.71 -1.811 -2.164 -1.888 -1.86 -1.693 -1.439 -1.487 -1.518 -1.583 -1.704 -1.81 -2.197 -2.229 -2.184 -1.899 -2.157 -1.841 -2.107 -2.084 -2.257 -2.152 -2.114 -2.189 -2.202 -2.159 -2.082 -1.861 -2.117 -2.152 -2.212 -2.152 -2.127 -2.182 -2.169 -2.209 -2.159 -2.152 -2.157 -2.207 -2.137 -1.856 -1.859 -2.142 -2.152 -2.172 -2.139 -2.124 -2.172 -2.149 -2.192 -2.267 -2.169 -1.827 -2.252 -2.179 -2.102 -2.149 -2.222 -2.147 -2.164 -2.239 -2.174 -2.164 -2.194 -2.182 -2.144 -2.179 -2.222 -2.239 -2.187 -2.232 -2.184 -2.162 -2.254 -2.177 -2.144 -2.207 -2.234 -2.207 -2.187 -2.132 -2.139 -2.202 -2.179 -2.152 -2.204 -2.242 -2.187 -2.159 -2.242 -2.227 -2.107 -2.179 -2.169 -2.192 -2.267 -2.199 -2.164 -2.159 -2.234 -2.147 -2.177 -2.122 -2.212 -2.209 -2.147 -2.257 -2.149 -2.124 -2.249 -2.172 -2.097 -2.199 -2.239 -2.189 -2.204 -2.224 -2.204 -2.162 -2.162 -2.247 -2.204 -2.092 -2.147 -2.147 -2.212 -2.162 -2.179 -2.162 -2.159 -2.192 -2.157 -2.137 -2.107 -2.252 -2.202 -2.182 -2.134 -2.154 -2.219 -2.282 -2.214 -2.169 -2.174 -2.132 -2.117 -2.147 -2.179 -2.054 -2.127 -2.224 -2.162 -2.212 -2.159 -2.152 -2.237 -2.297 -2.217 -2.217 -2.132 -2.247 -2.229 -2.192 -2.209 -2.232 -2.242 -2.299 -2.234 -2.187 -2.184 -2.217 -2.224 -2.202 -2.199 -2.179 -2.147 -2.177 -2.169 -2.222 -2.199 -2.179 -2.219 -2.222 -2.197 -2.254 -2.272 -2.202 -2.242 -2.277 -2.322 -2.252 -2.172 -2.127 -2.204 -2.239 -2.247 -2.249 -2.189 -2.224 -2.224 -2.322 -2.274 -2.162 -2.182 -2.274 -2.204 -2.224 -2.302 -2.334 -2.244 -2.162 -9999 -9999 -9999 -2.212 -2.217 -2.194 -2.169 -2.212 -2.172 -2.124 -2.149 -2.199 -1.934 -2.154 -2.202 -2.267 -2.279 -2.247 -2.207 -2.222 -2.252 -2.232 -9999 -9999 -2.187 -9999 -9999 -2.254 -2.287 -2.269 -2.237 -2.232 -2.247 -2.169 -2.227 -2.314 -2.257 -2.179 -2.167 -2.229 -2.199 -2.209 -2.242 -2.239 -9999 -9999 -9999 -9999 -9999 -2.287 -2.319 -2.302 -2.277 -2.197 -2.187 -2.287 -2.262 -2.227 -2.277 -2.317 -9999 -9999 -2.294 -2.247 -2.317 -2.339 -2.259 -2.179 -2.219 -9999 1.846 -9999 -9999 -9999 -9999 -9999 -9999 -2.217 -2.229 -9999 -9999 -2.142 -2.267 -2.277 -2.234 -2.242 -1.992 -1.993 -1.96 -1.786 -1.934 -2.282 -2.214 -9999 -9999 -2.247 -2.214 -1.984 -2.209 -2.184 -2.217 -1.947 -1.818 -1.97 -1.951 -2.172 -2.204 -2.192 -2.174 -2.199 -2.194 -2.269 -2.058 -1.999 -2.199 -2.207 -2.204 -2.097 -2.197 -2.237 -2.222 -2.274 -2.357 -2.317 -2.008 -2.098 -1.941 -1.604 -1.34 -1.369 -1.608 -1.792 -1.917 -2.177 -2.234 -1.986 -1.842 -1.646 -1.901 -2.187 -2.227 -2.249 -2.284 -1.999 -1.931 -1.639 -1.422 -1.282 -1.138 -1.016 -0.826 -0.717 -0.829 -0.862 -0.77 -0.807 -0.787 -0.668 -0.83 -1.04 -1.207 -1.395 -1.626 -1.735 -1.699 -1.908 -2.294 -1.903 -1.83 -1.663 -1.727 -1.928 -2.094 -2.204 -2.249 -1.85 -1.631 -1.382 -1.761 -2.001 -2.229 -2.274 -1.949 -1.945 -1.958 -1.944 -1.923 -1.784 -1.633 -1.416 -1.109 -0.789 -0.571 -0.307 -0.049 0.28 0.581 0.802 1.03 1.023 1.167 1.27 1.384 1.555 1.737 1.993 1.963 1.826 1.866 1.818
2.295 2.048 1.93 1.569 1.226 1.009 0.901 0.694 0.521 0.452 0.211 0.036 -0.227 -0.465 -0.667 -0.886 -1.048 -1.221 -1.282 -1.251 -1.087 -0.831 -0.629 -0.422 -0.025 0.127 -0.057 -0.387 -0.605 -0.869 -1.055 -1.244 -1.227 -1.202 -1.244 -1.087 -0.876 -0.919 -1.28 -1.536 -1.841 -2.142 -2.119 -2.149 -2.164 -1.844 -1.514 -1.659 -1.827 -1.858 -1.886 -2.132 -2.157 -2.162 -2.227 -2.199 -1.834 -1.859 -2.147 -2.207 -2.249 -2.169 -2.094 -2.154 -2.194 -2.177 -2.102 -2.149 -2.122 -2.057 -2.199 -2.187 -2.092 -2.229 -2.192 -2.219 -2.219 -2.102 -1.844 -2.202 -2.169 -1.824 -2.192 -2.167 -2.189 -2.204 -2.154 -2.119 -2.134 -2.164 -2.184 -2.214 -1.855 -1.815 -2.194 -2.202 -2.142 -2.157 -2.184 -2.222 -2.217 -2.207 -2.177 -2.109 -2.232 -2.164 -2.184 -2.142 -2.197 -2.204 -2.262 -2.189 -2.172 -2.144 -2.199 -2.157 -2.147 -2.192 -2.199 -2.239 -2.197 -2.157 -2.167 -2.192 -2.214 -2.149 -2.169 -2.209 -2.139 -2.144 -2.199 -2.114 -2.089 -2.189 -2.134 -2.122 -2.227 -2.204 -2.159 -2.154 -2.182 -2.114 -2.194 -2.137 -2.244 -2.147 -2.187 -2.222 -2.137 -2.154 -2.199 -2.192 -2.159 -2.237 -2.207 -2.239 -2.202 -2.124 -2.209 -2.167 -2.177 -2.214 -2.194 -2.177 -2.174 -2.179 -2.162 -2.169 -2.189 -2.159 -2.212 -2.269 -2.207 -2.147 -2.057 -2.217 -2.184 -2.149 -2.184 -2.249 -2.217 -2.177 -2.209 -2.149 -2.194 -2.132 -2.154 -2.174 -2.107 -2.147 -2.097 -2.214 -2.219 -2.167 -2.214 -2.207 -2.184 -2.252 -2.244 -2.217 -2.107 -2.132 -2.204 -2.217 -2.179 -2.197 -2.197 -2.292 -2.259 -2.202 -2.217 -2.197 -2.229 -2.199 -2.202 -2.202 -2.219 -2.224 -2.194 -2.297 -2.179 -2.179 -2.189 -2.214 -2.219 -2.274 -2.309 -2.197 -2.132 -2.207 -2.274 -2.239 -2.244 -2.167 -2.227 -2.224 -2.239 -2.252 -2.227 -2.244 -2.264 -2.297 -2.227 -2.139 -2.107 -2.197 -2.234 -2.159 -9999 -9999 -2.222 -2.162 -9999 -9999 -9999 -2.297 -2.257 -2.174 -2.212 -2.259 -2.269 -1.964 -1.992 -2.192 -2.222 -1.91 -2.287 -2.289 -2.262 -2.174 -2.169 -2.124 -2.187 -2.212 -9999 -2.177 -2.21 -9999 -9999 -9999 -2.312 -2.239 -2.204 -9999 -2.19 -2.137 -2.222 -9999 -2.257 -2.134 -2.149 -2.227 -9999 -9999 -9999 -2.24 -2.112 -9999 -2.262 -2.19 -2.17 -2.317 -2.259 -2.279 -2.314 -2.294 -2.162 -2.292 -2.297 -2.277 -2.304 -2.304 -9999 -9999 -9999 -9999 -2.19 -2.352 -9999 -9999 -2.264 -9999 1.876 -9999 -9999 -9999 -9999 -2.334 -2.32 -1.959 -2.214 -9999 -9999 -2.057 -2.209 -2.352 -2.252 -2.224 -2.234 -2.222 -1.905 -1.897 -1.887 -1.954 -9999 -9999 -9999 -2.247 -2.192 -2.277 -1.967 -2.239 -1.971 -1.827 -1.676 -1.77 2.013 -9999 -2.107 -2.167 -2.152 -2.172 -2.214 -2.224 -2.004 -1.999 -1.943 -2.257 -9999 1.823 -2.152 -2.189 -2.217 -2.297 -2.412 -2.304 -2.003 -1.749 -1.683 -1.5 -1.438 -1.458 -1.712 -1.976 -2.229 -2.244 -2.252 -1.926 -1.657 -1.647 -1.906 -2.242 -2.264 -2.267 -2.232 -2.214 -1.978 -1.81 -1.541 -1.385 -1.365 -1.232 -1.051 -0.832 -0.588 -0.556 -0.549 -0.508 -0.466 -0.732 -0.989 -1.254 -1.502 -1.574 -1.824 -1.968 -1.978 -1.923 -2.249 -2.254 -1.978 -1.697 -1.736 -1.963 -2.227 -2.234 -2.202 -1.918 -1.692 -1.476 -1.694 -1.879 -1.989 -1.943 -1.937 -2.234 -2.189 -2.167 -2.239 -2.002 -1.733 -1.443 -1.123 -0.814 -0.569 -0.282 -0.056 0.251 0.464 0.696 0.96 1.191 1.478 1.586 1.646 1.846 1.846 1.901 1.943 1.831 1.826 1.878
2.601 2.185 1.943 1.874 1.432 1.163 1.161 1.186 0.996 0.651 0.667 0.284 -0.014 -0.253 -0.486 -0.669 -0.831 -0.948 -0.988 -0.948 -0.821 -0.557 -0.368 -0.239 -0.241 -0.335 -0.303 -0.142 -0.336 -0.666 -0.843 -0.89 -0.918 -0.868 -0.93 -0.804 -0.635 -0.945 -1.289 -1.621 -1.844 -2.092 -2.162 -2.174 -2.199 -1.795 -1.434 -1.838 -2.144 -2.169 -1.857 -2.144 -2.189 -2.217 -2.202 -2.184 -1.916 -1.826 -1.821 -2.189 -2.217 -2.162 -2.127 -2.177 -2.259 -2.202 -2.199 -2.182 -2.142 -2.094 -1.886 -1.874 -2.104 -2.177 -2.164 -2.152 -2.199 -2.082 -1.842 -1.882 -1.883 -1.798 -2.114 -2.159 -2.254 -2.192 -2.137 -2.129 -2.127 -2.147 -2.149 -1.803 -1.879 -2.192 -2.199 -2.162 -2.257 -2.192 -2.209 -2.147 -1.859 -2.207 -2.177 -2.144 -2.177 -2.179 -2.192 -2.147 -2.189 -2.204 -2.212 -2.179 -2.132 -2.207 -2.189 -2.167 -2.134 -2.179 -2.224 -2.244 -2.227 -2.177 -2.144 -2.194 -2.232 -2.187 -2.194 -2.242 -2.202 -2.154 -2.167 -2.159 -2.119 -2.187 -2.159 -2.177 -2.229 -2.219 -2.182 -2.174 -2.177 -2.109 -2.142 -2.157 -2.234 -2.184 -2.187 -2.232 -2.152 -2.184 -2.097 -2.237 -2.107 -2.134 -2.219 -2.242 -2.164 -2.097 -2.197 -2.199 -2.207 -2.187 -2.217 -2.192 -2.182 -2.227 -2.202 -2.134 -2.199 -2.137 -2.114 -2.204 -2.194 -2.084 -2.102 -2.224 -2.207 -2.182 -2.132 -2.242 -2.189 -2.174 -2.154 -2.159 -2.214 -2.232 -2.199 -2.189 -2.144 -2.219 -2.122 -2.204 -2.259 -2.227 -2.152 -2.257 -2.234 -2.224 -2.224 -2.264 -2.149 -2.122 -2.192 -2.259 -2.212 -2.142 -2.199 -2.287 -2.219 -2.159 -2.232 -2.252 -2.179 -2.162 -2.189 -2.242 -2.247 -2.284 -2.132 -2.237 -2.219 -2.177 -2.189 -2.177 -2.172 -2.219 -2.227 -2.114 -2.132 -2.202 -2.264 -2.274 -2.242 -2.157 -2.159 -2.172 -2.177 -2.189 -2.249 -2.224 -2.237 -2.257 -2.299 -2.227 -2.184 -2.192 -2.219 -2.197 -9999 -9999 -9999 -2.222 -2.187 -9999 -9999 -2.277 -2.252 -2.254 -2.217 -2.199 -2.222 -2.234 -2.187 -2.277 -2.217 -2.217 -2.262 -9999 -9999 -9999 -2.167 -2.122 -2.209 -2.262 -2.242 -2.207 -2.209 -9999 -9999 -9999 -2.327 -2.229 -9999 -9999 -9999 -2.197 -9999 -9999 -9999 -2.112 -9999 -2.11 -2.174 -9999 -9999 -2.282 -2.217 -2.249 -2.219 -2.164 -2.202 -9999 -2.267 -2.252 -9999 -9999 -9999 -2.29 -2.222 -2.292 -2.284 -9999 -9999 -9999 -9999 -2.207 -2.192 -9999 -9999 -9999 -2.267 -9999 1.873 -2.001 -9999 -9999 -9999 -2.3 -2.307 -2.209 -2.214 -9999 -2.257 -2.149 -2.282 -2.312 -2.157 -2.122 -2.222 -2.239 -2.149 -2.179 -2.199 -1.933 -1.985 1.953 -9999 -2.232 -2.189 -2.192 -1.965 -1.965 -1.952 -1.79 -1.565 -1.678 1.921 -1.877 -2.119 -2.207 -2.159 -2.207 -2.244 -1.877 -2.182 -2.202 -2.042 -2.001 1.963 -9999 -2.13 -2.202 -2.212 -2.232 -2.192 -2.257 -1.972 -1.748 -1.667 -1.601 -1.62 -1.638 -1.697 -2.003 -2.254 -2.267 -2.247 -1.887 -1.604 -1.538 -1.8 -1.9 -1.942 -2.237 -2.274 -2.219 -2.189 -1.878 -1.62 -1.659 -1.596 -1.449 -1.249 -1.023 -0.742 -0.462 -0.379 -0.303 -0.531 -0.846 -1.079 -1.289 -1.647 -1.861 -1.903 -2.214 -2.244 -1.876 -2.199 -1.991 -1.909 -1.622 -1.68 -1.88 -1.984 -2.222 -1.886 -1.801 -1.63 -1.394 -1.461 -1.637 -1.68 -1.7 -1.998 -2.247 -2.179 -2.277 -1.933 -1.963 -1.656 -1.395 -1.09 -0.768 -0.522 -0.26 -0.026 0.257 0.451 0.661 1.005 1.251 1.556 1.935 2.021 1.921 1.788 1.808 1.976 1.823 1.806 1.913
2.419 2.155 1.797 1.643 1.223 0.934 0.855 0.787 0.583 0.395 0.367 0.258 0.198 -0.052 -0.277 -0.459 -0.597 -0.621 -0.647 -0.56 -0.507 -0.309 -0.244 -0.538 -0.62 -0.665 -0.616 -0.396 -0.319 -0.372 -0.483 -0.528 -0.599 -0.601 -0.554 -0.513 -0.644 -0.961 -1.258 -1.601 -1.805 -2.132 -2.162 -2.142 -2.177 -1.903 -1.539 -1.728 -1.856 -2.199 -1.865 -2.134 -2.147 -2.219 -2.177 -2.182 -1.913 -2.127 -2.117 -2.124 -2.167 -2.152 -2.197 -2.187 -2.224 -2.182 -1.827 -1.875 -2.159 -2.129 -1.839 -1.73 -1.846 -2.154 -1.901 -1.859 -2.219 -1.811 -1.634 -1.721 -1.911 -2.099 -2.122 -2.134 -2.227 -2.127 -2.087 -2.137 -2.137 -2.172 -2.124 -2.127 -1.881 -2.164 -2.184 -2.144 -2.239 -2.192 -2.152 -2.132 -1.877 -2.214 -2.169 -2.134 -2.192 -2.262 -2.257 -2.247 -2.187 -2.222 -2.239 -2.167 -2.122 -2.197 -2.162 -2.147 -2.159 -2.197 -2.192 -2.237 -2.209 -2.207 -2.149 -2.209 -2.139 -2.197 -2.249 -2.224 -2.167 -2.179 -2.169 -2.257 -2.169 -2.159 -2.157 -2.192 -2.187 -2.189 -2.199 -2.144 -2.202 -2.114 -2.157 -2.162 -2.162 -2.152 -2.164 -2.154 -2.169 -2.169 -2.109 -2.154 -2.117 -2.119 -2.197 -2.199 -2.174 -2.172 -2.237 -2.184 -2.204 -2.202 -2.164 -2.194 -2.162 -2.207 -2.214 -2.149 -2.194 -2.174 -2.184 -2.277 -2.229 -2.087 -2.059 -2.159 -2.207 -2.189 -2.187 -2.237 -2.197 -2.164 -2.119 -2.174 -2.217 -2.247 -2.174 -2.182 -2.154 -2.167 -2.179 -2.134 -2.219 -2.177 -2.177 -2.259 -2.219 -2.232 -2.184 -2.212 -2.232 -2.199 -2.194 -2.249 -2.222 -2.182 -2.209 -2.182 -2.194 -2.189 -2.194 -2.217 -2.217 -2.154 -2.229 -2.234 -2.252 -2.242 -2.207 -2.197 -2.264 -2.217 -2.222 -2.202 -2.182 -2.197 -2.172 -2.162 -2.177 -2.252 -2.249 -2.267 -2.222 -2.167 -2.192 -2.177 -2.224 -2.179 -2.197 -2.179 -2.149 -2.159 -2.162 -2.149 -2.239 -2.204 -2.257 -2.247 -9999 -9999 -9999 -2.277 -2.234 -2.214 -2.217 -2.249 -2.247 -2.239 -2.217 -2.197 -2.229 -2.182 -1.913 -2.262 -2.247 -9999 -9999 -9999 -9999 -9999 -2.209 -9999 -2.314 -2.349 -2.314 -2.249 -2.237 -2.224 -9999 -9999 -9999 -2.197 -9999 -9999 -9999 -2.26 -2.192 -9999 -9999 -2.169 -9999 -9999 -9999 -9999 -2.227 -9999 -9999 -2.23 -2.224 -2.207 -9999 -9999 -2.267 -2.274 -9999 -9999 -9999 -9999 -2.179 -2.204 -2.192 -9999 -9999 -9999 -2.207 -2.199 -2.202 -9999 -9999 -9999 -2.247 -9999 -9999 2.028 -9999 -9999 -9999 -9999 -2.287 -2.234 -2.169 -2.172 -2.284 -2.234 -2.227 -2.262 -2.114 -2.114 -2.257 -2.222 -1.895 -2.247 -2.237 -2.184 -1.949 -1.971 -2.187 -2.174 -2.127 -2.109 -1.894 -1.946 -2.227 -1.953 -1.653 1.933 -1.994 -2.169 -2.184 -2.184 -2.192 -2.232 -2.219 -1.89 -2.194 -2.244 -2.048 -2.056 -2.304 -9999 -2.242 -2.142 -2.132 -2.194 -2.184 -2.247 -1.974 -1.956 -2.018 -1.916 -1.855 -1.843 -1.649 -1.852 -1.928 -1.969 -1.934 -1.743 -1.547 -1.37 -1.606 -1.905 -2.197 -2.209 -2.219 -2.197 -1.934 -1.897 -1.892 -1.95 -1.814 -1.63 -1.399 -1.155 -0.83 -0.577 -0.39 -0.4 -0.595 -0.849 -1.112 -1.334 -1.652 -1.993 -2.267 -2.237 -2.164 -2.174 -1.925 -1.974 -1.938 -1.674 -1.546 -1.688 -1.815 -1.97 -1.802 -1.558 -1.457 -1.257 -1.249 -1.384 -1.386 -1.675 -1.98 -2.244 -2.202 -2.124 -1.934 -1.759 -1.471 -1.233 -1.021 -0.71 -0.444 -0.183 0.018 0.279 0.504 0.771 1.129 1.305 1.611 1.918 2.073 1.936 1.813 1.838 1.981 1.813 1.776 1.946
2.28 2.139 1.828 1.302 1.144 0.926 0.766 0.436 0.31 0.098 0.059 0.002 -0.057 -0.08 -0.104 -0.219 -0.304 -0.337 -0.306 -0.257 -0.207 -0.397 -0.634 -0.798 -0.911 -0.942 -0.931 -0.74 -0.575 -0.388 -0.242 -0.3 -0.324 -0.343 -0.275 -0.475 -0.77 -1.072 -1.324 -1.548 -1.715 -1.767 -1.833 -2.144 -1.862 -1.755 -1.513 -1.446 -1.69 -1.869 -1.776 -1.832 -2.152 -2.187 -2.132 -2.199 -1.896 -2.117 -2.164 -2.159 -2.152 -2.144 -2.204 -2.192 -2.212 -2.157 -2.174 -2.169 -1.857 -1.863 -1.866 -1.891 -1.89 -1.848 -1.734 -1.749 -1.852 -1.699 -1.521 -1.846 -2.222 -2.142 -2.107 -2.162 -2.244 -1.871 -2.147 -2.139 -2.167 -2.169 -2.159 -2.134 -2.164 -2.189 -2.194 -2.167 -2.224 -1.856 -2.179 -1.885 -1.895 -2.127 -2.202 -2.169 -2.129 -2.199 -2.209 -2.142 -2.197 -2.217 -2.207 -2.187 -2.169 -2.139 -2.154 -2.207 -2.137 -2.212 -2.149 -2.164 -2.179 -2.152 -2.192 -2.187 -2.194 -2.174 -2.214 -2.177 -2.187 -2.192 -2.187 -2.209 -2.214 -2.157 -2.152 -2.167 -2.114 -2.247 -2.192 -2.122 -2.119 -2.164 -2.184 -2.179 -2.144 -2.149 -2.172 -2.154 -2.199 -2.159 -2.122 -2.152 -2.089 -2.139 -2.247 -2.159 -2.149 -2.197 -2.252 -2.184 -2.167 -2.207 -2.177 -2.219 -2.229 -2.219 -2.167 -2.142 -2.179 -2.154 -2.174 -2.207 -2.184 -2.137 -2.102 -2.127 -2.204 -2.192 -2.179 -2.169 -2.167 -2.182 -2.162 -2.192 -2.259 -2.262 -2.154 -2.092 -2.149 -2.164 -2.189 -2.204 -2.269 -2.202 -2.164 -2.207 -2.192 -2.197 -2.147 -2.194 -2.204 -2.184 -2.129 -2.237 -2.259 -2.202 -2.162 -2.204 -2.144 -2.182 -2.217 -2.257 -2.237 -2.197 -2.197 -2.272 -2.214 -2.214 -2.219 -2.184 -2.227 -2.224 -2.247 -2.182 -2.159 -2.224 -2.244 -2.172 -2.242 -2.247 -2.189 -2.169 -2.222 -2.232 -2.224 -2.252 -2.194 -2.219 -2.189 -2.164 -2.154 -2.149 -2.167 -2.199 -2.204 -2.267 -2.254 -2.259 -2.147 -9999 -2.237 -2.284 -2.184 -2.149 -2.164 -2.214 -2.199 -2.207 -2.247 -2.167 -2.179 -2.204 -1.918 -2.003 -2.007 -9999 -9999 -9999 -9999 -2.227 -9999 -9999 -2.287 -2.202 -2.242 -2.277 -2.182 -2.222 -2.13 -9999 -2.247 -2.192 -2.207 -9999 -2.297 -2.299 -2.224 -2.239 -2.259 -2.202 -9999 -9999 -9999 -2.232 -2.222 -9999 -9999 -9999 -9999 -2.259 -2.252 -2.264 -2.264 -2.279 -2.287 -9999 -9999 -2.217 -2.247 -2.142 -9999 -9999 -9999 -9999 -9999 -9999 -9999 -9999 -9999 -9999 -9999 -9999 -9999 -2.252 -2.262 -9999 -2.282 -2.299 -2.257 -2.179 -2.172 -9999 -9999 -9999 -9999 -2.247 -2.232 -2.144 -2.249 -2.144 -2.179 -2.314 -2.023 -1.928 -1.794 -1.965 -2.292 -2.309 -2.289 -1.924 -2.039 -2.219 -2.189 -1.937 1.936 2.038 -2.237 -2.194 -2.257 -2.254 -2.237 -2.197 -1.91 -1.793 -1.908 -1.932 -1.84 -1.963 -2.239 -2.327 -2.187 -2.142 -9999 -2.257 -2.207 -1.937 -2.227 -2.262 -2.329 -2.217 -9999 2.008 1.903 -2.018 -1.788 -1.684 -1.692 -1.585 -1.392 -1.379 -1.623 -1.915 -2.157 -2.179 -2.187 -1.935 -1.95 -2.199 -2.244 -2.224 -1.955 -1.614 -1.301 -1.209 -0.982 -0.645 -0.418 -0.51 -0.724 -0.962 -1.234 -1.418 -1.714 -1.986 -2.264 -2.222 -2.239 -1.97 -1.916 -2.202 -2.107 -1.913 -1.66 -1.854 -1.931 -1.84 -1.692 -1.492 -1.325 -1.091 -0.975 -1.048 -1.379 -1.6 -1.835 -1.932 -1.935 -1.891 -1.836 -1.609 -1.382 -1.02 -0.852 -0.681 -0.452 -0.119 0.094 0.397 0.585 0.898 1.192 1.376 1.673 1.881 2.136 1.871 1.821 1.836 1.868 1.836 1.851 1.828
1.978 1.762 1.593 1.146 0.82 0.694 0.488 0.178 0.014 -0.205 -0.317 -0.291 -0.385 -0.352 -0.364 -0.325 -0.182 -0.051 0.006 -0.252 -0.442 -0.654 -0.853 -1.038 -1.202 -1.259 -1.166 -1.023 -0.858 -0.597 -0.444 -0.21 -0.058 -0.073 -0.291 -0.615 -0.885 -1.144 -1.461 -1.769 -1.892 -1.865 -1.829 -1.846 -1.691 -1.469 -1.312 -1.293 -1.43 -1.518 -1.734 -1.872 -1.836 -2.182 -2.192 -2.199 -1.91 -2.074 -2.127 -2.169 -2.177 -2.157 -2.207 -2.137 -2.149 -2.147 -2.227 -2.249 -1.867 -1.84 -2.114 -2.264 -2.227 -1.794 -1.852 -1.731 -1.695 -1.86 -1.901 -1.811 -2.254 -2.207 -2.134 -2.157 -1.869 -1.754 -1.822 -2.172 -2.207 -2.209 -2.207 -2.157 -2.187 -2.237 -2.197 -2.137 -1.88 -1.847 -2.174 -2.162 -2.232 -2.202 -2.184 -2.209 -2.142 -2.197 -2.242 -2.107 -2.159 -2.172 -2.164 -2.107 -2.167 -2.192 -2.134 -2.122 -2.139 -2.224 -2.134 -2.137 -2.199 -2.197 -2.137 -2.144 -2.144 -2.234 -2.242 -2.187 -2.209 -2.197 -2.204 -2.189 -2.192 -2.164 -2.194 -2.184 -2.139 -2.137 -2.244 -2.142 -2.114 -2.214 -2.162 -2.189 -2.184 -2.187 -2.202 -2.177 -2.222 -2.172 -2.192 -2.169 -2.109 -2.197 -2.232 -2.152 -2.184 -2.207 -2.179 -2.154 -2.194 -2.224 -2.249 -2.187 -2.149 -2.152 -2.202 -2.259 -2.187 -2.189 -2.187 -2.192 -2.214 -2.202 -2.152 -2.117 -2.209 -2.142 -2.137 -2.139 -2.124 -2.174 -2.272 -2.149 -2.267 -2.232 -2.164 -2.142 -2.142 -2.187 -2.202 -2.177 -2.177 -2.232 -2.219 -2.164 -2.142 -2.129 -2.132 -2.219 -2.182 -2.199 -2.157 -2.179 -2.222 -2.217 -2.174 -2.192 -2.137 -2.167 -2.209 -2.177 -2.199 -2.202 -2.177 -2.199 -2.239 -2.259 -2.179 -2.177 -2.164 -2.197 -2.239 -2.164 -2.182 -2.204 -2.219 -2.199 -2.227 -2.204 -2.219 -2.232 -2.254 -2.199 -2.167 -2.164 -2.167 -2.247 -2.254 -2.204 -2.157 -2.169 -9999 -9999 -2.297 -2.264 -2.237 -2.242 -2.122 -2.242 -2.197 -2.259 -2.162 -2.152 -2.127 -2.169 -2.212 -2.209 -2.174 -2.152 -2.099 -2.137 -2.187 -2.244 -2.242 -2.142 -9999 -9999 -2.237 -2.257 -2.202 -2.227 -2.294 -2.237 -2.234 -2.287 -2.259 -2.197 -2.222 -2.229 -2.294 -2.214 -2.222 -2.197 -2.242 -2.254 -2.214 -2.214 -2.204 -2.229 -2.237 -9999 -9999 -9999 -2.262 -2.282 -9999 -9999 -9999 -9999 -9999 -2.27 -2.287 -2.279 -2.279 -2.252 -2.307 -2.267 -2.284 -2.094 -9999 -9999 -9999 -9999 -9999 -9999 -9999 -9999 -9999 -9999 -2.237 -2.257 -2.209 -2.267 -2.302 -2.274 -9999 -2.267 -2.217 -2.197 -9999 -9999 -9999 -9999 -9999 -2.222 -2.239 -2.212 -2.199 2.063 2.041 -2.242 -2.282 -1.921 -1.733 -1.885 -2.239 -2.297 -2.312 -9999 -9999 -2.204 -2.154 -2.179 1.928 2.001 -2.257 -2.214 -2.264 -1.938 1.988 -9999 -9999 -1.895 -1.933 -2.229 -1.933 -1.944 -2.264 -2.352 -2.264 -9999 -9999 1.913 -1.893 -1.938 -2.249 -2.249 -2.267 -2.297 -9999 -9999 1.9 -2.252 -1.94 -1.838 -1.62 -1.364 -1.353 -1.413 -1.72 -1.953 -2.204 -2.204 -2.237 -1.937 -1.846 -1.972 -2.287 -1.947 -1.829 -1.588 -1.325 -1.136 -0.911 -0.623 -0.336 -0.561 -0.801 -1.091 -1.423 -1.616 -1.836 -2 -1.954 -2.217 -1.991 -1.795 -1.796 -1.853 -2.229 -1.947 -1.675 -1.968 -2.197 -1.996 -1.896 -1.682 -1.342 -1.05 -0.851 -1.034 -1.305 -1.453 -1.603 -1.685 -1.658 -1.657 -1.589 -1.492 -1.294 -0.931 -0.769 -0.593 -0.274 -0.063 0.234 0.516 0.755 0.996 1.343 1.479 1.782 1.883 2.011 1.788 1.768 1.768 1.833 1.941 1.903 1.736
1.942 1.531 1.25 0.923 0.866 0.54 0.216 -0.094 -0.269 -0.402 -0.579 -0.651 -0.66 -0.656 -0.61 -0.593 -0.352 -0.236 -0.19 -0.486 -0.725 -0.862 -1.041 -1.3 -1.534 -1.589 -1.445 -1.29 -1.052 -0.795 -0.603 -0.375 -0.128 -0.111 -0.323 -0.627 -0.97 -1.199 -1.55 -1.879 -2.207 -2.187 -2.154 -1.874 -1.586 -1.344 -1.241 -1.164 -1.414 -1.679 -1.846 -2.134 -1.879 -2.209 -1.852 -1.868 -1.888 -2.152 -2.099 -2.167 -2.132 -2.112 -2.204 -2.222 -2.147 -2.149 -2.197 -1.91 -2.159 -2.132 -2.129 -2.179 -2.179 -2.159 -2.149 -1.912 -1.781 -2.154 -2.159 -2.132 -1.873 -2.197 -2.112 -2.122 -2.207 -1.95 -1.655 -1.891 -2.257 -2.189 -2.192 -2.102 -2.187 -2.159 -2.144 -2.184 -2.174 -1.851 -2.199 -2.162 -2.184 -2.209 -2.234 -2.224 -2.174 -2.167 -2.239 -2.164 -2.139 -2.262 -2.184 -2.142 -2.187 -2.257 -2.182 -2.172 -2.147 -2.237 -2.132 -2.104 -2.264 -2.259 -2.132 -2.159 -2.149 -2.189 -2.277 -2.267 -2.269 -2.184 -2.147 -2.162 -2.197 -2.177 -2.169 -2.187 -2.207 -2.154 -2.194 -2.194 -2.134 -2.202 -2.169 -2.122 -2.144 -2.144 -2.227 -2.207 -2.169 -2.189 -2.284 -2.154 -2.084 -2.197 -2.177 -2.137 -2.147 -2.177 -2.132 -2.169 -2.182 -2.209 -2.189 -2.164 -2.147 -2.172 -2.247 -2.212 -2.159 -2.174 -2.144 -2.177 -2.217 -2.259 -2.179 -2.134 -2.177 -2.144 -2.142 -2.152 -2.169 -2.192 -2.287 -2.122 -2.209 -2.194 -2.177 -2.124 -2.109 -2.097 -2.142 -2.159 -2.194 -2.154 -2.199 -2.217 -2.172 -2.174 -2.139 -2.167 -2.197 -2.174 -2.154 -2.139 -2.177 -2.219 -2.214 -2.194 -2.217 -2.194 -2.222 -2.222 -2.162 -2.104 -2.152 -2.167 -2.244 -2.199 -2.174 -2.174 -2.184 -2.224 -2.227 -2.177 -2.207 -2.209 -2.232 -2.174 -2.224 -2.194 -2.192 -2.262 -2.264 -2.192 -2.219 -2.349 -2.192 -2.182 -2.202 -2.199 -2.197 -2.222 -2.262 -2.177 -2.202 -2.252 -2.164 -2.204 -2.194 -2.279 -2.224 -2.252 -2.187 -2.194 -2.159 -2.189 -2.222 -2.164 -2.202 -2.184 -2.197 -2.169 -2.182 -2.139 -2.174 -2.154 -9999 -9999 -9999 -2.227 -2.227 -2.252 -2.289 -2.264 -2.252 -9999 -9999 -2.234 -2.209 -2.212 -2.322 -2.264 -2.169 -2.154 -2.207 -2.169 -2.172 -2.169 -2.132 -2.207 -9999 -2.297 -9999 -9999 -9999 -9999 -9999 -9999 -9999 -9999 -9999 -9999 -2.267 -9999 -9999 -9999 -2.249 -2.257 -2.214 -2.157 -2.177 -9999 -2.267 -2.262 -9999 -9999 -9999 -2.192 -2.184 -2.237 -1.989 -1.969 -1.938 -2.284 -2.287 -9999 -9999 -2.247 -2.202 -9999 2.063 1.99 -9999 -2.292 -2.247 -2.222 -2.224 -2.212 -1.899 2.016 -9999 -2.162 -2.199 -2.219 -1.984 -1.883 -1.944 -2.249 1.878 1.93 -9999 -2.217 -2.167 -2.187 -2.274 -2.028 -2.232 -2.217 -9999 -1.955 1.888 -9999 -9999 -2.177 -2.244 -2.299 -2.274 -2.302 -2.292 -2.324 -2.219 1.933 1.793 1.838 -1.562 -1.853 -2.227 -2.187 -2.189 -2.224 -9999 -9999 -2.267 -2.209 -2.219 -1.998 -1.73 -1.483 -1.583 -1.666 -1.683 -1.836 -1.966 -1.964 -1.974 -1.865 -1.67 -1.88 -1.964 -1.845 -1.553 -1.399 -1.245 -1.017 -0.778 -0.621 -0.599 -0.577 -0.856 -1.159 -1.441 -1.671 -1.94 -2.282 -1.996 -1.886 -1.841 -1.606 -1.564 -1.782 -1.938 -1.852 -1.666 -1.9 -1.969 -2.237 -2.05 -1.706 -1.427 -1.143 -0.924 -0.901 -1.116 -1.267 -1.325 -1.342 -1.452 -1.418 -1.345 -1.221 -1.057 -0.828 -0.663 -0.486 -0.167 0.09 0.34 0.631 0.879 1.086 1.411 1.563 1.799 1.926 1.846 1.803 1.853 1.828 1.993 1.948 1.901 1.756
1.651 1.431 1.075 0.763 0.495 0.269 0.037 -0.28 -0.468 -0.599 -0.817 -0.92 -0.986 -0.979 -0.898 -0.873 -0.717 -0.477 -0.288 -0.525 -0.829 -1.026 -1.258 -1.444 -1.772 -1.875 -1.69 -1.503 -1.313 -1.033 -0.767 -0.529 -0.172 -0.004 -0.351 -0.672 -0.913 -1.237 -1.519 -1.902 -2.239 -2.132 -1.847 -1.641 -1.581 -1.555 -1.533 -1.241 -1.465 -1.811 -2.102 -2.089 -2.087 -2.197 -2.174 -2.164 -2.179 -2.164 -2.124 -2.142 -2.154 -2.084 -2.204 -2.224 -2.197 -2.172 -1.963 -2.192 -2.152 -2.177 -2.144 -2.162 -2.197 -2.144 -2.157 -2.197 -2.152 -2.149 -2.164 -2.124 -2.174 -2.209 -2.132 -2.142 -2.252 -2.242 -1.788 -2.184 -2.197 -2.159 -2.192 -2.157 -2.232 -2.134 -2.154 -2.237 -2.204 -2.122 -2.147 -2.142 -2.157 -2.192 -2.197 -2.209 -2.164 -2.137 -2.207 -2.232 -2.162 -2.229 -2.184 -2.187 -2.129 -2.184 -2.207 -2.127 -2.139 -2.192 -2.187 -2.144 -2.229 -2.222 -2.172 -2.214 -2.129 -2.124 -2.234 -2.247 -2.197 -2.189 -2.189 -2.112 -2.157 -2.204 -2.112 -2.209 -2.209 -2.149 -2.189 -2.204 -2.184 -2.129 -2.184 -2.187 -2.134 -2.149 -2.292 -2.254 -2.147 -2.192 -2.242 -2.167 -2.099 -2.164 -2.139 -2.157 -2.167 -2.227 -2.139 -2.152 -2.139 -2.182 -2.209 -2.179 -2.074 -2.179 -2.227 -2.174 -2.184 -2.189 -2.204 -2.224 -2.204 -2.162 -2.182 -2.172 -2.159 -2.187 -2.204 -2.209 -2.109 -2.044 -2.234 -2.147 -2.204 -2.144 -2.169 -2.174 -2.077 -2.222 -2.172 -2.062 -2.164 -2.084 -2.199 -2.222 -2.142 -2.187 -2.199 -2.212 -2.214 -2.162 -2.134 -2.137 -2.174 -2.217 -2.297 -2.174 -2.177 -2.112 -2.107 -2.202 -2.154 -2.199 -2.232 -2.182 -2.152 -2.242 -2.244 -2.149 -2.187 -2.267 -2.217 -2.219 -2.174 -2.227 -2.129 -2.259 -2.224 -2.232 -2.189 -2.232 -2.219 -2.234 -2.204 -2.144 -2.237 -2.152 -2.134 -2.162 -2.249 -2.247 -2.274 -2.197 -2.122 -2.279 -2.189 -2.187 -2.247 -2.262 -2.217 -2.259 -2.237 -2.229 -2.177 -2.194 -2.182 -2.192 -2.179 -2.142 -2.179 -2.249 -2.197 -2.212 -2.227 -2.202 -9999 -2.137 -2.192 -2.189 -2.167 -2.212 -2.244 -2.309 -2.249 -9999 -9999 -1.955 -2.174 -2.184 -2.252 -2.262 -2.162 -2.197 -2.204 -2.202 -2.187 -2.189 -2.184 -2.239 -9999 -9999 -2.277 -2.17 -2.147 -9999 -9999 -9999 -9999 -9999 -9999 -2.297 -2.309 -2.227 -9999 -9999 -2.214 -2.224 -2.222 -2.232 -2.184 -2.234 -2.219 -2.202 -2.24 -9999 -9999 -2.182 -2.172 -2.244 -2.264 -1.973 -1.98 -2.334 -2.322 -9999 2.023 -2.257 -2.237 -2.24 2.003 -9999 -9999 -2.317 -2.232 -2.232 -1.947 -2.014 -2.234 -2.204 -2.199 -2.249 -2.237 -2.159 -2.257 -2.094 -2.267 -2.202 -2.23 1.958 1.948 -9999 -9999 -9999 -9999 2.138 -2.224 -9999 -9999 -1.855 -1.998 -2.314 -2.187 -2.184 -2.192 -2.154 -2.234 -2.252 -2.274 -2.307 -1.986 -2.222 -2.197 -1.892 -1.731 -1.764 -1.924 -1.944 -2.209 -2.184 -2.182 -2.21 -2.254 -1.951 -1.882 -1.858 -1.667 -1.637 -1.785 -1.898 -1.864 -1.614 -1.695 -1.721 -1.774 -1.703 -1.524 -1.616 -1.675 -1.573 -1.413 -1.187 -1.008 -0.866 -0.907 -0.894 -0.874 -0.795 -0.88 -1.171 -1.461 -1.697 -1.907 -2.184 -2.011 -1.658 -1.621 -1.491 -1.439 -1.574 -1.605 -1.579 -1.449 -1.671 -1.864 -2.052 -1.946 -1.641 -1.325 -1.128 -0.796 -0.658 -0.887 -0.974 -1.059 -1.15 -1.174 -1.104 -1.046 -0.957 -0.82 -0.672 -0.531 -0.368 0.016 0.293 0.541 0.725 0.937 1.208 1.449 1.624 1.701 1.883 1.896 1.963 1.841 1.908 1.951 1.883 1.798 1.693
1.432 1.241 0.939 0.695 0.436 0.14 -0.161 -0.454 -0.623 -0.897 -1.106 -1.204 -1.261 -1.308 -1.252 -1.077 -0.924 -0.639 -0.345 -0.604 -0.888 -1.179 -1.491 -1.739 -1.837 -2.187 -1.815 -1.734 -1.502 -1.203 -0.873 -0.642 -0.216 -0.113 -0.441 -0.672 -0.96 -1.22 -1.473 -1.762 -1.906 -1.855 -1.721 -1.7 -1.893 -1.849 -1.755 -1.444 -1.503 -1.818 -2.122 -2.094 -2.097 -2.199 -2.164 -2.204 -2.149 -2.202 -2.094 -2.097 -2.169 -2.142 -2.152 -2.152 -2.267 -2.162 -1.998 -2.209 -2.167 -2.174 -2.207 -2.147 -2.209 -2.134 -2.204 -2.159 -2.074 -2.172 -2.164 -2.122 -2.109 -1.857 -2.182 -2.122 -2.169 -2.222 -2.102 -2.172 -2.184 -2.204 -2.149 -2.147 -2.182 -2.157 -2.147 -2.249 -2.167 -2.147 -2.167 -2.104 -2.122 -2.197 -2.169 -2.197 -2.172 -2.139 -2.177 -2.227 -2.172 -2.199 -2.149 -2.189 -2.164 -2.164 -2.209 -2.139 -2.184 -2.162 -2.202 -2.137 -2.134 -2.224 -2.162 -2.164 -2.144 -2.134 -2.182 -2.262 -2.142 -2.134 -2.147 -2.127 -2.202 -2.249 -2.139 -2.199 -2.129 -2.159 -2.119 -2.184 -2.197 -2.149 -2.149 -2.207 -2.169 -2.154 -2.222 -2.167 -2.164 -2.187 -2.234 -2.234 -2.129 -2.122 -2.244 -2.137 -2.209 -2.232 -2.119 -2.102 -2.134 -2.227 -2.187 -2.157 -2.079 -2.142 -2.227 -2.224 -2.197 -2.159 -2.172 -2.199 -2.202 -2.197 -2.154 -2.177 -2.129 -2.164 -2.184 -2.232 -2.154 -2.149 -2.217 -2.149 -2.162 -2.167 -2.264 -2.189 -2.174 -2.242 -2.184 -2.137 -2.217 -2.149 -2.232 -2.182 -2.219 -2.162 -2.137 -2.204 -2.197 -2.199 -2.172 -2.192 -2.177 -2.144 -2.202 -2.192 -2.197 -2.174 -2.132 -2.199 -2.177 -2.172 -2.207 -2.174 -2.174 -2.267 -2.227 -2.242 -2.189 -2.252 -2.237 -2.202 -2.202 -2.239 -2.117 -2.254 -2.292 -2.207 -2.184 -2.219 -2.139 -2.199 -2.219 -2.144 -2.202 -2.242 -2.092 -2.072 -2.199 -2.247 -2.237 -2.212 -2.047 -2.277 -2.204 -2.219 -2.247 -2.187 -2.162 -2.189 -2.184 -2.217 -2.287 -2.239 -2.189 -2.134 -2.127 -2.159 -2.217 -2.302 -2.214 -9999 -9999 -2.237 -2.132 -2.142 -2.212 -2.282 -2.272 -2.214 -9999 -9999 -9999 -9999 -1.972 -1.838 -1.968 -2.292 -2.312 -2.269 -2.202 -2.169 -2.219 -2.242 -2.214 -2.262 -2.234 -2.189 -2.247 -2.332 -2.294 -2.222 -2.237 -2.227 -2.222 -9999 -9999 -2.237 -2.312 -2.274 -2.322 -2.242 -2.21 -2.229 -2.262 -2.264 -2.214 -2.257 -2.162 -2.212 -2.182 -2.144 -2.197 -2.252 -2.224 -2.182 -2.192 -2.247 -2.254 -1.951 -1.964 -2.282 -2.322 -2.297 -9999 -2.272 -2.227 -2.239 -1.975 -9999 -2.277 -2.257 -2.214 -1.988 -1.813 -1.959 -2.232 -2.257 -2.262 -2.249 -2.164 -2.074 -2.192 -2.259 -2.307 -2.222 -2.244 -1.972 1.966 1.998 -9999 -9999 -9999 1.993 -1.856 -2.137 -2.169 -1.861 -1.761 -1.905 -2.142 -2.144 -2.217 -2.214 -2.197 -2.222 -2.297 -2.249 -2.036 -2.267 -2.247 -2.209 -1.877 -1.646 -1.953 -2.269 -2.244 -2.229 -2.194 -2.197 -2.274 -1.922 -1.591 -1.583 -1.609 -1.831 -1.987 -2.304 -1.952 -1.844 -1.567 -1.437 -1.466 -1.414 -1.249 -1.344 -1.378 -1.299 -1.206 -1.08 -1.044 -1.083 -1.194 -1.208 -1.19 -1.077 -0.88 -1.186 -1.49 -1.689 -1.927 -2.207 -1.959 -1.685 -1.456 -1.409 -1.633 -1.789 -1.897 -1.798 -1.657 -1.637 -1.6 -1.723 -1.695 -1.508 -1.178 -1.017 -0.762 -0.499 -0.734 -0.765 -0.826 -0.906 -0.914 -0.873 -0.747 -0.741 -0.581 -0.498 -0.352 -0.141 0.226 0.48 0.645 0.755 1.003 1.332 1.595 1.825 1.783 1.828 1.918 1.966 1.698 1.786 1.883 1.918 1.851 1.718
1.42 1.185 0.832 0.581 0.373 0.079 -0.275 -0.545 -0.831 -1.09 -1.356 -1.513 -1.575 -1.598 -1.466 -1.336 -1.144 -0.854 -0.509 -0.626 -0.97 -1.319 -1.552 -1.75 -2.277 -2.202 -2.144 -1.86 -1.601 -1.259 -0.891 -0.589 -0.28 -0.319 -0.634 -0.899 -1.077 -1.204 -1.275 -1.48 -1.748 -1.899 -1.727 -1.769 -2.174 -2.207 -1.86 -1.557 -1.467 -1.755 -1.89 -2.132 -2.159 -2.207 -2.187 -2.134 -2.134 -2.169 -2.134 -2.079 -2.134 -2.169 -2.147 -2.167 -2.142 -2.154 -2.229 -1.9 -2.152 -2.202 -2.179 -2.144 -2.172 -2.162 -2.247 -2.187 -2.139 -2.119 -2.184 -2.169 -2.124 -1.826 -1.84 -2.182 -2.182 -2.232 -2.127 -2.139 -2.192 -2.119 -2.154 -2.224 -2.152 -2.172 -2.167 -2.194 -2.179 -2.174 -2.242 -2.132 -2.142 -2.222 -2.169 -2.157 -2.184 -2.202 -2.129 -2.209 -2.227 -2.224 -2.114 -2.169 -2.247 -2.214 -2.179 -2.254 -2.204 -2.144 -2.202 -2.172 -2.117 -2.224 -2.154 -2.179 -2.139 -2.172 -2.182 -2.209 -2.194 -2.122 -2.114 -2.162 -2.244 -2.232 -2.122 -2.192 -2.232 -2.142 -2.217 -2.242 -2.199 -2.167 -2.092 -2.192 -2.182 -2.169 -2.179 -2.169 -2.204 -2.192 -2.172 -2.229 -2.197 -2.114 -2.169 -2.177 -2.164 -2.249 -2.127 -2.144 -2.189 -2.137 -2.209 -2.147 -2.134 -2.217 -2.174 -2.219 -2.182 -2.147 -2.167 -2.187 -2.192 -2.149 -2.147 -2.224 -2.182 -2.207 -2.167 -2.182 -2.194 -2.137 -2.242 -2.224 -2.194 -2.189 -2.242 -2.119 -2.192 -2.184 -2.187 -2.184 -2.199 -2.169 -2.147 -2.224 -2.227 -2.182 -2.234 -2.149 -2.174 -2.199 -2.229 -2.192 -2.224 -2.169 -2.217 -2.184 -2.234 -2.257 -2.124 -2.192 -2.174 -2.199 -2.259 -2.207 -2.189 -2.234 -2.257 -2.229 -2.249 -2.277 -2.217 -2.197 -2.249 -2.204 -2.144 -2.249 -2.239 -2.192 -2.124 -2.184 -2.144 -2.189 -2.249 -2.192 -2.207 -2.147 -2.142 -2.059 -2.127 -2.179 -2.214 -2.202 -2.177 -2.274 -2.202 -2.249 -2.217 -2.282 -2.247 -2.184 -2.157 -2.217 -2.242 -2.139 -2.144 -2.072 -2.222 -2.194 -2.259 -2.309 -2.164 -9999 -9999 -2.217 -2.169 -2.177 -2.192 -2.237 -9999 -9999 -9999 -9999 -9999 -2.01 -2.002 -1.936 -1.824 -1.955 -2.307 -2.297 -2.322 -2.189 -2.247 -2.294 -2.217 -2.122 -2.234 -2.222 -2.224 -2.269 -2.249 -2.179 -2.197 -2.172 -2.179 -2.159 -2.162 -2.187 -2.192 -2.197 -2.279 -2.229 -2.229 -2.219 -2.254 -2.317 -2.184 -2.199 -2.142 -2.227 -2.167 -2.149 -2.199 -2.247 -2.212 -2.159 -2.164 -2.212 -2.229 -2.207 -9999 -9999 -9999 -2.277 -2.252 -2.254 -9999 -9999 -2.005 -2.227 -2.247 -2.269 -2.219 -2.337 -1.957 -2.247 -2.217 -2.227 -2.217 -2.164 -2.192 -1.948 -1.999 -2.234 -2.162 -2.254 -9999 -9999 -9999 2.033 -9999 -9999 -2.212 -1.95 -1.96 -2.234 -1.913 -1.779 1.881 1.923 -1.865 -1.868 -2.269 -2.277 -2.199 -1.9 -2.282 -2.284 -2.019 -2.194 -2.229 -2.224 -1.888 -1.844 -2.001 -1.982 -2.274 -1.963 -1.933 -1.932 2.013 1.893 1.956 -1.367 -1.658 -1.983 -2.279 -2.322 -2.257 -2.026 -1.686 -1.397 -1.144 -1.153 -1.033 -1.108 -1.163 -1.105 -1.003 -1.234 -1.315 -1.321 -1.448 -1.451 -1.383 -1.244 -1.053 -1.154 -1.477 -1.662 -1.869 -2.01 -1.855 -1.626 -1.389 -1.415 -1.623 -1.906 -2.212 -1.977 -1.973 -1.879 -1.561 -1.391 -1.423 -1.248 -1.041 -0.902 -0.652 -0.383 -0.451 -0.534 -0.609 -0.619 -0.632 -0.624 -0.501 -0.475 -0.431 -0.249 -0.149 0.103 0.407 0.598 0.695 0.96 1.184 1.456 1.785 1.828 1.898 1.756 1.893 1.961 1.758 1.798 1.871 1.948 1.908 1.791
1.366 1.103 0.8 2.271 0.308 -0.006 -0.348 -0.556 -0.878 -1.178 -1.449 -1.738 -1.856 -1.808 -1.694 -1.48 -1.215 -0.867 -0.496 -0.641 -1.023 -1.308 -1.48 -1.664 -1.925 -2.142 -1.866 -1.731 -1.485 -1.221 -0.902 -0.526 -0.243 -0.497 -0.775 -1.069 -1.295 -1.398 -1.485 -1.514 -1.931 -2.217 -1.811 -1.724 -1.908 -1.887 -1.705 -1.504 -1.471 -1.721 -1.879 -1.805 -2.149 -2.234 -2.187 -2.117 -1.852 -1.92 -1.872 -2.149 -2.092 -2.187 -2.134 -2.087 -2.139 -2.132 -2.179 -1.912 -2.147 -2.187 -2.124 -2.144 -1.835 -1.899 -1.886 -2.192 -2.204 -2.162 -2.214 -2.159 -1.82 -2.167 -2.132 -2.109 -2.167 -2.199 -2.192 -2.164 -2.174 -2.124 -2.162 -2.217 -2.144 -2.197 -2.189 -2.194 -2.122 -2.177 -2.152 -2.167 -2.147 -2.232 -2.127 -2.154 -2.184 -2.244 -2.137 -2.114 -2.222 -2.217 -2.189 -2.197 -2.259 -2.162 -2.164 -2.197 -2.234 -2.169 -2.207 -2.187 -2.097 -2.139 -2.177 -2.184 -2.157 -2.159 -2.169 -2.192 -2.177 -2.162 -2.162 -2.254 -2.112 -2.167 -2.192 -2.204 -2.237 -2.137 -2.172 -2.159 -2.147 -2.187 -2.122 -2.194 -2.149 -2.154 -2.172 -2.179 -2.234 -2.189 -2.127 -2.189 -2.177 -2.179 -2.132 -2.192 -2.154 -2.224 -2.187 -2.199 -2.172 -2.102 -2.184 -2.134 -2.132 -2.182 -2.144 -2.234 -2.107 -2.132 -2.212 -2.174 -2.234 -2.107 -2.222 -2.262 -2.209 -2.174 -2.179 -2.187 -2.177 -2.162 -2.174 -2.192 -2.229 -2.182 -2.214 -2.107 -2.179 -2.162 -2.214 -2.262 -2.167 -2.157 -2.144 -2.234 -2.187 -2.182 -2.169 -2.167 -2.179 -2.167 -2.189 -2.167 -2.189 -2.204 -2.122 -2.152 -2.194 -2.152 -2.104 -2.177 -2.154 -2.222 -2.252 -2.154 -2.267 -2.257 -2.262 -2.314 -2.272 -2.219 -2.167 -2.204 -2.232 -2.182 -2.142 -2.152 -2.207 -2.179 -2.184 -2.272 -2.202 -2.309 -2.289 -2.209 -2.212 -2.174 -2.182 -2.124 -2.219 -2.179 -2.204 -2.167 -2.217 -2.274 -2.234 -2.282 -2.249 -2.169 -2.277 -2.134 -2.114 -2.244 -2.232 -2.179 -2.112 -2.104 -2.287 -2.214 -2.232 -2.259 -2.192 -2.21 -2.227 -2.142 -2.177 -2.179 -2.229 -2.222 -9999 -9999 -2.229 -2.152 -9999 -2.307 -2.307 -2.16 -1.938 -1.96 -1.976 -2.006 -2.284 -2.199 -2.182 -2.217 -2.217 -2.112 -2.199 -2.214 -2.227 -2.277 -2.244 -2.147 -2.144 -2.157 -2.164 -2.144 -2.129 -2.269 -2.212 -2.157 -2.259 -2.239 -2.237 -2.184 -2.232 -2.269 -2.217 -9999 -9999 -2.214 -2.169 -2.214 -2.222 -2.269 -2.292 -2.277 -2.249 -2.244 -2.252 -2.24 -9999 -9999 -9999 -2.234 -2.247 -2.244 -9999 1.916 -2.027 -1.96 -2.242 -2.312 -2.312 -2.259 -2.061 -2.264 -2.202 -2.189 -2.207 -2.199 -1.926 -1.886 -1.982 -2.187 -2.152 -2.192 -9999 -9999 -9999 -9999 -9999 -9999 -1.897 -1.915 -2.217 -2.217 -2.172 1.841 1.826 1.821 -1.913 -1.871 1.923 -9999 1.983 -2.164 -2.257 -2.287 -2.192 -1.929 -1.942 -1.972 -1.836 -1.957 -2.212 -2.199 -2.272 -1.913 -1.685 -1.752 1.958 1.843 1.926 -1.32 -1.643 -1.886 -1.937 -2.202 -2.02 -1.969 -1.655 -1.365 -1.069 -0.85 -0.734 -0.783 -0.917 -1.02 -1.18 -1.468 -1.588 -1.634 -1.685 -1.646 -1.669 -1.496 -1.273 -1.059 -1.331 -1.49 -1.635 -1.706 -1.617 -1.471 -1.253 -1.472 -1.624 -1.899 -2.249 -2.239 -2.289 -1.987 -1.603 -1.284 -1.113 -1.001 -0.866 -0.691 -0.477 -0.254 -0.17 -0.258 -0.276 -0.385 -0.372 -0.288 -0.307 -0.218 -0.182 0.032 0.168 0.366 0.543 0.692 0.847 1.215 1.387 1.704 1.888 1.803 1.886 1.893 2.008 1.958 1.746 1.793 1.873 1.778 1.876 1.771
1.344 1.079 0.818 2.441 2.473 -0.015 -0.331 -0.636 -0.933 -1.267 -1.563 -1.893 -2.227 -2.157 -1.855 -1.494 -1.224 -0.902 -0.584 -0.848 -1.097 -1.309 -1.473 -1.525 -1.724 -1.894 -1.692 -1.475 -1.268 -1.08 -0.829 -0.496 -0.318 -0.503 -0.9 -1.244 -1.492 -1.654 -1.839 -1.759 -1.978 -2.192 -2.089 -1.816 -1.553 -1.6 -1.431 -1.465 -1.767 -1.868 -2.219 -1.867 -1.829 -2.187 -2.194 -2.129 -1.892 -1.942 -1.935 -2.169 -2.144 -2.167 -2.214 -2.102 -2.114 -2.167 -2.112 -2.187 -2.184 -2.169 -2.192 -2.157 -1.89 -1.938 -2.314 -2.219 -2.224 -2.147 -2.187 -2.162 -2.124 -2.159 -2.159 -2.117 -2.157 -2.219 -2.212 -2.189 -2.189 -2.132 -1.857 -2.202 -2.147 -2.152 -2.209 -2.197 -2.179 -2.142 -2.169 -2.147 -2.084 -2.152 -2.172 -2.132 -2.189 -2.199 -2.114 -2.137 -2.209 -2.237 -2.187 -2.174 -2.199 -2.184 -2.162 -2.157 -2.287 -2.209 -2.154 -2.157 -2.194 -2.179 -2.217 -2.179 -2.129 -2.182 -2.179 -2.174 -2.207 -2.124 -2.219 -2.217 -2.154 -2.204 -2.219 -2.187 -2.204 -2.182 -2.197 -2.177 -2.137 -2.192 -2.107 -2.142 -2.162 -2.194 -2.187 -2.169 -2.224 -2.199 -2.144 -2.159 -2.177 -2.177 -2.162 -2.132 -2.127 -2.204 -2.224 -2.207 -2.202 -2.137 -2.144 -2.142 -2.224 -2.114 -2.172 -2.192 -2.099 -2.169 -2.219 -2.222 -2.197 -2.062 -2.174 -2.237 -2.184 -2.117 -2.114 -2.127 -2.222 -2.219 -2.197 -2.154 -2.247 -2.224 -2.139 -2.149 -2.224 -2.224 -2.219 -2.237 -2.152 -2.122 -2.212 -2.279 -2.192 -2.212 -2.149 -2.219 -2.182 -2.227 -2.169 -2.157 -2.137 -2.247 -2.194 -2.154 -2.192 -2.202 -2.259 -2.169 -2.202 -2.192 -2.229 -2.169 -2.199 -2.217 -2.229 -2.267 -2.207 -2.182 -2.104 -2.167 -2.204 -2.207 -2.104 -2.169 -2.249 -2.172 -2.199 -2.202 -2.134 -2.232 -2.214 -2.104 -2.187 -2.184 -2.199 -2.207 -2.204 -2.209 -2.227 -2.142 -2.127 -2.177 -2.209 -2.312 -2.334 -2.212 -2.229 -2.204 -2.057 -2.219 -2.227 -2.162 -2.144 -2.222 -2.317 -2.264 -2.207 -2.194 -2.197 -2.212 -2.224 -2.184 -2.194 -2.189 -2.229 -2.149 -2.172 -2.267 -2.219 -2.162 -2.139 -2.212 -9999 -9999 -2.13 -2.144 -1.878 -1.917 -1.944 -1.925 -2.197 -2.212 -2.227 -2.187 -2.192 -2.197 -2.192 -2.229 -2.269 -2.249 -2.244 -2.232 -2.164 -9999 -9999 -2.252 -2.259 -9999 -9999 -9999 -2.222 -2.167 -9999 -9999 -2.289 -9999 -9999 -2.157 -2.187 -2.262 -2.237 -2.247 -2.274 -2.274 -2.277 -2.309 -2.324 -2.284 -9999 -9999 -9999 -9999 -2.234 -2.262 -2.342 -2.272 -2.224 -1.932 1.946 -9999 -2.352 -2.252 -2.272 -1.96 -2.177 -2.127 -2.224 -1.925 -1.723 -1.692 -2.042 -2.227 -2.167 -2.184 -2.194 -9999 -9999 -2.257 -9999 -9999 -1.918 -1.966 1.891 1.92 -1.971 1.871 -2.232 -2.252 -2.232 -9999 2.018 2.026 -1.987 -2.197 -2.294 -9999 -2.174 -1.94 -1.857 -1.729 -1.697 -1.98 -2.187 -2.157 -2.147 -1.892 1.878 -1.417 -1.418 1.786 1.876 -1.277 -1.435 -1.583 -1.818 -1.967 -1.89 -1.667 -1.41 -1.23 -1.101 -1.039 -0.839 -0.627 -0.885 -1.151 -1.326 -1.627 -1.917 -1.99 -1.927 -1.856 -1.851 -1.711 -1.358 -1.121 -1.092 -1.234 -1.341 -1.493 -1.441 -1.279 -1.157 -1.467 -1.686 -1.963 -2.234 -2.242 -1.948 -1.857 -1.59 -1.379 -1.232 -1.053 -0.816 -0.581 -0.386 -0.211 0.092 0.097 -0.038 -0.138 -0.087 -0.055 -0.019 -0.006 0.106 0.214 0.406 0.538 0.693 0.807 1.028 1.293 1.449 1.664 1.896 1.838 1.851 1.633 1.803 1.856 1.701 1.793 1.821 1.828 1.963 1.908
1.389 1.123 0.923 2.411 2.328 0.013 -0.353 -0.647 -0.966 -1.206 -1.492 -1.743 -1.931 -2.207 -1.826 -1.56 -1.26 -0.965 -0.713 -0.975 -1.22 -1.485 -1.713 -1.888 -1.891 -1.753 -1.585 -1.483 -1.373 -1.112 -0.814 -0.502 -0.266 -0.541 -0.934 -1.275 -1.606 -1.865 -2.119 -2.187 -2.182 -1.86 -1.764 -1.665 -1.456 -1.246 -1.22 -1.541 -1.855 -2.182 -2.214 -2.172 -1.843 -1.837 -1.889 -1.872 -1.818 -2.227 -2.254 -2.182 -2.152 -2.142 -2.162 -2.127 -2.144 -2.137 -2.139 -2.112 -2.199 -2.154 -2.199 -2.124 -2.214 -1.895 -2.229 -2.214 -2.232 -2.142 -2.092 -2.194 -2.172 -2.122 -2.144 -2.094 -2.162 -2.192 -2.152 -2.152 -2.157 -1.881 -1.729 -1.875 -1.84 -2.177 -2.157 -1.865 -1.864 -1.814 -2.177 -2.152 -2.084 -2.189 -2.162 -2.144 -2.174 -2.267 -2.122 -2.137 -2.179 -2.229 -2.147 -2.199 -2.179 -2.184 -2.187 -2.179 -2.212 -2.192 -2.122 -2.147 -2.264 -2.204 -2.177 -2.152 -2.157 -2.147 -2.149 -2.147 -2.194 -2.147 -2.142 -2.194 -2.159 -2.169 -2.199 -2.192 -2.279 -2.269 -2.204 -2.172 -2.217 -2.182 -2.099 -2.159 -2.164 -2.187 -2.214 -2.152 -2.164 -2.199 -2.182 -2.162 -2.137 -2.182 -2.117 -2.117 -2.127 -2.224 -2.229 -2.194 -2.114 -2.124 -2.109 -2.219 -2.224 -2.109 -2.137 -2.197 -2.229 -2.214 -2.194 -2.174 -2.209 -2.099 -2.169 -2.247 -2.172 -2.167 -2.142 -2.174 -2.242 -2.199 -2.174 -2.169 -2.214 -2.217 -2.187 -2.162 -2.214 -2.204 -2.169 -2.144 -2.169 -2.104 -2.152 -2.267 -2.234 -2.162 -2.214 -2.217 -2.162 -2.149 -2.184 -2.127 -2.157 -2.184 -2.212 -2.169 -2.199 -2.199 -2.184 -2.204 -2.089 -2.107 -2.264 -2.237 -2.202 -2.179 -2.292 -2.217 -2.219 -2.234 -2.197 -2.154 -2.177 -2.232 -2.147 -2.119 -2.219 -2.147 -2.217 -2.239 -2.164 -2.172 -2.167 -2.102 -2.214 -2.227 -2.317 -2.177 -2.187 -2.197 -2.187 -2.164 -2.187 -2.257 -2.254 -2.314 -2.357 -2.257 -2.242 -2.184 -2.184 -2.252 -2.247 -2.202 -2.177 -2.167 -2.224 -2.249 -2.214 -2.244 -2.237 -2.242 -2.152 -2.239 -2.144 -2.212 -2.224 -2.179 -2.134 -2.242 -2.277 -2.202 -2.204 -2.189 -9999 -9999 -2.27 -2.159 -2.114 -2.134 -2.159 -2.209 -2.229 -1.983 -2.289 -2.204 -2.142 -2.112 -2.182 -2.192 -2.322 -2.264 -2.257 -2.262 -2.229 -2.157 -9999 -2.247 -2.224 -2.227 -2.237 -2.247 -2.249 -9999 -9999 -9999 -9999 -2.212 -9999 -2.224 -2.224 -2.189 -2.197 -2.194 -2.174 -2.244 -2.244 -2.257 -2.252 -2.287 -9999 -9999 -9999 -9999 -9999 -2.302 -2.314 -2.269 -2.149 -9999 -9999 -9999 1.873 -2.242 -2.359 -2.282 -9999 -2.132 -2.219 -1.992 -1.888 -1.961 -2.009 -2.244 -2.282 -2.332 -2.257 -9999 -9999 1.853 1.888 1.936 -2.222 -2.279 1.921 1.901 -2.307 -2.247 -2.237 -2.279 -9999 2.053 2.103 -9999 -2.247 -2.217 -2.299 -9999 -9999 -2.232 -1.961 -1.73 -1.665 -1.869 -1.992 -1.982 -1.917 1.816 1.881 -1.624 -1.672 -1.562 -1.428 -1.558 -1.591 1.923 1.883 -1.873 -1.655 -1.625 -1.439 -1.432 -1.373 -1.282 -1.13 -0.852 -0.891 -1.182 -1.411 -1.646 -1.963 -2.134 -2.139 -2.122 -2.008 -1.713 -1.393 -1.121 -0.876 -1.006 -1.113 -1.256 -1.16 -0.983 -1.126 -1.394 -1.626 -1.859 -1.997 -1.978 -1.953 -1.936 -1.779 -1.568 -1.504 -1.207 -0.998 -0.716 -0.525 -0.276 0.034 0.314 0.171 0.181 0.318 0.289 0.218 0.254 0.409 0.537 0.674 0.725 0.919 0.961 1.157 1.455 1.681 1.821 1.893 1.861 1.873 1.908 1.828 1.776 1.791 1.983 1.893 1.871 1.913 1.853
1.526 1.213 0.917 0.738 0.425 0.01 -0.297 -0.591 -0.825 -1.1 -1.299 -1.514 -1.825 -1.894 -1.72 -1.458 -1.181 -0.898 -0.591 -0.918 -1.245 -1.515 -1.851 -2.214 -2.234 -1.866 -1.893 -1.751 -1.506 -1.231 -0.851 -0.602 -0.301 -0.603 -0.955 -1.259 -1.601 -1.821 -2.127 -2.194 -2.142 -2.159 -1.821 -1.496 -1.32 -1.208 -1.179 -1.52 -1.844 -2.182 -2.172 -2.149 -1.804 -2.127 -1.907 -1.919 -2.197 -2.197 -2.242 -2.174 -2.157 -2.117 -2.179 -2.117 -2.164 -2.077 -2.124 -2.139 -2.184 -2.144 -2.154 -2.164 -2.149 -2.197 -2.202 -2.164 -2.304 -2.192 -2.097 -1.89 -2.187 -2.174 -2.159 -2.117 -2.104 -2.204 -2.189 -2.127 -2.114 -2.179 -1.856 -2.134 -2.197 -2.164 -2.194 -1.852 -1.91 -2.184 -2.177 -2.189 -2.149 -2.207 -2.237 -2.199 -2.187 -2.264 -2.149 -2.082 -2.144 -2.204 -2.222 -2.107 -2.212 -2.187 -2.199 -2.202 -2.169 -2.199 -2.134 -2.149 -2.192 -2.279 -2.204 -2.127 -2.179 -2.179 -2.202 -2.207 -2.192 -2.172 -2.169 -2.137 -2.124 -2.157 -2.179 -2.174 -2.237 -2.242 -2.174 -2.162 -2.204 -2.137 -2.212 -2.184 -2.129 -2.167 -2.187 -2.157 -2.144 -2.187 -2.199 -2.197 -2.129 -2.204 -2.187 -2.134 -2.199 -2.252 -2.147 -2.104 -2.129 -2.197 -2.192 -2.172 -2.209 -2.089 -2.119 -2.192 -2.212 -2.204 -2.159 -2.207 -2.197 -2.167 -2.142 -2.177 -2.207 -2.187 -2.152 -2.224 -2.219 -2.164 -2.187 -2.189 -2.199 -2.189 -2.174 -2.129 -2.212 -2.179 -2.179 -2.154 -2.207 -2.202 -2.124 -2.232 -2.189 -2.139 -2.174 -2.164 -2.187 -2.154 -2.179 -2.092 -2.167 -2.184 -2.249 -2.114 -2.082 -2.207 -2.257 -2.239 -2.117 -2.139 -2.227 -2.172 -2.267 -2.089 -2.287 -2.334 -2.204 -2.197 -2.147 -2.127 -2.184 -2.252 -2.154 -2.107 -2.177 -2.194 -2.172 -2.122 -2.197 -2.212 -2.157 -2.187 -2.172 -2.264 -2.364 -2.169 -2.167 -2.162 -2.159 -2.194 -2.239 -2.302 -2.182 -2.222 -2.264 -2.292 -2.272 -2.167 -2.147 -2.189 -2.249 -2.207 -2.204 -2.224 -2.239 -2.152 -2.112 -2.217 -2.249 -2.267 -2.157 -2.192 -2.154 -2.227 -2.204 -2.132 -2.154 -2.192 -2.252 -2.254 -2.164 -2.084 -2.174 -2.207 -2.194 -2.169 -2.164 -2.232 -2.244 -2.199 -2.202 -1.928 -1.963 -1.937 -2.137 -1.86 -1.939 -2.167 -2.222 -2.212 -2.259 -2.269 -2.239 -2.267 -2.239 -2.222 -2.174 -2.187 -2.237 -2.252 -2.209 -2.13 -9999 -9999 -9999 -2.174 -2.197 -2.197 -2.124 -2.154 -2.179 -2.204 -2.204 -2.307 -2.177 -2.169 -2.219 -9999 -2.247 -9999 -9999 -9999 -9999 1.893 -1.924 -2.204 -2.109 -2.127 -2.182 -9999 -9999 -9999 -2.26 -2.224 -9999 -9999 -2.214 -2.212 -2.224 -2.199 -2.207 -2.207 -2.262 -2.279 -2.232 -9999 1.923 1.888 -9999 -9999 -9999 -2.259 -1.9 -2.322 -2.267 -2.167 -2.162 -2.04 -2.01 -1.803 2.006 -2.242 -2.22 -2.229 -9999 -9999 -9999 -2.2 -1.949 -1.675 -1.461 -1.695 -1.98 -2.274 -1.977 -1.975 -1.847 1.946 -1.961 -1.868 1.916 -1.838 -1.965 1.806 -9999 1.913 -1.911 -1.834 -1.716 -1.642 -1.577 -1.452 -1.289 -0.949 -0.966 -1.118 -1.511 -1.58 -1.852 -1.915 -1.901 -1.885 -1.815 -1.666 -1.339 -1.016 -0.862 -0.76 -0.852 -0.949 -0.849 -0.753 -1.06 -1.317 -1.493 -1.632 -1.618 -1.933 -2.232 -2.207 -1.901 -1.787 -1.64 -1.324 -1.104 -0.886 -0.648 -0.385 -0.087 0.204 0.508 0.594 0.661 0.586 0.449 0.439 0.572 0.728 0.88 1.048 1.107 1.247 1.531 1.756 1.91 1.811 1.873 1.863 1.851 1.798 1.818 1.841 1.953 1.978 1.933 1.813 1.863 1.803
1.628 1.333 1.068 0.811 0.486 0.114 -0.201 -0.454 -0.586 -0.837 -1.085 -1.308 -1.527 -1.648 -1.566 -1.3 -1.058 -0.757 -0.624 -0.93 -1.259 -1.604 -1.829 -2.164 -2.147 -2.162 -2.097 -1.824 -1.564 -1.322 -0.868 -0.636 -0.365 -0.624 -0.961 -1.184 -1.455 -1.731 -1.83 -2.117 -2.189 -2.189 -1.879 -1.744 -1.477 -1.491 -1.488 -1.489 -1.859 -2.177 -2.099 -2.084 -2.084 -2.072 -1.794 -1.811 -1.896 -2.149 -2.224 -2.199 -2.189 -2.139 -2.142 -2.164 -2.174 -2.094 -2.117 -2.182 -2.204 -2.137 -2.152 -2.164 -1.856 -1.89 -2.154 -2.194 -1.98 -2.174 -2.079 -2.239 -1.924 -2.204 -2.197 -2.124 -2.134 -2.194 -2.224 -2.169 -2.192 -2.159 -2.119 -2.149 -2.197 -2.114 -2.099 -1.844 -2.182 -2.189 -2.204 -2.154 -2.157 -2.189 -2.174 -2.172 -2.144 -2.224 -2.184 -2.122 -2.162 -2.177 -2.262 -2.167 -2.202 -2.189 -2.184 -2.184 -2.229 -2.154 -2.142 -2.167 -2.139 -2.237 -2.217 -2.217 -2.192 -2.197 -2.194 -2.217 -2.194 -2.174 -2.189 -2.122 -2.144 -2.204 -2.197 -2.169 -2.249 -2.164 -2.177 -2.182 -2.159 -2.147 -2.182 -2.157 -2.147 -2.184 -2.187 -2.214 -2.129 -2.164 -2.187 -2.242 -2.187 -2.194 -2.182 -2.144 -2.177 -2.214 -2.157 -2.134 -2.142 -2.167 -2.219 -2.169 -2.189 -2.142 -2.164 -2.187 -2.177 -2.197 -2.199 -2.189 -2.282 -2.182 -2.102 -2.222 -2.219 -2.259 -2.164 -2.194 -2.207 -2.124 -2.187 -2.137 -2.162 -2.249 -2.189 -2.152 -2.202 -2.149 -2.207 -2.157 -2.194 -2.232 -2.112 -2.177 -2.214 -2.157 -2.209 -2.232 -2.204 -2.184 -2.204 -2.152 -2.152 -2.209 -2.229 -2.174 -2.122 -2.197 -2.284 -2.219 -2.184 -2.137 -2.184 -2.214 -2.282 -2.144 -2.192 -2.257 -2.199 -2.182 -2.204 -2.132 -2.137 -2.287 -2.207 -2.144 -2.194 -2.202 -2.177 -2.222 -2.217 -2.294 -2.172 -2.184 -2.124 -2.289 -2.402 -2.157 -2.147 -2.167 -2.172 -2.224 -2.232 -2.242 -2.209 -2.174 -2.182 -2.234 -2.182 -2.154 -2.149 -2.207 -2.254 -2.149 -2.197 -2.219 -2.239 -2.159 -2.147 -2.179 -2.249 -2.274 -2.197 -2.132 -2.209 -2.184 -2.177 -2.172 -2.189 -2.162 -2.179 -2.174 -2.172 -2.187 -2.222 -2.232 -2.187 -2.219 -2.214 -2.292 -2.267 -2.219 -1.902 -1.896 -1.935 -1.998 -1.992 -1.795 -1.859 -1.926 -2.247 -2.222 -9999 -2.302 -2.209 -2.192 -2.134 -2.209 -2.247 -2.187 -2.247 -2.262 -2.269 -2.252 -2.244 -9999 -2.207 -2.179 -2.187 -2.234 -2.199 -2.149 -2.212 -2.194 -2.259 -2.314 -2.214 -2.152 -9999 -9999 -2.287 -9999 -9999 -9999 1.833 1.911 -9999 -2.214 -2.202 -2.157 -2.222 -1.931 -9999 -9999 -9999 -9999 -9999 -9999 -2.192 -2.227 -2.272 -2.347 -9999 -9999 -2.224 -2.222 -2.222 -2.247 -1.957 -9999 -9999 -9999 -2.277 -2.229 -1.951 -2.292 -2.259 -9999 -2.234 -2.327 -1.957 -2.001 -1.962 -2.018 -2.237 -2.199 -2.192 -9999 -9999 -2.324 -1.978 1.936 -1.369 -1.676 -1.979 -2.257 -2.282 -9999 1.933 1.943 -2.237 1.996 1.986 1.881 -9999 -9999 -2.287 -2.197 -2.169 -1.89 -1.951 -1.929 -1.813 -1.582 -1.352 -1.085 -1.227 -1.443 -1.488 -1.477 -1.646 -1.68 -1.648 -1.585 -1.551 -1.488 -1.208 -0.95 -0.896 -0.807 -0.683 -0.74 -0.659 -0.672 -0.895 -1.139 -1.25 -1.389 -1.65 -1.889 -2.232 -2.237 -2.224 -1.936 -1.721 -1.39 -1.111 -0.889 -0.609 -0.362 -0.094 0.134 0.488 0.824 0.844 0.771 0.649 0.728 0.841 0.997 1.063 1.228 1.298 1.514 1.804 1.92 1.893 1.941 1.878 1.768 1.816 1.818 1.923 1.913 1.961 1.946 1.808 1.816 1.928 1.733
1.504 1.394 1.191 0.783 0.496 0.232 0.005 -0.179 -0.443 -0.665 -0.874 -1.078 -1.211 -1.294 -1.271 -1.08 -0.877 -0.641 -0.627 -0.925 -1.192 -1.446 -1.702 -1.838 -2.154 -2.154 -1.837 -1.762 -1.461 -1.216 -0.875 -0.557 -0.245 -0.548 -0.863 -1.078 -1.216 -1.504 -1.838 -2.179 -2.249 -2.169 -2.107 -1.856 -1.768 -1.864 -1.852 -1.771 -1.755 -1.812 -2.132 -2.092 -2.102 -2.139 -1.842 -1.901 -1.903 -2.147 -2.212 -2.227 -2.227 -2.187 -2.192 -2.232 -2.199 -2.127 -1.809 -2.197 -2.222 -2.109 -2.224 -2.062 -1.823 -1.726 -1.862 -1.877 -2.239 -2.214 -2.087 -2.194 -2.222 -2.162 -2.194 -2.119 -2.284 -2.202 -2.112 -2.187 -2.207 -2.182 -2.142 -2.174 -2.197 -2.134 -2.204 -2.237 -2.194 -2.219 -2.184 -2.152 -2.162 -2.212 -2.159 -2.149 -2.182 -2.169 -2.247 -2.147 -2.164 -2.182 -2.224 -2.169 -2.189 -2.199 -2.197 -2.209 -2.229 -2.177 -2.112 -2.239 -2.124 -2.174 -2.199 -2.149 -2.167 -2.214 -2.227 -2.212 -2.174 -2.162 -2.172 -2.179 -2.107 -2.182 -2.202 -2.152 -2.252 -2.132 -2.219 -2.204 -2.129 -2.159 -2.219 -2.154 -2.147 -2.182 -2.154 -2.149 -2.179 -2.189 -2.119 -2.182 -2.182 -2.174 -2.184 -2.172 -2.202 -2.197 -2.174 -2.199 -2.174 -2.164 -2.144 -2.142 -2.119 -2.154 -2.184 -2.179 -2.219 -2.177 -2.109 -2.132 -2.204 -2.179 -2.102 -2.099 -2.197 -2.224 -2.119 -2.202 -2.112 -2.122 -2.209 -2.209 -2.237 -2.217 -2.157 -2.167 -2.172 -2.179 -2.162 -2.122 -2.187 -2.214 -2.159 -2.154 -2.209 -2.154 -2.184 -2.259 -2.122 -2.112 -2.122 -2.212 -2.169 -2.159 -2.169 -2.192 -2.187 -2.172 -2.309 -2.242 -2.167 -2.177 -2.119 -2.227 -2.262 -2.167 -2.089 -2.189 -2.209 -2.204 -2.174 -2.217 -2.139 -2.167 -2.182 -2.174 -2.177 -2.217 -2.252 -2.182 -2.214 -2.227 -2.172 -2.159 -2.199 -2.212 -2.224 -2.199 -2.137 -2.154 -2.209 -2.234 -2.237 -2.234 -2.207 -2.187 -2.162 -2.199 -2.222 -2.214 -2.219 -2.167 -2.182 -2.177 -2.222 -2.254 -2.227 -2.209 -2.222 -2.204 -2.289 -2.284 -2.259 -2.239 -2.194 -2.107 -2.184 -2.229 -2.209 -2.192 -2.184 -2.149 -2.227 -2.177 -2.212 -2.257 -2.224 -2.227 -2.224 -2.277 -2.219 -2.227 -2.184 -2.169 -2.177 -2.249 -1.986 -1.928 -2.072 -1.894 -2.219 -2.182 -9999 -2.217 -1.939 -1.914 -1.883 -2.249 -2.302 -2.197 -2.222 -2.257 -2.252 -2.207 -2.239 -2.27 -2.257 -9999 -9999 -2.242 -2.259 -2.237 -2.189 -2.157 -2.257 -2.297 -2.237 -2.157 -9999 -9999 -2.257 -2.219 -1.938 -1.939 -1.939 -9999 -9999 -9999 -2.212 -2.197 -2.284 -2.264 -9999 -9999 -9999 -9999 -2.247 -9999 -2.242 -2.197 -2.204 -2.362 -9999 -2.167 -2.224 -9999 -2.22 -2.219 -2.204 -2.134 -2.167 -2.247 -2.244 -9999 -9999 -9999 -9999 -9999 -9999 -2.279 -9999 -9999 -9999 -2.23 -2.217 -2.189 -2.304 -2.294 -2.02 -2.002 1.966 2.043 1.928 -1.715 -1.974 -2.257 -2.284 -2 1.858 -9999 -9999 -9999 1.888 1.843 1.83 -2.25 -2.252 -2.192 -2.152 -1.905 -2.234 -2.229 -1.962 -1.631 -1.345 -1.249 -1.482 -1.681 -1.713 -1.711 -1.733 -1.533 -1.438 -1.395 -1.307 -1.218 -1.131 -1.083 -1.169 -1.119 -0.966 -0.789 -0.543 -0.473 -0.657 -0.858 -1.089 -1.379 -1.653 -1.835 -1.974 -1.971 -1.99 -1.889 -1.681 -1.432 -1.1 -0.852 -0.6 -0.308 -0.027 0.191 0.482 0.799 1.103 1.067 1.03 1.099 1.155 1.229 1.278 1.459 1.546 1.74 1.996 1.833 1.856 1.923 1.858 1.901 1.933 1.821 1.838 1.998 1.868 2.008 1.846 1.806 1.923 1.846
1.271 1.601 1.286 0.906 0.667 0.416 0.235 -0.057 -0.251 -0.513 -0.654 -0.862 -0.927 -0.968 -0.932 -0.849 -0.606 -0.432 -0.599 -0.882 -1.074 -1.292 -1.548 -1.784 -1.813 -1.806 -1.743 -1.428 -1.316 -1.14 -0.782 -0.405 -0.086 -0.48 -0.634 -0.945 -1.164 -1.446 -1.814 -1.851 -1.817 -1.833 -2.159 -1.815 -1.887 -2.204 -2.197 -1.917 -1.588 -1.712 -1.815 -1.837 -1.821 -1.868 -2.167 -2.129 -1.844 -2.202 -2.142 -2.189 -2.222 -2.149 -2.184 -2.287 -2.189 -1.769 -1.67 -1.897 -2.182 -2.089 -1.807 -1.774 -1.863 -1.855 -1.837 -2.189 -2.234 -2.204 -2.124 -2.169 -2.214 -2.154 -2.142 -2.157 -2.244 -2.179 -2.112 -2.179 -2.227 -2.184 -2.202 -2.152 -2.207 -2.167 -2.204 -2.279 -2.224 -2.189 -2.179 -2.132 -2.127 -2.234 -2.097 -2.134 -2.172 -2.184 -2.167 -2.234 -2.104 -2.139 -2.187 -2.182 -2.167 -2.164 -2.132 -2.122 -2.217 -2.177 -2.149 -2.222 -2.132 -2.172 -2.267 -2.152 -2.152 -2.182 -2.222 -2.204 -2.159 -2.144 -2.129 -2.267 -2.152 -2.142 -2.154 -2.164 -2.254 -2.139 -2.174 -2.172 -2.179 -2.162 -2.187 -2.159 -2.172 -2.199 -2.194 -2.167 -2.184 -2.192 -2.169 -2.147 -2.124 -2.149 -2.174 -2.162 -2.169 -2.179 -2.229 -2.232 -2.227 -2.169 -2.142 -2.172 -2.134 -2.209 -2.152 -2.159 -2.247 -2.214 -2.122 -2.142 -2.219 -2.164 -2.157 -2.097 -2.182 -2.192 -2.139 -2.179 -2.172 -2.179 -2.139 -2.222 -2.224 -2.207 -2.184 -2.182 -2.124 -2.117 -2.207 -2.169 -2.164 -2.229 -2.199 -2.174 -2.177 -2.194 -2.192 -2.219 -2.152 -2.194 -2.202 -2.212 -2.182 -2.134 -2.119 -2.237 -2.239 -2.164 -2.169 -2.159 -2.169 -2.167 -2.134 -2.229 -2.204 -2.214 -2.149 -2.167 -2.267 -2.224 -2.202 -2.179 -2.162 -2.194 -2.199 -2.207 -2.137 -2.169 -2.262 -2.187 -2.242 -2.227 -2.162 -2.129 -2.174 -2.187 -2.182 -2.212 -2.192 -2.222 -2.267 -2.267 -2.164 -2.244 -2.209 -2.174 -2.214 -2.209 -2.204 -2.239 -2.214 -2.197 -2.137 -2.187 -2.137 -2.217 -2.262 -2.189 -2.212 -2.177 -2.237 -2.209 -2.179 -2.224 -2.184 -2.204 -2.194 -2.232 -2.214 -2.189 -2.249 -2.197 -2.179 -2.182 -2.217 -2.187 -2.174 -2.174 -2.152 -2.229 -2.159 -2.217 -2.254 -2.219 -2.179 -2.229 -1.991 -1.972 -2.147 -2.234 -2.282 -1.958 -2.137 -2.174 -1.964 -2.264 -2.142 -2.252 -2.279 -2.227 -2.197 -2.197 -2.234 -2.177 -2.202 -2.324 -2.232 -9999 -9999 -2.212 -2.314 -2.179 -2.177 -2.139 -2.222 -2.254 -2.232 -2.182 -2.074 -2.172 -2.209 -2.179 -1.905 -2.142 1.98 -9999 -9999 -2.217 -2.239 -2.229 -2.269 -2.249 -2.367 -9999 -9999 1.826 -1.943 -2.274 -2.262 -2.114 -9999 -9999 -2.217 -2.214 -9999 -9999 -9999 -2.282 -2.209 -2.137 -2.164 -2.267 -9999 -9999 -9999 -9999 -9999 -2.267 -2.287 -1.98 -9999 -9999 -9999 -9999 -9999 -9999 -2.262 -2.292 -1.889 1.868 1.868 1.928 1.871 1.928 -1.867 -1.999 -2.294 -2.344 1.781 -9999 -9999 -2.294 1.963 1.781 -9999 -2.147 -2.184 -2.174 -1.873 -1.909 -2.274 -2.282 -2 -1.635 -1.367 -1.469 -1.635 -1.835 -1.905 -1.946 -1.873 -1.754 -1.494 -1.295 -1.334 -1.371 -1.414 -1.346 -1.344 -1.302 -1.095 -0.934 -0.618 -0.317 -0.473 -0.733 -0.981 -1.213 -1.451 -1.626 -1.709 -1.731 -1.74 -1.631 -1.456 -1.282 -0.995 -0.733 -0.469 -0.193 0.069 0.298 0.595 0.824 1.066 1.287 1.329 1.394 1.402 1.486 1.526 1.676 1.915 1.801 1.901 1.753 1.736 1.871 1.908 1.936 1.953 1.838 1.873 1.856 1.801 1.948 1.798 1.843 1.853 1.818
1.038 1.382 1.377 1.172 0.918 0.714 0.346 0.155 -0.031 -0.303 -0.461 -0.517 -0.556 -0.67 -0.633 -0.521 -0.313 -0.472 -0.802 -1.009 -1.292 -1.543 -1.609 -1.593 -1.517 -1.508 -1.533 -1.227 -1.019 -0.902 -0.644 -0.375 -0.486 -0.599 -0.864 -1.061 -1.274 -1.449 -1.537 -1.607 -1.84 -1.733 -1.85 -1.729 -1.852 -2.232 -2.252 -1.868 -1.574 -1.574 -1.818 -2.114 -2.144 -1.852 -2.167 -2.144 -2.144 -2.179 -1.867 -2.242 -2.172 -2.127 -2.169 -2.239 -2.164 -1.851 -1.686 -1.867 -2.172 -2.149 -1.798 -1.793 -2.169 -2.084 -2.099 -2.227 -2.189 -2.214 -2.192 -2.122 -2.197 -2.149 -2.157 -2.184 -2.184 -2.159 -2.117 -2.217 -2.294 -2.202 -2.177 -2.192 -2.157 -2.172 -2.172 -2.194 -2.134 -2.144 -2.197 -2.169 -2.189 -2.224 -2.144 -2.174 -2.237 -2.199 -2.154 -2.167 -2.124 -2.114 -2.212 -2.184 -2.274 -2.119 -2.154 -2.159 -2.167 -2.192 -2.199 -2.209 -2.142 -2.169 -2.254 -2.187 -2.164 -2.152 -2.209 -2.217 -2.159 -2.152 -2.199 -2.167 -2.169 -2.114 -2.167 -2.189 -2.187 -2.119 -2.169 -2.167 -2.217 -2.174 -2.214 -2.177 -2.147 -2.114 -2.182 -2.189 -2.142 -2.177 -2.202 -2.142 -2.187 -2.154 -2.102 -2.137 -2.179 -2.157 -2.242 -2.217 -2.207 -2.214 -2.109 -2.154 -2.149 -2.252 -2.154 -2.117 -2.137 -2.169 -2.084 -2.162 -2.194 -2.154 -2.114 -2.174 -2.162 -2.134 -2.174 -2.192 -2.212 -2.194 -2.094 -2.182 -2.212 -2.149 -2.164 -2.179 -2.149 -2.154 -2.152 -2.194 -2.194 -2.209 -2.222 -2.182 -2.139 -2.202 -2.167 -2.249 -2.162 -2.207 -2.257 -2.162 -2.089 -2.177 -2.167 -2.184 -2.202 -2.147 -2.142 -2.099 -2.162 -2.257 -2.159 -2.269 -2.192 -2.197 -2.169 -2.122 -2.134 -2.214 -2.232 -2.159 -2.214 -2.264 -2.184 -2.164 -2.147 -2.242 -2.267 -2.254 -2.199 -2.214 -2.254 -2.182 -2.159 -2.204 -2.167 -2.154 -2.202 -2.187 -2.294 -2.217 -2.197 -2.259 -2.204 -2.224 -2.189 -2.182 -2.182 -2.184 -2.254 -2.244 -2.189 -2.252 -2.112 -2.164 -2.239 -2.167 -2.144 -2.164 -2.262 -2.234 -2.234 -2.239 -2.217 -2.247 -2.184 -2.189 -2.197 -2.212 -2.229 -2.202 -2.279 -2.234 -2.234 -2.249 -2.192 -2.182 -2.219 -2.284 -2.214 -2.129 -2.132 -2.182 -2.142 -9999 -1.968 -1.928 -2.149 -2.207 -2.232 -2.302 -1.954 -1.927 -2.262 -2.282 -2.194 -2.209 -2.224 -2.262 -2.197 -2.214 -2.209 -2.212 -2.182 -2.147 -2.087 -2.179 -9999 -2.237 -2.252 -2.182 -2.267 -2.189 -2.239 -2.209 -2.237 -2.202 -2.169 -2.234 -2.287 -2.219 -2.229 -9999 -9999 -1.909 -1.832 -2.219 -2.304 -2.259 -2.209 -1.954 -2.207 -2.249 -9999 1.836 -1.947 -2.337 -2.312 -2.172 -9999 2.056 -9999 -2.259 -2.187 -9999 -2.247 -2.294 -2.292 -2.284 -2.264 -2.279 -2.284 2.11 -9999 -9999 -9999 -9999 -9999 -2.227 -2.177 -2.142 -2.132 -1.944 1.913 -9999 -1.978 -2.028 -1.846 1.893 1.858 1.818 -9999 -9999 -1.978 -1.995 -2.342 -2.379 -9999 -9999 -9999 -2.207 -1.915 -9999 -9999 -1.872 -1.945 -1.855 -1.843 -2.177 -2.314 -2.289 -2.044 -1.72 -1.399 -1.618 -1.802 -1.945 -2.167 -2.239 -1.96 -1.733 -1.513 -1.532 -1.552 -1.637 -1.663 -1.621 -1.56 -1.438 -1.2 -1.001 -0.716 -0.62 -0.487 -0.617 -0.846 -1.013 -1.237 -1.35 -1.384 -1.404 -1.467 -1.332 -1.183 -1.074 -0.839 -0.645 -0.373 -0.145 0.136 0.385 0.6 0.86 1.095 1.363 1.528 1.64 1.677 1.758 1.649 1.751 1.921 1.786 1.801 1.808 1.788 1.823 1.886 1.943 1.701 1.661 1.786 1.788 1.846 1.876 1.918 1.893 1.848 1.811
0.945 1.186 1.395 1.376 1.287 0.855 0.574 0.341 0.213 -0.026 -0.175 -0.242 -0.305 -0.375 -0.357 -0.238 -0.271 -0.59 -0.877 -1.134 -1.435 -1.806 -1.868 -1.837 -1.702 -1.535 -1.407 -1.024 -0.768 -0.574 -0.356 -0.582 -0.788 -0.811 -1.112 -1.27 -1.454 -1.729 -1.831 -1.91 -2.182 -1.822 -1.736 -1.567 -1.826 -2.122 -2.274 -1.87 -1.603 -1.591 -1.864 -2.162 -2.107 -2.099 -2.182 -2.174 -2.122 -2.164 -1.857 -1.9 -2.122 -2.147 -2.139 -2.242 -2.199 -2.147 -1.874 -2.202 -2.152 -2.177 -1.82 -1.815 -2.137 -2.157 -2.062 -2.167 -2.234 -2.212 -2.174 -2.119 -2.162 -2.207 -2.104 -2.177 -2.232 -2.107 -2.157 -2.197 -2.214 -2.184 -2.219 -2.227 -2.219 -2.179 -2.157 -2.164 -2.162 -2.147 -2.159 -2.132 -2.224 -2.174 -2.137 -2.169 -2.172 -2.149 -2.117 -2.129 -2.169 -2.139 -2.124 -2.179 -2.217 -2.149 -2.154 -2.167 -2.182 -2.167 -2.219 -2.209 -2.149 -2.109 -2.152 -2.187 -2.234 -2.164 -2.202 -2.199 -2.192 -2.112 -2.227 -2.209 -2.209 -2.107 -2.149 -2.134 -2.182 -2.149 -2.177 -2.147 -2.192 -2.194 -2.159 -2.207 -2.179 -2.134 -2.189 -2.189 -2.169 -2.219 -2.242 -2.167 -2.182 -2.174 -2.114 -2.102 -2.207 -2.137 -2.222 -2.207 -2.234 -2.179 -2.164 -2.117 -2.239 -2.209 -2.174 -2.162 -2.144 -2.197 -2.104 -2.134 -2.242 -2.177 -2.147 -2.199 -2.164 -2.167 -2.147 -2.234 -2.232 -2.152 -2.149 -2.192 -2.219 -2.157 -2.159 -2.142 -2.169 -2.197 -2.197 -2.152 -2.147 -2.212 -2.222 -2.209 -2.144 -2.157 -2.107 -2.209 -2.167 -2.214 -2.202 -2.087 -2.159 -2.224 -2.172 -2.272 -2.204 -2.087 -2.202 -2.179 -2.139 -2.164 -2.167 -2.184 -2.172 -2.232 -2.187 -2.124 -2.139 -2.249 -2.232 -2.139 -2.144 -2.152 -2.217 -2.262 -2.142 -2.184 -2.207 -2.227 -2.299 -2.202 -2.199 -2.207 -2.164 -2.202 -2.137 -2.202 -2.199 -2.144 -2.162 -2.139 -2.182 -2.237 -2.209 -2.192 -2.202 -2.254 -2.232 -2.242 -2.247 -2.217 -2.242 -2.227 -2.154 -2.172 -2.282 -2.169 -2.157 -2.224 -2.189 -2.197 -2.162 -2.212 -2.157 -2.229 -2.197 -2.219 -2.234 -2.197 -2.189 -2.239 -2.217 -2.174 -2.289 -2.289 -2.137 -2.099 -2.184 -2.249 -2.227 -2.209 -2.242 -2.227 -2.152 -9999 -9999 -2.177 -1.895 -1.917 -2.229 -1.937 -1.834 -1.851 -2.003 -2.267 -1.941 -1.995 -2.157 -2.217 -2.184 -2.214 -2.182 -2.202 -9999 -9999 -9999 -9999 -9999 -9999 -2.23 -2.247 -2.267 -2.164 -2.172 -2.212 -2.232 -2.187 -2.192 -2.194 -2.297 -2.249 -1.997 -9999 -2.192 -1.942 -1.882 -2.242 -2.287 -2.264 -2.184 -2.102 -9999 -9999 -2.194 -2.152 -2.197 -2.337 -2.294 -2.194 1.813 1.881 -9999 -2.202 -2.212 -2.227 -2.187 -2.229 -2.282 -2.347 -2.222 -1.907 -1.983 -1.894 -2.157 -2.187 -9999 -9999 -9999 -9999 -9999 -2.197 -1.956 -2.28 -9999 1.998 1.908 -1.678 -1.882 -1.65 1.911 1.873 -2.087 -1.906 -1.823 1.966 -2.032 -2.045 -2.229 -2.257 -9999 -1.943 -2.209 -9999 1.938 2.073 -1.664 -1.679 -1.799 -1.919 -1.958 -1.925 -1.868 -1.664 -1.409 -1.603 -1.842 -2.189 -2.194 -9999 2.038 2.118 -1.422 -1.578 -1.78 -1.966 -2.01 -1.918 -1.788 -1.528 -1.311 -1.109 -0.972 -0.865 -0.732 -0.564 -0.7 -0.866 -1.03 -1.127 -1.157 -1.114 -1.162 -1.08 -0.952 -0.834 -0.668 -0.468 -0.299 -0.068 0.237 0.39 0.597 0.861 1.141 1.531 1.768 1.838 1.828 1.811 1.818 1.931 1.908 1.741 1.826 1.936 1.926 1.876 1.863 1.866 1.716 1.783 1.873 1.933 1.808 1.876 2.023 1.926 1.813 1.866
0.746 0.935 1.251 1.539 1.367 1.004 0.776 0.626 0.462 0.328 0.072 0.021 -0.06 -0.101 0.012 -0.028 -0.24 -0.644 -0.878 -1.149 -1.486 -1.887 -2.197 -2.152 -1.804 -1.757 -1.536 -1.231 -0.829 -0.501 -0.531 -0.787 -1.044 -1.141 -1.223 -1.445 -1.749 -1.875 -2.144 -2.172 -2.177 -2.107 -1.846 -1.559 -1.682 -1.806 -2.222 -1.899 -1.55 -1.586 -1.92 -2.167 -2.209 -1.841 -1.839 -1.806 -2.159 -2.142 -2.184 -2.149 -2.147 -2.169 -2.124 -2.232 -2.232 -2.137 -1.873 -2.187 -2.182 -1.855 -1.836 -2.194 -2.142 -2.169 -2.127 -2.182 -2.237 -2.209 -2.234 -2.139 -2.119 -2.184 -2.149 -2.149 -2.197 -2.089 -2.112 -2.209 -2.164 -2.182 -2.249 -2.189 -2.212 -2.189 -2.232 -2.172 -2.199 -2.152 -2.164 -2.167 -2.207 -2.144 -2.164 -2.199 -2.227 -2.197 -2.159 -2.117 -2.119 -2.189 -2.109 -2.199 -2.184 -2.124 -2.224 -2.192 -2.184 -2.217 -2.162 -2.149 -2.149 -2.169 -2.122 -2.172 -2.197 -2.132 -2.217 -2.197 -2.187 -2.157 -2.214 -2.117 -2.189 -2.132 -2.117 -2.192 -2.137 -2.187 -2.164 -2.234 -2.177 -2.197 -2.172 -2.199 -2.222 -2.152 -2.139 -2.144 -2.167 -2.189 -2.189 -2.222 -2.134 -2.109 -2.162 -2.199 -2.182 -2.214 -2.199 -2.202 -2.214 -2.172 -2.114 -2.137 -2.254 -2.194 -2.209 -2.197 -2.197 -2.194 -2.122 -2.202 -2.232 -2.117 -2.137 -2.187 -2.169 -2.189 -2.122 -2.249 -2.217 -2.099 -2.122 -2.152 -2.207 -2.184 -2.152 -2.207 -2.137 -2.222 -2.174 -2.172 -2.157 -2.157 -2.189 -2.194 -2.179 -2.187 -2.204 -2.199 -2.167 -2.274 -2.199 -2.132 -2.104 -2.207 -2.189 -2.194 -2.172 -2.152 -2.249 -2.192 -2.322 -2.257 -2.199 -2.107 -2.109 -2.222 -2.244 -2.132 -2.137 -2.174 -2.194 -2.189 -2.169 -2.217 -2.154 -2.209 -2.134 -2.127 -2.182 -2.234 -2.297 -2.217 -2.147 -2.252 -2.199 -2.182 -2.194 -2.244 -2.162 -2.207 -2.202 -2.184 -2.232 -2.227 -2.179 -2.264 -2.219 -2.282 -2.182 -2.212 -2.247 -2.214 -2.157 -2.212 -2.214 -2.164 -2.259 -2.234 -2.162 -2.219 -2.164 -2.204 -2.269 -2.247 -2.167 -2.182 -2.252 -2.307 -2.474 -2.232 -2.152 -2.174 -2.187 -2.194 -2.237 -2.199 -2.187 -2.092 -2.147 -2.232 -2.239 -2.242 -2.237 -2.247 -2.249 -2.16 -2.277 -2.249 -2.192 -2.249 -1.946 -1.839 -1.706 -1.713 -1.884 -1.975 -1.938 -1.986 -2.169 -2.182 -2.199 -2.262 -2.179 -2.219 -9999 -2.192 -2.187 -9999 -9999 -9999 -2.172 -9999 -9999 -2.187 -2.219 -2.234 -2.204 -2.217 -2.259 -2.197 -2.267 -2.207 -2.217 -2.157 -2.204 -2.262 -2.192 -2.202 -2.252 -2.277 -2.229 -9999 -9999 -9999 -2.232 -2.194 -2.232 -2.249 -2.189 -2.229 -9999 -9999 1.996 -9999 -9999 -9999 -2.242 -2 -2.282 -9999 -9999 1.831 1.796 1.853 1.921 2.033 -9999 1.963 -9999 -9999 -9999 2.033 -1.75 -1.934 1.953 1.961 -1.602 -1.41 -1.54 -1.758 -1.958 -2.202 -2.179 -1.997 -1.649 1.803 1.831 -1.779 -1.911 -2.032 -2.024 -2.287 -2.274 -9999 -9999 1.973 -1.69 -1.473 -1.568 -1.602 -1.648 -1.653 -1.598 -1.542 -1.406 -1.645 -1.873 -2.197 -2.194 -9999 2.04 -1.765 -1.421 -1.68 -2.006 -2.327 -2.307 -2.304 -1.889 -1.586 -1.377 -1.389 -1.256 -1.145 -0.918 -0.707 -0.451 -0.592 -0.721 -0.844 -0.862 -0.889 -0.941 -0.856 -0.727 -0.621 -0.481 -0.269 -0.067 0.082 0.32 0.511 0.728 0.977 1.337 1.682 1.807 1.786 1.746 1.838 1.883 1.758 1.826 1.738 1.773 1.833 1.973 1.983 1.928 1.773 1.763 1.898 1.968 1.913 1.753 1.886 1.931 1.866 1.796 1.836
0.531 0.766 1.065 1.393 1.429 1.155 1.051 0.862 0.634 0.566 0.364 0.32 0.198 0.213 0.267 -0.078 -0.353 -0.599 -0.91 -1.128 -1.454 -1.779 -2.217 -2.139 -2.127 -1.829 -1.533 -1.244 -0.866 -0.534 -0.869 -1.065 -1.248 -1.466 -1.559 -1.553 -1.87 -2.167 -2.122 -2.179 -2.124 -2.094 -1.845 -1.532 -1.446 -1.682 -1.897 -1.783 -1.48 -1.568 -1.876 -2.162 -2.197 -1.837 -1.483 -1.808 -2.087 -2.079 -2.119 -2.174 -2.149 -2.142 -2.089 -2.144 -2.172 -2.149 -2.124 -2.182 -2.129 -2.149 -2.117 -2.202 -2.162 -2.192 -2.209 -2.104 -2.139 -2.092 -2.212 -2.147 -2.129 -2.159 -2.154 -2.114 -2.194 -2.197 -2.144 -2.184 -2.184 -2.217 -2.172 -2.139 -2.189 -2.119 -2.164 -2.164 -2.234 -2.227 -2.177 -2.154 -2.199 -2.172 -2.149 -2.149 -2.122 -2.184 -2.242 -2.144 -2.159 -2.167 -2.134 -2.264 -2.207 -2.132 -2.184 -2.187 -2.119 -2.194 -2.194 -2.149 -2.182 -2.137 -2.102 -2.172 -2.247 -2.144 -2.219 -2.194 -2.209 -2.224 -2.179 -2.127 -2.222 -2.162 -2.139 -2.237 -2.142 -2.127 -2.219 -2.212 -2.194 -2.182 -2.172 -2.139 -2.162 -2.154 -2.137 -2.197 -2.217 -2.179 -2.164 -2.159 -2.184 -2.147 -2.269 -2.237 -2.162 -2.222 -2.229 -2.162 -2.194 -2.264 -2.159 -2.154 -2.237 -2.149 -2.117 -2.219 -2.257 -2.182 -2.147 -2.259 -2.167 -2.127 -2.132 -2.104 -2.204 -2.144 -2.114 -2.214 -2.224 -2.134 -2.132 -2.079 -2.207 -2.247 -2.159 -2.157 -2.179 -2.204 -2.144 -2.159 -2.207 -2.152 -2.147 -2.247 -2.192 -2.122 -2.137 -2.192 -2.207 -2.202 -2.282 -2.174 -2.137 -2.129 -2.227 -2.134 -2.174 -2.169 -2.224 -2.167 -2.314 -2.174 -2.209 -2.132 -2.117 -2.219 -2.267 -2.159 -2.107 -2.187 -2.234 -2.209 -2.212 -2.182 -2.199 -2.174 -2.164 -2.174 -2.169 -2.202 -2.162 -2.184 -2.157 -2.237 -2.159 -2.152 -2.209 -2.272 -2.202 -2.207 -2.237 -2.167 -2.179 -2.292 -2.164 -2.247 -2.259 -2.264 -2.192 -2.247 -2.212 -2.227 -2.219 -2.217 -2.212 -2.209 -2.189 -2.289 -2.199 -2.229 -2.167 -2.142 -2.224 -2.232 -2.182 -2.162 -2.239 -2.252 -2.269 -2.187 -2.139 -2.202 -2.209 -2.274 -2.209 -2.199 -2.199 -2.162 -2.167 -2.212 -2.234 -2.219 -2.234 -2.262 -2.227 -2.137 -2.292 -2.284 -2.269 -2.194 -2.132 -1.931 -1.942 -1.944 -1.985 -1.975 -2.189 -2.189 -2.227 -1.963 -2.264 -2.254 -2.139 -1.978 -2.262 -2.267 -2.269 -9999 -9999 -9999 -2.224 -9999 -2.197 -2.227 -2.202 -2.167 -2.134 -2.252 -2.297 -2.277 -2.244 -2.212 -2.167 -9999 -9999 -2.028 -2.234 -2.267 -2.292 -2.289 -2.289 -2.192 -2.177 -9999 -2.219 -2.224 -2.259 -2.257 -2.252 -2.227 -9999 -9999 -9999 -9999 -9999 -9999 1.893 -2.247 -2.244 -9999 -9999 1.776 1.751 1.833 1.836 -9999 -9999 -9999 -9999 -9999 -9999 1.983 -1.621 -1.674 -1.656 -1.613 -1.476 -1.217 -1.409 -1.746 -2.018 -2.234 -2.257 -2.033 -1.96 1.756 1.848 -1.97 -2.023 -2.232 -2.307 -2.307 -9999 -9999 1.83 1.836 -1.625 -1.365 -1.355 -1.329 -1.323 -1.434 -1.336 -1.286 -1.42 -1.642 -1.825 -1.938 -1.961 1.853 -1.801 -1.702 -1.417 -1.696 -1.954 -2.057 -2.277 -2.264 -1.931 -1.608 -1.662 -1.618 -1.455 -1.222 -1.128 -0.899 -0.632 -0.366 -0.461 -0.571 -0.643 -0.66 -0.567 -0.55 -0.479 -0.438 -0.297 -0.153 0.023 0.263 0.575 0.782 0.957 1.271 1.543 1.656 1.768 1.838 1.806 1.941 1.821 1.798 1.808 1.846 1.816 1.848 1.803 1.851 1.778 1.766 1.843 1.936 1.908 1.773 1.788 1.916 1.863 1.836 1.746 1.846
0.379 0.644 2.306 2.351 1.38 1.199 0.981 0.942 0.863 0.798 0.699 0.527 0.535 0.548 0.335 0.064 -0.223 -0.652 -0.94 -1.157 -1.446 -1.69 -1.914 -1.836 -1.828 -1.659 -1.484 -1.155 -0.911 -0.726 -1.102 -1.322 -1.533 -1.747 -1.893 -1.825 -1.837 -2.147 -2.139 -2.177 -2.209 -1.835 -1.722 -1.451 -1.195 -1.439 -1.514 -1.563 -1.442 -1.429 -1.729 -1.887 -1.86 -1.678 -1.526 -1.899 -2.157 -2.197 -2.152 -2.124 -2.174 -2.147 -2.107 -2.099 -2.169 -2.159 -2.107 -2.124 -2.179 -2.199 -2.134 -2.127 -2.149 -2.144 -2.212 -2.134 -2.172 -2.144 -2.179 -2.154 -2.077 -2.129 -2.159 -2.117 -2.127 -2.199 -2.122 -2.147 -2.162 -2.217 -2.199 -2.147 -2.167 -2.162 -2.202 -2.224 -2.254 -2.197 -2.174 -2.097 -2.117 -2.307 -2.192 -2.139 -2.102 -2.204 -2.189 -2.154 -2.207 -2.147 -2.187 -2.154 -2.232 -2.164 -2.179 -2.184 -2.134 -2.184 -2.172 -2.114 -2.197 -2.174 -2.104 -2.182 -2.189 -2.172 -2.194 -2.164 -2.222 -2.234 -2.199 -2.117 -2.214 -2.167 -2.202 -2.184 -2.137 -2.144 -2.309 -2.209 -2.177 -2.252 -2.189 -2.152 -2.204 -2.167 -2.172 -2.217 -2.222 -2.194 -2.102 -2.222 -2.242 -2.147 -2.192 -2.222 -2.169 -2.122 -2.182 -2.199 -2.152 -2.172 -2.139 -2.142 -2.194 -2.214 -2.067 -2.219 -2.254 -2.177 -2.119 -2.242 -2.192 -2.152 -2.144 -2.182 -2.224 -2.129 -2.134 -2.167 -2.167 -2.169 -2.152 -2.112 -2.209 -2.262 -2.154 -2.117 -2.194 -2.202 -2.202 -2.202 -2.199 -2.202 -2.137 -2.219 -2.257 -2.142 -2.197 -2.217 -2.189 -2.182 -2.279 -2.209 -2.149 -2.179 -2.182 -2.117 -2.142 -2.192 -2.202 -2.174 -2.149 -2.172 -2.204 -2.172 -2.069 -2.112 -2.269 -2.194 -2.117 -2.234 -2.229 -2.192 -2.254 -2.247 -2.224 -2.184 -2.154 -2.254 -2.187 -2.284 -2.157 -2.217 -2.214 -2.207 -2.159 -2.154 -2.119 -2.262 -2.192 -2.222 -2.202 -2.127 -2.154 -2.199 -2.227 -2.162 -2.227 -2.192 -2.234 -2.232 -2.202 -2.172 -2.264 -2.179 -2.179 -2.157 -2.227 -2.207 -2.182 -2.284 -2.202 -2.107 -2.132 -2.119 -2.139 -2.137 -2.192 -2.242 -2.262 -2.227 -2.072 -2.162 -2.214 -2.212 -2.182 -2.219 -2.132 -2.214 -2.162 -9999 -9999 -2.277 -2.209 -2.209 -2.219 -2.174 -2.282 -2.269 -2.177 -2.157 -2.207 -2.154 -9999 -2.189 -2.274 -2.204 -2.179 -2.197 -2.209 -1.974 -1.988 -2.204 -2.167 -1.948 -1.86 -2.242 -2.267 -2.219 -9999 -2.277 -2.219 -2.184 -1.958 -1.981 -2.229 -2.162 -2.107 -2.217 -2.309 -1.988 -2.232 -2.172 1.683 -9999 -9999 -2.252 -2.194 -2.239 -2.287 -2.297 -2.242 -2.182 -2.197 -2.244 -2.177 -2.182 -2.252 -2.292 -1.967 -9999 -9999 -9999 -9999 -2.25 -9999 -9999 -2.257 -2.242 -2.192 -2.259 -2.021 -2.207 -2.217 1.84 1.876 -9999 -9999 -9999 -9999 -9999 -9999 2.023 1.883 -1.587 -1.349 -1.316 -1.436 -1.391 -1.418 -1.665 -1.857 -1.916 -1.926 -2.013 -2.232 -1.947 -1.991 -2.297 -2.289 -2.202 -2.292 -2.279 -9999 -9999 1.738 1.783 -1.486 -1.182 -1.155 -1.101 -1.076 -1.125 -1.132 -1.138 -1.294 -1.567 -1.636 -1.664 -1.672 -1.653 -1.6 -1.666 -1.512 -1.486 -1.763 -2.015 -2.257 -2.004 -1.905 -1.791 -1.963 -1.865 -1.572 -1.48 -1.294 -1.04 -0.746 -0.478 -0.21 -0.307 -0.323 -0.3 -0.279 -0.268 -0.27 -0.221 -0.055 0.102 0.228 0.427 0.657 0.925 1.108 1.304 1.549 1.757 1.781 1.778 1.828 1.898 1.886 1.736 1.896 1.951 1.886 1.823 1.871 1.866 1.778 1.773 1.843 1.931 1.886 1.803 1.971 1.968 1.901 1.843 1.791 1.871
0.275 0.527 2.311 2.361 1.089 0.895 0.737 0.676 0.6 0.537 0.543 0.491 0.525 0.629 0.407 0.096 -0.184 -0.611 -0.872 -1.111 -1.294 -1.423 -1.557 -1.528 -1.536 -1.469 -1.283 -1.024 -0.934 -0.868 -1.222 -1.456 -1.71 -1.861 -2.137 -2.179 -1.834 -1.808 -1.85 -1.867 -1.864 -1.735 -1.419 -1.207 -1.371 -1.705 -1.811 -1.846 -1.732 -1.419 -1.464 -1.612 -1.618 -1.481 -1.472 -1.763 -1.836 -2.179 -1.79 -2.164 -2.174 -2.207 -2.097 -2.159 -2.134 -2.199 -2.097 -2.084 -2.114 -2.139 -2.169 -2.129 -2.079 -2.124 -2.222 -2.122 -2.152 -2.177 -2.264 -2.184 -2.117 -2.144 -2.149 -2.174 -2.144 -2.152 -2.109 -2.144 -2.134 -2.147 -2.167 -2.194 -2.219 -2.157 -2.159 -2.229 -2.204 -2.249 -2.169 -2.154 -2.159 -2.267 -2.222 -2.144 -2.189 -2.227 -2.169 -2.209 -2.177 -2.182 -2.157 -2.194 -2.207 -2.167 -2.122 -2.177 -2.154 -2.192 -2.202 -2.244 -2.194 -2.149 -2.152 -2.132 -2.207 -2.197 -2.179 -2.164 -2.249 -2.179 -2.224 -2.137 -2.159 -2.152 -2.179 -2.237 -2.119 -2.137 -2.197 -2.242 -2.217 -2.197 -2.164 -2.142 -2.174 -2.122 -2.194 -2.212 -2.222 -2.164 -2.132 -2.219 -2.217 -2.152 -2.152 -2.232 -2.199 -2.052 -2.179 -2.242 -2.147 -2.142 -2.154 -2.137 -2.189 -2.192 -2.089 -2.187 -2.252 -2.179 -2.102 -2.174 -2.177 -2.157 -2.169 -2.244 -2.199 -2.084 -2.104 -2.124 -2.152 -2.212 -2.159 -2.162 -2.137 -2.189 -2.144 -2.132 -2.159 -2.204 -2.199 -2.187 -2.174 -2.199 -2.154 -2.162 -2.227 -2.157 -2.212 -2.237 -2.152 -2.219 -2.257 -2.184 -2.129 -2.184 -2.189 -2.149 -2.182 -2.249 -2.237 -2.154 -2.177 -2.152 -2.127 -2.192 -2.139 -2.199 -2.202 -2.169 -2.189 -2.252 -2.242 -2.202 -2.192 -2.219 -2.192 -2.177 -2.184 -2.222 -2.157 -2.212 -2.144 -2.209 -2.242 -2.199 -2.167 -2.174 -2.134 -2.154 -2.149 -2.259 -2.244 -2.189 -2.229 -2.162 -2.167 -2.224 -2.214 -2.172 -2.184 -2.189 -2.202 -2.204 -2.234 -2.252 -2.172 -2.229 -2.297 -2.299 -2.164 -2.239 -2.187 -2.077 -2.122 -2.154 -2.187 -2.189 -2.222 -2.244 -2.282 -2.212 -2.169 -2.192 -2.204 -2.167 -2.204 -2.207 -2.129 -2.187 -2.199 -9999 -9999 -2.287 -2.269 -2.197 -2.209 -2.174 -2.187 -2.239 -2.182 -2.184 -2.179 -9999 -9999 -9999 -2.192 -2.169 -2.147 -2.144 -1.894 -1.838 -1.864 -1.947 -1.903 -1.746 -1.822 -2.182 -2.207 -2.189 -2.302 -2.312 -2.264 -2.099 -2.174 -2.254 -1.996 -2.147 -2.082 -2.227 -1.949 -2.242 -2.229 -2.192 -2.127 1.983 -9999 -2.272 -2.217 -2.202 -1.939 -2.219 -2.164 -2.167 -2.222 -2.247 -2.217 -2.187 -2.212 -2.214 -1.968 -2.277 -9999 -9999 -2.177 -2.237 -2.262 -2.212 -2.229 -2.252 -2.179 -1.964 -2.259 -9999 -9999 1.918 1.923 1.861 1.818 1.793 -9999 -9999 -9999 -9999 1.908 -1.628 -1.405 1.868 1.938 1.978 -1.385 -1.485 -1.588 -1.663 -1.703 -2.008 -2.207 -2.234 -2.001 -2.267 -2.232 -2.247 -2.249 -1.919 -2.204 -2.182 -2.028 -1.774 -1.489 -1.388 -1.423 -1.395 -1.356 -1.378 -1.462 1.993 1.973 -1.304 -1.445 -1.413 -1.631 -1.83 -1.836 -1.867 -1.641 -1.423 -1.675 -1.88 -1.974 -1.91 -1.936 -1.997 -2.239 -1.979 -1.791 -1.62 -1.402 -1.12 -0.822 1.931 -0.355 -0.123 -0.011 -0.029 -0.055 -0.063 -0.013 0.073 0.112 0.328 0.491 0.67 0.808 0.968 1.237 1.446 1.657 1.913 1.843 1.791 1.881 1.901 1.918 1.858 1.951 1.968 1.986 1.811 1.936 1.946 1.836 1.741 1.846 1.891 1.878 1.833 1.818 1.998 1.988 1.856 1.943 1.933
