ncols 438
nrows 31
xllcorner    456008
yllcorner    89224
cellsize     2
NODATA_value -9999
20.781 18.736 18.664 19.594 18.581 18.716 18.941 18.956 19.161 27.854 32.679 30.359 22.981 19.194 19.099 19.394 19.921 20.144 20.056 20.186 20.216 20.274 20.306 20.314 20.111 20.229 20.524 20.626 20.519 20.704 20.771 21.026 21.149 21.316 21.319 21.251 21.299 21.349 21.401 21.426 24.034 27.141 21.556 21.574 21.616 21.741 22.022 23.119 22.449 21.929 21.939 22.019 25.009 26.799 26.514 25.694 22.949 22.494 22.579 22.567 22.489 22.424 22.269 22.149 22.147 22.219 22.119 22.117 22.169 22.262 22.392 25.287 22.777 22.877 22.824 22.757 22.699 22.634 22.529 22.739 23.072 23.239 23.387 24.257 23.417 23.542 23.602 25.814 23.657 23.819 23.992 24.032 23.954 24.369 25.584 24.802 24.227 24.529 25.909 24.402 24.379 24.454 24.587 25.824 25.734 24.977 24.947 24.962 25.047 25.044 25.044 25.137 25.184 25.304 25.362 25.454 25.544 25.564 25.647 25.774 25.814 25.904 25.954 26.039 26.127 26.187 26.284 26.349 26.362 26.452 26.522 26.622 26.739 26.779 26.797 26.874 27.012 26.979 27.027 27.122 27.239 27.347 27.407 27.377 27.302 27.504 27.444 27.494 27.549 27.614 27.587 27.649 27.712 27.732 27.734 27.769 27.797 27.812 27.822 27.799 27.857 27.867 27.909 27.929 27.939 27.982 27.967 27.909 27.937 27.884 27.847 27.807 27.764 27.804 27.787 27.744 28.037 29.544 29.179 29.737 28.289 27.694 30.472 27.637 29.254 30.559 29.464 32.064 28.172 28.157 32.952 37.852 32.799 29.209 30.574 30.934 30.032 27.412 29.432 26.939 27.699 27.869 26.774 26.864 27.744 26.484 26.479 27.264 31.874 32.484 26.749 25.969 27.349 31.722 38.667 36.454 29.964 26.377 26.494 25.692 26.454 28.474 27.947 34.644 40.394 37.574 44.832 40.712 37.282 40.189 34.542 31.282 27.964 31.409 31.327 27.284 26.782 30.277 37.369 32.122 25.714 27.179 28.082 26.222 26.067 25.954 25.949 25.954 26.002 26.039 26.084 28.492 31.247 30.184 26.174 26.129 26.147 26.132 26.154 26.232 26.989 26.179 26.149 26.157 26.299 26.287 26.299 32.029 30.244 26.164 26.137 26.144 26.234 26.227 26.337 26.434 26.407 26.342 26.359 26.434 29.354 30.607 36.832 35.779 30.369 27.479 27.139 35.624 28.064 29.049 32.002 26.824 26.457 26.432 26.442 26.654 35.447 27.47 26.585 26.577 26.59 31.252 34.955 39.122 38.16 26.577 26.587 26.512 26.452 26.515 26.48 26.425 26.432 26.415 26.357 26.382 26.395 36.152 35.762 26.515 26.227 26.295 26.367 26.33 26.26 26.22 26.227 26.215 26.187 26.157 26.17 26.21 26.345 26.397 26.37 26.307 26.295 26.267 26.237 26.212 26.147 26.082 26.15 26.142 26.18 26.142 26.195 26.127 26.08 26.117 26.077 26.055 26.05 26.12 26.15 26.187 26.185 26.14 31.37 28.52 26.07 26.035 27.45 27.127 26.11 27.642 25.992 25.96 27.952 31.89 34.92 37.705 34.43 35.442 29.372 25.947 25.895 26.325 26.677 27.585 27.435 26.097 25.695 25.615 25.592 25.507 25.415 25.395 28.325 28.342 24.85 24.955 25.005 24.992 24.89 24.822 24.747 24.75 24.745 24.757 24.842 24.962 25.082 27.527 37.927 26.7 25.272 24.86 24.505 26.097 35.975 32.03 24.627 24.492 24.447 24.335 24.717 24.162 24.125 24.67 27.02 23.982 24.105 29.235 24.125 23.85 23.782 23.682 23.5 23.487 23.44 23.387 23.327 27.17 23.222 23.217 29.422 35.07
19.021 18.556 18.761 18.916 19.034 19.196 19.261 19.276 19.266 23.494 27.094 22.409 19.664 19.421 19.269 19.569 19.879 20.004 20.201 20.389 20.169 20.161 20.274 20.301 20.314 20.416 20.561 20.649 20.716 20.704 20.774 20.949 21.161 21.324 21.389 21.396 21.456 21.406 21.434 21.586 21.559 21.674 21.619 21.674 21.689 21.794 21.879 21.942 22.089 22.239 22.354 22.394 22.407 23.302 26.999 26.744 26.702 26.789 23.174 24.949 24.012 22.084 22.144 22.047 22.052 22.177 22.062 22.119 22.174 22.259 27.234 26.747 23.987 22.854 22.762 22.874 22.717 22.727 22.652 22.759 26.284 24.794 23.349 23.459 23.479 23.549 23.727 24.674 25.524 23.704 23.827 24.014 24.007 23.977 24.514 25.994 24.392 24.617 28.364 26.119 24.359 24.462 24.647 24.804 25.132 25.264 24.959 24.932 25.049 25.059 25.129 25.179 25.244 25.399 25.447 25.512 25.627 25.647 25.722 25.844 25.909 25.959 26.029 26.107 26.169 26.244 26.479 26.482 26.429 26.477 26.592 26.664 26.744 26.849 26.914 27.029 26.999 27.047 27.092 27.149 27.257 27.334 27.427 27.454 27.369 27.479 27.564 27.599 27.679 27.712 27.687 27.694 27.809 27.809 27.792 27.844 27.869 27.867 27.852 27.869 27.892 27.889 27.979 27.959 27.997 28.052 28.022 27.997 27.964 27.909 27.867 27.874 27.812 27.834 27.859 27.762 28.142 29.982 29.254 28.907 28.182 30.527 31.017 28.177 28.639 27.994 27.894 27.532 32.144 31.689 31.379 28.009 31.147 33.362 30.664 27.142 28.147 26.922 26.864 31.062 27.112 30.459 28.632 31.734 28.814 26.512 26.474 27.699 35.074 32.819 28.997 33.907 26.617 29.934 33.022 29.784 26.654 27.034 26.659 25.662 25.352 25.432 28.049 32.754 38.894 43.362 41.729 40.854 41.924 37.799 36.359 35.447 25.884 31.129 28.089 25.919 31.407 30.847 29.127 33.477 25.762 25.857 26.114 26.224 26.119 25.999 26.122 26.624 26.239 26.652 26.307 28.539 31.154 26.407 26.357 26.324 26.399 26.299 26.177 26.262 26.337 26.307 26.319 27.104 27.172 26.467 26.397 26.542 26.227 26.229 26.192 30.984 26.319 26.417 27.377 26.509 26.439 26.459 26.472 26.384 26.447 26.427 28.304 27.347 26.494 27.052 27.249 31.934 35.494 26.554 28.469 26.542 31.182 27.969 26.524 26.592 26.692 26.642 26.622 26.61 26.607 26.595 35.56 35.687 34.622 26.587 26.54 26.557 26.525 26.587 26.622 26.677 26.732 26.627 26.53 26.53 26.527 29.932 26.925 26.36 26.365 31.165 29.83 30.622 26.355 26.457 26.502 26.495 26.277 26.265 26.21 26.275 26.34 26.41 26.407 26.417 26.352 26.365 26.365 26.347 26.277 26.29 26.27 26.275 26.235 26.207 26.29 26.365 26.18 26.295 26.19 26.235 26.257 26.32 26.345 26.325 26.27 26.972 31.147 26.895 26.135 26.112 27.13 30.812 27.652 26.145 26.04 30.765 36.65 30.125 28.732 29.592 26.732 28.007 26.585 27.165 26.577 26.89 27.63 28.425 29.712 26.01 25.795 25.772 25.75 25.602 26.47 34.36 33.14 25.23 24.982 24.847 24.835 24.917 25.022 25.025 24.932 24.772 24.71 24.72 24.677 24.72 24.842 25.037 27.177 25.44 25.987 24.797 24.707 25.68 35.942 27.077 24.675 24.602 24.477 24.457 24.292 24.772 24.172 24.115 24.1 29.987 27.672 24.02 24.022 23.892 23.745 23.672 23.525 23.502 23.48 23.447 23.345 23.277 25.275 27.11 25.612 33.652
18.451 18.726 19.226 19.319 19.181 19.371 19.501 19.506 20.001 19.739 19.716 19.984 19.941 19.591 19.484 19.594 19.781 19.976 20.094 20.319 20.191 20.246 20.236 20.301 20.496 20.579 20.804 20.864 20.944 20.954 21.039 21.096 21.224 21.476 21.386 21.496 21.589 21.536 21.551 22.939 23.876 21.876 21.909 21.994 22.016 22.139 22.109 22.119 22.264 23.907 23.879 22.882 22.002 22.762 27.512 27.977 24.297 27.534 24.694 27.957 22.347 22.267 22.239 22.147 22.134 22.132 23.412 22.202 22.162 22.249 23.804 28.374 25.512 22.769 22.824 22.782 22.794 22.852 22.962 22.837 22.974 26.274 23.382 23.422 23.587 23.679 23.804 24.354 23.772 23.864 28.487 26.489 23.977 24.049 24.079 24.172 24.272 26.632 28.232 24.419 24.449 24.514 24.587 24.879 25.917 25.187 24.997 24.967 25.062 25.152 25.162 25.212 25.324 25.447 25.522 25.672 25.679 25.719 25.804 25.887 25.982 26.027 26.104 26.202 26.244 26.317 26.529 26.489 26.507 26.509 26.644 26.744 26.847 26.919 26.954 27.049 27.114 27.137 27.157 27.149 27.352 27.352 27.354 27.372 27.469 27.524 27.609 27.664 27.702 27.759 27.742 27.744 27.784 27.827 27.859 27.897 27.937 27.969 27.959 27.909 27.982 27.952 27.982 27.989 27.992 28.034 28.067 28.067 28.072 27.954 27.897 27.862 27.864 27.847 27.852 27.817 28.017 29.882 29.632 27.782 27.949 28.079 27.704 27.727 27.697 27.569 27.599 28.302 32.574 30.967 28.209 28.129 27.567 28.039 32.022 28.447 27.794 27.152 35.804 35.464 30.417 36.072 36.312 33.487 27.792 26.554 26.639 30.862 34.254 29.544 29.704 28.617 30.964 32.107 27.867 28.014 26.369 26.314 25.714 25.459 25.504 25.419 25.637 28.092 29.829 35.964 38.262 42.507 41.464 43.949 38.259 34.819 31.119 34.294 32.587 31.012 33.792 29.154 29.184 26.919 25.834 25.874 26.189 26.102 26.089 26.147 26.207 26.174 26.269 26.304 26.367 26.399 26.442 26.439 26.444 26.379 26.407 26.377 26.334 26.412 26.772 26.419 28.614 31.929 28.357 27.109 26.454 26.574 26.374 26.459 27.734 26.447 26.414 26.444 26.549 26.529 26.542 26.569 26.567 26.529 27.119 26.522 27.422 27.939 26.562 30.352 34.024 26.894 26.539 26.572 30.602 35.882 38.384 34.704 26.577 26.612 26.71 26.652 26.677 26.682 26.697 26.62 28.02 33.562 27.805 26.677 26.71 26.682 26.9 26.712 26.682 26.617 26.612 27.137 26.592 26.545 26.51 26.51 26.712 26.357 28.69 37.415 39.752 30.815 26.482 26.512 26.587 26.557 26.415 26.49 26.455 26.42 26.455 26.477 26.43 26.432 26.392 26.465 26.44 26.452 26.352 26.372 26.385 26.365 26.292 26.337 26.31 26.342 26.327 26.382 26.447 26.46 26.41 26.452 26.327 26.787 26.442 29.615 31.692 26.387 26.205 26.27 27.615 27.27 26.537 26.15 26.702 31.875 36.082 30.872 29.615 26.51 26.492 26.977 27.407 26.36 26.725 28.075 44.31 42.395 34.645 27.405 25.835 25.792 25.792 25.835 25.712 30.762 26.89 25.737 26.56 25.45 25.082 24.852 24.807 24.92 25.012 24.99 24.987 24.787 24.672 24.665 24.63 24.572 24.735 25.087 25.192 24.677 24.965 24.89 24.87 24.832 24.73 24.632 24.58 24.532 28.432 28.507 30.627 24.292 24.197 29.122 30.032 24.14 24.132 24.142 23.832 23.727 23.545 23.527 23.647 23.45 23.667 23.522 31.535 41.512 38.16 37.52
18.841 18.679 18.891 19.141 19.279 19.456 19.639 19.711 19.816 19.789 19.799 19.864 19.921 19.844 19.734 19.879 19.974 20.049 20.614 27.314 20.249 20.349 20.389 20.429 20.629 20.666 20.834 21.101 21.124 21.234 21.281 21.239 21.484 21.741 23.389 23.914 21.821 21.874 22.116 27.146 25.394 22.084 21.831 21.579 21.989 21.664 21.774 21.817 22.069 23.352 23.637 22.379 22.759 22.819 22.519 22.387 24.082 27.297 23.089 24.994 22.389 22.404 22.302 22.279 22.239 22.204 27.119 22.814 22.284 24.702 24.564 22.514 22.637 22.674 22.832 22.819 22.822 22.882 22.969 22.922 22.984 23.132 23.344 23.472 23.819 23.684 23.682 24.669 23.759 24.067 27.837 24.002 24.094 24.217 24.194 24.189 24.324 27.752 30.792 25.297 26.107 24.612 24.779 24.927 25.127 25.094 24.974 25.029 25.179 25.217 25.247 25.304 25.379 25.557 25.612 25.664 25.742 25.807 25.884 25.977 26.047 26.154 26.189 26.244 26.332 26.399 26.559 26.509 26.587 26.629 26.662 26.787 26.877 26.999 27.032 27.037 27.167 27.227 27.322 27.199 27.307 27.319 27.384 27.437 27.607 27.632 27.689 27.694 27.787 27.794 27.797 27.844 27.877 27.967 27.944 27.992 28.024 28.044 27.992 28.009 28.029 27.987 28.009 28.029 28.022 28.064 28.092 28.107 28.094 28.039 27.899 27.969 27.874 27.907 27.904 27.872 28.002 29.177 28.122 27.887 27.592 27.824 27.764 27.724 27.667 27.569 27.887 27.614 27.492 27.497 27.529 27.479 27.432 29.137 29.019 27.217 27.757 27.464 31.667 28.902 28.819 28.877 27.889 28.692 27.067 26.772 26.477 27.177 29.972 35.979 30.339 26.359 30.952 28.242 28.247 34.254 29.037 25.897 25.729 25.577 25.532 25.467 25.329 31.619 37.502 40.547 40.267 43.972 42.614 39.752 38.504 31.212 25.974 25.982 28.784 28.019 27.389 25.832 26.914 26.337 25.954 25.959 26.339 26.044 26.077 26.287 26.239 26.329 26.364 26.467 26.412 26.447 26.444 26.504 26.409 32.539 28.487 26.467 26.372 26.424 26.419 26.474 26.474 27.437 27.752 26.457 26.527 26.462 26.499 26.497 26.434 26.574 26.729 26.624 26.659 29.342 26.657 26.714 26.739 26.649 26.632 26.589 26.604 32.369 38.504 34.677 32.177 26.717 28.637 27.542 26.639 32.827 34.014 33.119 26.682 26.702 26.737 26.727 26.812 26.86 26.792 26.752 26.78 26.86 26.852 26.937 26.832 26.755 26.8 26.785 26.787 26.725 26.677 26.647 26.68 26.67 26.642 26.627 26.617 26.527 31.332 39.427 32.09 26.582 26.592 26.61 26.64 26.715 26.562 26.562 26.635 26.54 26.527 26.53 26.522 26.542 26.552 26.497 26.447 26.41 26.382 26.415 26.41 26.442 26.367 26.37 28.355 26.965 26.385 26.495 26.415 26.372 26.397 26.362 26.305 26.342 27.422 36.12 35.62 26.475 26.31 27.287 28.002 26.345 26.352 26.235 26.97 34.165 38.607 31.01 33.41 27.77 26.125 26.462 27.307 26.545 26.205 40.277 44.227 42.992 36.22 32.3 29.315 27.04 26.24 25.787 27.452 25.815 27.905 26.107 32.09 28.927 25.58 25.36 25.125 24.89 24.775 24.912 24.972 25.01 24.987 24.817 24.65 24.582 24.515 24.547 24.672 24.505 25.175 24.967 25.04 25.282 25.03 24.74 24.637 24.535 24.45 31.625 38.715 24.475 24.242 24.152 24.17 24.075 24.395 24.237 23.962 23.86 23.595 23.547 24.145 35.312 32.012 23.552 24.802 26.277 37.742 40.447
19.234 19.116 18.949 19.011 19.386 19.624 19.689 19.746 19.791 19.894 19.919 19.991 20.046 20.039 19.999 20.061 20.249 20.261 21.354 25.599 21.911 20.516 20.534 20.724 20.724 20.826 21.009 21.309 21.464 21.516 21.579 21.519 21.606 21.519 22.049 21.729 21.441 21.404 21.496 23.671 21.594 21.811 21.834 21.944 22.024 22.054 22.122 22.239 22.357 22.932 24.689 22.407 23.654 26.859 24.429 22.482 23.814 22.594 29.217 25.112 22.492 22.452 22.377 22.339 22.279 22.394 22.529 22.362 22.344 22.392 22.452 23.392 22.699 22.844 22.989 22.969 26.042 25.112 23.202 23.039 22.854 23.112 24.382 23.442 23.612 23.782 27.104 24.982 28.259 26.499 23.984 24.182 24.249 24.267 24.247 24.207 28.332 25.062 27.244 24.467 24.582 26.452 29.102 26.617 26.192 25.179 25.044 25.134 25.262 25.287 25.314 25.389 25.482 25.632 25.752 25.887 25.889 25.914 25.989 26.089 26.152 26.212 26.282 26.364 26.439 26.584 26.677 26.597 26.652 26.752 26.739 26.817 26.929 27.084 27.094 27.087 27.172 27.279 27.254 27.279 27.334 27.354 27.429 27.482 27.604 27.679 27.742 27.752 27.834 27.839 27.827 27.867 27.949 27.992 28.019 28.092 28.117 28.144 28.084 28.087 28.084 28.082 28.082 28.102 28.092 28.077 28.079 28.082 28.077 28.062 27.989 27.924 27.944 27.934 27.912 27.917 28.124 29.314 28.624 29.819 30.034 29.284 31.914 31.129 30.137 27.759 27.787 27.519 31.722 27.522 27.437 27.464 27.387 27.272 27.442 27.904 27.439 27.659 27.037 26.939 26.814 26.754 26.742 26.669 26.627 26.607 26.504 26.442 26.307 26.314 26.112 26.564 26.112 25.994 27.009 32.077 26.412 26.462 25.602 25.652 25.494 25.509 25.509 35.974 27.904 35.009 37.007 41.132 43.529 37.974 31.177 28.774 26.569 25.674 33.019 28.772 28.462 27.884 26.497 26.607 25.882 25.947 26.399 26.232 26.107 26.227 26.292 26.399 26.457 26.477 26.484 26.532 26.632 26.589 29.057 34.217 29.262 26.574 26.504 27.012 26.504 35.504 34.834 26.529 26.539 27.159 36.109 27.417 26.522 26.517 26.629 26.677 26.672 27.602 37.382 34.682 31.082 26.852 26.837 26.754 26.722 26.682 26.672 31.109 34.972 26.889 26.742 26.852 28.882 35.897 31.289 26.887 29.574 26.842 26.887 26.899 34.895 27.527 26.972 27.027 26.925 26.917 26.88 26.892 26.882 26.892 26.942 26.872 26.825 26.872 26.815 26.887 26.782 26.99 27.025 26.782 26.745 26.74 26.627 26.695 26.662 27.66 29.43 26.69 26.675 28.06 26.662 26.685 26.675 26.657 26.605 26.637 26.67 26.68 26.66 26.745 26.652 26.57 26.592 26.635 26.51 26.48 26.517 26.442 26.422 26.42 26.415 26.485 26.43 26.49 26.552 26.545 26.687 26.607 26.555 26.46 26.49 26.472 26.46 26.542 26.38 26.477 26.645 26.497 26.455 26.355 26.732 38.337 38.477 34.945 31.462 28.132 27.27 26.357 26.09 26.252 26.015 32.425 35.752 35.125 34.672 31.842 25.952 26.717 26.367 25.832 28.32 33.17 25.82 26.502 28.145 26.005 27.607 26.63 25.535 25.602 25.147 24.815 24.765 24.89 25.005 24.985 24.962 24.81 24.652 24.572 24.535 24.395 24.637 24.822 24.972 25.307 24.917 24.862 24.692 24.655 24.527 24.387 24.315 24.297 24.73 24.26 24.157 24.125 24.115 24.215 34.105 28.915 23.837 23.762 23.63 29.56 25.322 23.487 24.67 30.847 33.277 35.65
19.314 19.324 19.441 22.616 24.731 19.584 19.811 19.864 20.024 20.066 20.166 20.209 20.169 20.311 20.081 20.211 20.436 20.604 20.479 22.324 20.649 20.796 20.931 20.919 20.956 21.061 21.034 21.101 21.156 20.961 21.279 21.061 21.166 21.381 21.426 21.694 21.786 21.744 21.929 21.916 22.004 21.986 21.989 22.096 22.036 22.096 22.074 22.244 22.319 23.932 23.167 23.037 24.399 25.859 25.304 24.264 22.799 22.744 26.402 23.117 22.582 22.562 22.492 22.394 22.387 22.442 22.389 22.469 22.397 22.389 22.622 22.677 22.689 23.192 23.019 23.129 23.007 26.769 28.297 24.017 22.897 23.184 23.407 23.467 23.529 24.849 30.819 26.207 31.612 24.004 24.007 24.447 24.449 24.214 24.292 24.457 24.387 24.447 24.452 24.542 25.727 28.117 30.134 31.247 28.949 25.252 25.104 25.182 25.302 25.337 25.399 25.474 25.559 25.717 25.827 25.997 25.969 26.027 26.097 26.194 26.249 26.334 26.374 26.477 26.529 26.609 26.647 26.712 26.739 26.814 26.804 26.904 26.987 27.189 27.149 27.154 27.349 27.342 27.312 27.367 27.377 27.412 27.462 27.539 27.662 27.747 27.764 27.817 27.879 27.887 27.864 27.927 27.942 27.977 28.027 28.117 28.142 28.159 28.119 28.197 28.164 28.144 28.152 28.117 28.117 28.127 28.132 28.137 28.089 28.129 28.057 27.979 27.899 27.927 27.992 27.959 28.107 29.447 29.807 32.539 32.287 33.567 32.932 34.497 33.829 30.749 33.159 32.494 32.232 28.647 29.812 28.849 27.404 27.327 28.147 32.572 29.089 27.289 27.027 26.932 27.034 26.857 26.707 26.677 26.694 26.594 26.547 26.417 26.439 26.717 26.119 26.027 25.927 26.662 26.114 25.914 25.799 25.664 25.602 25.697 25.472 25.422 28.259 25.514 25.519 31.127 33.944 38.694 39.987 38.272 31.754 27.577 25.752 25.784 36.042 37.394 31.522 33.839 26.439 26.699 25.997 25.977 26.552 26.354 26.217 26.187 26.489 26.462 26.489 26.547 26.642 26.622 26.654 28.324 33.867 33.557 28.572 26.649 26.657 26.657 28.087 32.589 26.882 26.667 26.609 26.817 31.232 28.682 26.702 26.654 26.694 26.702 26.762 29.792 35.339 41.762 33.352 26.922 26.854 26.814 29.117 26.829 26.789 26.797 27.574 26.822 26.789 26.859 27.742 35.199 39.434 28.047 26.969 26.944 27.357 27.039 31.6 29.545 27.127 27.48 27.032 27.075 26.997 26.992 26.972 26.955 26.942 26.915 26.847 27.095 27.102 26.897 26.88 26.897 27.007 26.87 27.317 26.845 26.747 26.79 26.795 27.635 33.18 28.215 33.442 32.627 26.775 26.827 28.2 26.77 26.822 26.765 26.8 26.775 26.77 26.807 26.81 26.735 26.667 26.687 26.64 27.32 26.707 26.625 26.697 26.645 26.74 26.447 26.537 26.6 26.607 26.69 26.78 26.752 26.65 26.66 26.68 26.652 26.602 26.617 26.442 26.605 26.732 26.687 26.76 30.68 26.422 33.71 37.75 32.302 27.59 26.492 26.222 26.185 28.875 28.995 26.61 27.772 30.772 27.397 26.06 26.017 27.707 34.18 29.365 25.897 25.902 26.342 25.877 26.042 31.287 31.647 26.925 26.665 25.67 28.482 25.47 25.275 25.115 24.835 24.757 24.817 24.947 25.002 24.957 24.927 24.66 24.527 24.567 24.54 24.67 24.805 24.875 24.84 24.847 24.777 24.655 24.64 24.59 24.46 24.365 24.367 26.265 34.332 38.527 32.822 34.265 36.897 24.995 23.732 23.69 23.582 23.482 26.31 26.142 29.747 36.982 23.712
19.434 24.566 21.121 34.174 23.576 19.301 19.889 20.036 20.106 20.144 20.279 20.454 20.439 20.469 20.584 21.634 27.559 24.186 20.769 20.639 20.731 21.354 20.574 20.659 20.676 21.646 23.404 26.849 23.361 21.464 21.561 21.556 21.651 21.649 21.921 21.761 21.846 21.879 21.964 21.974 22.054 22.014 22.104 22.056 22.191 22.256 24.374 22.597 22.449 22.627 23.997 23.434 24.139 25.252 22.812 23.879 22.759 22.744 22.749 22.742 22.724 24.432 22.634 22.549 22.564 22.554 22.549 22.609 22.767 23.057 22.672 23.164 22.759 23.004 23.082 23.079 23.139 24.824 28.924 26.212 23.059 23.252 23.377 23.609 23.582 25.412 25.227 25.724 23.897 23.942 23.994 24.197 24.247 24.289 24.202 24.312 24.469 24.534 24.509 25.037 25.177 34.459 31.277 35.802 25.969 25.277 25.139 25.297 25.329 25.399 25.489 25.587 25.644 25.789 25.984 25.994 26.067 26.137 26.214 26.274 26.344 26.407 26.484 26.599 26.614 26.692 26.862 26.822 26.854 26.892 26.917 26.974 27.072 27.169 27.262 27.317 27.442 27.419 27.407 27.434 27.452 27.514 27.544 27.624 27.772 27.794 27.824 27.902 27.914 27.937 27.967 27.989 28.014 28.072 28.087 28.154 28.189 28.204 28.204 28.252 28.219 28.194 28.257 28.197 28.169 28.182 28.179 28.157 28.127 28.119 28.099 28.032 27.977 27.957 28.029 27.982 28.017 28.594 28.089 30.584 32.809 32.969 30.817 34.184 35.189 34.677 33.262 34.342 35.427 35.134 32.094 28.044 27.397 27.354 29.727 35.099 31.679 28.639 27.062 26.942 26.972 26.824 26.662 26.637 26.609 26.642 28.377 26.394 26.374 26.569 26.134 25.972 26.057 26.294 25.879 26.469 25.684 25.754 25.502 25.529 27.282 27.439 26.807 25.524 25.464 30.927 27.382 30.739 31.982 26.144 25.649 25.729 25.779 25.927 29.399 28.974 27.079 26.404 26.422 26.659 27.659 26.027 26.544 26.334 26.284 26.339 26.374 26.482 26.502 26.634 26.702 29.014 31.857 26.752 26.737 32.204 28.529 26.737 26.757 28.902 26.674 28.112 26.747 26.707 26.684 26.817 27.959 26.779 26.702 26.694 26.779 28.532 28.167 28.164 29.589 36.592 29.092 27.594 27.004 27.007 34.372 34.859 26.949 26.914 26.887 26.877 26.959 33.137 32.257 31.642 35.649 28.317 27.014 27.072 27.137 27.189 27.862 27.167 27.105 27.11 27.092 27.087 27.11 27.085 27.135 27.035 27.032 26.967 29.255 28.542 36.66 27.545 27.04 27.01 31.632 38.44 38.527 29.467 26.925 26.87 26.945 26.91 26.9 26.895 27.162 26.857 26.83 26.842 26.882 35.255 27.062 26.857 26.83 26.957 27.007 26.817 26.817 26.882 26.795 26.785 26.81 26.767 26.682 26.745 26.727 26.785 26.702 26.672 26.675 26.645 26.645 26.617 26.747 26.857 26.797 26.757 26.682 26.695 26.605 26.622 26.527 26.68 26.792 26.765 26.697 27.482 26.497 26.47 27.07 26.535 26.53 26.71 27.145 26.32 27.632 28.33 29.992 28.96 29.717 26.875 26.525 26.165 29.155 33.947 29.522 25.982 25.932 25.932 25.947 25.917 29.1 28.792 25.87 25.815 25.727 27.225 26.355 26.442 25.467 25.352 25.117 24.912 24.725 24.805 24.97 25.002 25.03 24.92 24.712 24.582 24.505 24.492 24.575 24.732 24.735 24.732 24.72 25.017 24.65 24.447 24.307 24.295 24.305 37.482 39.657 38.37 25.097 23.917 23.73 23.865 23.795 23.717 23.542 23.695 26.997 23.56 24.482 25.677
22.604 30.176 25.834 22.161 19.961 19.486 19.991 20.104 20.454 20.591 20.534 20.506 20.406 20.361 20.269 20.351 27.886 24.536 24.801 20.721 23.316 23.801 20.784 20.914 20.924 27.676 30.624 27.864 31.396 24.829 21.701 21.704 21.784 21.784 21.906 21.919 22.004 22.051 22.161 22.219 22.149 22.246 22.241 22.151 22.326 24.514 23.277 24.269 24.122 23.527 22.609 22.579 22.742 22.759 22.732 22.719 22.749 22.867 22.819 22.744 24.097 24.312 22.684 22.657 22.627 22.622 22.619 22.649 22.694 22.737 22.659 22.694 22.927 23.277 23.069 23.029 23.174 25.302 24.874 26.584 24.179 23.182 24.787 23.542 23.694 23.882 23.859 23.994 23.859 23.914 23.979 24.167 24.312 24.194 24.302 24.359 24.404 25.392 24.632 25.524 27.122 30.859 29.344 30.927 27.092 25.409 25.292 25.349 25.409 25.459 25.547 25.664 25.747 25.829 25.967 26.084 26.194 26.257 26.359 26.427 26.477 26.529 26.637 26.754 26.729 26.777 26.809 26.922 26.919 26.997 27.017 27.064 27.194 27.269 27.349 27.439 27.467 27.499 27.489 27.502 27.524 27.569 27.677 27.722 27.797 27.834 27.904 27.914 27.987 27.957 28.019 28.019 28.052 28.104 28.159 28.207 28.244 28.224 28.239 28.292 28.297 28.259 28.262 28.187 28.199 28.232 28.242 28.164 28.154 28.179 28.174 28.104 28.039 28.034 28.034 28.047 28.032 27.977 28.024 29.374 29.769 27.682 27.632 31.507 35.734 34.814 34.394 34.454 36.542 34.914 34.082 31.084 27.374 27.347 27.669 28.029 28.817 27.174 27.079 26.917 26.902 26.852 26.829 27.109 28.534 26.559 26.632 26.482 26.337 26.167 26.099 25.987 25.934 25.889 29.512 32.359 28.447 25.614 25.627 25.469 29.899 31.042 26.557 25.619 25.537 26.694 25.759 30.032 28.504 29.684 26.637 25.839 25.804 25.919 25.964 26.062 27.592 28.294 26.907 27.812 30.939 26.184 26.439 26.519 26.552 26.529 26.409 26.559 26.722 32.042 30.537 27.669 30.274 26.844 26.869 26.844 27.877 26.822 26.772 26.874 26.859 26.832 26.889 26.869 26.797 26.827 26.807 26.867 26.834 26.887 29.712 26.924 29.579 34.967 30.074 41.002 32.614 27.009 27.064 28.414 32.302 33.884 27.032 26.987 27.037 27.094 33.472 31.254 35.832 29.342 27.117 27.102 27.109 27.359 27.274 27.252 27.285 27.21 27.207 28.64 27.202 27.175 27.127 27.187 27.255 27.157 28.5 29.98 39.385 38.035 30.615 27.112 27.31 28.312 38.95 44.955 42.512 30.25 27.025 26.997 26.947 26.957 26.992 26.97 26.912 28.435 26.917 26.91 31.79 41.327 41.835 30.935 26.972 26.992 27.175 26.94 26.935 26.895 26.942 26.915 26.875 26.92 26.855 26.85 26.83 26.775 26.78 26.677 26.662 26.692 26.727 26.672 26.75 26.93 27.007 27.115 26.882 26.73 26.67 26.735 26.632 26.747 26.807 26.862 26.772 26.73 26.582 26.525 34.375 28.03 27.685 26.652 26.547 26.315 26.28 28.392 31.562 27.715 26.307 26.242 26.207 26.425 27.262 26.975 26.345 26.057 25.995 26.002 26.022 25.95 25.96 25.885 27.207 30.085 26.285 26.382 32.112 26.412 25.812 25.72 25.565 25.452 25.205 24.905 24.725 24.795 24.952 25.015 25.002 24.967 24.715 24.552 24.457 24.435 24.445 24.587 24.627 24.855 24.59 24.545 24.527 24.407 25.785 30.91 31.092 28.422 24.017 23.807 23.825 23.812 23.77 23.672 23.58 23.555 23.715 24.082 23.542 24.045
33.446 30.711 20.981 31.409 19.526 19.304 19.539 19.766 20.134 20.394 20.379 20.326 20.524 20.476 20.659 25.306 23.199 26.879 20.914 20.931 21.671 21.071 21.794 21.019 21.116 26.461 26.051 29.444 31.086 24.396 21.969 25.876 21.899 21.909 22.031 22.244 22.626 22.166 22.516 22.281 22.371 22.299 22.356 22.291 22.506 26.946 22.727 22.469 23.077 23.654 22.872 22.794 22.629 22.674 22.697 22.902 22.839 23.332 23.694 22.809 22.874 22.827 22.839 25.614 24.439 22.827 22.744 22.834 23.099 22.959 22.879 22.862 27.779 25.074 23.104 23.072 23.112 23.764 29.169 28.514 23.857 23.092 23.527 23.652 23.792 23.784 23.762 23.802 23.862 23.924 24.029 24.244 24.307 24.432 24.327 24.407 25.197 29.282 24.719 24.789 25.849 24.879 27.207 26.382 27.157 25.407 25.274 25.387 25.467 25.554 25.654 25.762 25.847 25.927 26.049 26.217 26.279 26.377 26.394 26.532 26.609 26.667 26.692 26.802 26.874 26.929 26.977 26.994 27.059 27.072 27.132 27.157 27.284 27.392 27.449 27.452 27.462 27.532 27.544 27.604 27.614 27.647 27.737 27.807 27.847 27.884 27.952 27.972 28.022 28.042 28.077 28.129 28.144 28.157 28.242 28.279 28.322 28.272 28.324 28.334 28.369 28.317 28.297 28.269 28.229 28.274 28.232 28.219 28.199 28.222 28.202 28.154 28.039 28.057 28.077 28.072 28.072 29.792 29.049 28.069 27.752 27.782 29.337 28.324 28.294 28.772 29.294 29.464 28.889 27.412 29.639 27.929 27.399 27.369 27.314 27.189 27.107 27.089 27.097 26.984 26.759 26.677 26.724 30.717 32.049 29.782 26.469 26.462 26.457 26.367 26.099 26.734 28.379 31.227 30.989 30.587 26.684 25.577 25.959 26.907 32.339 34.719 25.797 25.647 25.657 25.797 25.729 25.764 29.094 37.512 33.829 25.914 25.977 27.797 28.019 26.199 33.034 36.059 29.317 27.857 26.292 26.262 26.519 26.622 26.604 27.214 26.812 26.577 27.699 28.314 26.842 26.989 28.214 26.882 32.597 28.319 27.989 26.992 27.042 27.049 26.999 27.007 26.949 30.527 26.887 26.882 26.969 29.107 26.917 29.162 36.142 33.324 33.429 30.769 27.137 28.319 27.192 27.087 27.077 27.249 29.232 28.199 27.072 27.099 27.092 27.124 27.734 29.039 28.852 27.149 28.384 27.204 27.232 27.219 27.322 27.362 27.3 27.27 27.245 31.852 30.802 27.23 27.202 28.037 29.067 29.132 29.267 38.677 36.525 31.782 27.182 27.087 27.83 27.152 33.925 44.31 45.285 36.532 27.175 27.075 27.105 27.057 27.115 27.087 27.015 27.03 27.045 27.05 27.052 32.357 38.867 27.707 27.07 27.04 27.137 27.397 27.377 27.232 27.01 26.985 26.98 26.997 26.885 26.895 26.912 26.895 26.897 26.825 26.857 26.842 26.8 26.842 26.987 27.105 27.117 27.272 27.032 28.427 32.687 31.56 26.745 26.94 26.867 26.822 26.845 26.697 26.665 27.377 35.37 30.19 26.675 26.59 26.465 26.445 26.38 26.357 27.095 26.69 26.28 26.362 26.597 26.28 26.27 26.165 26.15 26.112 26.117 26.087 26.347 26.032 25.915 25.885 30.872 35.877 32.36 33.377 36.4 32.257 26.112 27.967 31.815 26.972 25.587 25.42 25.225 24.95 24.725 24.79 24.937 25.02 25.012 24.937 24.757 24.557 24.455 24.422 24.425 24.485 24.552 24.537 24.55 24.48 24.382 24.337 24.245 24.15 26 26.86 24.982 23.76 23.69 23.775 23.642 23.755 23.857 23.702 23.557 23.54
21.301 23.966 22.606 20.256 20.226 19.829 20.114 20.319 20.464 20.541 20.584 20.666 20.726 20.744 20.764 20.824 20.909 25.066 21.459 21.614 21.034 21.006 21.041 21.769 21.251 21.261 21.366 23.496 23.261 21.701 21.876 23.044 21.886 21.931 22.029 22.086 22.174 22.154 22.411 22.391 22.461 22.771 25.534 23.394 22.494 22.651 22.699 22.757 22.699 22.692 22.772 22.767 22.754 22.839 25.379 25.029 22.914 24.164 26.142 23.494 23.124 22.914 23.019 25.119 25.509 23.124 22.812 22.969 22.914 22.922 22.944 22.942 25.767 23.017 23.129 23.372 23.157 23.194 24.002 23.469 23.139 25.212 27.552 25.514 25.602 26.722 24.267 23.904 23.817 24.079 24.074 24.222 24.392 24.417 24.642 24.439 24.952 28.352 24.804 26.729 27.742 25.822 25.247 26.147 25.889 25.457 25.339 25.454 25.577 25.649 25.712 25.857 25.914 26.034 26.157 26.227 26.367 26.477 26.549 26.664 26.757 26.827 26.842 26.942 26.989 27.057 27.082 27.119 27.192 27.229 27.267 27.257 27.389 27.542 27.639 27.572 27.652 27.597 27.662 27.682 27.692 27.737 27.787 27.829 27.889 27.994 28.039 28.029 28.039 28.089 28.094 28.134 28.209 28.232 28.279 28.319 28.364 28.344 28.412 28.444 28.412 28.394 28.349 28.324 28.319 28.307 28.284 28.242 28.242 28.252 28.274 28.207 28.154 28.119 28.142 28.132 28.109 28.977 28.957 28.154 28.179 31.162 32.642 31.124 28.809 32.374 31.212 30.264 27.484 28.614 28.137 27.427 27.369 27.382 27.297 27.309 27.137 27.269 26.987 26.909 26.802 26.749 26.619 28.357 32.652 31.162 26.329 26.359 26.512 26.442 26.072 31.874 33.692 35.892 34.647 34.927 27.629 25.687 32.052 33.834 25.632 25.612 25.644 25.702 25.719 25.774 25.852 25.889 25.907 29.262 32.657 27.334 26.889 29.924 29.429 29.897 32.427 30.342 33.529 30.152 26.312 26.299 26.534 26.754 26.672 26.647 26.769 26.682 26.782 26.882 26.934 27.052 27.032 27.054 37.107 41.544 29.589 27.089 27.667 27.104 27.097 27.362 34.322 32.794 26.942 26.969 26.977 27.042 26.992 33.597 33.282 30.089 27.197 29.124 27.254 27.149 27.264 27.232 27.252 27.144 27.182 27.274 27.189 27.179 27.189 27.459 27.232 27.219 27.264 27.247 27.312 27.277 27.284 27.377 27.477 27.384 27.39 27.32 27.365 29.412 27.825 27.392 27.352 27.482 32.255 37.77 39.857 35.21 35.885 27.197 27.217 27.257 27.23 27.36 28.017 30.877 34.707 29.61 27.117 27.21 27.195 27.18 27.16 27.162 27.102 27.14 29.105 29.272 27.15 27.512 29.627 27.225 27.195 27.217 28.092 27.725 28.512 27.932 27.157 27.725 27.15 27.085 27.015 26.987 26.995 27.225 26.957 26.93 26.935 26.9 27.325 27.01 27.065 27.322 27.207 27.022 27.212 32.95 33.382 26.877 26.837 27.032 26.93 26.917 27 26.84 26.687 26.867 27.507 27.14 28.15 30.87 27.27 27.255 26.505 26.432 26.41 26.437 26.39 26.455 26.427 26.37 26.317 26.332 26.587 26.225 26.165 26.185 26.195 26.167 26.055 26.007 29.102 30.4 27.89 32.09 37.072 39.227 28.352 27.052 28.515 25.995 25.722 25.665 25.597 25.502 24.95 24.825 24.79 24.742 24.895 24.987 24.995 24.965 24.817 24.59 24.46 24.382 24.41 24.477 24.61 24.59 24.467 24.43 24.377 24.227 24.232 26.492 23.917 23.725 23.717 23.965 24.512 23.647 23.63 23.577 23.482 23.52
20.001 20.164 20.349 20.421 20.134 20.186 20.311 20.494 20.781 20.804 20.631 20.679 20.774 20.906 21.034 22.621 22.119 21.686 21.671 21.034 21.124 21.271 21.231 21.371 23.851 23.719 21.506 22.639 21.754 21.841 21.844 23.346 24.296 22.021 22.081 22.254 22.309 22.344 22.571 22.504 22.539 22.546 25.921 22.789 22.629 22.741 22.782 22.902 22.817 22.854 22.897 22.932 22.814 22.799 25.734 25.912 24.452 22.914 24.562 23.829 23.094 23.047 23.079 24.927 22.937 22.909 24.809 22.892 22.914 22.949 22.982 23.014 23.067 23.147 23.184 23.227 23.209 23.409 23.362 23.224 23.269 25.742 24.992 28.792 32.534 23.784 23.807 23.839 23.897 24.057 24.229 24.332 24.327 24.447 24.559 24.579 24.644 24.739 24.782 27.219 25.267 25.667 25.699 26.699 25.764 25.359 25.414 25.542 25.647 25.754 25.844 25.907 26.029 26.082 26.229 26.387 26.459 26.562 26.659 26.764 26.892 26.907 26.984 27.017 27.119 27.184 27.204 27.262 27.327 27.449 27.352 27.342 27.499 27.657 27.674 27.737 27.759 27.707 27.754 27.772 27.807 27.829 27.854 27.942 27.924 28.012 28.067 28.064 28.077 28.114 28.157 28.197 28.254 28.354 28.339 28.392 28.389 28.402 28.492 28.477 28.454 28.437 28.382 28.362 28.332 28.349 28.342 28.312 28.292 28.284 28.279 28.232 28.204 28.184 28.184 28.179 28.207 28.714 33.057 31.409 30.804 30.807 36.192 31.394 31.909 32.067 35.099 29.349 32.419 31.327 38.382 33.104 30.052 27.327 27.339 27.304 27.132 27.087 26.934 26.864 26.802 26.654 26.534 27.314 26.664 27.104 26.349 26.489 26.297 26.187 25.984 29.154 29.604 28.177 28.339 27.487 25.774 25.814 30.394 31.372 25.667 25.634 25.752 25.757 25.814 25.879 25.869 25.947 25.917 29.417 32.522 33.292 31.474 33.799 30.602 29.019 37.004 32.207 28.709 27.972 26.664 26.494 26.612 26.949 26.702 26.759 26.924 26.704 26.829 27.317 27.109 27.079 27.034 27.069 29.562 32.124 27.164 29.482 27.357 27.177 27.194 30.827 32.367 27.327 27.009 27.117 27.087 29.932 34.394 36.514 29.479 30.309 27.647 30.624 27.264 27.292 27.342 27.367 27.369 27.304 27.219 27.177 27.287 27.297 27.304 27.339 27.352 27.284 27.347 27.359 27.334 27.372 27.427 27.429 27.479 27.487 27.482 27.44 27.44 27.415 27.432 27.522 27.415 27.447 31.602 36.752 34.305 28.047 27.347 27.305 27.285 27.332 27.31 27.305 27.37 27.287 27.247 27.282 27.265 27.225 27.197 27.392 27.25 27.21 27.207 32.64 42.372 31.802 27.33 29.18 27.27 27.305 27.265 27.305 27.29 27.312 27.475 28.487 27.18 27.077 27.157 27.237 27.25 27.26 27.225 27.1 27.17 27.225 27.21 27.167 27.442 27.182 27.29 27.47 27.377 27.425 27.475 27.187 27.217 26.97 26.972 27.2 27.09 27.082 28.707 27.057 27.072 26.725 28.605 28.71 33.215 37.51 33.865 28.27 29.422 28.99 26.59 26.505 26.495 26.582 26.497 26.65 26.43 26.402 26.375 26.335 26.275 26.295 26.282 26.352 26.172 26.1 27.572 29.485 27.16 32.65 36.642 39.407 30.117 25.905 25.772 25.737 25.675 25.827 25.845 25.727 26.147 25.212 25.145 24.957 24.745 24.72 24.89 25.005 24.995 24.987 24.822 24.622 24.492 24.445 24.447 24.592 24.367 24.302 24.327 26.915 30.71 31.927 23.997 23.86 23.81 26.915 24.965 26.655 25.155 26.017 23.535 25.002
20.221 20.224 20.414 20.614 21.606 20.626 20.691 20.919 20.909 20.841 20.864 20.871 20.796 20.964 21.126 22.349 20.939 21.134 21.064 21.104 21.246 21.366 23.574 25.434 32.386 29.659 24.194 21.636 21.674 21.726 22.014 21.956 22.034 22.056 22.124 22.274 22.339 22.314 22.426 22.579 22.619 22.549 22.626 22.706 22.894 22.824 22.939 22.939 22.807 22.854 22.987 22.984 22.887 22.834 24.639 23.034 23.007 23.032 22.997 23.062 23.042 23.039 23.207 23.359 26.379 23.824 23.294 22.907 22.959 23.017 22.962 23.099 23.114 23.184 23.247 23.417 23.354 23.369 23.652 24.432 23.444 23.574 28.684 33.009 32.919 23.997 23.869 23.887 23.932 24.142 24.272 24.282 24.367 26.644 24.669 24.604 24.717 28.642 24.877 24.969 25.719 28.434 25.522 27.049 26.267 25.462 25.487 25.617 25.732 25.884 25.972 26.022 26.127 26.199 26.364 26.457 26.549 26.682 26.799 26.919 26.984 27.094 27.052 27.119 27.219 27.314 27.349 27.382 27.414 27.524 27.454 27.452 27.544 27.732 27.804 27.724 27.732 27.849 27.827 27.862 27.879 27.899 27.922 27.977 27.982 28.007 28.077 28.107 28.134 28.152 28.177 28.219 28.262 28.384 28.409 28.434 28.442 28.479 28.502 28.519 28.497 28.467 28.439 28.422 28.427 28.402 28.402 28.369 28.329 28.322 28.334 28.287 28.252 28.327 28.289 28.242 28.297 28.892 30.207 33.504 29.152 34.399 36.564 32.217 34.417 34.532 37.102 34.437 31.542 30.287 32.439 33.867 32.679 28.904 28.507 27.432 30.314 27.284 27.657 26.939 28.919 26.777 28.887 26.554 26.509 28.054 28.464 26.372 26.247 26.179 26.099 26.224 25.929 26.024 29.642 25.674 25.757 25.824 26.074 25.607 25.729 25.817 25.782 27.689 30.674 25.907 25.922 25.957 25.974 26.309 27.337 33.089 34.092 31.024 27.972 30.244 37.944 32.992 27.774 26.932 27.639 26.524 27.567 27.072 26.832 26.879 26.894 26.859 27.167 27.097 27.139 31.839 27.762 27.267 27.199 27.269 27.327 30.674 27.334 28.102 27.312 27.302 27.394 27.257 27.094 28.909 28.222 35.534 34.382 28.927 28.984 28.372 28.849 27.359 27.387 27.384 27.489 27.344 27.337 27.344 27.292 27.299 27.347 27.362 27.489 27.534 27.382 27.377 28.367 32.392 27.459 27.504 27.524 27.517 27.469 32.644 27.99 27.517 27.535 27.47 27.517 27.505 28.435 33.755 27.842 27.48 27.937 27.365 27.452 27.42 27.462 27.442 27.475 27.462 27.387 27.365 27.43 27.362 27.302 27.295 27.297 27.315 27.422 27.375 27.31 31.892 44.595 32.975 27.435 27.375 27.417 27.4 27.41 27.395 27.367 27.372 27.327 28.152 27.585 27.242 27.265 27.222 27.102 27.077 27.055 27.085 27.08 27.047 27.355 27.067 27.032 27.16 27.21 27.752 27.862 27.842 27.317 27.047 27.07 26.97 27.057 27.137 26.98 26.9 26.965 26.675 26.712 26.9 27.225 26.745 33.595 36.512 34.98 29.87 28.64 28.51 29.502 26.902 26.832 26.795 26.725 26.662 26.572 26.48 26.522 26.495 26.43 26.41 26.395 26.375 26.282 28.867 26.177 26.07 27.685 35.677 31.18 30.737 29.14 25.83 25.865 25.97 25.87 25.852 25.86 25.802 25.392 25.487 25.38 25.305 25.18 24.952 24.74 24.707 24.832 24.952 24.995 25 24.855 24.652 24.522 24.475 24.41 24.275 24.27 30.485 27.817 37.042 28.452 24.935 23.975 23.91 23.75 27.265 35.165 33.145 26 23.57
21.004 20.389 20.614 20.859 20.634 20.766 20.914 21.194 21.146 21.059 21.009 20.896 20.939 21.031 21.144 21.056 20.944 23.971 21.239 21.194 21.266 21.309 27.856 38.426 27.511 30.801 29.941 24.524 21.824 21.901 21.949 21.966 22.216 22.249 22.199 22.171 22.321 22.336 22.494 22.699 22.681 22.634 22.744 23.001 22.921 22.939 22.904 22.894 22.917 22.914 23.064 23.044 23.222 23.657 23.839 23.042 23.037 23.122 23.029 24.979 26.484 22.997 22.984 26.977 29.789 27.152 24.584 24.754 23.072 23.069 23.069 23.199 23.529 23.192 23.179 23.312 23.299 23.232 23.327 23.479 23.542 23.617 23.832 26.877 29.179 23.887 23.939 23.904 24.049 24.137 24.514 24.284 24.424 25.289 24.662 24.662 24.777 24.867 24.949 25.337 25.054 26.107 26.257 26.937 26.302 25.499 25.589 25.694 25.849 26.057 26.147 26.102 26.212 26.314 26.437 26.544 26.662 26.814 26.907 26.912 27.072 27.134 27.159 27.219 27.319 27.352 27.417 27.462 27.544 27.562 27.567 27.587 27.594 27.717 27.782 27.764 27.819 27.862 27.929 27.949 27.972 27.997 28.027 28.034 28.049 28.084 28.129 28.139 28.207 28.219 28.244 28.332 28.352 28.384 28.462 28.499 28.484 28.542 28.547 28.572 28.529 28.499 28.522 28.464 28.474 28.442 28.432 28.389 28.357 28.374 28.369 28.317 28.309 28.309 28.284 28.269 28.347 28.629 30.872 31.164 31.897 36.649 37.267 31.289 39.637 32.469 35.359 30.332 33.154 34.679 32.192 31.752 27.729 32.069 32.962 32.004 32.302 34.094 35.702 31.424 34.072 29.064 32.932 26.597 26.539 30.277 31.942 26.364 26.249 26.267 26.157 26.999 28.554 32.549 37.634 27.554 25.784 25.857 25.762 26.759 29.039 25.789 25.807 30.677 32.109 25.949 25.994 26.099 26.137 27.974 26.142 26.279 27.492 26.969 26.372 26.494 30.432 30.924 26.749 27.904 28.247 26.582 27.157 27.169 27.032 26.902 27.082 27.024 27.009 30.059 35.994 32.972 27.382 27.269 27.259 27.319 27.449 27.479 27.442 27.397 27.392 27.479 27.504 27.319 27.194 27.644 32.389 31.297 27.374 27.337 27.274 27.332 27.429 27.487 27.492 27.584 27.529 27.699 27.434 27.387 27.402 27.444 27.472 29.157 27.389 27.522 27.819 27.484 35.212 31.447 27.564 27.524 27.532 27.564 27.597 39.307 30.39 27.682 27.597 27.555 28.08 35.987 28.352 27.617 27.735 27.532 27.507 27.535 27.545 27.5 27.502 27.5 27.442 27.432 27.44 27.407 27.47 27.425 27.362 27.365 27.43 27.432 27.397 28.82 27.51 27.45 29.47 27.49 27.527 27.46 27.51 27.505 27.487 27.637 27.44 27.51 27.405 27.36 27.367 27.372 27.387 27.395 27.277 27.305 27.25 27.737 27.2 27.455 27.267 27.19 27.25 27.207 28.44 28.11 27.87 27.852 27.3 32.237 27.257 27.097 27.112 27.295 27.197 27.17 26.985 26.817 27.012 27.322 27.187 27.12 28.847 31.037 36.777 42.595 28.24 26.81 26.925 26.957 27.107 27.077 28.122 27.7 26.907 26.877 26.862 26.805 26.77 26.752 26.74 26.707 26.48 29.31 28.227 27.315 26.495 29.137 26.555 26.02 25.997 26.012 26.112 26.03 25.952 25.937 25.96 34.105 36.59 28.005 25.527 26.36 25.39 25.82 25.085 24.897 24.72 24.722 24.852 24.987 25 24.99 24.877 24.672 24.52 24.377 24.292 24.23 26.05 24.875 24.282 24.115 26.282 31.267 29.382 31.732 29.952 31.507 37.775 29.402
24.101 20.611 20.804 21.176 20.751 20.889 21.036 22.959 21.049 21.029 20.951 21.051 21.046 21.216 21.181 21.221 21.081 23.639 21.204 21.321 21.379 26.629 29.459 28.569 31.971 34.029 31.841 30.156 25.364 21.866 21.959 22.016 22.261 22.244 22.236 22.226 22.464 22.416 22.539 22.721 22.679 22.771 22.774 23.761 24.891 23.074 22.932 23.112 23.257 23.037 23.262 24.554 24.234 24.199 24.584 23.172 23.037 23.092 23.247 25.517 30.404 27.762 28.872 26.427 30.967 28.407 29.277 27.337 23.077 23.119 23.137 23.239 23.267 23.232 23.374 23.374 23.424 23.349 23.552 23.484 23.544 23.687 23.702 23.769 23.862 23.902 23.942 23.979 24.154 24.174 24.272 24.352 24.467 24.639 24.689 24.737 24.872 24.922 25.047 25.467 25.137 25.389 26.309 26.804 26.242 25.602 25.667 25.847 25.994 26.149 26.184 26.222 26.294 26.407 26.534 26.634 26.742 26.824 27.002 27.004 27.104 27.292 27.254 27.327 27.409 27.439 27.512 27.564 27.627 27.662 27.634 27.664 27.674 27.817 27.837 27.927 27.959 27.952 28.044 28.054 28.057 28.064 28.107 28.142 28.167 28.152 28.199 28.247 28.264 28.312 28.319 28.369 28.374 28.437 28.557 28.534 28.559 28.619 28.607 28.629 28.604 28.544 28.519 28.472 28.524 28.489 28.462 28.442 28.392 28.364 28.387 28.354 28.319 28.312 28.284 28.297 28.392 28.484 28.789 28.542 28.212 32.149 30.837 30.872 32.379 29.172 27.697 32.477 35.492 29.407 33.094 34.659 30.327 27.622 32.289 30.337 27.057 32.487 28.317 29.559 33.927 30.399 26.557 26.567 26.482 27.004 27.094 26.492 26.254 26.322 26.247 29.977 29.997 35.999 34.402 28.069 25.899 25.869 25.752 30.134 25.784 34.614 30.802 39.872 33.392 27.217 26.214 27.497 35.829 32.462 26.847 26.477 29.789 30.149 30.129 28.662 26.582 26.762 28.389 28.062 26.702 27.464 26.809 27.204 26.979 26.959 27.142 27.112 27.074 27.367 31.739 30.604 27.349 27.359 27.322 27.434 27.419 27.537 27.507 27.494 27.484 27.449 27.482 27.372 27.284 27.347 27.489 27.432 27.457 27.442 27.389 33.339 28.632 28.264 27.712 28.049 27.614 27.499 27.477 27.469 27.512 27.574 27.624 27.504 27.589 27.557 27.609 27.652 28.724 27.629 27.587 27.619 27.639 27.662 27.682 27.754 28.982 27.75 27.682 27.63 33.67 37.042 30.032 27.745 28.802 27.66 27.542 27.537 27.562 27.537 27.765 27.547 27.57 27.552 27.5 27.48 27.502 27.522 27.51 27.485 27.475 27.515 40.162 27.832 27.482 27.512 27.517 27.582 27.535 27.612 27.615 27.605 27.66 27.63 27.525 27.512 27.48 28.185 27.51 27.45 27.452 27.365 27.425 27.365 27.297 27.27 27.28 27.335 27.292 27.267 27.34 27.327 27.532 27.767 27.792 27.517 27.212 32.742 31.21 27.16 27.162 27.47 27.317 27.18 27.38 26.877 27.205 27.287 27.217 27.255 33.07 42.872 27.045 28.88 30.64 31.212 26.85 30.622 28.517 26.66 27 33.83 26.65 26.56 26.642 27.47 26.67 26.987 26.692 26.595 26.457 28.47 29.152 30.942 26.602 27.215 26.422 29.73 26.28 26.185 26.267 26.095 26.052 26.607 26.3 34.555 35.36 28.64 30.18 34.982 29.915 29.475 25.957 25.142 25.082 24.93 24.752 24.727 24.822 24.937 25.002 24.99 24.892 24.67 24.407 24.232 24.04 24.157 24.31 24.195 25.64 38.432 37.912 38.472 37.91 30.25 30.135 38.175
20.674 20.829 20.881 21.051 20.774 21.119 21.254 21.804 21.211 21.284 21.504 21.054 21.154 21.291 21.186 21.339 21.996 23.786 22.801 21.529 21.451 24.976 22.719 29.356 37.884 27.629 24.906 23.684 21.981 21.901 22.051 21.984 22.074 22.179 22.259 22.281 22.526 22.536 22.466 22.646 22.686 22.684 23.719 24.861 24.574 23.231 22.954 25.057 25.007 23.087 23.222 24.844 26.377 24.007 25.467 23.194 23.232 23.117 23.179 26.684 32.322 31.194 32.959 29.167 33.259 31.467 23.207 29.887 23.122 23.252 23.249 23.202 23.282 23.389 23.477 23.412 23.452 23.744 23.574 23.539 23.644 23.702 23.769 23.894 25.679 23.964 23.937 24.064 24.182 24.477 24.342 24.422 24.524 24.702 24.877 24.837 24.924 25.077 25.092 26.139 25.604 25.489 26.822 26.629 25.897 25.654 25.787 25.957 25.957 26.142 26.189 26.259 26.394 26.469 26.619 26.717 26.824 26.947 27.069 27.124 27.234 27.302 27.434 27.469 27.489 27.517 27.607 27.662 27.724 27.734 27.729 27.732 27.752 27.882 27.932 28.019 28.044 28.067 28.079 28.142 28.139 28.147 28.227 28.254 28.252 28.244 28.297 28.327 28.362 28.372 28.369 28.412 28.457 28.522 28.587 28.547 28.577 28.664 28.709 28.664 28.649 28.567 28.532 28.514 28.527 28.522 28.509 28.484 28.462 28.427 28.394 28.367 28.357 28.312 28.287 28.302 28.379 28.507 28.312 28.429 28.202 28.129 28.549 28.112 28.112 28.277 30.839 28.454 28.257 27.609 28.872 28.039 30.009 31.812 27.189 28.112 27.117 30.322 26.989 32.339 37.087 30.167 27.214 27.204 28.477 27.522 26.387 26.329 26.247 27.342 29.409 26.427 28.977 33.859 34.822 25.947 26.007 25.912 25.779 25.867 27.182 34.144 34.462 33.762 28.702 29.099 27.027 37.084 31.589 32.237 28.304 27.197 29.344 37.447 28.559 33.677 36.487 38.377 33.144 29.459 29.012 27.204 26.782 27.342 27.039 27.082 27.219 27.207 27.259 27.237 27.309 28.862 28.277 27.424 27.484 32.957 31.802 27.614 27.549 27.637 27.554 27.552 27.817 27.419 27.392 27.482 27.449 27.469 27.594 27.532 27.907 36.154 33.334 27.729 28.877 27.689 27.652 29.052 31.362 27.574 27.689 27.589 27.589 27.599 31.772 32.822 27.637 27.647 27.744 27.687 27.644 27.662 27.782 27.834 27.797 27.782 27.785 27.832 27.77 27.74 27.867 34.207 30.655 27.752 27.65 27.602 27.642 27.66 27.667 27.702 27.635 27.59 27.63 29.832 27.517 27.622 27.632 27.61 27.55 27.545 27.58 27.62 29.655 27.685 27.647 27.567 27.575 27.647 28.605 27.655 27.662 27.687 27.72 27.667 27.625 27.587 27.572 27.55 27.667 27.617 27.475 27.487 27.437 27.425 27.36 27.395 27.445 27.332 27.332 27.335 27.427 27.482 27.452 27.662 27.542 27.6 27.295 28.165 29.035 27.217 27.302 27.395 27.18 28.71 28.14 26.995 27.36 27.312 27.31 27.225 31.52 37.335 27.11 31.1 39.99 44.53 27.555 32.795 38.522 33.107 31.045 36.61 29.435 26.787 26.645 27.702 26.485 27.342 26.312 26.375 26.355 26.255 28.21 30.247 26.322 26.467 26.425 26.325 26.402 26.285 26.432 26.27 26.287 26.45 26.277 33.397 29.28 25.655 34.67 37.315 32.817 32.512 27.595 25.205 25.497 28.535 25.2 24.852 24.755 24.69 24.77 24.945 24.977 24.99 24.872 24.655 24.407 24.385 24.435 25.467 32.9 39.257 42.07 38.967 43.262 42.282 33.162 25.622
22.696 22.611 20.994 21.006 20.791 21.101 21.081 21.159 21.184 26.451 24.141 21.134 21.224 21.244 21.226 21.281 21.356 22.464 21.351 26.711 21.431 21.719 26.929 24.771 32.036 28.161 21.811 25.046 23.164 21.961 21.986 22.066 22.111 22.289 22.436 22.299 22.379 22.554 22.514 22.681 22.734 22.714 22.734 22.764 23.034 24.059 23.019 24.074 24.369 23.202 23.272 24.027 24.277 23.444 23.784 23.212 23.514 23.154 24.082 25.724 25.902 33.332 28.249 29.584 34.122 35.434 23.224 23.282 23.242 23.277 23.269 23.299 23.309 23.414 23.534 23.322 23.704 23.977 23.687 23.662 23.697 23.834 23.869 24.044 25.562 23.954 24.142 24.152 24.309 24.944 24.397 24.387 24.619 24.712 24.759 24.857 24.974 25.007 25.154 25.322 25.369 25.602 25.797 26.562 25.807 25.772 25.892 26.009 26.054 26.164 26.252 26.367 26.519 26.549 26.654 26.799 26.879 26.974 27.059 27.209 27.339 27.384 27.469 27.542 27.657 27.684 27.722 27.749 27.812 27.849 27.854 27.879 27.869 27.907 27.997 28.124 28.127 28.134 28.227 28.257 28.239 28.277 28.287 28.314 28.344 28.312 28.344 28.392 28.402 28.442 28.444 28.454 28.479 28.547 28.604 28.577 28.624 28.707 28.709 28.772 28.687 28.627 28.569 28.579 28.557 28.552 28.547 28.534 28.489 28.447 28.434 28.389 28.357 28.314 28.287 28.287 28.354 28.907 28.982 28.404 28.472 28.189 28.282 28.564 28.002 28.312 33.477 28.444 29.454 31.517 29.982 29.492 30.572 30.172 27.269 28.202 27.349 27.019 26.972 31.792 29.014 30.907 31.424 27.782 32.307 29.912 26.554 26.219 26.319 29.287 35.904 30.817 27.414 31.044 31.602 28.662 26.072 26.852 29.094 28.539 26.124 26.134 26.302 28.504 34.057 31.719 27.942 34.772 33.367 29.529 34.024 32.467 32.514 35.087 29.854 29.999 35.292 28.467 30.334 31.627 26.784 33.732 26.869 27.342 27.107 27.217 27.214 27.309 27.217 27.222 27.372 27.422 27.437 27.492 31.452 27.629 29.642 27.679 27.827 27.692 27.672 27.634 27.632 27.562 27.554 27.527 27.599 27.534 27.554 27.644 27.609 29.682 28.817 27.787 27.762 27.784 30.544 32.687 28.972 27.677 27.664 27.669 27.649 28.632 31.364 29.072 27.714 27.717 27.687 27.782 27.799 27.829 27.872 27.942 27.919 27.927 27.885 27.872 27.837 27.8 27.907 27.897 27.845 27.777 27.772 27.705 27.71 27.747 27.815 27.75 27.695 28.83 32.3 29.452 27.62 27.717 27.807 27.645 27.612 27.617 27.662 27.7 27.72 27.72 27.682 27.722 27.725 27.725 27.747 27.817 27.782 27.815 27.835 27.792 27.72 27.645 30.377 28.99 27.632 27.592 27.535 27.497 27.535 27.477 27.495 27.407 27.422 27.407 27.452 27.44 27.452 27.595 27.55 27.437 27.46 35.765 38.257 40.69 37.627 27.245 27.395 27.82 27.562 40.38 41.197 28.215 27.317 27.485 27.48 27.307 27.16 27.052 27.21 27.247 38.312 40.522 32.74 48.292 45.46 41.147 26.955 26.84 35.085 30.072 30.617 27.56 26.73 26.677 26.597 26.54 26.515 26.657 26.885 28.935 31.495 37.187 31.885 26.14 25.937 25.857 25.857 25.807 25.707 25.69 25.617 33.542 34.917 25.862 26.567 29.752 31.492 28.667 25.36 25.265 25.652 25.14 25.142 25.032 24.895 24.83 24.725 24.692 24.777 24.93 24.985 24.977 24.892 24.762 24.622 24.477 29.085 38.327 33.737 41.675 42.475 44.427 41.207 25.332
21.684 20.959 21.109 21.254 21.034 21.156 21.236 21.254 21.354 24.656 24.426 21.226 21.461 21.554 21.394 21.379 21.606 21.444 21.401 21.429 24.091 21.641 24.234 26.859 29.114 21.914 21.791 24.874 22.326 22.134 22.054 22.154 22.291 22.406 22.369 22.569 22.594 22.589 22.636 22.734 22.824 22.709 22.699 22.794 28.636 30.974 23.182 23.149 23.154 23.304 23.254 23.397 23.624 23.204 23.384 23.232 23.462 23.189 24.667 26.154 33.369 37.169 27.664 32.517 38.612 41.652 24.569 23.334 23.322 23.419 23.444 23.484 23.602 23.487 23.374 23.422 23.584 24.259 23.609 23.644 23.797 23.837 23.944 23.967 24.082 24.039 24.134 24.197 24.309 24.399 24.379 24.557 24.714 24.697 24.764 24.859 24.997 25.117 25.189 25.444 25.424 25.712 25.932 26.799 25.729 25.839 25.927 26.059 26.167 26.234 26.269 26.447 26.592 26.687 26.767 26.867 26.969 27.014 27.092 27.242 27.437 27.459 27.554 27.687 27.744 27.804 27.812 27.854 27.882 27.924 27.964 27.939 27.934 28.002 28.087 28.189 28.182 28.254 28.337 28.282 28.314 28.369 28.319 28.352 28.384 28.384 28.424 28.474 28.444 28.487 28.504 28.519 28.552 28.577 28.634 28.639 28.682 28.722 28.744 28.707 28.727 28.662 28.632 28.604 28.594 28.577 28.569 28.557 28.492 28.467 28.477 28.449 28.379 28.354 28.294 28.317 28.297 28.529 30.669 28.439 28.227 28.179 28.122 28.112 28.067 27.974 34.537 28.382 27.872 27.744 27.574 27.544 27.979 27.294 27.712 27.459 27.279 26.942 26.844 29.074 26.599 27.327 28.959 28.699 29.642 27.397 26.302 26.212 27.209 27.529 29.574 27.439 29.602 26.864 32.617 35.022 26.032 29.029 34.812 37.374 29.427 27.447 26.324 26.414 28.417 26.327 26.354 33.284 31.964 29.259 32.859 31.807 37.694 34.339 30.952 32.929 34.329 28.439 37.999 38.219 32.564 30.849 26.919 27.389 29.392 27.367 27.324 27.329 27.877 27.314 27.322 27.904 30.969 34.747 36.957 32.879 27.802 27.769 27.769 27.837 28.007 27.779 27.682 27.634 27.639 27.624 27.739 27.627 30.374 27.732 27.762 27.877 27.837 27.829 28.672 27.889 27.932 30.817 27.804 27.727 27.789 27.769 27.737 27.812 27.774 27.837 27.817 27.764 27.772 28.534 40.259 28.012 29.342 28.047 27.994 27.904 27.865 27.892 27.912 28.052 28.055 27.98 27.912 27.825 27.832 27.827 27.957 27.805 27.887 27.952 27.86 32.537 44.65 37.37 27.717 27.785 27.747 27.775 27.812 27.757 27.785 27.857 27.765 27.785 27.74 27.76 27.86 27.857 27.947 28.247 27.905 27.94 27.895 27.845 27.787 27.785 30.41 29.322 27.665 27.66 27.6 27.557 27.522 27.575 27.6 27.532 27.495 27.55 27.787 27.52 27.555 27.505 27.772 27.475 27.582 29.61 32.745 43.26 31.672 27.307 27.507 27.51 27.42 33.567 41.297 28.205 27.325 27.552 27.555 27.51 27.345 27.195 27.182 27.147 27.085 27.085 30.175 43.6 30.23 28.117 26.98 26.872 26.84 26.812 26.82 26.86 33.572 36.615 26.82 26.6 26.587 26.525 26.587 40.492 43.025 40.422 29.47 26.532 26.35 26.325 26.192 26.095 25.995 25.935 28.205 29.105 25.875 26.045 26.305 26.16 27.725 25.792 25.407 25.36 25.282 25.212 25.672 25.31 25.002 24.927 24.82 24.762 24.675 24.667 24.74 24.875 24.98 24.995 24.915 24.765 29.195 35.06 40.96 39.902 41.095 42.532 41.052 35.88
21.094 21.281 21.264 21.219 21.156 21.329 21.801 21.779 23.224 30.276 24.151 27.629 21.344 21.469 21.669 21.494 21.544 21.589 21.694 21.506 21.539 21.621 21.751 21.811 25.629 21.821 21.851 21.986 25.644 22.486 22.154 22.279 22.366 22.431 22.539 22.539 22.551 22.604 22.704 22.916 22.836 22.974 23.144 22.934 23.136 30.456 24.139 23.187 23.727 23.249 23.842 29.887 28.002 23.512 23.324 23.332 23.344 23.232 23.567 23.642 37.389 32.949 34.207 32.934 30.357 44.289 24.644 23.462 23.427 23.397 23.504 23.607 23.679 23.469 23.482 23.562 23.652 23.674 23.742 23.837 23.877 23.952 23.909 24.009 24.012 24.219 24.197 24.324 24.347 24.452 24.494 24.599 24.674 24.692 24.814 24.914 25.024 25.174 25.424 25.424 27.139 25.719 26.812 26.249 25.872 25.974 25.989 26.154 26.212 26.274 26.367 26.507 26.674 26.722 26.842 26.959 26.992 27.127 27.197 27.412 27.484 27.639 27.649 27.767 27.839 27.887 27.942 27.954 28.007 28.039 28.067 28.007 27.992 28.062 28.179 28.219 28.237 28.319 28.364 28.369 28.394 28.452 28.419 28.397 28.454 28.467 28.494 28.514 28.514 28.552 28.544 28.569 28.574 28.619 28.669 28.672 28.732 28.764 28.807 28.757 28.772 28.702 28.694 28.652 28.657 28.627 28.612 28.574 28.517 28.507 28.489 28.444 28.432 28.359 28.339 28.324 28.372 28.414 28.852 28.602 28.257 29.877 28.477 28.107 28.142 27.954 28.132 27.859 27.864 27.754 28.264 27.524 33.017 27.324 27.167 27.127 27.017 26.929 26.794 26.709 26.694 26.579 27.067 29.324 27.899 27.257 26.364 26.274 28.982 26.274 26.322 33.144 34.434 27.922 32.042 32.897 25.937 26.897 35.589 38.594 32.769 28.282 33.707 28.507 31.229 28.092 28.354 32.637 29.429 34.057 32.259 37.642 33.774 30.772 27.624 32.574 29.479 31.204 36.389 34.092 32.157 27.012 27.074 27.339 27.847 28.039 27.499 28.109 27.702 27.479 27.447 27.554 38.494 33.622 32.837 30.607 28.669 27.794 27.872 29.529 30.949 27.814 27.829 27.697 27.734 27.789 30.477 29.594 35.519 27.859 27.924 27.864 27.947 27.914 30.929 35.904 27.987 27.959 27.862 27.882 27.817 30.432 29.107 27.894 27.879 27.942 27.997 31.269 31.127 36.584 32.647 27.942 27.997 27.964 28.054 34.859 29.587 28 28.027 28.077 28.105 28.04 27.977 27.94 27.877 27.885 28.12 27.892 27.9 27.965 28.237 28.035 33.762 31.487 27.925 27.852 27.812 27.802 27.9 27.865 27.845 27.852 27.815 27.812 27.825 27.87 28.017 27.965 27.95 27.965 27.965 28.51 28.052 27.927 27.877 27.85 27.76 27.795 27.705 27.727 27.71 27.667 27.66 27.605 27.63 27.59 27.595 27.592 27.597 27.657 27.615 27.815 27.73 27.655 27.69 27.692 27.587 27.485 27.492 27.377 27.567 27.545 27.927 27.52 27.747 27.627 27.56 27.477 27.397 27.267 27.242 27.312 27.447 27.412 30.692 45.472 34.597 28.335 27.055 26.992 26.977 26.987 26.955 26.962 27.002 26.922 31.795 33.737 26.71 26.667 26.595 26.53 26.53 27.252 47.362 45.327 26.765 26.697 26.552 26.407 26.3 26.232 27.015 26.14 27.81 28.552 25.832 25.692 29.905 32.25 28.412 27.862 25.577 25.43 25.352 25.272 25.195 25.112 25.047 25.047 26.647 24.882 24.762 24.7 24.662 24.735 24.795 24.89 24.942 24.96 30.397 37.245 37.382 39.225 39.712 39.202 38.755 34.747
21.149 21.299 21.451 21.164 21.231 21.321 21.341 26.111 21.979 29.726 28.671 21.379 21.501 25.651 21.549 21.571 21.641 21.701 21.714 21.769 21.674 21.654 21.804 21.779 21.686 21.786 21.881 22.071 22.599 22.144 22.176 22.271 22.441 22.561 22.626 22.589 22.566 22.656 22.691 22.741 22.946 22.889 22.881 22.894 25.584 29.589 23.477 23.187 23.244 23.237 23.559 23.657 24.894 23.359 23.499 23.319 23.309 23.422 23.314 23.432 38.457 25.709 32.817 37.617 35.269 40.092 29.034 32.199 23.504 23.524 23.622 23.664 23.474 23.512 23.582 23.552 23.612 23.729 23.762 23.872 23.859 23.947 23.964 24.009 24.112 24.272 24.249 24.322 24.382 24.484 24.557 24.582 24.667 24.752 24.949 25.077 25.079 25.184 25.277 25.422 25.702 26.017 26.397 26.177 25.992 26.037 26.077 26.187 26.312 26.367 26.462 26.634 26.744 26.829 26.912 27.017 27.032 27.167 27.307 27.507 27.572 27.582 27.737 27.877 27.934 27.927 27.999 28.062 28.102 28.097 28.122 28.102 28.097 28.144 28.259 28.287 28.337 28.362 28.447 28.524 28.479 28.527 28.497 28.499 28.507 28.509 28.537 28.544 28.529 28.589 28.577 28.607 28.639 28.659 28.702 28.702 28.802 28.847 28.797 28.829 28.787 28.779 28.752 28.712 28.699 28.682 28.692 28.614 28.582 28.557 28.529 28.477 28.487 28.389 28.377 28.327 28.384 28.579 29.574 28.672 32.519 33.934 34.517 30.767 29.572 30.232 32.619 31.417 27.809 28.859 27.684 31.687 32.959 27.317 29.239 27.117 28.044 29.152 26.869 27.062 26.734 26.592 26.534 26.572 26.414 26.409 26.264 26.197 26.297 26.277 26.364 27.607 28.649 26.579 26.644 26.027 25.977 26.109 27.802 34.582 31.907 28.917 28.929 33.172 35.597 30.119 29.394 30.089 27.529 27.927 26.682 33.884 27.382 27.312 27.157 31.367 33.402 35.167 31.794 28.027 27.099 28.262 27.502 27.494 27.317 28.574 27.482 27.459 27.464 27.569 27.517 29.277 33.089 37.409 32.182 27.792 27.799 30.554 32.627 31.112 34.064 29.217 27.904 27.737 29.344 31.154 37.942 28.249 28.154 29.219 27.939 28.047 27.937 27.964 28.132 28.274 28.039 28.037 27.952 27.942 37.877 32.402 31.842 27.982 31.164 29.417 36.407 37.017 43.812 35.889 28.047 28.082 28.134 28.144 29.514 42.047 35.017 28.112 28.087 28.06 28.062 28.042 28.07 28.072 27.985 27.952 27.99 27.995 27.925 27.872 27.982 28.007 28.045 28.375 27.97 32.232 29.005 27.885 27.9 27.99 27.917 27.895 30.612 35.917 30.462 27.887 28.062 27.962 28.015 27.98 28.025 28.065 28.032 28.032 27.955 27.912 27.902 27.787 27.84 27.857 27.775 27.757 27.747 27.732 27.7 27.695 27.697 27.7 27.692 27.6 27.827 28.042 27.835 27.73 27.83 28.122 27.68 27.6 27.587 27.425 27.51 27.545 27.687 27.667 27.35 27.765 27.597 27.437 27.347 27.442 27.437 27.557 27.687 27.812 28.342 49.437 42.965 27.392 27.352 27.205 27.155 27.23 27.312 27.162 27.182 27.08 26.952 27.032 26.847 26.687 26.62 26.61 26.552 26.512 26.57 28.22 26.497 26.347 26.265 26.29 26.222 26.265 26.182 26.172 26.135 28.725 26.02 25.892 30.327 34.315 32.295 27.225 25.65 25.58 25.465 25.432 25.302 25.22 25.14 25.052 24.972 24.91 24.915 24.885 24.715 24.71 24.835 24.75 24.72 24.837 24.955 29 31.762 32.09 33.222 31.977 26.835 24.772
21.206 21.216 21.556 21.121 21.329 21.411 21.394 21.506 27.059 30.501 24.549 23.891 29.174 24.014 21.701 21.674 21.631 21.886 21.971 21.709 21.619 21.719 21.784 21.959 21.789 21.886 28.501 22.274 22.346 22.359 23.689 22.386 22.529 22.589 22.606 23.601 22.704 23.524 22.699 22.829 25.066 23.056 22.946 23.036 26.766 26.466 26.847 23.224 23.367 23.314 23.402 23.359 23.392 23.449 23.362 23.424 23.519 23.472 23.427 23.554 23.607 29.482 35.089 38.749 31.022 40.064 25.122 25.419 23.642 23.747 23.612 23.562 24.367 23.637 23.689 23.654 23.709 23.799 23.797 23.832 23.902 23.954 24.064 24.057 24.209 24.274 24.359 24.389 24.434 25.084 24.954 24.627 24.704 24.777 24.947 25.147 25.417 25.242 25.397 25.697 28.219 26.439 27.067 26.289 25.997 26.077 26.209 26.299 26.402 26.427 26.579 26.732 26.797 26.872 26.949 27.042 27.134 27.272 27.357 27.452 27.634 27.719 27.877 27.932 27.994 28.052 28.027 28.162 28.182 28.177 28.179 28.202 28.194 28.244 28.292 28.382 28.439 28.457 28.514 28.569 28.582 28.549 28.532 28.569 28.589 28.552 28.607 28.639 28.632 28.634 28.619 28.682 28.659 28.709 28.732 28.794 28.902 28.899 28.852 28.862 28.844 28.847 28.802 28.772 28.747 28.732 28.709 28.684 28.627 28.592 28.549 28.537 28.479 28.462 28.374 28.377 28.427 28.652 30.719 28.727 35.224 35.572 33.497 33.289 32.979 32.089 37.249 35.237 32.757 31.719 28.682 35.934 32.322 32.924 34.262 29.222 34.319 34.549 30.069 30.357 28.432 26.797 28.077 27.589 26.409 26.939 26.332 26.144 26.277 26.197 26.292 26.224 26.727 26.082 26.534 26.402 25.997 26.534 29.649 26.064 26.222 26.354 26.442 26.699 27.049 26.967 26.854 26.649 26.782 26.819 26.822 27.007 27.009 29.192 27.017 28.854 29.009 32.122 28.082 27.542 27.197 27.487 29.449 27.507 27.442 27.464 27.499 27.547 27.577 27.562 34.774 27.627 30.614 32.594 27.854 27.884 27.967 31.872 39.512 31.544 28.007 28.002 27.969 28.534 36.094 37.164 38.254 37.559 28.697 27.914 27.982 28.077 28.094 30.074 28.144 28.174 28.134 28.062 28.049 28.072 28.327 28.552 29.337 28.137 30.634 40.414 44.934 45.079 38.939 34.949 31.344 28.217 28.214 28.947 38.469 28.212 28.27 28.21 28.167 28.167 28.147 28.122 28.042 28.165 28.162 28.072 28.052 28.657 28.007 27.997 28.075 28.057 27.985 29.947 29.952 32.717 27.967 28.032 28.037 28.03 27.987 28.035 35.097 44.662 38.39 28.027 29.492 29.465 28.052 28.04 28.067 28.112 28.075 28.037 28.052 28.045 31.275 30.352 27.997 28 27.89 27.917 27.857 27.852 27.772 27.807 27.837 27.815 27.77 27.815 27.89 27.947 28.177 28.137 28.275 27.815 27.662 27.672 27.585 27.517 27.57 27.617 27.895 27.717 27.405 27.822 27.572 27.41 29.875 27.5 29.39 31.772 29.435 27.6 27.612 38.18 32.287 27.52 27.28 27.172 27.235 27.25 27.38 27.267 27.277 27.137 27.017 27.112 30.21 36.852 29.572 26.815 26.747 26.787 26.765 26.787 26.675 26.717 26.68 26.31 26.187 26.262 26.187 26.147 26.14 26.09 26.025 26.025 30.985 35.51 32.43 26.002 25.86 25.69 25.575 25.462 25.387 25.28 25.235 25.132 25.037 25.092 25.04 24.815 24.997 24.82 24.787 24.69 24.477 24.425 24.627 24.805 24.922 24.98 24.935 24.782 24.51 24.365
22.516 21.314 21.591 21.354 23.746 23.734 23.796 21.521 21.531 27.339 24.864 26.069 27.554 26.536 22.806 21.651 22.734 21.731 22.204 21.966 21.781 21.726 22.009 21.986 21.899 21.871 22.879 22.139 22.231 22.539 22.514 25.016 22.856 22.614 24.554 30.596 27.674 22.679 23.039 26.116 23.074 26.236 23.066 23.004 23.084 26.919 26.552 23.179 23.342 23.359 23.397 23.742 24.084 23.427 23.412 24.882 23.484 23.469 23.484 23.677 23.694 27.217 31.902 33.332 38.259 36.579 23.597 25.369 23.679 23.729 23.662 23.597 23.747 23.782 23.754 25.072 23.732 23.849 23.879 23.944 24.002 24.062 24.127 24.107 24.234 26.924 24.442 24.484 24.504 24.597 25.542 24.664 24.782 24.854 24.949 25.094 25.222 25.252 25.327 25.739 26.822 26.334 28.144 26.422 26.112 26.172 26.239 26.397 26.474 26.512 26.649 26.782 26.872 26.967 27.004 27.139 27.289 27.347 27.422 27.562 27.707 27.777 27.897 27.974 28.127 28.147 28.184 28.162 28.192 28.207 28.244 28.312 28.294 28.354 28.362 28.449 28.522 28.574 28.649 28.692 28.609 28.599 28.627 28.632 28.622 28.622 28.664 28.679 28.639 28.622 28.674 28.684 28.712 28.749 28.764 28.824 28.887 28.934 28.917 28.894 28.912 28.867 28.827 28.809 28.787 28.794 28.807 28.719 28.664 28.619 28.582 28.559 28.539 28.484 28.409 28.382 28.404 28.342 30.942 29.204 32.867 33.932 33.902 30.012 34.162 35.002 36.809 37.524 36.339 36.742 33.207 37.449 37.662 36.042 33.932 30.234 37.104 37.309 31.829 36.599 29.239 26.942 32.059 33.199 27.597 26.297 26.339 26.242 26.384 26.232 26.292 32.224 28.394 26.147 26.462 26.072 26.122 26.222 26.889 26.134 26.087 26.272 26.392 26.469 26.747 28.877 26.859 26.782 26.887 26.937 26.967 26.984 27.072 27.139 27.267 27.162 27.184 27.417 27.752 27.692 27.747 27.292 27.224 27.537 27.579 27.597 27.612 27.619 27.619 27.829 36.222 30.622 27.842 28.534 28.754 29.977 31.772 28.072 28.114 28.182 28.047 28.124 28.069 28.964 37.749 33.419 44.097 29.774 28.067 27.977 28.102 28.247 28.174 28.219 28.277 28.162 28.192 28.174 28.139 28.257 28.522 28.224 28.154 28.174 28.144 34.659 29.927 31.184 28.194 28.187 28.264 28.374 31.619 36.789 31.694 28.317 28.332 28.247 28.26 28.305 28.23 28.267 28.182 28.17 28.202 28.125 28.137 28.142 28.115 28.15 28.132 28.152 28.032 31.125 31.01 31.44 28.072 28.065 28.042 28.092 27.955 28.077 30.222 34.445 34.03 28.105 28.16 28.125 28.075 28.122 28.182 28.117 28.205 28.162 28.11 34.027 38.377 28.705 28.207 28.047 28.15 28.057 27.93 27.932 27.92 27.927 27.862 27.825 27.902 27.855 27.932 28.162 28.225 27.94 27.735 27.812 27.747 27.657 27.652 27.597 27.64 27.66 28.207 27.805 27.535 34.565 34.015 27.92 31.832 27.492 42.75 39.22 27.515 27.515 27.362 27.352 28.027 27.68 27.332 27.28 27.21 27.182 27.725 27.242 28.075 27.175 27.122 27.085 27.187 33.69 27.537 29.87 38.345 34.772 29.88 26.97 26.712 26.745 26.835 28.262 26.312 26.19 26.232 26.167 26.242 26.64 26.117 26 32.087 33.985 27.065 25.86 27.905 25.8 25.56 25.5 25.435 25.815 25.195 25.167 25.027 25.002 24.92 24.86 24.842 24.845 24.745 27.287 28.357 26.015 24.44 24.467 24.582 24.747 24.91 24.925 24.912 24.78
24.784 21.464 21.694 21.196 23.179 23.986 21.544 21.609 21.591 21.656 21.709 31.216 31.321 21.629 22.619 21.769 21.801 21.821 21.946 21.946 21.789 21.799 21.929 22.426 21.974 21.961 22.026 24.489 23.539 22.424 22.546 23.276 22.566 22.656 24.336 29.224 23.316 23.351 22.751 33.064 22.856 22.894 22.901 23.014 23.156 23.426 25.764 23.342 23.402 23.469 23.512 23.544 23.874 23.622 23.504 23.614 23.602 23.622 23.684 23.642 23.674 27.039 31.044 27.207 29.584 31.634 23.837 23.912 23.657 23.622 23.742 23.694 23.937 23.797 23.812 23.914 23.932 23.927 24.059 24.054 24.134 24.207 24.209 24.202 24.237 25.494 24.502 24.507 24.629 24.627 24.722 24.782 24.839 25.019 24.989 25.147 25.237 25.299 25.812 25.622 25.989 26.874 28.187 26.294 26.172 26.269 26.334 26.504 26.567 26.634 26.732 26.834 26.944 27.027 27.149 27.269 27.434 27.479 27.589 27.749 27.757 27.842 27.999 28.069 28.154 28.217 28.202 28.259 28.274 28.322 28.392 28.409 28.449 28.424 28.449 28.544 28.582 28.619 28.767 28.757 28.747 28.662 28.669 28.654 28.657 28.652 28.737 28.719 28.734 28.724 28.769 28.764 28.749 28.774 28.812 28.869 28.907 28.937 28.942 28.914 28.944 28.902 28.899 28.879 28.842 28.849 28.834 28.799 28.734 28.657 28.682 28.577 28.517 28.502 28.457 28.427 28.494 28.679 29.487 28.487 28.227 28.112 30.197 28.062 28.774 33.427 34.062 30.399 29.549 35.247 36.209 32.382 35.917 36.374 36.327 31.729 36.232 36.744 31.259 30.687 29.529 30.174 26.724 32.262 28.349 28.977 26.642 26.432 26.329 26.297 27.057 34.714 31.069 26.209 26.334 26.137 26.144 26.257 26.149 26.297 26.244 27.852 30.069 33.914 32.599 28.952 26.809 28.097 28.622 29.194 31.809 27.774 29.467 27.159 27.387 27.237 28.549 27.304 27.419 28.869 28.099 27.337 27.379 27.614 27.667 27.672 27.689 27.654 27.679 29.549 27.692 27.767 27.859 28.822 28.047 29.962 29.864 28.162 28.199 28.167 28.112 28.179 28.174 28.079 34.112 28.659 28.762 28.127 28.122 30.304 32.289 28.252 28.237 28.684 28.322 28.254 28.222 28.239 28.354 28.399 28.334 28.257 28.274 28.302 28.302 28.359 28.357 28.282 28.289 28.302 28.364 28.407 28.414 28.484 28.519 28.424 28.385 28.457 28.402 28.352 28.467 28.39 28.32 28.23 28.282 28.252 28.225 28.362 30.812 28.245 28.222 28.195 28.74 38.837 40.05 32.6 28.257 28.147 28.12 28.112 32.172 31.027 28.742 28.19 28.095 28.142 30.705 28.23 28.145 28.18 28.26 28.255 28.255 28.222 28.207 28.187 29.157 28.162 28.09 28.105 28.067 28.085 28.05 27.997 28.052 27.932 27.985 27.927 27.915 27.922 27.932 28.132 28.152 28.115 27.865 27.925 27.802 27.905 27.69 27.687 27.71 27.682 27.955 27.64 27.745 32.345 42.065 34.58 29.572 31.085 31.552 30.137 27.597 27.592 27.522 27.375 27.495 27.78 27.315 27.235 27.222 27.247 27.222 36.605 35.445 27.127 27.08 27.065 27.072 27.032 27.135 35.37 48.065 49.76 42.267 26.895 26.675 29.102 26.672 26.58 26.475 26.307 26.155 26.1 26.242 26.267 26.032 26.005 25.997 28.662 25.952 25.872 25.535 25.595 25.672 27.335 25.455 25.33 25.242 25.157 25.05 24.972 24.975 24.955 24.87 24.797 24.71 29.692 35.3 33.602 25.09 24.69 24.34 24.38 24.527 24.77 24.877 24.932
23.894 28.801 21.631 21.229 21.556 21.574 21.716 21.631 21.656 23.936 21.859 31.479 25.701 21.746 23.656 21.821 21.914 21.876 21.799 22.034 21.931 21.929 21.944 22.091 22.059 21.966 23.819 28.861 30.044 22.959 22.599 22.601 22.556 22.656 34.696 30.104 29.381 28.516 27.681 29.481 23.936 23.434 23.656 23.126 23.216 23.331 24.089 23.422 23.489 23.594 23.594 23.689 24.447 23.639 23.619 23.659 24.152 23.742 23.697 23.672 23.752 23.829 24.379 24.812 25.637 26.619 24.822 25.432 23.672 23.759 27.339 30.652 25.219 23.814 23.899 24.104 24.044 23.977 24.102 24.127 24.169 24.202 24.277 24.337 24.344 24.444 24.554 24.604 24.632 24.687 24.749 24.827 24.924 25.049 25.069 25.164 25.279 25.857 25.549 25.959 26.557 27.462 27.664 26.204 26.304 26.384 26.452 26.539 26.607 26.709 26.822 26.954 26.994 27.124 27.209 27.357 27.489 27.564 27.727 27.857 27.854 27.924 28.052 28.132 28.227 28.254 28.252 28.324 28.339 28.414 28.459 28.497 28.564 28.519 28.547 28.647 28.729 28.744 28.864 28.872 28.817 28.772 28.744 28.747 28.769 28.739 28.767 28.752 28.797 28.764 28.779 28.802 28.797 28.839 28.834 28.924 28.932 28.947 28.994 28.964 28.957 28.929 28.942 28.919 28.889 28.874 28.869 28.844 28.772 28.732 28.682 28.609 28.597 28.522 28.477 28.409 28.444 28.939 29.089 28.747 28.297 28.114 28.124 27.934 27.924 28.369 27.899 27.827 27.749 28.669 29.942 29.937 32.389 31.977 34.157 31.804 30.859 28.919 30.344 30.949 37.197 30.324 28.914 39.557 30.689 33.704 28.282 26.544 26.412 31.242 32.549 28.977 26.127 26.259 26.229 26.249 26.267 26.232 26.214 26.242 26.344 26.712 31.639 34.967 34.014 27.722 26.829 35.429 35.707 35.182 34.324 32.377 29.292 29.734 28.067 27.357 35.554 32.809 29.999 33.427 29.707 27.432 27.449 27.662 27.867 27.692 29.169 29.414 27.762 27.857 27.794 27.944 27.984 32.797 31.647 28.162 29.772 28.239 28.374 28.274 28.202 28.299 28.249 28.129 28.092 28.369 28.167 30.347 32.397 31.604 29.057 28.329 28.319 28.387 28.407 28.359 28.437 28.417 28.384 28.482 28.427 28.374 28.394 28.442 28.404 28.479 28.424 28.369 28.442 31.172 32.902 30.114 28.524 28.529 28.524 28.517 28.54 28.455 28.475 28.472 28.472 28.47 28.477 28.33 35.517 33.25 28.33 29.32 28.31 28.277 28.332 28.195 28.307 31.59 30.075 28.262 28.21 28.265 28.16 29.187 34.022 34.35 29.66 28.197 28.22 28.23 35.477 30.25 28.265 28.315 28.275 28.382 28.37 28.342 28.242 28.3 28.307 28.192 28.22 28.167 28.197 28.122 28.092 28.132 28.032 28.105 28.14 28.04 28.07 28.082 28 27.975 27.982 28.022 28.157 28.047 27.927 27.915 27.8 27.785 27.73 27.75 27.742 27.59 27.845 27.86 35.732 37.845 29.142 27.635 27.89 27.662 27.667 27.582 32.967 41.225 33.76 27.622 27.402 27.34 27.302 27.267 27.887 43.112 48.46 37.45 30.18 27.18 29.302 27.14 29.915 38.515 48.127 49.43 45.057 27.062 26.815 27.42 27.59 26.672 26.465 26.487 26.475 26.165 26.12 26.085 26.012 25.95 25.887 25.835 26.192 25.777 25.725 25.73 25.365 25.567 25.55 25.332 25.335 25.19 25.065 25.012 24.925 24.957 24.86 24.742 24.682 24.675 33.235 38.75 25.93 25.562 24.47 24.282 24.302 24.385 24.517 24.72
21.486 24.014 21.721 21.501 21.554 21.644 21.599 21.594 21.671 21.846 21.841 28.914 21.859 21.731 21.881 21.971 22.204 22.054 21.909 22.031 22.146 22.086 22.011 22.096 22.111 24.519 26.156 30.019 32.301 24.591 22.541 22.676 22.646 22.859 28.414 25.074 30.664 28.054 29.594 32.094 25.029 23.301 23.054 23.121 23.269 23.414 24.364 23.559 23.607 23.689 23.602 23.669 23.657 23.657 23.722 23.714 23.747 23.742 23.747 23.754 23.842 23.774 23.774 23.787 23.907 23.959 26.179 26.084 23.762 23.782 30.307 26.022 27.647 23.927 23.967 24.004 24.092 24.154 25.022 24.267 24.304 24.287 24.617 24.839 24.679 24.497 24.634 24.634 24.652 24.737 25.319 24.917 25.017 25.099 25.177 25.787 25.339 25.494 26.002 26.424 26.194 28.357 28.002 26.334 26.384 26.422 26.532 26.617 26.639 26.794 26.924 27.014 27.152 27.272 27.297 27.407 27.612 27.687 27.832 27.867 27.954 28.037 28.097 28.154 28.324 28.377 28.327 28.384 28.447 28.487 28.507 28.569 28.627 28.599 28.629 28.674 28.822 28.792 28.967 28.959 28.887 28.799 28.819 28.799 28.862 28.834 28.852 28.829 28.824 28.812 28.839 28.867 28.872 28.874 28.892 28.942 28.967 29.002 29.039 28.999 28.962 28.952 28.972 28.939 28.942 28.934 28.907 28.874 28.797 28.759 28.732 28.642 28.602 28.537 28.487 28.477 28.454 28.529 29.879 28.762 28.242 29.667 30.249 33.504 31.507 27.984 29.124 30.384 27.804 27.654 28.072 27.859 28.052 27.422 27.319 27.324 27.087 27.199 26.949 28.667 29.317 26.932 26.832 30.257 26.669 29.559 27.082 26.494 26.264 33.659 34.552 26.889 26.232 26.234 26.139 26.274 26.239 26.172 26.329 26.789 26.317 26.477 26.617 28.824 29.739 27.627 27.804 33.334 31.552 31.894 32.354 32.467 32.579 33.727 28.479 31.069 35.179 35.962 37.717 33.692 28.834 27.474 27.544 27.677 27.952 27.807 38.442 32.884 27.867 27.862 27.894 28.042 28.774 35.227 37.884 29.384 28.277 28.342 28.342 28.339 28.307 28.469 28.342 28.212 28.097 28.217 28.237 38.002 28.924 28.359 31.374 28.419 28.434 28.442 28.527 28.509 28.572 28.679 28.509 28.439 28.527 28.562 28.549 28.567 28.559 28.597 28.549 28.527 28.607 35.264 37.742 32.387 28.619 28.592 28.667 28.667 29.042 28.625 29.022 28.682 28.505 28.487 28.455 29.875 38.582 37.22 42.442 29.092 31.815 28.37 28.42 28.34 28.407 28.385 28.452 28.302 28.332 28.415 28.295 28.782 32.365 32.61 29.205 28.325 28.277 28.427 32.06 28.362 28.41 28.422 28.337 28.367 28.377 28.325 28.442 28.327 28.297 28.34 28.215 28.247 28.207 28.227 28.195 28.112 28.115 28.255 28.175 28.117 28.082 28.177 28.055 28.042 28.157 28.112 28.267 28.022 28.28 28.055 27.84 28.017 28.127 27.892 27.855 27.652 27.83 27.775 28.62 27.825 27.712 27.652 27.942 27.825 27.87 27.72 39.457 49.25 47.085 27.585 27.52 27.487 27.355 27.427 27.41 33.647 39.525 31.03 27.637 30.965 35.615 28.74 27.102 28.142 43.225 47.717 32.42 27.507 27.132 26.765 28.62 27.085 26.59 26.565 26.492 26.475 26.3 26.045 25.97 25.89 25.94 25.845 25.79 25.777 25.7 25.762 25.575 25.322 25.4 25.547 25.275 25.185 25.082 25 24.982 24.88 24.815 24.675 24.72 26.575 29.332 33.02 32.74 33.285 26.825 24.387 24.385 24.287 24.265 24.297
21.604 21.811 21.741 21.566 21.694 21.701 21.541 21.726 21.919 21.724 21.906 21.864 21.829 21.824 22.044 22.061 22.279 22.094 22.044 22.034 22.026 22.174 22.099 22.141 22.156 22.136 22.149 33.454 31.806 24.924 22.681 22.801 22.794 22.764 28.839 35.841 32.251 31.846 31.396 27.379 24.011 24.371 23.909 23.229 23.351 23.411 23.439 23.547 23.532 23.702 23.692 28.597 28.449 23.764 23.777 23.802 23.769 23.837 23.887 23.899 23.814 23.864 23.947 24.012 23.977 23.844 23.834 23.897 25.339 24.599 26.464 26.899 23.967 24.364 24.052 24.029 24.209 24.172 24.212 24.339 24.339 24.374 24.437 24.672 26.279 24.619 24.684 24.719 24.737 24.737 24.824 24.929 24.989 25.102 25.244 25.372 25.419 25.519 25.622 26.189 26.507 28.219 26.804 26.422 26.464 26.467 26.617 26.674 26.709 26.912 26.999 27.072 27.197 27.329 27.449 27.504 27.597 27.724 27.777 27.897 27.959 28.077 28.172 28.229 28.419 28.372 28.399 28.454 28.499 28.577 28.582 28.619 28.672 28.677 28.714 28.744 28.814 28.842 28.947 28.884 28.847 28.817 28.904 28.839 28.849 28.852 28.952 28.942 28.897 28.912 28.907 28.934 28.962 28.952 28.939 28.997 29.027 29.052 29.094 29.027 29.039 29.004 28.994 28.987 28.979 28.964 28.944 28.902 28.819 28.799 28.744 28.709 28.629 28.582 28.522 28.497 28.502 28.682 28.712 28.697 28.269 29.417 34.482 34.517 34.977 28.069 33.409 33.082 30.904 27.912 27.569 33.467 32.617 27.352 27.322 30.327 27.494 27.497 28.004 26.959 26.887 26.757 26.702 26.577 26.714 26.354 26.597 28.149 26.339 26.702 26.264 26.129 26.184 26.314 26.202 26.234 26.817 27.149 26.414 26.382 26.617 26.889 26.852 26.992 26.677 27.157 28.597 34.439 30.554 27.149 27.012 36.127 36.594 36.469 31.464 38.872 38.472 39.727 37.984 35.574 29.617 27.582 27.619 28.847 27.952 27.932 30.009 27.899 28.504 27.967 28.052 28.149 34.372 29.247 29.354 30.312 28.419 28.374 28.444 28.504 28.409 28.694 30.599 28.259 28.252 28.264 28.397 28.469 28.604 28.417 28.484 28.489 28.502 28.617 28.622 28.622 28.907 28.609 28.582 28.619 28.597 28.619 28.759 28.684 28.654 28.702 28.622 28.634 28.634 28.694 33.847 30.357 28.704 28.679 28.687 28.684 28.68 28.705 28.615 28.62 28.627 28.625 28.512 28.627 28.95 36.805 28.55 28.542 30.02 28.527 28.49 28.56 29.977 28.437 33.987 29.91 28.38 28.357 28.37 28.377 28.415 28.42 28.38 29.167 28.42 28.457 28.462 28.41 28.462 28.472 28.4 28.41 28.435 28.47 28.455 28.502 28.745 28.33 28.31 28.33 28.737 28.255 28.252 28.38 28.19 28.207 28.227 28.192 28.152 28.132 28.095 28.18 28.237 28.077 28.107 28.085 28.027 28.042 27.967 28.21 28.452 27.975 27.88 27.722 27.925 27.987 28.102 27.887 27.67 27.692 27.972 27.785 27.825 29.805 46.052 46.152 38.195 27.65 27.597 27.572 27.48 27.567 27.77 27.61 27.702 30.032 31.327 27.27 33.757 30.805 27.177 32.147 47.91 51.5 32.547 27.785 27 26.825 26.652 26.747 26.815 26.695 26.547 26.437 26.587 26.322 26.12 26.025 25.88 25.835 25.76 25.74 25.795 25.697 26.402 25.642 25.392 25.295 25.435 25.72 25.297 25.015 24.997 24.87 24.802 24.702 24.745 24.787 30.41 34.222 34.68 30.962 27.997 25.222 25.622 24.465 24.227 24.155
22.294 22.289 23.659 21.624 21.859 21.759 21.701 21.771 21.846 21.824 21.999 21.906 21.886 21.881 22.156 22.089 22.251 22.204 22.149 22.076 22.094 22.229 22.304 22.339 22.306 22.326 22.319 33.099 26.946 24.819 22.779 22.956 22.806 22.916 23.929 31.864 26.726 28.569 24.461 25.036 23.406 27.129 27.331 24.359 23.376 23.444 23.584 23.604 23.704 23.742 24.929 26.814 31.124 23.984 23.952 23.907 23.922 23.954 23.947 23.942 23.957 24.147 24.184 24.137 24.049 23.944 23.969 24.054 24.099 24.062 24.082 24.124 24.114 24.087 24.064 24.154 24.192 24.272 24.324 24.349 24.342 24.409 24.479 24.579 24.559 24.684 24.734 24.749 24.834 24.777 24.914 24.972 25.072 25.159 25.354 25.397 25.599 25.722 25.699 26.269 26.522 27.772 26.317 26.417 26.512 26.559 26.712 26.764 26.844 26.939 27.047 27.234 27.279 27.427 27.534 27.609 27.667 27.724 27.842 27.957 28.007 28.159 28.307 28.302 28.379 28.407 28.459 28.492 28.539 28.582 28.652 28.702 28.729 28.794 28.784 28.784 28.862 28.924 28.969 28.929 28.917 28.914 28.924 28.922 28.904 28.852 28.982 28.974 28.974 28.972 28.994 28.977 29.029 28.989 29.057 29.052 29.107 29.102 29.107 29.079 29.082 29.044 29.049 29.007 29.034 28.989 28.952 28.917 28.857 28.797 28.759 28.747 28.662 28.619 28.604 28.514 28.532 28.617 29.002 29.077 30.922 32.179 36.752 33.759 33.727 34.849 33.629 28.972 28.337 34.762 27.644 35.829 31.859 30.779 28.527 31.139 32.282 28.704 30.899 26.789 28.232 26.659 26.644 26.569 29.657 26.419 27.284 30.309 26.449 32.504 29.457 32.709 28.784 27.159 26.984 26.252 26.479 26.314 26.362 26.394 26.487 31.384 28.747 27.359 26.862 26.929 26.867 27.024 27.159 27.174 27.259 29.539 31.434 32.324 29.302 38.642 34.942 37.474 34.117 37.202 30.057 27.737 27.757 27.952 28.052 27.939 29.954 29.049 31.004 28.102 28.082 28.204 28.402 28.262 28.332 28.397 28.509 28.469 28.517 28.502 28.542 28.522 28.447 28.327 31.082 35.334 30.097 28.557 28.509 28.494 28.534 28.559 38.694 28.712 30.927 28.672 28.729 28.697 28.682 28.714 28.769 28.907 28.802 28.854 28.797 28.752 28.939 28.794 28.824 28.837 28.824 28.839 28.797 28.807 28.794 28.807 28.797 28.767 28.782 28.717 33.715 41.467 31.72 28.692 28.602 28.617 28.637 28.655 28.622 28.585 28.56 28.53 28.555 28.552 35.325 41.782 30.757 28.532 28.467 28.462 28.45 29.64 34.075 29.752 28.495 28.5 28.507 28.47 28.455 28.442 28.452 28.475 28.465 28.525 28.475 29.605 29.317 28.407 28.41 28.425 28.34 28.355 28.372 28.287 28.317 28.237 28.285 28.29 28.257 28.22 28.255 28.262 28.207 29.587 28.162 28.152 28.11 28.067 28.017 28.25 28.212 28.027 27.997 27.97 28.205 28.012 27.992 27.962 27.82 27.775 27.935 27.845 27.85 27.762 28.882 28.02 27.945 27.69 27.747 27.642 27.652 27.652 27.735 27.607 27.535 27.667 29.522 27.292 27.23 27.2 27.167 27.142 35.882 50.092 43.007 27.29 26.995 26.887 27.71 26.777 26.595 26.562 26.657 26.495 26.427 26.57 26.302 26.15 26.182 27.495 25.847 25.73 25.68 25.685 25.695 25.567 25.495 25.567 25.282 25.36 25.417 25.355 25.017 24.987 24.85 24.812 24.807 24.695 24.7 26.925 28.492 25.03 24.495 24.487 24.867 24.765 24.332 24.367
22.456 22.019 21.851 21.691 22.569 21.811 21.791 21.794 21.926 21.924 22.036 22.034 21.971 22.031 25.846 22.199 22.316 22.344 22.286 22.166 22.236 22.254 22.556 22.399 22.621 22.399 22.429 29.196 28.224 25.801 22.811 22.894 22.979 22.886 22.941 23.101 28.759 30.159 27.991 23.141 24.511 26.611 28.626 23.819 23.511 23.544 23.649 23.669 23.697 23.857 23.897 30.179 29.392 28.102 24.042 24.049 24.037 24.074 24.142 24.172 24.044 26.254 24.242 24.219 24.097 24.217 24.209 24.204 24.187 26.822 27.907 24.254 24.387 24.212 24.197 24.259 24.274 24.337 24.387 24.399 24.477 24.399 24.557 24.804 24.664 24.684 24.704 24.714 24.792 24.887 25.014 25.197 25.307 25.292 25.374 25.514 25.887 25.849 26.022 27.804 27.687 27.752 26.352 26.429 26.539 26.647 26.752 26.809 26.937 27.027 27.142 27.284 27.384 27.527 27.634 27.692 27.762 27.834 27.937 28.059 28.127 28.217 28.289 28.419 28.484 28.492 28.537 28.582 28.594 28.679 28.747 28.794 28.829 28.889 28.854 28.834 28.939 28.964 29.037 28.987 28.992 29.002 28.992 28.964 28.959 28.927 28.977 29.014 29.039 29.069 29.077 29.079 29.129 28.997 29.099 29.104 29.164 29.159 29.154 29.107 29.117 29.067 29.074 29.057 29.047 28.999 28.984 28.974 28.902 28.829 28.767 28.769 28.709 28.634 28.677 28.567 28.599 28.954 28.739 29.424 28.637 31.324 32.332 30.649 31.917 37.289 35.092 33.962 36.979 31.027 32.959 31.604 30.827 36.679 30.492 27.229 27.319 33.434 29.194 30.269 28.722 34.432 27.507 29.729 28.469 32.007 32.142 30.254 26.489 29.664 34.112 32.362 26.489 34.869 34.292 28.144 27.237 26.744 27.682 28.119 26.652 29.969 27.374 26.947 31.847 28.039 27.852 32.787 27.299 27.567 29.429 28.482 27.487 27.587 27.737 27.624 28.074 27.737 27.842 27.874 29.304 30.257 27.854 27.904 28.137 28.087 28.072 28.104 30.734 28.144 28.257 28.364 28.314 28.294 28.457 30.672 32.412 28.544 28.597 28.632 28.554 28.539 28.539 34.407 30.344 29.004 29.592 28.592 28.589 28.677 37.672 34.179 28.824 28.814 28.807 28.832 33.779 28.774 28.807 28.839 28.847 28.894 28.914 32.002 34.827 28.974 28.867 28.882 28.979 28.942 28.992 28.947 28.927 28.912 29.327 28.914 28.947 28.922 28.922 29.867 35.645 37.497 28.757 28.722 28.685 28.67 28.7 28.63 28.625 28.675 29.63 28.67 28.617 30.027 30.657 28.745 29.867 28.617 28.572 28.575 28.517 28.475 34.097 31.727 28.537 28.495 28.522 28.527 28.535 28.557 28.515 28.525 28.527 28.585 29.9 29.135 28.905 28.452 28.445 31.957 39.692 31.547 28.437 28.375 28.397 28.41 28.385 28.315 28.405 28.392 28.365 28.372 28.927 32.99 28.3 28.295 28.235 28.18 28.095 28.032 28.085 28.142 28.235 28.12 28.525 30.702 28.057 27.975 27.902 27.792 27.75 27.822 27.867 29.077 27.932 27.892 30.6 32.82 29.682 27.667 27.675 27.692 27.555 27.577 27.547 27.612 27.505 34.975 29.09 27.345 27.24 27.232 30.322 31.62 30.825 27.152 27.08 26.84 26.76 26.622 26.662 26.76 30.362 29.205 26.745 26.455 26.435 26.337 26.257 26.267 26.295 25.862 25.73 25.62 25.615 25.62 25.597 25.485 25.335 25.18 25.155 25.39 25.157 24.91 24.847 25.31 24.857 24.76 24.712 24.672 30.777 33.235 28.787 24.57 24.762 24.422 24.31 25.11
22.356 23.999 22.176 21.726 23.689 21.994 21.856 21.869 21.884 21.944 22.079 22.016 24.109 25.716 32.824 22.209 22.256 22.314 22.291 22.239 22.254 22.336 22.426 22.426 22.511 22.419 22.461 23.291 24.791 22.696 22.829 23.291 22.934 22.904 22.931 23.069 31.289 29.529 27.289 23.284 23.461 23.459 24.966 23.409 23.511 23.641 23.774 23.792 23.797 23.932 24.037 24.364 25.959 25.659 24.114 24.929 24.579 24.189 24.224 24.144 24.234 24.254 24.212 24.112 24.257 24.307 30.369 24.302 24.344 26.649 29.232 26.102 24.834 24.279 24.269 24.297 24.327 24.424 24.457 24.454 24.767 25.462 24.607 26.207 24.719 24.777 24.757 24.942 25.242 24.969 25.037 25.202 25.279 25.374 25.467 25.599 26.587 25.847 25.984 26.284 27.834 26.702 26.427 26.529 26.624 26.739 26.844 26.899 27.014 27.124 27.312 27.369 27.497 27.582 27.682 27.857 27.902 27.994 28.052 28.137 28.199 28.292 28.382 28.457 28.532 28.589 28.614 28.622 28.669 28.747 28.847 28.797 28.897 28.934 28.934 28.927 28.987 29.009 29.034 29.037 29.074 29.087 29.092 29.087 29.084 28.969 29.119 29.057 29.134 29.139 29.112 29.129 29.162 29.072 29.172 29.182 29.234 29.234 29.204 29.159 29.164 29.104 29.099 29.064 29.039 29.034 28.984 28.974 28.902 28.812 28.779 28.782 28.747 28.659 28.712 28.589 28.627 29.422 31.149 29.399 30.349 28.812 28.287 28.262 30.782 31.854 35.199 29.047 29.287 28.652 29.227 27.424 30.717 31.792 27.274 27.497 28.549 27.029 30.402 32.637 28.972 31.812 26.899 26.802 28.504 28.377 30.452 27.947 29.154 26.337 28.664 30.699 27.879 30.974 31.204 28.169 33.142 32.934 28.174 28.379 27.857 27.864 27.282 32.749 33.089 31.479 31.122 38.594 29.837 27.962 31.432 32.524 27.654 35.804 33.182 31.769 34.589 30.772 34.117 27.954 28.327 29.882 27.894 27.914 28.264 28.167 28.209 28.529 28.142 28.244 28.344 28.384 28.349 28.414 30.452 40.277 33.984 30.697 28.772 28.644 28.714 31.222 30.587 37.154 32.537 28.629 28.764 28.717 28.707 29.427 37.174 37.942 28.884 28.859 32.177 29.462 31.174 28.912 28.999 28.972 28.987 28.982 34.029 36.252 38.849 31.392 28.969 29.084 29.009 29.002 29.072 29.084 29.109 29.209 29.047 29.102 28.942 32.73 38.902 33.337 29.177 28.87 28.812 28.865 29.635 28.867 28.865 28.777 34.32 33.962 30.862 29.805 31.1 36.095 41.555 28.97 28.71 28.64 28.7 28.622 28.607 28.602 28.665 28.595 31.847 38.762 32.637 34.065 41.067 29.365 28.575 28.592 28.585 36.462 46.115 37.32 28.595 28.515 28.432 37.79 34.64 28.517 28.482 28.502 28.49 28.48 28.407 28.365 28.45 28.467 28.535 28.635 28.582 28.435 28.385 28.492 28.295 28.277 28.15 28.122 28.352 28.195 28.192 28.242 28.56 28.25 28.067 27.937 27.92 29.675 28.19 28.065 27.922 27.937 37.085 41.4 30.302 43.22 32.74 27.715 27.725 27.69 27.68 27.732 29.725 27.59 27.847 46.625 47.71 36.295 27.305 29.735 33.655 27.097 27.09 27.182 27.165 26.95 26.785 26.732 26.72 26.645 26.842 28.105 26.622 26.522 26.357 26.502 26.46 26.317 26.1 27.002 25.955 25.84 25.605 25.525 25.532 25.52 25.525 25.287 25.272 25.045 25.652 24.957 24.93 25.117 24.887 24.947 24.762 24.737 30.067 37.655 41.307 35.47 37.567 24.41 25.305 29.317
21.986 25.304 24.016 21.869 22.066 21.874 21.899 21.944 22.124 22.081 22.989 22.094 23.206 28.064 25.776 24.006 22.306 22.324 22.496 22.434 22.421 22.461 22.511 22.674 22.576 22.646 22.599 22.689 22.831 24.481 27.659 23.606 23.054 23.046 23.069 23.139 24.396 34.074 24.451 23.329 23.376 23.331 23.384 23.544 23.644 23.781 24.229 23.854 24.052 26.249 24.084 24.604 24.144 24.164 24.237 24.347 24.237 24.262 24.274 24.392 24.334 24.304 24.294 24.254 24.404 24.324 24.392 24.342 32.664 25.227 36.267 26.184 24.464 24.382 24.334 24.402 24.469 24.492 24.662 24.604 24.644 24.672 24.632 24.799 24.742 24.869 24.924 25.004 25.292 25.154 25.169 25.299 25.339 25.479 25.537 25.634 25.959 25.834 26.212 26.719 28.167 26.809 26.517 26.669 26.712 26.834 26.922 26.959 27.097 27.242 27.434 27.502 27.689 27.682 27.914 27.932 27.967 28.059 28.127 28.204 28.289 28.369 28.442 28.502 28.597 28.677 28.619 28.662 28.739 28.834 28.872 28.899 28.972 28.999 29.009 28.984 29.052 29.087 29.084 29.099 29.152 29.162 29.209 29.144 29.139 29.119 29.179 29.177 29.212 29.202 29.214 29.212 29.202 29.184 29.249 29.262 29.249 29.284 29.232 29.202 29.157 29.169 29.094 29.069 29.047 29.009 28.997 28.942 28.892 28.837 28.772 28.789 28.732 28.679 28.632 28.562 28.627 28.712 29.484 28.749 28.642 28.274 28.214 28.159 28.612 29.977 28.072 28.129 27.729 28.222 28.287 27.987 28.989 27.962 27.359 27.229 27.309 27.142 28.012 33.009 31.519 29.832 26.659 28.784 28.397 31.262 31.519 30.697 29.162 26.702 27.359 35.717 29.839 29.459 28.407 30.862 29.892 33.579 33.327 28.427 37.894 29.952 26.847 30.642 34.089 35.262 35.312 27.702 27.334 34.027 30.299 32.779 32.947 36.069 32.439 36.114 37.442 35.897 37.059 30.607 34.994 39.807 32.772 27.982 28.292 28.367 28.642 28.267 28.292 28.604 28.449 28.514 28.514 28.557 28.597 36.104 42.074 37.357 28.769 28.772 33.277 37.449 30.792 34.869 30.872 28.737 28.947 28.789 28.819 28.782 30.329 29.117 28.972 29.004 29.039 29.064 29.014 29.067 29.114 29.117 29.064 29.097 38.949 39.684 37.539 30.014 29.014 29.099 29.059 29.087 29.204 29.057 29.082 29.092 29.099 29.157 29.792 35.49 42.392 35.905 29.042 29.005 28.952 37.242 35.797 30.145 30.757 28.985 29.875 32.447 28.835 28.86 28.835 29.56 28.757 28.762 30.285 28.752 28.75 28.747 28.722 28.767 28.715 28.627 30.132 38.782 40.562 36.602 29.64 28.665 28.642 28.677 28.652 37.23 45.005 39.475 29.527 28.585 28.462 28.557 28.632 28.587 28.595 28.552 28.562 28.592 28.485 28.502 28.467 28.532 28.647 28.745 28.525 31.202 30.82 28.447 28.387 28.355 28.222 30.632 36.835 31.945 28.252 28.227 30.65 28.377 28.127 28.087 28.13 40.432 44.067 28.11 27.945 28.022 47.44 52.627 43.435 44.667 32.705 27.735 27.632 27.637 27.625 27.627 27.742 27.65 27.615 44.365 50.292 38.562 27.38 35.65 29.852 27.192 27.112 27.157 31.442 29.645 31.945 26.845 26.87 26.712 27.127 26.62 26.6 26.51 26.51 26.33 26.45 26.41 26.427 26.165 26.245 26.172 25.79 25.717 25.597 25.485 25.53 25.405 25.255 25.215 24.935 25.007 25.325 25.255 25.182 24.82 24.745 27.605 32.837 37.192 34.517 41.387 34.632 27.465 26.59 32.767
22.199 22.091 22.009 21.866 22.376 21.944 22.026 23.594 22.581 22.204 28.474 23.336 22.859 28.716 23.424 23.534 22.404 22.486 22.524 22.519 22.564 22.619 22.696 22.701 22.754 22.639 22.711 22.716 31.614 33.936 33.019 28.789 28.619 23.164 23.139 23.201 23.459 23.341 23.319 23.376 23.486 23.434 23.509 23.659 23.781 23.994 24.069 23.992 24.102 24.784 24.157 24.304 24.287 24.552 24.317 24.372 25.297 28.724 25.087 24.514 24.449 24.604 26.012 24.544 24.447 24.524 24.529 24.467 31.694 34.944 33.774 24.637 24.502 24.462 24.469 24.562 24.539 25.599 24.622 24.617 24.699 24.682 24.957 24.792 24.834 24.934 24.984 25.017 25.027 25.157 25.244 25.302 25.757 25.562 25.584 25.717 26.777 26.019 26.224 26.887 27.922 26.909 26.602 26.747 26.837 26.909 27.004 27.092 27.197 27.382 27.507 27.577 27.764 27.814 27.894 27.977 28.042 28.107 28.187 28.269 28.359 28.424 28.499 28.554 28.624 28.667 28.662 28.742 28.797 28.859 28.932 28.939 29.039 29.059 29.097 29.092 29.082 29.187 29.157 29.164 29.204 29.197 29.259 29.224 29.194 29.099 29.234 29.229 29.237 29.254 29.264 29.299 29.209 29.247 29.284 29.312 29.322 29.294 29.267 29.214 29.227 29.159 29.144 29.092 29.059 29.044 29.004 28.952 28.887 28.842 28.817 28.757 28.704 28.704 28.607 28.554 28.579 28.692 28.769 29.652 28.659 28.222 28.154 28.592 29.014 35.837 28.712 30.702 30.499 28.117 28.087 28.112 27.452 27.592 27.362 27.414 28.514 28.034 28.849 28.754 27.852 26.709 27.852 30.752 28.934 26.804 26.709 26.807 27.842 26.719 28.639 32.422 27.874 33.274 26.872 26.464 26.497 27.189 33.234 29.144 29.762 31.449 29.527 28.894 34.509 29.629 30.939 34.909 30.327 30.457 37.329 29.657 35.254 33.989 36.932 34.744 39.967 32.149 35.982 31.362 35.589 35.667 30.954 28.114 28.377 28.344 28.377 28.369 28.474 28.522 28.582 30.374 32.169 28.674 29.552 33.494 33.697 28.829 29.829 33.264 31.214 41.717 29.824 29.134 28.762 28.812 31.154 33.512 28.882 28.937 29.014 28.999 29.059 29.054 37.359 31.672 29.189 29.294 29.162 29.204 29.179 34.919 29.864 30.359 32.112 29.174 29.227 29.207 29.147 29.167 29.187 29.282 29.312 29.219 29.172 29.184 29.192 29.88 30.655 29.16 29.262 29.177 29.097 41.042 43.485 30.525 29.137 29.045 29.01 29 28.982 28.96 28.922 28.907 28.942 28.82 28.82 28.837 28.845 28.89 29.23 28.84 28.782 28.822 28.755 31.71 35.675 30.252 28.947 28.76 28.702 28.677 30.67 34.852 44.41 35.562 28.662 28.6 28.897 28.642 29.747 29.93 28.785 28.657 28.722 28.602 28.572 28.572 28.585 28.667 28.622 28.637 29.205 42.932 41.99 32.447 28.595 28.435 28.317 28.467 33.96 33.385 28.287 28.307 28.655 29.81 28.292 28.057 32.7 35.99 37.495 28.725 28.032 34.035 50.552 52.35 46.442 28.057 27.935 27.872 27.86 27.752 31.437 27.695 29.032 27.53 27.485 37.322 36.935 29.42 27.49 27.467 27.377 27.255 27.112 27.475 41.257 48.597 49.397 30.49 26.862 26.86 27.537 28.055 28.985 26.52 26.645 26.707 26.515 26.53 26.357 26.23 26.13 26.107 25.882 25.79 25.692 25.69 25.517 25.4 25.287 25.165 25.072 25.335 25.035 25.175 25.13 24.922 26.867 30.587 31.085 36.697 36.467 26.78 31.995 34.377 25.357 29.592
22.099 22.334 24.126 23.441 22.431 22.679 22.204 23.219 22.814 22.094 31.084 22.379 23.989 24.714 26.616 22.436 22.476 22.571 22.554 22.664 22.691 22.859 22.671 22.739 22.866 24.269 27.424 22.766 28.509 34.774 35.629 25.334 24.094 23.441 23.284 23.234 23.449 23.501 23.366 23.469 23.486 23.549 23.619 23.774 23.954 24.021 24.114 24.204 25.837 24.354 24.299 24.252 24.277 24.819 24.379 24.542 24.464 27.009 28.197 24.497 24.457 24.567 31.092 24.659 24.554 24.617 24.667 29.969 25.059 25.637 28.109 24.629 24.637 24.532 24.542 24.664 24.647 24.664 24.714 24.694 24.827 24.939 24.907 24.932 24.874 25.234 26.902 25.027 25.107 25.139 25.237 25.352 25.457 25.564 25.647 25.729 26.644 26.394 26.317 26.767 26.637 26.684 26.722 26.854 26.939 26.994 27.049 27.174 27.349 27.502 27.554 27.697 27.809 27.929 27.984 28.017 28.122 28.192 28.269 28.369 28.422 28.474 28.559 28.637 28.652 28.692 28.734 28.804 28.877 28.959 28.987 29.044 29.102 29.222 29.224 29.157 29.139 29.239 29.232 29.262 29.274 29.327 29.282 29.277 29.272 29.159 29.284 29.289 29.252 29.309 29.302 29.314 29.239 29.324 29.354 29.322 29.349 29.337 29.282 29.282 29.247 29.219 29.179 29.104 29.059 29.047 29.004 28.964 28.919 28.837 28.809 28.737 28.677 28.674 28.667 28.582 28.552 28.634 29.612 31.129 28.547 28.199 28.134 28.137 27.982 28.119 27.957 28.264 28.239 27.772 28.172 27.472 27.474 27.414 27.789 28.157 29.402 27.422 26.827 29.624 31.734 29.674 28.249 36.929 33.009 27.224 26.674 27.242 26.487 26.552 26.967 26.437 35.524 28.744 31.049 28.137 28.194 32.834 27.984 27.659 30.104 30.829 32.349 31.789 29.669 37.662 32.944 33.949 37.837 30.662 33.782 35.779 31.954 30.922 38.354 39.627 36.079 31.474 32.479 36.302 36.317 28.737 37.229 28.959 29.242 28.439 28.414 28.419 28.542 28.652 28.759 39.894 40.509 29.174 28.892 28.924 28.942 28.967 30.159 30.862 29.057 28.894 28.849 28.779 28.879 29.004 32.179 36.724 28.999 29.072 29.114 29.067 29.134 32.044 35.597 34.492 29.227 29.347 29.312 34.012 35.552 37.694 40.212 29.389 29.332 29.342 29.317 29.307 29.267 29.242 29.299 29.269 29.279 29.274 29.262 29.324 29.267 29.357 29.277 29.237 29.28 29.212 29.217 36.125 32.865 29.187 29.16 29.112 29.725 40.69 32.082 29.062 29.01 29.007 28.962 28.935 28.962 28.84 28.962 29.05 28.932 28.927 28.885 28.785 28.812 28.825 28.837 28.83 28.82 28.875 30.36 30.9 33.01 30.345 28.727 28.71 28.635 29.5 32.077 31.422 29.19 28.692 28.702 28.72 28.67 28.795 28.662 28.947 28.727 28.642 28.635 28.635 35.517 37.28 44.55 34.522 28.577 28.5 28.417 28.567 28.467 28.54 28.402 28.407 28.71 28.38 28.292 32.827 44.58 46.302 28.282 28.215 28.147 28.18 44.327 49.852 43.432 35.512 27.992 27.987 27.962 27.947 29.327 40.967 32.205 27.652 27.677 27.655 27.612 27.52 30.427 41.85 37.61 27.33 27.157 27.137 36.055 49.307 45.322 29.36 26.827 26.817 26.677 28.837 28.102 26.597 27.722 26.655 27.132 26.685 26.407 26.36 26.205 26.24 26.05 25.937 25.935 25.755 25.532 25.455 25.452 25.197 25.362 25.557 25.535 26.135 25.045 25.295 25.032 26.177 25.91 26.562 30.93 28.37 24.675 25.32 29.155 31.447
