ncols 443
nrows 32
xllcorner    456030
yllcorner    90008
cellsize     2
NODATA_value -9999
26.467 26.375 26.297 26.23 26.212 26.17 26.135 26.12 26.06 25.982 25.917 25.862 25.747 25.607 25.495 25.522 25.515 25.5 25.607 25.76 25.917 26.055 26.19 26.362 26.535 26.672 26.832 26.982 27.107 27.192 27.282 27.37 27.512 27.522 27.572 27.637 27.687 27.76 27.795 27.812 27.855 27.902 27.915 27.937 27.925 27.955 27.967 27.96 27.94 27.96 27.962 27.92 27.902 27.865 27.855 27.835 27.81 27.76 27.717 27.637 27.567 27.505 27.445 27.335 27.24 27.18 27.095 27.01 26.882 26.815 26.697 26.56 28.945 26.682 25.547 25.297 25.012 24.997 25.022 24.982 25.075 25.04 25.025 24.765 24.557 24.667 24.77 24.81 24.847 26.517 28.965 26.937 25.062 25.122 25.14 25.117 25.115 25.137 25.162 25.147 25.117 25.08 25.045 25.027 24.97 24.882 24.832 24.76 24.747 24.687 24.705 24.667 24.62 24.547 24.472 24.412 24.39 24.325 24.24 24.15 24.075 24.012 23.922 23.79 23.677 23.542 23.427 23.332 23.162 23.01 22.862 22.67 22.522 22.45 22.28 22.142 22.01 21.915 21.777 21.617 21.492 21.375 21.265 21.152 21.037 20.937 20.815 20.702 20.537 20.46 20.372 20.265 20.217 20.135 19.967 19.885 19.827 19.747 19.617 19.437 19.372 21.047 19.752 19.41 19.42 19.485 19.532 19.582 19.69 19.745 19.82 19.897 19.95 19.975 19.992 20.015 20.09 20.242 20.332 20.357 20.412 20.572 22.072 21.602 21.135 21.677 22.835 22.125 22.032 22.185 22.322 22.487 22.635 22.74 22.807 22.865 22.965 23.042 23.14 23.222 23.33 23.402 23.497 23.542 23.625 23.685 23.77 23.845 23.93 23.987 24.057 24.13 24.187 24.275 24.322 24.405 24.45 24.535 24.59 24.615 24.657 24.7 24.74 24.782 24.822 24.845 24.897 24.942 24.992 24.977 24.99 25.007 25.005 24.995 24.995 25 25.012 24.965 24.925 24.902 24.9 24.88 24.875 24.867 24.81 24.81 24.777 24.745 24.715 24.675 24.64 24.742 25.322 26.202 24.522 24.47 24.392 24.32 24.277 24.235 24.202 24.177 24.19 24.17 24.075 24.077 24.055 24.29 24.825 23.35 23.355 24.49 23.81 23.397 23.347 23.31 23.31 23.19 23.177 23.107 23.075 23.047 22.997 22.957 22.937 22.907 22.845 22.867 22.85 22.82 22.817 22.797 22.77 22.747 22.74 22.75 22.697 22.66 22.66 22.632 22.605 22.607 22.597 22.615 22.587 22.625 22.657 22.665 22.635 22.607 22.605 22.59 22.567 22.577 22.577 22.612 22.63 22.625 22.6 22.62 22.582 22.575 22.525 22.502 22.46 22.425 22.412 22.427 22.397 22.38 22.335 22.302 22.305 22.272 22.227 22.182 22.147 22.067 22.065 21.962 21.91 21.867 21.8 21.745 21.63 21.537 21.402 21.35 21.177 21.02 20.84 20.652 20.432 20.24 20.035 19.792 19.56 19.357 19.192 19.057 18.945 18.917 18.947 20.517 25.452 24.602 24.725 19.317 18.947 19.12 19.247 19.302 19.377 19.492 19.56 19.762 19.96 20.157 20.35 20.54 20.692 20.885 21 21.112 21.252 21.362 21.512 21.642 21.765 21.885 22.005 22.082 22.185 22.242 22.33 22.442 22.507 22.607 22.675 22.765 22.845 22.9 22.99 23.087 23.155 23.232 23.32 23.397 23.477 23.547 23.647 23.702 23.772 23.822 23.862 23.927 24.017 24.05 24.117 24.167 24.257 24.302 24.377 24.395 24.497 24.515 24.54 24.562 24.642 24.662 24.715 24.755 24.78 24.825 24.935 24.962 25.002 25.062 25.105 25.162 25.24 25.247 25.297
26.37 26.267 26.182 26.117 26.105 26.057 26.032 26.027 25.977 25.88 25.792 25.717 25.632 25.49 25.397 25.407 25.397 25.402 25.505 25.66 25.81 25.927 26.112 26.267 26.445 26.582 26.735 26.885 27.012 27.11 27.187 27.297 27.385 27.462 27.48 27.537 27.617 27.665 27.687 27.74 27.772 27.82 27.827 27.852 27.852 27.897 27.89 27.89 27.887 27.885 27.905 27.857 27.845 27.815 27.747 27.737 27.697 27.65 27.605 27.535 27.467 27.41 27.35 27.252 27.182 27.112 27.002 26.935 26.825 26.715 26.645 26.49 28.292 26.88 25.497 25.257 25.182 25.042 24.952 24.992 25.01 24.892 24.757 24.402 24.365 24.497 24.575 24.655 24.692 25.41 27.287 26.167 24.88 24.907 24.947 24.92 24.927 24.947 24.95 24.957 24.945 24.902 24.87 24.822 24.79 24.71 24.632 24.597 24.612 24.54 24.542 24.492 24.457 24.382 24.322 24.287 24.242 24.165 24.05 23.965 23.887 23.787 23.71 23.605 23.492 23.35 23.197 23.057 22.92 22.802 22.665 22.47 22.345 22.232 22.077 21.95 21.837 21.737 21.622 21.442 21.3 21.192 21.087 20.947 20.852 20.747 20.642 20.49 20.355 20.257 20.187 20.125 20.03 19.905 19.78 19.705 19.64 19.565 19.452 19.32 19.187 20.4 20.147 19.245 19.235 19.325 19.397 19.485 19.542 19.647 19.727 19.807 19.877 19.907 19.945 20.022 20.11 20.265 20.352 20.412 20.422 21.09 22.345 21.255 21.172 22.375 22.862 21.93 22.147 22.277 22.437 22.587 22.69 22.762 22.807 22.915 22.975 23.062 23.152 23.237 23.305 23.41 23.492 23.535 23.647 23.702 23.765 23.827 23.927 24.005 24.067 24.122 24.202 24.275 24.355 24.402 24.47 24.507 24.577 24.602 24.625 24.662 24.72 25.02 25.375 25.535 25.302 25.042 24.902 24.922 24.952 24.95 24.97 24.962 24.992 24.975 24.962 24.98 24.965 24.92 24.897 24.872 24.87 24.857 24.835 24.822 24.802 24.747 24.687 24.647 24.615 24.52 25.397 26.005 24.817 24.435 24.362 24.302 24.245 24.207 24.177 24.147 24.14 24.085 24.025 24.017 24.035 24.542 24.615 23.312 23.475 24.642 23.482 23.307 23.252 23.237 23.22 23.127 23.072 23.025 23.005 22.937 22.922 22.905 22.865 22.825 22.772 22.775 22.757 22.747 22.707 22.697 22.695 22.69 22.65 22.637 22.605 22.577 22.577 22.53 22.525 22.465 22.487 22.487 22.51 22.55 22.54 22.535 22.532 22.512 22.495 22.48 22.465 22.475 22.502 22.492 22.537 22.532 22.515 22.5 22.495 22.455 22.412 22.375 22.375 22.335 22.322 22.305 22.32 22.275 22.265 22.225 22.195 22.19 22.132 22.09 22.057 22.015 21.96 21.877 21.875 21.83 21.74 21.642 21.585 21.472 21.34 21.235 21.115 20.947 20.742 20.542 20.327 20.142 19.892 19.695 19.487 19.245 19.065 18.985 18.89 18.852 19.022 20.822 19.492 20.547 18.815 18.745 18.837 19.032 19.192 19.237 19.322 19.372 19.482 19.657 19.835 20.055 20.235 20.4 20.577 20.74 20.892 21.017 21.12 21.27 21.387 21.515 21.65 21.772 21.882 21.985 22.057 22.17 22.282 22.362 22.452 22.527 22.632 22.69 22.75 22.822 22.905 22.987 23.082 23.15 23.245 23.295 23.402 23.45 23.537 23.6 23.672 23.717 23.76 23.822 23.895 23.95 24.02 24.065 24.115 24.207 24.237 24.295 24.367 24.415 24.432 24.435 24.495 24.517 24.582 24.595 24.637 24.69 24.73 24.775 24.84 24.902 24.947 25.02 25.067 25.122 25.165
26.307 26.202 26.13 26.015 25.987 25.98 25.965 25.917 25.857 25.792 25.725 25.652 25.552 25.42 25.315 25.262 25.267 25.31 25.427 25.567 25.74 25.907 26.04 26.192 26.35 26.482 26.655 26.797 26.87 26.997 27.107 27.212 27.307 27.37 27.395 27.482 27.555 27.595 27.64 27.655 27.695 27.742 27.735 27.757 27.767 27.79 27.815 27.802 27.805 27.83 27.812 27.815 27.767 27.732 27.69 27.677 27.64 27.59 27.522 27.455 27.392 27.312 27.255 27.177 27.102 26.997 26.905 26.835 26.71 26.637 26.535 26.422 27.005 27.54 25.455 25.225 24.965 24.717 24.58 24.545 24.51 24.377 24.282 24.17 24.22 24.352 24.43 24.52 24.54 24.755 26.022 25.432 24.657 24.69 24.747 24.722 24.702 24.725 24.73 24.745 24.752 24.74 24.712 24.657 24.615 24.55 24.487 24.442 24.472 24.405 24.382 24.34 24.315 24.21 24.13 24.085 24.027 23.972 23.905 23.792 23.692 23.57 23.52 23.397 23.25 23.167 23.015 22.87 22.735 22.585 22.447 22.3 22.145 22.042 21.877 21.75 21.635 21.555 21.42 21.272 21.12 20.99 20.877 20.762 20.66 20.552 20.397 20.31 20.147 20.025 19.977 19.897 19.842 19.772 19.625 19.48 19.427 19.362 19.272 19.155 19.072 20.01 20.417 19.112 19.125 19.242 19.347 19.41 19.487 19.612 19.687 19.75 19.815 19.885 20.007 20.077 20.232 20.37 20.46 20.472 20.49 21.417 22.147 21.227 21.557 22.76 21.987 22.087 22.25 22.415 22.537 22.65 22.715 22.802 22.845 22.925 22.977 23.125 23.175 23.262 23.352 23.437 23.51 23.597 23.71 23.722 23.807 23.837 23.907 23.97 24.067 24.165 24.207 24.3 24.332 24.385 24.442 24.5 24.555 24.632 24.667 25.257 25.67 25.89 25.867 25.98 26.192 25.937 25.822 25.64 25.582 25.262 24.957 24.957 24.97 24.942 24.902 24.942 24.96 24.902 24.882 24.895 24.88 24.872 24.842 24.79 24.77 24.77 24.697 24.615 24.567 24.472 25.037 25.922 25.192 24.372 24.332 24.305 24.227 24.2 24.132 24.125 24.087 24.047 23.982 23.967 24.01 24.487 23.857 23.24 23.89 24.425 23.315 23.22 23.167 23.182 23.12 23.042 22.98 22.932 22.9 22.87 22.84 22.832 22.79 22.737 22.717 22.707 22.69 22.68 22.632 22.625 22.61 22.587 22.542 22.515 22.487 22.482 22.465 22.427 22.405 22.392 22.405 22.402 22.415 22.435 22.435 22.435 22.41 22.407 22.367 22.367 22.382 22.347 22.385 22.417 22.44 22.412 22.422 22.39 22.39 22.36 22.33 22.285 22.252 22.24 22.232 22.205 22.215 22.205 22.175 22.14 22.117 22.105 22.067 22.017 21.975 21.937 21.88 21.812 21.792 21.722 21.677 21.59 21.485 21.385 21.26 21.16 20.987 20.837 20.652 20.447 20.237 20.027 19.825 19.602 19.385 19.205 19.007 18.897 18.825 18.82 19.262 19.47 18.902 19.645 19.502 18.805 18.795 18.917 19.062 19.172 19.232 19.255 19.38 19.502 19.685 19.89 20.067 20.26 20.455 20.615 20.77 20.905 21.01 21.155 21.265 21.385 21.515 21.655 21.742 21.81 21.912 22.017 22.157 22.255 22.345 22.43 22.507 22.59 22.692 22.777 22.85 22.93 23.022 23.095 23.177 23.23 23.317 23.365 23.435 23.51 23.557 23.597 23.652 23.735 23.782 23.845 23.92 23.955 24.02 24.082 24.127 24.172 24.212 24.28 24.302 24.34 24.352 24.407 24.41 24.457 24.497 24.547 24.59 24.665 24.705 24.757 24.817 24.867 24.952 25.002 25.045
26.36 26.252 26.097 25.98 25.842 25.832 25.812 25.81 25.81 25.732 25.642 25.572 25.47 25.327 25.24 25.195 25.205 25.255 25.35 25.535 25.685 25.812 25.975 26.13 26.29 26.415 26.572 26.715 26.815 26.932 27.025 27.122 27.235 27.28 27.327 27.41 27.472 27.542 27.56 27.585 27.635 27.665 27.69 27.695 27.712 27.75 27.73 27.71 27.72 27.725 27.722 27.722 27.677 27.657 27.62 27.632 27.577 27.515 27.462 27.385 27.312 27.242 27.16 27.082 26.997 26.91 26.805 26.73 26.615 26.54 26.435 26.33 26.565 27.892 25.47 25.175 24.845 24.61 24.355 24.262 24.222 24.105 24.04 24.027 24.06 24.17 24.26 24.33 24.365 24.385 25.517 25.595 24.497 24.522 24.562 24.517 24.497 24.53 24.577 24.58 24.572 24.572 24.535 24.507 24.452 24.395 24.34 24.292 24.277 24.227 24.18 24.16 24.095 24.035 23.96 23.895 23.837 23.78 23.685 23.58 23.5 23.385 23.315 23.197 23.057 22.937 22.802 22.662 22.52 22.41 22.282 22.092 21.94 21.802 21.685 21.575 21.457 21.335 21.217 21.062 20.922 20.785 20.687 20.545 20.427 20.302 20.167 20.07 19.932 19.832 19.8 19.725 19.657 19.565 19.412 19.287 19.24 19.18 19.105 19.005 18.925 19.405 21.01 19.057 19.027 19.162 19.3 19.382 19.465 19.577 19.677 19.755 19.875 19.977 20.08 20.205 20.352 20.497 20.597 20.572 20.632 22.062 21.857 21.3 22.012 22.567 22.045 22.222 22.347 22.497 22.607 22.702 22.735 22.81 22.875 22.942 23.007 23.117 23.21 23.302 23.392 23.477 23.555 23.617 23.687 23.75 23.817 23.87 23.922 23.995 24.09 24.162 24.237 24.327 24.36 24.392 24.41 24.6 25.272 25.46 26.857 26.232 25.942 25.337 24.885 24.847 25.355 25.59 26.002 26.087 25.84 26.04 25.915 25.79 25.342 24.92 24.852 24.887 24.902 24.91 24.907 24.865 24.88 24.85 24.787 24.807 24.77 24.747 24.695 24.642 24.557 24.477 24.565 25.792 25.67 24.345 24.302 24.242 24.177 24.145 24.077 24.047 24.017 24 24.002 23.982 24.125 24.865 23.375 23.232 23.897 24.01 23.22 23.135 23.112 23.115 23.015 22.955 22.92 22.877 22.807 22.782 22.745 22.732 22.682 22.682 22.662 22.622 22.59 22.577 22.557 22.515 22.497 22.472 22.465 22.432 22.392 22.395 22.345 22.332 22.305 22.297 22.305 22.315 22.312 22.315 22.322 22.32 22.277 22.275 22.25 22.28 22.25 22.285 22.297 22.312 22.342 22.325 22.297 22.29 22.287 22.25 22.22 22.167 22.165 22.125 22.137 22.127 22.115 22.077 22.092 22.04 22.002 21.97 21.96 21.917 21.88 21.84 21.762 21.74 21.675 21.632 21.57 21.482 21.392 21.317 21.172 21.045 20.885 20.712 20.55 20.375 20.13 19.9 19.722 19.51 19.307 19.085 18.992 18.875 18.81 18.815 19.55 19.017 17.865 19.692 19.337 18.922 19.042 18.96 18.972 19.102 19.157 19.43 19.35 19.427 19.567 19.727 19.86 20.05 20.23 20.392 20.567 20.745 20.905 21.042 21.2 21.3 21.417 21.525 21.64 21.717 21.785 21.912 22.03 22.135 22.21 22.305 22.377 22.487 22.595 22.672 22.745 22.815 22.9 22.972 23.055 23.147 23.222 23.262 23.345 23.392 23.435 23.522 23.57 23.63 23.705 23.747 23.82 23.877 23.95 23.977 24.025 24.085 24.112 24.152 24.182 24.21 24.215 24.267 24.257 24.32 24.35 24.412 24.467 24.545 24.607 24.67 24.747 24.79 24.832 24.902 24.945
26.057 26.56 26.477 26.492 26.23 25.972 25.675 25.69 25.672 25.65 25.552 25.457 25.287 25.107 25.067 25.097 25.135 25.227 25.337 25.447 25.592 25.757 25.915 26.045 26.197 26.34 26.497 26.645 26.752 26.855 26.952 27.055 27.14 27.195 27.275 27.367 27.397 27.455 27.465 27.507 27.545 27.582 27.605 27.615 27.635 27.66 27.665 27.642 27.667 27.677 27.635 27.63 27.577 27.552 27.532 27.507 27.452 27.407 27.362 27.3 27.242 27.162 27.085 27.002 26.907 26.827 26.737 26.64 26.562 26.47 26.37 26.247 26.347 28.487 25.755 24.995 24.745 24.492 24.23 24.082 24.02 23.942 23.91 23.907 23.93 24.002 24.092 24.2 24.247 24.252 25.247 25.26 24.315 24.325 24.367 24.33 24.322 24.335 24.415 24.412 24.382 24.405 24.38 24.322 24.302 24.25 24.19 24.122 24.122 24.062 24.007 23.97 23.907 23.832 23.76 23.682 23.637 23.545 23.475 23.385 23.285 23.177 23.097 22.99 22.867 22.737 22.59 22.457 22.32 22.2 22.072 21.93 21.74 21.6 21.492 21.355 21.265 21.11 21.02 20.877 20.735 20.552 20.435 20.322 20.177 20.09 19.962 19.822 19.732 19.647 19.577 19.53 19.417 19.332 19.23 19.135 19.07 18.985 18.932 18.845 19.162 20.51 20.647 18.875 19.012 19.16 19.282 19.412 19.507 19.65 19.745 19.85 19.98 20.105 20.217 20.372 20.517 20.642 20.712 20.727 20.8 22.48 21.455 21.407 22.52 22.405 22.132 22.3 22.427 22.555 22.682 22.73 22.77 22.82 22.91 22.987 23.047 23.127 23.265 23.337 23.44 23.477 23.575 23.672 23.705 23.79 23.857 23.92 23.95 24.037 24.137 24.2 24.267 24.272 24.3 24.355 24.385 25.35 25.83 26.805 27.005 25.595 24.692 24.732 24.78 24.827 24.827 24.827 24.825 24.892 25.192 25.347 25.972 26.175 26.107 26.045 25.165 24.81 24.822 24.86 24.882 24.89 24.877 24.852 24.772 24.785 24.752 24.745 24.69 24.66 24.59 24.505 24.417 25.29 25.88 25.16 24.337 24.242 24.175 24.14 24.04 24.02 23.955 23.96 24.017 23.997 24.582 24.712 23.15 23.115 24.565 23.727 23.112 23.02 23.035 23.012 22.925 22.89 22.84 22.782 22.752 22.71 22.657 22.655 22.647 22.572 22.55 22.53 22.497 22.485 22.467 22.437 22.43 22.397 22.385 22.345 22.3 22.29 22.265 22.212 22.202 22.195 22.192 22.177 22.24 22.225 22.19 22.21 22.185 22.167 22.162 22.195 22.162 22.167 22.22 22.247 22.23 22.237 22.187 22.177 22.137 22.132 22.092 22.065 22.05 22.047 22.037 22.022 22.015 22.035 21.977 21.93 21.925 21.877 21.825 21.827 21.775 21.71 21.677 21.635 21.577 21.5 21.465 21.375 21.282 21.192 21.092 20.92 20.772 20.595 20.43 20.272 20.03 19.825 19.637 19.395 19.222 19.025 18.907 18.815 18.765 18.782 19.645 20.905 18.402 18.235 18.412 18.8 18.88 19.185 19.265 19.482 19.392 19.625 19.565 19.907 20.042 19.87 19.695 19.83 19.97 20.17 20.367 20.557 20.727 20.88 21.037 21.15 21.307 21.395 21.49 21.57 21.652 21.82 21.945 22.055 22.115 22.195 22.272 22.375 22.495 22.53 22.61 22.687 22.755 22.822 22.907 22.992 23.057 23.125 23.222 23.3 23.327 23.397 23.437 23.51 23.575 23.652 23.702 23.755 23.817 23.867 23.912 23.95 24 24.035 24.08 24.087 24.13 24.157 24.17 24.225 24.252 24.345 24.427 24.477 24.54 24.565 24.667 24.712 24.745 24.802 24.835
25.352 25.252 25.167 25.282 25.457 25.95 26.162 25.982 25.677 25.437 25.367 25.392 25.01 24.852 24.892 25.02 25.137 25.215 25.287 25.402 25.542 25.7 25.835 25.965 26.105 26.275 26.437 26.572 26.672 26.777 26.895 27.015 27.07 27.13 27.205 27.282 27.342 27.387 27.397 27.425 27.462 27.497 27.51 27.53 27.577 27.595 27.585 27.57 27.575 27.592 27.57 27.55 27.507 27.477 27.452 27.41 27.362 27.31 27.255 27.2 27.137 27.067 26.995 26.932 26.85 26.745 26.662 26.567 26.45 26.367 26.285 26.177 26.027 28.582 26.427 24.952 24.707 24.452 24.2 23.99 23.917 23.855 23.805 23.795 23.825 23.845 23.92 24.02 24.055 24.067 24.752 25.407 24.137 24.15 24.185 24.175 24.17 24.165 24.227 24.262 24.215 24.217 24.182 24.165 24.117 24.055 23.987 23.94 23.935 23.885 23.812 23.787 23.707 23.642 23.575 23.512 23.45 23.347 23.287 23.172 23.077 22.997 22.885 22.787 22.672 22.535 22.37 22.247 22.115 21.987 21.85 21.725 21.537 21.395 21.272 21.13 21.01 20.907 20.78 20.625 20.477 20.335 20.177 20.087 19.972 19.84 19.737 19.637 19.53 19.442 19.37 19.285 19.192 19.14 19.055 18.952 18.887 18.835 18.762 19.125 20.217 20.125 19.082 18.937 19.067 19.247 19.34 19.472 19.587 19.717 19.857 19.97 20.107 20.215 20.372 20.532 20.697 20.79 20.817 20.895 21.14 22.597 21.575 21.717 23.022 22.202 22.282 22.412 22.495 22.612 22.702 22.712 22.76 22.842 22.952 23.047 23.157 23.205 23.325 23.42 23.462 23.51 23.582 23.652 23.732 23.797 23.882 23.952 24.017 24.085 24.152 24.227 24.215 24.24 24.285 24.435 25.18 25.637 25.955 26.185 25.555 24.65 24.722 24.792 24.845 24.877 24.9 24.897 24.93 24.925 24.9 24.93 24.912 25.175 26.23 26.365 25.305 24.79 24.812 24.837 24.887 24.895 24.895 24.87 24.8 24.742 24.742 24.717 24.705 24.63 24.572 24.505 24.382 24.445 25.372 25.635 25.745 25.76 25.02 24.84 24.34 24.15 23.942 23.955 24.157 24.607 24.615 23.802 23.145 23.31 24.435 23.412 23.027 22.945 22.952 22.905 22.835 22.81 22.762 22.715 22.66 22.637 22.59 22.565 22.532 22.507 22.472 22.445 22.407 22.377 22.392 22.32 22.332 22.32 22.272 22.262 22.195 22.192 22.147 22.11 22.08 22.072 22.075 22.09 22.117 22.11 22.097 22.082 22.062 22.035 22.06 22.052 22.072 22.087 22.13 22.115 22.112 22.127 22.085 22.09 22.072 22.012 21.962 21.977 21.95 21.925 21.942 21.915 21.902 21.875 21.877 21.835 21.835 21.767 21.747 21.685 21.665 21.63 21.572 21.487 21.465 21.405 21.317 21.255 21.17 21.03 20.962 20.802 20.645 20.452 20.322 20.115 19.905 19.7 19.497 19.332 19.102 18.93 18.85 18.795 18.702 18.92 20.23 19.332 23.675 22.295 18.897 18.972 18.955 18.985 18.972 19.2 19.172 19.105 20.012 20.622 22.375 21.642 21.042 20.755 20.267 20.085 20.195 20.31 20.465 20.647 20.832 20.985 21.132 21.247 21.357 21.44 21.527 21.69 21.817 21.902 22.005 22.105 22.182 22.282 22.37 22.407 22.495 22.582 22.632 22.715 22.747 22.835 22.9 22.987 23.05 23.112 23.2 23.252 23.33 23.38 23.457 23.502 23.557 23.632 23.687 23.74 23.78 23.845 23.9 23.945 23.962 24.002 24.032 24.087 24.12 24.167 24.23 24.322 24.34 24.4 24.445 24.53 24.552 24.607 24.665 24.655 24.657
25.33 25.282 25.247 25.122 25.04 24.952 24.952 25.517 25.747 26.075 25.43 24.78 24.615 24.59 24.65 24.832 24.997 25.117 25.24 25.35 25.45 25.595 25.73 25.912 26.037 26.17 26.32 26.48 26.597 26.715 26.825 26.945 27.027 27.082 27.167 27.227 27.297 27.335 27.357 27.4 27.447 27.475 27.457 27.45 27.49 27.517 27.51 27.492 27.495 27.5 27.487 27.447 27.42 27.387 27.365 27.33 27.29 27.235 27.162 27.135 27.035 26.942 26.87 26.82 26.755 26.662 26.577 26.46 26.377 26.282 26.197 26.072 25.97 27.685 26.962 24.972 24.705 24.457 24.145 23.915 23.812 23.722 23.69 23.687 23.645 23.697 23.757 23.837 23.9 23.907 24.372 25.452 24.045 23.997 24.02 24.012 23.975 24.01 24.052 24.062 24.055 24.032 23.99 23.975 23.912 23.897 23.845 23.752 23.75 23.675 23.6 23.582 23.53 23.437 23.38 23.297 23.222 23.15 23.08 22.965 22.877 22.782 22.685 22.57 22.437 22.325 22.165 22.052 21.927 21.782 21.645 21.5 21.317 21.162 21.037 20.945 20.83 20.665 20.552 20.39 20.25 20.102 19.98 19.855 19.725 19.62 19.565 19.44 19.32 19.265 19.175 19.077 18.98 18.935 18.847 18.757 18.735 18.667 19.25 20.135 19.655 18.777 18.86 19.01 19.197 19.355 19.447 19.597 19.742 19.895 20.025 20.13 20.25 20.375 20.547 20.7 20.832 20.952 20.997 21.07 21.937 22.52 21.602 22.035 22.862 22.285 22.382 22.482 22.575 22.64 22.742 22.727 22.812 22.932 23.017 23.07 23.18 23.225 23.322 23.412 23.442 23.535 23.617 23.702 23.75 23.842 23.942 23.992 24.05 24.102 24.13 24.17 24.182 24.162 24.475 25.617 25.81 25.952 25.587 24.927 24.69 24.74 24.75 24.782 24.865 24.932 24.955 24.94 24.935 24.925 24.942 24.89 24.86 25.83 26.612 25.617 24.812 24.84 24.842 24.855 24.897 24.902 24.832 24.795 24.772 24.702 24.672 24.64 24.605 24.567 24.52 24.442 24.297 24.227 24.175 24.46 24.91 24.91 24.717 25.067 24.732 24.982 24.917 25.09 25.442 24.822 24.437 23.565 23.072 23.717 24.272 23.057 22.93 22.89 22.905 22.83 22.772 22.72 22.657 22.62 22.577 22.525 22.505 22.455 22.435 22.395 22.385 22.36 22.322 22.317 22.257 22.24 22.215 22.235 22.16 22.137 22.102 22.1 22.06 22.015 21.977 21.977 21.967 21.997 22.015 22.01 21.987 21.977 21.96 21.937 21.962 21.975 21.967 21.982 22.03 22.042 22.032 22.032 21.995 21.967 21.947 21.897 21.867 21.842 21.835 21.817 21.817 21.797 21.787 21.775 21.75 21.737 21.687 21.637 21.627 21.587 21.53 21.482 21.417 21.382 21.327 21.287 21.192 21.09 20.99 20.89 20.785 20.65 20.48 20.325 20.162 19.975 19.757 19.545 19.365 19.21 19.007 18.912 18.787 18.697 18.642 18.805 18.795 18.33 20.542 19.362 18.945 18.95 18.952 19.087 19.217 19.285 19.292 19.29 19.64 20.785 19.835 20.055 20.392 21.047 21.32 21.502 21.252 21.252 20.91 20.862 20.81 21.012 20.97 21.04 21.185 21.307 21.387 21.505 21.68 21.78 21.912 21.972 22.067 22.155 22.242 22.305 22.385 22.477 22.525 22.565 22.637 22.735 22.777 22.837 22.897 22.975 23.05 23.102 23.165 23.225 23.29 23.347 23.417 23.49 23.545 23.61 23.685 23.74 23.802 23.845 23.89 23.925 23.965 24.037 24.085 24.125 24.202 24.227 24.287 24.34 24.39 24.442 24.467 24.572 24.915 24.952 25.257
25.287 25.307 25.215 25.127 25.062 25.022 25.09 24.972 24.875 24.647 24.797 24.817 24.567 24.55 24.632 24.777 25.037 25.162 25.06 25.217 25.352 25.502 25.655 25.802 25.937 26.107 26.23 26.382 26.492 26.63 26.735 26.845 26.962 27.025 27.12 27.18 27.222 27.26 27.302 27.345 27.375 27.402 27.397 27.425 27.445 27.457 27.45 27.425 27.442 27.44 27.42 27.392 27.35 27.307 27.28 27.237 27.207 27.132 27.067 27.022 26.95 26.835 26.775 26.752 26.662 26.575 26.485 26.39 26.262 26.182 26.09 26.012 25.905 26.877 27.072 25.087 24.732 24.487 24.19 23.925 23.74 23.655 23.587 23.567 23.537 23.535 23.58 23.665 23.717 23.725 23.937 25.2 24.03 23.817 23.83 23.835 23.785 23.82 23.862 23.877 23.845 23.827 23.787 23.772 23.737 23.707 23.645 23.597 23.537 23.492 23.407 23.365 23.307 23.237 23.175 23.087 23.032 22.937 22.85 22.747 22.635 22.535 22.447 22.362 22.255 22.115 21.98 21.827 21.7 21.572 21.437 21.277 21.11 20.962 20.865 20.72 20.602 20.455 20.317 20.162 20.01 19.922 19.79 19.667 19.565 19.412 19.375 19.245 19.155 19.04 18.92 18.852 18.81 18.72 18.66 18.587 18.89 19.84 20.182 19.227 18.677 18.8 18.967 19.162 19.322 19.44 19.597 19.767 19.915 20.047 20.182 20.302 20.402 20.53 20.665 20.797 20.935 21.09 21.117 21.205 22.375 22.317 21.68 21.907 22.797 22.36 22.447 22.545 22.63 22.71 22.757 22.782 22.872 22.952 23.037 23.1 23.202 23.245 23.307 23.375 23.465 23.537 23.637 23.725 23.807 23.895 23.952 24.025 24.065 24.06 24.115 24.117 24.12 24.702 25.42 25.495 25.487 25.282 24.712 24.697 24.742 24.777 24.82 24.84 24.9 24.95 24.982 24.952 24.932 24.945 24.925 24.862 26.092 26.415 25.507 24.825 24.795 24.845 24.825 24.845 24.82 24.822 24.8 24.772 24.707 24.67 24.585 24.53 24.46 24.425 24.367 24.272 24.182 24.117 24.1 24.04 23.98 23.937 23.872 23.857 23.822 23.737 23.725 23.767 23.935 24.275 24.562 23.005 23.012 24.115 23.88 22.96 22.852 22.832 22.825 22.75 22.692 22.642 22.595 22.55 22.497 22.465 22.415 22.367 22.337 22.307 22.302 22.265 22.23 22.207 22.172 22.13 22.132 22.115 22.067 22.065 22.03 21.98 21.972 21.92 21.88 21.877 21.895 21.912 21.917 21.9 21.862 21.85 21.837 21.862 21.855 21.85 21.852 21.865 21.905 21.922 21.945 21.892 21.88 21.865 21.84 21.795 21.782 21.757 21.715 21.705 21.7 21.675 21.69 21.665 21.62 21.607 21.577 21.532 21.497 21.442 21.405 21.35 21.295 21.217 21.192 21.117 21.007 20.92 20.83 20.74 20.617 20.482 20.312 20.15 19.997 19.83 19.627 19.43 19.265 19.082 18.882 18.842 18.747 18.612 19.202 19.602 19.875 18.785 18.072 18.657 19.052 18.982 19.055 19.167 19.35 19.43 19.535 19.572 19.727 19.687 19.73 19.715 19.74 19.915 20.385 20.862 20.822 21.87 21.787 22.197 22.542 22.03 22.115 22.187 21.067 21.177 21.56 21.552 21.57 21.677 21.755 21.85 21.945 22.05 22.102 22.197 22.26 22.342 22.387 22.452 22.53 22.562 22.617 22.685 22.777 22.837 22.93 22.967 23.05 23.107 23.172 23.247 23.327 23.395 23.455 23.52 23.57 23.66 23.725 23.75 23.79 23.845 23.892 23.937 23.99 24.057 24.135 24.132 24.177 24.247 24.407 24.557 25.092 25.25 24.87 24.807 26.06
26.165 25.425 25.182 25.22 25.157 25.342 25.65 25.75 25.802 25.41 25.097 24.597 24.477 24.45 24.372 24.38 24.537 24.672 24.695 24.942 25.122 25.332 25.54 25.702 25.882 26.01 26.132 26.275 26.43 26.565 26.665 26.76 26.885 26.947 27.037 27.112 27.175 27.192 27.252 27.237 27.337 27.375 27.367 27.395 27.397 27.41 27.392 27.377 27.377 27.382 27.365 27.34 27.315 27.26 27.23 27.18 27.132 27.032 26.99 26.932 26.85 26.77 26.685 26.62 26.57 26.465 26.415 26.282 26.2 26.127 26.005 25.927 25.807 25.83 26.6 26.05 24.745 24.495 24.217 23.94 23.722 23.605 23.502 23.447 23.42 23.412 23.447 23.507 23.57 23.572 23.725 24.81 23.965 23.64 23.672 23.667 23.615 23.64 23.652 23.687 23.65 23.647 23.612 23.56 23.56 23.495 23.442 23.352 23.312 23.292 23.187 23.157 23.117 23.022 22.975 22.907 22.832 22.757 22.657 22.537 22.425 22.337 22.225 22.12 22.017 21.89 21.76 21.627 21.447 21.327 21.2 21.07 20.935 20.817 20.67 20.525 20.362 20.18 20.075 19.955 19.837 19.735 19.625 19.485 19.367 19.237 19.132 19.08 18.95 18.83 18.672 18.627 18.567 18.502 18.425 18.595 19.897 19.745 18.675 18.557 18.715 18.917 19.115 19.245 19.412 19.58 19.757 19.922 20.07 20.202 20.36 20.47 20.577 20.687 20.805 20.942 21.095 21.21 21.262 21.315 22.65 22.412 21.805 22.06 22.755 22.37 22.51 22.632 22.72 22.75 22.792 22.832 22.9 22.98 23.06 23.127 23.192 23.267 23.327 23.39 23.472 23.57 23.652 23.742 23.822 23.912 23.917 23.952 23.982 24.04 24.075 24.43 25.27 25.535 25.53 24.955 24.79 24.685 24.7 24.725 24.74 24.8 24.862 24.89 24.915 24.947 24.972 24.965 24.927 24.9 25.077 26.222 26.262 25.552 24.812 24.797 24.815 24.845 24.862 24.81 24.782 24.762 24.742 24.717 24.637 24.575 24.502 24.422 24.397 24.312 24.252 24.19 24.095 23.997 23.98 23.942 23.935 23.89 23.822 23.755 23.762 23.677 23.637 23.657 23.72 24.102 24.05 22.945 23.012 24.35 23.575 22.872 22.82 22.752 22.762 22.682 22.635 22.567 22.502 22.477 22.425 22.4 22.332 22.28 22.245 22.227 22.2 22.162 22.127 22.11 22.067 22.05 22.042 22.017 21.99 21.987 21.91 21.875 21.845 21.795 21.805 21.762 21.78 21.805 21.802 21.777 21.775 21.762 21.737 21.765 21.732 21.727 21.757 21.78 21.777 21.81 21.795 21.77 21.745 21.72 21.705 21.69 21.667 21.617 21.6 21.585 21.57 21.585 21.572 21.53 21.477 21.49 21.437 21.41 21.357 21.312 21.255 21.192 21.117 21.057 20.997 20.91 20.842 20.697 20.612 20.54 20.415 20.285 20.125 19.967 19.797 19.66 19.495 19.315 19.11 18.93 18.832 18.79 18.612 18.652 18.977 19.375 19.61 17.94 18.295 19.247 19.08 19.065 19.207 19.305 19.422 19.55 19.68 19.742 19.842 19.94 20 20.035 20.095 20.107 20.215 20.14 20.215 20.202 20.457 21.04 21.17 21.252 21.61 21.855 20.967 21.405 22.162 22.425 22.202 22.4 22.217 22.132 21.855 22.047 22.02 22.1 22.127 22.225 22.27 22.35 22.392 22.427 22.512 22.607 22.647 22.707 22.762 22.827 22.89 22.952 23.067 23.115 23.172 23.265 23.335 23.397 23.46 23.492 23.592 23.642 23.715 23.737 23.78 23.86 23.925 24.135 26.827 27.52 25.157 25.737 24.762 24.87 25.99 26.202 25.92 24.482 24.43
26.18 25.355 25.205 25.755 25.265 25.315 25.377 26.17 24.917 24.715 24.927 25.257 24.81 24.787 25.08 25.092 26.342 24.555 24.55 24.732 24.907 25.155 25.41 25.622 25.772 25.935 26.032 26.175 26.32 26.437 26.55 26.665 26.785 26.877 26.962 26.992 27.06 27.1 27.137 27.195 27.27 27.287 27.295 27.322 27.335 27.347 27.332 27.32 27.34 27.33 27.297 27.275 27.237 27.202 27.167 27.11 27.057 26.977 26.942 26.872 26.772 26.69 26.607 26.535 26.48 26.372 26.285 26.205 26.112 26.025 25.907 25.812 25.752 25.687 26.947 25.837 24.812 24.515 24.232 23.987 23.74 23.507 23.395 23.325 23.27 23.277 23.307 23.362 23.397 23.405 23.532 24.622 24.327 23.442 23.502 23.457 23.447 23.457 23.462 23.452 23.46 23.457 23.457 23.36 23.342 23.292 23.25 23.162 23.085 23.09 22.997 22.957 22.937 22.877 22.79 22.697 22.605 22.507 22.43 22.345 22.225 22.102 21.982 21.907 21.8 21.67 21.555 21.417 21.26 21.125 21.045 20.935 20.802 20.612 20.437 20.29 20.14 19.977 19.857 19.737 19.64 19.52 19.402 19.245 19.12 19.032 18.947 18.842 18.662 18.567 18.457 18.392 18.312 18.287 18.427 19.59 19.45 18.512 18.457 18.605 18.837 19.045 19.21 19.347 19.54 19.707 19.882 20.027 20.177 20.335 20.475 20.625 20.722 20.84 20.952 21.112 21.25 21.345 21.387 21.45 22.785 22.602 21.825 21.977 22.992 22.432 22.57 22.692 22.767 22.812 22.852 22.87 22.935 23.025 23.11 23.15 23.23 23.307 23.38 23.447 23.512 23.585 23.672 23.772 23.842 23.887 23.91 23.905 23.962 24.042 24.51 25.332 25.505 24.905 24.572 24.547 24.61 24.657 24.652 24.71 24.77 24.827 24.947 24.922 24.922 24.927 24.95 24.887 24.877 25.152 26.105 26.382 25.392 24.797 24.8 24.815 24.852 24.855 24.862 24.797 24.782 24.73 24.697 24.652 24.602 24.522 24.462 24.372 24.322 24.277 24.227 24.17 24.105 24.01 23.92 23.857 23.822 23.785 23.762 23.712 23.677 23.655 23.61 23.56 23.562 24.067 23.627 22.957 23.252 24.497 23.125 22.822 22.752 22.76 22.705 22.625 22.552 22.49 22.432 22.405 22.372 22.3 22.232 22.19 22.155 22.115 22.09 22.067 22.035 22.015 21.98 21.945 21.927 21.887 21.887 21.86 21.807 21.787 21.76 21.7 21.712 21.697 21.69 21.707 21.707 21.672 21.662 21.64 21.625 21.632 21.617 21.655 21.635 21.652 21.647 21.675 21.667 21.622 21.6 21.602 21.572 21.547 21.542 21.482 21.46 21.452 21.455 21.407 21.392 21.405 21.375 21.332 21.302 21.24 21.195 21.142 21.095 21.015 20.952 20.88 20.815 20.725 20.62 20.507 20.405 20.32 20.197 20.062 19.912 19.762 19.63 19.455 19.317 19.137 18.952 18.82 18.767 18.692 18.597 18.802 22.032 22.717 19.095 17.815 18.74 18.977 19.045 19.132 19.292 19.385 19.475 19.617 19.747 19.865 19.992 20.065 20.185 20.237 20.34 20.35 20.397 20.445 20.422 20.342 20.275 20.325 20.385 20.53 21.005 22.345 20.89 21.982 22.895 22.332 22.752 22.362 22.715 22.995 23.035 22.585 23.95 23.78 22.845 22.75 22.332 22.272 22.307 22.377 22.452 22.54 22.557 22.61 22.675 22.747 22.82 22.885 22.945 22.975 23.062 23.14 23.207 23.307 23.347 23.435 23.45 23.53 23.907 24.23 23.737 24.072 24.535 27.412 29.152 26.052 24.607 24.297 24.74 27.61 25.265 24.465 24.927 24.56 24.577
26.72 25.905 25.747 25.672 25.737 28.25 28.457 28.832 27.162 26.142 24.907 24.88 24.327 25.372 26.255 25.94 26.645 27.24 24.977 24.667 24.88 25.13 25.345 25.512 25.67 25.835 25.97 26.085 26.212 26.32 26.385 26.487 26.635 26.812 26.877 26.957 27.015 27.055 27.105 27.137 27.17 27.18 27.202 27.205 27.222 27.255 27.265 27.255 27.242 27.242 27.225 27.24 27.212 27.165 27.137 27.107 27.022 26.945 26.875 26.82 26.747 26.652 26.562 26.47 26.402 26.277 26.207 26.117 26.02 25.922 25.81 25.747 25.692 25.572 26.392 26.195 25.06 24.55 24.26 24.012 23.767 23.525 23.347 23.24 23.145 23.13 23.177 23.215 23.27 23.257 23.385 24.397 24.687 23.25 23.275 23.29 23.287 23.27 23.29 23.31 23.305 23.3 23.27 23.197 23.13 23.1 23.042 22.955 22.865 22.927 22.827 22.805 22.765 22.692 22.59 22.487 22.375 22.292 22.202 22.132 21.997 21.897 21.782 21.69 21.582 21.47 21.377 21.22 21.067 20.97 20.87 20.762 20.567 20.355 20.19 20.04 19.882 19.817 19.707 19.607 19.487 19.295 19.152 19.05 18.932 18.822 18.717 18.577 18.407 18.32 18.262 18.205 18.132 18.332 19.387 19.16 18.3 18.382 18.54 18.792 18.967 19.115 19.292 19.485 19.665 19.837 19.997 20.142 20.312 20.462 20.585 20.75 20.847 20.947 21.075 21.205 21.347 21.462 21.525 21.555 22.6 22.837 21.895 22.045 23.152 22.61 22.612 22.707 22.797 22.867 22.92 22.94 22.977 23.08 23.14 23.195 23.242 23.305 23.4 23.485 23.552 23.627 23.672 23.745 23.812 23.812 23.867 23.905 23.975 24.445 24.55 24.545 24.452 24.522 24.537 24.585 24.595 24.627 24.677 24.727 24.755 24.802 24.912 24.917 24.927 24.902 24.905 24.837 25.082 26.372 26.362 25.32 24.795 24.787 24.82 24.835 24.857 24.825 24.77 24.727 24.722 24.672 24.672 24.632 24.56 24.495 24.432 24.355 24.31 24.225 24.167 24.125 24.07 24.002 23.92 23.852 23.775 23.752 23.73 23.677 23.635 23.587 23.537 23.507 23.42 24.035 23.35 22.942 23.585 24.307 22.837 22.735 22.717 22.67 22.642 22.595 22.525 22.455 22.402 22.355 22.275 22.222 22.152 22.12 22.062 22.022 21.987 21.942 21.922 21.902 21.875 21.842 21.842 21.815 21.767 21.752 21.705 21.685 21.662 21.627 21.61 21.627 21.602 21.612 21.6 21.56 21.555 21.535 21.515 21.507 21.517 21.517 21.505 21.535 21.545 21.545 21.52 21.47 21.467 21.447 21.447 21.415 21.395 21.345 21.327 21.322 21.302 21.28 21.257 21.212 21.227 21.18 21.135 21.077 21.04 20.965 20.915 20.847 20.76 20.69 20.595 20.517 20.387 20.275 20.185 20.08 19.932 19.795 19.715 19.56 19.407 19.3 19.14 18.947 18.787 18.735 18.705 18.63 18.597 20.11 18.772 19.322 17.8 18.357 18.92 18.992 19.055 19.202 19.382 19.455 19.557 19.67 19.81 19.952 20.062 20.21 20.32 20.415 20.497 20.562 20.6 20.665 20.73 20.782 20.835 20.832 20.83 20.76 20.755 20.852 20.862 22.267 22.352 22.497 22.332 21.585 21.395 21.51 24.635 21.312 23.487 22.795 21.902 23.53 22.51 23.567 22.702 22.877 22.702 22.567 22.447 22.49 22.507 22.62 22.68 22.742 22.822 22.867 22.957 22.987 23.1 23.157 23.255 24.85 23.457 24.062 26.167 25.955 23.78 23.932 24.49 25.565 27.17 25.04 23.712 23.867 24.04 24.22 24.975 26.19 28.19 27.242 25.602
25.982 26.682 27.017 26.35 26.102 30.177 30.872 30.91 30.022 29.51 26.83 24.215 24.307 25.985 26.72 27.737 28.755 25.635 24.485 24.772 24.995 25.18 25.387 25.562 25.7 25.82 25.927 26.047 26.197 26.232 26.277 26.305 26.42 26.652 26.792 26.882 26.952 26.987 27.035 27.087 27.102 27.125 27.12 27.125 27.167 27.16 27.175 27.19 27.192 27.197 27.155 27.152 27.13 27.085 27.062 27.022 26.955 26.9 26.835 26.752 26.69 26.577 26.482 26.407 26.335 26.242 26.16 26.057 25.96 25.862 25.742 25.655 25.602 25.505 26.457 26.6 24.927 24.532 24.257 24.007 23.782 23.562 23.355 23.205 23.067 23.02 23.012 23.057 23.122 23.125 23.135 23.725 24.787 23.187 23.102 23.13 23.13 23.115 23.125 23.14 23.112 23.087 23.065 23.027 22.95 22.91 22.83 22.76 22.667 22.715 22.647 22.582 22.537 22.447 22.355 22.28 22.185 22.135 22.037 21.925 21.802 21.68 21.58 21.487 21.39 21.277 21.15 21.055 20.877 20.792 20.685 20.54 20.33 20.14 19.98 19.825 19.71 19.595 19.477 19.412 19.212 19.042 18.952 18.82 18.715 18.59 18.462 18.372 18.177 18.102 18.06 18.01 18.082 19.122 18.957 18.2 18.282 18.43 18.72 18.952 19.092 19.247 19.445 19.617 19.8 19.955 20.11 20.27 20.427 20.56 20.722 20.837 20.997 21.072 21.19 21.315 21.45 21.575 21.647 21.705 22.38 23.037 21.945 21.922 22.837 23.03 22.62 22.717 22.827 22.93 22.975 22.99 23.055 23.107 23.177 23.24 23.307 23.345 23.405 23.475 23.592 23.62 23.655 23.737 23.777 23.787 23.837 24.122 25.76 25.905 24.412 24.45 24.422 24.537 24.537 24.56 24.595 24.607 24.622 24.667 24.722 24.797 25.64 24.997 24.905 24.887 24.827 24.995 26.272 26.227 25.265 24.81 24.807 24.805 24.852 24.802 24.777 24.735 24.745 24.705 24.675 24.662 24.62 24.54 24.512 24.412 24.37 24.317 24.217 24.16 24.127 24.07 24.035 23.93 23.89 23.8 23.737 23.697 23.697 23.67 23.597 23.54 23.472 23.515 23.41 24.335 22.917 22.872 24.002 23.995 22.762 22.69 22.67 22.657 22.597 22.54 22.485 22.422 22.342 22.295 22.212 22.13 22.067 22.017 21.967 21.915 21.895 21.857 21.817 21.792 21.782 21.747 21.72 21.717 21.677 21.677 21.61 21.587 21.552 21.53 21.505 21.525 21.505 21.482 21.485 21.46 21.41 21.412 21.432 21.367 21.387 21.372 21.397 21.397 21.405 21.392 21.357 21.327 21.33 21.302 21.272 21.25 21.237 21.192 21.177 21.18 21.135 21.14 21.085 21.062 21.052 21.025 20.987 20.905 20.85 20.785 20.712 20.63 20.565 20.46 20.385 20.255 20.145 20.055 19.96 19.805 19.655 19.562 19.45 19.312 19.225 19.087 18.917 18.785 18.682 18.662 18.627 18.597 19.822 19.012 17.94 19.44 18.867 19.012 18.94 19 19.115 19.305 19.415 19.562 19.742 19.86 19.965 20.09 20.2 20.347 20.435 20.535 20.627 20.722 20.757 20.85 20.917 20.985 21.017 21.075 21.03 21.032 20.997 21.035 21.032 21.025 21.127 21.327 21.762 21.722 21.777 22.162 26.227 21.977 21.395 21.692 21.647 21.395 21.557 21.77 22.05 22.325 22.21 22.422 23.475 22.95 22.882 22.717 23.517 23.112 23.02 23.042 23.335 23.405 23.52 23.845 24.44 25.245 23.615 23.625 23.387 23.83 23.49 23.79 25.472 23.762 23.8 24.332 24.365 25.617 24.977 24.85 25.395 26.345 25.66 24.947 24.91
25.53 25.71 26.612 26.872 27.042 30.172 30.882 30.94 31.222 31.235 29.43 24.15 24.277 25.022 26.307 27.165 27.182 25.702 24.495 24.85 25.115 25.277 25.415 25.567 25.71 25.84 25.932 26.052 26.197 26.25 26.272 26.425 27.127 26.917 26.792 26.852 26.857 26.915 26.965 27.035 27.052 27.055 27.067 27.05 27.1 27.087 27.095 27.122 27.117 27.102 27.087 27.062 27.047 27.012 26.975 26.915 26.867 26.815 26.762 26.695 26.575 26.515 26.45 26.38 26.282 26.197 26.06 25.977 25.905 25.825 25.702 25.582 25.527 25.45 25.957 27.03 25.775 24.495 24.217 24 23.775 23.585 23.36 23.185 23.052 22.935 22.887 22.93 22.982 23.032 23.037 23.545 24.637 23.245 22.93 22.942 22.925 22.917 22.937 22.912 22.932 22.91 22.88 22.812 22.77 22.705 22.645 22.572 22.517 22.467 22.427 22.337 22.292 22.215 22.142 22.075 21.985 21.912 21.79 21.72 21.605 21.48 21.377 21.28 21.2 21.1 20.967 20.835 20.69 20.552 20.465 20.302 20.122 19.927 19.787 19.642 19.51 19.405 19.267 19.122 18.972 18.87 18.767 18.585 18.437 18.32 18.217 18.122 18.02 17.91 17.865 18.052 19.302 18.875 18.02 18.135 18.362 18.61 18.855 19.045 19.22 19.41 19.58 19.747 19.912 20.067 20.212 20.38 20.517 20.665 20.83 20.957 21.075 21.16 21.292 21.4 21.51 21.65 21.715 21.815 21.9 23.23 22.395 21.977 22.29 23.355 22.707 22.74 22.852 22.965 23.007 23.022 23.06 23.127 23.222 23.255 23.31 23.35 23.412 23.5 23.537 23.612 23.63 23.667 23.727 23.77 24.047 26.735 27.182 25.437 24.412 24.457 24.477 24.477 24.53 25.027 25.052 25.282 25.16 24.617 24.687 24.792 26.017 25.175 24.867 24.842 25.24 26.207 26.132 25.087 24.775 24.782 24.81 24.82 24.83 24.8 24.715 24.7 24.695 24.65 24.657 24.65 24.607 24.52 24.497 24.385 24.327 24.28 24.2 24.157 24.085 24.032 23.962 23.902 23.852 23.792 23.702 23.665 23.632 23.582 23.55 23.512 23.43 23.405 23.722 24.077 22.792 22.962 24.212 23.412 22.637 22.577 22.615 22.607 22.567 22.527 22.455 22.38 22.317 22.217 22.157 22.072 21.995 21.93 21.872 21.797 21.787 21.74 21.715 21.705 21.652 21.642 21.605 21.605 21.562 21.532 21.507 21.472 21.447 21.43 21.435 21.412 21.405 21.39 21.372 21.342 21.34 21.322 21.292 21.237 21.252 21.265 21.26 21.25 21.237 21.21 21.197 21.167 21.13 21.117 21.112 21.1 21.065 21.037 21.022 21.007 20.975 20.957 20.92 20.91 20.862 20.815 20.78 20.712 20.662 20.575 20.475 20.397 20.315 20.225 20.11 20.007 19.905 19.807 19.7 19.562 19.435 19.33 19.235 19.127 19 18.85 18.767 18.68 18.605 18.602 18.527 18.712 20.135 21.43 18.817 18.697 18.837 18.857 18.962 19.065 19.245 19.412 19.53 19.672 19.845 20.015 20.125 20.262 20.387 20.51 20.627 20.682 20.77 20.847 20.91 20.985 21.067 21.142 21.17 21.2 21.215 21.2 21.18 21.172 21.22 21.245 21.265 21.365 21.472 21.507 21.61 22.135 26.245 21.81 21.837 21.975 22.065 22.8 23.012 23.407 22.16 22.145 22.505 23.27 22.11 22.172 22.362 22.94 24.465 26.532 22.742 23.02 24.007 23.72 23.615 24.132 25.99 23.422 23.022 23.052 23.697 24.215 24.335 24.752 23.937 24.19 24.317 24.327 24.55 24.422 25.067 25.69 24.632 24.672 24.747 24.807 24.882
25.455 25.4 25.417 26.702 26.577 26.48 28.005 28.977 29.23 29.415 25.475 24.105 23.98 24.042 25.71 25.842 26.485 26.165 24.445 24.892 25.235 25.347 25.437 25.56 25.742 25.86 25.94 26.027 26.15 26.24 26.277 26.467 27.262 27.612 27.697 27.697 27.592 27.217 27.162 27.175 27.115 26.967 27.002 27.025 27.045 27.042 27.057 27.075 27.047 27.02 27.012 27 26.992 26.965 26.877 26.867 26.79 26.732 26.672 26.602 26.507 26.427 26.362 26.297 26.215 26.127 26.015 25.945 25.842 25.742 25.635 25.54 25.472 25.4 25.695 27.66 27.055 24.717 24.207 23.982 23.762 23.575 23.41 23.192 23.04 22.905 22.82 22.81 22.83 22.87 22.87 23.467 24.262 23.35 22.752 22.762 22.735 22.735 22.747 22.75 22.75 22.705 22.68 22.632 22.587 22.535 22.44 22.352 22.295 22.277 22.275 22.13 22.115 22.05 21.975 21.872 21.762 21.677 21.6 21.512 21.37 21.272 21.192 21.102 20.995 20.89 20.762 20.63 20.475 20.32 20.24 20.105 19.94 19.732 19.587 19.44 19.35 19.255 19.057 18.89 18.732 18.675 18.495 18.34 18.195 18.057 17.962 17.892 17.8 17.725 18.127 19.21 18.727 17.882 17.987 18.235 18.49 18.772 18.942 19.14 19.36 19.527 19.687 19.892 20.042 20.197 20.35 20.487 20.642 20.777 20.91 21.047 21.175 21.277 21.37 21.495 21.59 21.69 21.787 21.865 21.852 22.967 22.92 22.035 22.112 23.485 23.027 22.785 22.842 22.962 23.04 23.055 23.115 23.16 23.197 23.275 23.315 23.372 23.41 23.467 23.515 23.545 23.567 23.625 23.707 24.952 26.505 27.335 24.815 24.325 24.412 24.447 25.892 27.355 27.69 27.757 27.932 28.087 27.157 25.105 25.655 24.692 25.445 24.81 24.797 25.247 26.052 26 24.94 24.747 24.745 24.79 24.81 24.822 24.772 24.74 24.707 24.692 24.7 24.657 24.597 24.605 24.545 24.495 24.432 24.34 24.287 24.247 24.187 24.14 24.055 23.982 23.927 23.897 23.827 23.75 23.697 23.647 23.6 23.542 23.5 23.462 23.407 23.357 23.905 23.532 22.812 23.125 24.195 22.765 22.52 22.475 22.522 22.57 22.54 22.495 22.437 22.347 22.267 22.18 22.087 22.027 21.93 21.857 21.79 21.725 21.692 21.645 21.595 21.59 21.552 21.527 21.51 21.49 21.445 21.445 21.382 21.372 21.355 21.332 21.332 21.302 21.282 21.267 21.282 21.217 21.2 21.165 21.167 21.11 21.11 21.13 21.095 21.082 21.095 21.072 21.032 21.002 20.98 20.945 20.925 20.922 20.895 20.887 20.867 20.84 20.805 20.757 20.727 20.722 20.677 20.612 20.575 20.502 20.417 20.355 20.27 20.127 20.047 19.97 19.867 19.742 19.645 19.572 19.445 19.33 19.197 19.115 19.052 18.907 18.782 18.7 18.63 18.585 18.53 18.515 18.892 19.817 21.742 22.52 18.88 18.782 18.822 18.867 18.995 19.155 19.357 19.505 19.642 19.847 19.98 20.14 20.265 20.437 20.527 20.682 20.785 20.897 20.98 21.032 21.09 21.147 21.18 21.222 21.277 21.295 21.342 21.337 21.327 21.31 21.332 21.36 21.437 21.542 21.592 21.677 21.735 21.737 21.767 21.82 21.89 21.957 22.017 22.207 22.22 22.322 22.955 22.25 22.29 22.662 22.93 22.55 23.682 23.195 24.162 28.042 22.817 22.78 24.225 23.772 24.297 24.167 24.095 23.225 25.38 23.795 25.427 25.205 24.087 24.12 24.95 24.237 24.307 24.365 24.427 24.452 24.49 24.552 24.622 24.702 24.77 24.882 24.992
25.355 25.295 25.275 26.362 25.96 24.925 24.85 25.695 27.252 27.165 25.29 24.742 24.132 23.897 24.3 26.105 28.725 27.78 24.59 24.875 25.2 25.327 25.417 25.532 25.717 25.842 25.977 26.082 26.16 26.22 26.272 26.312 26.37 26.51 27.075 27.195 27.48 27.59 27.952 27.765 27.837 27.68 27.477 27.47 27.22 27.03 26.952 26.97 26.945 26.955 26.935 26.93 26.93 26.88 26.84 26.785 26.74 26.68 26.59 26.527 26.44 26.33 26.28 26.225 26.125 26.067 25.982 25.902 25.792 25.68 25.575 25.475 25.367 25.297 25.227 26.165 27.152 25.03 24.205 23.977 23.735 23.567 23.402 23.215 23.06 22.877 22.767 22.712 22.68 22.697 22.722 22.885 23.355 23.562 22.562 22.572 22.572 22.542 22.527 22.542 22.517 22.525 22.502 22.45 22.385 22.327 22.267 22.192 22.14 22.1 22.077 21.957 21.912 21.842 21.75 21.665 21.557 21.475 21.41 21.307 21.17 21.065 20.967 20.892 20.787 20.652 20.542 20.4 20.26 20.13 20.017 19.907 19.735 19.582 19.397 19.257 19.192 19.007 18.795 18.69 18.57 18.422 18.2 18.09 17.972 17.82 17.75 17.662 17.617 18.38 19.015 18.417 17.705 17.852 18.135 18.405 18.607 18.857 19.08 19.267 19.475 19.645 19.842 19.987 20.145 20.277 20.452 20.597 20.732 20.84 20.982 21.13 21.225 21.34 21.45 21.557 21.67 21.75 21.805 21.885 21.92 22.232 23.25 22.112 22.16 22.665 23.65 22.877 22.85 22.92 23.067 23.092 23.132 23.205 23.212 23.24 23.322 23.387 23.422 23.44 23.502 23.545 23.61 23.71 25.822 27.472 25.982 24.152 24.202 24.357 24.395 25.037 25.947 27.992 27.847 27.755 27.662 27.56 26.912 25.522 26.5 24.682 24.702 24.767 24.775 25.162 25.73 24.87 24.707 24.74 24.77 24.785 24.765 24.72 24.712 24.71 24.685 24.68 24.622 24.612 24.577 24.562 24.512 24.432 24.357 24.322 24.267 24.215 24.14 24.085 24.03 23.972 23.89 23.847 23.792 23.72 23.657 23.6 23.557 23.525 23.487 23.427 23.377 23.282 23.95 23.202 22.8 23.395 24.215 22.637 22.477 22.41 22.457 22.547 22.492 22.457 22.365 22.282 22.245 22.13 22.045 21.937 21.85 21.775 21.73 21.627 21.592 21.52 21.497 21.49 21.427 21.405 21.377 21.355 21.322 21.302 21.252 21.227 21.235 21.195 21.187 21.192 21.17 21.137 21.127 21.075 21.077 21.035 20.995 20.96 20.95 20.952 20.935 20.93 20.902 20.9 20.852 20.822 20.82 20.79 20.772 20.737 20.72 20.69 20.68 20.625 20.627 20.582 20.537 20.51 20.482 20.422 20.365 20.272 20.215 20.097 19.995 19.91 19.807 19.697 19.607 19.515 19.412 19.325 19.227 19.117 19.015 18.935 18.862 18.712 18.635 18.587 18.555 18.54 18.49 18.502 20.357 21.092 21.795 21.257 19.095 18.775 18.825 18.932 19.087 19.262 19.455 19.627 19.82 19.975 20.127 20.302 20.452 20.572 20.712 20.827 20.95 21.057 21.11 21.175 21.23 21.327 21.357 21.37 21.395 21.435 21.482 21.492 21.467 21.487 21.517 21.517 21.612 21.707 21.75 21.825 21.89 21.9 21.947 21.972 22.007 22.045 22.137 22.197 22.285 22.297 22.337 22.44 22.487 22.577 22.657 23.545 22.845 23.285 23.065 23.485 24.44 23.18 25.217 23.115 24.012 25.555 24.237 23.96 23.707 23.822 23.907 24.025 24.06 24.132 24.185 24.225 24.28 24.332 24.417 24.455 24.512 24.62 24.705 24.79 24.882 24.985 25.102
25.28 25.227 25.145 25.445 25.74 24.897 24.732 25.032 25.687 25.522 25.952 26.185 24.585 23.735 23.815 24.155 26.977 25.075 24.462 24.825 25.112 25.232 25.322 25.48 25.615 25.787 25.902 26.017 26.142 26.212 26.3 26.367 26.44 26.49 26.57 26.572 26.595 26.62 26.64 26.767 26.932 27.09 27.242 27.74 27.695 27.995 27.727 27.457 27.315 27.112 26.907 26.83 26.795 26.78 26.762 26.702 26.675 26.612 26.555 26.452 26.367 26.3 26.22 26.147 26.06 25.972 25.877 25.827 25.697 25.572 25.472 25.385 25.262 25.212 25.132 25.075 25.96 25.187 24.21 23.95 23.765 23.54 23.377 23.217 23.052 22.89 22.725 22.597 22.55 22.54 22.532 22.64 23.317 23.797 22.405 22.395 22.435 22.375 22.38 22.375 22.362 22.357 22.325 22.28 22.2 22.14 22.1 22.02 21.96 21.902 21.857 21.737 21.672 21.632 21.552 21.447 21.37 21.295 21.215 21.115 20.997 20.865 20.74 20.625 20.527 20.447 20.34 20.177 20.057 19.915 19.807 19.692 19.54 19.39 19.195 19.055 18.922 18.725 18.607 18.44 18.325 18.117 17.982 17.835 17.732 17.662 17.562 17.525 17.68 18.942 18.302 17.625 17.752 17.995 18.297 18.51 18.745 19 19.202 19.375 19.58 19.762 19.955 20.1 20.255 20.39 20.532 20.665 20.797 20.94 21.052 21.167 21.275 21.372 21.482 21.582 21.67 21.77 21.84 21.922 21.957 21.992 22.937 23.157 22.192 22.325 23.16 23.405 22.877 22.922 23.037 23.11 23.172 23.182 23.215 23.28 23.295 23.352 23.417 23.475 23.5 23.622 23.845 26.53 26.36 24.36 24.115 24.18 24.192 28.15 28.735 28.832 26.527 25.29 24.625 24.8 24.602 24.677 24.455 24.535 24.59 24.635 24.685 24.732 24.745 24.76 24.712 24.67 24.652 24.747 24.74 24.707 24.707 24.685 24.665 24.67 24.652 24.645 24.582 24.605 24.537 24.502 24.442 24.37 24.277 24.235 24.182 24.147 24.107 24.07 23.985 23.925 23.882 23.81 23.772 23.675 23.657 23.552 23.505 23.492 23.44 23.407 23.347 23.315 24.125 22.717 22.745 23.792 23.897 22.54 22.417 22.397 22.392 22.465 22.432 22.402 22.312 22.24 22.132 22.04 21.965 21.865 21.795 21.732 21.642 21.55 21.517 21.435 21.402 21.347 21.312 21.28 21.245 21.232 21.2 21.16 21.14 21.11 21.09 21.057 21.057 21.04 21.042 21.027 20.997 20.925 20.932 20.852 20.822 20.805 20.8 20.782 20.777 20.747 20.735 20.685 20.66 20.642 20.625 20.607 20.572 20.542 20.492 20.492 20.502 20.46 20.405 20.37 20.342 20.3 20.242 20.18 20.137 20.062 19.955 19.847 19.77 19.64 19.557 19.472 19.38 19.272 19.192 19.105 19.012 18.915 18.822 18.732 18.665 18.59 18.517 18.487 18.497 18.465 18.452 19.17 22.14 21.142 21.04 19.412 18.775 18.735 18.867 19.007 19.195 19.405 19.595 19.797 19.975 20.172 20.3 20.467 20.597 20.735 20.812 20.962 21.077 21.175 21.247 21.31 21.357 21.417 21.497 21.535 21.592 21.602 21.662 21.677 21.65 21.67 21.69 21.707 21.78 21.83 21.882 21.917 21.977 21.997 22.037 22.077 22.135 22.165 22.217 22.3 22.332 22.397 22.47 22.475 22.555 22.66 22.707 22.755 22.835 22.992 23.195 23.507 23.28 23.275 23.322 23.465 23.51 23.592 23.697 23.77 23.83 23.9 23.952 24.007 24.087 24.145 24.235 24.312 24.37 24.44 24.537 24.602 24.657 24.737 24.847 24.927 25.042 25.17 25.24
25.205 25.125 25.052 25.402 26.385 24.992 24.855 24.895 24.695 25.13 25.382 25.06 23.717 23.68 23.83 25.53 27.16 24.787 24.372 24.737 25.057 25.147 25.245 25.37 25.522 25.687 25.835 25.93 26.045 26.15 26.242 26.325 26.4 26.45 26.52 26.527 26.557 26.58 26.587 26.6 26.595 26.627 26.66 26.632 26.637 26.832 26.972 27.37 27.535 27.747 27.725 27.345 27.48 27.09 26.717 26.575 26.542 26.512 26.457 26.385 26.317 26.237 26.17 26.082 26.002 25.92 25.81 25.725 25.625 25.482 25.397 25.317 25.202 25.152 25.077 24.975 25.78 26.917 24.287 23.957 23.705 23.51 23.357 23.195 23.027 22.892 22.71 22.562 22.487 22.425 22.377 22.365 22.655 23.327 22.267 22.252 22.267 22.2 22.187 22.192 22.185 22.162 22.142 22.07 22.01 21.977 21.927 21.835 21.782 21.71 21.67 21.547 21.48 21.43 21.377 21.277 21.182 21.087 20.99 20.91 20.79 20.66 20.535 20.435 20.36 20.245 20.115 19.987 19.87 19.71 19.63 19.517 19.42 19.227 18.997 18.81 18.642 18.512 18.387 18.2 18.062 17.82 17.682 17.61 17.535 17.452 17.695 18.452 18.962 18.332 17.542 17.66 17.895 18.167 18.405 18.632 18.927 19.117 19.33 19.495 19.685 19.892 20.065 20.212 20.355 20.505 20.62 20.745 20.857 20.965 21.097 21.187 21.327 21.415 21.55 21.617 21.72 21.797 21.885 21.962 22.01 22.037 22.502 23.247 22.25 22.212 22.462 23.752 23.355 22.967 23.022 23.11 23.167 23.225 23.225 23.282 23.33 23.38 23.415 23.447 23.632 23.802 23.812 24.465 23.942 24.04 24.112 24.17 24.137 29.33 29.71 29.722 26.685 24.275 24.825 25.025 26.005 27.55 24.805 24.66 25.272 24.725 24.665 24.695 24.705 24.752 24.622 24.572 24.617 24.702 24.675 24.67 24.677 24.675 24.657 24.642 24.585 24.57 24.512 24.52 24.502 24.457 24.412 24.347 24.267 24.222 24.162 24.087 24.05 24.002 23.947 23.885 23.822 23.775 23.732 23.685 23.585 23.517 23.485 23.437 23.452 23.415 23.327 23.427 24.015 22.637 22.702 24.1 23.562 22.337 22.402 23.212 22.622 22.405 22.355 22.332 22.265 22.175 22.07 21.967 21.852 21.765 21.722 21.625 21.59 21.495 21.422 21.325 21.302 21.257 21.2 21.172 21.13 21.07 21.067 21.042 20.997 20.962 20.97 20.927 20.892 20.882 20.882 20.862 20.82 20.765 20.72 20.677 20.655 20.615 20.587 20.6 20.592 20.565 20.535 20.517 20.48 20.447 20.425 20.417 20.38 20.34 20.302 20.27 20.267 20.227 20.197 20.15 20.105 20.072 20.012 19.942 19.875 19.797 19.717 19.62 19.535 19.422 19.335 19.237 19.177 19.07 18.987 18.915 18.857 18.717 18.64 18.61 18.552 18.497 18.46 18.447 18.407 18.62 22.655 19.952 19.305 21.857 20.74 18.685 18.635 18.77 18.89 19.057 19.297 19.517 19.7 19.907 20.127 20.292 20.505 20.635 20.757 20.89 20.997 21.08 21.205 21.307 21.38 21.427 21.465 21.525 21.59 21.645 21.705 21.752 21.81 21.807 21.835 21.84 21.88 21.88 21.975 22.017 22.042 22.055 22.085 22.095 22.14 22.212 22.245 22.29 22.395 22.427 22.47 22.537 22.592 22.637 22.672 22.765 22.815 22.857 22.937 23.052 23.13 23.192 23.29 23.342 23.405 23.475 23.525 23.615 23.69 23.752 23.852 23.932 24.027 24.092 24.152 24.265 24.355 24.435 24.515 24.582 24.707 24.772 24.852 24.94 25.007 25.095 25.172 25.285 25.402
25.097 25.055 25.002 25.145 26.195 25.1 24.755 24.582 24.48 24.475 24.145 23.75 23.627 23.55 23.962 27.98 28.972 25.82 24.275 24.672 24.977 25.07 25.132 25.257 25.402 25.565 25.73 25.827 25.945 26.052 26.117 26.202 26.285 26.367 26.42 26.47 26.477 26.502 26.512 26.537 26.587 26.567 26.582 26.59 26.565 26.587 26.585 26.56 26.55 26.72 26.842 27.227 27.517 27.67 27.772 27.342 27.1 26.642 26.497 26.237 26.222 26.165 26.082 26.037 25.947 25.867 25.777 25.662 25.53 25.435 25.335 25.242 25.167 25.09 25.065 24.937 25.325 27.397 24.44 23.97 23.712 23.515 23.337 23.17 23.012 22.867 22.697 22.537 22.42 22.327 22.25 22.145 22.44 22.717 22.092 22.057 22.06 22.022 22.007 22.032 22.02 21.985 21.932 21.885 21.82 21.76 21.707 21.625 21.565 21.47 21.445 21.35 21.262 21.215 21.152 21.062 20.955 20.882 20.772 20.68 20.577 20.482 20.355 20.215 20.12 20.015 19.92 19.79 19.667 19.552 19.442 19.357 19.18 18.972 18.75 18.592 18.417 18.305 18.117 17.907 17.747 17.627 17.49 17.395 17.347 17.28 19.117 19.277 18.052 17.457 17.582 17.827 18.085 18.33 18.532 18.8 19.045 19.23 19.43 19.625 19.797 20.027 20.172 20.292 20.422 20.56 20.672 20.775 20.86 21.007 21.11 21.207 21.35 21.435 21.565 21.63 21.74 21.815 21.875 21.98 22.01 22.047 22.047 23.222 23.222 22.282 22.357 22.832 23.81 23.345 23.082 23.147 23.195 23.212 23.272 23.312 23.367 23.392 23.395 23.495 23.69 23.71 23.762 23.832 23.917 23.96 24.035 24.11 24.165 27.487 27.817 27.715 26.91 26.842 26.867 27.952 27.015 27.67 24.772 24.597 25.055 24.66 24.642 24.68 24.66 24.657 24.515 24.505 24.555 24.627 24.647 24.642 24.655 24.64 24.625 24.595 24.572 24.567 24.507 24.46 24.44 24.387 24.35 24.277 24.252 24.2 24.132 24.075 24.002 23.952 23.892 23.842 23.805 23.75 23.672 23.612 23.527 23.49 23.44 23.407 23.417 23.377 23.285 23.787 23.292 22.657 23.027 24.047 23.3 22.18 22.135 23.177 23.727 23.237 22.46 22.24 22.15 22.082 22.017 21.905 21.81 21.712 21.647 21.547 21.44 21.41 21.345 21.275 21.217 21.135 21.097 21.05 20.98 20.95 20.907 20.88 20.845 20.822 20.812 20.757 20.747 20.702 20.707 20.685 20.61 20.612 20.54 20.51 20.46 20.415 20.417 20.407 20.395 20.377 20.352 20.312 20.285 20.242 20.215 20.172 20.145 20.082 20.062 20.04 20.012 20.002 19.955 19.91 19.86 19.817 19.747 19.705 19.632 19.56 19.472 19.4 19.3 19.182 19.132 19.057 18.972 18.912 18.822 18.77 18.66 18.562 18.542 18.535 18.495 18.437 18.415 18.592 19.762 20.662 19.375 22.84 23.047 21.27 18.605 18.31 18.575 18.75 18.965 19.165 19.395 19.6 19.87 20.082 20.297 20.482 20.637 20.757 20.9 21.012 21.11 21.255 21.327 21.42 21.482 21.532 21.585 21.642 21.705 21.75 21.795 21.86 21.967 21.967 21.977 22.012 22.04 22.067 22.157 22.185 22.205 22.225 22.26 22.32 22.352 22.41 22.457 22.487 22.522 22.59 22.665 22.705 22.77 22.822 22.862 22.917 23.01 23.052 23.115 23.175 23.245 23.292 23.377 23.447 23.497 23.572 23.652 23.71 23.812 23.892 23.962 24.065 24.152 24.26 24.335 24.47 24.555 24.657 24.747 24.84 24.91 24.967 25.037 25.082 25.172 25.255 25.327 25.442 25.542
25.037 24.967 24.905 24.9 25.922 25.015 24.525 24.457 24.39 24.252 23.985 23.702 23.577 23.54 23.547 26.182 26.215 25.122 24.15 24.547 24.855 24.965 25.037 25.162 25.322 25.457 25.605 25.7 25.81 25.92 25.987 26.115 26.185 26.26 26.307 26.36 26.377 26.402 26.405 26.45 26.457 26.477 26.47 26.507 26.5 26.532 26.542 26.557 26.545 26.497 26.5 26.47 26.437 26.41 26.752 26.832 27.322 27.18 27.38 27.18 26.847 26.447 26.167 25.937 25.825 25.775 25.677 25.56 25.507 25.395 25.285 25.177 25.11 25.032 24.957 24.862 24.617 24.725 24.452 23.98 23.697 23.497 23.3 23.127 23 22.837 22.665 22.507 22.362 22.21 22.102 22.02 21.787 22.067 21.902 21.89 21.897 21.842 21.822 21.825 21.802 21.8 21.73 21.692 21.62 21.57 21.48 21.415 21.352 21.272 21.237 21.157 21.07 21.04 20.975 20.865 20.747 20.68 20.582 20.487 20.387 20.257 20.135 20.015 19.93 19.817 19.707 19.595 19.49 19.362 19.237 19.12 18.94 18.755 18.542 18.387 18.237 18.067 17.842 17.627 17.527 17.375 17.285 17.202 17.152 17.91 20.102 18.095 17.372 17.53 17.745 17.98 18.195 18.447 18.722 18.96 19.13 19.327 19.52 19.747 19.917 20.09 20.25 20.362 20.48 20.617 20.725 20.837 20.892 21.017 21.132 21.235 21.357 21.455 21.555 21.647 21.74 21.807 21.89 21.972 22 22.065 22.052 22.575 23.267 22.487 22.352 22.482 23.15 23.75 23.495 23.105 23.18 23.195 23.257 23.325 23.417 23.397 23.42 23.492 23.597 23.652 23.71 23.8 24.2 25.56 25.452 24.315 24.327 25.23 24.817 25.17 25.097 25.165 24.51 24.802 27.002 27.74 24.585 24.545 24.617 24.63 24.637 24.645 24.617 24.597 24.462 24.46 24.517 24.577 24.592 24.622 24.655 24.617 24.59 24.58 24.542 24.505 24.485 24.405 24.377 24.342 24.26 24.227 24.192 24.14 24.075 24.015 23.965 23.932 23.857 23.807 23.747 23.665 23.63 23.565 23.48 23.457 23.422 23.387 23.405 23.332 23.182 23.92 23 22.65 23.227 24.035 22.895 22.13 22.085 22.042 22.282 22.865 23.585 23.382 22.515 22.047 21.887 21.802 21.72 21.607 21.527 21.445 21.377 21.302 21.195 21.185 21.13 21.07 20.99 20.935 20.842 20.79 20.755 20.732 20.67 20.645 20.627 20.582 20.565 20.547 20.515 20.47 20.412 20.387 20.33 20.277 20.257 20.212 20.222 20.215 20.205 20.15 20.157 20.092 20.032 20.015 19.99 19.952 19.902 19.85 19.83 19.822 19.772 19.732 19.695 19.63 19.59 19.545 19.495 19.467 19.382 19.307 19.23 19.145 19.077 19.005 18.935 18.897 18.8 18.717 18.637 18.56 18.54 18.53 18.515 18.452 18.402 18.322 19.457 21.11 21.692 19.905 21.242 19.417 19.885 18.3 18.062 18.35 18.595 18.837 19.037 19.292 19.535 19.777 20.015 20.235 20.417 20.615 20.805 20.89 21.017 21.155 21.24 21.337 21.445 21.54 21.625 21.65 21.717 21.762 21.832 21.872 21.902 21.987 22.087 22.112 22.135 22.185 22.207 22.22 22.3 22.342 22.36 22.407 22.447 22.522 22.547 22.615 22.645 22.712 22.77 22.852 22.902 22.952 23.012 23.03 23.06 23.117 23.162 23.21 23.257 23.307 23.355 23.417 23.502 23.567 23.655 23.72 23.812 23.877 23.987 24.067 24.14 24.24 24.337 24.457 24.53 24.645 24.735 24.835 24.932 25.007 25.08 25.112 25.16 25.22 25.297 25.365 25.437 25.547 25.642
24.965 24.882 24.835 24.84 25.547 24.642 24.44 24.412 24.377 24.23 23.955 23.655 23.542 23.575 23.9 24.927 26.772 24.227 24.07 24.497 24.747 24.842 24.935 25.055 25.23 25.347 25.45 25.62 25.712 25.797 25.89 26 26.075 26.145 26.195 26.247 26.275 26.29 26.302 26.312 26.302 26.367 26.385 26.42 26.405 26.42 26.41 26.46 26.485 26.437 26.39 26.4 26.375 26.332 26.302 26.25 26.19 26.2 26.355 26.295 26.877 27.212 27.157 27.032 26.775 26.38 26.12 25.662 25.507 25.277 25.185 25.12 25.04 24.92 24.78 24.65 24.475 24.55 24.382 23.915 23.67 23.49 23.3 23.117 22.987 22.817 22.682 22.485 22.322 22.165 22.007 21.85 21.622 21.682 21.702 21.672 21.712 21.67 21.615 21.64 21.635 21.58 21.542 21.495 21.405 21.35 21.295 21.23 21.135 21.062 21.022 20.98 20.86 20.797 20.76 20.655 20.542 20.45 20.367 20.285 20.177 20.052 19.92 19.807 19.712 19.62 19.527 19.42 19.31 19.167 19.015 18.877 18.72 18.552 18.372 18.2 18.042 17.82 17.582 17.387 17.302 17.177 17.092 17.042 18.102 18.69 18.58 17.37 17.42 17.645 17.912 18.115 18.327 18.605 18.84 19.075 19.245 19.457 19.617 19.84 20.007 20.157 20.27 20.407 20.537 20.645 20.73 20.832 20.917 21.01 21.132 21.265 21.352 21.467 21.56 21.637 21.727 21.805 21.857 21.937 21.98 22.03 22.05 22.067 22.792 23.222 22.317 22.497 22.602 23.237 24.07 23.52 23.082 23.145 23.275 23.367 23.4 23.385 23.42 23.47 23.662 23.657 23.67 23.887 24.265 26.947 25.602 24.247 24.195 24.177 24.195 24.195 24.207 24.165 24.137 24.612 26.645 27.08 24.2 24.35 24.375 24.42 24.562 24.592 24.55 24.57 24.452 24.45 24.485 24.522 24.555 24.57 24.562 24.587 24.575 24.56 24.487 24.462 24.415 24.357 24.347 24.272 24.207 24.145 24.107 24.065 23.995 23.962 23.89 23.862 23.837 23.777 23.735 23.68 23.577 23.517 23.46 23.422 23.38 23.405 23.387 23.26 23.235 23.957 22.722 22.527 23.63 23.99 22.437 22.175 22.12 22.075 22.015 21.915 22.047 22.745 23.5 23.242 22.59 21.905 21.622 21.507 21.467 21.352 21.297 21.225 21.165 21.077 21.01 20.955 20.887 20.815 20.74 20.687 20.615 20.545 20.512 20.475 20.435 20.422 20.397 20.365 20.34 20.27 20.222 20.197 20.137 20.09 20.032 20.017 20.012 20.022 19.99 19.932 19.917 19.837 19.825 19.8 19.74 19.707 19.66 19.625 19.58 19.565 19.527 19.44 19.42 19.375 19.315 19.265 19.237 19.177 19.12 19.047 19.002 18.94 18.887 18.807 18.765 18.69 18.585 18.542 18.525 18.462 18.475 18.48 18.41 18.34 18.547 19.215 19.147 19.675 20.972 18.537 19.702 20.055 17.675 17.88 18.137 18.427 18.645 18.902 19.14 19.422 19.695 19.915 20.187 20.4 20.587 20.76 20.91 21.075 21.15 21.267 21.35 21.425 21.515 21.61 21.69 21.775 21.815 21.857 21.95 21.985 22.055 22.115 22.212 22.265 22.295 22.335 22.347 22.372 22.412 22.467 22.527 22.537 22.595 22.69 22.757 22.812 22.872 22.937 22.982 23.032 23.08 23.125 23.21 23.237 23.285 23.327 23.377 23.425 23.46 23.532 23.58 23.615 23.685 23.757 23.845 23.917 24.012 24.092 24.172 24.245 24.342 24.445 24.532 24.605 24.707 24.8 24.897 24.992 25.062 25.107 25.18 25.255 25.282 25.355 25.412 25.472 25.545 25.64 25.73
24.885 24.77 24.742 25.182 26.065 24.672 24.405 24.38 24.282 24.175 23.905 23.627 23.485 23.425 23.387 24.927 27.802 25.805 24.302 24.402 24.632 24.735 24.825 24.952 25.107 25.227 25.362 25.487 25.585 25.685 25.767 25.892 25.975 26.032 26.062 26.117 26.18 26.17 26.22 26.217 26.225 26.242 26.267 26.287 26.31 26.295 26.307 26.327 26.347 26.317 26.302 26.32 26.287 26.415 26.237 26.18 26.125 26.07 25.997 25.96 25.89 25.827 25.857 25.937 26.242 26.32 26.585 26.537 26.482 26.125 25.857 25.507 25.042 24.667 24.457 24.317 24.775 24.342 24.292 23.93 23.662 23.46 23.275 23.077 22.907 22.757 22.627 22.442 22.282 22.065 21.87 21.682 21.577 21.677 21.54 21.485 21.497 21.505 21.447 21.445 21.427 21.392 21.35 21.285 21.197 21.13 21.065 21.015 20.915 20.857 20.815 20.76 20.642 20.612 20.555 20.45 20.382 20.277 20.197 20.097 19.967 19.872 19.737 19.615 19.505 19.43 19.35 19.265 19.12 18.965 18.79 18.642 18.552 18.4 18.195 17.985 17.807 17.605 17.345 17.202 17.115 17.017 16.942 17.372 19.002 18.117 17.265 17.337 17.572 17.807 17.98 18.175 18.452 18.702 18.992 19.18 19.372 19.565 19.752 19.917 20.095 20.215 20.35 20.462 20.545 20.645 20.74 20.835 20.93 21.037 21.137 21.255 21.35 21.46 21.527 21.647 21.71 21.77 21.827 21.93 21.985 22.017 22.037 22.032 22.2 23.3 23.097 22.507 22.587 22.662 23.057 24.002 23.865 23.23 23.287 23.36 23.357 23.397 23.427 23.447 23.54 23.645 23.702 23.712 23.707 26.93 25.93 24.317 24.142 24.177 24.202 24.197 24.21 24.157 24.102 24.13 24.17 25.37 24.115 24.18 24.23 24.267 24.485 24.5 24.49 24.465 24.385 24.43 24.45 24.492 24.532 24.515 24.502 24.507 24.525 24.48 24.432 24.37 24.36 24.372 24.305 24.235 24.187 24.122 24.062 23.985 23.93 23.897 23.845 23.815 23.747 23.74 23.67 23.642 23.557 23.46 23.367 23.387 23.332 23.357 23.297 23.247 23.477 23.912 22.517 22.622 23.8 23.672 22.29 22.232 22.187 22.145 22.025 21.907 21.815 21.73 22.092 22.75 23.335 23.25 22.347 21.65 21.34 21.25 21.195 21.127 21.05 20.962 20.902 20.8 20.74 20.677 20.65 20.567 20.465 20.387 20.355 20.317 20.28 20.227 20.212 20.177 20.127 20.057 20.027 19.982 19.895 19.852 19.785 19.775 19.782 19.802 19.765 19.697 19.697 19.625 19.587 19.547 19.507 19.46 19.41 19.365 19.332 19.3 19.257 19.165 19.147 19.11 19.037 19.017 18.975 18.945 18.9 18.86 18.732 18.715 18.655 18.57 18.5 18.48 18.44 18.447 18.422 18.44 18.39 18.38 18.592 18.635 21.287 20.805 21.42 20.56 20.567 19.887 17.42 17.715 18.022 18.067 18.255 18.535 18.78 19.042 19.322 19.58 19.85 20.08 20.34 20.557 20.722 20.897 21.025 21.16 21.275 21.357 21.437 21.545 21.585 21.725 21.79 21.872 21.942 22.007 22.06 22.097 22.165 22.24 22.325 22.372 22.42 22.492 22.52 22.51 22.585 22.635 22.675 22.717 22.76 22.832 22.885 22.947 23.015 23.057 23.117 23.182 23.237 23.295 23.337 23.382 23.465 23.527 23.595 23.645 23.702 23.725 23.797 23.845 23.877 23.957 24.027 24.097 24.187 24.272 24.355 24.397 24.507 24.62 24.687 24.77 24.85 24.93 25.032 25.12 25.177 25.247 25.275 25.372 25.402 25.46 25.517 25.567 25.635 25.715 25.812
24.795 24.74 24.645 25.002 25.935 24.537 24.31 24.277 24.182 24.072 23.832 23.557 23.395 23.32 23.317 25.32 26.57 25.32 24.16 24.255 24.515 24.592 24.7 24.825 24.957 25.107 25.247 25.372 25.47 25.542 25.667 25.767 25.842 25.892 25.96 26.005 26.08 26.08 26.115 26.117 26.097 26.155 26.195 26.212 26.205 26.215 26.225 26.25 26.23 26.245 26.212 26.177 26.2 26.265 26.152 26.12 26.057 25.987 25.92 25.867 25.807 25.755 25.677 25.602 25.542 25.432 25.382 25.402 25.57 25.682 25.97 25.605 25.695 25.58 24.862 24.125 24.497 24.59 24.162 23.827 23.455 23.27 23.127 22.987 22.81 22.66 22.535 22.347 22.16 21.937 21.625 21.452 21.437 22.195 21.485 21.29 21.305 21.332 21.27 21.262 21.242 21.207 21.13 21.062 21.005 20.93 20.867 20.817 20.717 20.657 20.61 20.572 20.472 20.407 20.36 20.255 20.19 20.075 19.995 19.907 19.805 19.707 19.575 19.445 19.345 19.26 19.182 19.045 18.907 18.79 18.635 18.475 18.365 18.225 18.02 17.742 17.525 17.377 17.16 17.032 16.862 16.775 17.787 19.237 18.44 17.137 17.185 17.457 17.692 17.867 18.062 18.282 18.51 18.822 19.107 19.26 19.457 19.667 19.855 20.007 20.13 20.262 20.36 20.49 20.58 20.675 20.725 20.857 20.962 21.047 21.135 21.252 21.352 21.45 21.525 21.642 21.695 21.74 21.835 21.915 21.937 22.002 22.057 22.05 22.1 22.582 23.085 22.86 22.59 22.647 22.762 22.995 24.262 23.872 23.315 23.34 23.347 23.372 23.437 23.497 23.515 23.642 23.685 23.7 23.71 26.627 25.722 24.54 24.092 24.215 24.175 24.187 24.212 24.125 24.027 24.017 24.19 25.157 24.05 24.115 24.152 24.222 24.4 24.42 24.435 24.422 24.352 24.395 24.457 24.457 24.48 24.485 24.447 24.407 24.432 24.395 24.357 24.302 24.285 24.23 24.21 24.192 24.112 24.082 24.002 23.955 23.89 23.812 23.782 23.765 23.7 23.677 23.627 23.557 23.485 23.425 23.347 23.345 23.28 23.262 23.25 23.167 23.905 23.262 22.542 22.872 23.81 23.337 22.285 22.215 22.2 22.12 22 21.902 21.78 21.702 21.615 21.455 21.617 22.525 23.05 22.81 22.122 21.335 21.07 21.012 20.96 20.877 20.765 20.707 20.642 20.547 20.462 20.407 20.31 20.28 20.237 20.147 20.082 20.057 20.057 19.995 19.927 19.872 19.817 19.735 19.705 19.65 19.597 19.575 19.572 19.542 19.537 19.47 19.455 19.395 19.355 19.282 19.247 19.2 19.16 19.12 19.08 19.04 18.985 18.93 18.912 18.86 18.817 18.757 18.752 18.74 18.662 18.607 18.512 18.465 18.42 18.392 18.375 18.342 18.342 18.327 18.367 18.312 22.127 21.237 19.72 19.147 20.842 21.022 20.232 22.742 17.735 17.41 17.767 17.947 18.085 18.275 18.48 18.77 18.992 19.217 19.482 19.777 20.032 20.227 20.472 20.695 20.847 20.987 21.142 21.257 21.365 21.475 21.547 21.627 21.717 21.802 21.902 21.962 22.032 22.097 22.155 22.225 22.285 22.355 22.435 22.5 22.56 22.612 22.645 22.617 22.712 22.792 22.81 22.852 22.88 22.94 23.002 23.092 23.167 23.2 23.262 23.312 23.357 23.435 23.495 23.557 23.635 23.717 23.775 23.827 23.847 23.91 23.965 24.015 24.045 24.172 24.215 24.307 24.367 24.445 24.517 24.582 24.657 24.747 24.817 24.9 24.985 25.025 25.122 25.217 25.267 25.32 25.365 25.42 25.505 25.547 25.612 25.672 25.71 25.802 25.88
24.73 24.67 24.582 24.7 25.915 24.595 24.187 24.177 24.12 24.002 23.735 23.482 23.342 23.322 23.422 24.635 26.975 24.867 23.735 24.137 24.35 24.447 24.532 24.665 24.795 24.95 25.09 25.24 25.345 25.46 25.54 25.63 25.717 25.782 25.845 25.885 25.932 25.967 26.007 26.027 26.027 26.077 26.087 26.112 26.132 26.127 26.12 26.142 26.152 26.142 26.122 26.062 26.072 26.045 26.237 26.047 25.942 25.915 25.865 25.785 25.735 25.695 25.647 25.535 25.482 25.367 25.295 25.23 25.087 24.975 24.855 24.762 24.925 25.157 25.112 24.875 25.13 25.127 24.927 24.565 24.722 23.917 22.985 22.72 22.56 22.452 22.365 22.21 22.01 21.742 21.467 21.315 21.222 21.662 21.807 21.117 21.115 21.122 21.107 21.057 21.025 21.012 20.937 20.895 20.81 20.712 20.687 20.597 20.565 20.49 20.417 20.395 20.277 20.232 20.152 20.08 20.007 19.912 19.8 19.695 19.61 19.51 19.407 19.297 19.202 19.085 18.997 18.892 18.762 18.605 18.44 18.265 18.185 18.042 17.78 17.52 17.295 17.15 16.99 16.787 16.585 17.635 18.322 18.24 16.882 17.035 17.28 17.532 17.72 17.925 18.14 18.382 18.667 18.945 19.212 19.367 19.542 19.742 19.907 20.055 20.15 20.277 20.395 20.472 20.58 20.665 20.732 20.857 20.93 21.017 21.145 21.24 21.34 21.447 21.53 21.62 21.677 21.712 21.8 21.84 21.922 21.962 22.05 22.06 22.077 22.105 22.882 23.805 22.55 22.64 22.787 22.815 23.187 24.22 23.722 23.325 23.337 23.327 23.422 23.475 23.495 23.647 23.702 23.707 23.66 26.1 25.797 23.965 23.992 24.302 24.227 24.217 24.252 24.145 23.987 24.102 24.005 23.922 23.972 24.05 24.1 24.137 24.31 24.327 24.355 24.35 24.287 24.377 24.43 24.435 24.432 24.402 24.395 24.35 24.347 24.317 24.3 24.247 24.22 24.172 24.137 24.082 24.042 23.982 23.94 23.88 23.817 23.755 23.717 23.687 23.657 23.615 23.527 23.465 23.435 23.357 23.325 23.282 23.245 23.225 23.182 23.117 23.927 22.577 22.477 23.207 23.832 22.882 22.232 22.195 22.16 22.092 22.01 21.895 21.795 21.7 21.572 21.442 21.285 21.19 21.285 22.197 22.845 22.53 21.635 21.14 20.842 20.73 20.685 20.59 20.48 20.402 20.33 20.255 20.182 20.125 20.04 20.01 19.955 19.937 19.887 19.822 19.772 19.662 19.632 19.515 19.487 19.45 19.4 19.365 19.385 19.315 19.287 19.245 19.212 19.157 19.107 19.037 19.002 18.965 18.925 18.875 18.825 18.77 18.722 18.735 18.682 18.622 18.6 18.565 18.522 18.477 18.417 18.332 18.31 18.295 18.29 18.275 18.26 18.255 18.227 18.212 18.242 18.265 22.257 18.43 19.887 19.045 18.53 17.557 18.002 19.8 17.495 17.865 17.925 18.07 18.245 18.467 18.742 18.952 19.182 19.392 19.692 19.947 20.192 20.437 20.625 20.822 20.987 21.095 21.235 21.37 21.48 21.535 21.65 21.7 21.795 21.887 21.992 22.042 22.105 22.167 22.217 22.305 22.372 22.46 22.555 22.615 22.677 22.732 22.727 22.775 22.852 22.875 22.912 22.947 22.98 23.065 23.155 23.225 23.287 23.37 23.417 23.462 23.53 23.577 23.662 23.722 23.8 23.882 23.92 24.002 24.052 24.117 24.17 24.21 24.26 24.325 24.375 24.492 24.532 24.567 24.652 24.72 24.785 24.867 24.937 25.015 25.062 25.157 25.21 25.287 25.355 25.4 25.475 25.517 25.565 25.645 25.705 25.737 25.78 25.855 25.937
24.62 24.56 24.495 24.437 25.67 24.755 24.137 24.08 24.032 23.922 23.66 23.397 23.282 23.285 23.292 26.102 27.762 25.437 23.65 23.972 24.235 24.31 24.39 24.475 24.625 24.797 24.962 25.095 25.192 25.3 25.417 25.495 25.64 25.692 25.73 25.78 25.847 25.877 25.907 25.922 25.922 25.95 25.975 26.025 26.03 26.017 26.032 26.047 26.042 26.045 26.015 25.987 25.967 25.95 25.925 25.887 26.03 25.82 25.77 25.682 25.622 25.552 25.49 25.4 25.352 25.295 25.217 25.157 25.027 24.94 24.807 24.677 24.562 24.4 24.255 24.02 23.977 24.277 24.96 24.92 24.205 24.32 23.592 23.157 22.905 22.532 22.272 21.957 21.735 21.637 21.48 21.24 21.157 21.277 21.962 21.02 20.972 20.965 20.935 20.932 20.867 20.815 20.747 20.72 20.657 20.545 20.535 20.467 20.412 20.332 20.262 20.232 20.137 20.045 20.012 19.925 19.827 19.737 19.652 19.55 19.462 19.365 19.242 19.132 19.025 18.96 18.84 18.75 18.615 18.45 18.282 18.11 18.012 17.795 17.552 17.315 17.095 16.935 16.82 16.65 17.282 19.195 17.442 16.79 16.785 17.117 17.395 17.59 17.752 18.01 18.257 18.512 18.77 19.08 19.277 19.445 19.65 19.802 19.937 20.072 20.165 20.3 20.37 20.47 20.575 20.655 20.742 20.835 20.945 21.025 21.157 21.25 21.33 21.44 21.502 21.6 21.652 21.72 21.735 21.815 21.91 21.95 22.027 22.05 22.075 22.097 22.227 23.172 23.495 22.787 22.755 22.88 22.92 23.277 24.32 23.622 23.33 23.322 23.365 23.425 23.5 23.72 23.71 23.712 23.657 26.152 26 24.075 24.032 24.065 24.305 24.312 24.31 23.982 23.955 24.272 25.132 24.455 23.897 23.962 24.03 24.085 24.26 24.275 24.292 24.345 24.297 24.342 24.38 24.392 24.382 24.355 24.315 24.302 24.275 24.22 24.182 24.167 24.157 24.107 24.08 24.02 23.987 23.905 23.857 23.82 23.762 23.725 23.682 23.645 23.6 23.507 23.497 23.432 23.377 23.332 23.277 23.21 23.19 23.162 23.157 23.25 23.657 22.367 22.452 23.48 23.72 22.37 22.22 22.152 22.13 22.067 21.957 21.882 21.777 21.665 21.522 21.417 21.227 21.125 20.975 20.947 21.012 21.445 23.667 21.995 21.805 21.045 20.55 20.462 20.377 20.315 20.222 20.127 20.027 19.965 19.907 19.832 19.805 19.78 19.747 19.672 19.585 19.5 19.435 19.365 19.322 19.257 19.217 19.182 19.165 19.105 19.07 19.032 18.977 18.937 18.89 18.83 18.772 18.75 18.7 18.66 18.617 18.567 18.482 18.43 18.42 18.367 18.327 18.327 18.31 18.297 18.242 18.222 18.175 18.14 18.152 18.115 18.125 18.122 18.107 18.147 18.325 18.675 21.382 18.275 19.247 18.657 17.567 17.467 17.675 17.687 17.91 17.975 18.065 18.23 18.47 18.7 18.932 19.137 19.335 19.655 19.9 20.162 20.37 20.565 20.78 20.937 21.08 21.215 21.35 21.455 21.577 21.647 21.712 21.785 21.865 21.932 22.045 22.117 22.167 22.245 22.305 22.385 22.447 22.532 22.655 22.69 22.735 22.785 22.812 22.857 22.92 22.982 23.007 23.072 23.125 23.2 23.295 23.35 23.427 23.485 23.55 23.62 23.667 23.73 23.817 23.885 23.947 24.03 24.09 24.155 24.21 24.265 24.305 24.37 24.435 24.467 24.54 24.61 24.647 24.707 24.78 24.84 24.91 24.962 25.015 25.092 25.142 25.225 25.297 25.352 25.417 25.482 25.507 25.597 25.645 25.717 25.75 25.81 25.867 25.91 25.99
24.517 24.457 24.422 24.355 25.352 25.212 24.045 24.015 23.967 23.825 23.55 23.292 23.247 23.267 23.212 24.672 26.185 23.637 23.51 23.817 24.092 24.157 24.235 24.355 24.5 24.64 24.805 24.957 25.045 25.16 25.287 25.36 25.46 25.54 25.615 25.67 25.752 25.755 25.77 25.822 25.825 25.852 25.887 25.897 25.905 25.915 25.927 25.937 25.965 25.942 25.905 25.9 25.855 25.845 25.805 25.792 25.747 25.707 25.655 25.607 25.512 25.432 25.39 25.31 25.237 25.137 25.062 25.035 24.912 24.83 24.707 24.637 24.532 24.38 24.26 24.097 23.925 23.782 23.645 23.48 23.4 23.185 23.025 24.305 22.805 22.772 22.905 22.385 22.257 21.932 21.637 21.342 21.19 21.137 21.19 20.887 20.87 21.015 20.797 20.74 20.69 20.652 20.642 20.597 20.567 20.492 20.407 20.377 20.305 20.202 20.175 20.075 19.97 19.87 19.792 19.752 19.657 19.557 19.467 19.38 19.312 19.227 19.12 19.002 18.892 18.797 18.705 18.602 18.455 18.322 18.14 17.965 17.777 17.565 17.317 17.082 16.867 16.767 16.715 16.635 18.832 19.77 16.575 16.602 16.892 17.217 17.435 17.622 17.875 18.087 18.367 18.622 18.865 19.127 19.35 19.49 19.657 19.837 19.965 20.087 20.187 20.3 20.357 20.47 20.58 20.64 20.725 20.842 20.942 21.02 21.105 21.21 21.32 21.41 21.497 21.595 21.632 21.705 21.745 21.802 21.862 21.955 21.987 22.045 22.077 22.142 22.15 22.412 23.467 23.355 22.697 22.892 22.997 23.02 23.635 24.567 23.747 23.34 23.38 23.385 23.427 23.687 23.642 23.64 23.655 26.325 26.61 23.997 24.047 23.932 23.945 24.027 24.025 23.932 23.935 23.987 25.107 24.137 23.837 24.17 24.65 24.315 24.252 24.255 24.28 24.36 24.295 24.307 24.347 24.335 24.342 24.312 24.292 24.26 24.24 24.212 24.162 24.13 24.075 24.052 24.005 23.962 23.902 23.86 23.822 23.742 23.705 23.65 23.652 23.58 23.54 23.47 23.425 23.377 23.32 23.29 23.23 23.157 23.125 23.122 23.095 23.415 23.08 22.407 22.545 23.66 23.475 22.25 22.122 22.087 22.037 21.96 21.925 21.832 21.76 21.63 21.505 21.38 21.26 21.082 20.972 20.807 20.727 20.585 20.69 21.35 22.26 21.92 21.392 20.73 20.282 20.2 20.102 20.025 19.937 19.837 19.765 19.705 19.662 19.602 19.567 19.47 19.407 19.367 19.267 19.195 19.13 19.075 19.032 18.985 18.96 18.912 18.842 18.805 18.747 18.69 18.652 18.63 18.592 18.492 18.472 18.442 18.35 18.277 18.305 18.237 18.24 18.212 18.157 18.147 18.135 18.14 18.097 18.065 18.027 18.027 17.987 18.015 18.202 19.025 18.377 18.895 19.88 18.982 20.012 18.23 17.617 18.272 18.157 17.822 17.737 17.85 18.02 18.112 18.24 18.425 18.65 18.907 19.132 19.33 19.587 19.82 20.07 20.275 20.502 20.71 20.857 21.02 21.175 21.302 21.44 21.55 21.615 21.71 21.795 21.865 21.942 22.03 22.117 22.215 22.272 22.337 22.395 22.47 22.515 22.592 22.685 22.732 22.772 22.852 22.882 22.937 23.007 23.072 23.11 23.175 23.245 23.315 23.377 23.452 23.535 23.597 23.665 23.727 23.8 23.852 23.952 24.037 24.065 24.16 24.225 24.287 24.322 24.395 24.472 24.502 24.54 24.59 24.642 24.722 24.747 24.815 24.882 24.93 24.975 25.055 25.097 25.155 25.21 25.317 25.38 25.427 25.497 25.557 25.59 25.642 25.712 25.777 25.822 25.88 25.932 25.972 26.045
24.47 24.415 24.342 24.255 24.887 25.032 24.127 23.937 23.877 23.732 23.445 23.212 23.15 23.18 23.14 23.567 24.8 23.847 23.417 23.695 23.927 24.012 24.092 24.212 24.342 24.49 24.652 24.805 24.94 25 25.122 25.235 25.305 25.422 25.497 25.52 25.587 25.61 25.67 25.69 25.707 25.737 25.767 25.772 25.81 25.825 25.822 25.795 25.835 25.802 25.845 25.78 25.745 25.732 25.687 25.675 25.615 25.587 25.547 25.47 25.41 25.305 25.27 25.192 25.087 25.022 24.98 24.872 24.76 24.69 24.607 24.51 24.427 24.3 24.202 24.062 23.872 23.7 23.57 23.417 23.262 23.087 22.955 22.8 22.635 22.505 22.262 22.155 22.027 21.882 21.892 22.13 23.99 21.17 20.972 20.855 21.057 21.9 21.785 21.617 21.077 20.892 20.78 20.555 20.415 20.357 20.272 20.2 20.117 20.04 19.955 19.885 19.802 19.725 19.647 19.575 19.467 19.355 19.315 19.25 19.145 19.027 18.947 18.837 18.745 18.637 18.53 18.435 18.305 18.142 17.947 17.73 17.485 17.302 17.115 16.917 16.777 16.645 16.725 16.977 19.212 16.555 16.45 16.662 16.992 17.287 17.492 17.715 17.937 18.195 18.43 18.717 18.982 19.215 19.37 19.53 19.707 19.867 19.97 20.077 20.202 20.28 20.37 20.457 20.562 20.595 20.715 20.84 20.93 21.007 21.095 21.167 21.287 21.39 21.455 21.55 21.62 21.662 21.722 21.765 21.855 21.932 21.995 22.04 22.087 22.14 22.21 22.232 22.482 22.635 22.657 22.845 22.967 23.065 23.115 23.947 24.62 23.75 23.31 23.362 23.392 24.045 23.562 23.627 23.6 26.562 26.295 23.867 23.835 23.8 23.815 23.867 23.9 24.1 24.427 23.91 25.057 23.765 23.797 24.117 24.117 24.005 24.197 24.242 24.252 24.282 24.277 24.265 24.29 24.3 24.3 24.245 24.22 24.215 24.175 24.155 24.102 24.072 24.02 23.975 23.942 23.882 23.855 23.805 23.735 23.705 23.642 23.602 23.59 23.52 23.48 23.42 23.362 23.305 23.257 23.255 23.14 23.095 23.06 23.095 23.04 23.737 22.53 22.447 22.63 23.5 23.222 22.145 22.075 22.047 21.982 21.88 21.807 21.742 21.66 21.587 21.507 21.36 21.235 21.07 20.907 20.785 20.665 20.532 20.342 20.217 20.47 21.08 21.417 21.617 20.805 20.2 20.002 19.917 19.815 19.727 19.67 19.582 19.52 19.475 19.42 19.312 19.247 19.157 19.05 19.007 18.905 18.852 18.84 18.782 18.715 18.682 18.62 18.555 18.51 18.467 18.432 18.355 18.36 18.29 18.262 18.215 18.212 18.157 18.125 18.075 18.07 18.025 18.04 18.007 17.997 17.962 17.975 17.927 17.935 17.96 18.027 18.112 18.18 18.945 20.805 20.337 18.05 18.732 17.27 17.197 18.045 18.482 18.615 18.482 18.295 18.082 18.222 18.335 18.472 18.67 18.877 19.082 19.325 19.557 19.785 20.01 20.207 20.425 20.612 20.817 20.965 21.102 21.265 21.387 21.49 21.592 21.697 21.765 21.867 21.965 22.012 22.087 22.2 22.265 22.325 22.375 22.44 22.507 22.562 22.615 22.685 22.772 22.842 22.902 22.947 23.01 23.095 23.18 23.197 23.272 23.347 23.395 23.455 23.55 23.63 23.707 23.77 23.847 23.91 23.977 24.062 24.1 24.172 24.232 24.3 24.36 24.457 24.492 24.532 24.615 24.65 24.69 24.732 24.82 24.845 24.895 24.937 24.992 25.052 25.125 25.175 25.232 25.3 25.37 25.415 25.475 25.572 25.61 25.64 25.7 25.765 25.82 25.885 25.942 25.995 26.077 26.097
24.37 24.265 24.252 24.185 25.242 24.807 24.092 23.832 23.827 23.655 23.355 23.175 23.287 23.502 23.562 23.69 26.277 24.377 23.45 23.515 23.775 23.845 23.922 24.042 24.192 24.357 24.492 24.63 24.74 24.837 24.945 25.062 25.142 25.27 25.325 25.395 25.455 25.492 25.517 25.567 25.585 25.595 25.657 25.695 25.692 25.717 25.717 25.707 25.72 25.705 25.697 25.687 25.62 25.605 25.582 25.557 25.51 25.47 25.552 25.387 25.282 25.185 25.137 25.065 24.975 24.88 24.837 24.762 24.677 24.565 24.5 24.407 24.287 24.172 24.075 23.93 23.775 23.635 23.497 23.392 23.205 23.07 22.917 22.772 22.637 22.472 22.292 22.122 21.98 21.787 21.595 21.817 23.215 21.262 20.987 20.885 20.825 20.797 20.727 21.035 21.122 21.137 21.07 21.307 21.147 21.16 20.735 20.47 20.25 20.1 19.755 19.695 19.59 19.495 19.457 19.412 19.332 19.232 19.15 19.042 18.972 18.86 18.797 18.662 18.575 18.465 18.345 18.252 18.11 17.912 17.672 17.412 17.227 17.242 17.555 17.907 17.525 16.445 18.517 20.01 16.597 16.38 16.495 16.772 17.07 17.33 17.552 17.81 18.032 18.28 18.575 18.797 19.075 19.27 19.422 19.567 19.725 19.86 19.985 20.065 20.16 20.252 20.322 20.435 20.522 20.62 20.712 20.81 20.9 20.995 21.07 21.175 21.27 21.357 21.457 21.527 21.595 21.637 21.722 21.757 21.855 21.925 21.97 22.032 22.07 22.13 22.257 22.232 22.28 22.43 23.577 23.757 22.95 23.022 23.135 23.225 23.775 24.542 24.307 23.322 23.6 24.57 23.617 23.59 23.605 25.877 25.752 24.312 23.822 23.755 25.055 25.412 25.93 24.88 25.117 24.19 23.647 23.7 23.717 24.177 24.877 24.07 24.185 24.217 24.242 24.25 24.202 24.175 24.212 24.255 24.252 24.22 24.177 24.132 24.135 24.08 24.032 24.01 23.937 23.892 23.88 23.82 23.767 23.727 23.695 23.672 23.605 23.555 23.535 23.452 23.412 23.337 23.295 23.257 23.21 23.185 23.095 23.025 22.995 23.03 23.185 23.685 22.302 22.39 22.922 23.692 22.65 22.132 22.057 21.987 21.93 21.847 21.75 21.685 21.58 21.5 21.425 21.28 21.17 21.052 20.897 20.77 20.622 20.48 20.297 20.137 20 19.84 20.072 20.557 20.887 20.76 20.335 19.975 19.71 19.622 19.522 19.465 19.357 19.335 19.267 19.195 19.115 19.032 18.92 18.837 18.772 18.717 18.627 18.572 18.552 18.482 18.4 18.347 18.29 18.27 18.227 18.182 18.15 18.112 18.112 18.097 18.04 18.022 18.005 17.982 17.962 17.95 17.915 17.87 17.88 17.905 17.875 17.985 18.057 18.165 19.72 19.522 18.84 17.857 17.882 18.485 18.437 17.192 17.332 17.592 18.302 18.677 18.652 18.487 18.39 18.39 18.515 18.642 18.775 18.935 19.092 19.29 19.517 19.742 19.96 20.165 20.352 20.552 20.73 20.905 21.052 21.205 21.352 21.505 21.602 21.69 21.807 21.882 21.957 22 22.09 22.155 22.247 22.32 22.37 22.387 22.465 22.517 22.577 22.64 22.735 22.83 22.877 22.977 23.022 23.092 23.18 23.262 23.3 23.367 23.4 23.5 23.577 23.632 23.715 23.767 23.85 23.915 23.975 24.03 24.112 24.167 24.275 24.322 24.395 24.437 24.515 24.567 24.612 24.672 24.717 24.757 24.785 24.89 24.927 24.975 25.03 25.067 25.117 25.182 25.247 25.32 25.372 25.427 25.485 25.557 25.605 25.665 25.72 25.747 25.807 25.882 25.95 26 26.057 26.122 26.182
24.317 24.187 24.142 24.302 25.56 24.95 24.8 24.392 23.58 23.497 23.282 23.282 23.832 23.765 24.482 23.312 24.737 24.92 23.587 23.32 23.65 23.7 23.777 23.885 24.022 24.15 24.287 24.44 24.587 24.662 24.73 24.847 24.942 25.072 25.16 25.237 25.272 25.317 25.365 25.422 25.442 25.45 25.515 25.55 25.567 25.552 25.595 25.58 25.59 25.587 25.57 25.545 25.502 25.507 25.475 25.425 25.36 25.32 25.33 25.242 25.17 25.08 25.005 24.975 24.9 24.795 24.727 24.657 24.587 24.467 24.402 24.322 24.18 24.042 23.927 23.805 23.667 23.575 23.417 23.262 23.135 22.992 22.875 22.745 22.605 22.445 22.265 22.107 21.935 21.767 21.597 21.457 22.365 21.4 21.005 20.882 20.79 20.755 20.64 20.52 20.402 20.325 20.232 20.522 20.58 21.005 21.285 21.33 21.13 21.085 20.822 20.475 19.967 19.717 19.377 19.44 19.335 19.047 18.907 18.857 18.76 18.71 18.595 18.48 18.35 18.412 18.207 18.285 18.177 18.067 18.207 17.83 17.847 18.382 18.297 17.497 16.615 17.025 16.602 18.33 16.21 16.322 16.577 16.852 17.13 17.387 17.62 17.867 18.127 18.372 18.635 18.912 19.137 19.302 19.475 19.59 19.705 19.835 19.935 20.037 20.132 20.217 20.325 20.41 20.492 20.572 20.685 20.75 20.852 20.955 21.037 21.132 21.225 21.32 21.412 21.492 21.565 21.63 21.692 21.727 21.817 21.862 21.935 21.99 22.092 22.155 22.21 22.265 22.337 22.37 22.46 23.767 24.235 23.435 23.06 23.16 23.255 23.387 24.337 24.805 24.795 24.635 24.18 23.487 23.447 23.475 23.472 23.52 23.995 24.852 26.86 26.827 26.87 26.767 26.692 25.392 23.857 23.642 23.687 23.857 24.39 23.895 24.142 24.17 24.207 24.262 24.197 24.157 24.132 24.197 24.2 24.16 24.122 24.1 24.065 23.995 23.967 23.915 23.895 23.855 23.79 23.75 23.725 23.682 23.632 23.592 23.562 23.522 23.48 23.4 23.335 23.302 23.252 23.187 23.135 23.122 23.02 22.962 22.982 23.012 23.395 23.41 22.352 22.312 23.36 23.562 22.252 22.042 22.002 21.93 21.852 21.762 21.687 21.58 21.505 21.397 21.345 21.22 21.1 20.982 20.86 20.697 20.575 20.435 20.272 20.085 19.922 19.772 19.61 19.487 19.492 19.765 20.532 21.492 20.117 19.8 19.41 19.322 19.23 19.155 19.107 19.04 18.967 18.855 18.767 18.695 18.607 18.537 18.477 18.4 18.352 18.295 18.225 18.16 18.115 18.062 18.002 18 17.965 17.96 17.955 17.935 17.907 17.87 17.865 17.89 17.91 17.86 18.175 18.355 17.477 19.24 19.835 18.34 18.397 18.38 18.847 18.905 18.142 17.702 20.337 19.072 17.235 17.647 17.902 18.285 18.607 18.685 18.657 18.587 18.625 18.692 18.797 18.877 19.042 19.16 19.31 19.507 19.727 19.905 20.125 20.34 20.505 20.692 20.877 21.04 21.177 21.332 21.482 21.595 21.695 21.78 21.875 21.942 22.01 22.042 22.112 22.207 22.282 22.347 22.412 22.47 22.527 22.585 22.645 22.705 22.812 22.89 22.935 23.027 23.082 23.167 23.267 23.345 23.395 23.442 23.525 23.567 23.647 23.695 23.767 23.845 23.917 23.97 24.042 24.1 24.172 24.24 24.332 24.387 24.435 24.51 24.587 24.64 24.667 24.727 24.757 24.827 24.865 24.927 24.997 25.04 25.085 25.127 25.212 25.257 25.312 25.365 25.425 25.48 25.545 25.587 25.65 25.7 25.745 25.815 25.855 25.92 26 26.055 26.102 26.172 26.242
24.232 24.085 24.022 24.025 25.227 25.48 25.015 24.025 23.71 23.312 23.362 24.755 25.95 24.357 24.787 24.647 25.01 23.952 22.815 23.125 23.427 23.565 23.607 23.72 23.847 23.985 24.132 24.262 24.395 24.475 24.575 24.707 24.822 24.935 25.01 25.092 25.152 25.18 25.23 25.25 25.307 25.317 25.352 25.395 25.43 25.445 25.445 25.44 25.45 25.445 25.415 25.407 25.385 25.352 25.337 25.285 25.227 25.22 25.182 25.13 25.032 24.962 24.867 24.825 24.757 24.687 24.57 24.525 24.437 24.34 24.265 24.18 24.072 23.922 23.852 23.73 23.612 23.475 23.38 23.225 23.07 22.952 22.8 22.645 22.525 22.34 22.17 22.015 21.887 21.72 21.58 21.402 21.865 21.59 21.037 20.905 20.795 20.725 20.605 20.5 20.37 20.245 20.115 19.985 19.82 19.67 19.545 19.95 19.46 19.552 19.44 19.49 19.805 19.937 20.267 20.257 20.207 19.957 19.81 19.635 19.622 19.235 19.57 19.362 19.242 19.372 19.285 19.287 19.095 18.965 18.612 17.795 16.982 16.42 16.202 16.052 15.895 17.167 19.93 17.077 16.162 16.347 16.62 16.925 17.162 17.447 17.71 17.95 18.202 18.477 18.735 18.972 19.185 19.33 19.445 19.565 19.705 19.807 19.905 20.002 20.102 20.195 20.292 20.382 20.477 20.58 20.662 20.722 20.807 20.9 21.007 21.097 21.17 21.267 21.375 21.44 21.532 21.595 21.672 21.732 21.802 21.862 21.905 22.005 22.062 22.112 22.167 22.23 22.29 22.367 22.602 24.402 24.325 24.185 23.782 23.322 23.177 23.237 23.275 23.575 24.142 24.287 24.06 23.36 23.38 23.415 23.435 23.422 23.417 24.815 28.84 28.707 28.662 28.57 28.527 28.392 26.27 23.582 23.647 24.872 26.99 24.89 24.105 24.15 24.192 24.187 24.152 24.132 24.142 24.107 24.122 24.117 24.077 24.052 24.027 23.95 23.912 23.862 23.795 23.755 23.687 23.7 23.65 23.615 23.557 23.517 23.49 23.425 23.397 23.327 23.29 23.227 23.19 23.125 23.067 23.09 22.97 22.915 22.927 22.945 23.555 23.022 22.297 22.415 23.522 23.472 22.067 21.987 21.905 21.842 21.785 21.697 21.607 21.52 21.41 21.317 21.242 21.132 21.035 20.887 20.777 20.66 20.53 20.405 20.217 20.005 19.85 19.655 19.53 19.36 19.217 19.117 19.102 19.822 20.627 20.677 20.367 19.872 19.327 19.062 18.957 18.855 18.795 18.707 18.627 18.532 18.482 18.397 18.32 18.255 18.182 18.13 18.047 17.997 17.965 17.917 17.895 17.865 17.817 17.812 17.822 17.827 17.99 18.26 19.27 19.712 20.062 21.272 19.995 19.072 17.942 22.065 21.127 19.445 19.5 17.617 18.242 18.16 17.505 17.65 17.28 17.375 17.867 18.247 18.382 18.455 18.542 18.61 18.66 18.742 18.827 18.915 19.01 19.115 19.2 19.38 19.537 19.717 19.907 20.095 20.297 20.472 20.66 20.837 21.017 21.177 21.327 21.45 21.56 21.672 21.755 21.815 21.89 21.97 22.042 22.082 22.175 22.252 22.317 22.412 22.477 22.522 22.587 22.63 22.71 22.737 22.867 22.98 23.02 23.092 23.172 23.26 23.335 23.41 23.467 23.51 23.555 23.625 23.702 23.78 23.817 23.877 23.952 24.04 24.097 24.17 24.217 24.285 24.387 24.447 24.5 24.55 24.61 24.685 24.752 24.787 24.832 24.882 24.94 24.97 25.04 25.095 25.14 25.205 25.255 25.322 25.37 25.417 25.482 25.53 25.597 25.645 25.71 25.762 25.832 25.892 25.945 26.02 26.055 26.12 26.172 26.237 26.302
24.132 23.985 23.93 23.827 24.447 24.977 24.742 24.75 24.412 24.09 23.962 25.09 25.052 24.637 24.31 24.02 23.712 22.672 22.622 22.935 23.272 23.375 23.44 23.51 23.66 23.815 23.94 24.085 24.217 24.342 24.447 24.532 24.642 24.752 24.847 24.92 25.015 25.04 25.07 25.082 25.135 25.17 25.21 25.262 25.282 25.272 25.295 25.325 25.35 25.345 25.295 25.302 25.26 25.235 25.205 25.152 25.087 25.07 25.022 24.98 24.907 24.807 24.77 24.695 24.622 24.537 24.435 24.392 24.307 24.225 24.12 24.04 23.945 23.842 23.742 23.615 23.502 23.352 23.27 23.157 23.017 22.865 22.715 22.572 22.442 22.28 22.115 21.917 21.797 21.645 21.51 21.332 21.52 21.797 21.007 20.915 20.775 20.655 20.57 20.465 20.327 20.212 20.082 19.952 19.82 19.642 19.51 19.432 19.375 19.267 19.197 19.075 18.985 18.86 18.73 18.7 18.74 18.507 18.515 18.57 18.495 18.122 18.297 17.982 17.707 17.885 17.525 17.567 17.37 17.172 16.925 16.667 16.457 16.265 16.047 15.9 17.137 19.717 17.827 16.28 16.117 16.365 16.697 16.907 17.202 17.487 17.767 18.04 18.305 18.547 18.817 19.045 19.2 19.312 19.43 19.535 19.635 19.757 19.87 19.962 20.06 20.145 20.247 20.34 20.445 20.51 20.6 20.675 20.755 20.872 20.957 21.03 21.105 21.235 21.322 21.41 21.482 21.56 21.612 21.677 21.792 21.85 21.907 21.962 22.045 22.102 22.11 22.152 22.26 22.332 22.812 23.685 24.572 23.21 23.39 23.927 24.092 23.5 23.22 23.242 23.282 23.27 23.3 23.317 23.345 23.355 23.367 23.362 23.377 25.185 28.315 28.432 28.56 28.66 28.652 28.56 27.662 23.56 23.587 24.777 26.407 24.172 24.082 24.112 24.142 24.205 24.147 24.082 24.06 24.05 24.082 24.045 24.042 24 23.98 23.905 23.847 23.805 23.722 23.652 23.595 23.582 23.56 23.547 23.49 23.45 23.397 23.342 23.357 23.26 23.247 23.172 23.132 23.055 23.037 23.03 22.932 22.895 22.93 22.872 23.647 22.627 22.325 22.835 23.477 23.075 21.967 21.917 21.825 21.775 21.707 21.59 21.512 21.407 21.327 21.227 21.16 21.06 20.955 20.822 20.692 20.58 20.455 20.287 20.147 19.937 19.755 19.59 19.455 19.28 19.135 19.002 18.887 18.79 19.027 20.017 20.597 20.415 20.292 19.717 19.702 19.485 19.315 19.097 18.822 18.765 18.355 18.342 18.212 18.11 18.047 17.995 17.927 17.89 17.882 17.847 17.917 17.842 17.9 17.965 20.205 19.117 20.405 20.062 19.827 20.587 20.555 20.395 19.315 17.635 17.617 16.842 18.192 18.355 17.065 17.167 17.217 17.315 17.265 17.322 17.507 17.722 18.04 18.25 18.42 18.525 18.637 18.747 18.837 18.917 19.045 19.12 19.185 19.28 19.422 19.6 19.732 19.915 20.095 20.287 20.465 20.612 20.825 20.987 21.14 21.29 21.397 21.547 21.622 21.717 21.787 21.885 21.94 22.01 22.075 22.137 22.232 22.285 22.36 22.437 22.527 22.6 22.63 22.692 22.76 22.837 22.932 23.042 23.085 23.115 23.215 23.322 23.4 23.455 23.532 23.585 23.622 23.675 23.75 23.827 23.887 23.95 24.012 24.072 24.16 24.222 24.295 24.37 24.447 24.497 24.552 24.587 24.665 24.727 24.79 24.842 24.87 24.955 24.977 25.037 25.1 25.14 25.205 25.245 25.292 25.38 25.422 25.485 25.54 25.565 25.645 25.7 25.752 25.827 25.887 25.94 25.975 26.04 26.1 26.18 26.232 26.292 26.367
24.03 23.897 23.845 23.767 23.63 23.51 23.375 23.29 23.12 22.875 22.552 22.475 23.927 24.575 23.63 22.602 22.327 22.302 22.512 22.757 23.065 23.205 23.255 23.36 23.497 23.627 23.775 23.9 24.047 24.16 24.252 24.36 24.45 24.595 24.69 24.762 24.837 24.957 24.952 25 25.007 25.025 25.085 25.125 25.157 25.19 25.185 25.222 25.22 25.195 25.2 25.137 25.13 25.105 25.082 25.02 24.96 24.932 24.905 24.842 24.765 24.69 24.622 24.577 24.495 24.41 24.305 24.255 24.182 24.122 24.007 23.922 23.832 23.722 23.62 23.505 23.375 23.242 23.132 23.057 22.885 22.745 22.61 22.505 22.387 22.235 22.065 21.845 21.717 21.56 21.427 21.255 21.117 21.585 20.997 20.85 20.695 20.577 20.475 20.405 20.275 20.127 20.012 19.862 19.725 19.552 19.4 19.29 19.215 19.132 19.022 18.962 18.875 18.74 18.582 18.505 18.392 18.252 18.122 18.01 17.902 17.815 17.74 17.702 17.63 17.597 17.46 17.315 17.112 16.892 16.655 16.4 16.175 15.98 15.817 15.74 16.997 18.652 15.842 15.992 16.092 16.38 16.682 16.947 17.245 17.575 17.835 18.092 18.377 18.627 18.895 19.062 19.18 19.302 19.427 19.512 19.657 19.745 19.812 19.912 20.005 20.115 20.187 20.292 20.392 20.47 20.545 20.655 20.73 20.807 20.92 20.997 21.08 21.205 21.28 21.347 21.435 21.49 21.6 21.677 21.74 21.797 21.872 21.94 21.995 22.027 22.087 22.127 22.19 22.305 22.347 22.407 23.137 22.875 22.995 22.82 23.775 24.43 24.182 23.41 23.187 23.21 23.247 23.28 23.327 23.325 23.352 23.337 23.297 24.072 26.32 25.535 25.025 26.045 25.037 25.247 24.575 23.547 23.54 24.13 24.95 23.94 24.047 24.077 24.105 24.142 24.115 24.047 24.025 24.032 24.025 24.025 23.972 23.92 23.877 23.842 23.772 23.735 23.692 23.605 23.565 23.55 23.49 23.455 23.4 23.35 23.312 23.297 23.255 23.205 23.167 23.107 23.06 23.03 23.037 22.962 22.892 22.855 22.895 22.96 23.532 22.177 22.247 23.277 23.522 22.465 21.882 21.79 21.755 21.672 21.59 21.487 21.397 21.315 21.24 21.157 21.062 20.985 20.892 20.737 20.565 20.48 20.36 20.19 20.02 19.817 19.655 19.505 19.37 19.22 19.07 18.925 18.825 18.68 18.577 18.495 18.805 19.657 20.385 20.42 20.172 20.375 20.302 19.947 19.815 20.31 20.342 20.307 19.885 19.255 19.427 19.155 18.867 18.375 18.885 18.497 19.635 19.237 18.782 20.187 21.45 20.827 18.595 20.102 21.92 20.49 18.695 18.39 18.477 17.39 17.65 17.387 17.242 17.78 17.755 17.622 17.412 17.382 17.535 17.647 17.77 18.032 18.247 18.402 18.555 18.722 18.835 18.927 19.037 19.112 19.195 19.275 19.35 19.5 19.627 19.79 19.952 20.085 20.28 20.437 20.6 20.782 20.945 21.085 21.23 21.35 21.465 21.592 21.655 21.76 21.85 21.93 21.99 22.045 22.152 22.187 22.28 22.332 22.402 22.46 22.557 22.605 22.68 22.745 22.807 22.88 22.975 23.087 23.142 23.19 23.265 23.387 23.45 23.517 23.587 23.655 23.675 23.757 23.797 23.885 23.932 24.007 24.057 24.122 24.197 24.285 24.335 24.407 24.482 24.54 24.612 24.642 24.702 24.765 24.83 24.88 24.94 24.985 25.042 25.107 25.135 25.202 25.255 25.315 25.382 25.425 25.46 25.505 25.562 25.622 25.672 25.737 25.81 25.86 25.927 25.967 26.027 26.105 26.172 26.255 26.287 26.347 26.415
23.925 23.81 23.702 23.68 23.597 23.49 23.327 23.155 22.922 22.63 22.425 22.31 23.277 24.432 23.42 22.4 22.312 22.23 22.382 22.587 22.887 23.06 23.112 23.162 23.282 23.437 23.582 23.71 23.845 24.095 24.08 24.15 24.275 24.392 24.47 24.595 24.69 24.772 24.83 24.877 24.912 24.92 24.97 25.005 25.04 25.06 25.07 25.085 25.095 25.097 25.055 25.03 25.022 24.962 24.962 24.905 24.842 24.802 24.752 24.692 24.627 24.562 24.497 24.447 24.357 24.285 24.18 24.112 24.032 23.995 23.905 23.785 23.667 23.6 23.45 23.367 23.22 23.105 22.987 22.865 22.75 22.635 22.522 22.405 22.262 22.152 22.015 21.815 21.667 21.48 21.31 21.167 21.07 21.615 21.012 20.767 20.602 20.482 20.357 20.26 20.17 20.027 19.897 19.765 19.59 19.442 19.272 19.17 19.062 18.967 18.885 18.8 18.7 18.602 18.487 18.377 18.265 18.095 17.997 17.862 17.762 17.67 17.615 17.555 17.467 17.367 17.212 16.995 16.805 16.535 16.335 16.137 15.917 15.737 15.607 15.862 17.605 17.275 15.765 15.935 16.16 16.442 16.695 17.005 17.332 17.615 17.9 18.16 18.432 18.672 18.935 19.065 19.17 19.287 19.39 19.502 19.567 19.675 19.762 19.845 19.937 20.047 20.167 20.235 20.345 20.432 20.495 20.592 20.68 20.767 20.855 20.922 21.015 21.125 21.21 21.33 21.385 21.445 21.55 21.627 21.675 21.727 21.817 21.892 22.042 22.197 22.177 22.097 22.145 22.257 22.335 22.395 22.425 22.527 22.622 22.692 22.705 23.127 24.075 24.565 24.282 23.305 23.222 23.202 23.222 23.25 23.335 23.342 23.285 23.872 24.615 24.315 24.017 24.152 24.265 24.192 24.012 23.507 23.525 23.832 24.377 23.917 24.03 24.055 24.065 24.132 24.082 24.062 24.015 24.012 23.967 23.957 23.92 23.872 23.817 23.782 23.705 23.67 23.587 23.562 23.532 23.487 23.442 23.405 23.352 23.307 23.26 23.197 23.17 23.13 23.102 23.067 23.025 23.01 22.985 22.932 22.845 22.845 22.84 23.165 23.222 22.157 22.227 23.565 23.567 22.02 21.782 21.747 21.65 21.585 21.495 21.41 21.32 21.22 21.15 21.062 21 20.91 20.762 20.632 20.512 20.367 20.227 20.065 19.865 19.7 19.55 19.402 19.272 19.132 19.012 18.865 18.742 18.617 18.492 18.362 18.295 18.242 18.627 19.082 19.02 19.082 19.08 18.595 19.167 19.83 19.72 19.88 19.55 19.292 18.582 19.27 19.155 19.177 19.237 19.04 19.317 18.775 18.265 19.427 18.592 18.14 18.22 18.842 17.945 17.885 17.612 17.807 17.857 17.882 17.897 17.895 17.642 17.75 17.72 17.675 17.722 17.81 17.912 18.027 18.175 18.307 18.467 18.635 18.787 18.932 19.057 19.16 19.22 19.32 19.367 19.48 19.615 19.685 19.8 19.955 20.097 20.255 20.385 20.575 20.69 20.855 21.025 21.177 21.295 21.455 21.562 21.655 21.745 21.822 21.877 21.965 22.042 22.105 22.17 22.247 22.325 22.392 22.442 22.527 22.605 22.677 22.717 22.782 22.84 22.93 23.017 23.11 23.187 23.227 23.325 23.412 23.505 23.59 23.66 23.702 23.752 23.807 23.85 23.922 23.975 24.022 24.112 24.167 24.247 24.335 24.352 24.427 24.51 24.595 24.645 24.687 24.732 24.802 24.857 24.907 24.982 25.022 25.057 25.105 25.187 25.237 25.3 25.347 25.41 25.45 25.522 25.547 25.597 25.64 25.707 25.775 25.832 25.895 25.967 26.045 26.085 26.16 26.24 26.285 26.362 26.412 26.487
