ncols 434
nrows 31
xllcorner    457120
yllcorner    86904
cellsize     2
NODATA_value -9999
80.347 80.307 80.319 80.462 80.697 81.024 81.337 81.599 81.819 82.582 82.544 82.782 82.969 83.187 83.967 83.637 83.779 83.939 84.097 84.322 85.777 84.897 84.922 84.889 85.054 85.152 85.139 85.217 85.337 85.387 85.364 85.367 85.294 85.284 85.167 84.999 85.179 88.349 88.032 84.287 84.042 83.779 83.527 83.337 83.142 82.952 82.819 82.667 82.599 82.254 82.054 81.859 81.899 81.527 81.427 81.272 81.052 80.942 80.794 80.662 80.577 80.397 80.299 80.324 80.122 80.009 79.994 79.897 79.757 79.702 79.659 79.569 79.484 79.427 79.462 79.382 79.337 79.469 79.167 78.797 78.597 78.282 77.924 77.609 77.554 76.652 76.109 75.579 75.007 74.492 74.057 73.702 73.327 72.997 72.602 72.127 71.757 71.192 70.862 70.667 70.389 70.554 70.094 70.114 70.214 70.394 70.617 70.382 70.174 70.054 70.072 70.152 70.134 70.127 70.169 70.169 70.157 70.104 70.059 70.004 69.932 69.842 69.764 69.679 69.567 69.469 69.359 69.229 69.129 69.029 68.909 68.812 68.694 68.564 68.429 68.317 68.159 68.034 67.882 67.714 67.602 67.459 67.344 67.262 67.144 67.007 66.874 66.737 66.604 66.449 66.307 66.172 66.009 65.852 65.679 65.499 65.299 65.077 64.842 64.617 64.414 64.162 63.937 63.664 63.399 63.147 62.914 62.627 62.347 62.082 61.847 61.569 61.339 61.094 60.864 60.637 60.384 60.119 59.884 59.637 59.414 59.229 59.067 58.859 58.682 58.482 58.282 58.102 58.039 57.904 57.714 57.682 57.607 57.527 57.457 57.392 57.329 57.289 57.252 57.189 57.177 57.164 57.144 57.154 57.112 57.132 57.117 57.134 57.172 57.237 57.299 57.414 57.552 57.649 57.812 58.004 58.169 58.372 58.557 58.674 58.807 58.942 59.047 59.147 59.274 59.387 59.507 59.652 59.794 59.959 60.152 60.337 60.492 60.627 60.784 60.962 61.189 61.392 61.587 61.834 62.054 62.299 62.532 62.792 63.044 63.282 63.522 63.747 63.954 64.159 64.327 64.537 64.777 64.964 65.139 65.294 65.452 65.579 65.764 65.867 65.987 66.094 66.187 66.289 66.352 66.419 66.452 66.522 66.542 66.564 66.594 66.609 66.644 66.692 66.752 67.607 67.007 67.149 67.417 66.832 66.837 66.824 66.769 66.634 66.447 66.312 66.124 65.884 65.674 65.514 65.564 65.604 65.634 65.692 65.747 65.744 65.784 65.819 65.869 66.029 66.162 66.199 66.214 66.242 66.297 66.322 66.267 66.237 66.229 66.202 66.122 66.029 65.999 66.029 66.149 66.317 66.552 66.744 66.879 66.969 67.014 67.104 67.159 67.182 67.217 67.219 67.249 67.284 67.337 67.362 67.369 67.392 67.374 67.352 67.339 67.332 67.297 67.262 67.139 67.032 67.024 66.959 66.914 66.872 66.839 66.809 66.797 66.722 66.644 66.609 66.512 66.422 66.409 67.834 68.157 67.159 65.842 65.782 65.702 65.734 65.652 65.579 65.342 65.164 65.039 64.909 64.932 64.857 64.972 64.984 64.764 64.734 64.804 64.879 64.907 64.899 64.852 64.754 64.624 64.519 64.457 64.357 64.254 64.149 64.044 63.949 63.889 63.804 63.674 63.584 63.524 63.449 63.367 63.259 63.184 63.107 63.027 62.992 62.947 62.862 62.757 62.687 62.584 62.484 62.389 62.259 62.179 62.054 61.952 61.837 61.717 61.554 61.419 61.237 61.114 60.929 60.809 60.729 60.672 60.637 60.697 62.337 60.084 59.894 59.702 60.007 59.997 59.954 59.979 59.959 59.814 59.729 60.269 62.199
80.479 80.677 80.357 80.604 80.722 81.024 81.624 81.569 81.867 82.312 82.442 82.662 82.974 83.189 83.409 83.529 83.687 83.897 84.079 84.389 84.484 84.474 84.759 84.929 85.064 84.984 85.047 85.072 85.222 85.152 85.024 84.907 84.774 84.772 84.649 84.347 84.424 84.807 84.587 83.569 83.367 83.119 82.907 82.709 82.514 82.309 82.157 82.104 81.877 81.799 81.547 81.289 81.099 80.917 80.792 80.629 80.542 80.359 80.217 80.064 80.044 80.032 79.827 79.774 79.704 79.612 79.584 79.512 79.479 79.294 79.234 79.219 79.144 79.129 79.119 79.014 78.912 78.677 78.314 78.552 77.537 77.232 77.024 76.604 76.279 75.672 75.194 74.782 74.197 73.769 73.439 73.059 72.912 72.462 72.034 71.739 71.349 71.119 70.832 70.839 70.374 71.072 70.252 70.347 70.557 70.447 70.107 69.944 69.972 69.964 69.992 69.947 69.959 69.994 69.982 69.932 69.922 69.844 69.779 69.689 69.584 69.522 69.444 69.369 69.269 69.167 69.037 68.939 68.824 68.754 68.624 68.529 68.387 68.269 68.142 68.007 67.882 67.744 67.587 67.462 67.347 67.249 67.149 67.047 66.939 66.814 66.692 66.569 66.439 66.322 66.167 66.029 65.829 65.669 65.507 65.302 65.092 64.904 64.689 64.472 64.242 63.999 63.757 63.494 63.247 62.977 62.722 62.447 62.189 61.907 61.649 61.392 61.164 60.929 60.702 60.462 60.219 59.962 59.734 59.482 59.264 59.049 58.854 58.682 58.499 58.302 58.084 57.919 57.774 57.719 57.497 57.457 57.387 57.329 57.257 57.179 57.114 57.057 56.994 56.934 56.944 56.917 56.919 56.879 56.887 56.862 56.864 56.884 56.919 56.964 57.047 57.169 57.284 57.469 57.619 57.777 57.972 58.182 58.327 58.492 58.599 58.752 58.849 58.957 59.089 59.207 59.349 59.497 59.637 59.792 59.999 60.169 60.312 60.507 60.644 60.844 61.057 61.244 61.452 61.674 61.917 62.149 62.412 62.684 62.917 63.142 63.352 63.567 63.804 64.002 64.194 64.377 64.564 64.742 64.929 65.084 65.249 65.387 65.514 65.639 65.747 65.854 65.952 66.017 66.082 66.152 66.184 66.232 66.244 66.284 66.299 66.307 66.352 66.362 66.472 67.587 66.352 68.034 66.877 66.424 66.417 66.397 66.344 66.152 66.012 65.827 65.539 65.317 65.147 65.122 65.097 65.082 65.104 65.127 65.147 65.169 65.159 65.134 65.254 65.477 65.679 65.794 65.847 65.852 65.867 65.839 65.792 65.712 65.647 65.569 65.459 65.374 65.412 65.477 65.607 65.802 65.999 66.199 66.332 66.464 66.529 66.592 66.639 66.697 66.754 66.752 66.777 66.864 66.914 66.992 66.952 66.937 66.969 66.999 66.949 66.957 66.907 66.884 66.777 66.722 66.717 66.639 66.604 66.559 66.522 66.477 66.394 66.362 66.277 66.239 66.172 66.107 66.047 67.649 67.809 66.732 65.607 65.529 65.564 65.519 65.342 65.339 65.149 64.947 64.854 64.822 64.727 64.792 64.814 64.844 64.649 64.617 64.652 64.754 64.814 64.797 64.687 64.587 64.477 64.392 64.367 64.227 64.082 63.969 63.837 63.714 63.644 63.549 63.469 63.377 63.319 63.237 63.167 63.064 62.949 62.862 62.832 62.767 62.719 62.659 62.537 62.439 62.377 62.314 62.172 62.052 61.959 61.827 61.722 61.647 61.509 61.319 61.187 61.049 60.872 60.719 60.612 60.534 60.477 60.439 60.354 62.692 60.359 59.677 59.562 59.952 59.922 59.877 59.889 59.864 59.762 59.604 59.877 60.359
80.322 80.599 80.317 80.484 80.677 80.917 81.122 81.392 81.647 81.984 82.324 82.599 82.879 83.114 83.309 83.447 83.647 84.017 84.274 84.554 84.742 84.634 84.719 85.602 85.009 84.999 84.744 84.759 85.149 84.817 84.782 84.582 84.309 84.142 83.967 83.737 83.592 83.402 83.214 82.917 82.714 82.592 82.379 82.189 82.107 82.422 81.672 81.494 81.394 81.259 80.904 80.822 80.554 80.467 80.457 80.349 80.074 79.839 79.727 79.614 79.684 79.507 79.424 79.487 79.339 79.244 79.109 79.084 79.024 79.062 78.939 78.882 78.857 78.809 78.669 78.427 78.169 77.847 77.519 76.987 76.559 76.332 75.979 75.662 75.279 74.847 74.412 73.972 73.557 73.204 72.812 72.552 72.274 72.077 71.829 71.549 71.324 71.169 70.982 70.762 71.007 70.987 70.702 70.614 70.304 69.872 69.794 69.804 69.827 69.834 69.794 69.817 69.807 69.794 69.747 69.694 69.609 69.569 69.462 69.359 69.294 69.229 69.142 69.034 68.957 68.819 68.729 68.644 68.529 68.417 68.309 68.212 68.082 67.969 67.839 67.722 67.584 67.419 67.319 67.214 67.117 67.024 66.944 66.847 66.747 66.642 66.519 66.417 66.292 66.164 65.997 65.804 65.667 65.489 65.324 65.154 64.937 64.752 64.534 64.294 64.074 63.829 63.587 63.327 63.054 62.807 62.547 62.279 62.007 61.727 61.497 61.219 60.977 60.769 60.519 60.284 60.082 59.862 59.609 59.354 59.114 58.897 58.674 58.532 58.307 58.129 57.914 57.777 57.564 57.522 57.332 57.232 57.197 57.124 57.089 56.992 56.949 56.892 56.824 56.764 56.717 56.692 56.689 56.634 56.612 56.609 56.604 56.622 56.667 56.739 56.812 56.947 57.089 57.237 57.384 57.574 57.779 57.989 58.169 58.302 58.439 58.559 58.669 58.809 58.909 59.022 59.174 59.294 59.477 59.664 59.817 59.997 60.187 60.364 60.532 60.739 60.907 61.119 61.337 61.577 61.824 62.052 62.294 62.537 62.777 62.994 63.207 63.422 63.654 63.842 64.019 64.239 64.399 64.552 64.724 64.877 65.022 65.167 65.289 65.412 65.519 65.587 65.669 65.757 65.812 65.854 65.919 65.959 65.972 66.009 65.997 66.012 66.017 66.059 66.382 67.762 66.032 67.189 66.144 66.074 66.027 66.039 65.899 65.684 65.487 65.297 65.077 65.007 64.909 64.934 64.889 64.862 64.809 64.692 64.672 64.614 64.644 64.699 64.802 64.954 65.109 65.304 65.442 65.492 65.444 65.394 65.299 65.189 65.097 64.972 64.954 64.984 65.064 65.142 65.224 65.367 65.517 65.634 65.729 65.899 65.989 66.002 66.104 66.189 66.289 66.327 66.362 66.419 66.482 66.529 66.504 66.529 66.559 66.552 66.499 66.514 66.519 66.489 66.404 66.397 66.419 66.354 66.289 66.229 66.177 66.144 66.079 66.007 65.957 65.909 65.847 65.694 65.637 67.004 67.514 66.294 65.334 65.272 65.299 65.249 65.064 65.097 64.927 64.709 64.612 64.639 64.584 64.632 64.642 64.629 64.469 64.497 64.517 64.582 64.657 64.572 64.497 64.417 64.304 64.219 64.157 64.037 63.889 63.759 63.639 63.507 63.402 63.297 63.214 63.157 63.074 63.017 62.962 62.834 62.722 62.652 62.609 62.547 62.532 62.442 62.347 62.252 62.187 62.104 61.974 61.847 61.742 61.622 61.504 61.424 61.239 61.092 60.967 60.834 60.694 60.532 60.402 60.349 60.307 60.257 60.154 60.074 59.847 59.424 59.502 59.804 59.767 59.699 59.707 59.729 59.657 59.547 59.319 59.027
79.812 79.944 80.144 80.352 82.284 83.619 81.017 81.312 81.672 82.022 82.362 82.874 83.124 83.212 83.494 83.619 83.977 84.267 84.522 84.739 84.544 84.302 84.304 84.307 84.394 84.589 84.494 84.349 84.867 84.512 84.584 84.734 84.117 83.704 83.439 83.169 83.014 82.857 82.592 82.379 82.347 82.059 81.882 81.727 81.582 81.179 81.042 80.849 80.672 80.477 80.374 80.194 79.997 79.899 79.714 79.684 79.682 79.457 79.379 79.229 79.277 79.137 79.214 79.127 78.964 78.867 78.847 78.787 78.684 78.692 78.524 78.352 78.214 78.097 77.779 77.534 77.337 77.134 76.464 76.052 75.674 75.382 75.077 74.737 74.352 74.017 73.637 73.427 72.902 72.704 72.514 72.287 72.534 71.809 71.684 71.517 71.262 71.187 71.172 70.909 71.869 71.307 70.774 69.999 69.739 69.727 69.697 69.687 69.662 69.627 69.644 69.619 69.579 69.534 69.487 69.402 69.324 69.244 69.142 69.097 69.014 68.924 68.827 68.722 68.624 68.537 68.417 68.314 68.192 68.122 68.009 67.894 67.769 67.662 67.547 67.434 67.297 67.177 67.099 66.984 66.904 66.812 66.737 66.664 66.567 66.457 66.339 66.252 66.104 65.952 65.787 65.614 65.449 65.299 65.157 64.954 64.744 64.539 64.322 64.112 63.879 63.639 63.387 63.137 62.884 62.624 62.374 62.074 61.834 61.554 61.334 61.084 60.837 60.602 60.359 60.167 59.969 59.714 59.457 59.229 58.974 58.734 58.524 58.334 58.144 57.959 57.807 57.617 57.439 57.272 57.202 56.984 56.959 56.922 56.827 56.772 56.737 56.694 56.627 56.554 56.487 56.447 56.397 56.384 56.349 56.324 56.354 56.362 56.402 56.462 56.554 56.704 56.839 56.972 57.162 57.337 57.564 57.764 57.969 58.092 58.219 58.332 58.477 58.599 58.712 58.817 58.994 59.157 59.359 59.544 59.697 59.892 60.079 60.249 60.377 60.569 60.747 60.992 61.207 61.474 61.669 61.909 62.167 62.392 62.657 62.884 63.092 63.304 63.479 63.659 63.869 64.037 64.209 64.382 64.542 64.687 64.842 64.977 65.089 65.182 65.294 65.367 65.437 65.504 65.582 65.612 65.632 65.639 65.697 65.697 65.724 65.719 65.739 65.772 66.479 66.882 65.582 66.957 65.787 65.704 65.712 65.712 65.517 65.337 65.154 64.972 64.904 64.887 64.829 64.807 64.777 64.742 64.697 64.577 64.489 64.397 64.412 64.499 64.544 64.584 64.579 64.729 64.912 65.012 65.034 64.989 64.849 64.712 64.649 64.674 64.699 64.789 64.859 64.934 64.977 65.067 65.184 65.254 65.377 65.514 65.602 65.632 65.627 65.682 65.774 65.894 65.962 65.992 66.007 66.002 66.034 66.049 66.042 65.987 65.972 65.997 66.007 66.002 65.972 65.992 65.982 65.942 65.934 65.889 65.824 65.744 65.684 65.624 65.594 65.539 65.472 65.372 65.277 66.234 67.169 65.829 65.054 64.964 64.997 64.937 64.929 64.757 64.687 64.509 64.532 64.472 64.399 64.389 64.447 64.359 64.309 64.342 64.357 64.409 64.397 64.314 64.232 64.174 64.112 64.012 63.922 63.797 63.662 63.544 63.384 63.287 63.149 63.049 62.969 62.884 62.832 62.769 62.692 62.609 62.529 62.449 62.392 62.332 62.292 62.227 62.139 62.074 61.997 61.909 61.754 61.667 61.559 61.447 61.334 61.259 61.094 60.902 60.789 60.624 60.502 60.357 60.232 60.157 60.132 60.074 59.874 59.582 59.634 59.224 59.337 59.579 59.572 59.572 59.567 59.552 59.504 59.387 59.174 58.942
79.602 79.817 80.064 80.312 84.139 85.332 81.272 81.962 82.242 82.532 82.959 83.872 83.324 83.399 83.494 83.624 83.902 84.144 84.454 84.557 84.287 84.084 83.917 83.982 84.197 84.499 84.152 84.049 83.984 84.139 84.049 84.567 83.897 83.229 82.887 82.689 82.487 82.342 82.149 81.944 81.609 81.504 81.307 81.112 80.919 80.684 80.482 80.334 80.147 79.972 79.754 79.647 79.532 79.389 79.297 79.564 79.517 79.052 78.967 78.942 78.969 78.917 78.907 78.707 78.567 78.624 78.472 78.354 78.259 78.074 77.802 77.579 77.444 77.127 76.812 76.517 76.232 75.894 75.509 75.279 74.894 74.569 74.282 73.944 73.602 73.247 72.962 72.702 72.467 72.284 71.937 71.794 71.684 71.602 71.437 71.339 71.154 71.187 71.472 70.997 70.864 71.257 71.489 69.592 69.589 69.584 69.557 69.527 69.484 69.474 69.442 69.377 69.322 69.254 69.184 69.109 69.039 68.942 68.879 68.797 68.707 68.637 68.517 68.419 68.304 68.202 68.077 67.982 67.869 67.789 67.669 67.582 67.462 67.349 67.272 67.147 67.042 66.949 66.827 66.732 66.669 66.602 66.529 66.467 66.377 66.264 66.154 66.014 65.872 65.704 65.572 65.417 65.247 65.134 64.919 64.727 64.559 64.357 64.152 63.914 63.682 63.439 63.194 62.939 62.709 62.457 62.184 61.917 61.672 61.429 61.174 60.929 60.714 60.477 60.257 60.064 59.862 59.579 59.352 59.097 58.844 58.604 58.379 58.177 57.969 57.769 57.632 57.442 57.259 57.094 57.017 56.857 56.714 56.724 56.639 56.589 56.519 56.467 56.399 56.322 56.252 56.204 56.154 56.112 56.077 56.057 56.072 56.082 56.142 56.214 56.314 56.454 56.569 56.724 56.917 57.127 57.319 57.519 57.697 57.864 58.022 58.117 58.259 58.382 58.539 58.689 58.832 59.012 59.204 59.374 59.549 59.744 59.907 60.082 60.272 60.437 60.629 60.837 61.074 61.314 61.557 61.797 62.042 62.289 62.542 62.719 62.907 63.137 63.329 63.487 63.694 63.832 64.007 64.192 64.354 64.489 64.644 64.782 64.874 64.967 65.057 65.129 65.182 65.277 65.312 65.342 65.394 65.392 65.392 65.429 65.442 65.442 65.437 65.472 66.147 65.977 65.999 66.409 65.414 65.342 65.369 65.382 65.262 65.117 65.002 64.919 64.852 64.774 64.762 64.744 64.682 64.662 64.597 64.499 64.424 64.367 64.344 64.359 64.362 64.347 64.199 64.159 64.319 64.447 64.504 64.522 64.417 64.317 64.387 64.509 64.619 64.639 64.707 64.757 64.739 64.732 64.769 64.822 64.942 65.067 65.177 65.267 65.284 65.359 65.337 65.327 65.357 65.417 65.459 65.484 65.547 65.579 65.557 65.567 65.569 65.574 65.559 65.552 65.529 65.537 65.547 65.509 65.502 65.444 65.402 65.304 65.287 65.214 65.104 65.049 65.039 65.062 65.007 65.562 65.969 65.159 64.784 64.702 64.677 64.642 64.557 64.579 64.494 64.329 64.267 64.262 64.184 64.239 64.269 64.154 64.114 64.182 64.189 64.202 64.124 64.054 63.992 63.944 63.839 63.762 63.669 63.544 63.422 63.294 63.127 62.994 62.929 62.842 62.759 62.679 62.612 62.547 62.507 62.407 62.322 62.227 62.182 62.149 62.082 62.049 61.949 61.877 61.807 61.719 61.554 61.459 61.359 61.249 61.137 61.032 60.857 60.719 60.587 60.422 60.337 60.202 60.067 60.004 59.982 59.877 59.644 59.414 59.297 58.982 59.117 59.354 59.387 59.404 59.434 59.397 59.337 59.214 59.009 58.812
79.514 79.747 80.089 80.157 83.139 82.439 82.454 81.829 82.009 81.997 82.357 82.609 82.707 83.062 83.127 83.329 83.514 83.872 83.787 83.622 83.674 83.482 83.669 83.667 83.769 83.792 83.677 83.737 83.682 83.699 83.569 83.562 83.294 82.792 82.497 82.264 82.084 81.809 81.634 81.382 81.187 80.994 80.792 80.669 80.374 80.179 79.944 79.797 79.699 79.464 79.384 79.494 79.232 79.049 78.952 78.887 78.819 78.737 78.772 78.717 78.709 78.717 78.437 78.332 78.187 78.034 77.797 77.634 77.459 77.177 76.807 76.567 76.367 76.059 75.779 75.709 75.272 75.179 74.589 74.329 74.064 73.807 73.532 73.237 72.979 72.679 72.392 72.134 71.997 71.892 71.594 71.584 71.442 71.207 71.209 71.579 71.204 71.157 71.034 70.749 70.047 69.742 69.969 69.447 69.424 69.399 69.394 69.377 69.304 69.234 69.199 69.097 69.017 68.949 68.867 68.782 68.702 68.647 68.559 68.504 68.402 68.307 68.212 68.097 67.967 67.837 67.702 67.612 67.504 67.409 67.347 67.259 67.149 67.042 66.969 66.872 66.764 66.677 66.592 66.489 66.447 66.387 66.307 66.234 66.139 65.997 65.897 65.774 65.657 65.504 65.369 65.214 65.047 64.904 64.727 64.507 64.324 64.129 63.937 63.712 63.457 63.247 63.019 62.749 62.544 62.284 62.014 61.779 61.539 61.287 61.037 60.797 60.567 60.367 60.124 59.937 59.734 59.474 59.219 58.964 58.734 58.489 58.234 58.022 57.812 57.622 57.452 57.304 57.144 56.967 56.844 56.729 56.539 56.504 56.427 56.374 56.297 56.242 56.167 56.079 56.022 55.947 55.899 55.857 55.807 55.794 55.779 55.812 55.857 55.937 56.052 56.187 56.324 56.502 56.677 56.839 57.089 57.269 57.497 57.652 57.764 57.894 58.074 58.202 58.349 58.494 58.657 58.847 59.062 59.244 59.444 59.619 59.767 59.934 60.132 60.317 60.514 60.719 60.939 61.174 61.414 61.664 61.919 62.162 62.372 62.612 62.817 63.004 63.199 63.377 63.542 63.699 63.877 64.004 64.187 64.317 64.429 64.567 64.637 64.742 64.847 64.869 64.962 65.042 65.067 65.084 65.082 65.114 65.149 65.117 65.157 65.149 65.157 65.319 66.104 64.852 66.857 65.477 64.997 64.997 65.024 65.037 65.014 64.922 64.902 64.872 64.769 64.684 64.644 64.622 64.569 64.532 64.464 64.377 64.337 64.269 64.217 64.162 64.109 64.022 63.929 63.877 63.857 63.937 64.014 64.059 64.097 64.144 64.242 64.379 64.447 64.509 64.549 64.562 64.552 64.457 64.319 64.299 64.399 64.522 64.642 64.727 64.827 64.897 64.934 64.937 64.919 64.992 65.022 65.052 65.129 65.219 65.222 65.232 65.224 65.232 65.217 65.152 65.119 65.157 65.122 65.079 65.014 64.974 64.922 64.882 64.807 64.714 64.647 64.617 64.647 64.697 64.704 65.297 65.367 64.664 64.492 64.412 64.414 64.457 64.257 64.254 64.154 64.064 63.947 63.984 63.924 63.979 64.059 63.917 63.889 63.982 63.959 63.924 63.839 63.787 63.709 63.647 63.562 63.484 63.372 63.269 63.134 63.019 62.864 62.762 62.707 62.612 62.519 62.482 62.424 62.354 62.282 62.219 62.144 62.037 61.992 61.959 61.902 61.834 61.777 61.707 61.632 61.522 61.394 61.274 61.169 61.044 60.952 60.859 60.689 60.527 60.372 60.244 60.122 60.012 59.897 59.854 59.792 59.684 59.474 59.169 59.049 58.759 58.947 59.114 59.202 59.279 59.292 59.264 59.192 59.067 58.869 58.619
79.264 79.492 79.662 79.762 80.674 81.244 80.957 81.282 81.547 81.672 81.792 81.969 82.367 82.477 82.619 82.804 82.902 83.039 83.149 82.984 83.004 82.954 83.029 83.014 83.237 83.309 83.499 83.607 83.332 83.144 82.874 82.867 82.809 82.427 82.144 81.832 81.639 81.442 81.257 80.919 80.642 82.074 81.589 82.884 79.847 79.669 79.554 79.494 79.249 79.077 79.099 78.837 78.757 78.804 78.679 78.562 78.487 78.447 78.357 78.479 78.254 78.067 77.782 77.612 77.362 77.102 76.807 76.512 76.242 76.054 75.869 75.569 75.329 75.052 74.804 74.574 74.282 74.484 73.794 73.517 73.362 73.192 72.929 72.649 72.454 72.169 71.929 71.692 71.567 71.447 71.329 71.077 70.957 70.892 70.989 70.964 70.917 71.032 70.997 69.867 69.487 69.422 69.369 69.314 69.254 69.239 69.207 69.167 69.084 69.004 68.904 68.807 68.697 68.612 68.547 68.449 68.372 68.302 68.222 68.139 68.052 67.954 67.872 67.727 67.617 67.432 67.342 67.237 67.164 67.104 67.019 66.952 66.854 66.774 66.684 66.567 66.499 66.422 66.362 66.259 66.197 66.139 66.067 65.972 65.892 65.782 65.664 65.562 65.439 65.289 65.114 64.987 64.817 64.649 64.482 64.289 64.089 63.904 63.699 63.497 63.274 63.044 62.817 62.602 62.359 62.122 61.869 61.622 61.374 61.149 60.909 60.687 60.467 60.252 60.012 59.812 59.574 59.314 59.074 58.829 58.589 58.344 58.077 57.859 57.664 57.499 57.362 57.169 57.007 56.787 56.584 56.509 56.339 56.249 56.212 56.147 56.117 56.017 55.949 55.867 55.827 55.744 55.634 55.572 55.514 55.502 55.467 55.507 55.549 55.659 55.779 55.909 56.064 56.224 56.404 56.629 56.837 57.022 57.247 57.387 57.559 57.709 57.844 57.997 58.167 58.324 58.527 58.699 58.922 59.114 59.274 59.452 59.639 59.814 59.994 60.164 60.382 60.582 60.832 61.062 61.302 61.537 61.799 62.072 62.277 62.497 62.697 62.859 63.059 63.217 63.367 63.527 63.667 63.847 63.982 64.119 64.224 64.349 64.442 64.517 64.607 64.687 64.767 64.787 64.829 64.844 64.842 64.849 64.857 64.889 64.887 64.879 64.882 65.234 66.329 64.792 66.389 64.757 64.632 64.642 64.677 64.674 64.699 64.724 64.724 64.737 64.662 64.584 64.509 64.474 64.384 64.327 64.282 64.189 64.167 64.092 64.052 63.994 63.894 63.782 63.787 63.757 63.647 63.579 63.624 63.687 63.829 63.954 63.992 64.127 64.207 64.269 64.294 64.292 64.274 64.214 64.084 64.009 63.999 64.022 64.154 64.274 64.364 64.434 64.462 64.494 64.529 64.549 64.597 64.679 64.769 64.852 64.884 64.914 64.924 64.929 64.924 64.884 64.832 64.869 64.862 64.809 64.729 64.689 64.652 64.587 64.529 64.442 64.392 64.379 64.339 64.354 64.412 65.072 65.264 64.357 64.217 64.134 64.194 64.164 64.059 63.972 63.907 63.842 63.737 63.782 63.692 63.794 63.752 63.649 63.659 63.724 63.714 63.674 63.592 63.472 63.419 63.362 63.272 63.184 63.092 62.982 62.864 62.782 62.629 62.547 62.479 62.414 62.337 62.289 62.254 62.169 62.062 62.002 61.924 61.874 61.844 61.787 61.714 61.642 61.602 61.539 61.437 61.339 61.219 61.082 60.977 60.897 60.789 60.667 60.514 60.349 60.214 60.064 59.964 59.849 59.739 59.692 59.634 59.787 60.127 59.944 58.822 58.589 58.747 58.904 59.004 59.069 59.104 59.097 59.019 58.889 58.677 59.362
78.904 79.097 79.232 79.382 79.562 79.752 80.322 80.987 80.842 80.997 81.217 81.307 81.599 81.924 82.094 82.129 82.279 82.422 82.594 82.682 82.582 82.579 82.709 82.794 82.877 82.942 82.942 82.797 82.744 82.572 82.542 82.342 82.369 82.042 81.714 81.509 81.204 80.989 81.942 80.532 80.272 84.374 82.662 79.619 79.412 79.449 79.349 78.997 78.947 78.782 78.639 78.569 78.494 78.434 78.337 78.214 78.129 77.984 77.857 77.779 77.484 77.122 76.797 76.482 76.197 75.947 75.672 75.567 75.249 75.017 74.722 74.537 74.364 74.207 74.047 73.822 73.522 73.299 73.134 72.904 72.722 72.584 72.394 72.184 71.954 71.769 71.562 71.417 71.272 71.219 70.932 70.637 70.602 70.659 70.659 70.792 70.237 69.837 69.474 69.379 69.292 69.259 69.187 69.137 69.092 69.029 68.962 68.899 68.812 68.699 68.599 68.484 68.367 68.249 68.177 68.092 68.009 67.964 67.859 67.789 67.669 67.562 67.469 67.342 67.214 67.062 66.972 66.924 66.862 66.807 66.724 66.672 66.597 66.497 66.379 66.292 66.224 66.152 66.079 66.009 65.934 65.872 65.792 65.712 65.614 65.569 65.464 65.327 65.192 65.057 64.904 64.754 64.589 64.412 64.234 64.042 63.879 63.667 63.482 63.269 63.079 62.859 62.637 62.424 62.189 61.942 61.714 61.489 61.252 61.002 60.784 60.584 60.339 60.122 59.914 59.667 59.429 59.194 58.964 58.709 58.467 58.219 57.939 57.709 57.559 57.377 57.207 57.039 56.829 56.614 56.434 56.317 56.164 56.009 55.997 55.904 55.889 55.804 55.729 55.639 55.542 55.459 55.349 55.289 55.242 55.229 55.169 55.174 55.252 55.334 55.479 55.584 55.757 55.949 56.147 56.369 56.567 56.794 56.987 57.144 57.334 57.492 57.669 57.792 57.962 58.144 58.314 58.537 58.729 58.912 59.044 59.269 59.467 59.652 59.819 60.037 60.247 60.479 60.699 60.934 61.184 61.449 61.709 61.932 62.124 62.362 62.569 62.734 62.922 63.084 63.222 63.362 63.504 63.647 63.797 63.934 64.042 64.149 64.234 64.314 64.407 64.474 64.509 64.554 64.579 64.599 64.609 64.622 64.612 64.587 64.599 64.624 64.619 65.537 65.117 64.357 65.539 64.374 64.319 64.322 64.329 64.362 64.419 64.514 64.537 64.527 64.419 64.372 64.277 64.219 64.102 64.032 63.989 63.949 63.897 63.822 63.769 63.737 63.682 63.567 63.534 63.519 63.414 63.354 63.364 63.452 63.579 63.682 63.734 63.809 63.857 63.912 63.954 63.992 64.004 63.964 63.884 63.847 63.787 63.769 63.817 63.917 63.969 63.977 63.982 64.029 64.044 64.154 64.227 64.309 64.417 64.517 64.594 64.612 64.634 64.624 64.584 64.554 64.582 64.549 64.557 64.509 64.404 64.389 64.374 64.307 64.194 64.142 64.097 64.097 64.077 64.107 64.139 65.269 64.719 64.144 63.849 63.777 63.814 63.862 63.857 63.639 63.684 63.637 63.582 63.564 63.477 63.524 63.577 63.452 63.377 63.394 63.377 63.354 63.289 63.189 63.122 63.037 62.964 62.874 62.799 62.684 62.604 62.524 62.404 62.322 62.272 62.224 62.169 62.097 62.034 61.977 61.889 61.852 61.774 61.687 61.642 61.587 61.537 61.459 61.414 61.324 61.244 61.122 61.072 60.914 60.797 60.719 60.622 60.449 60.319 60.177 60.012 59.874 59.789 59.662 59.587 59.519 59.429 60.352 60.274 58.759 58.539 58.379 58.564 58.697 58.787 58.839 58.882 58.879 58.839 58.692 58.447 58.667
78.489 78.637 78.819 79.009 79.162 79.384 79.794 80.192 80.242 80.474 80.692 80.879 81.182 81.384 81.649 81.719 81.897 81.979 82.052 82.217 82.424 82.412 82.442 82.532 82.642 82.562 82.442 82.432 82.409 82.242 82.097 81.984 81.784 81.589 81.402 81.004 80.694 80.452 80.284 80.072 79.837 79.612 79.434 79.224 79.022 78.942 78.827 78.609 78.499 78.407 78.384 78.289 78.214 78.102 77.969 77.752 77.572 77.459 77.127 77.112 76.537 76.369 75.719 75.419 75.132 74.812 74.599 74.424 74.192 74.009 73.849 73.694 73.537 73.424 73.254 73.072 72.919 72.722 72.537 72.422 72.384 71.994 71.919 71.707 71.557 71.407 71.517 71.657 71.194 71.664 70.714 70.412 70.267 70.129 69.759 69.704 69.372 69.307 69.262 69.199 69.129 69.064 68.994 68.952 68.882 68.794 68.717 68.622 68.509 68.389 68.252 68.124 67.992 67.882 67.782 67.662 67.602 67.504 67.447 67.352 67.227 67.172 67.094 66.994 66.902 66.822 66.744 66.659 66.592 66.544 66.477 66.422 66.334 66.202 66.092 66.027 65.949 65.879 65.809 65.729 65.682 65.607 65.527 65.447 65.412 65.319 65.222 65.089 64.987 64.839 64.667 64.512 64.364 64.174 64.004 63.807 63.634 63.419 63.252 63.079 62.882 62.682 62.482 62.249 62.029 61.784 61.562 61.344 61.079 60.869 60.654 60.432 60.212 59.994 59.774 59.547 59.319 59.072 58.834 58.594 58.317 58.057 57.834 57.622 57.447 57.262 57.132 56.934 56.732 56.534 56.389 56.227 56.047 55.814 55.764 55.709 55.642 55.559 55.462 55.377 55.297 55.214 55.082 54.977 54.919 54.899 54.872 54.887 54.909 55.022 55.149 55.307 55.484 55.662 55.882 56.107 56.339 56.549 56.719 56.882 57.049 57.262 57.452 57.584 57.779 57.964 58.122 58.352 58.549 58.742 58.939 59.112 59.314 59.462 59.687 59.889 60.124 60.369 60.599 60.822 61.052 61.317 61.589 61.817 62.047 62.239 62.442 62.639 62.807 62.947 63.062 63.227 63.377 63.512 63.657 63.784 63.859 63.984 64.077 64.157 64.202 64.247 64.272 64.332 64.354 64.367 64.377 64.384 64.374 64.342 64.324 64.362 64.377 65.799 64.462 64.562 64.449 64.072 63.984 63.887 63.887 63.994 64.149 64.232 64.214 64.162 64.067 63.989 63.927 63.837 63.764 63.687 63.634 63.589 63.557 63.479 63.434 63.412 63.374 63.297 63.282 63.219 63.127 63.124 63.144 63.207 63.234 63.307 63.364 63.417 63.442 63.472 63.562 63.607 63.654 63.664 63.612 63.602 63.614 63.592 63.582 63.589 63.552 63.572 63.599 63.592 63.664 63.752 63.854 63.964 64.067 64.129 64.194 64.272 64.324 64.369 64.289 64.239 64.297 64.252 64.272 64.207 64.129 64.092 64.047 63.967 63.869 63.819 63.814 63.817 63.779 63.884 63.972 65.487 64.804 63.709 63.497 63.552 63.597 63.564 63.482 63.444 63.514 63.334 63.322 63.422 63.287 63.339 63.329 63.147 63.102 63.087 63.092 63.049 63.004 62.909 62.817 62.724 62.652 62.569 62.489 62.437 62.359 62.294 62.177 62.107 62.069 62.029 61.942 61.887 61.857 61.817 61.719 61.664 61.609 61.547 61.494 61.427 61.352 61.297 61.244 61.157 61.057 60.944 60.867 60.764 60.654 60.512 60.414 60.277 60.137 59.992 59.854 59.704 59.607 59.517 59.429 59.359 59.257 60.077 59.737 58.554 58.334 58.227 58.364 58.449 58.519 58.582 58.642 58.622 58.592 58.437 58.172 57.984
80.202 79.324 79.214 78.702 78.802 79.162 79.547 79.807 79.964 80.122 80.212 80.494 80.839 81.079 81.242 81.359 81.534 81.659 81.754 81.919 82.654 82.109 82.137 82.129 82.224 82.182 82.072 81.982 82.162 81.744 81.542 81.302 81.127 80.942 80.714 80.414 80.237 79.929 79.959 79.657 79.319 79.114 79.077 78.784 78.632 78.499 78.414 78.269 78.154 78.079 78.009 77.872 77.779 77.584 77.352 77.124 76.929 76.677 76.227 75.852 75.522 75.104 74.844 74.589 74.157 73.934 73.694 73.477 73.334 73.199 73.117 72.962 72.872 72.779 72.639 72.492 72.392 72.119 71.979 71.842 71.702 71.557 71.432 71.359 71.242 71.129 71.452 71.429 72.757 75.884 71.099 70.124 69.912 69.369 69.287 69.242 69.214 69.174 69.127 69.054 68.954 68.864 68.779 68.702 68.612 68.514 68.422 68.309 68.184 68.069 67.902 67.759 67.599 67.477 67.302 67.202 67.107 67.057 67.004 66.934 66.847 66.812 66.757 66.727 66.662 66.609 66.537 66.439 66.372 66.282 66.252 66.187 66.039 65.929 65.837 65.774 65.682 65.624 65.514 65.484 65.432 65.352 65.287 65.264 65.187 65.037 64.952 64.814 64.714 64.552 64.439 64.252 64.092 63.949 63.774 63.577 63.409 63.232 63.064 62.892 62.722 62.517 62.287 62.094 61.877 61.644 61.422 61.184 60.994 60.747 60.534 60.347 60.132 59.884 59.662 59.402 59.157 58.914 58.707 58.439 58.194 57.959 57.744 57.539 57.344 57.219 57.044 56.894 56.782 56.669 56.367 56.324 56.012 55.679 55.519 55.469 55.429 55.324 55.214 55.122 55.012 54.917 54.809 54.712 54.647 54.587 54.564 54.564 54.622 54.707 54.837 55.012 55.182 55.397 55.607 55.837 56.069 56.282 56.467 56.654 56.839 57.024 57.194 57.364 57.557 57.732 57.952 58.167 58.337 58.524 58.757 58.944 59.124 59.319 59.542 59.744 60.009 60.237 60.482 60.752 60.944 61.207 61.449 61.692 61.949 62.139 62.314 62.479 62.637 62.802 62.954 63.087 63.247 63.369 63.509 63.619 63.727 63.837 63.892 63.979 64.077 64.097 64.102 64.117 64.157 64.127 64.119 64.119 64.122 64.129 64.117 64.107 64.344 65.814 64.012 64.739 64.104 63.802 63.702 63.672 63.717 63.787 63.877 63.882 63.859 63.734 63.609 63.549 63.447 63.337 63.269 63.209 63.177 63.102 63.084 63.007 63.014 63.047 63.007 62.919 62.877 62.852 62.812 62.827 62.842 62.822 62.787 62.837 62.912 62.967 63.019 63.062 63.157 63.197 63.284 63.317 63.284 63.324 63.382 63.392 63.397 63.347 63.337 63.344 63.349 63.377 63.409 63.482 63.527 63.619 63.704 63.784 63.817 63.844 63.887 63.967 63.944 63.909 63.924 63.937 63.952 63.877 63.842 63.844 63.734 63.659 63.564 63.552 63.524 63.522 63.534 63.649 63.769 65.407 64.962 63.307 63.184 63.222 63.309 63.257 63.159 63.254 63.057 63.042 63.039 63.072 63.007 63.099 63.092 62.937 62.877 62.834 62.814 62.784 62.694 62.582 62.499 62.432 62.357 62.272 62.234 62.194 62.122 62.029 61.954 61.887 61.854 61.804 61.749 61.684 61.669 61.624 61.559 61.509 61.477 61.429 61.347 61.282 61.184 61.104 61.079 60.972 60.902 60.774 60.699 60.629 60.474 60.347 60.207 60.109 59.957 59.812 59.654 59.532 59.432 59.342 59.257 59.174 59.034 59.459 58.612 58.269 58.077 58.074 58.212 58.237 58.274 58.334 58.392 58.392 58.324 58.184 57.972 57.769
77.787 79.209 81.689 78.339 78.512 78.794 78.924 79.262 79.577 79.629 79.819 80.232 80.349 80.597 80.812 82.224 82.544 81.217 81.322 81.412 81.577 81.749 81.512 81.509 81.469 81.412 81.269 81.277 82.617 81.102 80.792 80.592 80.457 80.239 80.059 79.754 79.632 79.299 79.079 78.917 78.752 78.562 78.442 78.384 78.229 78.307 78.152 78.049 77.694 77.582 77.462 77.337 77.137 76.852 76.664 76.362 76.042 75.737 75.429 75.032 74.689 74.349 74.077 73.822 73.482 73.262 73.067 72.874 73.612 72.682 72.587 72.484 72.357 72.187 72.064 71.942 71.709 71.584 71.444 71.317 71.212 71.289 71.202 71.022 70.927 70.927 70.817 71.964 76.054 74.497 70.349 69.427 69.189 69.174 69.147 69.137 69.119 69.072 68.969 68.877 68.759 68.634 68.522 68.422 68.294 68.189 68.104 67.994 67.842 67.697 67.522 67.332 67.134 66.984 66.832 66.712 66.657 66.612 66.612 66.574 66.564 66.534 66.507 66.464 66.417 66.357 66.274 66.154 66.082 66.044 65.969 65.892 65.777 65.667 65.582 65.484 65.414 65.339 65.297 65.254 65.132 65.089 65.027 65.009 64.914 64.789 64.694 64.549 64.429 64.297 64.149 64.012 63.849 63.692 63.562 63.364 63.187 63.032 62.844 62.694 62.524 62.347 62.144 61.934 61.712 61.469 61.242 61.054 60.864 60.642 60.422 60.202 59.972 59.742 59.527 59.277 59.009 58.799 58.572 58.327 58.089 57.864 57.652 57.437 57.294 57.147 57.024 56.947 56.954 56.937 56.279 56.537 55.764 55.452 55.314 55.204 55.162 55.072 54.967 54.824 54.727 54.664 54.559 54.457 54.369 54.299 54.249 54.257 54.314 54.419 54.537 54.699 54.899 55.129 55.374 55.627 55.842 56.052 56.257 56.447 56.644 56.804 56.977 57.137 57.324 57.527 57.729 57.932 58.142 58.324 58.547 58.737 58.952 59.209 59.429 59.617 59.867 60.107 60.364 60.652 60.922 61.142 61.362 61.567 61.817 62.022 62.182 62.369 62.527 62.679 62.849 62.997 63.094 63.277 63.379 63.504 63.599 63.694 63.759 63.829 63.892 63.934 63.954 63.967 63.982 63.957 63.927 63.949 63.932 63.937 63.884 63.914 64.469 64.592 63.617 64.099 63.649 63.547 63.534 63.567 63.619 63.624 63.604 63.579 63.424 63.304 63.189 63.097 63.007 62.972 62.944 62.877 62.792 62.719 62.649 62.642 62.689 62.659 62.569 62.492 62.479 62.389 62.432 62.442 62.449 62.427 62.442 62.457 62.532 62.649 62.754 62.754 62.772 62.849 62.939 62.987 63.009 63.072 63.114 63.092 63.127 63.119 63.099 63.094 63.134 63.157 63.177 63.212 63.247 63.297 63.372 63.414 63.464 63.474 63.509 63.559 63.544 63.487 63.514 63.574 63.554 63.517 63.459 63.429 63.412 63.337 63.254 63.254 63.232 63.204 63.237 63.314 63.794 64.997 64.297 62.852 62.829 62.894 63.024 62.997 63.029 63.004 62.879 62.767 62.729 62.849 62.884 62.942 62.979 62.794 62.662 62.622 62.577 62.504 62.404 62.309 62.209 62.159 62.097 62.009 61.977 61.902 61.872 61.779 61.722 61.684 61.647 61.592 61.554 61.529 61.474 61.432 61.397 61.369 61.309 61.259 61.199 61.119 61.037 60.972 60.902 60.799 60.729 60.587 60.499 60.434 60.294 60.157 60.057 59.904 59.742 59.627 59.487 59.332 59.244 59.147 59.052 58.967 58.854 59.867 59.007 58.072 57.864 57.914 58.007 58.044 58.087 58.104 58.134 58.132 58.052 57.959 57.784 57.522
77.507 77.892 84.082 78.754 78.074 78.284 78.469 78.944 78.894 79.114 79.304 79.704 79.892 80.122 80.237 80.407 80.659 80.577 80.714 80.809 80.612 80.652 80.584 80.542 80.394 80.392 80.324 80.317 80.162 80.192 80.049 79.982 79.614 79.424 79.299 79.092 78.882 78.697 78.469 78.347 78.282 78.117 78.007 77.907 77.827 77.747 77.499 77.289 77.129 77.019 76.934 76.707 76.459 76.204 75.989 75.644 75.372 75.069 74.682 74.399 74.039 73.729 73.412 73.214 73.014 72.797 72.627 72.452 72.507 72.214 72.152 72.317 71.952 71.794 71.579 71.392 71.142 71.024 70.902 71.067 70.867 71.372 70.784 70.699 71.137 71.179 70.709 73.374 74.154 69.949 69.099 69.117 69.087 69.077 69.082 69.027 68.987 68.862 68.769 68.652 68.497 68.344 68.237 68.139 67.997 67.872 67.757 67.657 67.512 67.347 67.147 66.894 66.689 66.514 66.387 66.314 66.272 66.257 66.259 66.257 66.269 66.249 66.192 66.179 66.127 66.099 66.009 65.879 65.809 65.767 65.727 65.624 65.522 65.424 65.304 65.199 65.132 65.082 65.042 64.972 64.892 64.834 64.767 64.729 64.619 64.517 64.409 64.292 64.179 64.034 63.922 63.757 63.629 63.489 63.324 63.167 62.994 62.834 62.697 62.504 62.342 62.142 61.969 61.762 61.549 61.327 61.129 60.929 60.734 60.534 60.277 60.087 59.844 59.619 59.364 59.152 58.894 58.669 58.437 58.217 57.969 57.779 57.604 57.402 57.342 57.232 57.114 56.934 56.642 56.422 55.927 56.137 55.392 55.344 55.099 54.979 54.899 54.852 54.729 54.579 54.477 54.422 54.269 54.199 54.084 54.019 53.984 53.937 54.012 54.102 54.277 54.442 54.647 54.844 55.102 55.374 55.604 55.832 56.044 56.254 56.427 56.584 56.767 56.952 57.137 57.342 57.544 57.767 57.934 58.149 58.387 58.609 58.817 59.062 59.309 59.529 59.779 60.032 60.322 60.539 60.777 61.042 61.277 61.514 61.739 61.939 62.099 62.272 62.432 62.567 62.714 62.867 62.992 63.139 63.257 63.377 63.479 63.572 63.612 63.684 63.772 63.784 63.819 63.827 63.812 63.834 63.762 63.754 63.772 63.714 63.714 63.752 64.694 64.547 63.552 64.027 63.369 63.327 63.359 63.414 63.407 63.364 63.322 63.232 63.119 63.014 62.977 62.922 62.819 62.794 62.744 62.709 62.629 62.547 62.469 62.477 62.472 62.382 62.269 62.177 62.114 62.044 62.022 62.042 62.107 62.189 62.187 62.212 62.324 62.494 62.527 62.574 62.557 62.597 62.667 62.749 62.804 62.862 62.862 62.824 62.844 62.882 62.854 62.839 62.859 62.852 62.864 62.894 62.942 62.959 63.019 63.104 63.122 63.162 63.202 63.227 63.204 63.177 63.194 63.219 63.204 63.172 63.119 63.092 63.077 63.049 62.967 62.929 62.862 62.877 62.922 62.932 63.399 64.724 63.904 62.644 62.509 62.614 62.664 62.707 62.619 62.642 62.552 62.509 62.512 62.647 62.637 62.782 62.782 62.607 62.464 62.419 62.334 62.234 62.122 62.009 61.907 61.857 61.792 61.734 61.699 61.662 61.622 61.552 61.507 61.459 61.459 61.404 61.387 61.372 61.322 61.287 61.262 61.217 61.174 61.114 61.052 60.947 60.874 60.814 60.744 60.639 60.534 60.419 60.339 60.249 60.102 59.972 59.874 59.734 59.537 59.399 59.269 59.137 59.044 58.967 58.892 58.769 58.624 58.482 58.442 57.862 57.634 57.757 57.804 57.802 57.829 57.829 57.882 57.854 57.787 57.729 57.539 57.139
76.987 77.174 79.862 78.427 78.304 77.752 77.734 77.967 78.182 78.412 78.667 78.944 79.154 79.447 79.582 79.542 79.679 79.672 79.637 79.614 79.782 80.522 79.622 80.947 79.589 79.457 79.442 79.424 79.309 79.189 79.134 79.087 78.897 78.749 78.612 78.524 78.229 78.082 77.919 77.907 77.782 77.602 77.594 77.522 77.259 77.067 76.922 76.787 76.624 76.489 76.342 76.232 75.969 75.664 75.319 75.024 74.754 74.577 74.402 74.062 73.634 73.324 73.082 72.812 72.677 72.467 72.257 72.204 72.267 71.907 71.727 71.617 71.422 71.247 71.394 70.849 70.519 70.427 70.362 70.549 70.464 70.457 70.389 70.429 70.479 69.717 69.469 69.032 68.984 68.992 69.037 69.044 69.017 69.012 68.969 68.889 68.772 68.637 68.527 68.372 68.217 68.062 67.917 67.807 67.659 67.539 67.434 67.299 67.134 66.969 66.769 66.499 66.299 66.152 66.052 66.009 65.979 65.934 65.929 65.942 65.949 65.937 65.922 65.957 65.942 65.834 65.719 65.637 65.557 65.507 65.437 65.287 65.167 65.042 64.952 64.884 64.859 64.767 64.717 64.672 64.614 64.547 64.507 64.459 64.337 64.247 64.154 64.039 63.929 63.807 63.647 63.524 63.397 63.259 63.104 62.917 62.779 62.624 62.457 62.289 62.157 61.982 61.809 61.619 61.377 61.194 61.024 60.797 60.584 60.392 60.172 59.949 59.707 59.454 59.237 58.989 58.769 58.552 58.339 58.117 57.894 57.722 57.504 57.349 57.289 57.224 57.019 56.467 56.114 55.829 56.342 56.667 55.047 55.704 54.939 54.727 54.624 54.569 54.497 54.367 54.217 54.122 54.022 53.907 53.809 53.729 53.654 53.654 53.719 53.819 53.967 54.177 54.412 54.627 54.867 55.167 55.412 55.652 55.862 56.042 56.247 56.419 56.587 56.749 56.962 57.147 57.342 57.562 57.772 58.012 58.239 58.462 58.699 58.934 59.202 59.429 59.682 59.944 60.194 60.484 60.729 60.974 61.209 61.434 61.644 61.824 61.989 62.147 62.312 62.449 62.602 62.739 62.862 62.967 63.104 63.217 63.327 63.407 63.499 63.554 63.622 63.654 63.679 63.679 63.669 63.632 63.617 63.582 63.574 63.527 63.534 63.672 64.662 63.594 63.277 63.399 63.142 63.129 63.157 63.147 63.112 63.087 63.039 62.947 62.867 62.777 62.764 62.754 62.617 62.557 62.537 62.492 62.432 62.332 62.264 62.244 62.209 62.097 61.962 61.847 61.824 61.804 61.789 61.829 61.919 62.042 62.037 62.062 62.154 62.249 62.299 62.327 62.334 62.354 62.437 62.607 62.742 62.747 62.697 62.637 62.614 62.622 62.587 62.577 62.582 62.562 62.574 62.617 62.649 62.674 62.712 62.752 62.824 62.879 62.927 62.952 62.914 62.924 62.937 62.939 62.969 62.904 62.869 62.879 62.839 62.814 62.692 62.627 62.577 62.597 62.627 62.632 63.099 63.949 63.307 62.267 62.179 62.327 62.412 62.439 62.497 62.487 62.399 62.324 62.424 62.444 62.557 62.622 62.529 62.332 62.244 62.179 62.079 61.967 61.829 61.747 61.657 61.567 61.477 61.459 61.434 61.399 61.369 61.317 61.277 61.257 61.244 61.212 61.219 61.194 61.169 61.147 61.097 61.059 61.019 60.952 60.869 60.779 60.712 60.637 60.594 60.472 60.334 60.239 60.164 60.024 59.887 59.777 59.662 59.527 59.362 59.204 59.047 58.927 58.817 58.762 58.707 58.594 58.382 57.902 57.804 57.642 57.449 57.579 57.574 57.612 57.589 57.602 57.639 57.634 57.587 57.524 57.292 56.707
76.444 76.569 76.647 77.229 77.737 77.162 77.157 77.344 77.549 77.754 77.894 78.079 78.247 78.542 80.592 78.804 78.757 78.779 78.794 78.804 78.799 79.517 78.832 79.024 78.977 78.722 78.669 78.684 78.589 78.514 78.557 78.584 78.352 79.319 78.939 77.982 77.782 77.652 77.467 77.354 77.179 77.059 77.024 76.752 76.607 76.447 76.319 76.304 76.167 76.067 75.777 75.879 75.527 75.019 74.709 74.454 74.232 74.027 73.647 73.434 73.222 72.942 72.752 72.527 72.457 72.089 71.882 71.759 71.619 71.462 71.289 71.152 70.917 70.744 70.492 70.309 70.159 70.074 70.139 70.167 70.119 70.109 69.972 69.532 69.149 68.942 68.857 68.877 68.889 68.887 68.884 68.884 68.879 68.807 68.764 68.662 68.547 68.382 68.242 68.087 67.934 67.767 67.587 67.464 67.362 67.224 67.097 66.942 66.802 66.594 66.407 66.209 66.039 65.924 65.839 65.839 65.779 65.724 65.709 65.707 65.694 65.677 65.689 65.684 65.592 65.532 65.454 65.334 65.294 65.212 65.074 64.937 64.809 64.734 64.639 64.562 64.532 64.467 64.417 64.382 64.342 64.294 64.222 64.154 64.059 63.977 63.864 63.784 63.667 63.537 63.432 63.287 63.162 63.009 62.859 62.694 62.552 62.429 62.274 62.127 61.982 61.814 61.642 61.432 61.237 61.082 60.862 60.654 60.449 60.257 60.024 59.799 59.569 59.327 59.097 58.847 58.632 58.442 58.224 58.029 57.842 57.639 57.504 57.422 57.329 56.959 56.437 56.082 56.409 56.002 56.604 55.977 54.952 56.052 54.929 54.497 54.292 54.294 54.189 54.079 53.944 53.849 53.722 53.617 53.527 53.437 53.384 53.377 53.447 53.562 53.722 53.954 54.139 54.397 54.662 54.949 55.182 55.454 55.664 55.894 56.059 56.237 56.409 56.602 56.799 56.999 57.182 57.414 57.634 57.857 58.114 58.362 58.599 58.849 59.107 59.392 59.639 59.894 60.154 60.417 60.669 60.924 61.152 61.387 61.569 61.752 61.937 62.062 62.232 62.382 62.519 62.652 62.747 62.874 62.992 63.114 63.212 63.299 63.344 63.434 63.467 63.514 63.522 63.532 63.502 63.499 63.454 63.399 63.369 63.367 63.394 63.639 64.674 63.049 65.782 63.129 62.929 62.877 62.852 62.799 62.774 62.744 62.702 62.652 62.614 62.554 62.574 62.479 62.362 62.279 62.262 62.212 62.149 62.064 61.984 61.924 61.892 61.809 61.684 61.567 61.572 61.527 61.557 61.582 61.719 61.909 61.932 61.897 61.929 61.974 62.024 62.079 62.104 62.149 62.277 62.469 62.552 62.557 62.504 62.452 62.399 62.339 62.307 62.314 62.312 62.299 62.329 62.374 62.382 62.382 62.414 62.492 62.537 62.612 62.677 62.682 62.647 62.662 62.667 62.674 62.664 62.632 62.617 62.677 62.637 62.567 62.464 62.364 62.322 62.304 62.364 62.322 63.069 63.479 62.752 61.977 61.879 62.067 62.159 62.129 62.272 62.287 62.159 62.119 62.212 62.252 62.377 62.359 62.254 62.107 61.979 61.914 61.814 61.709 61.572 61.474 61.364 61.277 61.224 61.169 61.157 61.129 61.109 61.087 61.062 61.062 61.057 61.037 61.067 61.024 60.994 60.972 60.917 60.902 60.839 60.772 60.694 60.592 60.527 60.437 60.354 60.282 60.147 60.047 59.912 59.804 59.677 59.559 59.412 59.302 59.172 58.992 58.829 58.719 58.652 58.582 58.524 58.404 58.129 57.742 57.717 57.384 57.282 57.407 57.359 57.372 57.329 57.379 57.369 57.394 57.382 57.337 57.024 56.374
75.934 76.002 76.359 76.499 76.517 77.939 76.629 76.707 76.884 77.097 77.227 77.334 77.457 77.909 78.172 79.044 78.039 77.969 77.964 78.007 78.079 78.154 78.234 78.147 78.114 78.092 77.849 77.882 77.944 77.824 77.782 77.672 77.769 80.349 79.587 77.287 77.219 77.107 76.772 76.674 76.547 76.349 76.419 76.262 76.014 76.022 76.027 75.797 75.614 75.477 75.252 75.027 74.757 74.462 74.237 74.094 73.769 73.557 73.317 73.082 72.864 72.624 72.399 72.342 71.882 71.642 71.429 71.259 71.097 70.987 70.759 70.619 70.407 70.344 70.064 70.017 70.044 69.847 69.662 70.217 70.277 69.359 68.919 68.692 68.692 68.717 68.757 68.757 68.754 68.727 68.717 68.704 68.667 68.589 68.514 68.407 68.259 68.107 67.937 67.777 67.589 67.417 67.252 67.122 66.977 66.839 66.719 66.547 66.412 66.224 66.062 65.942 65.824 65.712 65.679 65.632 65.584 65.537 65.509 65.474 65.434 65.434 65.399 65.349 65.232 65.152 65.107 65.059 64.982 64.864 64.709 64.587 64.472 64.387 64.299 64.239 64.179 64.142 64.117 64.077 64.029 63.972 63.912 63.842 63.759 63.669 63.607 63.504 63.409 63.282 63.179 63.042 62.884 62.752 62.614 62.477 62.357 62.209 62.102 61.949 61.829 61.654 61.464 61.284 61.117 60.904 60.727 60.529 60.307 60.089 59.854 59.654 59.434 59.187 58.967 58.729 58.537 58.347 58.174 57.992 57.784 57.682 57.597 57.399 56.939 56.459 56.174 56.127 56.542 55.557 55.867 56.277 54.792 54.349 55.662 54.802 54.037 54.017 53.907 53.804 53.672 53.589 53.447 53.322 53.212 53.112 53.087 53.064 53.187 53.287 53.444 53.649 53.872 54.157 54.434 54.712 54.974 55.239 55.472 55.682 55.887 56.037 56.229 56.417 56.614 56.774 56.999 57.259 57.487 57.739 57.982 58.244 58.487 58.752 58.999 59.304 59.587 59.817 60.104 60.337 60.574 60.842 61.084 61.319 61.472 61.642 61.827 61.982 62.157 62.317 62.432 62.564 62.657 62.799 62.904 63.004 63.052 63.107 63.209 63.284 63.334 63.359 63.402 63.374 63.367 63.337 63.312 63.264 63.234 63.209 63.219 63.642 63.632 62.829 64.827 62.797 62.774 62.632 62.564 62.479 62.394 62.289 62.269 62.274 62.292 62.334 62.334 62.194 62.069 62.037 61.964 61.884 61.842 61.764 61.677 61.562 61.422 61.399 61.349 61.314 61.327 61.237 61.192 61.204 61.402 61.574 61.664 61.672 61.622 61.634 61.704 61.777 61.854 61.959 62.049 62.154 62.199 62.199 62.234 62.204 62.172 62.094 62.077 62.087 62.052 62.047 62.072 62.107 62.142 62.137 62.179 62.204 62.262 62.349 62.417 62.389 62.339 62.397 62.424 62.402 62.394 62.407 62.414 62.472 62.424 62.349 62.272 62.164 62.102 62.067 62.077 61.942 62.957 63.199 62.299 61.552 61.589 61.767 61.824 61.847 61.997 61.919 61.927 61.882 61.897 61.994 62.057 62.159 62.039 61.854 61.709 61.632 61.504 61.424 61.282 61.164 61.067 60.977 60.929 60.902 60.892 60.854 60.842 60.849 60.852 60.844 60.857 60.849 60.879 60.852 60.834 60.784 60.752 60.717 60.652 60.592 60.489 60.424 60.319 60.242 60.164 60.037 59.927 59.834 59.699 59.597 59.477 59.352 59.227 59.109 58.952 58.789 58.664 58.547 58.427 58.367 58.289 58.222 57.852 57.552 57.442 57.174 57.149 57.209 57.177 57.162 57.137 57.137 57.149 57.162 57.152 57.092 56.724 56.132
75.457 75.544 75.687 75.744 76.229 76.197 76.074 76.274 76.317 76.457 76.579 76.732 76.914 76.969 77.052 77.214 77.284 77.307 77.367 77.329 77.372 77.432 77.454 77.482 77.377 77.257 77.162 77.167 77.392 77.137 76.977 76.894 76.687 76.754 76.754 76.614 76.299 76.154 75.997 75.884 75.822 75.739 75.654 75.594 75.587 75.564 75.272 75.117 75.014 74.959 74.802 74.479 74.279 74.034 73.824 73.544 73.249 73.022 72.812 72.567 72.417 72.169 71.834 71.612 71.324 71.107 71.587 70.739 70.539 70.424 70.312 70.107 70.019 70.842 69.839 69.602 69.307 69.284 69.594 68.922 68.587 68.562 68.544 68.574 68.597 68.622 68.612 68.597 68.567 68.549 68.494 68.454 68.412 68.319 68.222 68.097 67.942 67.804 67.622 67.437 67.247 67.072 66.889 66.692 66.559 66.437 66.279 66.124 66.002 65.867 65.777 65.664 65.564 65.492 65.479 65.424 65.374 65.312 65.289 65.259 65.197 65.144 65.134 65.019 64.877 64.787 64.714 64.647 64.602 64.479 64.364 64.252 64.134 64.054 63.974 63.897 63.854 63.854 63.807 63.779 63.727 63.692 63.627 63.584 63.479 63.424 63.329 63.237 63.162 63.034 62.912 62.779 62.639 62.539 62.399 62.287 62.142 62.009 61.899 61.739 61.612 61.457 61.307 61.134 60.957 60.742 60.562 60.362 60.157 59.964 59.729 59.512 59.294 59.082 58.872 58.649 58.457 58.319 58.152 57.947 57.792 57.792 58.409 56.874 56.494 56.184 55.937 56.062 56.332 55.304 55.162 56.072 55.012 54.217 55.947 57.157 54.402 53.689 53.619 53.517 53.414 53.279 53.147 53.039 52.929 52.799 52.772 52.799 52.854 52.982 53.182 53.402 53.677 53.894 54.159 54.464 54.744 55.029 55.264 55.464 55.639 55.852 56.037 56.204 56.399 56.619 56.882 57.072 57.347 57.579 57.869 58.104 58.377 58.662 58.947 59.237 59.494 59.739 60.009 60.274 60.542 60.772 61.014 61.199 61.409 61.574 61.767 61.922 62.054 62.212 62.319 62.454 62.569 62.672 62.769 62.864 62.949 63.024 63.067 63.167 63.187 63.239 63.249 63.224 63.189 63.162 63.159 63.122 63.084 63.074 63.109 63.894 63.009 63.049 63.147 62.512 62.472 62.419 62.387 62.232 62.079 61.944 61.944 61.992 62.057 62.084 62.047 61.972 61.854 61.784 61.669 61.574 61.537 61.492 61.349 61.212 61.157 61.122 61.097 61.032 61.019 60.957 60.974 61.047 61.122 61.237 61.314 61.362 61.307 61.324 61.404 61.507 61.597 61.702 61.734 61.772 61.812 61.822 61.882 61.897 61.909 61.874 61.854 61.859 61.804 61.784 61.812 61.834 61.859 61.887 61.899 61.929 61.992 62.052 62.124 62.112 62.137 62.139 62.172 62.179 62.207 62.187 62.194 62.222 62.187 62.109 61.969 61.902 61.829 61.772 61.794 61.614 62.294 62.814 61.539 61.242 61.269 61.482 61.524 61.567 61.664 61.552 61.702 61.692 61.809 61.774 61.777 61.834 61.684 61.504 61.392 61.312 61.212 61.097 60.967 60.844 60.757 60.687 60.642 60.604 60.612 60.619 60.612 60.624 60.637 60.642 60.664 60.652 60.687 60.669 60.679 60.627 60.559 60.524 60.439 60.364 60.272 60.222 60.109 60.034 59.922 59.819 59.709 59.582 59.477 59.384 59.279 59.157 59.009 58.869 58.714 58.572 58.442 58.347 58.229 58.172 58.077 57.977 57.584 57.384 57.247 56.937 57.024 57.042 57.002 56.987 56.922 56.917 56.962 56.954 56.972 56.814 56.459 55.909
75.032 75.192 75.074 75.449 75.369 75.574 75.602 75.832 75.797 76.002 75.972 76.144 76.287 76.319 76.419 76.562 77.697 77.584 76.757 76.734 76.672 76.799 76.882 76.877 76.689 76.524 76.492 76.399 76.547 76.357 76.172 75.944 75.757 75.757 75.657 75.457 75.424 75.494 75.449 75.277 75.224 75.174 75.159 75.104 75.039 75.149 74.894 74.712 74.654 74.452 74.277 74.199 73.839 73.532 73.232 73.004 72.784 72.477 72.242 72.012 71.824 71.534 71.264 71.109 71.182 70.479 70.292 70.162 70.047 70.007 69.989 69.812 69.617 69.492 69.254 69.027 68.802 68.729 68.434 68.417 68.394 68.452 68.469 68.472 68.489 68.454 68.437 68.417 68.359 68.302 68.264 68.197 68.119 68.029 67.927 67.774 67.607 67.454 67.277 67.097 66.889 66.677 66.467 66.319 66.167 66.009 65.844 65.722 65.629 65.544 65.474 65.349 65.242 65.217 65.199 65.149 65.104 65.089 65.044 64.967 64.887 64.837 64.762 64.619 64.519 64.432 64.347 64.264 64.189 64.109 64.009 63.897 63.804 63.719 63.637 63.577 63.544 63.522 63.502 63.479 63.459 63.409 63.362 63.302 63.237 63.157 63.082 62.992 62.899 62.799 62.669 62.549 62.412 62.309 62.184 62.087 61.954 61.824 61.699 61.572 61.434 61.307 61.134 60.967 60.817 60.602 60.429 60.212 60.027 59.812 59.602 59.397 59.187 58.959 58.777 58.599 58.474 58.254 58.084 57.992 57.947 57.444 57.589 57.664 56.282 55.874 56.904 55.577 55.729 56.164 55.152 55.832 54.729 54.189 54.817 57.472 54.207 53.382 53.287 53.209 53.107 52.992 52.847 52.722 52.584 52.477 52.437 52.487 52.609 52.734 52.912 53.132 53.362 53.637 53.952 54.239 54.552 54.777 55.044 55.232 55.442 55.644 55.822 56.002 56.234 56.444 56.684 56.912 57.164 57.429 57.729 58.009 58.262 58.539 58.857 59.139 59.407 59.679 59.947 60.227 60.479 60.699 60.934 61.144 61.327 61.514 61.689 61.824 61.954 62.122 62.224 62.332 62.444 62.564 62.672 62.759 62.834 62.904 62.962 63.007 63.067 63.094 63.089 63.064 63.062 63.024 63.014 62.959 62.929 62.937 62.994 64.069 62.982 63.019 62.364 62.222 62.202 62.147 62.072 61.974 61.877 61.777 61.737 61.734 61.767 61.772 61.779 61.747 61.682 61.574 61.467 61.317 61.222 61.202 61.059 60.954 60.899 60.857 60.834 60.779 60.737 60.714 60.822 60.899 60.872 60.957 61.007 60.977 60.964 61.017 61.129 61.192 61.232 61.257 61.322 61.399 61.454 61.517 61.547 61.579 61.612 61.609 61.627 61.607 61.559 61.552 61.582 61.604 61.597 61.569 61.584 61.612 61.664 61.774 61.844 61.892 61.917 61.979 61.992 61.959 61.987 61.969 61.934 61.892 61.882 61.829 61.697 61.602 61.532 61.499 61.502 61.292 62.054 62.234 61.027 60.909 60.957 61.257 61.259 61.349 61.372 61.457 61.407 61.469 61.557 61.489 61.527 61.537 61.367 61.179 61.039 60.949 60.872 60.724 60.607 60.517 60.459 60.409 60.349 60.339 60.339 60.342 60.352 60.369 60.409 60.439 60.447 60.484 60.514 60.479 60.467 60.434 60.357 60.299 60.229 60.159 60.087 60.007 59.912 59.822 59.674 59.579 59.494 59.369 59.284 59.147 59.069 58.934 58.804 58.617 58.492 58.359 58.242 58.142 58.067 57.987 57.892 58.244 57.349 57.224 56.989 56.757 56.887 56.887 56.877 56.827 56.742 56.737 56.737 56.754 56.734 56.612 56.249 55.619
74.642 74.577 74.607 74.749 74.902 75.052 75.027 75.197 75.274 75.267 75.422 75.527 75.537 78.712 75.692 79.197 78.287 81.134 76.632 75.914 75.797 75.754 76.074 75.887 77.729 75.969 75.937 75.737 75.669 75.634 75.822 75.447 75.207 74.977 75.022 74.964 74.857 74.779 74.794 74.649 74.619 74.647 74.697 74.609 74.549 74.502 74.297 74.134 74.074 73.827 73.742 73.677 73.412 73.044 72.727 72.392 72.174 71.814 71.627 71.349 71.089 70.757 70.552 70.282 70.704 69.964 69.907 69.772 69.694 69.689 69.612 69.397 69.594 68.712 68.579 68.314 68.289 68.234 68.254 68.307 68.302 68.319 68.317 68.307 68.264 68.232 68.199 68.144 68.109 68.059 67.962 67.922 67.829 67.709 67.584 67.424 67.269 67.094 66.907 66.702 66.489 66.282 66.087 65.872 65.707 65.559 65.447 65.337 65.289 65.192 65.112 64.964 64.837 64.864 64.864 64.849 64.829 64.774 64.719 64.659 64.609 64.559 64.397 64.219 64.109 64.079 64.002 63.919 63.832 63.739 63.644 63.559 63.469 63.384 63.322 63.269 63.257 63.224 63.232 63.214 63.207 63.149 63.107 63.037 62.982 62.904 62.832 62.754 62.634 62.544 62.424 62.307 62.182 62.064 61.974 61.847 61.747 61.627 61.497 61.409 61.259 61.122 60.957 60.794 60.632 60.449 60.282 60.089 59.904 59.662 59.472 59.262 59.084 58.902 58.744 58.554 58.367 58.222 58.122 58.097 58.124 57.417 56.702 57.364 55.949 55.587 57.659 55.447 56.364 56.444 54.912 54.399 54.567 53.984 53.629 54.669 56.687 53.137 53.037 52.932 52.799 52.669 52.529 52.389 52.279 52.212 52.122 52.192 52.302 52.444 52.637 52.877 53.122 53.377 53.687 53.989 54.277 54.542 54.772 54.999 55.217 55.419 55.602 55.822 56.024 56.279 56.517 56.772 57.062 57.304 57.592 57.929 58.212 58.464 58.762 59.054 59.337 59.637 59.894 60.172 60.427 60.647 60.862 61.062 61.264 61.437 61.607 61.727 61.867 62.019 62.162 62.274 62.374 62.447 62.577 62.624 62.739 62.802 62.814 62.889 62.899 62.934 62.924 62.899 62.872 62.867 62.839 62.817 62.772 62.782 63.084 63.784 62.274 62.669 62.069 61.964 61.937 61.852 61.762 61.712 61.707 61.619 61.564 61.452 61.417 61.494 61.519 61.437 61.337 61.267 61.189 61.119 61.052 60.984 60.867 60.792 60.704 60.674 60.672 60.637 60.559 60.592 60.649 60.644 60.612 60.687 60.707 60.634 60.569 60.659 60.684 60.737 60.824 60.879 61.002 61.042 61.127 61.202 61.202 61.224 61.279 61.272 61.349 61.344 61.299 61.282 61.302 61.297 61.262 61.224 61.257 61.294 61.374 61.484 61.547 61.584 61.679 61.767 61.789 61.717 61.717 61.662 61.569 61.557 61.487 61.442 61.367 61.299 61.269 61.184 61.157 60.964 61.777 61.804 60.662 60.577 60.679 60.887 60.977 61.032 61.122 61.037 61.122 61.169 61.322 61.282 61.224 61.154 60.937 60.699 60.639 60.517 60.464 60.354 60.277 60.182 60.137 60.074 60.064 60.052 60.064 60.049 60.084 60.102 60.137 60.172 60.217 60.199 60.252 60.232 60.227 60.187 60.132 60.092 60.007 59.939 59.892 59.777 59.702 59.617 59.477 59.339 59.287 59.162 59.047 58.947 58.862 58.717 58.577 58.412 58.267 58.132 58.012 57.917 57.864 57.789 57.662 58.934 57.159 56.994 56.749 56.609 56.759 56.762 56.737 56.649 56.614 56.574 56.549 56.564 56.574 56.464 56.032 56.182
74.244 74.244 74.184 74.129 74.249 74.324 74.697 75.342 74.464 74.562 74.637 78.944 81.662 80.174 77.162 77.152 81.464 76.937 74.984 75.012 75.044 75.019 75.009 76.627 76.327 75.074 75.132 75.337 74.949 75.374 78.674 75.137 74.479 74.447 74.439 74.529 74.537 74.267 74.169 74.134 74.077 74.014 74.089 74.087 73.992 74.039 73.784 73.664 73.432 73.849 73.369 73.044 72.814 72.527 72.049 71.694 71.374 71.122 70.879 70.609 70.317 70.082 69.907 69.789 69.702 69.602 69.542 69.434 69.684 69.227 68.769 69.414 68.252 68.074 68.089 68.057 68.014 68.064 68.147 68.169 68.134 68.117 68.077 68.029 68.029 67.984 67.932 67.869 67.842 67.757 67.677 67.592 67.482 67.364 67.234 67.079 66.869 66.699 66.504 66.312 66.119 65.884 65.714 65.524 65.344 65.197 65.122 65.049 64.934 64.837 64.712 64.647 64.532 64.529 64.519 64.504 64.499 64.447 64.397 64.394 64.312 64.132 63.959 63.842 63.792 63.729 63.664 63.572 63.484 63.407 63.329 63.237 63.169 63.099 63.047 63.004 62.972 62.959 62.957 62.944 62.942 62.889 62.824 62.779 62.712 62.637 62.587 62.497 62.417 62.299 62.184 62.089 61.972 61.844 61.749 61.642 61.559 61.417 61.309 61.187 61.074 60.934 60.779 60.644 60.494 60.332 60.159 59.937 59.747 59.554 59.339 59.172 59.014 58.847 58.652 58.492 58.332 58.269 58.207 57.727 56.974 56.569 56.294 56.302 57.472 56.647 57.042 55.529 56.649 56.207 55.009 54.572 53.974 53.722 53.854 54.242 55.942 52.837 52.704 52.614 52.502 52.372 52.212 52.127 51.992 51.909 51.849 51.899 52.019 52.187 52.392 52.609 52.867 53.127 53.407 53.714 53.984 54.237 54.512 54.769 54.974 55.192 55.399 55.634 55.884 56.142 56.374 56.657 56.927 57.209 57.532 57.839 58.117 58.384 58.717 59.004 59.284 59.559 59.834 60.117 60.374 60.604 60.797 60.997 61.177 61.374 61.512 61.647 61.812 61.934 62.069 62.192 62.284 62.389 62.482 62.547 62.577 62.667 62.719 62.759 62.779 62.774 62.797 62.752 62.707 62.717 62.677 62.634 62.627 62.642 63.344 63.052 62.227 62.629 61.907 61.772 61.712 61.609 61.524 61.507 61.479 61.482 61.452 61.354 61.322 61.319 61.284 61.149 61.067 60.992 60.942 60.899 60.842 60.742 60.579 60.417 60.399 60.397 60.317 60.354 60.322 60.359 60.384 60.294 60.362 60.389 60.352 60.269 60.252 60.292 60.369 60.439 60.487 60.527 60.612 60.724 60.839 60.879 60.859 60.849 60.904 60.939 60.984 61.047 61.067 61.074 61.022 60.967 60.924 60.942 60.944 60.987 61.114 61.172 61.219 61.252 61.344 61.469 61.477 61.432 61.367 61.297 61.187 61.174 61.152 61.057 60.967 60.927 60.892 60.827 60.789 60.702 61.827 61.272 60.362 60.314 60.397 60.622 60.612 60.679 60.747 60.769 60.847 60.842 60.889 60.999 60.899 60.674 60.544 60.319 60.222 60.134 60.087 60.014 59.934 59.887 59.844 59.777 59.767 59.777 59.784 59.794 59.822 59.867 59.902 59.917 59.927 59.974 60.027 59.987 59.994 59.969 59.914 59.882 59.807 59.742 59.667 59.574 59.477 59.394 59.272 59.129 59.052 58.949 58.857 58.729 58.657 58.514 58.352 58.162 58.042 57.894 57.807 57.704 57.644 57.647 58.469 57.859 56.847 56.752 56.467 56.444 56.602 56.569 56.539 56.482 56.442 56.414 56.359 56.387 56.344 56.187 57.557 58.199
73.632 73.779 74.004 73.717 73.819 73.774 73.724 73.859 73.884 73.884 73.919 75.339 82.167 75.929 77.942 78.014 79.842 75.527 74.249 74.259 74.279 74.542 74.329 75.442 74.494 74.722 74.852 74.719 74.542 74.589 75.447 74.587 75.584 74.219 73.949 74.109 74.037 73.897 73.777 73.747 73.694 73.669 73.774 73.589 73.514 73.552 73.422 73.297 73.082 72.909 72.609 72.364 72.137 71.859 71.407 71.082 70.724 70.477 70.197 69.982 69.829 69.709 69.592 69.549 69.357 69.204 69.039 69.102 69.084 68.549 67.934 67.759 67.739 67.804 67.977 67.824 67.827 67.912 67.954 67.942 67.917 67.872 67.844 67.802 67.757 67.699 67.654 67.592 67.522 67.437 67.337 67.237 67.129 66.994 66.859 66.662 66.462 66.289 66.084 65.907 65.727 65.527 65.362 65.182 65.029 64.939 64.832 64.749 64.642 64.517 64.399 64.332 64.292 64.264 64.227 64.149 64.112 64.117 64.087 63.999 63.792 63.672 63.562 63.482 63.417 63.354 63.277 63.232 63.159 63.097 62.992 62.939 62.869 62.834 62.759 62.729 62.704 62.659 62.692 62.702 62.699 62.647 62.607 62.517 62.484 62.417 62.347 62.259 62.152 62.072 61.969 61.872 61.747 61.607 61.517 61.429 61.324 61.234 61.139 61.019 60.879 60.754 60.617 60.502 60.354 60.179 59.987 59.792 59.624 59.414 59.272 59.114 58.962 58.747 58.582 58.474 58.477 58.169 57.589 57.682 57.217 56.292 56.087 56.334 56.012 55.502 56.809 55.737 56.269 54.819 55.242 54.887 53.859 53.602 53.822 52.982 52.472 52.804 52.352 52.279 52.212 52.082 51.942 51.809 51.704 51.637 51.607 51.622 51.757 51.929 52.129 52.339 52.599 52.854 53.142 53.434 53.722 53.997 54.247 54.527 54.787 55.014 55.242 55.469 55.724 55.997 56.272 56.539 56.842 57.147 57.447 57.739 58.039 58.352 58.662 58.942 59.234 59.529 59.794 60.054 60.297 60.542 60.764 60.987 61.137 61.319 61.469 61.602 61.744 61.867 61.987 62.107 62.197 62.314 62.379 62.434 62.512 62.539 62.582 62.614 62.644 62.657 62.604 62.607 62.564 62.549 62.537 62.507 62.472 62.577 63.194 62.519 62.152 62.087 61.782 61.654 61.547 61.469 61.394 61.352 61.312 61.282 61.247 61.189 61.177 61.152 61.092 61.024 60.899 60.837 60.724 60.589 60.489 60.377 60.279 60.227 60.144 60.049 59.989 60.054 60.059 60.047 60.012 60.007 60.039 60.039 59.994 59.964 59.972 59.984 60.057 60.079 60.132 60.267 60.362 60.467 60.519 60.549 60.532 60.507 60.557 60.617 60.634 60.667 60.724 60.722 60.694 60.672 60.652 60.667 60.692 60.727 60.782 60.899 60.962 60.999 61.072 61.124 61.114 61.062 61.027 60.967 60.877 60.854 60.784 60.687 60.602 60.589 60.524 60.487 60.402 60.354 61.604 61.057 60.057 60.054 60.189 60.359 60.374 60.407 60.442 60.474 60.494 60.467 60.477 60.392 60.364 60.254 60.124 59.912 59.824 59.767 59.709 59.654 59.599 59.549 59.537 59.512 59.467 59.492 59.514 59.542 59.567 59.599 59.644 59.652 59.709 59.732 59.799 59.782 59.789 59.724 59.687 59.649 59.579 59.517 59.449 59.352 59.272 59.187 59.059 58.934 58.847 58.782 58.659 58.562 58.467 58.277 58.114 57.957 57.832 57.722 57.599 57.497 57.459 57.637 57.289 57.987 56.612 56.497 56.229 56.284 56.369 56.407 56.399 56.357 56.319 56.259 56.229 56.194 56.114 55.939 55.684 54.689
72.864 73.484 73.737 73.467 73.639 73.429 73.357 73.397 73.507 73.512 74.017 75.717 75.859 76.552 76.547 77.562 76.382 75.749 73.654 73.632 73.787 73.794 73.729 73.759 74.007 74.267 74.107 73.829 74.034 74.407 74.439 74.872 74.577 74.007 73.759 73.812 73.642 73.607 73.537 73.502 73.432 73.377 73.354 73.282 73.219 73.162 73.099 73.004 72.759 72.469 71.997 71.594 71.307 71.009 70.679 70.437 70.219 69.932 69.924 69.744 69.502 69.407 69.399 69.157 69.032 68.637 68.259 68.019 67.702 67.649 67.612 67.614 67.562 67.569 67.732 67.697 67.672 67.714 67.734 67.699 67.644 67.599 67.572 67.517 67.457 67.427 67.352 67.292 67.192 67.117 67.017 66.889 66.759 66.624 66.429 66.247 66.054 65.864 65.684 65.537 65.382 65.217 65.039 64.902 64.777 64.634 64.522 64.462 64.357 64.254 64.097 64.037 64.034 64.027 63.957 63.892 63.832 63.812 63.712 63.519 63.389 63.284 63.199 63.114 63.037 63.004 62.974 62.904 62.839 62.769 62.684 62.657 62.577 62.527 62.477 62.464 62.432 62.447 62.447 62.454 62.457 62.407 62.357 62.319 62.284 62.192 62.107 62.017 61.922 61.829 61.744 61.629 61.534 61.419 61.302 61.224 61.134 61.047 60.919 60.824 60.719 60.584 60.467 60.347 60.182 60.017 59.857 59.672 59.517 59.332 59.202 59.017 58.812 58.687 58.632 58.552 59.024 57.592 57.142 57.352 57.979 56.149 55.984 56.412 55.509 55.252 55.624 57.349 55.629 55.257 55.257 54.902 53.854 53.484 53.244 53.694 56.389 57.212 52.327 51.974 51.924 51.802 51.679 51.547 51.427 51.352 51.319 51.359 51.482 51.677 51.854 52.109 52.347 52.652 52.967 53.224 53.517 53.774 54.074 54.329 54.607 54.864 55.114 55.369 55.614 55.874 56.174 56.409 56.787 57.057 57.347 57.657 57.969 58.309 58.597 58.917 59.192 59.472 59.767 60.032 60.282 60.512 60.712 60.927 61.119 61.309 61.419 61.562 61.699 61.817 61.937 62.049 62.152 62.229 62.289 62.359 62.417 62.444 62.487 62.502 62.512 62.509 62.497 62.477 62.427 62.414 62.369 62.334 62.324 62.579 63.267 62.189 62.427 61.852 61.607 61.464 61.374 61.267 61.224 61.167 61.109 61.064 61.042 60.984 60.972 60.957 60.924 60.869 60.777 60.659 60.444 60.279 60.122 60.007 59.934 59.909 59.852 59.779 59.724 59.754 59.747 59.744 59.599 59.539 59.582 59.667 59.702 59.674 59.677 59.699 59.727 59.719 59.777 59.944 60.067 60.177 60.204 60.237 60.279 60.202 60.227 60.327 60.392 60.414 60.414 60.397 60.419 60.404 60.382 60.382 60.464 60.517 60.577 60.639 60.719 60.722 60.782 60.814 60.772 60.704 60.664 60.634 60.572 60.504 60.449 60.337 60.237 60.209 60.164 60.164 60.094 60.089 61.134 60.352 59.787 59.827 59.962 60.037 60.042 60.162 60.147 60.124 60.082 60.047 60.014 59.889 59.877 59.874 59.682 59.527 59.429 59.379 59.352 59.307 59.252 59.222 59.199 59.204 59.197 59.224 59.232 59.254 59.289 59.309 59.367 59.417 59.477 59.487 59.497 59.502 59.509 59.464 59.442 59.399 59.362 59.282 59.254 59.162 59.082 58.974 58.842 58.737 58.652 58.587 58.477 58.369 58.214 58.067 57.899 57.764 57.632 57.562 57.422 57.317 57.284 57.117 57.124 56.514 56.524 56.227 55.974 56.114 56.177 56.212 56.264 56.229 56.169 56.099 56.054 56.019 55.897 55.672 55.559 54.514
72.964 73.312 73.352 73.152 73.289 73.479 72.909 72.952 73.084 73.139 75.577 73.167 76.499 75.414 76.622 75.684 73.394 74.227 73.334 73.347 73.392 73.282 73.324 73.357 73.509 73.484 73.389 73.384 73.984 74.402 74.479 74.632 74.089 73.954 73.469 73.582 73.364 73.389 74.112 73.767 73.199 73.119 73.482 73.634 72.922 72.752 72.614 72.302 72.062 71.622 71.199 71.027 70.522 70.239 70.027 70.117 69.747 69.564 69.424 69.249 69.092 68.927 68.724 68.489 68.144 67.719 67.552 67.469 67.424 67.434 67.469 67.432 67.439 67.419 67.527 67.544 67.452 67.467 67.459 67.419 67.357 67.312 67.264 67.222 67.157 67.122 67.052 66.969 66.874 66.769 66.647 66.517 66.372 66.212 66.024 65.872 65.689 65.472 65.294 65.164 65.014 64.864 64.722 64.592 64.482 64.314 64.207 64.142 64.069 63.974 63.864 63.812 63.792 63.732 63.679 63.617 63.559 63.454 63.252 63.097 62.974 62.919 62.812 62.744 62.737 62.697 62.644 62.602 62.547 62.494 62.414 62.357 62.299 62.234 62.232 62.204 62.197 62.192 62.207 62.222 62.247 62.182 62.134 62.099 62.064 61.947 61.882 61.792 61.699 61.594 61.502 61.417 61.302 61.234 61.127 61.024 60.942 60.829 60.732 60.632 60.524 60.422 60.319 60.182 60.037 59.869 59.727 59.549 59.412 59.264 59.097 58.939 58.829 58.752 59.107 58.227 57.679 57.184 56.817 56.544 56.399 56.104 56.067 56.269 55.767 55.324 55.157 55.532 55.537 55.149 55.157 54.342 53.762 53.287 53.047 52.672 57.047 55.707 51.909 51.714 51.649 51.559 51.452 51.327 51.209 51.142 51.087 51.119 51.237 51.429 51.644 51.912 52.159 52.449 52.722 53.007 53.292 53.587 53.902 54.174 54.459 54.719 54.997 55.292 55.562 55.827 56.104 56.419 56.724 57.037 57.307 57.644 57.979 58.304 58.587 58.887 59.167 59.457 59.749 60.032 60.252 60.494 60.699 60.894 61.079 61.244 61.362 61.504 61.644 61.784 61.879 61.977 62.082 62.177 62.237 62.309 62.324 62.334 62.357 62.377 62.404 62.407 62.367 62.327 62.287 62.264 62.224 62.182 62.189 62.694 64.307 61.814 62.319 61.617 61.419 61.334 61.194 61.092 61.032 60.967 60.874 60.822 60.752 60.747 60.709 60.672 60.642 60.684 60.632 60.502 60.294 60.144 59.977 59.842 59.712 59.642 59.589 59.504 59.527 59.529 59.422 59.359 59.337 59.297 59.304 59.347 59.409 59.377 59.369 59.367 59.394 59.477 59.569 59.752 59.817 59.877 59.902 59.927 59.927 59.889 59.899 60.004 60.087 60.102 60.077 60.094 60.097 60.134 60.124 60.144 60.237 60.299 60.362 60.409 60.457 60.479 60.472 60.467 60.424 60.362 60.349 60.294 60.179 60.142 60.084 59.989 59.904 59.834 59.814 59.839 59.739 59.792 61.004 60.047 59.569 59.562 59.714 59.759 59.774 59.734 59.777 59.727 59.752 59.724 59.767 59.527 59.452 59.339 59.282 59.149 59.054 59.017 59.002 58.974 58.927 58.912 58.907 58.899 58.894 58.927 58.939 58.974 58.992 59.044 59.104 59.144 59.192 59.229 59.217 59.232 59.257 59.234 59.214 59.162 59.124 59.059 58.992 58.919 58.862 58.742 58.629 58.557 58.434 58.344 58.254 58.162 57.982 57.844 57.677 57.517 57.422 57.327 57.229 57.144 57.074 56.917 56.934 56.272 56.157 55.972 55.782 55.892 55.929 56.077 56.147 56.102 55.997 55.934 55.884 55.814 55.659 55.372 54.949 54.274
71.844 72.422 72.714 72.517 72.889 72.964 72.499 72.547 72.622 72.832 73.122 74.242 75.897 73.064 73.122 73.129 73.122 73.182 73.199 73.164 73.214 73.042 73.152 73.104 73.122 73.162 73.097 73.077 73.694 73.974 73.932 74.224 73.854 73.707 73.434 73.262 73.354 73.339 74.424 74.064 72.987 72.897 72.852 72.562 72.324 72.087 71.832 71.494 71.184 70.722 70.397 70.294 69.844 69.612 69.707 69.427 69.284 69.124 68.919 68.717 68.522 68.199 67.842 67.539 67.374 67.334 67.294 67.257 67.249 67.304 67.322 67.282 67.294 67.267 67.222 67.292 67.209 67.192 67.187 67.152 67.072 67.007 66.962 66.922 66.859 66.787 66.719 66.614 66.539 66.417 66.289 66.189 66.027 65.844 65.629 65.479 65.309 65.104 64.954 64.817 64.682 64.559 64.427 64.307 64.152 64.039 63.939 63.874 63.787 63.739 63.669 63.569 63.512 63.434 63.382 63.307 63.227 63.009 62.827 62.697 62.607 62.529 62.479 62.429 62.382 62.364 62.327 62.287 62.269 62.182 62.132 62.099 62.029 62.009 61.974 61.969 61.944 61.969 61.987 62.017 61.987 61.944 61.902 61.862 61.797 61.729 61.644 61.567 61.452 61.364 61.287 61.182 61.112 61.029 60.924 60.824 60.737 60.662 60.559 60.454 60.364 60.244 60.142 60.029 59.867 59.749 59.614 59.454 59.312 59.142 59.034 58.957 58.887 59.457 58.882 57.659 57.359 57.602 56.669 56.609 57.087 56.407 56.157 56.042 55.794 58.064 54.934 55.197 54.652 54.832 54.104 53.814 53.527 53.074 52.797 52.482 52.249 51.712 51.734 51.607 51.387 51.314 51.219 51.102 51.009 50.977 50.919 50.972 51.099 51.264 51.484 51.704 51.979 52.284 52.579 52.832 53.132 53.419 53.729 54.019 54.329 54.614 54.894 55.224 55.484 55.764 56.087 56.369 56.689 57.004 57.324 57.639 57.944 58.272 58.557 58.877 59.184 59.482 59.734 59.999 60.239 60.467 60.657 60.857 61.019 61.177 61.332 61.484 61.592 61.732 61.862 61.912 62.014 62.104 62.167 62.209 62.244 62.274 62.292 62.312 62.289 62.277 62.232 62.184 62.144 62.119 62.059 62.044 62.114 62.674 62.629 61.594 61.879 61.337 61.204 61.122 61.012 60.904 60.834 60.767 60.642 60.579 60.467 60.457 60.432 60.384 60.337 60.409 60.459 60.377 60.194 60.064 59.867 59.694 59.582 59.499 59.422 59.324 59.322 59.277 59.194 59.162 59.079 59.027 58.997 59.042 59.042 59.042 59.052 59.112 59.177 59.234 59.384 59.517 59.529 59.552 59.584 59.632 59.639 59.634 59.669 59.739 59.802 59.832 59.847 59.887 59.867 59.892 59.884 59.949 60.029 60.034 60.147 60.174 60.169 60.182 60.197 60.142 60.109 60.067 59.984 59.884 59.847 59.802 59.754 59.664 59.597 59.544 59.537 59.484 59.339 59.557 60.389 59.444 59.294 59.289 59.412 59.514 59.434 59.399 59.407 59.324 59.357 59.312 59.302 59.147 59.059 59.017 58.857 58.754 58.707 58.649 58.642 58.649 58.609 58.592 58.584 58.597 58.607 58.637 58.649 58.692 58.712 58.777 58.802 58.882 58.909 58.954 58.944 58.959 58.982 58.979 58.972 58.917 58.859 58.819 58.772 58.714 58.629 58.504 58.407 58.354 58.219 58.154 58.029 57.919 57.762 57.612 57.479 57.317 57.219 57.114 57.059 56.937 56.854 56.682 56.164 55.962 55.942 55.747 55.624 55.684 55.699 55.864 55.959 55.954 55.879 55.822 55.734 55.604 55.392 55.087 54.604 53.937
70.719 70.919 71.394 71.624 71.529 71.432 71.532 71.734 72.039 72.192 72.722 72.839 72.594 72.562 72.589 72.619 72.694 72.724 72.772 72.864 73.379 72.762 72.942 72.867 72.857 72.884 72.857 72.899 73.047 73.549 73.592 73.854 73.629 73.424 73.137 73.074 72.854 72.897 72.957 73.519 72.512 72.347 72.049 71.787 71.497 71.272 70.969 71.349 70.302 70.017 69.764 69.579 69.384 69.284 69.184 68.962 68.809 68.602 68.342 67.904 67.579 67.362 67.269 67.212 67.177 67.114 67.099 67.114 67.114 67.107 67.087 67.037 67.037 67.042 66.969 67.034 66.919 66.874 66.857 66.817 66.769 66.702 66.639 66.612 66.579 66.492 66.402 66.269 66.192 66.104 65.977 65.832 65.687 65.504 65.324 65.182 65.012 64.817 64.677 64.544 64.414 64.304 64.154 64.024 63.922 63.837 63.742 63.612 63.517 63.439 63.369 63.237 63.179 63.109 63.007 62.902 62.729 62.542 62.429 62.344 62.239 62.184 62.129 62.094 62.057 62.039 62.029 62.014 61.969 61.929 61.867 61.849 61.807 61.772 61.732 61.724 61.732 61.757 61.787 61.817 61.749 61.702 61.669 61.614 61.547 61.494 61.397 61.284 61.209 61.137 61.077 60.992 60.902 60.802 60.699 60.634 60.557 60.467 60.377 60.279 60.197 60.092 59.979 59.839 59.719 59.617 59.504 59.382 59.199 59.102 59.099 59.119 58.877 58.932 57.847 57.439 59.402 60.894 56.804 56.824 56.884 56.187 56.489 56.199 57.759 55.739 55.712 56.747 54.362 54.369 53.879 53.702 53.297 52.872 52.607 52.259 54.637 54.374 52.677 51.492 51.267 51.127 51.049 50.974 50.897 50.867 50.824 50.874 50.982 51.117 51.322 51.547 51.794 52.099 52.382 52.684 53.004 53.297 53.594 53.904 54.237 54.557 54.827 55.132 55.449 55.724 56.042 56.342 56.637 56.974 57.307 57.629 57.942 58.277 58.589 58.894 59.199 59.489 59.757 60.014 60.254 60.459 60.674 60.827 61.004 61.212 61.359 61.459 61.569 61.714 61.804 61.909 61.959 62.032 62.072 62.137 62.139 62.199 62.209 62.202 62.187 62.124 62.129 62.064 62.039 61.974 61.924 61.909 62.094 62.629 61.774 61.632 61.699 61.114 61.004 60.872 60.794 60.677 60.607 60.507 60.459 60.402 60.217 60.137 60.109 60.042 60.014 60.124 60.164 60.132 60.084 59.969 59.707 59.482 59.362 59.297 59.179 59.092 59.019 58.979 58.894 58.789 58.734 58.717 58.714 58.787 58.759 58.769 58.834 58.882 58.944 59.014 59.134 59.179 59.199 59.217 59.252 59.354 59.329 59.299 59.377 59.392 59.432 59.459 59.512 59.524 59.534 59.569 59.617 59.714 59.742 59.792 59.854 59.867 59.864 59.909 59.899 59.854 59.842 59.787 59.684 59.589 59.542 59.514 59.467 59.332 59.249 59.219 59.219 59.124 59.074 59.349 59.954 59.057 59.022 59.039 59.152 59.204 59.177 59.094 59.082 58.987 59.044 59.034 59.004 58.834 58.679 58.677 58.484 58.392 58.344 58.312 58.319 58.309 58.297 58.284 58.304 58.299 58.322 58.364 58.379 58.427 58.439 58.477 58.504 58.597 58.652 58.682 58.669 58.692 58.689 58.707 58.682 58.677 58.614 58.564 58.512 58.444 58.364 58.269 58.172 58.104 57.992 57.917 57.842 57.694 57.542 57.414 57.264 57.117 57.024 56.927 56.832 56.722 56.657 56.444 55.884 55.777 55.739 55.499 55.439 55.472 55.474 55.639 55.764 55.757 55.692 55.644 55.534 55.384 55.122 54.759 54.337 53.912
69.502 69.607 69.952 70.039 70.044 70.154 70.459 70.824 71.044 70.992 71.342 71.419 71.577 71.577 72.139 71.777 71.814 71.917 73.214 74.692 74.062 72.342 72.307 72.282 72.369 72.204 72.192 72.264 72.467 72.719 72.709 72.589 72.707 72.327 72.137 72.047 72.082 71.987 72.017 71.862 71.624 71.487 71.162 70.969 70.729 70.437 70.134 71.284 72.007 70.299 69.292 69.189 69.217 69.094 68.699 68.414 69.507 68.377 67.429 67.232 67.079 67.019 67.019 66.977 66.962 66.977 66.949 66.949 66.899 66.872 66.847 66.802 66.759 66.737 66.689 66.707 66.654 66.584 66.547 66.507 66.459 66.399 66.339 66.297 66.229 66.182 66.104 65.994 65.927 65.822 65.682 65.559 65.402 65.247 65.094 64.942 64.767 64.562 64.439 64.317 64.197 64.079 63.944 63.824 63.712 63.604 63.482 63.307 63.219 63.084 62.942 62.837 62.744 62.622 62.459 62.382 62.249 62.147 62.052 61.964 61.889 61.842 61.804 61.797 61.767 61.737 61.762 61.739 61.694 61.662 61.619 61.587 61.577 61.542 61.494 61.507 61.517 61.529 61.529 61.549 61.489 61.457 61.439 61.397 61.324 61.214 61.117 61.059 60.989 60.922 60.832 60.757 60.682 60.579 60.484 60.407 60.347 60.257 60.174 60.099 60.017 59.922 59.812 59.707 59.597 59.522 59.399 59.244 59.174 59.164 59.097 59.182 59.677 57.874 57.489 57.162 58.099 57.009 58.027 56.522 57.104 56.712 58.064 56.862 55.744 56.334 55.977 55.387 54.217 53.987 53.732 53.392 52.999 52.654 52.369 52.014 53.162 52.532 50.739 51.167 51.107 51.032 50.884 50.799 50.794 50.769 50.784 50.809 50.894 51.022 51.232 51.477 51.722 52.007 52.254 52.574 52.864 53.204 53.499 53.822 54.167 54.492 54.834 55.117 55.359 55.692 56.004 56.314 56.634 56.937 57.277 57.639 57.947 58.262 58.574 58.849 59.174 59.444 59.734 59.989 60.227 60.427 60.644 60.829 60.977 61.159 61.322 61.457 61.542 61.669 61.764 61.834 61.927 62.007 62.037 62.067 62.134 62.149 62.114 62.102 62.114 62.019 61.989 61.949 61.922 61.824 61.782 61.777 62.159 62.749 61.539 61.537 60.989 60.877 60.709 60.604 60.527 60.444 60.334 60.222 60.207 60.152 60.024 59.864 59.744 59.669 59.624 59.649 59.612 59.717 59.699 59.674 59.457 59.219 59.112 59.027 58.884 58.737 58.652 58.609 58.537 58.429 58.429 58.444 58.462 58.492 58.452 58.479 58.572 58.654 58.679 58.759 58.869 58.837 58.849 58.882 58.892 59.037 59.069 58.969 59.002 59.029 59.112 59.142 59.207 59.202 59.269 59.309 59.379 59.469 59.432 59.502 59.542 59.527 59.562 59.629 59.607 59.609 59.527 59.454 59.379 59.294 59.244 59.212 59.114 59.019 58.994 58.974 58.902 58.862 58.937 59.127 59.804 58.822 58.769 58.802 58.907 58.917 58.787 58.837 58.802 58.639 58.634 58.629 58.557 58.417 58.374 58.279 58.129 58.054 58.029 57.994 57.999 57.984 57.977 58.002 57.994 58.004 58.057 58.074 58.094 58.129 58.177 58.219 58.257 58.322 58.357 58.404 58.399 58.409 58.417 58.414 58.409 58.399 58.357 58.297 58.269 58.217 58.124 58.024 57.924 57.852 57.772 57.704 57.617 57.482 57.344 57.199 57.067 56.904 56.822 56.754 56.644 56.514 56.394 56.092 55.699 55.589 55.499 55.299 55.289 55.269 55.269 55.372 55.479 55.564 55.472 55.382 55.299 55.112 54.814 54.439 54.077 53.722
68.572 68.842 68.844 69.069 69.147 69.222 69.382 69.524 69.934 69.919 69.877 70.217 70.394 70.524 70.537 70.692 70.759 71.034 71.114 73.377 71.447 71.429 71.382 71.382 71.312 71.329 71.299 71.299 71.379 71.492 71.357 71.329 71.467 71.272 71.144 71.059 70.997 71.054 70.957 70.894 70.682 70.539 70.374 70.117 69.917 69.697 69.479 72.474 75.184 71.049 69.044 69.079 68.789 68.399 68.002 67.812 67.429 67.169 67.029 66.917 66.817 66.769 66.839 66.854 66.809 66.779 66.737 66.719 66.654 66.589 66.519 66.482 66.454 66.412 66.379 66.352 66.397 66.272 66.224 66.192 66.149 66.084 66.009 65.977 65.907 65.867 65.792 65.732 65.657 65.562 65.434 65.307 65.164 65.029 64.877 64.709 64.527 64.359 64.259 64.124 64.019 63.927 63.777 63.642 63.492 63.344 63.172 63.012 62.827 62.624 62.479 62.374 62.239 62.127 62.044 61.934 61.849 61.762 61.664 61.612 61.559 61.522 61.489 61.484 61.467 61.477 61.492 61.472 61.427 61.419 61.409 61.387 61.344 61.314 61.279 61.289 61.289 61.309 61.314 61.294 61.242 61.207 61.202 61.147 61.057 60.952 60.872 60.812 60.737 60.657 60.584 60.507 60.432 60.354 60.272 60.179 60.129 60.059 59.992 59.919 59.819 59.732 59.644 59.547 59.494 59.399 59.282 59.254 59.224 59.127 58.962 59.362 57.909 57.557 57.272 57.044 56.979 57.609 56.869 56.454 57.109 56.792 57.599 56.002 55.037 54.857 55.059 54.377 54.154 53.824 53.644 53.362 52.827 52.462 52.142 51.849 53.939 53.764 52.012 50.829 50.882 51.324 52.829 54.739 52.492 50.729 50.807 50.779 50.847 50.957 51.137 51.374 51.624 51.892 52.179 52.504 52.789 53.092 53.419 54.812 56.677 59.607 55.889 55.017 55.317 55.629 55.947 56.264 56.582 56.909 57.254 57.614 57.917 58.222 58.542 58.814 59.092 59.414 59.674 59.944 60.197 60.392 60.639 60.817 61.014 61.164 61.347 61.434 61.557 61.667 61.747 61.819 61.864 61.969 61.992 62.012 62.034 62.059 62.037 62.029 61.987 61.954 61.899 61.834 61.762 61.669 61.607 61.619 62.217 63.164 61.119 61.324 60.682 60.629 60.492 60.394 60.329 60.184 60.034 59.959 59.884 59.877 59.749 59.542 59.367 59.267 59.227 59.164 59.072 59.089 59.134 59.204 59.062 58.954 58.867 58.772 58.624 58.434 58.339 58.259 58.232 58.194 58.162 58.152 58.109 58.144 58.162 58.222 58.294 58.372 58.422 58.484 58.542 58.564 58.549 58.542 58.567 58.669 58.727 58.682 58.629 58.722 58.779 58.829 58.879 58.929 58.987 59.024 59.054 59.132 59.147 59.194 59.229 59.197 59.239 59.279 59.297 59.227 59.182 59.159 59.077 58.997 58.982 58.974 58.874 58.769 58.754 58.707 58.659 58.634 58.722 58.974 59.064 58.569 58.519 58.559 58.712 58.624 58.599 58.572 58.432 58.357 58.284 58.259 58.244 58.112 58.107 57.894 57.804 57.757 57.707 57.687 57.697 57.702 57.677 57.717 57.714 57.764 57.759 57.774 57.827 57.867 57.907 57.952 57.977 58.032 58.084 58.137 58.124 58.139 58.179 58.162 58.157 58.122 58.114 58.059 58.024 57.957 57.914 57.799 57.719 57.667 57.567 57.487 57.424 57.299 57.149 57.012 56.864 56.747 56.642 56.572 56.437 56.239 56.009 55.799 55.532 55.434 55.287 55.102 55.129 55.107 55.094 55.122 55.169 55.189 55.164 55.084 54.989 54.772 54.467 54.117 53.744 53.512
67.844 68.037 68.217 68.524 68.327 68.369 68.457 68.574 68.684 69.422 69.172 69.097 69.319 69.484 69.757 69.769 69.994 70.104 70.094 70.254 70.357 70.439 70.482 70.427 70.472 70.524 70.457 70.434 70.479 70.559 73.959 70.452 70.562 70.404 70.412 70.417 70.544 70.309 70.217 70.202 69.919 69.759 69.662 69.632 69.394 69.172 69.052 69.452 69.309 68.824 68.784 68.592 67.857 67.507 67.157 67.004 66.902 66.777 66.704 66.652 66.689 66.692 66.664 66.629 66.587 66.517 66.467 66.427 66.357 66.287 66.229 66.154 66.124 66.109 66.062 66.012 66.069 65.947 65.892 65.852 65.842 65.777 65.707 65.657 65.597 65.557 65.519 65.447 65.362 65.262 65.162 65.059 64.922 64.799 64.639 64.482 64.319 64.174 64.067 63.959 63.842 63.729 63.574 63.384 63.222 63.082 62.899 62.637 62.392 62.214 62.062 61.954 61.829 61.737 61.634 61.539 61.469 61.402 61.329 61.277 61.224 61.174 61.149 61.169 61.157 61.182 61.192 61.174 61.184 61.174 61.162 61.142 61.114 61.084 61.042 61.052 61.074 61.089 61.079 61.022 60.989 60.994 60.934 60.882 60.789 60.704 60.617 60.584 60.497 60.407 60.327 60.259 60.207 60.122 60.059 59.997 59.922 59.857 59.787 59.697 59.647 59.567 59.504 59.442 59.342 59.292 59.302 59.252 59.124 58.702 58.644 59.974 57.622 57.437 57.132 56.949 56.849 56.767 56.604 56.364 56.107 55.937 55.509 55.162 55.032 54.692 54.424 55.754 54.367 53.624 53.422 53.282 53.222 52.297 51.939 51.657 51.299 54.904 54.979 50.579 50.552 50.587 54.327 53.637 51.294 50.712 50.724 50.674 51.057 50.969 51.032 51.209 51.514 51.802 52.124 52.427 52.772 53.044 59.869 60.707 60.587 59.742 57.204 55.014 55.312 55.639 55.922 56.262 56.647 56.872 57.202 57.564 57.899 58.369 58.574 58.809 59.094 59.382 59.632 59.949 60.149 60.357 60.569 60.762 60.937 61.092 61.282 61.409 61.517 61.567 61.712 61.789 61.834 61.892 61.939 61.954 61.979 61.984 61.964 61.969 61.912 61.857 61.767 61.712 61.664 61.524 61.422 61.442 62.347 62.014 61.049 61.327 60.452 60.319 60.294 60.182 60.042 59.927 59.764 59.654 59.549 59.482 59.384 59.217 59.029 58.897 58.794 58.722 58.619 58.609 58.602 58.627 58.552 58.562 58.562 58.444 58.247 58.069 57.987 57.972 58.019 58.009 57.902 57.807 57.794 57.842 57.857 57.874 57.904 57.977 58.082 58.132 58.189 58.227 58.242 58.257 58.247 58.299 58.389 58.334 58.354 58.419 58.452 58.482 58.562 58.624 58.654 58.699 58.742 58.804 58.867 58.884 58.919 58.904 58.952 58.992 58.989 58.974 58.914 58.894 58.829 58.757 58.764 58.719 58.649 58.587 58.544 58.504 58.494 58.432 58.497 58.744 58.724 58.309 58.259 58.292 58.469 58.329 58.282 58.249 58.174 58.064 57.934 57.889 57.904 57.824 57.792 57.597 57.552 57.424 57.389 57.379 57.417 57.429 57.432 57.439 57.482 57.474 57.522 57.537 57.564 57.597 57.644 57.692 57.724 57.762 57.819 57.864 57.887 57.897 57.919 57.912 57.902 57.869 57.877 57.817 57.797 57.734 57.674 57.567 57.527 57.444 57.344 57.312 57.212 57.092 56.947 56.809 56.659 56.607 56.484 56.427 56.279 56.009 55.712 55.492 55.274 55.184 55.062 54.937 55.024 54.992 54.992 54.977 54.917 54.844 54.812 54.779 54.654 54.482 54.137 53.709 53.294 52.954
66.882 67.112 67.234 67.332 67.369 67.474 67.547 67.667 67.792 68.692 69.442 68.187 68.489 68.537 68.554 68.954 69.044 69.119 69.489 69.902 69.422 69.412 69.419 69.457 69.579 69.727 69.574 69.627 71.834 73.409 72.269 71.792 69.847 69.752 69.714 69.677 69.707 69.654 69.562 69.459 69.392 69.409 69.279 69.169 69.019 68.862 69.382 68.734 68.684 68.619 68.019 67.419 66.964 67.712 69.364 67.414 66.569 66.567 66.537 66.519 66.522 66.464 66.419 66.382 66.327 66.222 66.167 66.094 66.054 65.997 65.942 65.894 65.842 65.812 65.747 65.667 65.727 65.659 65.569 65.562 65.519 65.489 65.417 65.372 65.337 65.294 65.214 65.149 65.077 64.979 64.884 64.777 64.679 64.542 64.384 64.252 64.112 63.987 63.872 63.752 63.642 63.474 63.307 63.149 62.962 62.759 62.519 62.272 62.029 61.854 61.699 61.574 61.462 61.369 61.274 61.187 61.107 61.059 60.994 60.949 60.884 60.874 60.852 60.844 60.857 60.874 60.887 60.887 60.904 60.904 60.902 60.877 60.862 60.849 60.837 60.832 60.839 60.872 60.844 60.774 60.759 60.774 60.734 60.657 60.552 60.457 60.374 60.302 60.222 60.127 60.089 60.059 59.999 59.939 59.854 59.797 59.739 59.662 59.602 59.539 59.502 59.464 59.384 59.294 59.254 59.289 59.274 59.042 58.684 58.327 57.954 57.657 57.412 57.174 56.944 56.827 56.732 56.584 56.404 56.442 56.082 55.807 55.429 55.197 54.899 54.724 54.322 54.787 53.894 53.442 53.162 52.837 52.457 52.179 51.812 51.444 51.062 52.159 49.917 50.364 50.242 51.917 53.612 56.307 52.872 50.394 50.269 50.262 52.249 52.092 51.114 51.157 51.509 51.814 52.187 52.494 52.882 55.584 57.092 60.492 57.737 60.467 55.294 58.242 55.847 56.114 56.152 56.517 57.369 57.314 57.872 58.267 58.312 59.829 59.074 59.339 59.597 59.964 60.077 60.384 62.599 62.167 61.569 61.482 61.277 61.517 61.532 61.772 61.982 61.627 61.669 61.747 61.772 61.832 61.842 61.887 61.917 61.909 61.892 61.839 61.794 61.729 61.667 61.574 61.459 61.329 61.247 61.269 63.534 61.364 61.234 60.952 60.237 60.087 60.042 59.929 59.769 59.599 59.482 59.329 59.242 59.112 58.924 58.817 58.677 58.539 58.387 58.304 58.197 58.157 58.169 58.174 58.052 58.152 58.169 58.062 57.849 57.727 57.682 57.729 57.777 57.809 57.682 57.524 57.492 57.517 57.524 57.527 57.557 57.632 57.719 57.829 57.869 57.897 57.924 57.954 57.949 57.997 58.022 58.032 58.084 58.124 58.124 58.162 58.229 58.274 58.329 58.372 58.402 58.494 58.562 58.597 58.592 58.604 58.729 58.747 58.732 58.712 58.677 58.667 58.584 58.569 58.547 58.534 58.444 58.382 58.352 58.304 58.299 58.264 58.334 58.699 58.414 58.079 58.042 58.069 58.219 58.132 58.004 57.954 57.922 57.787 57.724 57.607 57.574 57.609 57.477 57.377 57.192 57.197 57.169 57.147 57.162 57.184 57.164 57.194 57.224 57.239 57.249 57.292 57.344 57.389 57.407 57.442 57.494 57.532 57.587 57.624 57.652 57.659 57.677 57.679 57.672 57.647 57.642 57.592 57.559 57.489 57.467 57.367 57.302 57.204 57.157 57.107 57.017 56.859 56.714 56.614 56.532 56.464 56.392 56.317 56.187 55.974 56.179 55.574 55.124 54.977 54.864 54.797 54.894 54.887 54.827 54.777 54.702 54.559 54.544 54.469 54.304 54.102 53.694 53.187 52.722 53.742
66.159 66.549 66.659 66.699 66.777 66.814 66.807 66.814 66.939 67.174 67.297 67.332 67.587 67.652 67.702 67.899 68.102 68.239 68.739 68.992 68.624 68.509 68.647 68.699 68.949 68.822 68.867 69.007 69.059 75.004 70.767 73.944 70.107 69.119 69.267 69.127 69.119 69.059 69.027 68.984 69.037 68.939 68.942 68.812 69.382 68.547 68.834 69.497 69.392 67.292 66.892 66.762 66.637 66.562 66.489 66.427 66.427 66.429 66.377 66.327 66.257 66.192 66.149 66.094 66.019 65.939 65.869 65.817 65.749 65.694 65.632 65.602 65.549 65.497 65.454 65.372 65.367 65.374 65.257 65.254 65.242 65.184 65.104 65.077 65.059 65.009 64.917 64.852 64.784 64.709 64.617 64.527 64.382 64.247 64.117 63.994 63.864 63.752 63.624 63.497 63.342 63.222 63.092 62.864 62.639 62.387 62.167 61.939 61.729 61.547 61.357 61.224 61.134 61.022 60.899 60.839 60.789 60.749 60.699 60.669 60.607 60.602 60.579 60.549 60.567 60.602 60.604 60.587 60.612 60.649 60.662 60.649 60.622 60.629 60.609 60.642 60.652 60.637 60.579 60.547 60.562 60.544 60.492 60.397 60.317 60.202 60.102 60.027 59.954 59.912 59.852 59.797 59.762 59.694 59.634 59.579 59.542 59.462 59.414 59.409 59.357 59.287 59.254 59.257 59.289 59.234 58.957 58.604 58.319 58.542 57.657 57.457 57.269 57.052 56.797 56.604 56.424 56.214 56.152 56.327 56.097 55.684 55.417 55.124 54.667 54.472 54.159 54.229 53.624 53.249 53.582 52.727 52.339 52.107 51.699 51.204 50.789 50.289 49.177 49.889 49.747 54.104 54.929 56.164 51.229 49.634 49.284 49.762 50.314 51.274 51.347 51.047 51.354 51.742 52.082 52.372 52.697 54.147 55.292 58.262 59.577 61.129 63.562 57.217 56.102 55.714 56.874 57.052 57.349 57.242 57.979 57.797 58.662 59.462 59.394 59.387 59.594 60.129 61.049 60.964 61.679 61.287 61.774 61.424 61.514 61.709 61.724 62.064 62.009 61.889 62.059 62.047 62.177 62.252 63.682 62.489 61.947 61.917 62.932 61.799 61.727 61.639 61.562 61.487 61.344 61.194 61.117 62.047 62.614 60.817 61.207 60.517 60.089 59.922 59.807 59.679 59.494 59.342 59.169 58.994 58.879 58.687 58.502 58.347 58.209 58.099 57.904 57.812 57.762 57.739 57.799 57.829 57.772 57.802 57.744 57.662 57.542 57.484 57.482 57.554 57.562 57.579 57.422 57.297 57.247 57.254 57.222 57.212 57.212 57.312 57.434 57.552 57.592 57.587 57.629 57.649 57.659 57.742 57.764 57.767 57.794 57.809 57.784 57.799 57.864 57.944 57.984 58.022 58.092 58.197 58.254 58.279 58.292 58.339 58.417 58.422 58.464 58.454 58.422 58.387 58.352 58.339 58.317 58.249 58.184 58.207 58.184 58.104 58.049 58.034 58.099 58.699 58.682 57.844 57.827 57.794 57.907 57.874 57.769 57.629 57.612 57.647 57.544 57.472 57.282 57.324 57.262 57.032 56.939 56.934 56.917 56.894 56.932 56.959 56.962 56.982 57.007 57.039 57.072 57.102 57.159 57.187 57.209 57.229 57.294 57.339 57.389 57.414 57.434 57.444 57.467 57.507 57.472 57.442 57.424 57.394 57.359 57.317 57.279 57.229 57.167 57.089 57.017 56.982 56.889 56.727 56.612 56.479 56.412 56.342 56.314 56.222 56.034 55.892 55.884 55.487 55.167 54.867 54.642 54.632 54.759 54.719 54.652 54.579 54.437 54.319 54.234 54.129 53.984 53.779 54.067 54.204 53.054 55.237
65.679 65.774 65.967 65.919 65.957 65.942 66.097 66.059 66.204 66.274 66.387 66.574 67.239 66.674 66.869 67.029 67.207 67.602 67.619 67.757 67.702 67.812 67.864 67.984 68.024 68.029 68.267 68.754 68.222 72.677 71.887 77.132 70.327 71.032 68.742 68.729 68.677 68.629 68.647 68.642 70.304 68.517 70.339 70.062 70.509 69.899 68.439 67.402 66.804 66.647 66.607 66.499 66.439 66.367 66.309 66.304 66.264 66.202 66.137 66.059 65.967 65.859 65.817 65.742 65.712 65.637 65.589 65.514 65.462 65.407 65.342 65.302 65.247 65.179 65.129 65.062 65.054 65.102 64.957 64.937 64.914 64.859 64.827 64.772 64.772 64.734 64.662 64.579 64.522 64.432 64.327 64.207 64.069 63.927 63.799 63.684 63.594 63.477 63.359 63.229 63.107 62.954 62.747 62.509 62.259 62.024 61.837 61.654 61.434 61.197 61.072 60.944 60.789 60.682 60.607 60.537 60.487 60.437 60.407 60.387 60.319 60.332 60.309 60.302 60.334 60.329 60.379 60.399 60.417 60.432 60.412 60.424 60.387 60.359 60.367 60.397 60.402 60.372 60.332 60.342 60.329 60.297 60.227 60.167 60.074 59.954 59.854 59.789 59.724 59.672 59.619 59.569 59.514 59.497 59.442 59.402 59.322 59.287 59.279 59.229 59.172 59.162 59.227 59.229 59.139 58.844 58.617 58.329 57.962 57.667 57.567 57.512 57.157 56.912 56.697 56.902 56.324 56.307 56.224 56.374 56.179 55.842 55.259 54.792 54.494 54.279 54.099 53.807 53.449 53.137 52.844 52.532 52.287 51.924 51.467 51.057 50.574 50.029 48.994 50.052 50.527 49.337 52.457 54.047 51.067 49.402 48.762 49.252 49.764 50.232 50.624 51.584 51.667 52.547 52.342 52.332 52.644 53.002 54.674 53.684 56.737 61.934 56.332 57.082 55.462 55.677 56.422 56.532 57.569 57.192 59.224 58.059 59.324 59.174 59.184 59.259 59.559 59.967 60.244 60.907 60.472 60.709 60.934 61.152 61.239 61.739 61.594 61.642 61.902 61.849 62.039 61.979 62.652 63.174 62.174 61.987 64.384 62.002 63.339 61.879 61.667 63.122 63.452 61.817 61.562 64.262 61.112 61.147 60.819 61.182 60.982 60.157 59.937 59.724 59.609 59.447 59.234 59.077 58.869 58.679 58.537 58.352 58.142 57.947 57.749 57.564 57.397 57.369 57.339 57.289 57.352 57.467 57.492 57.462 57.369 57.324 57.329 57.344 57.369 57.334 57.277 57.269 57.197 57.099 56.972 56.892 56.889 56.922 56.954 57.059 57.194 57.277 57.297 57.307 57.339 57.292 57.332 57.404 57.439 57.472 57.482 57.472 57.502 57.502 57.552 57.654 57.699 57.764 57.872 57.922 57.972 58.009 58.012 58.084 58.169 58.174 58.232 58.187 58.204 58.187 58.164 58.147 58.104 58.017 57.989 58.029 58.017 57.959 57.902 57.854 57.939 58.887 58.469 57.672 57.622 57.592 57.574 57.569 57.457 57.459 57.402 57.384 57.399 57.277 57.027 57.072 57.027 56.922 56.777 56.744 56.747 56.747 56.757 56.772 56.829 56.842 56.857 56.867 56.937 56.972 57.032 57.052 57.109 57.099 57.174 57.194 57.244 57.249 57.309 57.317 57.374 57.324 57.327 57.302 57.304 57.297 57.254 57.202 57.179 57.109 57.062 57.014 56.952 56.892 56.769 56.632 56.529 56.412 56.309 56.227 56.164 56.039 55.872 57.237 58.912 55.312 55.019 54.772 54.457 54.492 54.574 54.507 54.469 54.349 54.182 53.984 53.872 53.757 53.637 53.427 53.942 52.642 52.047 52.847
65.684 65.612 65.557 65.514 65.544 65.819 65.459 65.447 65.462 65.549 65.617 65.657 65.797 65.809 65.929 66.084 66.324 66.517 66.607 66.912 66.802 66.862 67.042 67.229 67.347 67.397 67.539 67.587 67.689 69.204 68.124 73.914 70.479 69.714 68.354 68.227 68.297 68.412 68.244 68.142 67.994 68.559 71.057 71.384 67.877 67.389 66.587 66.552 66.482 66.427 66.387 66.347 66.279 66.234 66.159 66.119 66.044 65.954 65.869 65.774 65.672 65.542 65.504 65.429 65.394 65.337 65.302 65.197 65.144 65.087 65.024 64.992 64.957 64.874 64.842 64.794 64.729 64.799 64.674 64.622 64.632 64.599 64.582 64.502 64.432 64.384 64.342 64.312 64.242 64.122 63.997 63.864 63.749 63.624 63.499 63.377 63.247 63.154 63.077 62.927 62.762 62.547 62.324 62.119 61.902 61.722 61.514 61.312 61.129 60.934 60.764 60.624 60.502 60.382 60.322 60.242 60.174 60.164 60.114 60.072 60.072 60.047 60.069 60.062 60.092 60.134 60.144 60.202 60.217 60.224 60.202 60.192 60.177 60.157 60.139 60.139 60.132 60.129 60.094 60.117 60.124 60.067 59.982 59.897 59.792 59.692 59.617 59.552 59.487 59.414 59.349 59.329 59.319 59.292 59.249 59.189 59.169 59.162 59.124 59.084 59.122 59.167 59.182 59.042 58.772 58.547 58.334 57.897 57.654 57.589 57.609 57.489 56.932 56.752 56.497 56.347 56.172 56.332 56.209 55.879 55.689 55.662 55.432 54.984 54.299 54.102 53.942 53.657 53.292 52.977 52.722 52.429 52.124 51.744 51.379 50.947 50.414 49.627 48.809 48.384 48.554 49.947 51.072 51.289 50.607 49.332 48.922 49.314 49.779 50.184 50.599 50.977 51.267 51.787 52.339 52.239 52.487 54.464 55.017 53.937 56.637 55.757 55.287 55.197 55.584 55.839 56.664 56.544 57.354 57.137 58.042 57.777 58.219 58.524 58.917 59.312 59.562 59.912 59.994 60.122 60.447 60.569 60.774 61.099 61.209 61.349 61.384 61.522 61.527 61.582 61.692 61.842 63.052 62.417 61.752 61.622 62.584 61.704 61.449 61.302 61.289 63.094 62.947 61.627 61.052 62.137 60.787 60.659 60.839 62.864 61.097 59.887 59.714 59.524 59.392 59.207 59.029 58.829 58.602 58.439 58.257 58.054 57.812 57.582 57.364 57.202 57.014 56.949 56.929 56.897 56.917 57.104 57.174 57.152 57.119 57.079 57.129 57.127 57.172 57.167 57.017 56.957 56.902 56.827 56.629 56.534 56.572 56.584 56.639 56.752 56.887 56.974 56.984 56.992 56.954 56.967 57.027 57.057 57.034 57.044 57.132 57.122 57.169 57.174 57.272 57.387 57.417 57.462 57.504 57.552 57.624 57.702 57.754 57.844 57.919 57.972 58.032 57.992 57.972 58.002 57.984 57.969 57.919 57.869 57.882 57.894 57.879 57.859 57.772 57.692 57.802 58.692 57.864 57.539 57.477 57.409 57.364 57.312 57.282 57.267 57.189 57.209 57.054 56.997 56.899 56.922 56.947 56.734 56.644 56.637 56.647 56.639 56.657 56.672 56.702 56.732 56.772 56.787 56.842 56.879 56.907 56.932 56.992 57.017 57.069 57.052 57.114 57.134 57.159 57.192 57.167 57.169 57.152 57.142 57.129 57.119 57.074 57.047 56.997 56.929 56.887 56.837 56.767 56.724 56.624 56.529 56.422 56.319 56.212 56.149 56.014 55.824 55.644 57.604 57.514 54.972 54.819 54.564 54.317 54.344 54.379 54.322 54.197 54.079 53.914 53.747 53.582 53.422 53.289 53.034 52.497 52.034 52.437 52.547
