ncols 436
nrows 32
xllcorner    457036
yllcorner    88734
cellsize     2
NODATA_value -9999
31.374 31.322 31.289 31.222 31.157 31.112 31.032 30.957 30.924 30.882 30.834 30.769 30.714 30.699 30.654 30.634 30.602 30.544 30.467 30.369 30.302 30.224 30.114 30.039 29.924 29.819 29.747 29.722 29.677 29.637 29.614 29.577 29.549 29.512 29.427 29.354 29.307 -9999 -9999 -9999 -9999 -9999 -9999 -9999 -9999 -9999 -9999 -9999 -9999 -9999 -9999 -9999 -9999 -9999 -9999 -9999 -9999 -9999 -9999 -9999 -9999 -9999 -9999 -9999 -9999 -9999 -9999 -9999 -9999 -9999 -9999 -9999 -9999 -9999 -9999 -9999 -9999 -9999 -9999 -9999 -9999 -9999 -9999 -9999 -9999 -9999 -9999 -9999 -9999 -9999 -9999 -9999 -9999 -9999 -9999 -9999 -9999 -9999 -9999 -9999 -9999 -9999 -9999 -9999 -9999 -9999 -9999 -9999 -9999 -9999 -9999 -9999 -9999 -9999 -9999 -9999 -9999 -9999 -9999 -9999 -9999 -9999 -9999 -9999 -9999 -9999 -9999 -9999 -9999 -9999 -9999 -9999 -9999 -9999 -9999 -9999 -9999 -9999 -9999 30.669 30.707 30.767 30.819 30.889 30.964 31.034 31.069 31.117 31.157 31.182 31.257 31.252 31.312 31.344 31.394 31.419 31.474 31.482 31.507 31.532 31.582 31.634 31.657 31.707 31.727 31.769 31.807 31.817 31.854 31.854 31.879 31.922 31.969 31.989 32.007 32.022 32.032 32.077 32.109 32.137 32.122 32.177 32.182 32.239 32.269 32.274 32.319 32.357 32.412 32.467 32.477 32.507 32.504 32.527 32.539 32.564 32.559 32.577 32.519 32.517 32.509 32.519 32.519 32.529 32.567 32.544 32.559 32.517 32.537 32.547 32.574 32.569 32.614 32.589 32.594 32.607 32.632 32.634 32.647 32.664 32.637 32.632 32.592 32.574 32.564 32.584 32.547 32.512 32.527 32.512 32.517 32.552 32.542 32.574 32.614 32.599 32.574 32.567 32.607 32.614 32.637 32.624 32.647 32.619 32.617 32.602 32.587 32.599 32.597 32.587 32.562 32.537 32.577 32.582 32.579 32.664 32.734 32.784 32.802 32.897 32.969 33.057 33.122 33.182 33.214 33.189 33.167 33.152 33.064 32.974 32.859 32.814 32.772 33.352 33.014 32.504 32.387 32.419 32.442 32.437 32.419 32.457 32.467 32.427 32.449 32.409 32.397 32.379 32.344 32.314 32.282 32.262 32.214 32.199 32.157 32.129 32.112 32.089 32.047 32.017 31.964 31.929 31.899 31.854 31.837 31.799 31.744 31.707 31.652 31.604 31.562 31.542 31.492 31.427 31.372 31.339 31.249 31.192 31.147 31.082 31.037 30.989 30.952 30.872 30.829 30.782 30.719 30.624 30.539 30.439 30.367 30.284 30.232 30.159 30.137 30.069 30.049 30.027 29.989 30.272 30.437 29.994 30.079 30.134 30.199 30.267 30.334 30.374 30.384 30.419 30.489 30.559 30.589 30.674 30.754 30.852 30.942 31.019 31.084 31.184 31.307 31.377 31.434 31.537 31.594 31.669 31.717 31.782 31.852 31.952 32.029 32.089 32.154 32.259 32.374 32.462 32.532 32.642 32.729 32.807 32.897 32.952 32.992 33.067 33.412 33.957 33.612 33.339 33.397 34.334 36.052 34.484 33.732 33.734 33.859 33.792 33.734 33.712 33.799 33.819 33.819 33.852 33.847 33.874 33.894 33.902 33.967 34.032 34.077 34.159 34.164 34.187 34.174 34.242 34.277 34.279 34.329 34.364 34.369 34.357 34.377 34.397 34.439 34.464 34.457 34.457 34.462 34.447 34.402 34.414 34.412 34.434 34.467 34.499 34.509 34.512
31.429 31.362 31.324 31.242 31.184 31.124 31.064 31.014 30.957 30.919 30.907 30.822 30.754 30.722 30.714 30.672 30.649 30.569 30.477 30.394 30.314 30.237 30.102 29.967 29.842 29.744 29.659 29.614 29.597 29.569 29.577 29.554 29.512 29.512 29.469 29.422 29.382 -9999 -9999 -9999 -9999 -9999 -9999 -9999 -9999 -9999 -9999 -9999 -9999 -9999 -9999 -9999 -9999 -9999 -9999 -9999 -9999 -9999 -9999 -9999 -9999 -9999 -9999 -9999 -9999 -9999 -9999 -9999 -9999 -9999 -9999 -9999 -9999 -9999 -9999 -9999 -9999 -9999 -9999 -9999 -9999 -9999 -9999 -9999 -9999 -9999 -9999 -9999 -9999 -9999 -9999 -9999 -9999 -9999 -9999 -9999 -9999 -9999 -9999 -9999 -9999 -9999 -9999 -9999 -9999 -9999 -9999 -9999 -9999 -9999 -9999 -9999 -9999 -9999 -9999 -9999 -9999 -9999 -9999 -9999 -9999 -9999 -9999 -9999 -9999 -9999 -9999 -9999 -9999 -9999 -9999 -9999 -9999 -9999 -9999 -9999 -9999 -9999 -9999 30.732 30.802 30.829 30.902 30.962 31.017 31.092 31.139 31.197 31.237 31.272 31.314 31.354 31.392 31.449 31.494 31.524 31.582 31.594 31.624 31.664 31.702 31.727 31.737 31.767 31.799 31.829 31.882 31.879 31.944 31.932 31.939 31.984 32.047 32.082 32.119 32.122 32.134 32.149 32.184 32.207 32.234 32.242 32.272 32.322 32.364 32.367 32.427 32.459 32.504 32.544 32.567 32.549 32.564 32.599 32.617 32.639 32.642 32.634 32.584 32.567 32.582 32.594 32.619 32.629 32.644 32.634 32.639 32.619 32.614 32.639 32.659 32.667 32.684 32.689 32.687 32.707 32.722 32.719 32.744 32.749 32.744 32.724 32.707 32.677 32.679 32.672 32.662 32.657 32.624 32.624 32.634 32.664 32.679 32.682 32.709 32.712 32.692 32.689 32.724 32.737 32.737 32.742 32.744 32.707 32.717 32.697 32.689 32.707 32.684 32.684 32.667 32.654 32.669 32.684 32.737 32.822 32.879 32.947 32.982 33.079 33.169 33.269 33.304 33.357 33.344 33.287 33.207 33.129 33.019 32.937 32.854 33.027 32.967 32.577 32.487 32.494 32.519 32.507 32.514 32.504 32.492 32.519 32.524 32.499 32.509 32.464 32.447 32.424 32.412 32.392 32.367 32.314 32.287 32.249 32.222 32.209 32.174 32.144 32.092 32.067 32.017 31.987 31.942 31.927 31.909 31.862 31.802 31.762 31.722 31.682 31.642 31.579 31.529 31.494 31.424 31.372 31.339 31.264 31.199 31.157 31.119 31.054 31.009 30.954 30.897 30.829 30.767 30.669 30.592 30.482 30.429 30.342 30.289 30.209 30.152 30.124 30.087 30.029 29.929 30.002 30.532 30.022 30.079 30.159 30.227 30.279 30.327 30.339 30.342 30.404 30.474 30.529 30.577 30.637 30.729 30.799 30.892 30.977 31.067 31.159 31.242 31.329 31.389 31.484 31.559 31.634 31.697 31.759 31.839 31.922 32.017 32.089 32.149 32.212 32.337 32.427 32.477 32.574 32.642 32.754 32.847 32.922 32.977 33.039 33.034 33.344 33.862 33.719 33.404 33.402 33.972 35.164 34.819 34.052 33.862 33.834 33.769 33.702 33.744 33.837 33.849 33.869 33.864 33.867 33.887 33.904 33.982 34.024 34.074 34.144 34.154 34.182 34.177 34.192 34.294 34.312 34.349 34.329 34.349 34.342 34.349 34.379 34.414 34.452 34.442 34.459 34.462 34.467 34.434 34.387 34.377 34.399 34.442 34.472 34.499 34.517
31.457 31.409 31.369 31.299 31.227 31.174 31.097 31.037 30.992 30.989 30.952 30.889 30.799 30.777 30.734 30.692 30.649 30.584 30.467 30.369 30.279 30.157 29.989 29.824 29.684 29.589 29.519 29.449 29.437 29.449 29.482 29.497 29.502 29.499 29.482 29.437 29.409 -9999 -9999 -9999 -9999 -9999 -9999 -9999 -9999 -9999 -9999 -9999 -9999 -9999 -9999 -9999 -9999 -9999 -9999 -9999 -9999 -9999 -9999 -9999 -9999 -9999 -9999 -9999 -9999 -9999 -9999 -9999 -9999 -9999 -9999 -9999 -9999 -9999 -9999 -9999 -9999 -9999 -9999 -9999 -9999 -9999 -9999 -9999 -9999 -9999 -9999 -9999 -9999 -9999 -9999 -9999 -9999 -9999 -9999 -9999 -9999 -9999 -9999 -9999 -9999 -9999 -9999 -9999 -9999 -9999 -9999 -9999 -9999 -9999 -9999 -9999 -9999 -9999 -9999 -9999 -9999 -9999 -9999 -9999 -9999 -9999 -9999 -9999 -9999 -9999 -9999 -9999 -9999 -9999 -9999 -9999 -9999 -9999 -9999 -9999 -9999 -9999 -9999 30.769 30.824 30.867 30.949 30.989 31.034 31.117 31.162 31.209 31.284 31.337 31.362 31.397 31.442 31.517 31.549 31.582 31.624 31.634 31.684 31.687 31.762 31.782 31.794 31.829 31.892 31.942 31.944 31.987 32.012 32.034 32.054 32.087 32.144 32.184 32.219 32.237 32.259 32.252 32.277 32.299 32.344 32.364 32.372 32.434 32.467 32.519 32.562 32.564 32.602 32.652 32.662 32.659 32.697 32.714 32.744 32.752 32.712 32.692 32.667 32.682 32.682 32.659 32.684 32.714 32.707 32.754 32.724 32.729 32.727 32.744 32.792 32.784 32.794 32.812 32.782 32.799 32.819 32.824 32.847 32.857 32.837 32.832 32.814 32.809 32.792 32.797 32.784 32.784 32.747 32.752 32.792 32.817 32.804 32.807 32.834 32.869 32.859 32.857 32.852 32.844 32.847 32.854 32.874 32.852 32.817 32.807 32.767 32.759 32.782 32.789 32.794 32.764 32.782 32.794 32.869 32.952 33.034 33.124 33.182 33.282 33.362 33.429 33.429 33.404 33.344 33.269 33.199 33.127 33.019 32.999 33.537 33.719 33.047 32.624 32.672 32.632 32.644 32.612 32.574 32.559 32.564 32.572 32.564 32.559 32.554 32.512 32.489 32.477 32.474 32.442 32.414 32.354 32.344 32.324 32.289 32.269 32.239 32.202 32.162 32.114 32.057 32.032 31.989 31.952 31.934 31.912 31.844 31.797 31.762 31.732 31.674 31.627 31.557 31.509 31.447 31.382 31.352 31.314 31.244 31.207 31.157 31.102 31.044 31.004 30.937 30.864 30.792 30.709 30.614 30.519 30.442 30.379 30.312 30.229 30.142 30.112 30.119 30.017 29.947 30.154 30.672 30.017 30.082 30.157 30.212 30.244 30.277 30.304 30.324 30.389 30.432 30.484 30.549 30.604 30.692 30.764 30.854 30.932 31.032 31.124 31.174 31.284 31.377 31.449 31.517 31.579 31.679 31.782 31.857 31.927 32.024 32.069 32.162 32.229 32.317 32.399 32.479 32.552 32.599 32.719 32.812 32.887 32.959 33.007 33.027 33.044 33.164 34.054 33.937 33.552 33.379 33.622 34.749 35.934 34.277 33.789 33.722 33.712 33.779 33.872 33.864 33.839 33.869 33.869 33.884 33.904 33.969 34.022 34.067 34.124 34.149 34.154 34.177 34.209 34.272 34.344 34.357 34.334 34.309 34.294 34.332 34.352 34.397 34.447 34.469 34.489 34.482 34.474 34.434 34.397 34.364 34.354 34.399 34.469 34.492 34.524
31.529 31.497 31.427 31.367 31.292 31.224 31.172 31.092 31.057 31.054 31.017 30.944 30.864 30.804 30.754 30.694 30.614 30.512 30.434 30.309 30.184 30.012 29.844 29.657 29.487 29.419 29.364 29.377 29.377 29.367 29.419 29.489 29.529 29.532 29.487 29.442 29.422 29.379 -9999 -9999 -9999 -9999 -9999 -9999 -9999 -9999 -9999 -9999 -9999 -9999 -9999 -9999 -9999 -9999 -9999 -9999 -9999 -9999 -9999 -9999 -9999 -9999 -9999 -9999 -9999 -9999 -9999 -9999 -9999 -9999 -9999 -9999 -9999 -9999 -9999 -9999 -9999 -9999 -9999 -9999 -9999 -9999 -9999 -9999 -9999 -9999 -9999 -9999 -9999 -9999 -9999 -9999 -9999 -9999 -9999 -9999 -9999 -9999 -9999 -9999 -9999 -9999 -9999 -9999 -9999 -9999 -9999 -9999 -9999 -9999 -9999 -9999 -9999 -9999 -9999 -9999 -9999 -9999 -9999 -9999 -9999 -9999 -9999 -9999 -9999 -9999 -9999 -9999 -9999 -9999 -9999 -9999 -9999 -9999 -9999 -9999 -9999 -9999 -9999 30.829 30.864 30.939 30.982 31.032 31.087 31.154 31.199 31.247 31.304 31.334 31.382 31.444 31.517 31.542 31.549 31.607 31.652 31.682 31.732 31.747 31.787 31.819 31.849 31.889 31.947 31.974 31.994 32.062 32.079 32.117 32.119 32.167 32.229 32.247 32.292 32.317 32.342 32.329 32.369 32.399 32.454 32.477 32.482 32.504 32.562 32.617 32.647 32.687 32.739 32.794 32.772 32.762 32.767 32.812 32.832 32.844 32.812 32.774 32.772 32.767 32.784 32.784 32.794 32.794 32.817 32.834 32.834 32.837 32.844 32.869 32.884 32.894 32.894 32.909 32.889 32.927 32.932 32.932 32.919 32.924 32.902 32.899 32.902 32.879 32.884 32.884 32.887 32.894 32.849 32.874 32.892 32.912 32.877 32.914 32.932 32.944 32.947 32.944 32.934 32.947 32.932 32.924 32.924 32.927 32.892 32.894 32.877 32.882 32.892 32.892 32.889 32.857 32.849 32.877 32.967 33.072 33.159 33.257 33.342 33.427 33.492 33.494 33.457 33.384 33.289 33.209 33.164 33.052 32.974 33.619 33.284 32.669 32.634 32.649 32.649 32.659 32.634 32.619 32.624 32.592 32.592 32.614 32.599 32.582 32.559 32.539 32.542 32.507 32.507 32.479 32.462 32.394 32.364 32.357 32.319 32.284 32.277 32.257 32.199 32.164 32.102 32.069 32.019 31.984 31.954 31.912 31.879 31.844 31.804 31.769 31.697 31.617 31.572 31.532 31.489 31.432 31.372 31.324 31.282 31.227 31.202 31.152 31.092 31.029 30.979 30.894 30.832 30.727 30.662 30.572 30.499 30.427 30.342 30.289 30.199 30.167 30.142 30.054 30.004 30.127 30.617 30.074 30.117 30.162 30.187 30.197 30.224 30.262 30.322 30.349 30.387 30.477 30.514 30.582 30.649 30.734 30.822 30.907 30.969 31.064 31.149 31.257 31.317 31.424 31.512 31.599 31.674 31.774 31.872 31.937 32.007 32.072 32.149 32.214 32.299 32.394 32.479 32.522 32.577 32.702 32.749 32.824 32.892 32.947 32.984 33.032 33.072 33.159 33.807 34.237 33.584 33.452 33.579 34.999 34.352 33.737 33.679 33.754 33.794 33.832 33.819 33.847 33.864 33.877 33.889 33.909 33.954 34.012 34.069 34.094 34.119 34.139 34.172 34.207 34.242 34.309 34.349 34.324 34.302 34.272 34.307 34.327 34.369 34.447 34.444 34.467 34.479 34.442 34.427 34.404 34.392 34.377 34.422 34.444 34.479 34.459
31.627 31.589 31.522 31.439 31.419 31.334 31.249 31.187 31.129 31.084 31.022 30.949 30.877 30.797 30.679 30.604 30.504 30.409 30.319 30.197 30.042 29.862 29.692 29.517 29.387 29.387 29.334 29.379 29.374 29.374 29.397 29.459 29.537 29.534 29.514 29.459 29.457 29.404 -9999 -9999 -9999 -9999 -9999 -9999 -9999 -9999 -9999 -9999 -9999 -9999 -9999 -9999 -9999 -9999 -9999 -9999 -9999 -9999 -9999 -9999 -9999 -9999 -9999 -9999 -9999 -9999 -9999 -9999 -9999 -9999 -9999 -9999 -9999 -9999 -9999 -9999 -9999 -9999 -9999 -9999 -9999 -9999 -9999 -9999 -9999 -9999 -9999 -9999 -9999 -9999 -9999 -9999 -9999 -9999 -9999 -9999 -9999 -9999 -9999 -9999 -9999 -9999 -9999 -9999 -9999 -9999 -9999 -9999 -9999 -9999 -9999 -9999 -9999 -9999 -9999 -9999 -9999 -9999 -9999 -9999 -9999 -9999 -9999 -9999 -9999 -9999 -9999 -9999 -9999 -9999 -9999 -9999 -9999 -9999 -9999 -9999 -9999 -9999 -9999 30.869 30.889 30.927 30.994 31.062 31.142 31.209 31.249 31.289 31.299 31.334 31.392 31.462 31.519 31.537 31.569 31.624 31.682 31.697 31.739 31.774 31.822 31.867 31.892 31.927 31.982 32.029 32.057 32.084 32.122 32.162 32.177 32.232 32.279 32.302 32.359 32.384 32.387 32.414 32.454 32.484 32.514 32.524 32.544 32.589 32.614 32.682 32.732 32.779 32.814 32.847 32.809 32.832 32.844 32.864 32.884 32.897 32.894 32.874 32.839 32.857 32.869 32.874 32.879 32.874 32.879 32.894 32.914 32.902 32.922 32.934 32.947 32.947 32.972 32.957 32.987 33.002 32.999 32.969 32.994 32.989 32.969 32.962 32.947 32.977 32.984 32.939 32.982 32.959 32.939 32.957 32.949 32.964 32.952 32.974 33.017 33.034 33.019 33.019 33.004 33.032 33.022 33.002 32.992 32.989 32.977 32.972 32.977 32.964 32.962 32.969 32.967 32.924 32.937 32.987 33.102 33.197 33.304 33.394 33.489 33.542 33.552 33.537 33.462 33.379 33.267 33.197 33.127 33.134 33.494 33.279 32.697 32.629 32.649 32.702 32.677 32.644 32.664 32.639 32.664 32.659 32.659 32.657 32.642 32.604 32.597 32.587 32.587 32.537 32.544 32.507 32.492 32.439 32.384 32.362 32.352 32.324 32.312 32.284 32.237 32.194 32.137 32.099 32.039 32.014 31.979 31.927 31.897 31.867 31.814 31.787 31.727 31.657 31.602 31.567 31.519 31.469 31.399 31.359 31.292 31.249 31.222 31.184 31.124 31.064 30.974 30.919 30.842 30.787 30.689 30.642 30.549 30.457 30.387 30.327 30.232 30.172 30.137 30.097 30.042 30.237 30.817 30.099 30.119 30.182 30.159 30.174 30.199 30.224 30.294 30.347 30.382 30.454 30.502 30.579 30.639 30.722 30.794 30.887 30.962 31.047 31.149 31.274 31.337 31.417 31.502 31.592 31.682 31.772 31.862 31.932 31.999 32.072 32.142 32.214 32.292 32.382 32.477 32.529 32.592 32.667 32.747 32.787 32.817 32.894 32.984 33.047 33.104 33.144 33.222 33.819 34.284 33.804 33.509 33.592 33.722 33.674 33.702 33.754 33.814 33.834 33.867 33.872 33.864 33.892 33.907 33.932 33.994 34.009 34.057 34.077 34.097 34.119 34.144 34.192 34.244 34.282 34.302 34.337 34.322 34.284 34.319 34.342 34.389 34.444 34.439 34.452 34.454 34.439 34.427 34.394 34.422 34.407 34.409 34.424 34.424 34.429
31.702 31.659 31.599 31.559 31.502 31.394 31.299 31.222 31.149 31.084 30.982 30.892 30.812 30.719 30.589 30.472 30.352 30.257 30.139 30.032 29.864 29.702 29.534 29.409 29.332 -9999 -9999 -9999 29.417 29.407 29.364 29.449 29.514 29.559 29.557 29.532 29.474 29.432 -9999 -9999 -9999 -9999 -9999 -9999 -9999 -9999 -9999 -9999 -9999 -9999 -9999 -9999 -9999 -9999 -9999 -9999 -9999 -9999 -9999 -9999 -9999 -9999 -9999 -9999 -9999 -9999 -9999 -9999 -9999 -9999 -9999 -9999 -9999 -9999 -9999 -9999 -9999 -9999 -9999 -9999 -9999 -9999 -9999 -9999 -9999 -9999 -9999 -9999 -9999 -9999 -9999 -9999 -9999 -9999 -9999 -9999 -9999 -9999 -9999 -9999 -9999 -9999 -9999 -9999 -9999 -9999 -9999 -9999 -9999 -9999 -9999 -9999 -9999 -9999 -9999 -9999 -9999 -9999 -9999 -9999 -9999 -9999 -9999 -9999 -9999 -9999 -9999 -9999 -9999 -9999 -9999 -9999 -9999 -9999 -9999 -9999 -9999 -9999 -9999 30.909 30.927 30.962 31.022 31.109 31.174 31.257 31.294 31.332 31.329 31.362 31.419 31.464 31.519 31.557 31.602 31.647 31.687 31.714 31.759 31.817 31.844 31.899 31.912 31.959 32.022 32.029 32.094 32.094 32.149 32.174 32.232 32.264 32.319 32.354 32.394 32.412 32.419 32.452 32.484 32.502 32.562 32.542 32.582 32.629 32.677 32.734 32.777 32.822 32.854 32.892 32.872 32.879 32.892 32.917 32.922 32.949 32.944 32.909 32.909 32.924 32.922 32.937 32.959 32.949 32.954 32.947 32.967 32.967 32.982 32.997 33.019 33.024 33.049 33.014 33.052 33.059 33.072 33.049 33.042 33.029 33.012 33.019 32.999 33.052 33.049 33.017 33.032 33.044 33.042 33.024 32.984 33.024 33.047 33.062 33.084 33.107 33.092 33.052 33.062 33.092 33.092 33.064 33.069 33.064 33.054 33.019 33.057 33.039 33.057 33.044 33.039 33.024 33.047 33.142 33.259 33.379 33.477 33.582 33.649 33.639 33.602 33.547 33.459 33.379 33.264 33.204 33.304 33.924 33.144 32.704 32.704 32.679 32.694 32.712 32.702 32.682 32.689 32.714 32.717 32.714 32.679 32.682 32.657 32.642 32.632 32.634 32.644 32.614 32.597 32.547 32.519 32.497 32.452 32.422 32.399 32.384 32.359 32.347 32.317 32.274 32.209 32.157 32.099 32.064 32.042 31.984 31.959 31.919 31.877 31.859 31.789 31.752 31.692 31.657 31.597 31.529 31.464 31.422 31.352 31.329 31.292 31.262 31.207 31.132 31.029 30.947 30.907 30.827 30.729 30.644 30.579 30.524 30.462 30.374 30.292 30.222 30.177 30.134 30.104 30.242 30.827 30.069 30.067 30.119 30.129 30.157 30.199 30.222 30.292 30.332 30.374 30.449 30.504 30.572 30.639 30.712 30.784 30.864 30.957 31.062 31.164 31.264 31.347 31.409 31.504 31.594 31.687 31.772 31.864 31.924 32.002 32.084 32.154 32.247 32.319 32.414 32.457 32.547 32.592 32.684 32.744 32.802 32.864 32.902 32.969 33.047 33.107 33.177 33.212 33.279 33.337 34.169 33.889 33.589 33.634 33.704 33.727 33.844 33.769 33.767 33.787 33.854 33.864 33.897 33.927 33.969 34.017 34.037 34.042 34.047 34.079 34.092 34.142 34.199 34.234 34.267 34.259 34.309 34.322 34.304 34.322 34.317 34.397 34.427 34.434 34.417 34.442 34.424 34.402 34.372 34.414 34.422 34.409 34.434 34.407 34.384
31.774 31.717 31.642 31.592 31.519 31.392 31.297 31.197 31.097 31.009 30.862 30.782 30.679 30.572 30.454 30.322 30.209 30.102 29.987 29.859 29.697 29.537 29.444 -9999 -9999 -9999 -9999 -9999 -9999 29.342 29.389 29.462 29.512 29.572 29.569 29.552 29.512 29.464 29.406 -9999 -9999 -9999 -9999 -9999 -9999 -9999 -9999 -9999 -9999 -9999 -9999 -9999 -9999 -9999 -9999 -9999 -9999 -9999 -9999 -9999 -9999 -9999 -9999 -9999 -9999 -9999 -9999 -9999 -9999 -9999 -9999 -9999 -9999 -9999 -9999 -9999 -9999 -9999 -9999 -9999 -9999 -9999 -9999 -9999 -9999 -9999 -9999 -9999 -9999 -9999 -9999 -9999 -9999 -9999 -9999 -9999 -9999 -9999 -9999 -9999 -9999 -9999 -9999 -9999 -9999 -9999 -9999 -9999 -9999 -9999 -9999 -9999 -9999 -9999 -9999 -9999 -9999 -9999 -9999 -9999 -9999 -9999 -9999 -9999 -9999 -9999 -9999 -9999 -9999 -9999 -9999 -9999 -9999 -9999 -9999 -9999 -9999 -9999 -9999 30.952 30.979 31.039 31.087 31.162 31.209 31.282 31.347 31.382 31.404 31.427 31.447 31.499 31.539 31.602 31.667 31.684 31.747 31.787 31.814 31.864 31.892 31.939 31.942 31.989 32.029 32.064 32.107 32.167 32.182 32.229 32.284 32.339 32.369 32.417 32.462 32.447 32.447 32.497 32.547 32.567 32.607 32.624 32.639 32.702 32.752 32.782 32.809 32.839 32.879 32.924 32.937 32.969 32.939 32.954 32.957 32.992 32.982 32.942 32.944 32.969 32.999 33.012 33.007 33.022 33.019 32.974 33.007 33.027 33.024 33.037 33.057 33.079 33.104 33.097 33.129 33.137 33.149 33.117 33.117 33.097 33.072 33.089 33.097 33.104 33.107 33.092 33.107 33.117 33.087 33.114 33.077 33.077 33.094 33.124 33.147 33.162 33.162 33.147 33.134 33.144 33.154 33.137 33.144 33.127 33.127 33.107 33.112 33.114 33.117 33.127 33.112 33.137 33.199 33.304 33.464 33.559 33.677 33.742 33.759 33.729 33.642 33.579 33.484 33.389 33.292 33.352 33.939 33.162 32.784 32.782 32.809 32.799 32.774 32.772 32.772 32.797 32.779 32.769 32.762 32.769 32.727 32.734 32.719 32.717 32.694 32.704 32.707 32.682 32.652 32.619 32.602 32.562 32.512 32.477 32.437 32.399 32.412 32.382 32.357 32.317 32.262 32.219 32.189 32.122 32.084 32.044 32.017 32.002 31.962 31.904 31.854 31.802 31.722 31.694 31.642 31.589 31.547 31.499 31.432 31.409 31.339 31.287 31.244 31.174 31.099 31.022 30.949 30.889 30.817 30.742 30.662 30.627 30.534 30.462 30.399 30.332 30.269 30.207 30.139 30.254 30.812 30.047 30.074 30.112 30.142 30.169 30.199 30.232 30.297 30.342 30.399 30.462 30.529 30.584 30.642 30.729 30.792 30.892 30.994 31.114 31.199 31.297 31.382 31.447 31.527 31.627 31.724 31.804 31.884 31.969 32.042 32.084 32.189 32.262 32.329 32.402 32.439 32.499 32.579 32.669 32.722 32.799 32.852 32.897 32.962 33.044 33.097 33.174 33.229 33.292 33.279 33.354 33.777 34.104 33.692 33.674 33.754 34.247 35.989 34.374 33.824 33.842 33.874 33.899 33.954 33.997 34.029 34.064 34.057 34.062 34.062 34.084 34.132 34.177 34.237 34.249 34.277 34.264 34.304 34.334 34.327 34.352 34.402 34.437 34.432 34.434 34.422 34.422 34.424 34.402 34.412 34.432 34.434 34.442 34.404 34.377
31.819 31.719 31.644 31.552 31.442 31.332 31.234 31.119 30.984 30.879 30.717 30.622 30.502 30.384 30.309 30.204 30.072 29.947 29.847 29.702 29.547 29.447 -9999 -9999 -9999 -9999 -9999 -9999 29.384 29.319 29.389 29.472 29.549 29.614 29.607 29.572 29.544 29.494 29.424 -9999 -9999 -9999 -9999 -9999 -9999 -9999 -9999 -9999 -9999 -9999 -9999 -9999 -9999 -9999 -9999 -9999 -9999 -9999 -9999 -9999 -9999 -9999 -9999 -9999 -9999 -9999 -9999 -9999 -9999 -9999 -9999 -9999 -9999 -9999 -9999 -9999 -9999 -9999 -9999 -9999 -9999 -9999 -9999 -9999 -9999 -9999 -9999 -9999 -9999 -9999 -9999 -9999 -9999 -9999 -9999 -9999 -9999 -9999 -9999 -9999 -9999 -9999 -9999 -9999 -9999 -9999 -9999 -9999 -9999 -9999 -9999 -9999 -9999 -9999 -9999 -9999 -9999 -9999 -9999 -9999 -9999 -9999 -9999 -9999 -9999 -9999 -9999 -9999 -9999 -9999 -9999 -9999 -9999 -9999 -9999 -9999 -9999 -9999 -9999 31.009 31.042 31.097 31.152 31.237 31.272 31.354 31.362 31.407 31.444 31.452 31.509 31.529 31.577 31.637 31.682 31.724 31.779 31.827 31.867 31.922 31.927 31.974 32.009 32.034 32.067 32.124 32.164 32.207 32.254 32.309 32.364 32.394 32.457 32.472 32.509 32.537 32.554 32.589 32.642 32.664 32.694 32.712 32.769 32.779 32.822 32.867 32.907 32.934 32.944 32.989 33.014 33.022 33.032 33.044 33.039 33.059 33.094 33.062 33.062 33.084 33.089 33.117 33.099 33.089 33.062 33.049 33.092 33.107 33.109 33.102 33.129 33.172 33.172 33.184 33.214 33.217 33.232 33.194 33.192 33.179 33.164 33.174 33.184 33.182 33.172 33.174 33.197 33.219 33.192 33.219 33.202 33.189 33.199 33.192 33.234 33.232 33.217 33.189 33.207 33.222 33.207 33.204 33.229 33.227 33.212 33.212 33.234 33.202 33.242 33.249 33.247 33.249 33.357 33.479 33.629 33.747 33.832 33.857 33.854 33.784 33.672 33.592 33.454 33.377 33.662 34.192 33.372 32.997 32.927 32.907 32.934 32.927 32.919 32.914 32.897 32.899 32.859 32.837 32.854 32.839 32.804 32.784 32.789 32.779 32.772 32.737 32.744 32.729 32.689 32.664 32.657 32.612 32.564 32.534 32.499 32.474 32.449 32.427 32.389 32.372 32.312 32.284 32.229 32.204 32.154 32.119 32.069 32.049 32.002 31.944 31.922 31.847 31.792 31.757 31.684 31.644 31.597 31.547 31.519 31.454 31.397 31.344 31.284 31.214 31.139 31.047 30.984 30.932 30.887 30.804 30.724 30.662 30.577 30.517 30.452 30.384 30.304 30.249 30.209 30.259 30.897 30.092 30.097 30.154 30.189 30.224 30.252 30.284 30.347 30.384 30.434 30.529 30.599 30.642 30.704 30.779 30.847 30.929 30.997 31.097 31.207 31.304 31.372 31.434 31.552 31.622 31.729 31.834 31.892 31.967 32.057 32.114 32.214 32.289 32.354 32.434 32.494 32.534 32.617 32.672 32.744 32.807 32.872 32.924 33.004 33.069 33.144 33.199 33.272 33.302 33.322 33.367 33.427 33.944 34.382 33.887 33.744 34.092 35.359 36.194 34.409 33.859 33.887 33.912 33.939 33.999 34.039 34.067 34.089 34.077 34.067 34.079 34.127 34.187 34.229 34.262 34.267 34.284 34.297 34.304 34.357 34.379 34.417 34.424 34.422 34.429 34.429 34.427 34.414 34.407 34.427 34.444 34.449 34.464 34.409 34.389
31.807 31.724 31.597 31.449 31.347 31.232 31.104 30.954 30.814 30.682 30.544 30.422 30.324 30.252 30.192 30.102 29.997 29.882 29.764 29.612 29.479 29.374 -9999 -9999 -9999 -9999 -9999 -9999 29.429 29.354 29.462 29.552 29.614 29.657 29.644 29.622 29.567 29.524 29.432 -9999 -9999 -9999 -9999 -9999 -9999 -9999 -9999 -9999 -9999 -9999 -9999 -9999 -9999 -9999 -9999 -9999 -9999 -9999 -9999 -9999 -9999 -9999 -9999 -9999 -9999 -9999 -9999 -9999 -9999 -9999 -9999 -9999 -9999 -9999 -9999 -9999 -9999 -9999 -9999 -9999 -9999 -9999 -9999 -9999 -9999 -9999 -9999 -9999 -9999 -9999 -9999 -9999 -9999 -9999 -9999 -9999 -9999 -9999 -9999 -9999 -9999 -9999 -9999 -9999 -9999 -9999 -9999 -9999 -9999 -9999 -9999 -9999 -9999 -9999 -9999 -9999 -9999 -9999 -9999 -9999 -9999 -9999 -9999 -9999 -9999 -9999 -9999 -9999 -9999 -9999 -9999 -9999 -9999 -9999 -9999 -9999 -9999 -9999 -9999 31.079 31.114 31.184 31.229 31.292 31.357 31.419 31.454 31.497 31.502 31.537 31.559 31.584 31.652 31.697 31.747 31.777 31.812 31.862 31.892 31.949 31.977 32.022 32.062 32.074 32.117 32.182 32.212 32.292 32.324 32.367 32.402 32.452 32.487 32.524 32.584 32.622 32.652 32.674 32.702 32.762 32.777 32.802 32.849 32.897 32.899 32.944 32.992 32.994 33.047 33.079 33.107 33.127 33.109 33.122 33.144 33.154 33.147 33.154 33.159 33.159 33.174 33.182 33.179 33.174 33.157 33.139 33.169 33.187 33.209 33.212 33.219 33.229 33.259 33.294 33.299 33.287 33.314 33.309 33.274 33.277 33.247 33.259 33.254 33.254 33.249 33.239 33.284 33.264 33.292 33.277 33.274 33.294 33.284 33.302 33.307 33.307 33.317 33.304 33.302 33.304 33.324 33.327 33.317 33.319 33.319 33.314 33.304 33.329 33.329 33.342 33.374 33.397 33.509 33.627 33.762 33.869 33.899 33.912 33.882 33.812 33.669 33.542 33.432 33.512 34.242 33.459 33.137 33.077 33.082 33.062 33.072 33.067 33.054 33.052 33.037 33.004 32.969 32.942 32.922 32.904 32.884 32.877 32.847 32.829 32.804 32.792 32.764 32.752 32.754 32.704 32.664 32.617 32.579 32.557 32.519 32.497 32.459 32.457 32.424 32.379 32.359 32.337 32.277 32.249 32.204 32.162 32.132 32.097 32.079 32.012 31.977 31.894 31.832 31.764 31.719 31.684 31.647 31.609 31.572 31.502 31.449 31.397 31.352 31.294 31.224 31.117 31.064 30.994 30.939 30.869 30.804 30.709 30.607 30.522 30.419 30.372 30.327 30.297 30.239 30.272 30.944 30.134 30.127 30.177 30.217 30.262 30.309 30.337 30.394 30.437 30.477 30.532 30.619 30.674 30.739 30.797 30.889 30.954 31.039 31.152 31.237 31.332 31.417 31.494 31.562 31.657 31.744 31.852 31.899 31.999 32.087 32.139 32.207 32.294 32.382 32.432 32.479 32.542 32.592 32.684 32.737 32.799 32.854 32.909 32.984 33.042 33.137 33.189 33.264 33.299 33.322 33.384 33.434 33.484 33.804 34.522 33.947 33.784 33.857 34.722 35.617 34.682 33.894 33.899 33.922 33.972 34.054 34.092 34.099 34.087 34.089 34.117 34.132 34.202 34.224 34.257 34.259 34.269 34.287 34.314 34.342 34.397 34.442 34.449 34.417 34.409 34.412 34.407 34.409 34.419 34.434 34.462 34.477 34.457 34.432 34.387
31.782 31.612 31.457 31.304 31.159 31.052 30.907 30.767 30.634 30.499 30.377 30.297 30.232 30.157 30.127 30.064 29.999 29.857 29.724 29.592 29.459 29.374 -9999 -9999 -9999 -9999 -9999 -9999 29.334 29.362 29.464 29.564 29.639 29.677 29.667 29.647 29.609 29.514 29.479 -9999 -9999 -9999 -9999 -9999 -9999 -9999 -9999 -9999 -9999 -9999 -9999 -9999 -9999 -9999 -9999 -9999 -9999 -9999 -9999 -9999 -9999 -9999 -9999 -9999 -9999 -9999 -9999 -9999 -9999 -9999 -9999 -9999 -9999 -9999 -9999 -9999 -9999 -9999 -9999 -9999 -9999 -9999 -9999 -9999 -9999 -9999 -9999 -9999 -9999 -9999 -9999 -9999 -9999 -9999 -9999 -9999 -9999 -9999 -9999 -9999 -9999 -9999 -9999 -9999 -9999 -9999 -9999 -9999 -9999 -9999 -9999 -9999 -9999 -9999 -9999 -9999 -9999 -9999 -9999 -9999 -9999 -9999 -9999 -9999 -9999 -9999 -9999 -9999 -9999 -9999 -9999 -9999 -9999 -9999 -9999 -9999 -9999 -9999 -9999 31.147 31.147 31.237 31.302 31.352 31.404 31.497 31.512 31.537 31.582 31.594 31.624 31.689 31.719 31.757 31.817 31.862 31.892 31.922 31.959 31.999 32.037 32.099 32.134 32.164 32.199 32.232 32.294 32.342 32.377 32.409 32.429 32.474 32.509 32.559 32.624 32.644 32.687 32.722 32.767 32.812 32.844 32.859 32.912 32.947 32.974 33.014 33.044 33.054 33.087 33.157 33.184 33.197 33.202 33.214 33.232 33.249 33.222 33.237 33.264 33.277 33.284 33.267 33.262 33.267 33.254 33.252 33.264 33.299 33.309 33.314 33.314 33.319 33.362 33.382 33.394 33.402 33.389 33.387 33.352 33.357 33.344 33.342 33.344 33.317 33.312 33.309 33.344 33.352 33.354 33.359 33.367 33.357 33.364 33.382 33.394 33.384 33.399 33.392 33.377 33.424 33.409 33.417 33.419 33.424 33.422 33.404 33.419 33.402 33.439 33.462 33.472 33.527 33.669 33.797 33.929 33.997 33.969 33.939 33.892 33.779 33.632 33.517 33.452 34.102 33.549 33.282 33.219 33.204 33.202 33.209 33.204 33.179 33.144 33.134 33.117 33.084 33.047 33.012 33.004 32.992 32.974 32.987 32.927 32.907 32.894 32.867 32.849 32.854 32.819 32.782 32.724 32.699 32.642 32.612 32.582 32.557 32.554 32.542 32.479 32.454 32.409 32.384 32.322 32.294 32.272 32.232 32.194 32.132 32.082 32.072 32.007 31.932 31.837 31.817 31.774 31.707 31.662 31.629 31.592 31.547 31.497 31.419 31.399 31.304 31.247 31.162 31.107 31.019 30.957 30.889 30.824 30.724 30.634 30.547 30.467 30.397 30.367 30.334 30.284 30.319 31.014 30.189 30.119 30.187 30.202 30.279 30.337 30.362 30.422 30.472 30.534 30.609 30.642 30.714 30.782 30.844 30.937 30.989 31.072 31.177 31.272 31.354 31.419 31.494 31.579 31.682 31.792 31.859 31.919 31.999 32.094 32.187 32.242 32.332 32.394 32.439 32.477 32.542 32.644 32.717 32.777 32.844 32.874 32.917 32.989 33.049 33.137 33.192 33.257 33.267 33.304 33.387 33.447 33.462 33.519 33.734 34.652 34.314 33.859 33.902 34.464 35.417 34.417 33.929 33.922 33.967 34.034 34.084 34.114 34.097 34.109 34.127 34.174 34.207 34.229 34.239 34.232 34.257 34.272 34.299 34.352 34.394 34.449 34.447 34.422 34.434 34.409 34.414 34.432 34.427 34.437 34.477 34.504 34.487 34.432 34.399
31.747 31.527 31.309 31.134 30.977 30.852 30.714 30.619 30.477 30.379 30.279 30.227 30.174 30.117 30.072 30.027 29.979 29.864 29.742 29.599 29.449 29.374 29.414 -9999 -9999 -9999 -9999 -9999 29.344 29.397 29.457 29.584 29.684 29.689 29.687 29.664 29.602 29.557 29.504 29.484 -9999 -9999 -9999 -9999 -9999 -9999 -9999 -9999 -9999 -9999 -9999 -9999 -9999 -9999 -9999 -9999 -9999 -9999 -9999 -9999 -9999 -9999 -9999 -9999 -9999 -9999 -9999 -9999 -9999 -9999 -9999 -9999 -9999 -9999 -9999 -9999 -9999 -9999 -9999 -9999 -9999 -9999 -9999 -9999 -9999 -9999 -9999 -9999 -9999 -9999 -9999 -9999 -9999 -9999 -9999 -9999 -9999 -9999 -9999 -9999 -9999 -9999 -9999 -9999 -9999 -9999 -9999 -9999 -9999 -9999 -9999 -9999 -9999 -9999 -9999 -9999 -9999 -9999 -9999 -9999 -9999 -9999 -9999 -9999 -9999 -9999 -9999 -9999 -9999 -9999 -9999 -9999 -9999 -9999 -9999 -9999 -9999 -9999 -9999 31.184 31.219 31.292 31.352 31.377 31.462 31.527 31.569 31.587 31.614 31.639 31.677 31.727 31.782 31.784 31.854 31.884 31.959 31.972 32.029 32.044 32.092 32.139 32.172 32.212 32.254 32.324 32.387 32.427 32.472 32.502 32.492 32.554 32.602 32.684 32.719 32.737 32.759 32.799 32.834 32.862 32.924 32.952 33.004 33.047 33.067 33.119 33.144 33.169 33.199 33.239 33.252 33.284 33.262 33.317 33.314 33.354 33.369 33.337 33.362 33.404 33.402 33.389 33.392 33.359 33.377 33.364 33.387 33.389 33.402 33.422 33.442 33.444 33.474 33.462 33.482 33.509 33.487 33.487 33.449 33.442 33.459 33.439 33.434 33.434 33.392 33.417 33.439 33.434 33.494 33.472 33.477 33.489 33.492 33.502 33.482 33.504 33.539 33.529 33.509 33.547 33.527 33.527 33.549 33.534 33.532 33.524 33.549 33.562 33.579 33.574 33.609 33.684 33.819 33.979 34.072 34.072 34.024 33.947 33.854 33.727 33.627 33.734 34.454 33.674 33.362 33.382 33.334 33.324 33.322 33.312 33.282 33.252 33.234 33.214 33.199 33.169 33.142 33.124 33.114 33.092 33.059 33.047 33.039 32.994 32.982 32.962 32.952 32.947 32.914 32.874 32.829 32.764 32.747 32.709 32.669 32.662 32.612 32.599 32.559 32.524 32.479 32.432 32.367 32.354 32.324 32.274 32.229 32.194 32.129 32.104 32.047 31.962 31.884 31.844 31.802 31.744 31.722 31.659 31.612 31.564 31.509 31.444 31.409 31.322 31.294 31.197 31.127 31.039 30.977 30.914 30.849 30.744 30.654 30.572 30.487 30.427 30.402 30.397 30.324 30.347 31.062 30.212 30.157 30.207 30.232 30.309 30.352 30.377 30.437 30.489 30.557 30.629 30.687 30.759 30.812 30.854 30.937 30.997 31.087 31.194 31.269 31.359 31.419 31.502 31.589 31.699 31.767 31.857 31.942 32.007 32.099 32.169 32.252 32.334 32.397 32.467 32.497 32.577 32.682 32.754 32.814 32.844 32.902 32.954 33.007 33.087 33.177 33.219 33.259 33.302 33.347 33.414 33.444 33.489 33.514 33.567 33.694 34.342 34.534 34.089 33.947 34.197 34.584 34.412 33.969 33.967 34.027 34.047 34.094 34.122 34.129 34.164 34.207 34.227 34.229 34.242 34.232 34.257 34.277 34.319 34.364 34.402 34.424 34.507 34.494 34.457 34.444 34.394 34.414 34.429 34.429 34.462 34.487 34.459 34.444 34.419
31.622 31.399 31.154 30.974 30.837 30.734 30.604 30.524 30.399 30.307 30.262 30.182 30.142 30.097 30.034 29.999 29.922 29.847 29.744 29.599 29.429 29.324 29.372 -9999 -9999 -9999 -9999 -9999 29.357 29.394 29.474 29.602 29.724 29.769 29.732 29.707 29.652 29.597 29.529 29.507 -9999 -9999 -9999 -9999 -9999 -9999 -9999 -9999 -9999 -9999 -9999 -9999 -9999 -9999 -9999 -9999 -9999 -9999 -9999 -9999 -9999 -9999 -9999 -9999 -9999 -9999 -9999 -9999 -9999 -9999 -9999 -9999 -9999 -9999 -9999 -9999 -9999 -9999 -9999 -9999 -9999 -9999 -9999 -9999 -9999 -9999 -9999 -9999 -9999 -9999 -9999 -9999 -9999 -9999 -9999 -9999 -9999 -9999 -9999 -9999 -9999 -9999 -9999 -9999 -9999 -9999 -9999 -9999 -9999 -9999 -9999 -9999 -9999 -9999 -9999 -9999 -9999 -9999 -9999 -9999 -9999 -9999 -9999 -9999 -9999 -9999 -9999 -9999 -9999 -9999 -9999 -9999 -9999 -9999 -9999 -9999 -9999 -9999 -9999 31.237 31.299 31.352 31.424 31.464 31.517 31.567 31.577 31.622 31.659 31.677 31.724 31.767 31.819 31.849 31.909 31.919 31.999 32.017 32.074 32.129 32.154 32.204 32.237 32.264 32.334 32.374 32.439 32.502 32.544 32.544 32.569 32.632 32.682 32.757 32.779 32.809 32.859 32.867 32.912 32.969 33.009 33.042 33.092 33.134 33.157 33.189 33.222 33.262 33.289 33.324 33.339 33.374 33.367 33.414 33.399 33.427 33.449 33.439 33.472 33.487 33.502 33.497 33.489 33.464 33.459 33.479 33.512 33.524 33.522 33.542 33.532 33.564 33.579 33.577 33.617 33.602 33.594 33.564 33.569 33.539 33.552 33.539 33.527 33.517 33.477 33.529 33.554 33.552 33.582 33.557 33.572 33.592 33.587 33.579 33.602 33.614 33.609 33.609 33.604 33.639 33.619 33.619 33.627 33.622 33.649 33.657 33.642 33.629 33.674 33.677 33.704 33.812 33.977 34.137 34.157 34.112 34.024 33.944 33.822 33.709 33.597 34.112 33.699 33.477 33.459 33.447 33.414 33.404 33.387 33.392 33.357 33.322 33.282 33.269 33.252 33.234 33.199 33.194 33.154 33.137 33.112 33.112 33.067 33.039 33.044 33.002 32.999 32.987 32.952 32.899 32.879 32.799 32.804 32.747 32.734 32.707 32.699 32.664 32.627 32.582 32.549 32.499 32.457 32.424 32.407 32.377 32.312 32.272 32.217 32.159 32.092 32.014 31.969 31.889 31.839 31.789 31.734 31.717 31.654 31.614 31.537 31.479 31.432 31.359 31.314 31.239 31.172 31.087 30.989 30.919 30.859 30.784 30.692 30.592 30.494 30.439 30.452 30.447 30.392 30.379 31.182 30.219 30.172 30.214 30.247 30.347 30.399 30.449 30.494 30.544 30.587 30.659 30.732 30.782 30.862 30.909 30.977 31.022 31.109 31.192 31.294 31.357 31.432 31.499 31.582 31.687 31.772 31.867 31.927 32.012 32.094 32.169 32.252 32.322 32.402 32.464 32.512 32.574 32.674 32.754 32.797 32.837 32.907 32.952 33.012 33.074 33.174 33.239 33.267 33.324 33.357 33.412 33.484 33.497 33.559 33.594 33.614 33.727 34.329 34.572 34.137 33.989 34.104 34.664 35.737 34.237 34.027 34.019 34.072 34.114 34.132 34.172 34.209 34.244 34.264 34.252 34.249 34.247 34.269 34.324 34.367 34.407 34.429 34.487 34.492 34.484 34.422 34.392 34.414 34.414 34.414 34.464 34.464 34.439 34.439 34.407
31.452 31.262 31.057 30.884 30.744 30.657 30.547 30.474 30.377 30.282 30.207 30.187 30.139 30.094 30.057 29.974 29.887 29.809 29.682 29.569 29.432 29.364 29.414 29.376 -9999 -9999 -9999 29.414 29.354 29.412 29.504 29.619 29.714 29.794 29.794 29.757 29.689 29.632 29.584 29.527 -9999 -9999 -9999 -9999 -9999 -9999 -9999 -9999 -9999 -9999 -9999 -9999 -9999 -9999 -9999 -9999 -9999 -9999 -9999 -9999 -9999 -9999 -9999 -9999 -9999 -9999 -9999 -9999 -9999 -9999 -9999 -9999 -9999 -9999 -9999 -9999 -9999 -9999 -9999 -9999 -9999 -9999 -9999 -9999 -9999 -9999 -9999 -9999 -9999 -9999 -9999 -9999 -9999 -9999 -9999 -9999 -9999 -9999 -9999 -9999 -9999 -9999 -9999 -9999 -9999 -9999 -9999 -9999 -9999 -9999 -9999 -9999 -9999 -9999 -9999 -9999 -9999 -9999 -9999 -9999 -9999 -9999 -9999 -9999 -9999 -9999 -9999 -9999 -9999 -9999 -9999 -9999 -9999 -9999 -9999 -9999 -9999 -9999 -9999 31.287 31.322 31.384 31.454 31.509 31.552 31.617 31.624 31.679 31.697 31.727 31.784 31.832 31.857 31.907 31.952 31.984 32.037 32.079 32.147 32.167 32.212 32.252 32.297 32.334 32.364 32.492 32.502 32.572 32.607 32.612 32.647 32.704 32.757 32.827 32.859 32.867 32.914 32.947 33.007 33.029 33.089 33.137 33.174 33.219 33.257 33.302 33.307 33.357 33.392 33.419 33.432 33.452 33.459 33.522 33.494 33.544 33.534 33.552 33.589 33.589 33.607 33.602 33.589 33.549 33.557 33.587 33.604 33.609 33.629 33.634 33.657 33.697 33.702 33.699 33.699 33.717 33.699 33.649 33.639 33.644 33.644 33.629 33.634 33.627 33.584 33.624 33.647 33.649 33.629 33.642 33.654 33.687 33.677 33.674 33.684 33.694 33.692 33.692 33.714 33.729 33.722 33.742 33.737 33.727 33.749 33.762 33.764 33.749 33.807 33.797 33.849 34.009 34.154 34.232 34.214 34.129 34.014 33.937 33.829 33.734 34.222 33.924 33.542 33.544 33.547 33.529 33.529 33.492 33.469 33.449 33.432 33.379 33.357 33.337 33.312 33.279 33.254 33.234 33.202 33.187 33.174 33.142 33.107 33.089 33.069 33.059 33.059 33.037 32.994 32.952 32.904 32.869 32.837 32.789 32.757 32.737 32.707 32.689 32.637 32.619 32.609 32.537 32.517 32.497 32.464 32.439 32.352 32.314 32.274 32.224 32.147 32.069 32.019 31.962 31.909 31.862 31.812 31.792 31.729 31.669 31.604 31.534 31.479 31.419 31.357 31.284 31.197 31.124 31.044 30.959 30.892 30.807 30.717 30.619 30.514 30.462 30.447 30.449 30.407 30.264 31.002 30.294 30.204 30.237 30.257 30.344 30.422 30.489 30.522 30.572 30.629 30.719 30.787 30.834 30.899 30.967 31.042 31.084 31.209 31.292 31.347 31.427 31.477 31.549 31.612 31.719 31.779 31.884 31.949 32.017 32.097 32.157 32.252 32.327 32.409 32.459 32.507 32.597 32.669 32.727 32.787 32.837 32.887 32.952 33.022 33.099 33.157 33.207 33.247 33.287 33.354 33.399 33.462 33.494 33.534 33.582 33.642 33.679 33.734 34.174 34.782 34.212 34.054 34.104 35.002 36.052 34.294 34.047 34.047 34.079 34.112 34.179 34.237 34.267 34.287 34.282 34.264 34.242 34.269 34.314 34.367 34.394 34.432 34.454 34.472 34.477 34.419 34.419 34.392 34.392 34.427 34.447 34.434 34.447 34.429 34.442
31.349 31.149 30.987 30.847 30.719 30.614 30.547 30.467 30.352 30.292 30.229 30.192 30.149 30.072 30.029 29.969 29.887 29.782 29.674 29.542 29.442 29.367 29.392 29.297 29.359 -9999 29.384 29.339 29.362 29.412 29.532 29.669 29.744 29.774 29.794 29.757 29.699 29.634 29.614 29.559 29.519 -9999 -9999 -9999 -9999 -9999 -9999 -9999 -9999 -9999 -9999 -9999 -9999 -9999 -9999 -9999 -9999 -9999 -9999 -9999 -9999 -9999 -9999 -9999 -9999 -9999 -9999 -9999 -9999 -9999 -9999 -9999 -9999 -9999 -9999 -9999 -9999 -9999 -9999 -9999 -9999 -9999 -9999 -9999 -9999 -9999 -9999 -9999 -9999 -9999 -9999 -9999 -9999 -9999 -9999 -9999 -9999 -9999 -9999 -9999 -9999 -9999 -9999 -9999 -9999 -9999 -9999 -9999 -9999 -9999 -9999 -9999 -9999 -9999 -9999 -9999 -9999 -9999 -9999 -9999 -9999 -9999 -9999 -9999 -9999 -9999 -9999 -9999 -9999 -9999 -9999 -9999 -9999 -9999 -9999 -9999 -9999 -9999 -9999 31.314 31.362 31.427 31.489 31.557 31.597 31.652 31.657 31.689 31.722 31.774 31.849 31.879 31.894 31.959 31.997 32.027 32.072 32.127 32.179 32.237 32.254 32.277 32.339 32.394 32.439 32.559 32.604 32.642 32.659 32.677 32.709 32.767 32.829 32.902 32.919 32.952 32.982 33.042 33.084 33.109 33.157 33.219 33.237 33.282 33.342 33.349 33.377 33.414 33.464 33.502 33.519 33.509 33.549 33.574 33.584 33.647 33.622 33.654 33.682 33.707 33.702 33.687 33.677 33.672 33.679 33.692 33.667 33.709 33.719 33.727 33.764 33.792 33.804 33.809 33.812 33.792 33.762 33.729 33.722 33.739 33.742 33.734 33.732 33.704 33.702 33.729 33.717 33.734 33.729 33.744 33.759 33.762 33.767 33.789 33.802 33.787 33.769 33.797 33.797 33.804 33.844 33.837 33.812 33.847 33.862 33.859 33.847 33.899 33.914 33.954 34.032 34.177 34.289 34.314 34.277 34.144 34.024 33.934 33.857 34.274 34.107 33.634 33.619 33.637 33.642 33.602 33.597 33.572 33.544 33.524 33.494 33.459 33.432 33.419 33.404 33.399 33.367 33.332 33.277 33.242 33.219 33.219 33.159 33.154 33.139 33.137 33.104 33.067 33.022 33.002 32.944 32.902 32.854 32.829 32.784 32.769 32.734 32.707 32.687 32.642 32.612 32.554 32.522 32.509 32.464 32.442 32.382 32.362 32.304 32.244 32.162 32.099 32.052 31.982 31.927 31.899 31.884 31.837 31.779 31.714 31.657 31.584 31.524 31.467 31.419 31.317 31.237 31.159 31.052 31.004 30.947 30.857 30.772 30.669 30.537 30.464 30.474 30.482 30.434 30.277 31.057 30.514 30.222 30.257 30.274 30.372 30.434 30.487 30.559 30.612 30.667 30.742 30.792 30.839 30.914 30.992 31.072 31.142 31.249 31.329 31.397 31.469 31.524 31.612 31.692 31.757 31.814 31.894 31.997 32.054 32.124 32.209 32.302 32.379 32.452 32.507 32.569 32.647 32.724 32.767 32.827 32.882 32.947 32.999 33.054 33.139 33.192 33.237 33.264 33.317 33.374 33.427 33.484 33.527 33.557 33.582 33.632 33.697 33.757 33.772 33.937 34.599 34.474 34.097 34.112 34.617 35.834 35.067 34.079 34.084 34.112 34.172 34.247 34.284 34.304 34.287 34.262 34.267 34.279 34.307 34.344 34.394 34.407 34.434 34.432 34.442 34.419 34.417 34.434 34.424 34.429 34.437 34.414 34.402 34.392 34.412
31.304 31.104 30.964 30.844 30.739 30.629 30.549 30.482 30.377 30.292 30.264 30.217 30.162 30.107 30.052 29.992 29.897 29.797 29.702 29.547 29.422 29.384 29.354 29.387 29.394 29.457 29.362 29.369 29.367 29.429 29.544 29.649 29.754 29.787 29.789 29.742 29.689 29.652 29.644 29.559 29.504 -9999 -9999 -9999 -9999 -9999 -9999 -9999 -9999 -9999 -9999 -9999 -9999 -9999 -9999 -9999 -9999 -9999 -9999 -9999 -9999 -9999 -9999 -9999 -9999 -9999 -9999 -9999 -9999 -9999 -9999 -9999 -9999 -9999 -9999 -9999 -9999 -9999 -9999 -9999 -9999 -9999 -9999 -9999 -9999 -9999 -9999 -9999 -9999 -9999 -9999 -9999 -9999 -9999 -9999 -9999 -9999 -9999 -9999 -9999 -9999 -9999 -9999 -9999 -9999 -9999 -9999 -9999 -9999 -9999 -9999 -9999 -9999 -9999 -9999 -9999 -9999 -9999 -9999 -9999 -9999 -9999 -9999 -9999 -9999 -9999 -9999 -9999 -9999 -9999 -9999 -9999 -9999 -9999 -9999 -9999 -9999 -9999 -9999 31.332 31.392 31.454 31.507 31.572 31.617 31.682 31.694 31.712 31.749 31.807 31.864 31.912 31.949 31.989 32.039 32.089 32.112 32.172 32.214 32.267 32.322 32.372 32.387 32.469 32.512 32.597 32.672 32.709 32.717 32.727 32.797 32.862 32.929 32.979 33.012 33.027 33.067 33.124 33.184 33.209 33.244 33.287 33.309 33.367 33.394 33.439 33.462 33.494 33.557 33.599 33.607 33.594 33.607 33.634 33.682 33.722 33.682 33.762 33.774 33.782 33.789 33.792 33.762 33.742 33.764 33.774 33.779 33.802 33.814 33.839 33.879 33.889 33.907 33.899 33.927 33.904 33.859 33.804 33.809 33.819 33.814 33.824 33.807 33.814 33.794 33.804 33.814 33.839 33.842 33.857 33.862 33.844 33.857 33.869 33.874 33.872 33.874 33.882 33.914 33.904 33.929 33.927 33.944 33.939 33.949 33.964 33.972 34.034 34.052 34.112 34.199 34.319 34.417 34.374 34.292 34.142 34.052 33.939 34.247 34.469 33.709 33.719 33.697 33.682 33.709 33.682 33.664 33.639 33.624 33.599 33.569 33.547 33.519 33.482 33.449 33.459 33.429 33.382 33.357 33.307 33.304 33.294 33.249 33.222 33.192 33.182 33.154 33.112 33.102 33.047 32.999 32.959 32.909 32.889 32.859 32.832 32.772 32.764 32.714 32.674 32.637 32.604 32.562 32.517 32.479 32.454 32.402 32.372 32.317 32.252 32.202 32.122 32.069 32.004 31.949 31.929 31.884 31.847 31.779 31.712 31.682 31.599 31.539 31.494 31.409 31.322 31.257 31.164 31.097 31.034 30.942 30.877 30.794 30.714 30.592 30.519 30.517 30.509 30.464 30.354 31.379 30.682 30.279 30.299 30.307 30.372 30.457 30.524 30.567 30.624 30.692 30.762 30.799 30.882 30.952 31.034 31.099 31.184 31.292 31.359 31.427 31.507 31.579 31.649 31.742 31.809 31.867 31.944 32.039 32.097 32.159 32.249 32.342 32.412 32.479 32.539 32.597 32.697 32.732 32.802 32.857 32.922 32.982 33.054 33.109 33.187 33.224 33.254 33.307 33.354 33.407 33.457 33.514 33.542 33.599 33.627 33.649 33.702 33.774 33.817 33.817 33.892 34.414 34.582 34.149 34.114 34.594 36.039 35.289 34.194 34.137 34.172 34.234 34.294 34.334 34.327 34.279 34.292 34.309 34.307 34.349 34.384 34.402 34.417 34.422 34.392 34.392 34.387 34.399 34.409 34.434 34.419 34.399 34.384 34.372 34.384
31.277 31.119 30.962 30.832 30.742 30.642 30.597 30.514 30.407 30.312 30.299 30.259 30.192 30.129 30.079 30.014 29.952 29.859 29.712 29.544 29.449 29.402 29.387 29.357 29.472 29.337 29.344 29.367 29.389 29.484 29.554 29.702 29.792 29.804 29.812 29.762 29.704 29.677 29.654 29.584 29.504 -9999 -9999 -9999 -9999 -9999 -9999 -9999 -9999 -9999 -9999 -9999 -9999 -9999 -9999 -9999 -9999 -9999 -9999 -9999 -9999 -9999 -9999 -9999 -9999 -9999 -9999 -9999 -9999 -9999 -9999 -9999 -9999 -9999 -9999 -9999 -9999 -9999 -9999 -9999 -9999 -9999 -9999 -9999 -9999 -9999 -9999 -9999 -9999 -9999 -9999 -9999 -9999 -9999 -9999 -9999 -9999 -9999 -9999 -9999 -9999 -9999 -9999 -9999 -9999 -9999 -9999 -9999 -9999 -9999 -9999 -9999 -9999 -9999 -9999 -9999 -9999 -9999 -9999 -9999 -9999 -9999 -9999 -9999 -9999 -9999 -9999 -9999 -9999 -9999 -9999 -9999 -9999 -9999 -9999 -9999 -9999 -9999 -9999 31.352 31.439 31.499 31.549 31.624 31.659 31.682 31.704 31.729 31.792 31.832 31.917 31.922 31.972 32.049 32.102 32.147 32.184 32.217 32.264 32.319 32.362 32.427 32.472 32.524 32.587 32.682 32.719 32.769 32.774 32.792 32.859 32.929 33.004 33.037 33.077 33.119 33.144 33.197 33.257 33.289 33.337 33.362 33.407 33.439 33.482 33.512 33.539 33.594 33.642 33.654 33.669 33.677 33.669 33.717 33.774 33.774 33.762 33.809 33.859 33.884 33.864 33.862 33.862 33.837 33.867 33.897 33.892 33.889 33.902 33.927 33.984 33.999 34.007 33.982 33.999 33.974 33.942 33.894 33.887 33.902 33.909 33.914 33.897 33.872 33.907 33.889 33.912 33.947 33.927 33.927 33.942 33.944 33.972 33.972 33.979 33.969 33.989 33.974 34.012 34.007 34.039 34.027 34.032 34.054 34.044 34.057 34.099 34.139 34.214 34.252 34.352 34.454 34.487 34.409 34.284 34.152 34.079 34.134 34.617 33.974 33.789 33.802 33.792 33.782 33.772 33.754 33.734 33.724 33.702 33.669 33.642 33.589 33.557 33.544 33.504 33.507 33.499 33.454 33.429 33.379 33.347 33.319 33.299 33.289 33.269 33.234 33.209 33.169 33.142 33.092 33.044 32.989 32.974 32.944 32.904 32.877 32.867 32.804 32.759 32.727 32.694 32.642 32.604 32.584 32.542 32.504 32.457 32.417 32.364 32.297 32.214 32.152 32.089 32.019 31.992 31.937 31.899 31.869 31.804 31.727 31.682 31.614 31.544 31.494 31.414 31.342 31.264 31.152 31.102 31.037 30.957 30.884 30.812 30.737 30.632 30.562 30.559 30.539 30.499 30.457 31.594 30.747 30.302 30.314 30.337 30.429 30.492 30.559 30.612 30.654 30.707 30.784 30.837 30.912 30.982 31.064 31.114 31.224 31.322 31.412 31.459 31.529 31.609 31.704 31.797 31.877 31.942 31.982 32.067 32.147 32.257 32.302 32.407 32.457 32.499 32.574 32.644 32.709 32.769 32.832 32.897 32.942 33.017 33.109 33.142 33.234 33.277 33.277 33.334 33.392 33.452 33.482 33.527 33.559 33.597 33.629 33.672 33.712 33.759 33.817 33.844 33.844 33.902 34.512 34.869 34.229 34.134 34.394 35.969 36.044 34.274 34.174 34.232 34.264 34.317 34.314 34.304 34.299 34.334 34.344 34.367 34.392 34.394 34.387 34.402 34.374 34.384 34.379 34.409 34.419 34.449 34.419 34.377 34.359 34.352 34.344
31.314 31.127 30.972 30.874 30.767 30.677 30.627 30.517 30.457 30.382 30.324 30.277 30.224 30.192 30.144 30.107 30.017 29.912 29.769 29.599 29.467 29.407 29.359 29.362 29.379 29.362 29.372 29.389 29.417 29.499 29.619 29.727 29.792 29.827 29.829 29.782 29.744 29.699 29.664 29.629 29.517 29.502 -9999 -9999 -9999 -9999 -9999 -9999 -9999 -9999 -9999 -9999 -9999 -9999 -9999 -9999 -9999 -9999 -9999 -9999 -9999 -9999 -9999 -9999 -9999 -9999 -9999 -9999 -9999 -9999 -9999 -9999 -9999 -9999 -9999 -9999 -9999 -9999 -9999 -9999 -9999 -9999 -9999 -9999 -9999 -9999 -9999 -9999 -9999 -9999 -9999 -9999 -9999 -9999 -9999 -9999 -9999 -9999 -9999 -9999 -9999 -9999 -9999 -9999 -9999 -9999 -9999 -9999 -9999 -9999 -9999 -9999 -9999 -9999 -9999 -9999 -9999 -9999 -9999 -9999 -9999 -9999 -9999 -9999 -9999 -9999 -9999 -9999 -9999 -9999 -9999 -9999 -9999 -9999 -9999 -9999 -9999 -9999 -9999 31.387 31.449 31.514 31.589 31.639 31.664 31.712 31.714 31.777 31.829 31.894 31.924 31.959 32.034 32.084 32.137 32.172 32.222 32.267 32.322 32.369 32.447 32.459 32.524 32.587 32.659 32.727 32.789 32.814 32.839 32.872 32.944 33.009 33.099 33.107 33.169 33.192 33.227 33.279 33.329 33.377 33.404 33.444 33.494 33.539 33.564 33.607 33.632 33.659 33.704 33.727 33.754 33.784 33.787 33.792 33.854 33.857 33.867 33.924 33.949 33.959 33.942 33.949 33.929 33.942 33.999 33.989 33.987 34.002 34.004 34.032 34.074 34.107 34.099 34.074 34.089 34.062 34.034 33.984 33.977 33.987 33.989 33.984 33.992 33.947 33.999 33.992 34.002 34.037 34.024 34.019 34.007 34.044 34.054 34.074 34.074 34.067 34.082 34.077 34.114 34.137 34.132 34.137 34.129 34.157 34.172 34.169 34.202 34.259 34.279 34.362 34.497 34.554 34.502 34.412 34.287 34.192 34.124 34.684 34.039 33.917 33.867 33.849 33.854 33.859 33.837 33.814 33.799 33.789 33.767 33.737 33.699 33.657 33.629 33.604 33.557 33.542 33.552 33.474 33.472 33.437 33.387 33.382 33.342 33.322 33.327 33.289 33.252 33.222 33.199 33.142 33.079 33.039 33.012 32.989 32.947 32.924 32.892 32.862 32.827 32.779 32.739 32.702 32.657 32.609 32.589 32.549 32.497 32.452 32.402 32.324 32.257 32.197 32.129 32.074 32.027 31.997 31.944 31.897 31.822 31.774 31.704 31.657 31.577 31.527 31.452 31.369 31.304 31.192 31.122 31.047 30.989 30.927 30.849 30.739 30.669 30.602 30.572 30.562 30.557 30.484 31.619 30.789 30.309 30.347 30.387 30.452 30.522 30.599 30.652 30.699 30.764 30.827 30.869 30.932 31.019 31.092 31.162 31.269 31.342 31.437 31.477 31.549 31.649 31.764 31.827 31.892 31.969 32.027 32.137 32.204 32.289 32.357 32.434 32.467 32.519 32.604 32.672 32.764 32.797 32.882 32.952 32.982 33.047 33.129 33.194 33.264 33.299 33.309 33.369 33.444 33.494 33.542 33.549 33.589 33.624 33.657 33.702 33.764 33.784 33.817 33.859 33.872 33.904 33.942 34.322 35.009 34.257 34.192 34.477 35.487 35.664 34.414 34.274 34.282 34.324 34.319 34.334 34.344 34.369 34.359 34.392 34.412 34.404 34.404 34.372 34.354 34.384 34.379 34.429 34.452 34.444 34.442 34.392 34.349 34.332 34.354
31.384 31.159 30.999 30.877 30.804 30.692 30.654 30.534 30.469 30.402 30.359 30.302 30.264 30.242 30.182 30.147 30.082 29.977 29.827 29.664 29.537 29.492 29.432 29.422 29.397 29.409 29.447 29.467 29.517 29.599 29.689 29.812 29.842 29.862 29.854 29.779 29.757 29.712 29.697 29.624 29.557 29.509 -9999 -9999 -9999 -9999 -9999 -9999 -9999 -9999 -9999 -9999 -9999 -9999 -9999 -9999 -9999 -9999 -9999 -9999 -9999 -9999 -9999 -9999 -9999 -9999 -9999 -9999 -9999 -9999 -9999 -9999 -9999 -9999 -9999 -9999 -9999 -9999 -9999 -9999 -9999 -9999 -9999 -9999 -9999 -9999 -9999 -9999 -9999 -9999 -9999 -9999 -9999 -9999 -9999 -9999 -9999 -9999 -9999 -9999 -9999 -9999 -9999 -9999 -9999 -9999 -9999 -9999 -9999 -9999 -9999 -9999 -9999 -9999 -9999 -9999 -9999 -9999 -9999 -9999 -9999 -9999 -9999 -9999 -9999 -9999 -9999 -9999 -9999 -9999 -9999 -9999 -9999 -9999 -9999 -9999 -9999 -9999 -9999 31.429 31.502 31.539 31.609 31.672 31.687 31.722 31.759 31.804 31.852 31.917 31.957 32.024 32.102 32.137 32.189 32.234 32.292 32.322 32.337 32.387 32.469 32.522 32.582 32.669 32.729 32.802 32.852 32.872 32.902 32.949 33.022 33.097 33.154 33.197 33.229 33.274 33.304 33.342 33.399 33.449 33.474 33.542 33.572 33.617 33.642 33.697 33.729 33.762 33.794 33.807 33.832 33.879 33.869 33.919 33.912 33.947 33.999 34.014 34.024 34.042 34.019 34.032 34.019 34.037 34.074 34.069 34.079 34.119 34.139 34.124 34.199 34.192 34.197 34.207 34.197 34.159 34.114 34.077 34.102 34.089 34.067 34.074 34.052 34.067 34.084 34.089 34.094 34.107 34.104 34.122 34.127 34.157 34.147 34.169 34.194 34.174 34.194 34.192 34.219 34.234 34.234 34.229 34.239 34.264 34.262 34.269 34.277 34.332 34.424 34.489 34.569 34.589 34.524 34.397 34.299 34.189 34.607 34.407 34.007 34.024 33.972 33.934 33.929 33.932 33.909 33.889 33.872 33.864 33.842 33.817 33.769 33.737 33.709 33.664 33.644 33.619 33.619 33.557 33.522 33.487 33.457 33.444 33.404 33.394 33.374 33.334 33.294 33.277 33.247 33.172 33.132 33.084 33.049 33.024 33.019 32.964 32.942 32.917 32.872 32.832 32.772 32.724 32.704 32.642 32.619 32.579 32.532 32.494 32.447 32.384 32.307 32.239 32.169 32.089 32.059 32.027 31.992 31.922 31.849 31.812 31.734 31.682 31.629 31.567 31.494 31.419 31.314 31.239 31.179 31.102 31.034 30.929 30.879 30.792 30.709 30.659 30.634 30.604 30.599 30.524 31.587 30.799 30.347 30.357 30.419 30.494 30.552 30.624 30.679 30.724 30.804 30.869 30.914 30.992 31.052 31.102 31.189 31.312 31.382 31.462 31.522 31.627 31.694 31.802 31.859 31.927 32.012 32.062 32.169 32.234 32.322 32.399 32.467 32.509 32.559 32.654 32.737 32.789 32.849 32.919 32.989 33.009 33.089 33.177 33.247 33.297 33.322 33.334 33.389 33.459 33.522 33.547 33.574 33.599 33.649 33.697 33.729 33.769 33.812 33.844 33.847 33.897 33.919 33.979 34.009 34.332 34.857 34.487 34.239 34.314 35.429 36.459 35.407 34.309 34.294 34.319 34.369 34.374 34.384 34.404 34.422 34.424 34.427 34.392 34.387 34.359 34.404 34.407 34.464 34.469 34.457 34.449 34.397 34.382 34.362 34.347
31.442 31.252 31.079 30.969 30.882 30.794 30.694 30.572 30.512 30.442 30.392 30.332 30.314 30.267 30.239 30.217 30.189 30.084 29.939 29.787 29.679 29.649 29.584 29.574 29.549 29.557 29.604 29.642 29.684 29.742 29.799 29.864 29.914 29.919 29.857 29.809 29.759 29.717 29.709 29.612 29.582 29.507 29.479 -9999 -9999 -9999 -9999 -9999 -9999 -9999 -9999 -9999 -9999 -9999 -9999 -9999 -9999 -9999 -9999 -9999 -9999 -9999 -9999 -9999 -9999 -9999 -9999 -9999 -9999 -9999 -9999 -9999 -9999 -9999 -9999 -9999 -9999 -9999 -9999 -9999 -9999 -9999 -9999 -9999 -9999 -9999 -9999 -9999 -9999 -9999 -9999 -9999 -9999 -9999 -9999 -9999 -9999 -9999 -9999 -9999 -9999 -9999 -9999 -9999 -9999 -9999 -9999 -9999 -9999 -9999 -9999 -9999 -9999 -9999 -9999 -9999 -9999 -9999 -9999 -9999 -9999 -9999 -9999 -9999 -9999 -9999 -9999 -9999 -9999 -9999 -9999 -9999 -9999 -9999 -9999 -9999 -9999 -9999 31.424 31.439 31.522 31.552 31.602 31.679 31.702 31.734 31.804 31.837 31.879 31.949 32.007 32.054 32.129 32.177 32.237 32.284 32.354 32.379 32.419 32.449 32.499 32.564 32.642 32.709 32.792 32.849 32.889 32.924 32.942 33.012 33.109 33.174 33.199 33.242 33.294 33.337 33.379 33.424 33.502 33.514 33.582 33.624 33.669 33.684 33.719 33.759 33.799 33.844 33.872 33.897 33.894 33.924 33.942 33.987 34.017 34.024 34.077 34.107 34.107 34.112 34.099 34.112 34.117 34.157 34.177 34.162 34.172 34.209 34.224 34.252 34.264 34.289 34.289 34.287 34.284 34.229 34.204 34.172 34.167 34.169 34.167 34.177 34.152 34.144 34.152 34.187 34.192 34.194 34.192 34.207 34.232 34.227 34.249 34.254 34.282 34.264 34.294 34.337 34.332 34.327 34.329 34.334 34.364 34.359 34.364 34.362 34.387 34.442 34.509 34.557 34.594 34.594 34.494 34.402 34.319 34.587 34.767 34.122 34.124 34.107 34.077 34.024 33.987 33.977 33.984 33.942 33.937 33.947 33.897 33.862 33.842 33.799 33.769 33.737 33.727 33.689 33.677 33.632 33.577 33.537 33.524 33.487 33.449 33.429 33.409 33.389 33.352 33.302 33.289 33.229 33.177 33.137 33.097 33.082 33.037 32.997 32.984 32.957 32.917 32.859 32.822 32.767 32.719 32.697 32.652 32.599 32.567 32.522 32.459 32.382 32.337 32.267 32.192 32.129 32.054 32.037 32.002 31.952 31.894 31.832 31.762 31.714 31.642 31.589 31.514 31.439 31.362 31.277 31.179 31.122 31.062 30.967 30.887 30.794 30.739 30.689 30.677 30.647 30.619 30.497 30.992 30.907 30.367 30.374 30.442 30.532 30.584 30.639 30.709 30.774 30.832 30.884 30.939 31.014 31.077 31.127 31.219 31.334 31.419 31.487 31.559 31.679 31.759 31.862 31.909 31.977 32.054 32.107 32.194 32.252 32.352 32.437 32.509 32.564 32.619 32.679 32.772 32.832 32.899 32.967 33.002 33.054 33.122 33.214 33.262 33.317 33.357 33.384 33.437 33.497 33.517 33.569 33.617 33.614 33.669 33.709 33.772 33.814 33.864 33.869 33.867 33.907 33.954 33.999 34.024 34.049 34.202 34.949 34.597 34.262 34.322 34.894 36.522 35.234 34.422 34.329 34.369 34.379 34.399 34.437 34.457 34.444 34.434 34.397 34.382 34.379 34.374 34.414 34.447 34.454 34.454 34.467 34.399 34.402 34.372 34.354
31.517 31.289 31.147 31.042 30.922 30.874 30.764 30.652 30.584 30.514 30.462 30.412 30.394 30.357 30.362 30.357 30.327 30.239 30.099 29.982 29.919 29.874 29.789 29.764 29.772 29.757 29.799 29.842 29.867 29.904 29.947 29.962 29.977 29.969 29.912 29.847 29.797 29.779 29.742 29.634 29.602 29.532 29.487 -9999 -9999 -9999 -9999 -9999 -9999 -9999 -9999 -9999 -9999 -9999 -9999 -9999 -9999 -9999 -9999 -9999 -9999 -9999 -9999 -9999 -9999 -9999 -9999 -9999 -9999 -9999 -9999 -9999 -9999 -9999 -9999 -9999 -9999 -9999 -9999 -9999 -9999 -9999 -9999 -9999 -9999 -9999 -9999 -9999 -9999 -9999 -9999 -9999 -9999 -9999 -9999 -9999 -9999 -9999 -9999 -9999 -9999 -9999 -9999 -9999 -9999 -9999 -9999 -9999 -9999 -9999 -9999 -9999 -9999 -9999 -9999 -9999 -9999 -9999 -9999 -9999 -9999 -9999 -9999 -9999 -9999 -9999 -9999 -9999 -9999 -9999 -9999 -9999 -9999 -9999 -9999 -9999 -9999 -9999 31.419 31.439 31.519 31.582 31.652 31.682 31.712 31.739 31.797 31.854 31.932 32.004 32.024 32.094 32.192 32.224 32.274 32.327 32.379 32.414 32.447 32.487 32.539 32.617 32.694 32.757 32.829 32.894 32.954 32.984 33.019 33.074 33.162 33.209 33.267 33.302 33.377 33.407 33.429 33.497 33.547 33.599 33.652 33.684 33.727 33.759 33.799 33.837 33.887 33.949 33.954 33.967 34.002 34.034 34.034 34.099 34.099 34.114 34.154 34.184 34.197 34.189 34.184 34.199 34.204 34.247 34.254 34.232 34.272 34.279 34.319 34.354 34.369 34.364 34.392 34.369 34.339 34.302 34.294 34.282 34.262 34.272 34.254 34.234 34.207 34.227 34.237 34.242 34.262 34.289 34.294 34.292 34.309 34.302 34.349 34.357 34.337 34.377 34.384 34.399 34.409 34.407 34.449 34.469 34.477 34.474 34.484 34.467 34.492 34.527 34.587 34.614 34.629 34.577 34.512 34.414 34.477 35.107 34.254 34.204 34.204 34.182 34.164 34.104 34.092 34.059 34.029 34.029 34.002 33.984 33.964 33.924 33.904 33.857 33.842 33.809 33.782 33.759 33.724 33.689 33.647 33.614 33.567 33.532 33.484 33.487 33.479 33.427 33.404 33.339 33.314 33.272 33.217 33.172 33.147 33.114 33.079 33.049 33.022 32.987 32.957 32.892 32.874 32.814 32.754 32.712 32.684 32.649 32.619 32.569 32.489 32.417 32.349 32.272 32.194 32.134 32.092 32.074 32.012 31.944 31.924 31.864 31.794 31.719 31.667 31.599 31.537 31.457 31.382 31.314 31.212 31.134 31.047 30.969 30.902 30.832 30.762 30.707 30.694 30.679 30.632 30.492 30.959 30.957 30.387 30.402 30.459 30.562 30.617 30.679 30.737 30.809 30.867 30.912 30.969 31.049 31.089 31.154 31.257 31.367 31.439 31.532 31.587 31.709 31.804 31.859 31.917 31.994 32.089 32.154 32.242 32.289 32.392 32.484 32.532 32.599 32.639 32.739 32.807 32.869 32.919 32.979 33.049 33.102 33.174 33.234 33.299 33.352 33.389 33.412 33.484 33.529 33.582 33.589 33.634 33.637 33.687 33.742 33.787 33.824 33.862 33.892 33.909 33.954 34.004 34.029 34.062 34.087 34.092 34.157 35.029 34.834 34.359 34.362 34.729 35.664 35.637 34.419 34.349 34.362 34.389 34.439 34.464 34.479 34.434 34.419 34.409 34.382 34.409 34.434 34.452 34.459 34.464 34.464 34.422 34.394 34.367 34.389
31.492 31.314 31.172 31.094 31.012 30.949 30.854 30.754 30.679 30.617 30.589 30.582 30.587 30.544 30.547 30.572 30.549 30.457 30.344 30.257 30.204 30.129 30.074 30.049 30.004 30.017 30.029 30.067 30.062 30.057 30.052 30.037 30.032 29.994 29.944 29.879 29.827 29.824 29.734 29.667 29.637 29.552 29.504 -9999 -9999 -9999 -9999 -9999 -9999 -9999 -9999 -9999 -9999 -9999 -9999 -9999 -9999 -9999 -9999 -9999 -9999 -9999 -9999 -9999 -9999 -9999 -9999 -9999 -9999 -9999 -9999 -9999 -9999 -9999 -9999 -9999 -9999 -9999 -9999 -9999 -9999 -9999 -9999 -9999 -9999 -9999 -9999 -9999 -9999 -9999 -9999 -9999 -9999 -9999 -9999 -9999 -9999 -9999 -9999 -9999 -9999 -9999 -9999 -9999 -9999 -9999 -9999 -9999 -9999 -9999 -9999 -9999 -9999 -9999 -9999 -9999 -9999 -9999 -9999 -9999 -9999 -9999 -9999 -9999 -9999 -9999 -9999 -9999 -9999 -9999 -9999 -9999 -9999 -9999 -9999 -9999 -9999 -9999 31.429 31.474 31.544 31.612 31.627 31.697 31.729 31.752 31.812 31.887 31.954 32.049 32.082 32.157 32.227 32.279 32.334 32.354 32.419 32.457 32.484 32.559 32.599 32.659 32.749 32.812 32.874 32.954 33.004 33.034 33.044 33.137 33.227 33.287 33.312 33.367 33.424 33.457 33.519 33.574 33.614 33.664 33.714 33.739 33.799 33.837 33.869 33.907 33.962 34.007 34.024 34.067 34.089 34.114 34.127 34.179 34.189 34.217 34.224 34.274 34.277 34.274 34.282 34.302 34.319 34.337 34.329 34.349 34.367 34.387 34.417 34.452 34.492 34.492 34.482 34.447 34.429 34.379 34.384 34.369 34.362 34.364 34.352 34.334 34.294 34.342 34.342 34.327 34.359 34.364 34.362 34.382 34.389 34.394 34.399 34.449 34.444 34.469 34.462 34.489 34.509 34.507 34.524 34.537 34.579 34.594 34.567 34.577 34.624 34.612 34.627 34.639 34.612 34.572 34.534 34.519 35.302 34.567 34.264 34.279 34.274 34.229 34.209 34.164 34.142 34.104 34.107 34.107 34.087 34.059 34.047 34.007 33.979 33.954 33.909 33.884 33.852 33.824 33.779 33.734 33.722 33.667 33.594 33.582 33.567 33.544 33.509 33.484 33.432 33.402 33.344 33.309 33.259 33.214 33.179 33.149 33.112 33.077 33.039 33.002 32.964 32.922 32.904 32.854 32.814 32.739 32.699 32.694 32.664 32.604 32.534 32.472 32.394 32.317 32.242 32.167 32.142 32.087 32.064 31.994 31.917 31.872 31.827 31.747 31.694 31.639 31.562 31.492 31.419 31.342 31.242 31.164 31.069 30.994 30.937 30.847 30.789 30.737 30.732 30.717 30.652 30.519 30.897 30.977 30.437 30.442 30.462 30.592 30.654 30.727 30.797 30.842 30.882 30.937 30.992 31.064 31.129 31.189 31.317 31.414 31.507 31.554 31.634 31.752 31.837 31.922 31.962 32.049 32.127 32.182 32.259 32.347 32.427 32.512 32.552 32.612 32.672 32.764 32.854 32.884 32.962 32.999 33.057 33.124 33.204 33.294 33.339 33.372 33.399 33.444 33.529 33.589 33.599 33.604 33.654 33.679 33.722 33.767 33.799 33.852 33.884 33.914 33.937 33.989 34.049 34.074 34.104 34.122 34.142 34.137 34.199 35.102 35.177 34.442 34.409 34.747 36.377 35.574 34.502 34.362 34.402 34.444 34.469 34.457 34.479 34.444 34.424 34.422 34.429 34.424 34.442 34.444 34.432 34.434 34.409 34.409 34.389 34.382
31.467 31.314 31.212 31.157 31.089 31.069 30.959 30.902 30.854 30.814 30.802 30.807 30.794 30.734 30.782 30.794 30.779 30.694 30.597 30.522 30.464 30.414 30.344 30.292 30.249 30.229 30.209 30.219 30.224 30.197 30.142 30.104 30.082 30.029 29.972 29.892 29.874 29.809 29.744 29.697 29.642 29.594 29.552 -9999 -9999 -9999 -9999 -9999 -9999 -9999 -9999 -9999 -9999 -9999 -9999 -9999 -9999 -9999 -9999 -9999 -9999 -9999 -9999 -9999 -9999 -9999 -9999 -9999 -9999 -9999 -9999 -9999 -9999 -9999 -9999 -9999 -9999 -9999 -9999 -9999 -9999 -9999 -9999 -9999 -9999 -9999 -9999 -9999 -9999 -9999 -9999 -9999 -9999 -9999 -9999 -9999 -9999 -9999 -9999 -9999 -9999 -9999 -9999 -9999 -9999 -9999 -9999 -9999 -9999 -9999 -9999 -9999 -9999 -9999 -9999 -9999 -9999 -9999 -9999 -9999 -9999 -9999 -9999 -9999 -9999 -9999 -9999 -9999 -9999 -9999 -9999 -9999 -9999 -9999 -9999 -9999 -9999 -9999 31.459 31.512 31.572 31.622 31.689 31.697 31.739 31.784 31.829 31.912 31.977 32.047 32.122 32.194 32.239 32.304 32.369 32.397 32.439 32.477 32.502 32.594 32.629 32.729 32.794 32.862 32.929 32.994 33.054 33.049 33.092 33.167 33.259 33.327 33.377 33.414 33.479 33.519 33.574 33.639 33.702 33.752 33.772 33.804 33.852 33.909 33.967 34.002 34.052 34.097 34.112 34.144 34.162 34.204 34.222 34.264 34.264 34.317 34.354 34.364 34.357 34.387 34.384 34.387 34.424 34.432 34.434 34.444 34.477 34.492 34.517 34.574 34.582 34.579 34.554 34.529 34.507 34.474 34.479 34.464 34.444 34.439 34.432 34.399 34.427 34.397 34.407 34.407 34.459 34.447 34.464 34.464 34.482 34.499 34.512 34.517 34.542 34.562 34.579 34.594 34.587 34.584 34.624 34.639 34.664 34.682 34.687 34.697 34.714 34.679 34.677 34.654 34.627 34.607 34.582 35.104 35.022 34.347 34.357 34.327 34.282 34.277 34.237 34.207 34.192 34.164 34.157 34.157 34.122 34.102 34.092 34.084 34.052 33.987 33.964 33.929 33.899 33.882 33.834 33.807 33.764 33.702 33.672 33.622 33.599 33.599 33.547 33.524 33.464 33.442 33.397 33.342 33.284 33.259 33.232 33.189 33.152 33.109 33.077 33.032 32.999 32.947 32.924 32.884 32.839 32.782 32.739 32.709 32.664 32.597 32.557 32.504 32.429 32.332 32.257 32.224 32.172 32.137 32.057 32.004 31.939 31.892 31.822 31.767 31.704 31.654 31.602 31.522 31.434 31.369 31.294 31.189 31.097 31.022 30.949 30.904 30.834 30.782 30.754 30.732 30.669 30.577 30.854 31.079 30.457 30.469 30.514 30.619 30.687 30.784 30.842 30.864 30.939 30.992 31.032 31.104 31.169 31.257 31.354 31.439 31.547 31.602 31.684 31.809 31.869 31.942 31.997 32.084 32.167 32.232 32.307 32.382 32.477 32.544 32.579 32.649 32.714 32.809 32.877 32.919 33.009 33.059 33.114 33.187 33.252 33.332 33.384 33.407 33.417 33.477 33.539 33.592 33.622 33.624 33.684 33.702 33.727 33.777 33.839 33.884 33.912 33.914 33.969 34.022 34.047 34.097 34.124 34.149 34.189 34.192 34.217 34.257 34.854 35.194 34.602 34.472 34.697 36.127 36.494 34.757 34.399 34.422 34.447 34.459 34.462 34.452 34.434 34.409 34.397 34.432 34.439 34.462 34.439 34.407 34.392 34.442 34.414 34.452
31.434 31.307 31.237 31.217 31.182 31.184 31.104 31.087 31.069 31.062 31.057 31.047 31.034 30.984 30.997 31.009 30.982 30.892 30.802 30.742 30.689 30.627 30.562 30.492 30.442 30.384 30.349 30.324 30.302 30.274 30.199 30.132 30.079 30.044 29.982 29.939 29.924 29.849 29.767 29.719 29.667 29.637 29.597 29.574 -9999 -9999 -9999 -9999 -9999 -9999 -9999 -9999 -9999 -9999 -9999 -9999 -9999 -9999 -9999 -9999 -9999 -9999 -9999 -9999 -9999 -9999 -9999 -9999 -9999 -9999 -9999 -9999 -9999 -9999 -9999 -9999 -9999 -9999 -9999 -9999 -9999 -9999 -9999 -9999 -9999 -9999 -9999 -9999 -9999 -9999 -9999 -9999 -9999 -9999 -9999 -9999 -9999 -9999 -9999 -9999 -9999 -9999 -9999 -9999 -9999 -9999 -9999 -9999 -9999 -9999 -9999 -9999 -9999 -9999 -9999 -9999 -9999 -9999 -9999 -9999 -9999 -9999 -9999 -9999 -9999 -9999 -9999 -9999 -9999 -9999 -9999 -9999 -9999 -9999 -9999 -9999 -9999 -9999 31.464 31.537 31.589 31.639 31.677 31.722 31.734 31.809 31.867 31.927 32.022 32.069 32.159 32.252 32.294 32.354 32.409 32.464 32.484 32.524 32.554 32.624 32.682 32.767 32.827 32.902 32.977 33.027 33.092 33.077 33.132 33.207 33.329 33.382 33.409 33.452 33.517 33.557 33.627 33.682 33.734 33.794 33.824 33.874 33.952 33.977 34.032 34.079 34.129 34.169 34.182 34.222 34.242 34.269 34.307 34.352 34.352 34.392 34.414 34.452 34.434 34.464 34.479 34.477 34.504 34.499 34.527 34.534 34.592 34.604 34.654 34.672 34.679 34.674 34.657 34.634 34.594 34.539 34.547 34.547 34.524 34.534 34.519 34.492 34.512 34.499 34.489 34.489 34.514 34.532 34.552 34.549 34.557 34.584 34.584 34.594 34.632 34.649 34.672 34.679 34.679 34.684 34.742 34.734 34.779 34.784 34.789 34.807 34.794 34.757 34.734 34.707 34.702 34.692 34.987 35.437 34.454 34.429 34.429 34.394 34.372 34.352 34.299 34.284 34.239 34.219 34.197 34.187 34.182 34.154 34.149 34.109 34.062 34.019 34.004 33.947 33.939 33.927 33.864 33.822 33.789 33.772 33.709 33.669 33.649 33.647 33.609 33.559 33.504 33.474 33.417 33.374 33.324 33.274 33.257 33.212 33.207 33.159 33.102 33.079 33.032 32.982 32.952 32.884 32.862 32.827 32.774 32.714 32.707 32.664 32.584 32.519 32.437 32.337 32.267 32.214 32.169 32.144 32.069 32.017 31.964 31.904 31.832 31.792 31.724 31.667 31.592 31.522 31.442 31.359 31.272 31.199 31.119 31.032 30.964 30.909 30.852 30.807 30.787 30.767 30.737 30.624 30.844 31.087 30.497 30.519 30.572 30.672 30.739 30.842 30.907 30.954 30.979 31.029 31.089 31.152 31.207 31.304 31.424 31.487 31.587 31.674 31.767 31.852 31.942 32.004 32.054 32.129 32.214 32.277 32.364 32.439 32.527 32.582 32.629 32.704 32.782 32.857 32.909 32.982 33.039 33.099 33.157 33.234 33.317 33.402 33.437 33.449 33.487 33.534 33.617 33.647 33.674 33.664 33.719 33.744 33.779 33.817 33.859 33.887 33.937 33.939 33.979 34.037 34.074 34.142 34.167 34.184 34.209 34.229 34.287 34.299 34.324 34.872 35.087 34.674 34.494 34.622 36.047 36.482 34.817 34.434 34.429 34.472 34.482 34.472 34.462 34.447 34.409 34.417 34.452 34.449 34.409 34.387 34.374 34.419 34.439 34.439
31.459 31.384 31.327 31.332 31.354 31.349 31.317 31.322 31.304 31.262 31.289 31.284 31.232 31.172 31.177 31.179 31.117 31.019 30.924 30.879 30.822 30.767 30.712 30.614 30.554 30.467 30.407 30.359 30.322 30.272 30.234 30.172 30.117 30.077 30.029 29.969 29.944 29.882 29.812 29.757 29.724 29.679 29.642 29.644 -9999 -9999 -9999 -9999 -9999 -9999 -9999 -9999 -9999 -9999 -9999 -9999 -9999 -9999 -9999 -9999 -9999 -9999 -9999 -9999 -9999 -9999 -9999 -9999 -9999 -9999 -9999 -9999 -9999 -9999 -9999 -9999 -9999 -9999 -9999 -9999 -9999 -9999 -9999 -9999 -9999 -9999 -9999 -9999 -9999 -9999 -9999 -9999 -9999 -9999 -9999 -9999 -9999 -9999 -9999 -9999 -9999 -9999 -9999 -9999 -9999 -9999 -9999 -9999 -9999 -9999 -9999 -9999 -9999 -9999 -9999 -9999 -9999 -9999 -9999 -9999 -9999 -9999 -9999 -9999 -9999 -9999 -9999 -9999 -9999 -9999 -9999 -9999 -9999 -9999 -9999 -9999 -9999 -9999 31.519 31.557 31.634 31.677 31.702 31.729 31.759 31.829 31.889 31.967 32.049 32.112 32.187 32.259 32.302 32.369 32.432 32.489 32.514 32.557 32.602 32.627 32.719 32.829 32.882 32.959 33.017 33.082 33.104 33.117 33.192 33.257 33.354 33.422 33.447 33.504 33.549 33.609 33.679 33.737 33.772 33.839 33.874 33.922 33.999 34.029 34.087 34.169 34.209 34.224 34.262 34.322 34.309 34.359 34.402 34.442 34.444 34.504 34.522 34.547 34.532 34.547 34.552 34.582 34.607 34.617 34.624 34.637 34.679 34.702 34.754 34.767 34.787 34.797 34.772 34.722 34.667 34.657 34.629 34.647 34.629 34.629 34.604 34.567 34.609 34.594 34.582 34.614 34.602 34.609 34.644 34.647 34.642 34.654 34.682 34.689 34.679 34.704 34.759 34.777 34.784 34.792 34.834 34.839 34.874 34.874 34.882 34.897 34.887 34.844 34.797 34.774 34.749 34.782 35.642 34.709 34.549 34.544 34.524 34.507 34.472 34.449 34.419 34.404 34.362 34.329 34.327 34.297 34.287 34.262 34.239 34.199 34.152 34.109 34.067 34.034 34.019 33.977 33.929 33.877 33.827 33.799 33.742 33.719 33.694 33.654 33.627 33.574 33.514 33.472 33.432 33.402 33.349 33.314 33.284 33.242 33.209 33.184 33.129 33.109 33.082 33.022 32.977 32.927 32.897 32.852 32.807 32.757 32.724 32.667 32.619 32.537 32.452 32.354 32.282 32.247 32.197 32.174 32.087 32.034 31.992 31.924 31.869 31.822 31.734 31.682 31.589 31.534 31.452 31.364 31.282 31.204 31.124 31.047 30.974 30.912 30.892 30.842 30.812 30.787 30.752 30.639 30.782 31.077 30.544 30.559 30.589 30.679 30.767 30.849 30.899 30.959 30.994 31.039 31.097 31.147 31.224 31.309 31.457 31.507 31.617 31.697 31.794 31.912 31.982 32.042 32.107 32.189 32.257 32.317 32.399 32.517 32.607 32.654 32.704 32.767 32.859 32.944 32.997 33.054 33.114 33.142 33.214 33.309 33.394 33.432 33.464 33.502 33.529 33.597 33.644 33.659 33.709 33.724 33.752 33.797 33.804 33.869 33.912 33.929 33.954 33.962 34.022 34.062 34.129 34.157 34.182 34.204 34.262 34.277 34.322 34.359 34.357 34.354 34.802 35.502 34.904 34.539 34.587 35.392 36.114 35.467 34.462 34.454 34.459 34.447 34.477 34.449 34.457 34.439 34.452 34.427 34.404 34.392 34.364 34.412 34.419 34.439
31.602 31.557 31.539 31.542 31.567 31.547 31.527 31.502 31.502 31.444 31.442 31.429 31.362 31.304 31.282 31.287 31.217 31.107 30.989 30.962 30.907 30.832 30.754 30.662 30.597 30.504 30.444 30.377 30.327 30.277 30.257 30.204 30.159 30.087 30.032 30.029 29.969 29.909 29.842 29.804 29.759 29.712 29.692 29.689 -9999 -9999 -9999 -9999 -9999 -9999 -9999 -9999 -9999 -9999 -9999 -9999 -9999 -9999 -9999 -9999 -9999 -9999 -9999 -9999 -9999 -9999 -9999 -9999 -9999 -9999 -9999 -9999 -9999 -9999 -9999 -9999 -9999 -9999 -9999 -9999 -9999 -9999 -9999 -9999 -9999 -9999 -9999 -9999 -9999 -9999 -9999 -9999 -9999 -9999 -9999 -9999 -9999 -9999 -9999 -9999 -9999 -9999 -9999 -9999 -9999 -9999 -9999 -9999 -9999 -9999 -9999 -9999 -9999 -9999 -9999 -9999 -9999 -9999 -9999 -9999 -9999 -9999 -9999 -9999 -9999 -9999 -9999 -9999 -9999 -9999 -9999 -9999 -9999 -9999 -9999 -9999 -9999 -9999 31.549 31.622 31.669 31.714 31.757 31.782 31.817 31.872 31.944 32.039 32.099 32.152 32.209 32.304 32.372 32.419 32.479 32.489 32.522 32.577 32.652 32.694 32.739 32.847 32.924 32.994 33.029 33.104 33.092 33.159 33.232 33.314 33.392 33.429 33.474 33.522 33.579 33.647 33.719 33.744 33.804 33.859 33.912 33.967 34.042 34.087 34.164 34.222 34.269 34.317 34.342 34.392 34.399 34.444 34.489 34.509 34.547 34.589 34.612 34.627 34.614 34.642 34.627 34.679 34.704 34.707 34.714 34.719 34.762 34.807 34.857 34.859 34.882 34.874 34.864 34.812 34.757 34.722 34.747 34.729 34.712 34.722 34.684 34.657 34.692 34.674 34.694 34.704 34.709 34.699 34.747 34.732 34.744 34.762 34.759 34.772 34.799 34.817 34.854 34.887 34.887 34.922 34.912 34.952 34.974 34.987 35.007 34.987 34.952 34.904 34.877 34.852 34.862 35.517 35.127 34.642 34.617 34.652 34.617 34.622 34.579 34.564 34.539 34.519 34.464 34.449 34.442 34.437 34.409 34.379 34.352 34.324 34.284 34.249 34.174 34.152 34.117 34.082 34.054 33.967 33.919 33.887 33.819 33.794 33.772 33.747 33.694 33.649 33.579 33.507 33.477 33.442 33.389 33.372 33.317 33.272 33.237 33.212 33.169 33.129 33.104 33.044 33.012 32.967 32.889 32.847 32.824 32.767 32.724 32.682 32.632 32.577 32.487 32.404 32.337 32.277 32.244 32.207 32.137 32.077 31.999 31.959 31.904 31.837 31.754 31.687 31.599 31.542 31.449 31.377 31.322 31.227 31.154 31.069 30.987 30.934 30.902 30.849 30.829 30.804 30.759 30.664 30.822 31.129 30.537 30.577 30.627 30.722 30.787 30.882 30.924 30.952 30.997 31.059 31.117 31.169 31.242 31.352 31.464 31.514 31.614 31.719 31.829 31.922 31.989 32.069 32.117 32.204 32.269 32.332 32.442 32.534 32.607 32.682 32.724 32.797 32.867 32.967 33.012 33.077 33.149 33.204 33.264 33.362 33.442 33.504 33.532 33.554 33.614 33.664 33.704 33.707 33.759 33.782 33.824 33.849 33.877 33.912 33.967 33.979 33.982 34.002 34.062 34.127 34.167 34.194 34.202 34.239 34.274 34.297 34.347 34.384 34.387 34.372 34.409 34.522 35.307 35.099 34.622 34.634 35.034 36.002 35.564 34.497 34.449 34.459 34.479 34.452 34.467 34.467 34.452 34.434 34.407 34.407 34.382 34.429 34.449 34.469
31.842 31.792 31.769 31.772 31.784 31.732 31.694 31.659 31.597 31.587 31.512 31.459 31.427 31.344 31.349 31.297 31.222 31.109 31.024 30.984 30.942 30.839 30.759 30.692 30.609 30.517 30.469 30.412 30.364 30.304 30.284 30.244 30.199 30.129 30.069 30.044 30.009 29.949 29.902 29.859 29.779 29.747 29.717 29.682 -9999 -9999 -9999 -9999 -9999 -9999 -9999 -9999 -9999 -9999 -9999 -9999 -9999 -9999 -9999 -9999 -9999 -9999 -9999 -9999 -9999 -9999 -9999 -9999 -9999 -9999 -9999 -9999 -9999 -9999 -9999 -9999 -9999 -9999 -9999 -9999 -9999 -9999 -9999 -9999 -9999 -9999 -9999 -9999 -9999 -9999 -9999 -9999 -9999 -9999 -9999 -9999 -9999 -9999 -9999 -9999 -9999 -9999 -9999 -9999 -9999 -9999 -9999 -9999 -9999 -9999 -9999 -9999 -9999 -9999 -9999 -9999 -9999 -9999 -9999 -9999 -9999 -9999 -9999 -9999 -9999 -9999 -9999 -9999 -9999 -9999 -9999 -9999 -9999 -9999 -9999 -9999 -9999 -9999 31.624 31.654 31.737 31.772 31.794 31.837 31.872 31.919 31.979 32.079 32.124 32.224 32.277 32.349 32.409 32.464 32.504 32.542 32.564 32.604 32.664 32.717 32.782 32.877 32.942 33.034 33.094 33.137 33.149 33.217 33.272 33.382 33.427 33.482 33.519 33.557 33.622 33.659 33.732 33.782 33.849 33.909 33.972 34.027 34.089 34.132 34.219 34.269 34.314 34.372 34.432 34.452 34.479 34.539 34.574 34.564 34.624 34.659 34.709 34.692 34.699 34.704 34.724 34.757 34.774 34.804 34.809 34.837 34.854 34.912 34.954 34.947 34.979 34.967 34.954 34.882 34.859 34.857 34.814 34.812 34.817 34.792 34.744 34.752 34.762 34.769 34.784 34.812 34.792 34.814 34.809 34.837 34.862 34.854 34.854 34.874 34.877 34.902 34.959 34.982 35.002 35.017 35.034 35.062 35.094 35.089 35.092 35.062 35.019 34.984 34.949 34.927 35.124 35.632 34.862 34.737 34.727 34.742 34.724 34.707 34.694 34.677 34.667 34.619 34.587 34.549 34.552 34.527 34.514 34.484 34.472 34.434 34.397 34.347 34.279 34.262 34.224 34.182 34.139 34.069 34.029 33.962 33.932 33.894 33.864 33.849 33.802 33.767 33.687 33.642 33.579 33.537 33.487 33.452 33.422 33.387 33.332 33.302 33.264 33.219 33.189 33.119 33.089 33.024 32.937 32.892 32.857 32.797 32.759 32.689 32.632 32.554 32.467 32.387 32.324 32.274 32.242 32.192 32.114 32.057 32.019 31.947 31.914 31.852 31.767 31.707 31.627 31.554 31.474 31.409 31.314 31.259 31.172 31.089 31.027 30.972 30.909 30.889 30.857 30.832 30.782 30.692 30.842 31.039 30.562 30.629 30.692 30.789 30.852 30.904 30.967 30.987 31.012 31.082 31.147 31.197 31.282 31.377 31.479 31.552 31.652 31.754 31.879 31.974 32.037 32.119 32.157 32.224 32.292 32.374 32.479 32.549 32.624 32.682 32.754 32.832 32.909 32.982 33.042 33.107 33.167 33.232 33.304 33.392 33.459 33.522 33.539 33.569 33.619 33.682 33.719 33.764 33.787 33.812 33.857 33.912 33.952 33.989 34.009 34.019 34.042 34.084 34.119 34.172 34.214 34.242 34.274 34.302 34.334 34.342 34.399 34.427 34.442 34.439 34.434 34.477 34.562 35.112 35.264 34.752 34.659 34.799 36.259 35.862 34.517 34.467 34.459 34.482 34.487 34.492 34.509 34.462 34.417 34.402 34.387 34.439 34.439 34.477
32.072 32.027 31.972 31.964 31.937 31.847 31.827 31.762 31.704 31.617 31.572 31.504 31.427 31.357 31.357 31.287 31.207 31.109 31.044 30.977 30.904 30.837 30.759 30.709 30.627 30.562 30.519 30.442 30.387 30.344 30.294 30.289 30.262 30.189 30.134 30.062 30.014 29.944 29.934 29.882 29.829 29.792 29.744 29.714 29.674 -9999 -9999 -9999 -9999 -9999 -9999 -9999 -9999 -9999 -9999 -9999 -9999 -9999 -9999 -9999 -9999 -9999 -9999 -9999 -9999 -9999 -9999 -9999 -9999 -9999 -9999 -9999 -9999 -9999 -9999 -9999 -9999 -9999 -9999 -9999 -9999 -9999 -9999 -9999 -9999 -9999 -9999 -9999 -9999 -9999 -9999 -9999 -9999 -9999 -9999 -9999 -9999 -9999 -9999 -9999 -9999 -9999 -9999 -9999 -9999 -9999 -9999 -9999 -9999 -9999 -9999 -9999 -9999 -9999 -9999 -9999 -9999 -9999 -9999 -9999 -9999 -9999 -9999 -9999 -9999 -9999 -9999 -9999 -9999 -9999 -9999 -9999 -9999 -9999 -9999 -9999 -9999 -9999 31.654 31.709 31.772 31.827 31.837 31.889 31.934 31.964 32.052 32.127 32.192 32.262 32.339 32.402 32.474 32.514 32.549 32.557 32.602 32.629 32.684 32.749 32.809 32.904 33.007 33.069 33.154 33.164 33.174 33.269 33.339 33.389 33.447 33.499 33.532 33.602 33.674 33.727 33.784 33.839 33.907 33.942 34.009 34.109 34.149 34.212 34.272 34.339 34.377 34.417 34.502 34.507 34.554 34.624 34.634 34.669 34.709 34.752 34.789 34.804 34.792 34.812 34.809 34.839 34.862 34.882 34.902 34.917 34.939 34.989 35.039 35.042 35.052 35.057 35.019 34.979 34.954 34.959 34.914 34.897 34.909 34.879 34.822 34.854 34.847 34.837 34.872 34.872 34.874 34.884 34.892 34.924 34.937 34.959 34.967 34.972 34.962 35.017 35.047 35.077 35.082 35.114 35.134 35.157 35.177 35.187 35.179 35.149 35.104 35.067 35.044 35.054 35.917 35.059 34.857 34.822 34.829 34.824 34.814 34.812 34.784 34.762 34.727 34.704 34.674 34.634 34.612 34.612 34.589 34.557 34.547 34.514 34.469 34.417 34.349 34.329 34.302 34.262 34.202 34.154 34.102 34.032 34.012 34.002 33.964 33.944 33.887 33.839 33.772 33.742 33.669 33.612 33.579 33.542 33.527 33.469 33.422 33.394 33.362 33.307 33.277 33.212 33.194 33.124 33.049 32.997 32.932 32.897 32.824 32.764 32.712 32.654 32.569 32.472 32.374 32.334 32.287 32.247 32.167 32.114 32.037 31.974 31.919 31.842 31.769 31.689 31.609 31.554 31.444 31.379 31.324 31.237 31.159 31.102 31.032 30.979 30.912 30.897 30.894 30.862 30.824 30.752 30.822 31.207 30.567 30.677 30.729 30.817 30.869 30.942 30.974 30.992 31.034 31.099 31.179 31.239 31.332 31.417 31.524 31.609 31.692 31.794 31.912 32.009 32.062 32.157 32.239 32.297 32.347 32.419 32.557 32.604 32.652 32.729 32.809 32.892 32.972 33.049 33.107 33.164 33.234 33.279 33.362 33.442 33.502 33.557 33.579 33.632 33.709 33.754 33.799 33.794 33.834 33.854 33.902 33.929 33.974 34.022 34.009 34.032 34.069 34.102 34.162 34.214 34.224 34.264 34.302 34.319 34.364 34.389 34.459 34.462 34.487 34.497 34.522 34.547 34.534 34.559 35.107 35.637 34.859 34.684 34.767 35.774 35.789 34.567 34.482 34.479 34.507 34.512 34.532 34.484 34.462 34.444 34.427 34.467 34.439 34.477
32.234 32.152 32.102 32.082 32.002 31.929 31.864 31.819 31.739 31.672 31.582 31.529 31.437 31.412 31.374 31.282 31.167 31.102 31.032 30.989 30.919 30.847 30.779 30.704 30.607 30.584 30.524 30.472 30.417 30.377 30.322 30.292 30.239 30.219 30.167 30.089 30.007 29.952 29.949 29.894 29.857 29.819 29.799 29.747 29.697 -9999 -9999 -9999 -9999 -9999 -9999 -9999 -9999 -9999 -9999 -9999 -9999 -9999 -9999 -9999 -9999 -9999 -9999 -9999 -9999 -9999 -9999 -9999 -9999 -9999 -9999 -9999 -9999 -9999 -9999 -9999 -9999 -9999 -9999 -9999 -9999 -9999 -9999 -9999 -9999 -9999 -9999 -9999 -9999 -9999 -9999 -9999 -9999 -9999 -9999 -9999 -9999 -9999 -9999 -9999 -9999 -9999 -9999 -9999 -9999 -9999 -9999 -9999 -9999 -9999 -9999 -9999 -9999 -9999 -9999 -9999 -9999 -9999 -9999 -9999 -9999 -9999 -9999 -9999 -9999 -9999 -9999 -9999 -9999 -9999 -9999 -9999 -9999 -9999 -9999 -9999 -9999 -9999 31.729 31.744 31.822 31.842 31.867 31.917 31.972 32.024 32.104 32.189 32.227 32.309 32.372 32.447 32.512 32.552 32.594 32.587 32.634 32.647 32.709 32.794 32.867 32.917 33.024 33.079 33.132 33.179 33.209 33.272 33.364 33.427 33.479 33.532 33.569 33.604 33.679 33.749 33.827 33.867 33.967 34.007 34.057 34.127 34.182 34.277 34.347 34.397 34.449 34.477 34.534 34.569 34.617 34.689 34.719 34.757 34.809 34.834 34.877 34.889 34.889 34.894 34.907 34.944 34.954 34.967 35.019 35.022 35.047 35.117 35.112 35.129 35.137 35.149 35.109 35.069 35.039 35.049 35.017 34.979 34.987 34.967 34.912 34.924 34.917 34.924 34.964 34.947 34.957 34.977 35.014 35.017 35.037 35.037 35.039 35.037 35.042 35.104 35.104 35.144 35.199 35.207 35.224 35.229 35.249 35.284 35.267 35.257 35.194 35.134 35.134 35.749 35.464 34.957 34.952 34.924 34.934 34.947 34.937 34.909 34.874 34.842 34.797 34.777 34.744 34.717 34.682 34.687 34.652 34.637 34.607 34.589 34.549 34.482 34.439 34.402 34.389 34.329 34.287 34.227 34.184 34.112 34.087 34.072 34.034 34.004 33.937 33.889 33.857 33.794 33.724 33.687 33.647 33.607 33.594 33.559 33.504 33.477 33.432 33.382 33.344 33.289 33.262 33.182 33.127 33.079 33.019 32.962 32.919 32.847 32.817 32.739 32.637 32.547 32.474 32.412 32.364 32.294 32.244 32.194 32.119 32.062 31.992 31.919 31.837 31.772 31.679 31.604 31.517 31.419 31.342 31.279 31.199 31.139 31.052 30.982 30.947 30.902 30.894 30.874 30.854 30.794 30.842 31.169 30.584 30.699 30.789 30.872 30.917 30.982 31.022 31.034 31.077 31.124 31.207 31.262 31.349 31.457 31.527 31.629 31.724 31.854 31.952 32.044 32.107 32.194 32.262 32.332 32.392 32.447 32.559 32.652 32.697 32.782 32.857 32.942 32.994 33.087 33.149 33.209 33.267 33.337 33.427 33.499 33.547 33.589 33.609 33.697 33.742 33.799 33.844 33.859 33.852 33.889 33.964 33.997 34.034 34.064 34.084 34.089 34.132 34.172 34.219 34.252 34.254 34.277 34.289 34.342 34.379 34.407 34.452 34.479 34.522 34.557 34.559 34.572 34.574 34.592 34.602 34.809 35.379 34.954 34.729 34.769 35.504 36.812 35.579 34.567 34.534 34.529 34.547 34.524 34.522 34.514 34.469 34.489 34.474 34.474
32.299 32.242 32.164 32.119 32.032 31.942 31.889 31.837 31.762 31.707 31.627 31.577 31.469 31.432 31.414 31.307 31.227 31.117 31.084 31.027 30.957 30.869 30.777 30.714 30.652 30.594 30.532 30.494 30.424 30.367 30.327 30.292 30.239 30.199 30.147 30.092 30.022 29.962 29.942 29.899 29.874 29.839 29.812 29.757 29.707 -9999 -9999 -9999 -9999 -9999 -9999 -9999 -9999 -9999 -9999 -9999 -9999 -9999 -9999 -9999 -9999 -9999 -9999 -9999 -9999 -9999 -9999 -9999 -9999 -9999 -9999 -9999 -9999 -9999 -9999 -9999 -9999 -9999 -9999 -9999 -9999 -9999 -9999 -9999 -9999 -9999 -9999 -9999 -9999 -9999 -9999 -9999 -9999 -9999 -9999 -9999 -9999 -9999 -9999 -9999 -9999 -9999 -9999 -9999 -9999 -9999 -9999 -9999 -9999 -9999 -9999 -9999 -9999 -9999 -9999 -9999 -9999 -9999 -9999 -9999 -9999 -9999 -9999 -9999 -9999 -9999 -9999 -9999 -9999 -9999 -9999 -9999 -9999 -9999 -9999 -9999 -9999 -9999 31.754 31.787 31.827 31.872 31.907 31.929 31.974 32.037 32.132 32.199 32.267 32.354 32.409 32.467 32.524 32.562 32.589 32.612 32.639 32.677 32.764 32.814 32.892 32.967 33.039 33.119 33.159 33.209 33.247 33.302 33.392 33.434 33.477 33.522 33.607 33.644 33.719 33.779 33.859 33.904 33.982 34.027 34.109 34.162 34.252 34.339 34.399 34.457 34.492 34.537 34.599 34.624 34.717 34.749 34.754 34.844 34.897 34.939 34.947 34.977 34.979 34.999 35.022 35.022 35.054 35.074 35.124 35.124 35.157 35.204 35.222 35.242 35.262 35.267 35.202 35.152 35.139 35.127 35.104 35.099 35.079 35.049 35.014 35.017 35.007 35.039 35.039 35.057 35.067 35.082 35.077 35.107 35.129 35.104 35.134 35.124 35.117 35.182 35.189 35.217 35.237 35.289 35.307 35.324 35.342 35.379 35.334 35.282 35.267 35.212 35.504 36.139 35.059 35.064 35.039 35.052 35.032 35.017 35.019 34.997 34.959 34.914 34.899 34.862 34.829 34.807 34.777 34.752 34.747 34.724 34.682 34.644 34.597 34.552 34.504 34.469 34.432 34.367 34.339 34.289 34.242 34.174 34.174 34.129 34.077 34.049 33.989 33.939 33.879 33.859 33.792 33.744 33.702 33.687 33.639 33.599 33.562 33.514 33.479 33.419 33.399 33.339 33.284 33.234 33.169 33.137 33.052 33.019 32.959 32.892 32.832 32.772 32.679 32.594 32.539 32.474 32.419 32.367 32.277 32.237 32.162 32.112 32.052 31.994 31.902 31.807 31.727 31.654 31.569 31.474 31.372 31.324 31.239 31.167 31.127 31.054 30.992 30.944 30.949 30.929 30.882 30.797 30.844 31.227 30.617 30.752 30.864 30.939 30.987 31.022 31.054 31.072 31.119 31.194 31.264 31.339 31.424 31.512 31.619 31.687 31.792 31.922 32.009 32.097 32.157 32.247 32.332 32.382 32.454 32.517 32.614 32.679 32.752 32.832 32.897 32.992 33.032 33.107 33.167 33.239 33.324 33.384 33.467 33.552 33.592 33.642 33.659 33.712 33.789 33.842 33.877 33.907 33.919 33.947 33.994 34.022 34.059 34.092 34.097 34.114 34.149 34.197 34.244 34.264 34.302 34.297 34.324 34.352 34.407 34.447 34.497 34.497 34.542 34.569 34.612 34.649 34.652 34.642 34.647 34.652 34.772 35.499 35.154 34.792 34.792 35.619 36.417 35.277 34.649 34.572 34.569 34.554 34.564 34.557 34.549 34.539 34.507 34.507
32.364 32.292 32.207 32.157 32.034 31.967 31.912 31.867 31.799 31.714 31.639 31.599 31.544 31.509 31.439 31.324 31.237 31.137 31.102 31.054 31.004 30.887 30.804 30.737 30.664 30.612 30.549 30.497 30.454 30.397 30.347 30.299 30.242 30.222 30.152 30.077 30.004 29.984 29.952 29.904 29.897 29.842 29.822 29.759 29.717 -9999 -9999 -9999 -9999 -9999 -9999 -9999 -9999 -9999 -9999 -9999 -9999 -9999 -9999 -9999 -9999 -9999 -9999 -9999 -9999 -9999 -9999 -9999 -9999 -9999 -9999 -9999 -9999 -9999 -9999 -9999 -9999 -9999 -9999 -9999 -9999 -9999 -9999 -9999 -9999 -9999 -9999 -9999 -9999 -9999 -9999 -9999 -9999 -9999 -9999 -9999 -9999 -9999 -9999 -9999 -9999 -9999 -9999 -9999 -9999 -9999 -9999 -9999 -9999 -9999 -9999 -9999 -9999 -9999 -9999 -9999 -9999 -9999 -9999 -9999 -9999 -9999 -9999 -9999 -9999 -9999 -9999 -9999 -9999 -9999 -9999 -9999 -9999 -9999 -9999 -9999 -9999 -9999 31.784 31.837 31.859 31.902 31.934 31.967 32.014 32.074 32.157 32.217 32.287 32.407 32.437 32.497 32.542 32.584 32.637 32.644 32.677 32.712 32.779 32.829 32.932 33.009 33.054 33.149 33.192 33.204 33.257 33.329 33.437 33.472 33.484 33.552 33.604 33.684 33.762 33.812 33.899 33.939 33.992 34.057 34.149 34.212 34.299 34.384 34.449 34.509 34.552 34.602 34.642 34.702 34.799 34.834 34.844 34.914 35.004 35.024 35.039 35.069 35.074 35.114 35.134 35.134 35.157 35.182 35.219 35.234 35.277 35.329 35.319 35.342 35.357 35.334 35.294 35.247 35.247 35.214 35.182 35.197 35.182 35.114 35.112 35.119 35.132 35.112 35.119 35.134 35.147 35.144 35.157 35.182 35.197 35.189 35.224 35.209 35.214 35.239 35.262 35.289 35.317 35.347 35.374 35.397 35.444 35.459 35.424 35.392 35.339 35.304 36.054 35.374 35.139 35.142 35.117 35.117 35.132 35.122 35.109 35.077 35.042 35.014 34.964 34.952 34.907 34.884 34.872 34.847 34.812 34.802 34.757 34.732 34.669 34.624 34.587 34.542 34.497 34.439 34.394 34.364 34.322 34.264 34.227 34.202 34.159 34.099 34.052 33.989 33.929 33.887 33.822 33.804 33.772 33.737 33.679 33.624 33.582 33.529 33.524 33.467 33.429 33.389 33.327 33.264 33.197 33.132 33.089 33.049 32.984 32.922 32.842 32.772 32.672 32.619 32.557 32.497 32.424 32.377 32.324 32.249 32.189 32.117 32.062 32.012 31.907 31.807 31.752 31.657 31.597 31.514 31.432 31.369 31.279 31.217 31.149 31.104 31.062 31.007 30.994 30.972 30.922 30.812 30.902 31.317 30.672 30.807 30.907 30.989 31.032 31.079 31.099 31.117 31.177 31.254 31.309 31.374 31.489 31.567 31.647 31.739 31.852 31.989 32.077 32.177 32.229 32.307 32.377 32.462 32.542 32.627 32.707 32.764 32.819 32.894 32.972 33.062 33.117 33.167 33.237 33.304 33.369 33.452 33.539 33.609 33.652 33.672 33.714 33.787 33.844 33.889 33.912 33.939 33.959 34.002 34.044 34.077 34.087 34.139 34.129 34.149 34.189 34.242 34.284 34.339 34.339 34.347 34.372 34.382 34.419 34.474 34.499 34.529 34.547 34.594 34.629 34.662 34.654 34.657 34.684 34.677 34.677 34.789 35.397 35.339 34.857 34.824 35.177 35.319 34.882 34.682 34.624 34.587 34.589 34.587 34.584 34.597 34.537 34.512
32.394 32.324 32.242 32.187 32.114 32.012 31.994 31.909 31.847 31.764 31.704 31.642 31.579 31.562 31.462 31.369 31.274 31.204 31.134 31.064 30.989 30.884 30.814 30.737 30.664 30.609 30.559 30.504 30.449 30.407 30.354 30.297 30.247 30.229 30.172 30.079 30.034 30.002 29.967 29.922 29.892 29.842 29.814 29.772 29.707 29.679 -9999 -9999 -9999 -9999 -9999 -9999 -9999 -9999 -9999 -9999 -9999 -9999 -9999 -9999 -9999 -9999 -9999 -9999 -9999 -9999 -9999 -9999 -9999 -9999 -9999 -9999 -9999 -9999 -9999 -9999 -9999 -9999 -9999 -9999 -9999 -9999 -9999 -9999 -9999 -9999 -9999 -9999 -9999 -9999 -9999 -9999 -9999 -9999 -9999 -9999 -9999 -9999 -9999 -9999 -9999 -9999 -9999 -9999 -9999 -9999 -9999 -9999 -9999 -9999 -9999 -9999 -9999 -9999 -9999 -9999 -9999 -9999 -9999 -9999 -9999 -9999 -9999 -9999 -9999 -9999 -9999 -9999 -9999 -9999 -9999 -9999 -9999 -9999 -9999 -9999 -9999 -9999 31.809 31.854 31.914 31.929 31.952 31.987 32.037 32.114 32.197 32.252 32.322 32.427 32.479 32.514 32.567 32.607 32.647 32.659 32.699 32.757 32.834 32.887 32.979 33.047 33.107 33.184 33.202 33.229 33.297 33.374 33.469 33.509 33.512 33.587 33.649 33.709 33.789 33.844 33.907 33.984 34.052 34.117 34.197 34.262 34.339 34.427 34.484 34.544 34.577 34.667 34.724 34.762 34.852 34.882 34.922 35.007 35.069 35.094 35.107 35.139 35.159 35.222 35.254 35.234 35.242 35.292 35.332 35.352 35.394 35.414 35.449 35.452 35.447 35.424 35.387 35.362 35.332 35.344 35.287 35.292 35.269 35.197 35.194 35.194 35.217 35.217 35.237 35.227 35.239 35.237 35.249 35.259 35.277 35.282 35.309 35.284 35.302 35.317 35.339 35.369 35.404 35.447 35.469 35.507 35.532 35.537 35.477 35.464 35.394 35.802 35.647 35.222 35.229 35.227 35.229 35.242 35.247 35.237 35.212 35.159 35.154 35.112 35.069 35.024 34.989 34.979 34.944 34.914 34.909 34.892 34.832 34.787 34.744 34.704 34.657 34.637 34.579 34.519 34.469 34.424 34.387 34.322 34.317 34.272 34.232 34.174 34.124 34.064 33.989 33.962 33.887 33.864 33.842 33.779 33.704 33.697 33.619 33.567 33.552 33.507 33.477 33.414 33.374 33.304 33.257 33.159 33.117 33.049 33.002 32.949 32.869 32.784 32.707 32.637 32.577 32.507 32.439 32.357 32.302 32.272 32.192 32.142 32.069 32.004 31.932 31.834 31.757 31.684 31.574 31.519 31.447 31.377 31.289 31.234 31.167 31.129 31.097 31.039 31.004 30.987 30.904 30.782 30.817 31.359 30.687 30.842 30.944 31.024 31.069 31.119 31.137 31.172 31.239 31.317 31.377 31.427 31.549 31.612 31.687 31.779 31.904 32.027 32.124 32.222 32.287 32.379 32.464 32.524 32.607 32.702 32.789 32.827 32.884 32.974 33.057 33.139 33.189 33.252 33.302 33.379 33.447 33.519 33.624 33.684 33.722 33.742 33.797 33.879 33.929 33.977 33.977 34.012 34.017 34.074 34.127 34.159 34.177 34.202 34.199 34.194 34.232 34.302 34.329 34.362 34.377 34.389 34.442 34.447 34.469 34.519 34.572 34.567 34.607 34.639 34.677 34.689 34.712 34.722 34.744 34.739 34.714 34.719 34.862 35.242 35.342 34.952 34.822 34.957 35.022 35.297 34.982 34.657 34.617 34.609 34.607 34.624 34.604 34.562
32.412 32.349 32.287 32.217 32.129 32.087 32.032 31.959 31.877 31.802 31.732 31.667 31.624 31.599 31.524 31.392 31.277 31.204 31.137 31.052 30.982 30.892 30.809 30.724 30.667 30.624 30.572 30.497 30.457 30.402 30.359 30.299 30.272 30.239 30.172 30.114 30.029 30.014 29.989 29.947 29.914 29.882 29.834 29.757 29.712 29.667 -9999 -9999 -9999 -9999 -9999 -9999 -9999 -9999 -9999 -9999 -9999 -9999 -9999 -9999 -9999 -9999 -9999 -9999 -9999 -9999 -9999 -9999 -9999 -9999 -9999 -9999 -9999 -9999 -9999 -9999 -9999 -9999 -9999 -9999 -9999 -9999 -9999 -9999 -9999 -9999 -9999 -9999 -9999 -9999 -9999 -9999 -9999 -9999 -9999 -9999 -9999 -9999 -9999 -9999 -9999 -9999 -9999 -9999 -9999 -9999 -9999 -9999 -9999 -9999 -9999 -9999 -9999 -9999 -9999 -9999 -9999 -9999 -9999 -9999 -9999 -9999 -9999 -9999 -9999 -9999 -9999 -9999 -9999 -9999 -9999 -9999 -9999 -9999 -9999 -9999 -9999 -9999 31.859 31.892 31.922 31.957 31.979 32.034 32.097 32.159 32.229 32.302 32.377 32.464 32.509 32.559 32.599 32.622 32.639 32.682 32.732 32.809 32.857 32.922 32.994 33.072 33.134 33.199 33.232 33.249 33.314 33.387 33.474 33.514 33.574 33.607 33.662 33.737 33.784 33.884 33.949 34.027 34.082 34.164 34.237 34.299 34.407 34.482 34.529 34.592 34.634 34.707 34.762 34.824 34.912 34.942 35.002 35.062 35.139 35.157 35.184 35.204 35.252 35.282 35.324 35.339 35.332 35.399 35.429 35.462 35.524 35.532 35.544 35.562 35.562 35.519 35.484 35.439 35.432 35.417 35.407 35.392 35.344 35.297 35.289 35.294 35.312 35.339 35.344 35.314 35.312 35.332 35.334 35.369 35.372 35.389 35.384 35.379 35.399 35.414 35.424 35.452 35.484 35.547 35.564 35.589 35.612 35.599 35.562 35.527 35.587 36.379 35.444 35.317 35.347 35.337 35.327 35.324 35.319 35.312 35.279 35.254 35.217 35.172 35.134 35.094 35.059 35.062 35.019 35.007 34.984 34.967 34.922 34.879 34.827 34.777 34.722 34.707 34.677 34.624 34.552 34.499 34.462 34.409 34.382 34.334 34.302 34.239 34.182 34.124 34.079 34.024 33.952 33.917 33.892 33.832 33.772 33.739 33.667 33.627 33.604 33.549 33.527 33.454 33.414 33.337 33.284 33.219 33.169 33.084 33.017 32.972 32.917 32.824 32.742 32.677 32.607 32.524 32.449 32.374 32.317 32.272 32.194 32.162 32.079 32.009 31.909 31.837 31.744 31.684 31.599 31.517 31.419 31.332 31.274 31.219 31.169 31.127 31.069 31.017 31.009 31.009 30.937 30.777 30.857 31.369 30.752 30.872 30.979 31.047 31.109 31.149 31.164 31.202 31.254 31.324 31.397 31.474 31.577 31.647 31.717 31.819 31.952 32.067 32.154 32.262 32.344 32.447 32.507 32.562 32.642 32.757 32.827 32.879 32.942 33.034 33.107 33.222 33.242 33.294 33.362 33.439 33.499 33.569 33.657 33.734 33.764 33.789 33.827 33.902 33.954 34.014 34.004 34.029 34.087 34.137 34.192 34.199 34.229 34.232 34.244 34.267 34.307 34.347 34.377 34.412 34.439 34.442 34.464 34.497 34.542 34.567 34.597 34.607 34.644 34.672 34.707 34.732 34.737 34.784 34.762 34.787 34.782 34.802 34.804 34.794 35.254 35.649 35.079 34.832 34.937 35.707 36.652 34.909 34.639 34.652 34.637 34.677 34.647 34.629
