ncols 429
nrows 31
xllcorner    457114
yllcorner    91334
cellsize     2
NODATA_value -9999
43.291 43.746 44.863 44.693 44.111 43.561 43.861 44.291 43.698 43.631 43.633 43.716 44.041 44.213 44.348 44.683 44.671 44.591 44.706 44.806 46.976 47.733 45.461 46.621 48.013 46.498 45.901 46.036 46.188 46.313 46.411 46.531 46.621 46.731 46.848 46.963 47.058 47.143 47.263 47.363 47.466 47.611 47.753 47.833 47.921 48.016 48.103 48.246 48.328 48.428 48.526 48.566 48.666 48.806 48.916 49.006 49.141 49.216 49.323 49.456 49.523 49.586 49.648 49.731 49.853 49.928 50.003 50.033 50.141 50.211 50.896 50.988 50.498 50.543 50.683 50.821 50.876 50.923 51.036 51.058 51.128 51.211 51.271 51.333 51.378 51.408 51.488 51.548 51.616 51.726 51.821 51.876 51.908 51.881 51.946 52.031 52.091 52.193 52.258 52.218 52.236 52.311 52.396 52.496 52.511 52.551 52.611 52.558 52.638 52.718 52.748 52.783 52.818 52.833 52.861 52.866 52.861 52.906 52.908 52.931 53.003 52.956 52.998 53.053 53.038 53.078 53.093 53.043 53.006 52.963 52.966 52.901 53.163 54.448 52.743 52.708 52.711 52.693 52.658 52.676 52.616 52.591 52.618 52.551 52.498 52.443 52.348 52.291 52.226 52.183 52.158 52.131 52.108 52.078 52.048 52.011 51.981 51.903 51.813 51.738 51.676 51.608 51.546 51.518 51.466 51.393 51.346 51.273 51.183 51.131 51.071 50.978 50.933 50.861 50.806 50.731 50.648 50.596 50.523 50.458 50.023 49.903 50.093 49.853 49.643 49.596 49.491 49.413 49.336 49.288 49.216 49.108 48.986 48.899 48.829 48.756 48.666 48.594 48.489 48.364 48.284 48.141 48.041 47.959 47.849 47.749 47.679 47.584 47.496 47.414 47.306 47.191 47.076 46.994 46.904 46.776 46.649 46.564 46.471 46.346 46.236 46.139 46.029 45.924 45.781 45.686 45.594 45.491 45.399 45.261 45.164 45.076 44.994 44.886 44.766 44.684 44.596 44.494 44.401 44.294 44.164 44.011 43.901 43.756 43.656 43.541 43.429 43.334 43.234 43.114 43.004 42.874 42.746 42.606 42.474 42.314 42.191 42.069 41.949 41.804 41.709 41.569 41.451 41.326 41.216 41.069 40.959 40.826 40.694 40.604 40.544 40.414 40.421 41.321 42.529 41.444 39.461 39.144 39.036 38.866 38.694 38.541 38.424 38.286 38.116 37.941 37.799 37.609 37.461 37.319 37.181 37.034 36.864 36.706 36.551 36.371 36.224 36.059 35.864 35.699 35.499 35.369 35.179 34.966 34.751 34.599 34.389 34.129 33.969 33.784 33.501 33.266 33.096 32.854 32.644 32.444 32.201 32.021 31.796 31.579 31.371 31.139 30.944 30.719 30.431 30.196 29.949 29.784 29.834 31.921 29.199 28.641 28.199 28.136 28.636 27.841 30.134 29.226 28.874 27.441 27.264 27.329 27.476 27.486 29.096 28.466 29.999 33.506 31.111 31.004 27.584 27.686 28.014 28.054 27.894 27.851 27.811 27.751 27.941 28.191 28.706 29.071 29.859 29.204 31.536 30.444 29.751 29.674 29.916 30.559 31.029 30.956 33.764 34.491 30.706 30.971 31.089 30.851 30.831 30.664 30.649 31.216 31.131 30.964 31.019 31.086 31.234 31.324 31.324 31.259 31.374 31.391 31.474 31.591 31.464 31.316 31.334 31.491 31.604 31.811 32.154 32.596 32.789 33.056 33.354 33.749 34.209 35.016 36.886 37.929 37.929 38.009 38.879 37.486 38.151 42.489 38.529 37.719 37.951 38.096 38.226 38.456 38.711 38.926 39.129 39.371 39.569 39.786 40.059
43.393 43.716 43.766 43.433 43.623 43.776 44.496 44.938 43.793 43.691 43.691 43.808 44.393 44.631 45.093 46.396 46.423 46.466 45.171 44.861 46.923 47.786 45.573 46.521 48.076 46.551 46.001 46.091 46.236 46.388 46.493 46.566 46.683 46.798 46.916 47.021 47.118 47.233 47.328 47.436 47.556 47.698 47.846 47.916 48.016 48.113 48.206 48.286 48.403 48.486 48.593 48.626 48.733 48.856 48.976 49.056 49.198 49.318 49.391 49.508 49.588 49.651 49.713 49.806 49.883 49.973 50.061 50.141 50.218 50.263 52.181 52.186 50.586 50.653 50.798 50.903 50.966 51.018 51.116 51.133 51.213 51.301 51.366 51.423 51.451 51.508 51.563 51.613 51.706 51.806 51.888 51.938 51.963 51.933 52.028 52.093 52.158 52.253 52.301 52.258 52.323 52.351 52.426 52.533 52.543 52.596 52.658 52.626 52.693 52.786 52.803 52.843 52.916 52.916 52.908 52.913 52.936 52.968 52.976 53.006 53.028 53.021 53.063 53.116 53.103 53.166 53.158 53.116 53.091 53.071 53.023 52.973 52.983 53.556 53.443 52.731 52.778 52.776 52.728 52.743 52.633 52.668 52.723 52.648 52.576 52.488 52.446 52.366 52.301 52.278 52.201 52.216 52.181 52.156 52.128 52.098 52.023 51.953 51.851 51.758 51.721 51.676 51.583 51.546 51.486 51.441 51.398 51.346 51.261 51.171 51.118 51.038 51.003 50.931 50.891 50.806 50.671 50.616 50.563 50.576 50.226 49.908 49.856 49.756 49.773 49.743 49.668 49.563 49.468 49.378 49.298 49.201 49.068 48.944 48.859 48.751 48.644 48.544 48.459 48.389 48.296 48.206 48.106 47.994 47.881 47.836 47.701 47.601 47.554 47.469 47.356 47.256 47.149 47.044 46.949 46.826 46.711 46.634 46.541 46.429 46.336 46.199 46.094 45.979 45.871 45.764 45.659 45.561 45.451 45.369 45.229 45.126 45.051 44.926 44.804 44.704 44.636 44.524 44.436 44.326 44.229 44.081 43.959 43.841 43.714 43.599 43.494 43.381 43.266 43.164 43.051 42.921 42.794 42.659 42.499 42.369 42.244 42.109 41.979 41.841 41.711 41.594 41.466 41.324 41.199 41.081 40.936 40.801 40.674 40.554 40.459 40.379 40.309 40.511 41.019 40.681 39.591 39.136 39.031 38.881 38.711 38.549 38.451 38.306 38.136 37.979 37.844 37.646 37.504 37.351 37.201 37.046 36.914 36.754 36.601 36.424 36.286 36.099 35.926 35.751 35.564 35.414 35.226 35.026 34.821 34.674 34.436 34.211 34.054 33.874 33.574 33.331 33.169 32.934 32.714 32.521 32.294 32.106 31.879 31.666 31.479 31.266 31.081 30.821 30.544 30.314 30.066 29.886 29.726 30.664 30.841 28.491 28.701 28.144 28.496 28.941 30.719 30.899 32.424 27.364 27.294 27.416 27.509 27.606 27.879 27.546 27.929 32.156 29.534 28.124 27.544 27.799 27.639 27.569 27.909 27.956 27.769 27.466 27.661 27.989 28.594 29.519 28.844 28.984 29.424 29.379 30.381 30.054 29.869 30.116 30.529 29.916 34.226 36.956 30.576 30.754 31.081 31.951 33.166 30.759 31.324 30.544 30.741 30.874 31.089 31.354 31.179 31.251 31.186 31.114 31.284 31.344 31.186 31.191 31.076 31.116 31.319 31.451 31.596 31.751 32.024 32.314 32.711 33.044 33.414 33.776 34.434 35.976 37.751 37.584 38.001 36.804 37.874 38.249 37.704 39.619 37.464 37.756 37.919 38.006 38.306 38.476 38.751 39.009 39.266 39.529 39.701 39.941 40.196
43.641 43.346 43.658 43.443 43.246 43.928 44.526 45.026 43.996 43.771 43.761 43.791 44.238 44.513 45.138 45.746 45.351 45.686 44.946 44.943 46.886 47.816 45.723 46.388 48.093 46.886 46.136 46.163 46.288 46.421 46.533 46.643 46.733 46.851 46.976 47.083 47.198 47.291 47.401 47.508 47.621 47.771 47.926 47.991 48.073 48.176 48.271 48.373 48.476 48.573 48.673 48.738 48.811 48.898 49.003 49.108 49.253 49.363 49.453 49.551 49.633 49.701 49.786 49.833 49.926 50.021 50.103 50.201 50.253 50.346 51.346 51.913 50.653 50.741 50.856 50.968 51.013 51.076 51.198 51.221 51.276 51.378 51.431 51.488 51.533 51.581 51.606 51.663 51.753 51.863 51.933 51.991 52.023 52.013 52.076 52.138 52.218 52.326 52.358 52.321 52.376 52.418 52.486 52.593 52.608 52.668 52.723 52.696 52.768 52.823 52.871 52.918 52.956 52.981 52.983 52.996 52.996 53.038 53.048 53.068 53.096 53.088 53.121 53.183 53.181 53.228 53.223 53.193 53.146 53.113 53.088 53.018 53.086 54.661 54.173 52.813 52.828 52.791 52.771 52.756 52.671 52.668 52.726 52.696 52.608 52.541 52.496 52.411 52.373 52.311 52.308 52.263 52.238 52.221 52.191 52.138 52.088 52.011 51.911 51.821 51.771 51.726 51.636 51.591 51.543 51.516 51.456 51.398 51.328 51.258 51.188 51.108 51.051 50.991 50.906 50.838 50.736 50.641 50.621 50.618 50.376 49.988 49.836 49.881 49.828 49.806 49.698 49.606 49.478 49.391 49.286 49.176 49.048 48.954 48.859 48.739 48.654 48.606 48.519 48.429 48.359 48.274 48.159 48.029 47.961 47.854 47.784 47.661 47.586 47.499 47.401 47.299 47.181 47.101 46.969 46.876 46.764 46.676 46.614 46.489 46.389 46.264 46.146 46.031 45.941 45.819 45.696 45.591 45.499 45.391 45.289 45.194 45.114 44.986 44.876 44.779 44.694 44.581 44.494 44.394 44.291 44.126 44.016 43.896 43.771 43.659 43.549 43.444 43.321 43.191 43.086 42.944 42.814 42.686 42.531 42.379 42.224 42.111 41.976 41.816 41.701 41.554 41.451 41.289 41.189 41.044 40.931 40.791 40.664 40.539 40.436 40.371 40.276 40.286 40.701 41.479 39.816 39.114 38.979 38.861 38.714 38.551 38.416 38.311 38.176 37.971 37.856 37.694 37.536 37.384 37.246 37.071 36.936 36.796 36.654 36.479 36.324 36.179 36.016 35.811 35.661 35.481 35.296 35.079 34.884 34.726 34.549 34.279 34.126 33.944 33.669 33.406 33.241 33.011 32.794 32.591 32.389 32.191 31.966 31.766 31.564 31.376 31.164 30.946 30.699 30.451 30.196 30.006 29.881 29.909 31.374 29.081 28.779 28.339 28.161 28.369 29.591 31.189 29.504 27.356 27.301 27.394 28.636 29.504 28.929 27.499 27.716 31.956 31.754 28.151 27.954 27.971 27.486 27.221 27.436 27.649 27.509 27.236 27.306 27.761 29.204 29.849 28.624 28.789 28.866 29.049 30.294 29.709 29.951 31.209 29.634 32.564 32.309 30.839 30.291 31.746 32.141 31.454 31.756 31.101 30.624 30.426 30.551 30.681 30.861 31.191 31.191 31.099 30.991 30.919 30.981 30.949 30.936 30.856 30.886 31.151 31.319 31.459 31.576 31.684 31.806 32.109 32.584 33.071 33.634 34.229 35.109 35.914 38.149 36.279 35.569 35.504 38.629 37.471 37.516 38.294 37.559 37.634 37.836 38.074 38.281 38.536 38.904 39.149 39.464 39.694 39.869 40.066 40.351
43.748 43.473 43.208 42.981 43.106 43.718 44.128 44.073 43.968 43.898 43.873 43.931 44.131 44.273 44.393 44.496 44.498 44.696 44.811 44.986 46.836 47.828 45.903 46.358 48.133 46.778 46.103 46.216 46.316 46.456 46.588 46.703 46.771 46.903 47.028 47.123 47.251 47.348 47.443 47.546 47.658 47.813 47.946 48.041 48.116 48.236 48.338 48.428 48.513 48.656 48.746 48.828 48.921 49.003 49.113 49.238 49.348 49.453 49.516 49.626 49.703 49.793 49.856 49.923 49.996 50.111 50.188 50.273 50.343 50.403 52.401 52.378 50.708 50.791 50.928 51.041 51.086 51.138 51.226 51.278 51.338 51.436 51.506 51.581 51.601 51.646 51.686 51.738 51.816 51.916 52.006 52.053 52.088 52.061 52.131 52.198 52.288 52.388 52.428 52.388 52.423 52.483 52.546 52.658 52.671 52.736 52.813 52.778 52.843 52.921 52.968 53.021 53.046 53.058 53.081 53.083 53.056 53.101 53.116 53.128 53.168 53.141 53.173 53.226 53.256 53.288 53.291 53.261 53.218 53.216 53.118 53.011 53.201 54.143 53.576 52.871 52.856 52.861 52.833 52.778 52.688 52.716 52.791 52.738 52.646 52.611 52.563 52.488 52.648 52.721 52.363 52.343 52.301 52.281 52.256 52.213 52.143 52.066 51.966 51.873 51.843 51.798 51.726 51.671 51.611 51.573 51.538 51.481 51.391 51.293 51.238 51.156 51.091 51.041 50.976 50.863 50.796 50.718 50.678 50.666 50.838 50.048 49.923 50.033 49.846 49.806 49.753 49.623 49.523 49.421 49.338 49.211 49.056 48.974 48.884 48.781 48.721 48.661 48.566 48.466 48.391 48.316 48.201 48.099 48.011 47.914 47.829 47.741 47.666 47.549 47.476 47.386 47.259 47.186 47.049 46.946 46.849 46.736 46.641 46.534 46.416 46.326 46.216 46.084 46.004 45.871 45.766 45.656 45.571 45.469 45.346 45.226 45.154 45.039 44.919 44.816 44.731 44.634 44.556 44.431 44.326 44.161 44.051 43.911 43.804 43.659 43.541 43.419 43.321 43.181 43.071 42.919 42.794 42.669 42.504 42.341 42.191 42.079 41.934 41.804 41.676 41.531 41.419 41.279 41.151 41.036 40.906 40.794 40.656 40.529 40.409 40.341 40.266 40.141 40.429 40.839 39.794 39.091 38.941 38.819 38.684 38.551 38.414 38.311 38.179 37.986 37.871 37.686 37.554 37.406 37.289 37.111 36.966 36.849 36.696 36.541 36.394 36.224 36.041 35.849 35.701 35.509 35.356 35.136 34.966 34.804 34.629 34.366 34.156 34.001 33.749 33.491 33.289 33.091 32.866 32.659 32.471 32.249 32.046 31.839 31.646 31.466 31.289 31.096 30.844 30.594 30.351 30.121 29.986 29.876 30.694 31.214 28.909 28.594 28.286 28.191 28.059 27.829 27.686 27.511 27.429 27.586 29.016 28.396 27.459 27.731 29.539 30.324 29.851 30.896 30.956 28.004 27.814 27.311 27.231 27.269 27.229 27.444 27.646 27.856 28.166 28.279 28.389 28.564 28.629 28.874 29.769 29.381 30.566 29.369 29.326 33.244 31.694 30.569 30.481 31.334 31.876 31.834 31.579 30.784 30.324 30.304 30.554 30.694 30.959 31.059 31.121 31.004 30.814 30.634 30.651 30.714 30.714 30.716 30.826 31.036 31.191 31.286 31.444 31.621 31.816 32.336 32.706 33.336 33.741 34.171 35.036 38.019 42.264 38.499 35.931 35.996 36.279 37.839 38.514 39.779 37.356 37.589 37.731 38.036 38.289 39.011 38.974 39.231 39.469 39.774 39.996 40.226 40.451
43.946 43.631 43.246 43.106 43.351 43.708 44.213 44.083 44.081 44.038 43.991 44.023 44.153 44.298 44.386 44.471 44.576 44.776 44.856 45.003 46.021 46.586 45.846 45.646 46.156 46.051 46.138 46.298 46.423 46.506 46.641 46.733 46.818 46.973 47.063 47.171 47.291 47.366 47.486 47.586 47.721 47.853 47.998 48.113 48.196 48.316 48.416 48.526 48.593 48.701 48.818 48.918 48.988 49.113 49.226 49.321 49.413 49.528 49.608 49.708 49.783 49.853 49.926 49.981 50.093 50.206 50.273 50.363 50.428 50.466 52.041 52.718 50.821 50.858 50.998 51.093 51.153 51.221 51.301 51.341 51.416 51.471 51.556 51.636 51.668 51.696 51.761 51.786 51.866 51.968 52.056 52.096 52.128 52.123 52.188 52.248 52.341 52.441 52.496 52.483 52.498 52.538 52.608 52.703 52.718 52.793 52.868 52.826 52.898 52.981 53.011 53.068 53.093 53.108 53.161 53.121 53.126 53.168 53.178 53.211 53.231 53.211 53.243 53.288 53.301 53.346 53.361 53.316 53.271 53.263 53.198 53.106 53.116 53.866 53.106 53.076 53.041 53.026 53.043 52.996 52.868 52.996 53.058 52.918 52.731 52.671 52.726 52.613 53.403 53.793 52.423 52.413 52.388 52.373 52.321 52.261 52.193 52.131 52.018 51.903 51.903 51.873 51.778 51.753 51.711 51.648 51.601 51.551 51.456 51.383 51.303 51.226 51.143 51.073 51.016 50.931 50.853 50.793 50.746 50.726 52.918 50.121 50.011 50.201 49.913 49.853 49.796 49.701 49.553 49.443 49.371 49.276 49.088 49.006 48.936 48.836 48.754 48.696 48.601 48.494 48.441 48.339 48.264 48.191 48.086 47.989 47.901 47.821 47.746 47.636 47.536 47.436 47.311 47.234 47.111 46.999 46.886 46.799 46.701 46.606 46.496 46.399 46.276 46.156 46.074 45.951 45.829 45.731 45.621 45.504 45.399 45.306 45.191 45.089 44.949 44.834 44.754 44.636 44.539 44.409 44.309 44.144 44.034 43.916 43.751 43.636 43.511 43.406 43.294 43.181 43.076 42.919 42.794 42.646 42.486 42.321 42.176 42.061 41.931 41.801 41.679 41.546 41.411 41.281 41.169 41.041 40.924 40.821 40.669 40.534 40.414 40.319 40.219 40.119 40.094 40.206 39.996 39.086 38.941 38.794 38.681 38.564 38.386 38.264 38.149 38.021 37.876 37.709 37.579 37.469 37.321 37.171 37.014 36.891 36.754 36.591 36.431 36.284 36.096 35.904 35.754 35.561 35.386 35.194 35.024 34.859 34.679 34.444 34.216 34.061 33.839 33.576 33.381 33.184 32.951 32.766 32.559 32.344 32.154 31.924 31.741 31.551 31.384 31.181 30.991 30.724 30.496 30.276 30.124 29.984 30.294 31.164 28.809 28.841 28.566 28.334 28.331 28.059 27.929 27.669 27.546 27.646 27.766 27.459 28.161 28.244 30.239 29.629 31.111 34.426 29.384 28.361 28.389 27.819 27.361 27.216 27.346 27.586 27.364 27.561 28.196 28.241 28.551 29.734 28.419 28.741 28.991 29.431 29.076 29.091 29.686 32.774 32.026 31.896 31.011 30.889 31.186 31.076 30.719 30.536 30.596 30.369 30.409 30.654 30.696 30.841 30.929 30.889 30.686 30.426 30.464 30.551 30.524 30.654 30.794 30.934 31.044 31.149 31.449 31.646 31.834 32.341 33.009 33.776 34.149 34.019 34.504 34.624 37.596 37.056 36.396 36.836 36.239 37.706 37.906 37.906 37.186 37.401 37.716 38.001 38.371 38.811 39.011 39.354 39.571 39.779 40.091 40.461 40.561
44.356 44.243 43.646 43.608 43.691 43.873 44.103 44.176 44.188 44.143 44.131 44.181 44.268 44.376 44.448 44.566 44.691 44.836 44.916 45.023 45.201 45.331 45.331 45.466 45.443 45.946 46.476 46.376 46.476 46.578 46.678 46.786 46.896 47.006 47.136 47.238 47.338 47.451 47.553 47.641 47.781 47.898 48.038 48.173 48.266 48.398 48.488 48.598 48.718 48.806 48.866 48.978 49.083 49.188 49.303 49.393 49.496 49.601 49.671 49.788 49.851 49.913 49.958 50.071 50.161 50.281 50.348 50.438 50.488 50.521 52.136 51.971 50.863 50.971 51.061 51.141 51.188 51.243 51.343 51.383 51.453 51.533 51.601 51.671 51.723 51.763 51.811 51.838 51.916 52.016 52.101 52.123 52.186 52.171 52.251 52.296 52.391 52.468 52.526 52.521 52.551 52.603 52.673 52.783 52.788 52.828 52.931 52.876 52.936 53.023 53.068 53.121 53.156 53.168 53.193 53.211 53.186 53.233 53.271 53.296 53.293 53.278 53.331 53.378 53.386 53.423 53.446 53.411 53.358 53.298 53.286 53.201 53.183 54.443 53.343 53.106 53.181 53.228 53.173 53.128 53.091 53.058 52.991 52.833 52.751 52.683 52.691 52.681 53.301 53.631 52.526 52.481 52.438 52.393 52.391 52.341 52.263 52.201 52.116 51.998 51.956 51.906 51.856 51.808 51.776 51.726 51.686 51.606 51.506 51.433 51.366 51.288 51.198 51.138 51.078 50.986 50.926 50.843 50.821 51.266 53.238 50.203 50.073 50.493 49.948 49.906 49.831 49.756 49.628 49.506 49.426 49.308 49.166 49.074 49.046 48.941 48.834 48.736 48.671 48.589 48.526 48.421 48.324 48.239 48.159 48.064 47.974 47.889 47.791 47.694 47.589 47.481 47.379 47.281 47.174 47.054 46.964 46.851 46.771 46.669 46.546 46.446 46.334 46.216 46.106 45.964 45.846 45.741 45.654 45.514 45.389 45.284 45.204 45.081 44.934 44.829 44.736 44.619 44.514 44.401 44.291 44.154 44.029 43.899 43.746 43.644 43.501 43.396 43.301 43.159 43.051 42.926 42.786 42.651 42.499 42.356 42.221 42.086 41.959 41.821 41.711 41.581 41.481 41.366 41.261 41.151 40.986 40.859 40.689 40.561 40.414 40.276 40.164 40.076 39.939 39.981 40.136 39.256 38.901 38.801 38.676 38.574 38.406 38.256 38.144 38.014 37.881 37.731 37.621 37.481 37.331 37.224 37.066 36.926 36.799 36.639 36.494 36.304 36.139 35.931 35.776 35.606 35.436 35.259 35.031 34.891 34.739 34.499 34.284 34.134 33.934 33.694 33.444 33.264 33.051 32.851 32.649 32.446 32.266 32.061 31.869 31.689 31.506 31.306 31.104 30.874 30.616 30.429 30.254 30.106 30.054 31.324 29.769 29.026 28.929 28.509 28.439 28.254 29.211 27.904 27.741 27.876 28.119 27.761 27.939 30.721 31.566 30.484 29.996 32.491 29.434 28.376 28.061 28.221 27.889 27.394 27.279 27.239 27.309 27.661 28.134 28.069 28.049 28.221 28.344 28.654 28.979 29.319 32.504 29.341 30.831 31.729 31.461 31.614 31.251 30.774 30.596 30.444 30.364 30.354 30.366 30.426 30.284 30.516 30.659 30.884 30.871 30.794 30.506 30.331 30.356 30.406 30.509 30.651 30.729 30.816 31.004 31.276 31.661 32.086 32.269 32.694 33.451 34.194 34.084 34.009 34.569 35.899 36.809 36.906 36.221 36.036 36.099 36.379 36.874 36.949 37.239 37.429 37.719 38.084 38.489 38.796 39.109 39.389 39.671 39.949 40.214 40.414 40.606
44.641 44.783 44.216 43.996 44.048 44.146 44.298 44.368 44.331 44.301 44.308 44.326 44.373 44.471 44.531 44.621 44.738 44.886 45.011 45.138 45.271 45.336 45.583 46.368 45.513 45.968 46.676 46.506 46.538 46.661 46.768 46.856 46.958 47.086 47.206 47.326 47.421 47.513 47.646 47.726 47.853 47.991 48.121 48.241 48.356 48.461 48.578 48.686 48.798 48.901 48.973 49.071 49.161 49.273 49.391 49.478 49.563 49.671 49.756 49.846 49.928 49.961 50.023 50.156 50.206 50.321 50.421 50.518 50.553 50.576 52.356 52.703 50.956 51.043 51.118 51.198 51.243 51.286 51.391 51.453 51.511 51.601 51.643 51.716 51.781 51.791 51.848 51.908 51.971 52.071 52.136 52.186 52.243 52.231 52.303 52.351 52.436 52.526 52.576 52.598 52.606 52.651 52.731 52.816 52.863 52.901 53.001 52.951 52.988 53.098 53.123 53.176 53.213 53.233 53.256 53.263 53.271 53.311 53.346 53.371 53.371 53.393 53.396 53.463 53.496 53.528 53.508 53.506 53.451 53.368 53.376 53.281 53.271 54.621 53.553 53.181 53.323 53.328 53.333 53.193 53.166 53.118 53.503 52.963 52.786 52.711 52.706 52.878 52.613 52.606 52.576 52.551 52.501 52.483 52.453 52.393 52.348 52.283 52.191 52.046 51.983 51.968 51.901 51.881 51.851 51.808 51.746 51.656 51.578 51.481 51.418 51.343 51.266 51.191 51.123 51.048 50.971 50.911 50.888 50.903 53.271 50.411 50.141 50.461 50.056 49.948 49.868 49.773 49.648 49.541 49.481 49.406 49.293 49.171 49.106 48.994 48.901 48.801 48.711 48.651 48.561 48.484 48.416 48.329 48.204 48.126 48.041 47.949 47.844 47.731 47.641 47.546 47.434 47.344 47.241 47.121 47.011 46.901 46.789 46.691 46.566 46.441 46.316 46.194 46.089 45.956 45.844 45.724 45.619 45.486 45.369 45.264 45.169 45.046 44.944 44.829 44.706 44.611 44.486 44.389 44.281 44.156 44.011 43.896 43.776 43.646 43.524 43.431 43.326 43.216 43.111 42.976 42.839 42.691 42.569 42.416 42.284 42.166 42.061 41.891 41.769 41.636 41.536 41.431 41.289 41.146 41.009 40.854 40.694 40.534 40.376 40.229 40.104 40.016 39.899 39.761 40.099 39.471 38.886 38.776 38.719 38.569 38.419 38.269 38.139 38.016 37.886 37.726 37.634 37.484 37.339 37.249 37.099 36.971 36.844 36.661 36.519 36.361 36.166 35.991 35.826 35.659 35.491 35.311 35.074 34.931 34.804 34.574 34.361 34.176 33.996 33.776 33.529 33.356 33.126 32.951 32.791 32.569 32.391 32.206 31.991 31.816 31.669 31.476 31.236 31.026 30.811 30.596 30.389 30.264 30.136 30.434 32.354 29.121 28.984 29.086 28.474 28.466 28.319 28.106 28.036 28.176 28.151 28.381 28.056 30.809 30.599 28.914 27.879 28.071 28.876 28.749 28.019 28.049 28.266 28.276 27.966 27.864 27.861 28.061 28.114 27.744 27.901 28.049 28.396 28.989 28.736 28.696 29.051 31.791 31.544 31.056 30.624 31.226 31.076 30.334 30.439 30.544 30.144 30.209 30.134 30.311 30.291 30.586 30.671 30.686 30.711 30.609 30.334 30.261 30.261 30.386 30.456 30.516 30.654 30.739 31.009 31.349 31.689 32.234 33.179 33.221 33.971 35.121 37.061 34.219 36.021 36.299 36.294 35.874 35.739 35.786 36.069 36.401 36.599 36.751 37.154 37.476 37.814 38.171 38.471 38.844 39.166 39.414 39.694 39.989 40.254 40.509 40.741
44.513 44.791 44.696 44.581 44.356 44.393 44.463 44.563 44.556 44.521 44.511 44.516 44.531 44.563 44.638 44.723 44.853 44.973 45.088 45.226 45.341 45.411 45.558 46.056 45.656 46.018 46.356 46.503 46.596 46.748 46.836 46.946 47.051 47.173 47.306 47.416 47.516 47.603 47.728 47.813 47.968 48.091 48.228 48.331 48.421 48.528 48.636 48.761 48.861 48.963 49.061 49.143 49.263 49.338 49.476 49.558 49.601 49.683 49.743 49.881 49.983 50.043 50.103 50.231 50.288 50.376 50.486 50.566 50.616 50.626 52.426 52.126 51.078 51.096 51.178 51.256 51.308 51.346 51.438 51.518 51.573 51.636 51.696 51.776 51.848 51.886 51.928 51.961 52.041 52.143 52.226 52.261 52.318 52.326 52.373 52.436 52.543 52.608 52.666 52.676 52.661 52.708 52.808 52.883 52.951 52.988 53.068 53.023 53.066 53.166 53.201 53.248 53.278 53.323 53.341 53.353 53.321 53.368 53.401 53.418 53.426 53.468 53.491 53.531 53.548 53.578 53.588 53.546 53.518 53.461 53.433 53.376 53.331 54.936 53.918 53.248 53.333 53.341 53.331 53.206 53.176 53.166 53.813 54.128 52.826 52.738 52.761 53.016 52.693 52.666 52.651 52.603 52.566 52.536 52.538 52.503 52.423 52.336 52.228 52.098 52.056 52.008 51.971 51.966 51.946 51.868 51.823 51.753 51.651 51.548 51.476 51.378 51.313 51.231 51.183 51.091 51.031 50.973 50.938 50.933 51.883 50.431 50.243 50.568 50.141 49.993 49.916 49.823 49.733 49.636 49.578 49.486 49.388 49.281 49.156 49.039 48.946 48.821 48.746 48.706 48.616 48.526 48.476 48.394 48.291 48.174 48.099 48.011 47.891 47.771 47.669 47.554 47.436 47.316 47.204 47.101 46.976 46.879 46.786 46.669 46.544 46.411 46.301 46.189 46.071 45.939 45.816 45.701 45.604 45.496 45.356 45.251 45.154 45.046 44.929 44.829 44.714 44.631 44.531 44.426 44.301 44.174 44.061 43.944 43.829 43.719 43.601 43.506 43.406 43.281 43.159 43.029 42.889 42.754 42.596 42.441 42.294 42.161 42.029 41.886 41.749 41.599 41.514 41.386 41.221 41.114 40.979 40.821 40.666 40.496 40.361 40.194 40.056 39.961 39.856 39.726 40.129 40.674 38.959 38.756 38.649 38.534 38.446 38.249 38.129 37.999 37.881 37.731 37.621 37.469 37.336 37.239 37.124 36.994 36.864 36.691 36.551 36.434 36.204 36.034 35.851 35.686 35.511 35.346 35.129 34.969 34.851 34.659 34.439 34.246 34.059 33.851 33.599 33.441 33.246 33.059 32.866 32.664 32.504 32.324 32.116 31.924 31.764 31.576 31.336 31.159 30.951 30.704 30.499 30.344 30.256 30.131 31.084 30.386 29.094 29.146 28.669 28.504 28.616 28.644 28.189 28.696 28.379 28.416 28.389 29.094 28.716 28.524 28.746 28.241 29.726 30.104 28.996 28.106 27.899 28.049 28.196 28.281 28.564 28.114 27.929 27.784 27.909 28.264 28.829 28.636 29.174 28.591 30.434 30.589 30.536 30.391 30.471 30.581 30.049 29.754 30.026 29.954 29.779 30.059 30.094 30.374 30.271 30.639 30.566 30.541 30.529 30.439 30.246 30.196 30.361 30.381 30.324 30.474 30.636 30.774 31.144 31.581 31.871 32.536 33.351 33.529 34.564 38.879 37.191 37.116 36.186 35.404 35.419 35.336 35.641 35.814 36.014 36.489 36.604 36.839 37.216 37.549 37.841 38.229 38.516 38.849 39.111 39.429 39.721 40.079 40.319 40.586 40.839
44.701 44.736 44.826 45.043 44.706 44.608 44.671 44.733 44.731 44.678 44.666 44.613 44.606 44.678 44.758 44.858 44.976 45.053 45.166 45.273 45.378 45.453 45.493 45.516 45.631 46.106 46.508 46.556 46.691 46.816 46.933 47.036 47.136 47.288 47.396 47.496 47.626 47.711 47.816 47.928 48.038 48.183 48.318 48.438 48.526 48.596 48.703 48.823 48.928 49.026 49.111 49.221 49.298 49.413 49.513 49.578 49.668 49.761 49.823 49.923 50.036 50.116 50.156 50.276 50.343 50.431 50.533 50.631 50.688 50.706 52.208 52.651 51.131 51.146 51.231 51.316 51.378 51.443 51.523 51.586 51.631 51.726 51.773 51.863 51.898 51.953 52.016 52.051 52.111 52.201 52.301 52.333 52.391 52.401 52.466 52.516 52.606 52.683 52.748 52.746 52.736 52.771 52.846 52.948 53.013 53.056 53.131 53.088 53.128 53.201 53.263 53.306 53.321 53.371 53.416 53.413 53.411 53.436 53.461 53.491 53.521 53.558 53.558 53.611 53.613 53.638 53.653 53.646 53.583 53.518 53.508 53.448 53.433 54.336 53.703 53.276 53.311 53.346 53.278 53.216 53.203 53.188 53.373 53.708 52.951 52.823 52.806 52.951 52.733 52.691 52.716 52.668 52.631 52.613 52.586 52.551 52.501 52.418 52.271 52.168 52.116 52.086 52.038 52.033 52.003 51.931 51.876 51.813 51.703 51.593 51.543 51.423 51.363 51.266 51.211 51.123 51.056 51.008 51.006 50.978 51.133 50.553 50.296 50.346 50.248 50.088 49.983 49.911 49.813 49.691 49.643 49.556 49.421 49.316 49.199 49.054 48.979 48.894 48.819 48.741 48.649 48.551 48.501 48.401 48.321 48.186 48.099 47.994 47.874 47.769 47.676 47.559 47.434 47.294 47.186 47.096 46.984 46.851 46.759 46.636 46.521 46.406 46.301 46.189 46.069 45.966 45.826 45.724 45.631 45.524 45.419 45.309 45.206 45.109 45.006 44.886 44.766 44.689 44.586 44.504 44.391 44.276 44.144 44.021 43.889 43.781 43.646 43.524 43.396 43.281 43.136 43.006 42.864 42.724 42.569 42.419 42.249 42.116 41.996 41.854 41.701 41.599 41.481 41.366 41.246 41.096 40.961 40.789 40.649 40.471 40.304 40.141 40.016 39.909 39.814 39.649 39.599 39.616 39.306 38.771 38.616 38.474 38.431 38.254 38.131 38.011 37.886 37.764 37.604 37.464 37.341 37.239 37.131 36.989 36.869 36.706 36.551 36.404 36.251 36.109 35.899 35.729 35.549 35.411 35.184 35.016 34.889 34.731 34.504 34.326 34.144 33.949 33.721 33.544 33.329 33.126 32.999 32.789 32.579 32.436 32.254 32.086 31.896 31.676 31.486 31.269 31.049 30.859 30.626 30.434 30.371 30.249 30.606 30.916 29.059 29.154 29.311 28.616 28.511 28.409 28.241 28.136 28.359 28.346 28.624 29.581 29.176 28.929 29.604 28.579 29.446 29.154 29.404 28.186 27.811 27.804 27.896 28.056 27.961 27.906 28.004 28.169 28.381 28.824 28.491 29.161 34.686 39.029 32.836 30.389 29.954 30.196 30.299 30.051 29.634 29.776 29.464 29.574 29.704 29.876 30.099 30.296 30.239 30.381 30.409 30.386 30.321 30.229 30.106 30.191 30.239 30.294 30.416 30.516 30.671 31.019 31.329 31.849 32.414 32.484 33.661 34.099 33.854 35.486 36.174 35.506 35.376 35.054 35.019 35.186 35.569 35.766 35.971 36.271 36.566 36.926 37.231 37.546 37.834 38.159 38.579 38.859 39.124 39.384 39.736 40.071 40.389 40.664 40.919
44.773 44.873 44.956 45.063 44.836 44.808 44.801 44.833 44.876 44.858 44.778 44.648 44.676 44.738 44.848 44.913 45.006 45.106 45.191 45.296 45.371 45.453 45.496 45.526 45.606 46.418 47.233 46.691 46.771 46.891 47.028 47.123 47.218 47.348 47.471 47.581 47.693 47.788 47.906 48.013 48.121 48.256 48.391 48.501 48.573 48.666 48.768 48.883 48.973 49.081 49.173 49.256 49.356 49.478 49.578 49.616 49.711 49.838 49.883 49.981 50.083 50.181 50.233 50.308 50.408 50.493 50.571 50.636 50.748 50.786 51.223 51.958 51.153 51.213 51.303 51.398 51.438 51.481 51.611 51.636 51.706 51.796 51.838 51.908 51.966 52.018 52.071 52.098 52.171 52.271 52.373 52.413 52.451 52.468 52.513 52.573 52.668 52.758 52.826 52.821 52.816 52.831 52.931 53.026 53.078 53.121 53.181 53.171 53.183 53.276 53.318 53.368 53.361 53.431 53.481 53.476 53.456 53.486 53.543 53.576 53.588 53.601 53.623 53.648 53.676 53.708 53.726 53.703 53.653 53.601 53.578 53.513 53.486 54.078 54.196 53.318 53.293 53.291 53.308 53.286 53.278 53.298 53.243 53.153 52.996 52.946 52.881 52.873 52.811 52.766 52.751 52.746 52.686 52.678 52.633 52.598 52.571 52.483 52.336 52.226 52.203 52.161 52.108 52.091 52.051 51.983 51.918 51.851 51.751 51.633 51.573 51.468 51.376 51.311 51.241 51.181 51.108 51.033 51.038 51.003 53.411 50.891 50.393 50.416 50.351 50.093 50.036 49.963 49.836 49.741 49.693 49.586 49.458 49.349 49.236 49.129 49.019 48.926 48.851 48.769 48.709 48.579 48.499 48.414 48.321 48.189 48.089 47.984 47.874 47.751 47.649 47.516 47.406 47.299 47.184 47.074 46.941 46.829 46.759 46.646 46.556 46.459 46.334 46.226 46.119 46.011 45.879 45.779 45.674 45.584 45.471 45.366 45.271 45.156 45.066 44.964 44.846 44.756 44.649 44.531 44.409 44.281 44.146 44.026 43.886 43.744 43.626 43.484 43.371 43.244 43.136 42.994 42.846 42.706 42.554 42.409 42.251 42.099 41.964 41.826 41.706 41.581 41.449 41.334 41.221 41.084 40.929 40.781 40.621 40.451 40.264 40.096 39.976 39.869 39.774 39.596 39.696 39.734 39.761 38.934 38.546 38.501 38.401 38.244 38.116 38.001 37.889 37.756 37.606 37.476 37.366 37.254 37.131 37.001 36.851 36.694 36.579 36.394 36.276 36.119 35.939 35.779 35.606 35.439 35.229 35.034 34.929 34.761 34.581 34.401 34.199 34.004 33.786 33.631 33.441 33.229 33.091 32.916 32.694 32.524 32.369 32.196 32.011 31.796 31.621 31.424 31.189 30.994 30.761 30.564 30.434 30.379 30.309 30.894 29.731 31.676 29.496 28.936 28.674 28.494 28.316 28.124 27.979 27.969 28.151 28.254 28.204 28.049 29.054 28.654 28.054 29.171 32.784 28.724 27.896 27.859 27.756 27.804 27.774 27.804 29.791 32.596 29.601 28.374 28.229 28.569 30.734 34.871 32.046 29.874 29.776 30.141 30.294 29.986 29.389 29.366 29.504 29.471 29.669 29.976 30.146 30.176 30.174 30.306 30.216 30.154 30.151 30.039 30.064 30.121 30.241 30.349 30.789 30.971 31.101 31.906 31.839 32.189 35.274 33.624 37.019 34.314 36.024 36.279 36.074 35.551 35.181 35.166 35.051 35.169 35.434 35.726 36.054 36.364 36.644 37.094 37.301 37.614 37.894 38.211 38.519 38.796 39.086 39.444 39.774 40.069 40.354 40.704 40.969
44.863 44.868 44.956 44.926 45.416 46.268 45.351 45.001 45.093 45.043 44.966 44.818 44.763 45.123 45.113 45.291 45.066 45.133 45.231 45.306 45.376 45.441 45.483 45.521 45.613 46.306 47.273 46.746 46.818 46.956 47.088 47.201 47.281 47.416 47.536 47.628 47.743 47.838 47.941 48.043 48.161 48.316 48.441 48.576 48.663 48.731 48.876 48.973 49.038 49.143 49.261 49.328 49.448 49.533 49.641 49.736 49.801 49.891 49.981 50.071 50.153 50.253 50.293 50.376 50.483 50.563 50.606 50.673 50.786 50.831 51.228 51.411 51.206 51.321 51.341 51.473 51.516 51.558 51.651 51.703 51.781 51.858 51.921 51.973 52.011 52.096 52.121 52.161 52.223 52.323 52.418 52.473 52.511 52.538 52.583 52.628 52.723 52.828 52.903 52.881 52.891 52.913 52.998 53.096 53.161 53.191 53.263 53.241 53.268 53.343 53.398 53.421 53.433 53.471 53.516 53.528 53.523 53.553 53.588 53.623 53.631 53.678 53.683 53.743 53.741 53.778 53.806 53.788 53.716 53.653 53.628 53.551 53.493 54.026 54.578 53.396 53.326 53.333 53.356 53.461 53.421 53.433 53.353 53.236 53.121 53.081 53.016 52.966 52.816 52.786 52.776 52.761 52.746 52.721 52.683 52.631 52.708 52.536 52.413 52.323 52.258 52.203 52.133 52.106 52.088 52.063 51.933 51.876 51.801 51.683 51.631 51.518 51.453 51.391 51.381 51.336 51.366 51.178 51.083 51.166 53.601 50.738 50.428 50.431 50.433 50.158 50.096 49.973 49.891 49.803 49.718 49.608 49.496 49.379 49.239 49.141 49.036 48.954 48.849 48.784 48.694 48.599 48.526 48.411 48.296 48.181 48.084 47.976 47.859 47.746 47.656 47.541 47.414 47.306 47.229 47.119 47.004 46.884 46.816 46.711 46.609 46.511 46.404 46.291 46.206 46.069 45.949 45.869 45.746 45.646 45.506 45.404 45.289 45.194 45.094 44.969 44.854 44.751 44.641 44.499 44.386 44.256 44.116 44.006 43.871 43.751 43.606 43.481 43.361 43.244 43.109 42.974 42.831 42.691 42.544 42.381 42.209 42.071 41.979 41.804 41.674 41.564 41.429 41.331 41.226 41.071 40.929 40.781 40.611 40.456 40.281 40.121 39.994 39.844 39.741 39.561 39.536 39.686 39.776 39.344 38.551 38.461 38.351 38.221 38.106 37.994 37.896 37.764 37.621 37.501 37.371 37.249 37.126 36.999 36.849 36.681 36.569 36.401 36.289 36.114 35.944 35.784 35.611 35.474 35.281 35.081 34.976 34.849 34.651 34.476 34.284 34.084 33.881 33.734 33.531 33.339 33.164 33.011 32.816 32.589 32.451 32.306 32.089 31.914 31.746 31.524 31.291 31.091 30.879 30.654 30.511 30.431 30.289 31.041 31.591 31.004 29.854 29.274 28.904 28.911 28.756 29.086 28.271 28.034 27.919 27.886 27.891 28.386 28.989 28.489 27.996 29.869 32.281 29.936 28.294 27.959 27.789 27.764 27.724 28.144 30.784 31.341 29.574 28.689 28.744 29.704 30.026 31.479 29.346 29.006 29.349 29.959 30.074 29.646 29.246 29.249 29.374 29.641 29.794 29.949 30.069 30.159 30.166 30.101 29.964 29.936 29.929 29.954 30.091 30.151 30.251 30.389 30.884 31.424 31.976 32.556 32.829 32.919 33.479 33.446 34.486 35.184 36.721 36.264 35.766 35.181 34.726 34.744 34.921 35.169 35.561 35.826 36.166 36.461 36.681 36.969 37.319 37.651 37.921 38.169 38.454 38.826 39.074 39.456 39.756 40.064 40.361 40.694 40.911
44.906 44.798 44.941 45.003 46.013 45.473 45.238 45.233 45.383 45.498 45.641 44.928 44.848 45.873 45.733 45.676 45.173 45.211 45.276 45.376 45.433 45.463 45.473 45.496 45.533 45.963 46.741 46.756 46.848 46.986 47.118 47.238 47.341 47.451 47.566 47.676 47.818 47.893 47.983 48.106 48.211 48.316 48.471 48.596 48.703 48.806 48.928 49.041 49.131 49.233 49.328 49.431 49.531 49.608 49.696 49.798 49.861 49.938 50.046 50.153 50.218 50.293 50.368 50.463 50.531 50.598 50.671 50.738 50.831 50.888 51.351 51.486 51.226 51.401 51.443 51.543 51.593 51.633 51.721 51.776 51.858 51.936 51.983 52.033 52.091 52.143 52.198 52.251 52.293 52.383 52.486 52.556 52.611 52.596 52.651 52.693 52.798 52.893 52.978 52.961 52.961 52.963 53.106 53.186 53.218 53.281 53.331 53.306 53.341 53.403 53.438 53.481 53.508 53.556 53.571 53.608 53.571 53.611 53.656 53.681 53.701 53.721 53.746 53.791 53.801 53.833 53.871 53.816 53.763 53.713 53.671 53.586 53.556 54.321 54.253 55.251 56.613 56.893 56.186 55.668 56.221 55.286 55.356 53.306 53.223 53.256 53.343 53.596 53.013 52.851 52.841 52.861 52.806 52.798 52.791 52.818 52.881 52.563 53.428 54.411 52.341 52.311 52.258 52.223 52.246 52.291 52.178 52.053 51.971 52.038 51.938 51.798 51.623 52.471 51.413 51.911 51.928 51.388 51.303 51.326 55.176 51.081 50.431 50.486 50.581 50.198 50.178 50.021 49.906 49.818 49.733 49.618 49.503 49.394 49.264 49.169 49.064 48.961 48.854 48.769 48.731 48.629 48.511 48.424 48.326 48.201 48.124 48.004 47.926 47.804 47.704 47.619 47.484 47.384 47.286 47.189 47.084 46.984 46.904 46.796 46.671 46.566 46.456 46.331 46.224 46.106 45.961 45.854 45.751 45.631 45.471 45.369 45.276 45.161 45.066 44.954 44.856 44.741 44.639 44.501 44.396 44.264 44.129 43.986 43.874 43.719 43.574 43.446 43.336 43.214 43.086 42.966 42.829 42.694 42.539 42.374 42.219 42.084 41.959 41.809 41.664 41.541 41.419 41.331 41.204 41.079 40.936 40.786 40.624 40.444 40.279 40.101 39.976 39.809 39.696 39.559 39.424 39.486 39.666 39.364 38.564 38.419 38.329 38.211 38.096 37.986 37.881 37.749 37.601 37.491 37.374 37.259 37.126 36.999 36.879 36.701 36.529 36.389 36.269 36.129 35.984 35.819 35.644 35.501 35.316 35.121 35.019 34.899 34.719 34.529 34.346 34.144 33.969 33.796 33.649 33.416 33.254 33.096 32.896 32.689 32.559 32.396 32.191 32.016 31.829 31.614 31.399 31.231 31.001 30.741 30.591 30.444 30.299 30.401 31.169 30.651 29.839 29.369 29.161 29.856 29.621 29.311 28.686 28.481 28.216 27.961 27.904 27.911 27.999 28.019 27.871 28.739 29.866 29.506 29.181 28.144 27.946 27.831 27.811 28.751 30.484 28.539 28.119 28.591 30.094 29.804 29.276 29.146 28.686 28.649 28.836 29.559 29.621 29.396 29.306 29.189 29.389 29.666 29.814 29.836 30.056 30.084 30.071 29.934 29.881 29.886 29.871 29.966 30.114 30.201 30.276 30.399 31.251 31.661 32.381 32.299 32.029 31.684 32.616 32.961 33.224 34.931 35.841 35.429 34.719 34.501 34.481 34.599 34.856 35.091 35.491 35.946 36.259 36.514 36.779 37.009 37.349 37.629 37.844 38.184 38.444 38.769 39.036 39.384 39.641 40.014 40.371 40.706 40.921
44.961 45.011 44.871 45.011 45.381 45.416 46.308 47.086 47.156 46.938 47.026 45.083 44.893 45.211 45.231 45.228 45.293 45.366 45.448 45.813 45.691 45.751 45.551 45.508 45.473 45.738 46.586 46.831 46.883 47.018 47.138 47.246 47.348 47.481 47.613 47.718 47.828 47.946 48.026 48.123 48.211 48.328 48.461 48.611 48.711 48.858 48.996 49.118 49.218 49.311 49.418 49.486 49.581 49.623 49.703 49.793 49.856 49.971 50.101 50.198 50.248 50.333 50.418 50.503 50.581 50.661 50.726 50.803 50.871 50.966 51.406 51.471 51.293 51.426 51.533 51.626 51.663 51.693 51.791 51.846 51.898 52.003 52.041 52.136 52.183 52.198 52.268 52.313 52.356 52.453 52.553 52.621 52.663 52.691 52.723 52.781 52.863 52.963 53.073 53.051 53.011 53.043 53.158 53.271 53.318 53.341 53.413 53.368 53.421 53.486 53.528 53.561 53.583 53.608 53.638 53.666 53.653 53.686 53.716 53.721 53.743 53.761 53.791 53.823 53.843 53.871 53.913 53.866 53.828 53.741 53.703 53.621 53.586 53.686 54.481 59.521 60.273 60.453 59.746 59.058 58.318 57.591 56.856 53.668 53.246 53.308 53.643 53.393 53.178 53.036 52.946 52.871 52.948 52.928 52.996 53.156 52.873 52.688 54.756 54.671 52.543 52.448 52.381 52.413 52.393 52.373 52.323 52.371 52.096 52.086 51.931 51.746 51.603 52.618 51.393 51.546 52.078 51.471 51.406 51.601 53.408 51.616 50.458 50.503 50.738 50.211 50.158 50.053 49.943 49.821 49.741 49.631 49.528 49.404 49.296 49.221 49.096 48.964 48.881 48.789 48.744 48.641 48.554 48.461 48.371 48.279 48.186 48.094 48.009 47.894 47.821 47.716 47.594 47.494 47.374 47.281 47.149 47.021 46.936 46.806 46.701 46.604 46.479 46.351 46.224 46.106 45.939 45.834 45.724 45.626 45.499 45.391 45.276 45.199 45.089 44.946 44.841 44.724 44.609 44.489 44.381 44.259 44.121 43.976 43.874 43.709 43.576 43.464 43.334 43.239 43.096 42.984 42.836 42.714 42.539 42.386 42.229 42.086 41.971 41.831 41.674 41.541 41.421 41.321 41.166 41.051 40.906 40.771 40.571 40.381 40.229 40.071 39.916 39.779 39.664 39.516 39.396 39.371 39.559 39.249 38.556 38.769 38.876 38.164 38.036 37.919 37.844 37.739 37.594 37.461 37.349 37.239 37.139 36.994 36.889 36.701 36.556 36.416 36.279 36.159 35.991 35.829 35.664 35.576 35.416 35.189 35.076 34.976 34.801 34.629 34.411 34.234 34.059 33.881 33.696 33.516 33.339 33.149 33.001 32.784 32.599 32.416 32.246 32.016 31.831 31.656 31.474 31.269 31.059 30.839 30.654 30.531 30.391 30.276 30.391 30.221 29.819 30.096 29.709 29.256 29.091 28.846 28.689 28.346 28.269 28.091 27.924 27.811 27.886 27.941 27.939 27.934 28.019 28.314 28.314 28.009 28.199 27.959 28.394 30.181 28.036 28.091 29.446 31.809 30.466 29.661 28.791 28.566 28.534 28.659 28.906 29.161 29.004 28.889 29.201 29.156 29.406 29.486 29.694 29.826 29.994 30.061 29.969 29.826 29.771 29.836 29.859 30.034 30.184 30.404 30.479 30.851 32.219 32.561 33.526 33.221 31.971 32.479 33.374 34.079 33.726 34.121 34.946 34.371 34.031 34.086 34.439 34.539 34.919 35.191 35.604 36.046 36.349 36.581 36.851 37.024 37.326 37.589 37.884 38.226 38.476 38.751 39.009 39.339 39.614 39.914 40.309 40.774 40.984
46.021 45.796 45.633 45.723 46.151 46.011 45.791 45.908 45.748 46.861 47.613 45.773 45.006 45.193 46.296 46.058 45.318 45.456 45.746 45.701 46.193 46.578 45.611 45.521 45.468 45.678 46.771 47.098 47.023 47.098 47.208 47.276 47.396 47.523 47.633 47.728 47.796 47.883 47.953 48.053 48.128 48.203 48.338 48.503 48.668 48.871 49.003 49.151 49.261 49.351 49.461 49.551 49.593 49.661 49.771 49.843 49.903 49.983 50.128 50.226 50.316 50.368 50.448 50.546 50.636 50.711 50.796 50.868 50.938 51.021 51.348 51.536 51.343 51.473 51.621 51.686 51.748 51.776 51.866 51.916 51.966 52.076 52.126 52.183 52.236 52.291 52.368 52.378 52.428 52.543 52.628 52.683 52.751 52.771 52.801 52.861 52.951 53.023 53.136 53.146 53.088 53.126 53.228 53.338 53.401 53.413 53.483 53.468 53.478 53.551 53.593 53.641 53.638 53.686 53.701 53.728 53.678 53.741 53.716 53.761 53.776 53.791 53.833 53.876 53.888 53.933 53.938 53.906 53.841 53.793 53.753 53.653 53.646 53.731 54.378 59.388 60.276 60.481 59.793 59.063 58.336 57.608 56.866 53.681 53.331 53.533 53.691 53.496 53.186 53.123 53.033 52.921 52.951 53.011 53.496 54.273 53.218 53.011 55.288 53.996 52.598 52.466 52.403 52.461 52.386 52.348 52.353 52.203 52.076 51.988 51.966 51.783 51.586 52.741 51.481 51.526 52.298 51.336 51.263 51.746 53.033 54.108 50.516 50.496 51.003 50.276 50.168 50.063 49.978 49.883 49.768 49.651 49.556 49.456 49.341 49.251 49.121 49.034 48.951 48.864 48.766 48.669 48.591 48.504 48.456 48.354 48.234 48.169 48.064 47.951 47.839 47.744 47.639 47.506 47.394 47.291 47.159 47.031 46.921 46.806 46.701 46.604 46.524 46.411 46.289 46.154 45.986 45.859 45.744 45.636 45.529 45.396 45.286 45.214 45.096 44.949 44.831 44.711 44.604 44.509 44.379 44.269 44.119 43.986 43.864 43.731 43.594 43.474 43.351 43.216 43.091 42.981 42.834 42.684 42.541 42.411 42.249 42.081 41.926 41.784 41.626 41.506 41.376 41.256 41.131 40.999 40.836 40.694 40.551 40.359 40.216 40.066 39.916 39.784 39.634 39.496 39.364 39.261 39.109 39.259 38.591 38.396 38.236 38.144 38.014 37.914 37.824 37.704 37.581 37.469 37.329 37.244 37.146 37.009 36.886 36.736 36.586 36.406 36.286 36.141 36.004 35.819 35.696 35.584 35.426 35.234 35.116 34.999 34.821 34.686 34.506 34.331 34.149 33.944 33.731 33.561 33.361 33.154 32.999 32.829 32.636 32.434 32.261 32.086 31.871 31.714 31.524 31.349 31.139 30.961 30.739 30.604 30.404 30.239 30.116 31.456 34.574 36.324 34.599 31.144 29.196 29.601 29.691 29.046 28.344 28.449 29.341 28.006 29.214 29.086 28.261 28.149 28.604 28.546 28.501 27.926 28.954 30.374 31.976 28.069 27.941 28.394 31.424 30.779 30.531 28.786 28.864 29.041 28.794 28.589 28.726 28.881 28.801 28.734 29.001 29.186 29.349 29.494 29.791 29.879 29.831 30.064 29.849 29.684 29.674 29.724 29.804 29.984 30.156 30.471 30.859 32.229 33.059 33.766 34.854 32.774 32.036 32.269 36.109 35.336 34.776 33.716 33.624 33.646 33.859 34.134 34.394 34.696 35.011 35.291 35.674 35.979 36.319 36.631 36.866 37.054 37.361 37.569 37.834 38.129 38.461 38.694 38.961 39.254 39.574 39.914 40.374 40.684 40.949
45.538 45.483 45.256 45.133 45.141 45.123 45.158 45.223 45.301 46.966 48.003 45.808 45.098 46.263 47.738 46.266 45.758 47.243 47.501 47.801 46.546 46.618 45.671 45.461 45.448 45.498 46.668 47.166 47.136 47.163 47.246 47.311 47.416 47.521 47.578 47.633 47.678 47.751 47.818 47.901 47.933 47.978 48.118 48.266 48.428 48.791 49.048 49.191 49.311 49.413 49.528 49.598 49.636 49.718 49.813 49.913 49.948 50.066 50.168 50.283 50.343 50.421 50.503 50.603 50.703 50.788 50.858 50.906 50.998 51.108 51.361 51.551 51.411 51.493 51.628 51.691 51.776 51.826 51.936 51.993 52.053 52.153 52.176 52.263 52.308 52.363 52.433 52.468 52.526 52.641 52.718 52.763 52.838 52.833 52.873 52.931 53.023 53.113 53.196 53.161 53.128 53.161 53.293 53.401 53.476 53.471 53.556 53.526 53.541 53.613 53.676 53.701 53.731 53.766 53.771 53.796 53.741 53.808 53.778 53.811 53.858 53.828 53.873 53.928 53.911 53.971 53.988 53.958 53.891 53.811 53.748 53.683 53.638 55.603 54.276 59.221 60.263 60.471 59.793 59.081 58.336 57.606 56.868 53.981 53.411 53.366 53.321 53.381 53.268 53.173 53.081 52.941 52.986 53.021 53.311 53.708 53.228 53.171 55.028 52.696 52.496 52.646 52.641 52.391 52.338 52.446 52.336 52.271 52.078 51.961 51.943 51.731 51.618 51.596 51.458 51.486 52.321 51.456 51.356 51.873 53.883 52.331 50.523 50.441 50.666 50.311 50.176 50.113 50.021 49.916 49.793 49.693 49.601 49.526 49.429 49.314 49.219 49.109 49.014 48.909 48.811 48.701 48.586 48.529 48.469 48.349 48.261 48.179 48.071 47.954 47.834 47.769 47.646 47.539 47.426 47.311 47.194 47.061 46.951 46.826 46.721 46.619 46.531 46.404 46.291 46.181 46.021 45.901 45.776 45.671 45.539 45.404 45.289 45.184 45.094 44.976 44.854 44.751 44.641 44.524 44.414 44.311 44.144 44.014 43.889 43.754 43.609 43.476 43.364 43.219 43.086 42.954 42.801 42.649 42.494 42.359 42.204 42.041 41.891 41.746 41.579 41.436 41.321 41.204 41.084 40.966 40.821 40.676 40.534 40.331 40.181 40.021 39.896 39.726 39.586 39.481 39.336 39.211 39.084 40.859 41.671 38.649 39.566 38.139 38.001 37.886 37.809 37.721 37.594 37.471 37.361 37.246 37.136 37.029 36.894 36.776 36.599 36.434 36.306 36.141 36.006 35.836 35.739 35.599 35.481 35.274 35.124 34.969 34.796 34.641 34.489 34.299 34.109 33.916 33.721 33.546 33.344 33.174 33.016 32.834 32.679 32.499 32.321 32.134 31.969 31.754 31.596 31.484 31.366 31.384 31.321 34.409 32.726 30.646 30.886 34.106 38.171 38.091 36.826 32.189 28.961 29.224 29.836 29.909 28.736 28.601 28.621 29.861 31.804 30.464 28.929 28.806 28.644 29.769 30.551 28.354 29.366 29.191 28.791 27.951 28.436 30.146 30.896 30.734 30.139 28.709 28.789 29.219 29.079 28.901 28.806 28.814 28.949 28.811 29.081 29.189 29.416 29.399 29.651 29.711 29.694 29.756 29.726 29.719 29.634 29.649 29.759 29.916 30.309 30.766 31.009 31.926 32.946 32.729 32.876 32.574 32.041 32.796 34.059 33.054 33.849 35.529 34.449 33.761 33.909 34.196 34.549 34.819 35.071 35.369 35.634 36.026 36.326 36.596 36.794 37.054 37.306 37.581 37.881 38.099 38.384 38.686 38.924 39.181 39.544 39.861 40.229 40.661 40.914
45.246 45.148 45.108 45.083 45.101 45.116 45.121 45.136 45.328 47.093 47.996 46.051 45.181 46.201 47.756 46.621 46.998 48.031 47.438 47.526 47.108 47.261 46.701 47.021 45.543 45.423 46.911 47.341 47.093 47.126 47.203 47.298 47.456 47.443 47.491 47.533 47.536 47.571 47.628 47.668 47.696 47.736 47.888 48.056 48.158 48.576 49.076 49.251 49.336 49.476 49.561 49.643 49.726 49.763 49.873 49.956 50.008 50.141 50.236 50.331 50.433 50.496 50.543 50.643 50.743 50.851 50.941 50.981 51.088 51.166 51.408 51.591 51.421 51.541 51.683 51.721 51.816 51.911 51.991 52.078 52.128 52.213 52.248 52.311 52.363 52.441 52.501 52.541 52.581 52.691 52.783 52.826 52.896 52.913 52.943 52.993 53.083 53.166 53.211 53.158 53.128 53.196 53.351 53.453 53.511 53.536 53.601 53.583 53.598 53.688 53.728 53.766 53.793 53.813 53.816 53.833 53.811 53.818 53.848 53.863 53.896 53.886 53.908 53.976 53.961 54.006 54.026 53.971 53.926 53.846 53.816 53.708 53.653 54.618 55.153 59.411 60.266 60.466 59.798 59.083 58.351 57.626 56.893 54.168 53.433 53.401 53.381 53.456 53.436 53.278 53.143 53.033 52.991 53.023 53.071 53.043 52.928 52.853 52.746 52.626 52.603 52.613 52.931 53.296 52.328 52.421 52.293 52.438 52.446 52.378 51.863 51.676 51.566 51.508 51.438 51.368 51.403 51.323 51.363 51.276 51.641 51.601 50.566 50.491 50.731 50.551 50.243 50.151 50.088 49.941 49.853 49.746 49.666 49.564 49.459 49.351 49.279 49.166 49.046 48.939 48.821 48.696 48.616 48.549 48.471 48.381 48.306 48.211 48.086 47.986 47.876 47.774 47.669 47.544 47.426 47.314 47.199 47.071 46.984 46.856 46.749 46.656 46.544 46.419 46.314 46.206 46.079 45.934 45.816 45.694 45.564 45.431 45.319 45.241 45.109 45.001 44.906 44.781 44.669 44.546 44.411 44.299 44.149 44.006 43.881 43.724 43.569 43.426 43.314 43.174 43.056 42.919 42.776 42.636 42.466 42.339 42.214 42.039 41.889 41.724 41.566 41.439 41.304 41.184 41.066 40.941 40.774 40.639 40.474 40.289 40.149 39.981 39.821 39.691 39.519 39.419 39.274 39.161 39.074 39.069 43.699 38.249 39.609 39.876 37.979 37.896 37.811 37.741 37.606 37.494 37.371 37.254 37.139 37.019 36.891 36.741 36.601 36.446 36.294 36.111 35.979 35.841 35.701 35.571 35.391 35.236 35.104 34.944 34.754 34.581 34.434 34.256 34.094 33.929 33.756 33.554 33.386 33.239 33.086 32.951 32.946 32.799 32.636 32.639 32.266 32.056 32.101 32.114 32.874 32.134 32.489 33.896 31.171 33.841 32.939 36.724 38.676 38.304 34.959 31.824 29.514 29.194 30.771 29.151 28.756 28.761 28.691 30.301 28.571 28.641 31.021 28.249 29.171 32.901 31.849 27.556 28.296 28.181 28.029 29.726 30.144 30.246 29.896 29.699 29.199 28.676 28.504 28.641 29.151 29.026 28.776 28.674 28.724 28.851 29.131 29.214 29.339 29.429 29.611 29.646 29.736 29.776 29.741 29.719 29.636 29.641 29.736 30.056 30.299 30.511 31.484 32.024 31.479 32.936 34.094 33.034 32.114 32.154 32.296 33.759 33.894 37.361 35.289 34.351 33.984 34.271 34.921 35.016 35.169 35.386 35.756 36.019 36.291 36.574 36.741 37.021 37.341 37.546 37.861 38.079 38.369 38.644 38.879 39.189 39.526 39.899 40.241 40.546 40.769
45.396 45.133 45.131 45.103 45.148 45.131 45.148 45.136 45.171 46.753 48.006 46.541 45.226 47.341 48.591 48.131 48.206 48.221 48.271 48.251 48.293 48.328 48.571 48.453 45.841 45.393 47.898 47.056 46.808 46.918 47.068 47.183 47.226 47.256 47.261 47.263 47.241 47.248 47.266 47.286 47.273 47.376 47.658 47.878 48.013 48.538 49.093 49.276 49.378 49.513 49.603 49.706 49.796 49.848 49.946 50.011 50.108 50.221 50.321 50.398 50.493 50.551 50.616 50.728 50.813 50.906 50.973 51.046 51.141 51.216 51.456 51.721 51.491 51.601 51.751 51.833 51.911 51.983 52.051 52.133 52.186 52.251 52.303 52.356 52.408 52.476 52.568 52.581 52.633 52.728 52.838 52.906 52.946 52.963 52.993 53.043 53.136 53.228 53.273 53.258 53.226 53.293 53.421 53.521 53.566 53.571 53.648 53.651 53.653 53.723 53.773 53.808 53.858 53.871 53.866 53.871 53.861 53.888 53.908 53.906 53.938 53.991 53.958 54.016 54.003 54.056 54.056 54.013 53.963 53.881 53.848 53.771 53.731 55.258 58.811 59.528 60.258 60.473 59.816 59.086 58.376 57.628 56.888 54.156 53.483 53.448 53.423 53.511 53.446 53.306 53.188 53.066 53.003 52.976 52.923 52.851 52.796 52.753 52.633 52.526 52.478 52.428 52.368 52.468 52.251 52.248 52.148 52.086 51.998 51.931 51.846 51.803 51.726 51.528 51.446 51.323 51.358 51.336 51.266 51.303 51.478 52.873 50.633 50.503 50.811 50.646 50.236 50.183 50.113 49.986 49.856 49.743 49.663 49.586 49.476 49.376 49.281 49.176 49.066 48.966 48.849 48.749 48.686 48.591 48.531 48.446 48.319 48.219 48.111 47.996 47.906 47.821 47.691 47.574 47.449 47.334 47.221 47.104 46.999 46.891 46.784 46.671 46.551 46.461 46.341 46.229 46.104 45.994 45.849 45.731 45.604 45.491 45.341 45.244 45.126 45.019 44.891 44.764 44.626 44.524 44.379 44.256 44.116 43.979 43.849 43.696 43.586 43.444 43.344 43.199 43.056 42.919 42.779 42.629 42.481 42.349 42.189 42.011 41.854 41.686 41.554 41.391 41.279 41.126 41.016 40.896 40.766 40.594 40.441 40.266 40.089 39.916 39.786 39.649 39.451 39.354 39.214 39.524 39.514 38.881 39.021 38.884 41.354 42.151 37.969 37.894 37.801 37.726 37.596 37.481 37.369 37.251 37.149 36.999 36.831 36.664 36.509 36.336 36.199 36.056 37.229 37.131 38.224 35.509 35.449 35.276 35.169 35.114 35.201 34.716 34.429 34.289 34.096 34.029 33.979 34.111 34.026 34.091 33.979 33.294 33.381 32.926 32.646 32.666 32.249 32.001 32.396 33.344 34.094 31.894 33.204 32.804 33.674 31.064 33.311 38.426 38.046 37.001 38.569 29.649 29.494 29.299 30.371 29.136 28.819 28.734 28.659 29.179 29.069 28.554 29.136 28.274 28.174 29.036 28.029 27.906 27.959 28.029 29.891 35.404 29.106 29.046 28.636 28.351 28.309 28.261 28.391 28.456 28.541 28.654 28.576 28.644 28.849 28.856 29.174 29.116 29.311 29.304 29.499 29.714 29.761 29.821 29.761 29.731 29.664 29.641 30.024 30.374 30.619 32.284 32.851 32.891 32.016 32.859 32.479 31.949 32.076 32.239 37.974 36.386 33.644 35.254 34.949 34.269 34.129 34.299 34.791 35.041 35.211 35.581 35.736 35.984 36.319 36.496 36.791 37.096 37.294 37.539 37.846 38.096 38.386 38.669 38.936 39.216 39.641 39.899 40.224 40.469 40.711
45.608 45.136 45.148 45.153 45.156 45.143 45.168 45.176 45.153 46.441 47.648 46.371 45.186 47.671 48.648 48.548 48.293 47.571 47.076 47.478 47.016 46.463 47.648 48.466 46.046 45.376 46.701 46.528 46.598 46.686 46.753 46.833 46.868 46.881 46.993 46.948 46.891 46.906 46.906 46.936 46.946 47.026 47.576 47.813 47.946 48.428 49.128 49.338 49.456 49.561 49.628 49.763 49.856 49.923 49.991 50.073 50.156 50.288 50.406 50.508 50.571 50.641 50.681 50.788 50.853 50.926 50.996 51.086 51.188 51.283 51.801 52.706 51.548 51.583 51.811 51.976 52.018 52.058 52.128 52.163 52.246 52.308 52.381 52.423 52.463 52.538 52.588 52.623 52.666 52.788 52.876 52.933 52.976 53.023 53.066 53.106 53.191 53.266 53.346 53.341 53.296 53.378 53.483 53.581 53.641 53.646 53.716 53.696 53.681 53.778 53.841 53.876 53.896 53.913 53.918 53.928 53.916 53.921 53.946 53.973 53.993 54.016 54.031 54.091 54.056 54.098 54.108 54.041 54.006 53.936 53.893 53.821 53.786 54.848 56.291 59.526 60.258 60.456 59.803 59.083 58.378 57.636 56.483 53.583 53.516 53.493 53.501 53.606 53.531 53.281 53.178 53.108 53.053 52.991 52.963 52.883 52.871 52.833 52.698 52.591 52.541 52.478 52.413 52.373 52.281 52.213 52.173 52.088 51.958 51.838 51.781 51.918 52.356 51.516 51.461 51.383 51.371 51.308 51.278 51.268 51.826 54.091 50.658 50.516 50.696 50.763 50.238 50.211 50.081 49.956 49.838 49.738 49.678 49.591 49.504 49.421 49.319 49.234 49.114 49.006 48.899 48.786 48.721 48.631 48.556 48.459 48.324 48.254 48.136 48.039 47.934 47.846 47.729 47.601 47.474 47.354 47.226 47.126 47.016 46.911 46.811 46.714 46.601 46.486 46.361 46.269 46.146 46.001 45.851 45.716 45.594 45.449 45.326 45.209 45.111 44.996 44.884 44.766 44.664 44.549 44.409 44.276 44.156 44.004 43.866 43.739 43.594 43.461 43.319 43.191 43.056 42.901 42.739 42.574 42.449 42.299 42.129 41.949 41.801 41.651 41.519 41.356 41.231 41.116 40.994 40.884 40.726 40.579 40.381 40.216 40.029 39.879 39.731 39.576 39.376 39.269 39.161 40.674 39.459 39.676 41.784 45.474 40.119 38.016 37.951 37.894 37.801 37.714 37.589 37.446 37.301 37.151 37.036 36.856 36.734 36.616 36.459 36.266 36.139 37.249 42.894 44.719 45.169 37.551 36.241 36.041 35.939 37.156 38.739 35.459 35.249 34.736 34.461 34.619 34.824 34.374 33.629 33.546 33.589 33.056 33.314 32.774 33.071 33.456 33.096 33.351 34.889 34.906 32.334 31.774 31.329 31.229 30.906 30.739 31.699 35.769 37.036 32.544 30.429 29.684 30.061 29.701 29.481 29.236 29.136 28.819 28.789 28.984 29.641 28.826 28.479 28.364 28.279 28.231 28.324 28.119 28.106 29.159 30.046 29.154 28.929 27.956 28.084 28.196 28.151 28.189 28.321 28.346 28.346 28.426 28.484 28.624 28.801 28.861 29.146 29.199 29.179 29.269 29.386 29.586 29.739 29.816 30.019 29.881 29.779 29.706 30.629 31.546 32.446 31.694 32.696 31.271 32.494 31.564 31.711 31.936 32.084 34.174 38.061 33.809 35.781 33.889 35.699 34.319 34.081 34.331 34.644 34.959 35.266 35.481 35.689 36.009 36.264 36.501 36.751 37.174 37.341 37.616 37.794 38.051 38.439 38.714 38.959 39.309 39.579 39.799 40.064 40.371 40.599
45.668 45.146 45.168 45.163 45.143 45.148 45.183 45.221 45.203 46.086 46.331 45.758 45.211 47.546 48.626 45.393 45.386 45.363 45.356 45.348 45.378 45.391 47.408 48.496 46.838 45.433 46.923 46.523 46.633 46.583 46.608 46.668 46.703 46.711 46.771 46.786 46.833 46.848 46.866 46.876 46.901 46.978 47.643 47.788 47.923 48.446 49.198 49.418 49.526 49.608 49.691 49.823 49.916 49.978 50.046 50.141 50.201 50.331 50.423 50.533 50.586 50.658 50.721 50.821 50.898 50.983 51.031 51.101 51.206 51.283 51.928 53.073 51.696 51.656 51.743 51.983 52.071 52.141 52.218 52.258 52.298 52.378 52.398 52.478 52.528 52.573 52.631 52.648 52.716 52.816 52.926 52.988 53.028 53.061 53.096 53.163 53.233 53.311 53.393 53.408 53.363 53.431 53.518 53.621 53.686 53.708 53.761 53.731 53.733 53.821 53.883 53.938 53.938 53.968 53.991 53.968 53.933 53.948 53.981 54.026 54.033 54.063 54.083 54.128 54.098 54.128 54.111 54.101 54.046 53.956 53.943 53.878 53.833 54.308 55.826 59.523 60.263 60.461 59.818 59.113 58.376 57.661 56.676 53.606 53.543 53.553 53.573 53.586 53.458 53.323 53.166 53.123 53.066 53.058 53.033 53.076 53.083 53.141 52.808 52.693 52.653 52.583 52.508 52.446 52.406 52.336 52.201 52.131 52.038 51.923 51.856 51.898 52.446 51.583 51.471 51.396 51.371 51.366 51.356 51.348 51.803 52.751 50.693 50.511 50.563 50.631 50.278 50.208 50.096 49.978 49.828 49.753 49.683 49.616 49.546 49.451 49.356 49.234 49.126 49.039 48.956 48.844 48.749 48.631 48.576 48.476 48.344 48.271 48.161 48.049 47.936 47.844 47.744 47.609 47.506 47.371 47.269 47.156 47.019 46.941 46.819 46.724 46.604 46.491 46.366 46.241 46.121 45.991 45.846 45.731 45.616 45.489 45.389 45.264 45.164 45.036 44.904 44.774 44.664 44.524 44.391 44.256 44.111 43.979 43.834 43.699 43.566 43.424 43.276 43.144 43.001 42.884 42.744 42.561 42.394 42.236 42.061 41.891 41.756 41.574 41.429 41.294 41.169 41.059 40.949 40.836 40.694 40.516 40.329 40.144 39.976 39.809 39.674 39.504 39.306 39.179 39.616 44.224 39.391 39.886 41.071 39.694 38.139 38.031 37.944 37.871 37.799 37.676 37.536 37.386 37.224 37.091 36.964 36.809 36.696 36.536 36.401 36.236 36.266 39.359 44.341 48.551 45.564 38.779 36.234 35.956 35.726 38.186 37.901 35.549 34.399 34.649 35.259 33.996 34.206 34.946 33.646 34.341 33.376 33.264 33.201 33.021 33.514 34.134 33.136 32.104 31.961 32.076 31.609 31.531 31.369 31.109 30.969 30.879 32.681 31.814 35.431 30.146 29.996 30.601 31.906 32.776 31.036 29.679 29.471 29.144 28.874 28.976 29.144 29.286 28.614 28.406 28.334 28.504 29.759 31.039 27.926 27.874 28.159 27.944 27.919 28.011 28.046 28.056 28.051 28.184 28.216 28.256 28.324 28.401 28.514 28.599 28.724 28.949 29.421 29.341 29.179 29.294 29.449 29.599 29.781 30.159 30.411 30.391 31.124 34.106 34.449 31.561 32.134 31.514 31.641 31.716 31.546 31.539 31.731 31.914 32.109 33.194 36.461 32.706 36.894 34.166 34.649 34.236 34.241 34.464 34.746 34.964 35.251 35.529 35.766 36.016 36.221 36.484 36.811 37.046 37.324 37.494 37.784 38.091 38.369 38.704 38.944 39.196 39.516 39.721 40.036 40.246 40.509
45.953 45.143 45.176 45.168 45.173 45.166 45.198 45.198 45.208 46.266 47.913 46.813 45.216 47.423 48.603 45.481 45.356 45.328 45.313 45.331 45.351 45.391 47.248 48.516 46.958 45.431 46.811 46.991 46.858 46.616 46.658 46.676 46.696 46.691 46.751 46.783 46.773 46.816 46.818 46.836 46.866 47.008 47.686 47.758 47.938 48.491 49.396 49.511 49.716 49.683 49.791 49.881 49.948 50.026 50.136 50.251 50.398 50.493 50.588 50.663 50.761 50.806 50.858 50.946 51.048 51.151 51.201 51.198 51.271 51.288 51.963 53.536 51.943 51.838 51.886 52.213 52.726 53.401 54.091 54.718 54.363 54.851 54.023 52.538 52.583 52.611 52.668 52.708 52.746 52.846 52.946 53.026 53.078 53.098 53.161 53.193 53.268 53.348 53.426 53.436 53.396 53.486 53.581 53.666 53.728 53.748 53.786 53.771 53.786 53.856 53.911 53.941 53.973 53.991 54.018 54.028 53.981 53.983 54.011 54.038 54.071 54.103 54.101 54.158 54.113 54.176 54.183 54.118 54.053 53.986 53.978 53.936 53.848 54.013 55.293 59.518 60.243 60.463 59.816 59.093 58.393 57.653 56.853 53.631 53.561 53.593 53.658 53.761 53.423 53.303 53.243 53.318 53.161 53.198 53.163 53.216 53.328 53.066 52.913 52.761 52.791 52.893 52.851 52.491 52.706 52.591 52.266 52.151 52.053 51.961 51.916 51.836 52.033 51.608 51.523 51.401 51.358 51.368 51.461 51.686 51.761 51.823 51.023 50.531 50.518 50.863 50.213 50.181 50.106 49.986 49.858 49.798 49.731 49.659 49.546 49.449 49.359 49.224 49.141 49.031 48.924 48.864 48.756 48.686 48.596 48.489 48.371 48.301 48.204 48.096 47.981 47.871 47.759 47.616 47.506 47.364 47.236 47.126 47.031 46.919 46.819 46.714 46.616 46.499 46.376 46.301 46.161 46.034 45.874 45.759 45.639 45.509 45.389 45.256 45.156 45.024 44.879 44.766 44.626 44.491 44.356 44.236 44.089 43.979 43.824 43.679 43.544 43.391 43.259 43.111 42.969 42.861 42.716 42.529 42.326 42.171 42.009 41.859 41.696 41.529 41.366 41.224 41.094 40.986 40.886 40.769 40.619 40.456 40.269 40.104 39.919 39.759 39.591 39.444 39.281 39.136 38.989 38.844 38.731 38.614 38.606 38.354 38.204 38.061 37.951 37.896 37.951 38.176 38.436 38.031 37.419 37.104 37.069 36.939 37.461 37.001 36.666 36.599 36.534 39.161 43.526 46.181 42.966 39.251 35.556 35.746 35.044 35.204 34.816 39.011 34.551 34.961 35.094 34.126 34.311 35.196 33.599 33.399 33.241 33.099 32.989 32.974 32.926 34.139 33.076 32.741 33.254 32.479 32.586 31.691 31.444 31.174 33.529 34.031 30.769 31.241 32.586 34.974 31.384 30.361 31.474 30.101 29.431 29.329 29.276 28.986 28.831 28.726 28.661 28.921 28.494 28.454 29.331 30.131 30.054 28.706 28.051 30.569 29.234 28.856 27.876 27.996 28.029 28.031 28.081 28.109 28.089 28.201 28.229 28.301 28.524 28.596 28.749 29.091 29.651 29.476 29.494 29.886 29.521 29.591 30.006 30.119 31.696 38.496 39.801 41.856 39.449 30.834 30.854 31.201 31.421 31.206 31.379 31.524 31.699 31.926 32.136 32.664 33.034 32.701 34.409 34.771 34.539 34.554 34.434 34.506 34.689 34.951 35.191 35.446 35.731 36.004 36.226 36.524 36.761 36.944 37.279 37.499 37.844 38.124 38.376 38.626 38.834 39.109 39.359 39.626 39.854 40.089 40.381
45.701 45.183 45.191 45.171 45.161 45.173 45.201 45.223 45.223 46.146 47.883 47.621 45.246 47.296 48.588 46.523 45.333 45.323 45.296 45.316 45.348 45.378 47.008 48.558 47.741 45.461 46.678 46.666 46.716 46.661 46.681 46.696 46.693 46.678 46.776 46.878 46.968 46.801 46.786 46.806 46.821 47.113 47.653 47.761 47.963 48.521 49.486 49.853 49.878 49.821 49.953 50.026 50.093 50.178 50.261 50.346 50.451 50.621 50.716 50.796 50.846 50.851 50.853 50.906 50.968 51.058 51.156 51.248 51.258 51.333 51.748 53.718 52.451 52.111 52.143 56.276 56.641 56.688 56.686 56.741 56.766 56.773 54.743 52.643 52.668 52.643 52.693 52.743 52.798 52.878 52.988 53.053 53.108 53.163 53.183 53.226 53.293 53.401 53.481 53.483 53.458 53.516 53.618 53.698 53.743 53.753 53.811 53.811 53.806 53.883 53.938 53.963 53.988 54.036 54.061 54.046 54.018 54.043 54.061 54.066 54.128 54.141 54.138 54.191 54.166 54.198 54.203 54.168 54.111 54.053 54.008 53.981 53.888 54.563 55.293 59.501 59.793 59.401 57.511 56.946 58.358 57.018 56.253 53.678 53.568 53.713 53.841 53.663 53.476 53.408 53.603 53.978 53.381 53.611 53.891 53.713 53.141 53.016 52.966 52.923 52.928 52.966 52.741 52.596 52.743 52.586 52.343 52.191 52.078 51.941 51.911 51.793 51.678 51.621 51.541 51.441 51.403 51.363 51.368 51.513 51.956 51.983 51.418 50.563 50.528 51.281 50.241 50.158 50.086 49.998 49.896 49.821 49.758 49.661 49.589 49.479 49.354 49.254 49.164 49.069 48.976 48.864 48.771 48.686 48.601 48.531 48.381 48.306 48.196 48.099 47.981 47.866 47.749 47.616 47.509 47.396 47.264 47.171 47.061 46.949 46.839 46.734 46.609 46.509 46.391 46.276 46.151 46.016 45.861 45.744 45.641 45.494 45.364 45.236 45.146 45.009 44.881 44.766 44.611 44.479 44.344 44.209 44.076 43.931 43.796 43.664 43.509 43.351 43.209 43.061 42.936 42.789 42.646 42.444 42.294 42.121 41.981 41.821 41.644 41.476 41.319 41.166 41.041 40.896 40.804 40.689 40.534 40.369 40.206 40.016 39.871 39.684 39.551 39.406 39.276 39.141 38.991 38.851 38.734 38.591 38.529 38.326 38.201 38.091 38.309 38.711 38.864 39.169 39.036 38.741 38.131 37.454 37.936 36.864 36.859 39.954 36.154 36.216 36.126 36.951 36.871 37.896 43.779 42.394 37.014 36.064 35.341 34.916 35.401 35.521 34.374 34.179 33.999 33.971 34.189 34.421 33.584 33.806 33.539 33.341 33.214 32.854 33.746 33.406 32.976 33.134 32.096 32.064 31.924 31.551 31.399 31.219 34.451 32.149 30.714 30.581 30.564 31.501 30.776 29.959 29.749 29.564 29.329 29.196 29.051 28.916 28.806 28.711 28.686 28.649 28.664 28.769 29.961 30.599 30.311 28.099 29.071 28.851 30.176 29.971 27.949 27.974 28.006 28.011 28.074 28.129 28.164 28.159 28.269 28.471 28.706 28.729 28.746 29.096 29.629 29.576 29.796 30.021 30.346 29.889 30.054 31.176 32.431 36.159 40.949 34.231 38.829 34.211 33.579 32.056 31.101 31.166 31.271 31.451 31.684 31.909 32.139 32.326 32.561 32.694 33.009 33.339 34.166 36.114 34.844 34.681 34.691 34.819 35.194 35.461 35.714 35.959 36.189 36.434 36.621 36.914 37.229 37.506 37.839 38.114 38.306 38.519 38.789 38.981 39.426 39.604 39.776 40.039 40.304
45.673 45.191 45.178 45.176 45.183 45.173 45.201 45.236 45.256 46.053 47.866 47.718 45.253 47.171 48.558 46.921 45.376 45.331 45.296 45.328 45.381 45.393 46.843 48.611 47.888 45.451 46.148 46.793 46.623 46.688 46.698 46.713 46.663 47.773 51.083 47.523 46.948 46.976 46.923 46.801 46.801 47.133 47.651 47.808 47.976 48.546 49.393 49.671 49.811 49.916 50.003 50.063 50.151 50.256 50.308 50.428 50.526 50.623 50.738 50.806 50.786 50.716 50.768 50.831 50.908 50.988 51.081 51.236 51.303 51.398 52.541 55.198 52.046 52.016 52.186 56.508 56.841 56.866 56.878 56.943 56.976 56.963 54.871 52.666 52.693 52.668 52.726 52.758 52.833 52.918 53.021 53.113 53.146 53.183 53.221 53.263 53.316 53.411 53.511 53.531 53.491 53.571 53.643 53.703 53.786 53.806 53.866 53.856 53.826 53.923 53.978 53.993 54.036 54.048 54.076 54.088 54.063 54.093 54.111 54.146 54.196 54.206 54.196 54.226 54.208 54.246 54.231 54.186 54.161 54.116 54.071 54.038 53.953 57.146 56.211 55.156 54.283 53.903 53.786 54.251 58.203 55.211 56.673 53.861 53.668 53.653 53.613 53.571 53.838 55.556 56.113 56.791 57.181 57.156 57.181 57.658 56.948 56.891 54.691 53.603 53.611 53.093 52.746 52.663 52.671 52.593 52.611 52.311 52.126 51.963 51.893 51.766 51.671 51.606 51.546 51.491 51.436 51.388 51.353 51.441 51.841 52.298 52.421 50.563 50.508 50.403 50.228 50.148 50.093 50.006 49.916 49.868 49.751 49.671 49.594 49.509 49.369 49.271 49.164 49.099 48.986 48.881 48.781 48.711 48.626 48.554 48.436 48.341 48.226 48.146 48.026 47.914 47.781 47.666 47.541 47.409 47.306 47.179 47.059 46.936 46.844 46.721 46.596 46.484 46.381 46.264 46.141 45.991 45.854 45.741 45.644 45.489 45.361 45.246 45.141 45.011 44.874 44.726 44.596 44.466 44.334 44.186 44.046 43.891 43.749 43.619 43.476 43.314 43.171 42.994 42.861 42.709 42.546 42.379 42.211 42.049 41.899 41.736 41.584 41.414 41.264 41.116 40.986 40.856 40.769 40.651 40.526 40.356 40.196 40.011 39.866 39.684 39.514 39.349 39.209 39.109 38.961 38.884 38.756 38.646 38.574 38.364 38.259 38.256 38.319 38.064 37.794 37.781 37.716 37.619 37.561 37.519 37.244 36.886 36.939 38.509 36.454 36.334 36.139 35.934 36.021 36.674 41.641 43.324 39.396 35.021 35.081 34.996 35.371 40.881 35.091 34.786 35.246 34.054 34.014 33.724 33.676 34.044 34.479 33.636 33.514 32.999 32.606 32.451 32.346 32.164 32.029 31.846 31.669 31.511 31.371 31.214 31.029 30.889 30.776 30.699 30.554 30.416 30.284 30.149 29.949 29.746 29.549 29.414 29.234 29.051 28.879 28.876 28.816 28.821 29.756 30.064 31.419 29.326 28.954 29.286 28.144 32.929 28.484 28.771 28.341 28.024 28.026 28.019 28.096 28.114 28.116 28.166 28.274 28.549 28.754 28.666 28.759 29.066 29.474 29.371 29.556 30.096 31.114 29.854 32.719 33.736 36.796 37.249 39.374 40.386 35.006 35.151 36.901 35.891 31.346 31.046 31.176 31.356 31.584 31.819 32.079 32.301 32.516 32.686 33.176 34.259 34.109 36.376 34.814 34.604 34.641 34.869 35.139 35.434 35.739 36.116 36.259 36.406 36.714 36.951 37.274 37.609 37.804 37.976 38.196 38.489 38.716 38.949 39.214 39.416 39.734 40.011 40.224
45.701 45.226 45.226 45.208 45.191 45.188 45.203 45.243 45.251 45.951 47.848 47.768 45.238 47.053 48.553 47.598 45.401 45.358 45.343 45.348 45.376 45.398 46.721 48.611 48.043 45.493 46.068 48.086 47.503 46.678 46.688 46.658 47.133 52.848 53.518 52.448 49.978 48.381 47.008 46.798 46.838 47.023 47.648 47.811 47.931 48.456 49.353 49.773 49.858 49.956 50.038 50.148 50.208 50.273 50.321 50.363 50.443 50.508 50.556 50.571 50.586 50.681 50.723 50.798 50.928 51.041 51.103 51.203 51.276 51.418 52.356 54.056 52.481 52.041 52.123 56.496 57.068 56.711 55.881 55.213 55.483 55.251 53.821 52.681 52.713 52.676 52.756 52.821 52.876 52.986 53.073 53.151 53.188 53.211 53.268 53.301 53.386 53.478 53.546 53.588 53.576 53.611 53.663 53.738 53.811 53.821 53.886 53.868 53.863 53.926 53.988 54.028 54.046 54.066 54.086 54.126 54.128 54.138 54.166 54.211 54.241 54.246 54.231 54.281 54.278 54.296 54.298 54.276 54.216 54.161 54.101 54.071 54.006 55.341 56.946 56.118 54.053 53.986 54.026 53.891 53.928 54.041 54.053 53.956 53.743 53.648 53.606 53.538 53.886 58.061 58.448 58.458 58.448 58.468 58.486 58.508 58.536 58.551 55.043 53.508 54.556 54.983 55.103 53.001 53.688 52.693 52.523 52.266 52.128 52.046 51.921 51.803 51.686 51.581 51.523 51.448 51.403 51.373 51.306 51.363 51.513 52.913 53.556 50.578 50.498 50.476 50.648 50.146 50.093 50.003 49.941 49.851 49.761 49.676 49.599 49.481 49.374 49.271 49.186 49.126 49.036 48.926 48.839 48.726 48.654 48.584 48.489 48.371 48.251 48.144 48.039 47.911 47.801 47.674 47.554 47.411 47.289 47.164 47.031 46.939 46.839 46.704 46.624 46.494 46.379 46.249 46.149 46.016 45.869 45.731 45.626 45.474 45.361 45.229 45.136 45.004 44.884 44.739 44.596 44.454 44.314 44.166 44.006 43.861 43.721 43.541 43.386 43.221 43.056 42.914 42.751 42.646 42.454 42.309 42.136 42.016 41.894 41.749 41.594 41.416 41.256 41.116 40.991 40.876 40.764 40.616 40.466 40.314 40.181 40.016 39.864 39.724 39.641 39.326 39.261 39.211 39.121 39.084 38.591 38.361 38.289 38.439 38.209 37.979 37.669 37.614 37.976 38.789 39.541 37.399 38.371 37.044 36.864 36.716 36.784 36.396 36.209 36.079 35.879 35.876 38.334 43.249 47.666 44.414 40.509 35.656 35.104 35.139 38.714 44.044 37.181 34.481 35.214 33.771 33.781 33.754 33.591 33.454 33.221 33.099 32.956 32.794 32.626 32.524 32.379 32.244 32.119 31.941 31.786 31.641 31.521 31.344 31.281 31.294 31.054 30.901 30.779 30.656 30.451 30.321 30.221 29.996 29.791 29.614 29.384 29.236 29.136 29.101 29.059 28.871 29.326 29.649 29.646 28.941 28.764 29.856 28.764 29.179 28.911 29.449 28.664 28.126 28.021 28.039 28.079 28.101 28.174 28.294 28.619 28.726 28.659 29.326 28.709 28.934 29.351 29.904 29.761 30.324 30.734 30.449 34.589 31.354 39.594 42.229 35.206 42.349 30.391 32.364 33.301 32.264 30.851 30.911 31.019 31.154 31.354 31.621 31.959 32.266 32.511 32.664 33.139 36.184 34.569 35.904 35.916 34.764 34.789 34.871 35.141 35.401 35.716 36.009 36.356 36.414 36.671 37.009 37.194 37.479 37.706 37.946 38.156 38.406 38.646 38.864 39.131 39.366 39.646 39.951 40.156
45.833 45.286 45.258 45.241 45.213 45.226 45.246 45.261 45.256 45.831 47.846 47.803 45.321 46.998 48.511 47.873 45.391 45.371 45.376 45.388 45.403 45.413 46.068 48.398 48.201 45.501 46.038 46.996 46.723 46.691 46.683 46.756 50.123 54.973 54.873 53.886 52.968 51.871 47.788 46.791 46.838 46.838 47.473 47.783 47.928 48.376 49.371 49.783 49.888 49.976 50.053 50.171 50.201 50.166 50.228 50.276 50.438 50.518 50.556 50.616 50.703 50.748 50.811 50.886 51.046 51.111 51.136 51.216 51.308 51.436 52.281 53.918 52.201 52.071 52.111 53.033 52.476 52.448 52.471 52.538 52.651 52.731 52.733 52.736 52.751 52.683 52.786 52.858 52.916 52.983 53.098 53.168 53.213 53.241 53.296 53.343 53.423 53.521 53.581 53.628 53.623 53.641 53.706 53.791 53.856 53.873 53.936 53.943 53.908 53.996 54.043 54.068 54.101 54.126 54.146 54.173 54.153 54.198 54.218 54.253 54.301 54.308 54.316 54.338 54.333 54.361 54.341 54.296 54.236 54.196 54.143 54.081 54.041 55.433 57.063 55.706 54.168 53.986 53.923 53.938 53.986 54.016 53.971 53.888 53.786 53.713 53.623 53.548 53.716 58.386 59.108 59.096 59.068 59.056 59.076 59.088 59.101 59.038 56.091 53.618 54.416 55.483 55.261 53.121 53.261 52.706 52.436 52.283 52.161 52.038 51.958 51.841 51.683 51.606 51.541 51.433 51.373 51.348 51.278 51.216 51.253 51.548 51.161 50.623 50.566 52.056 51.243 51.676 51.498 50.308 49.951 49.856 49.778 49.684 49.626 49.526 49.394 49.279 49.189 49.116 49.029 48.936 48.841 48.759 48.651 48.594 48.486 48.381 48.239 48.154 48.024 47.909 47.794 47.654 47.529 47.416 47.304 47.159 47.039 46.916 46.834 46.736 46.624 46.486 46.374 46.276 46.161 46.016 45.871 45.739 45.641 45.504 45.344 45.231 45.111 44.976 44.834 44.719 44.559 44.416 44.274 44.109 43.959 43.806 43.651 43.476 43.319 43.154 43.019 42.854 42.736 42.581 42.451 42.291 42.156 42.011 41.891 41.726 41.571 41.409 41.244 41.141 40.986 40.896 40.876 40.931 40.724 40.574 40.489 40.341 40.166 39.831 39.709 39.141 39.034 38.926 38.871 38.814 38.749 38.651 38.454 38.326 38.256 37.976 37.761 37.656 39.279 43.754 39.171 37.166 38.071 37.009 36.781 40.124 41.666 36.586 37.129 36.211 36.261 36.251 36.841 39.359 46.246 46.151 44.686 36.301 34.889 34.776 34.596 35.436 34.264 34.074 33.919 33.779 33.676 33.534 33.414 33.306 33.199 33.111 32.966 32.864 32.749 32.606 32.484 32.361 32.244 32.054 31.924 31.789 31.764 31.576 31.484 31.369 31.181 31.011 30.899 30.789 30.581 30.519 30.349 30.111 29.846 29.679 29.561 29.536 29.461 29.359 29.339 29.116 29.541 30.091 31.106 30.664 29.781 28.504 28.421 28.374 29.401 28.961 28.541 28.541 28.111 28.071 28.174 28.234 28.339 28.581 28.504 28.606 28.799 28.776 28.789 29.491 30.279 30.759 29.191 29.326 30.299 30.264 30.206 30.036 31.641 32.421 35.249 38.859 32.696 34.176 33.201 30.991 30.691 30.761 30.861 30.971 31.116 31.411 31.776 32.134 32.486 32.671 32.911 35.451 35.839 35.306 36.229 34.929 34.854 34.961 35.096 35.339 35.601 35.989 36.181 36.414 36.679 36.949 37.124 37.436 37.669 37.909 38.129 38.314 38.529 38.786 39.034 39.271 39.554 39.849 40.051
45.798 45.283 45.278 45.268 45.263 45.268 45.251 45.306 45.298 45.728 47.823 47.826 45.451 46.746 48.493 48.111 45.403 45.371 45.833 45.873 45.531 45.661 46.063 48.763 49.136 45.536 45.996 46.966 46.668 46.706 46.861 47.716 53.041 54.306 55.151 55.228 54.293 53.301 51.943 48.813 46.801 46.766 47.076 47.728 47.873 48.281 49.333 49.821 49.886 49.991 50.093 50.176 50.231 50.181 50.276 50.393 50.548 50.626 50.666 50.691 50.753 50.768 50.821 50.973 51.153 51.263 51.243 51.268 51.381 51.478 51.981 54.238 53.563 52.168 52.211 52.311 52.353 52.403 52.451 52.541 52.688 52.776 52.791 52.753 52.788 52.751 52.818 52.893 52.946 53.013 53.103 53.198 53.241 53.301 53.326 53.383 53.468 53.546 53.636 53.671 53.666 53.686 53.753 53.843 53.923 53.948 54.013 54.016 53.991 54.056 54.096 54.143 54.168 54.173 54.216 54.246 54.243 54.256 54.281 54.311 54.336 54.356 54.366 54.376 54.371 54.358 54.331 54.296 54.246 54.198 54.181 54.116 54.091 54.393 57.018 56.233 54.526 54.023 54.033 53.988 54.006 54.023 53.943 53.898 53.786 53.726 53.673 53.586 53.571 57.858 58.563 58.538 58.496 58.493 58.471 58.471 58.451 58.441 56.011 53.143 53.941 55.306 55.266 53.061 52.713 52.541 52.388 52.316 52.213 52.068 51.981 51.848 51.761 51.653 51.576 51.453 51.383 51.318 51.256 51.188 51.101 50.923 50.766 50.663 50.586 51.061 52.218 50.576 51.726 52.736 50.011 49.906 49.813 49.724 49.639 49.546 49.394 49.274 49.186 49.134 49.036 48.924 48.851 48.771 48.679 48.584 48.484 48.369 48.256 48.146 48.024 47.891 47.794 47.641 47.526 47.406 47.279 47.159 47.046 46.931 46.834 46.726 46.614 46.499 46.391 46.281 46.149 46.021 45.866 45.704 45.596 45.469 45.319 45.186 45.076 45.009 44.831 44.681 44.531 44.386 44.246 44.089 43.914 43.754 43.611 43.471 44.234 43.131 43.006 42.849 42.696 42.554 42.404 42.244 42.114 42.049 41.876 41.729 41.581 41.521 41.524 41.599 41.546 41.946 41.474 41.056 40.691 40.526 40.031 39.866 40.136 39.711 39.779 39.536 39.234 39.094 38.936 38.879 38.584 38.399 38.261 38.069 37.949 37.811 38.204 37.646 37.721 39.931 37.661 37.336 37.946 37.124 37.139 37.971 41.436 37.696 37.191 36.824 36.301 35.924 35.794 35.929 41.029 43.434 38.356 35.691 34.791 34.671 34.496 34.379 34.234 34.091 33.914 33.849 33.721 33.589 33.449 33.366 33.244 33.154 33.051 32.961 32.834 32.739 32.631 32.491 32.344 32.176 32.071 31.941 31.824 31.671 31.574 31.406 31.246 31.116 30.971 30.849 30.676 30.481 30.271 30.109 29.979 29.886 29.959 30.084 30.476 29.651 29.661 29.371 28.981 29.911 31.999 29.576 30.626 28.581 28.409 28.149 28.324 29.199 28.894 28.631 28.244 28.096 28.226 28.309 28.231 28.611 28.524 28.241 28.456 28.824 29.296 29.359 28.881 29.139 30.456 29.449 30.416 29.989 30.161 29.794 29.869 34.134 41.346 32.241 34.634 34.111 31.251 30.481 30.541 30.606 30.686 30.796 31.014 31.239 31.616 31.999 32.401 32.654 32.869 33.416 34.614 34.336 35.154 35.144 34.951 34.879 34.996 35.324 35.594 35.879 36.264 36.519 36.626 36.851 37.094 37.369 37.626 37.831 38.054 38.206 38.494 38.786 39.021 39.254 39.486 39.711 40.004
45.708 45.283 45.298 45.291 45.313 45.286 45.293 45.316 45.291 45.643 47.783 47.856 45.571 46.576 48.458 48.748 46.313 45.391 49.676 50.663 49.798 50.473 50.826 50.951 50.988 45.548 45.918 47.013 46.676 46.693 46.781 47.318 51.503 52.961 53.928 54.856 55.306 54.668 53.628 50.918 48.603 46.758 46.838 47.618 47.863 48.333 49.408 49.886 49.963 50.088 50.118 50.181 50.313 50.328 50.453 50.528 50.641 50.708 50.703 50.748 50.726 50.788 50.851 51.758 51.551 51.661 51.411 51.411 51.446 51.516 52.036 55.113 52.501 52.256 52.288 52.353 52.388 52.453 52.498 52.561 52.628 52.738 52.828 52.796 52.798 52.821 52.891 52.966 52.998 53.068 53.158 53.243 53.306 53.346 53.391 53.443 53.506 53.621 53.691 53.713 53.696 53.743 53.831 53.916 53.971 54.016 54.086 54.096 54.081 54.121 54.156 54.208 54.256 54.253 54.283 54.313 54.311 54.301 54.316 54.321 54.378 54.383 54.396 54.386 54.386 54.348 54.331 54.331 54.276 54.206 54.213 54.133 54.093 54.171 55.676 55.486 54.991 54.088 54.051 54.006 53.981 53.976 53.943 53.888 53.848 53.751 53.841 53.786 53.603 56.176 57.058 57.458 56.848 57.166 57.223 57.378 57.221 57.166 55.388 53.143 53.238 53.101 53.233 52.691 52.573 52.491 52.388 52.286 52.208 52.116 51.998 51.888 51.783 51.663 51.596 51.486 51.403 51.316 51.261 51.203 51.306 52.138 51.843 50.713 50.531 50.781 51.528 52.633 54.013 50.081 50.008 49.936 49.833 49.744 49.656 49.584 49.446 49.301 49.214 49.181 49.084 48.949 48.864 48.761 48.681 48.574 48.461 48.354 48.254 48.154 47.994 47.884 47.794 47.651 47.546 47.416 47.289 47.169 47.041 46.916 46.814 46.706 46.604 46.486 46.361 46.231 46.129 46.001 45.869 45.731 45.621 45.474 45.356 45.231 45.114 44.981 44.834 44.701 44.541 44.396 44.224 44.084 43.884 43.744 44.219 49.904 53.106 44.886 42.969 42.819 42.696 42.536 42.379 42.181 42.514 42.551 41.991 41.634 41.939 41.549 41.971 41.879 42.296 42.379 40.549 44.784 42.819 40.381 41.116 40.124 40.049 39.746 39.494 39.304 39.086 39.301 38.919 38.784 38.789 38.304 38.411 38.224 38.014 38.096 38.309 39.709 37.534 37.366 37.476 37.944 37.824 36.819 36.709 36.534 36.484 36.226 36.366 36.474 36.259 35.651 35.549 35.576 36.739 36.069 35.061 34.839 34.989 34.774 34.524 34.381 34.296 34.199 33.946 33.871 33.761 33.626 33.506 33.399 33.324 33.261 33.164 33.051 32.914 32.799 32.676 32.549 32.414 32.309 32.166 31.979 31.849 31.719 31.571 31.431 31.296 31.144 31.001 30.901 30.704 30.546 30.494 30.404 30.339 30.874 30.304 30.611 30.386 29.741 29.711 29.516 29.211 29.406 30.601 30.831 30.794 29.334 28.636 28.429 28.244 28.984 30.436 28.771 28.369 28.166 28.206 28.419 28.491 28.984 29.149 31.796 30.681 28.836 30.659 35.489 32.696 29.606 29.416 29.429 29.484 29.589 29.646 29.714 29.819 32.606 35.016 33.549 30.229 30.276 30.326 30.369 30.461 30.541 30.634 30.774 30.924 31.144 31.516 31.914 32.316 32.641 32.839 33.106 34.869 36.469 36.294 35.819 34.819 34.864 35.051 35.269 35.601 35.899 36.194 36.439 36.641 36.849 37.096 37.289 37.581 37.669 37.996 38.241 38.424 38.679 38.986 39.194 39.444 39.656 39.856
45.748 45.303 45.333 45.313 45.301 45.278 45.283 45.303 45.293 45.533 47.748 47.901 45.746 46.478 48.426 48.798 46.818 45.388 50.026 51.436 51.466 51.498 51.493 51.501 51.481 45.733 45.871 47.381 46.728 46.698 47.008 47.586 47.191 49.991 52.603 53.513 54.496 55.231 53.693 51.473 50.026 46.711 46.738 47.556 47.886 48.526 49.518 50.031 50.151 50.338 50.138 50.191 50.336 50.456 50.556 50.641 50.733 50.808 50.851 50.873 50.913 50.946 50.946 51.776 51.503 51.418 51.901 52.226 51.706 51.583 51.906 53.161 52.221 52.328 52.351 52.396 52.441 52.528 52.551 52.616 52.668 52.726 52.821 52.776 52.813 52.908 52.991 53.023 53.048 53.128 53.248 53.301 53.371 53.418 53.453 53.491 53.578 53.676 53.746 53.738 53.741 53.798 53.876 53.961 54.021 54.056 54.096 54.111 54.126 54.173 54.233 54.251 54.318 54.331 54.353 54.386 54.381 54.351 54.403 54.393 54.403 54.451 54.446 54.441 54.376 54.318 54.298 54.346 54.266 54.251 54.226 54.256 54.681 56.281 54.396 54.166 54.163 54.053 54.063 54.053 54.038 53.981 53.906 53.893 53.886 53.781 53.726 53.658 53.631 53.601 53.583 53.448 53.403 53.503 53.521 53.551 53.338 53.131 53.051 52.931 52.876 52.806 52.733 52.633 52.563 52.508 52.441 52.318 52.233 52.168 52.073 51.951 51.813 51.761 51.683 51.433 51.351 51.268 51.293 51.213 51.773 52.596 52.996 51.918 50.551 50.518 51.143 53.626 51.116 50.123 50.016 49.938 49.831 49.759 49.684 49.609 49.469 49.341 49.236 49.159 49.049 48.946 48.859 48.771 48.681 48.601 48.496 48.384 48.251 48.144 48.004 47.891 47.776 47.641 47.519 47.379 47.234 47.116 47.024 46.916 46.809 46.709 46.626 46.514 46.391 46.304 46.166 46.046 45.914 45.751 45.631 45.509 45.391 45.261 45.121 44.976 44.819 44.684 44.556 44.411 44.359 44.434 44.016 43.876 45.561 51.349 44.981 44.819 42.846 42.569 42.379 42.249 42.041 42.459 42.271 41.796 42.226 42.056 43.709 42.244 41.379 41.181 41.016 40.734 40.641 43.791 43.491 40.549 39.881 39.834 39.479 39.364 39.256 39.159 39.039 38.926 38.831 38.861 38.561 38.201 38.216 38.121 37.911 37.771 38.169 40.746 39.301 38.749 38.071 37.134 36.754 36.609 36.524 36.406 36.296 36.179 36.071 35.929 35.809 35.649 35.511 35.341 35.231 35.104 34.961 34.824 35.471 34.911 34.526 34.391 34.329 34.181 34.049 33.944 33.846 33.821 33.699 33.581 33.419 33.339 33.206 33.081 32.934 32.821 32.721 32.586 32.439 32.339 32.229 32.031 31.831 31.624 31.516 31.431 31.421 31.391 31.196 31.024 30.886 30.921 31.094 31.039 31.426 32.554 31.186 30.479 30.089 29.881 29.796 29.789 29.586 29.069 30.181 31.699 29.321 29.346 28.979 28.754 28.554 30.311 28.616 28.404 28.704 29.004 28.301 29.024 28.404 29.209 29.169 31.701 30.506 30.489 31.659 34.599 32.356 29.371 29.436 29.451 29.496 29.569 29.661 29.741 29.839 29.939 29.991 30.079 30.116 30.186 30.264 30.341 30.426 30.556 30.676 30.771 30.889 31.051 31.386 31.829 32.241 32.611 32.809 32.994 35.861 36.631 37.139 35.599 34.881 34.904 35.109 35.346 35.574 35.814 36.049 36.301 36.599 36.796 36.989 37.204 37.376 37.634 37.931 38.189 38.361 38.624 38.871 39.181 39.336 39.521 39.734
45.693 45.308 45.316 45.288 45.276 45.281 45.288 45.296 45.288 45.423 46.913 46.793 45.558 46.351 48.393 48.753 47.178 45.398 49.638 51.116 51.081 51.016 50.878 50.636 50.868 46.091 45.746 47.263 46.773 46.726 46.681 46.618 46.903 47.798 50.106 50.766 53.151 53.481 52.116 50.793 47.943 46.631 46.806 47.653 47.983 48.831 49.606 50.366 50.123 50.138 50.213 50.326 50.413 50.466 50.578 50.661 50.768 50.836 50.876 50.941 50.983 51.198 51.378 51.453 51.283 51.576 52.171 52.826 52.003 51.623 51.911 53.056 52.246 52.378 52.386 52.453 52.561 52.648 52.848 53.118 53.351 53.368 53.911 52.833 52.896 52.983 53.023 53.053 53.093 53.188 53.281 53.353 53.391 53.453 53.508 53.551 53.606 53.706 53.758 53.761 53.788 53.858 53.963 54.026 54.063 54.076 54.133 54.166 54.186 54.241 54.253 54.308 54.343 54.376 54.371 54.383 54.376 54.398 54.376 54.373 54.993 54.451 54.483 54.521 54.448 54.538 54.503 55.233 55.686 54.758 54.451 54.513 55.213 56.158 55.268 54.463 54.121 54.053 54.106 54.086 54.063 54.011 53.956 53.936 53.873 53.833 53.786 53.698 53.586 53.536 53.478 53.446 53.391 53.336 53.306 53.263 53.223 53.158 53.088 52.988 52.923 52.851 52.788 52.743 52.641 52.561 52.493 52.393 52.323 52.196 52.088 51.966 51.821 51.753 51.876 51.586 51.283 51.296 51.261 51.143 51.218 52.096 54.091 53.641 50.636 50.498 52.643 52.403 50.266 50.188 50.038 49.946 49.853 49.759 49.684 49.591 49.481 49.411 49.286 49.189 49.066 48.989 48.914 48.801 48.699 48.586 48.464 48.349 48.229 48.096 47.986 47.869 47.741 47.616 47.504 47.379 47.236 47.149 47.034 46.924 46.831 46.746 46.661 46.564 46.444 46.351 46.201 46.051 45.959 45.784 45.651 45.571 45.449 45.279 45.146 45.049 44.984 44.991 44.864 44.996 44.979 45.229 44.381 43.916 45.061 49.326 47.124 47.051 42.884 42.636 42.621 42.636 42.306 42.304 42.114 43.121 43.521 41.769 41.926 41.396 41.264 42.899 41.864 41.374 40.609 43.261 41.611 41.021 39.936 39.656 39.559 39.336 39.329 39.256 39.034 38.779 38.644 38.524 38.321 38.086 37.984 37.856 37.711 37.591 37.466 37.336 37.156 37.039 36.924 36.834 36.704 36.584 36.486 36.366 36.231 36.099 36.014 35.901 35.801 35.651 35.499 35.336 35.229 35.106 34.989 34.896 34.811 34.686 34.581 34.449 34.309 34.234 34.139 34.114 34.021 33.901 33.749 33.664 33.459 33.349 33.249 33.111 33.021 32.909 32.761 32.614 32.489 32.379 32.199 32.006 31.791 31.704 32.721 31.709 31.769 31.899 31.771 31.294 31.029 31.121 31.169 31.421 31.094 31.364 30.711 31.359 30.284 30.004 29.911 29.766 29.629 29.294 29.501 30.401 31.226 30.184 29.146 28.719 28.474 28.004 28.796 29.789 28.761 34.886 28.416 29.381 28.514 29.744 30.926 29.466 31.079 29.811 30.946 31.474 29.701 29.356 29.441 29.511 29.594 29.629 29.684 29.766 29.819 29.871 29.934 30.016 30.084 30.179 30.261 30.376 30.466 30.574 30.681 30.776 30.861 30.979 31.301 31.749 32.171 32.536 32.806 32.954 34.349 36.279 36.561 35.659 34.949 35.074 35.196 35.389 35.449 35.754 35.954 36.261 36.541 36.684 36.844 37.054 37.331 37.621 37.831 38.036 38.289 38.489 38.774 39.001 39.176 39.391 39.614
50.316 45.293 45.286 45.276 45.241 45.273 45.253 45.258 45.286 45.288 45.308 45.321 45.293 45.591 47.351 47.261 46.323 45.436 45.831 46.291 46.358 46.748 46.381 46.053 46.198 45.658 45.656 46.366 46.746 46.748 46.481 46.628 47.363 46.538 46.663 46.733 49.836 50.973 51.001 49.516 46.633 46.626 47.008 47.798 48.263 49.188 49.788 50.266 50.181 50.296 50.361 50.401 50.716 50.928 51.396 51.206 51.573 52.006 52.168 52.436 52.776 52.973 53.031 52.913 51.493 54.193 53.981 53.598 51.958 51.681 52.066 54.726 53.583 52.433 52.428 52.841 54.578 54.948 55.316 55.358 55.348 55.376 55.198 52.763 52.926 53.026 53.066 53.146 53.178 53.248 53.321 53.413 53.461 53.503 53.538 53.598 53.668 53.708 53.771 53.796 53.888 53.916 54.003 54.063 54.083 54.116 54.141 54.141 54.176 54.248 54.248 54.256 54.331 54.631 54.681 54.448 54.543 54.666 54.793 55.711 57.058 56.546 55.638 55.201 55.033 55.958 55.931 55.683 55.561 54.861 54.538 54.486 54.516 54.513 54.418 54.223 54.146 54.093 54.143 54.098 54.093 54.048 54.006 53.938 53.926 53.868 53.823 53.743 53.716 54.008 53.921 53.733 53.596 53.623 53.386 53.303 53.231 53.156 53.083 52.973 52.873 52.856 52.801 52.733 52.668 52.581 52.538 52.448 52.358 52.218 52.131 51.983 51.881 51.781 51.678 51.313 51.236 51.208 51.543 53.816 51.956 52.418 54.063 52.371 50.963 50.456 53.193 51.593 50.258 50.181 50.093 49.978 49.866 49.779 49.689 49.621 49.514 49.391 49.301 49.229 49.109 49.019 48.916 48.784 48.654 48.584 48.464 48.346 48.241 48.124 47.996 47.886 47.791 47.651 47.531 47.414 47.286 47.166 47.059 46.971 46.849 46.764 46.659 46.519 46.411 46.301 46.489 46.609 46.716 46.666 46.751 46.534 45.834 45.711 45.516 45.154 45.051 44.941 44.699 44.624 44.959 45.179 44.801 43.781 43.834 45.439 50.029 50.001 42.914 42.781 42.539 42.551 42.376 42.499 42.681 42.556 41.701 41.389 41.519 42.026 41.534 41.989 41.574 40.969 40.726 42.079 43.024 40.436 40.191 39.786 39.471 39.271 39.164 38.939 38.736 38.611 38.471 38.321 38.191 38.059 37.944 37.799 37.661 37.499 37.389 37.279 37.129 37.001 36.896 36.774 36.689 36.569 36.431 36.316 36.206 36.099 36.019 35.904 35.814 35.689 35.559 35.431 35.319 35.186 35.101 35.076 34.984 34.829 34.671 34.549 34.421 34.296 34.211 34.164 34.019 33.954 33.799 33.641 33.536 33.416 33.286 33.159 33.054 32.916 32.769 32.656 32.506 32.356 32.161 32.021 31.909 32.056 37.376 33.514 32.029 32.156 31.799 31.369 31.396 31.326 31.114 31.011 30.944 30.809 30.774 30.784 30.411 30.321 30.014 29.899 30.104 29.646 29.329 31.144 35.796 30.369 29.171 28.889 28.789 28.281 28.429 28.234 27.846 31.924 31.071 29.266 28.301 28.869 30.351 29.569 30.069 29.324 31.066 30.004 29.396 29.416 29.511 29.569 29.666 29.681 29.724 29.771 29.834 29.916 29.959 30.031 30.119 30.204 30.274 30.374 30.486 30.569 30.659 30.746 30.826 30.914 31.171 31.629 32.089 32.499 32.824 32.941 33.516 35.816 34.614 35.946 35.231 34.974 35.171 35.321 35.424 35.669 35.824 36.184 36.416 36.519 36.754 37.044 37.346 37.496 37.726 37.909 38.221 38.414 38.636 38.856 39.091 39.271 39.494
52.131 45.301 45.291 45.258 45.233 45.221 45.246 45.256 45.276 45.256 45.391 45.341 45.336 45.376 45.411 45.456 45.466 45.451 45.503 45.543 45.586 45.626 45.653 45.623 45.716 45.658 45.661 46.451 47.401 46.793 46.391 46.768 46.958 46.576 47.596 47.111 46.641 47.268 48.551 47.096 46.601 46.628 47.321 47.913 48.683 49.413 49.663 50.111 50.156 50.803 50.601 50.468 52.493 53.096 53.126 53.116 53.186 53.228 53.268 53.333 53.381 53.448 53.531 53.606 51.083 51.396 51.543 51.648 51.716 51.708 51.993 53.653 52.646 52.466 52.448 53.081 55.418 55.438 55.418 55.441 55.463 55.468 55.453 53.636 52.903 53.056 53.123 53.188 53.228 53.296 53.361 53.433 53.511 53.556 53.596 53.646 53.701 53.751 53.821 53.833 53.893 53.931 54.043 54.511 54.066 54.143 54.186 54.236 54.293 54.421 54.503 55.801 57.141 56.696 56.156 56.286 55.556 55.681 56.293 55.448 55.133 54.856 54.763 54.706 54.678 54.688 54.626 54.646 54.598 54.533 54.503 54.456 54.356 54.311 54.308 54.198 54.126 54.133 54.138 54.118 54.121 54.078 54.046 53.991 53.946 53.878 53.868 53.811 53.806 54.601 54.103 53.701 53.518 53.483 53.423 53.323 53.238 53.153 53.081 52.986 52.908 52.896 52.808 52.748 52.673 52.596 52.556 52.476 52.376 52.253 52.138 52.038 51.891 51.796 51.683 51.343 51.241 51.208 51.441 52.988 51.898 51.661 51.583 51.643 51.251 50.438 50.836 51.783 50.413 50.171 50.076 49.996 49.856 49.786 49.689 49.599 49.451 49.394 49.314 49.209 49.131 49.034 48.939 48.826 48.716 48.619 48.491 48.364 48.269 48.139 48.029 47.904 47.799 47.676 47.571 47.431 47.659 47.594 47.921 48.444 47.464 47.131 46.724 46.536 46.271 46.599 47.694 49.734 48.991 47.306 46.501 45.884 45.714 45.616 45.406 45.164 44.981 44.814 44.551 44.419 44.661 45.401 44.434 43.871 46.656 44.751 44.361 47.411 43.064 42.824 43.181 43.199 44.396 46.239 44.546 42.701 41.694 41.596 41.509 42.119 42.086 40.974 40.629 40.379 40.244 40.099 39.879 39.714 39.559 39.376 39.219 39.096 38.944 38.789 38.639 38.494 38.391 38.279 38.129 38.026 37.911 37.769 37.629 37.514 37.406 37.271 37.201 37.031 36.899 36.824 36.706 36.559 36.444 36.344 36.254 36.141 36.051 35.951 35.866 35.749 35.646 35.504 35.361 35.226 35.151 35.204 35.036 34.864 34.779 34.629 34.486 34.354 34.261 34.176 34.069 33.949 33.796 33.631 33.524 33.396 33.294 33.186 33.054 32.916 32.806 32.661 32.496 32.326 32.239 32.194 32.159 32.009 32.426 31.889 31.844 31.866 31.561 31.386 31.316 31.126 31.074 31.049 30.984 30.831 30.536 30.596 30.371 30.324 30.074 30.221 30.396 30.106 29.459 31.479 35.986 32.109 32.466 29.614 29.551 28.654 28.554 28.724 28.649 29.629 28.471 29.109 29.436 28.859 28.989 29.219 29.736 30.286 30.319 29.414 29.441 29.511 29.584 29.641 29.706 29.736 29.809 29.844 29.911 29.944 30.009 30.064 30.149 30.221 30.299 30.399 30.501 30.584 30.644 30.729 30.796 30.866 31.044 31.486 31.934 32.396 32.769 32.951 33.126 34.166 35.414 36.449 35.611 35.106 35.074 35.171 35.356 35.524 35.749 35.961 36.186 36.501 36.694 36.949 37.201 37.434 37.589 37.821 38.124 38.289 38.509 38.746 38.926 39.121 39.376
48.511 45.298 45.298 45.278 45.243 45.258 45.256 45.258 45.271 45.258 45.386 45.443 45.368 45.396 45.411 45.441 45.483 45.448 45.498 45.551 45.591 45.623 45.631 45.651 45.643 45.658 45.686 46.618 47.406 46.318 46.348 46.431 46.518 46.996 47.971 46.651 46.616 46.628 46.626 46.608 46.643 46.908 47.781 48.161 49.093 49.543 50.033 50.721 50.141 50.406 50.473 50.478 52.771 53.678 53.763 53.823 53.888 53.961 54.041 54.088 54.176 54.261 54.328 54.386 51.056 51.243 51.426 51.548 51.726 51.811 51.973 54.733 52.801 52.441 52.476 52.956 55.546 55.503 55.528 55.561 55.531 55.573 55.541 54.143 52.928 53.113 53.193 53.243 53.268 53.331 53.381 53.436 53.491 53.521 53.641 53.691 53.791 54.736 54.278 54.808 56.376 55.521 55.976 57.028 54.463 54.761 55.531 55.753 55.576 54.611 54.736 54.886 54.768 54.663 54.598 54.548 54.546 54.603 54.628 54.648 54.686 54.671 54.686 54.688 54.716 54.678 54.621 54.651 54.891 54.566 54.658 54.878 54.393 54.303 54.278 54.211 54.191 54.136 54.108 54.198 54.393 55.148 54.081 54.018 53.963 53.903 53.878 53.826 53.733 53.738 53.728 53.638 53.566 53.518 53.411 53.331 53.241 53.153 53.076 52.996 52.916 52.868 52.798 52.728 52.668 52.591 52.543 52.483 52.358 52.263 52.188 52.048 51.908 51.796 51.696 51.381 51.256 51.173 51.238 51.241 51.283 51.411 51.913 52.693 51.466 50.458 50.441 51.628 50.533 50.176 50.106 49.993 49.883 49.766 49.669 49.594 49.449 49.391 49.316 49.221 49.141 49.051 48.931 48.829 48.726 48.599 48.476 48.364 48.234 48.111 47.989 47.929 48.296 48.401 49.169 49.419 49.551 49.956 48.881 47.844 47.019 47.174 46.739 46.379 46.331 46.761 48.226 49.666 50.711 46.859 45.996 45.849 45.601 45.509 45.251 44.989 44.756 44.516 44.281 44.069 43.819 43.714 43.456 44.521 47.699 48.169 51.629 52.934 49.389 44.229 44.191 44.526 44.489 44.134 43.316 41.909 41.301 41.181 41.016 40.841 40.684 40.551 40.426 40.274 40.114 39.961 39.806 39.606 39.446 39.299 39.179 39.026 38.904 38.754 38.606 38.491 38.376 38.254 38.119 38.011 37.934 37.881 37.981 37.811 37.679 37.859 37.656 37.269 37.006 36.961 36.756 36.649 36.484 36.354 36.261 36.149 36.051 35.981 35.861 35.766 35.669 35.514 35.374 35.269 35.164 35.119 35.096 34.994 34.764 34.641 34.566 34.401 34.281 34.186 34.036 33.934 33.814 33.644 33.481 33.396 33.291 33.204 33.094 32.941 32.739 32.599 32.514 32.484 32.426 32.284 32.294 33.454 31.999 31.934 32.049 31.776 31.591 31.966 31.404 31.546 31.321 31.204 30.834 30.739 30.654 30.566 30.404 30.639 30.571 30.276 30.561 30.134 29.656 30.021 30.081 31.716 32.156 30.424 28.999 28.836 28.521 33.579 28.169 28.051 28.464 28.886 28.996 29.039 29.074 30.084 30.869 30.496 29.399 29.446 29.499 29.581 29.626 29.684 29.744 29.816 29.856 29.899 29.971 30.011 30.046 30.076 30.149 30.246 30.319 30.424 30.509 30.579 30.661 30.744 30.796 30.879 31.006 31.349 31.786 32.236 32.674 32.921 33.061 33.456 35.649 35.576 35.839 35.774 35.414 35.294 35.244 35.456 35.651 35.819 36.116 36.374 36.581 36.794 37.061 37.234 37.499 37.716 37.944 38.156 38.359 38.581 38.814 38.944 39.136
