ncols 449
nrows 31
xllcorner    457058
yllcorner    93434
cellsize     2
NODATA_value -9999
1.745 1.747 1.792 1.8 1.887 1.77 1.717 1.737 1.77 1.817 1.732 1.745 1.757 1.785 1.81 1.742 1.77 1.887 1.762 1.75 1.78 1.802 1.817 1.77 1.77 1.78 1.747 1.705 1.715 1.842 1.765 1.81 1.782 1.82 1.882 1.877 1.84 1.792 1.73 1.722 1.632 1.692 1.89 1.837 1.707 1.795 1.837 1.762 1.772 1.775 1.695 1.877 1.752 1.697 1.752 1.782 1.77 1.75 1.767 1.842 1.815 1.832 1.727 1.81 1.78 1.772 1.637 1.825 1.795 1.755 1.504 1.336 1.178 0.809 0.395 0.184 -0.088 -0.367 -0.601 -0.845 -1.083 -1.393 -1.621 -1.815 -1.892 -1.916 -1.828 -1.643 -1.353 -1.363 -1.586 -1.839 -1.919 -2.173 -1.91 -1.643 -1.407 -1.101 -0.822 -0.518 -0.575 -0.557 -0.79 -1.073 -1.384 -1.588 -1.8 -1.961 -1.832 -1.671 -1.661 -1.648 -1.547 -1.429 -1.353 -1.535 -1.802 -1.892 -2.18 -1.923 -1.815 -1.531 -1.339 -1.077 -0.975 -1.073 -1.336 -1.64 -1.962 -2.155 -1.876 -1.805 -1.649 -1.644 -1.562 -1.609 -1.624 -1.638 -1.653 -1.812 -1.929 -2.19 -2.198 -1.962 -2.218 -2.19 -1.904 -1.633 -1.637 -1.944 -2.165 -2.148 -2.123 -2.195 -1.945 -1.627 -1.639 -1.914 -2.225 -2.173 -2.198 -2.185 -2.19 -2.168 -2.218 -1.971 -1.941 -1.813 -1.577 -1.788 -1.962 -1.96 -1.829 -1.65 -1.675 -1.863 -1.905 -2.13 -2.108 -2.178 -2.203 -2.21 -2.175 -1.891 -1.822 -1.649 -1.85 -1.915 -2.22 -2.208 -2.14 -2.073 -2.183 -2.193 -2.155 -2.29 -1.972 -2.205 -2.18 -2.193 -2.19 -2.18 -2.163 -2.205 -2.218 -2.203 -2.19 -2.173 -2.219 -2.186 -2.136 -2.089 -2.175 -2.193 -2.215 -2.255 -1.852 -1.831 -1.823 -1.793 -2.243 -1.603 -1.761 -1.698 -1.544 -1.526 -1.583 -1.608 -1.593 -1.632 -1.612 -1.716 -1.786 -1.743 -1.651 -1.609 -1.589 -1.584 -1.61 -1.744 -1.742 -1.605 -1.562 -1.482 -1.68 -1.532 -1.569 -1.595 -1.511 -1.489 -1.556 -1.741 -1.566 -1.569 -1.592 -1.567 -1.561 -1.545 -1.544 -1.564 -1.628 -1.708 -1.67 -1.653 -1.517 -1.547 -1.586 -1.574 -1.673 -1.641 -1.487 -1.569 -1.666 -1.625 -1.556 -1.56 -1.609 -1.565 -1.528 -1.535 -1.565 -1.538 -1.559 -1.562 -1.558 -1.573 -1.596 -1.61 -1.584 -1.666 -1.646 -1.636 -1.538 -1.506 -1.544 -1.556 -1.546 -1.561 -1.575 -1.658 -1.656 -1.578 -1.568 -1.605 -1.673 -1.653 -1.51 -1.558 -1.521 -1.564 -1.59 -1.622 -1.584 -1.547 -1.577 -1.596 -1.59 -1.56 -1.551 -1.528 -1.551 -1.573 -1.583 -1.623 -1.633 -1.646 -1.598 -1.567 -1.587 -1.522 -1.531 -1.547 -1.598 -1.55 -1.49 -1.53 -1.575 -1.586 -1.579 -1.579 -1.522 -1.559 -1.585 -1.583 -1.548 -1.593 -1.645 -1.593 -1.536 -1.529 -1.545 -1.561 -1.588 -1.544 -1.568 -1.583 -1.554 -1.545 -1.548 -1.656 -1.624 -1.62 -1.564 -1.554 -1.542 -1.581 -1.6 -1.618 -1.676 -1.607 -1.541 -1.561 -1.574 -1.614 -1.56 -1.636 -1.65 -1.624 -1.582 -1.645 -1.669 -1.645 -1.644 -1.667 -1.635 -1.65 -1.693 -1.717 -1.78 -1.809 -1.856 -1.854 -1.845 -1.798 -1.803 -1.806 -1.801 -1.802 -1.84 -1.86 -1.876 -1.922 -1.942 -1.94 -2.038 -1.989 -1.992 -2.086 -2.095 -2.161 -2.194 -2.268 -2.236 -2.219 -2.226 -2.211 -2.229 -2.224 -2.266 -2.249 -2.256 -2.261 -2.249 -2.291 -2.224 -2.249 -2.244 -2.219 -2.234 -2.196 -2.236 -2.269 -2.221 -2.176 -2.204 -2.274 -2.224 -2.226 -2.221 -2.176 -2.229 -2.314 -2.264 -2.241 -2.234 -2.224 -2.166 -2.129 -2.184
1.855 1.837 1.79 1.76 1.785 1.687 1.652 1.812 1.857 1.872 1.75 1.757 1.8 1.815 1.792 1.78 1.73 1.862 1.76 1.822 1.76 1.852 1.757 1.745 1.797 1.827 1.715 1.757 1.73 1.85 1.757 1.78 1.767 1.72 1.78 1.805 1.82 1.787 1.725 1.672 1.692 1.807 1.957 1.895 1.752 1.815 1.797 1.805 1.81 1.867 1.812 1.757 1.65 1.747 1.847 1.865 1.865 1.722 1.732 1.78 1.807 1.827 1.77 1.797 1.805 1.78 1.782 1.84 1.867 1.737 1.605 1.456 1.091 0.694 0.377 0.132 -0.04 -0.257 -0.524 -0.73 -0.965 -1.245 -1.484 -1.616 -1.671 -1.648 -1.614 -1.456 -1.201 -1.396 -1.645 -1.953 -2.215 -2.198 -1.907 -1.652 -1.356 -1.147 -0.849 -0.844 -0.849 -0.842 -0.845 -1.109 -1.41 -1.684 -1.917 -2.213 -1.929 -1.849 -1.658 -1.628 -1.58 -1.425 -1.422 -1.616 -1.885 -2.195 -2.175 -2.193 -1.896 -1.636 -1.343 -1.315 -1.187 -1.077 -1.321 -1.625 -1.951 -2.198 -2.17 -1.858 -1.915 -1.868 -1.764 -1.781 -1.923 -1.893 -1.928 -1.775 -1.811 -1.957 -1.941 -1.893 -1.967 -2.145 -1.925 -1.669 -1.646 -1.968 -2.163 -2.21 -2.15 -1.974 -1.838 -1.564 -1.619 -1.921 -2.215 -2.17 -2.168 -1.986 -1.89 -1.914 -1.937 -1.826 -1.865 -1.901 -1.769 -1.906 -2.195 -2.233 -1.964 -1.886 -1.888 -1.958 -2.22 -2.173 -2.163 -2.168 -1.938 -2.16 -2.188 -1.901 -1.929 -1.952 -1.984 -2.19 -2.208 -2.245 -2.205 -1.866 -2.193 -2.195 -2.18 -2.215 -1.964 -2.215 -2.17 -2.235 -2.195 -2.203 -2.255 -2.165 -2.193 -2.213 -2.188 -1.922 -2.253 -2.15 -2.149 -2.075 -2.039 -2.223 -2.245 -1.944 -1.873 -1.831 -1.82 -2.218 -2.245 -1.624 -1.793 -1.78 -1.577 -1.523 -1.59 -1.602 -1.578 -1.582 -1.582 -1.562 -1.741 -1.621 -1.64 -1.623 -1.586 -1.591 -1.636 -1.643 -1.573 -1.563 -1.568 -1.553 -1.541 -1.573 -1.623 -1.635 -1.584 -1.559 -1.613 -1.625 -1.565 -1.527 -1.759 -1.558 -1.59 -1.593 -1.579 -1.59 -1.655 -1.703 -1.656 -1.686 -1.58 -1.512 -1.537 -1.574 -1.588 -1.583 -1.569 -1.555 -1.62 -1.616 -1.549 -1.62 -1.649 -1.539 -1.542 -1.59 -1.544 -1.701 -1.628 -1.603 -1.597 -1.591 -1.587 -1.6 -1.554 -1.535 -1.582 -1.588 -1.622 -1.522 -1.575 -1.627 -1.604 -1.563 -1.557 -1.636 -1.633 -1.636 -1.653 -1.57 -1.656 -1.686 -1.575 -1.568 -1.568 -1.58 -1.604 -1.605 -1.598 -1.557 -1.556 -1.556 -1.613 -1.603 -1.592 -1.588 -1.585 -1.589 -1.578 -1.589 -1.621 -1.643 -1.582 -1.55 -1.585 -1.583 -1.598 -1.596 -1.57 -1.584 -1.541 -1.551 -1.609 -1.597 -1.59 -1.59 -1.539 -1.568 -1.566 -1.546 -1.559 -1.63 -1.606 -1.57 -1.572 -1.584 -1.617 -1.599 -1.553 -1.591 -1.58 -1.584 -1.573 -1.57 -1.585 -1.647 -1.604 -1.614 -1.569 -1.472 -1.565 -1.62 -1.624 -1.652 -1.619 -1.606 -1.586 -1.612 -1.607 -1.584 -1.578 -1.622 -1.605 -1.603 -1.631 -1.66 -1.639 -1.629 -1.641 -1.632 -1.62 -1.634 -1.657 -1.733 -1.784 -1.799 -1.837 -1.818 -1.795 -1.771 -1.745 -1.749 -1.784 -1.782 -1.819 -1.862 -1.878 -1.93 -1.93 -1.933 -2.026 -2.013 -2.062 -2.1 -2.082 -2.132 -2.18 -2.23 -2.254 -2.189 -2.189 -2.279 -2.216 -2.229 -2.254 -2.244 -2.246 -2.269 -2.281 -2.264 -2.259 -2.214 -2.194 -2.226 -2.261 -2.261 -2.206 -2.234 -2.256 -2.206 -2.234 -2.211 -2.264 -2.161 -2.159 -2.214 -2.206 -2.289 -2.241 -2.216 -2.196 -2.301 -2.269 -2.211 -2.234
1.857 1.787 1.737 1.685 1.75 1.725 1.735 1.857 1.82 1.805 1.765 1.752 1.765 1.807 1.795 1.807 1.79 1.855 1.775 1.742 1.767 1.815 1.762 1.792 1.83 1.885 1.707 1.832 1.7 1.78 1.73 1.762 1.79 1.765 1.76 1.817 1.757 1.777 1.837 1.7 1.852 1.96 1.96 1.802 1.71 1.82 1.782 1.83 1.77 1.805 1.862 1.832 1.72 1.85 1.942 1.855 1.822 1.737 1.577 1.595 1.77 1.732 1.852 1.862 1.835 1.797 1.855 1.9 1.86 1.732 1.731 1.418 1.069 0.77 0.492 0.282 0.114 -0.051 -0.364 -0.636 -0.855 -1.063 -1.267 -1.365 -1.423 -1.37 -1.328 -1.2 -1.108 -1.378 -1.612 -1.803 -1.924 -1.927 -1.839 -1.616 -1.355 -1.083 -1.115 -1.118 -1.12 -1.113 -1.098 -1.133 -1.405 -1.67 -1.924 -2.188 -2.21 -1.941 -1.931 -1.903 -1.786 -1.576 -1.472 -1.603 -1.791 -1.886 -2.2 -2.203 -1.92 -1.662 -1.632 -1.578 -1.4 -1.167 -1.334 -1.544 -1.78 -1.915 -1.921 -1.938 -2.13 -2.143 -1.887 -1.858 -2.168 -2.188 -2.153 -1.919 -1.911 -1.948 -1.907 -1.916 -1.925 -1.919 -1.815 -1.616 -1.692 -1.916 -2.155 -2.153 -1.894 -1.881 -1.973 -1.81 -1.789 -1.877 -1.892 -2.165 -2.138 -1.979 -1.835 -1.972 -2.18 -1.911 -2.21 -2.243 -1.935 -1.796 -1.922 -2.175 -1.959 -2.168 -2.145 -1.874 -1.94 -2.235 -2.235 -1.929 -1.796 -1.896 -1.856 -1.945 -2.18 -2.23 -2.25 -2.185 -2.19 -2.228 -2.198 -2.2 -2.173 -2.14 -2.21 -2.17 -2.193 -2.265 -2.235 -2.258 -2.193 -2.178 -2.208 -2.145 -2.11 -2.188 -2.2 -1.915 -2.215 -2.22 -2.15 -2.119 -2.048 -2.047 -1.97 -1.967 -1.968 -1.887 -1.818 -1.845 -1.883 -1.677 -1.679 -1.657 -1.614 -1.566 -1.583 -1.571 -1.583 -1.617 -1.614 -1.604 -1.602 -1.642 -1.669 -1.646 -1.608 -1.602 -1.617 -1.597 -1.573 -1.58 -1.61 -1.609 -1.567 -1.543 -1.631 -1.621 -1.618 -1.594 -1.622 -1.649 -1.618 -1.748 -1.724 -1.719 -1.608 -1.725 -1.75 -1.648 -1.634 -1.659 -1.643 -1.664 -1.685 -1.563 -1.516 -1.559 -1.565 -1.583 -1.605 -1.579 -1.612 -1.58 -1.556 -1.551 -1.551 -1.535 -1.521 -1.597 -1.539 -1.703 -1.685 -1.617 -1.581 -1.527 -1.532 -1.601 -1.557 -1.554 -1.612 -1.554 -1.633 -1.556 -1.552 -1.616 -1.622 -1.565 -1.557 -1.582 -1.597 -1.58 -1.656 -1.583 -1.628 -1.668 -1.577 -1.564 -1.577 -1.567 -1.572 -1.645 -1.613 -1.57 -1.537 -1.522 -1.569 -1.617 -1.583 -1.552 -1.587 -1.608 -1.59 -1.503 -1.548 -1.574 -1.609 -1.615 -1.603 -1.575 -1.614 -1.612 -1.594 -1.6 -1.579 -1.587 -1.597 -1.629 -1.604 -1.607 -1.597 -1.535 -1.53 -1.543 -1.562 -1.601 -1.562 -1.562 -1.604 -1.614 -1.648 -1.603 -1.576 -1.554 -1.604 -1.591 -1.591 -1.588 -1.573 -1.579 -1.61 -1.57 -1.56 -1.542 -1.607 -1.639 -1.624 -1.606 -1.583 -1.613 -1.616 -1.664 -1.637 -1.593 -1.611 -1.64 -1.608 -1.627 -1.659 -1.659 -1.612 -1.583 -1.617 -1.624 -1.643 -1.673 -1.679 -1.734 -1.778 -1.791 -1.825 -1.819 -1.772 -1.76 -1.704 -1.681 -1.744 -1.749 -1.778 -1.808 -1.837 -1.884 -1.953 -1.886 -1.987 -1.975 -1.992 -2.044 -2.089 -2.126 -2.15 -2.147 -2.151 -2.259 -2.233 -2.301 -2.279 -2.244 -2.256 -2.211 -2.159 -2.159 -2.224 -2.299 -2.314 -2.304 -2.191 -2.204 -2.229 -2.251 -2.169 -2.191 -2.184 -2.241 -2.226 -2.221 -2.259 -2.241 -2.219 -2.251 -2.244 -2.241 -2.224 -2.229 -2.304 -2.274 -2.251 -2.216 -2.236
1.78 1.785 1.707 1.672 1.647 1.767 1.862 1.93 1.767 1.837 1.782 1.85 1.807 1.855 1.795 1.727 1.705 1.777 1.792 1.765 1.845 1.822 1.73 1.777 1.805 1.777 1.675 1.69 1.765 1.907 1.807 1.817 1.782 1.795 1.777 1.77 1.73 1.775 1.662 1.725 1.917 2.005 1.93 1.772 1.637 1.867 1.92 1.845 1.657 1.78 1.735 1.707 1.69 1.762 1.795 1.722 1.715 1.657 1.672 1.82 1.887 1.827 1.775 1.772 1.845 1.925 1.8 1.827 1.737 1.64 1.846 1.495 1.115 0.853 0.651 0.529 0.285 0.08 -0.2 -0.486 -0.706 -0.883 -0.986 -1.081 -1.078 -1.106 -1.068 -0.962 -0.965 -1.229 -1.455 -1.609 -1.651 -1.65 -1.597 -1.433 -1.226 -1.209 -1.334 -1.357 -1.375 -1.373 -1.374 -1.276 -1.337 -1.601 -1.84 -1.91 -1.909 -1.956 -2.195 -2.19 -1.94 -1.811 -1.632 -1.596 -1.581 -1.782 -1.923 -1.913 -1.764 -1.891 -1.901 -1.749 -1.574 -1.331 -1.204 -1.411 -1.494 -1.812 -1.901 -2.173 -2.173 -2.173 -1.899 -1.755 -1.858 -2.18 -2.188 -2.168 -2.175 -2.2 -2.24 -2.208 -2.185 -1.941 -1.675 -1.624 -1.724 -1.895 -2.153 -2.205 -1.942 -2.17 -2.135 -1.904 -1.928 -2.188 -2.128 -2.17 -2.228 -1.914 -1.899 -2.145 -2.173 -2.15 -2.163 -2.22 -2.268 -1.891 -1.773 -1.882 -2.163 -2.183 -2.105 -2.175 -1.878 -2.235 -2.248 -2.153 -1.882 -1.901 -2.228 -2.19 -1.944 -1.955 -2.203 -2.208 -2.225 -1.936 -2.155 -2.18 -2.18 -2.12 -2.205 -2.188 -2.203 -2.19 -2.235 -2.218 -1.906 -2.215 -2.158 -2.195 -2.205 -2.203 -2.198 -2.228 -2.225 -2.248 -2.208 -2.183 -2.077 -2.076 -1.953 -1.963 -2.25 -2.185 -2.195 -1.866 -1.873 -1.709 -1.678 -1.617 -1.61 -1.644 -1.597 -1.596 -1.627 -1.623 -1.624 -1.631 -1.623 -1.701 -1.734 -1.686 -1.622 -1.62 -1.628 -1.603 -1.603 -1.619 -1.623 -1.623 -1.562 -1.549 -1.59 -1.656 -1.64 -1.626 -1.622 -1.584 -1.564 -1.709 -1.675 -1.64 -1.641 -1.699 -1.705 -1.703 -1.628 -1.636 -1.648 -1.651 -1.669 -1.637 -1.556 -1.536 -1.586 -1.592 -1.591 -1.561 -1.604 -1.59 -1.552 -1.559 -1.587 -1.634 -1.576 -1.584 -1.591 -1.679 -1.693 -1.611 -1.559 -1.576 -1.519 -1.547 -1.543 -1.583 -1.597 -1.574 -1.663 -1.641 -1.591 -1.61 -1.602 -1.588 -1.556 -1.569 -1.602 -1.569 -1.558 -1.59 -1.575 -1.556 -1.584 -1.526 -1.565 -1.598 -1.603 -1.639 -1.638 -1.646 -1.579 -1.565 -1.555 -1.641 -1.648 -1.636 -1.527 -1.582 -1.596 -1.604 -1.568 -1.545 -1.608 -1.602 -1.593 -1.596 -1.637 -1.644 -1.603 -1.577 -1.591 -1.593 -1.605 -1.606 -1.597 -1.536 -1.541 -1.57 -1.565 -1.579 -1.602 -1.604 -1.597 -1.605 -1.658 -1.624 -1.614 -1.61 -1.574 -1.55 -1.595 -1.576 -1.601 -1.58 -1.597 -1.567 -1.562 -1.589 -1.589 -1.597 -1.608 -1.608 -1.654 -1.675 -1.636 -1.661 -1.659 -1.69 -1.62 -1.601 -1.592 -1.586 -1.636 -1.669 -1.627 -1.621 -1.582 -1.577 -1.61 -1.651 -1.635 -1.672 -1.716 -1.731 -1.785 -1.803 -1.84 -1.815 -1.746 -1.717 -1.688 -1.644 -1.67 -1.728 -1.733 -1.776 -1.815 -1.825 -1.921 -1.901 -1.935 -1.968 -1.973 -2.012 -2.058 -2.054 -2.076 -2.11 -2.106 -2.165 -2.263 -2.255 -2.221 -2.159 -2.169 -2.201 -2.229 -2.219 -2.221 -2.204 -2.219 -2.276 -2.266 -2.274 -2.251 -2.241 -2.149 -2.124 -2.154 -2.204 -2.201 -2.219 -2.231 -2.256 -2.256 -2.229 -2.231 -2.161 -2.209 -2.219 -2.229 -2.236 -2.194 -2.219 -2.294
1.735 1.722 1.785 1.787 1.772 1.852 1.95 1.847 1.75 1.767 1.762 1.807 1.847 1.832 1.775 1.722 1.765 1.765 1.732 1.785 1.782 1.855 1.787 1.785 1.872 1.802 1.695 1.692 1.795 1.85 1.835 1.785 1.765 1.737 1.75 1.82 1.775 1.832 1.782 1.845 1.902 1.792 1.675 1.67 1.697 1.88 1.962 1.817 1.64 1.827 1.742 1.675 1.74 1.842 1.852 1.692 1.717 1.837 1.785 1.815 1.842 1.795 1.78 1.76 1.785 1.845 1.79 1.825 1.81 1.702 1.661 1.486 1.148 1.029 0.835 0.624 0.332 0.076 -0.135 -0.363 -0.524 -0.633 -0.746 -0.766 -0.838 -0.891 -0.831 -0.743 -0.843 -1.058 -1.24 -1.322 -1.423 -1.381 -1.34 -1.27 -1.227 -1.401 -1.552 -1.639 -1.678 -1.641 -1.533 -1.395 -1.194 -1.405 -1.582 -1.616 -1.875 -2.188 -2.218 -2.198 -2.2 -1.938 -1.884 -1.834 -1.589 -1.56 -1.649 -1.661 -1.891 -2.18 -2.188 -1.913 -1.639 -1.364 -1.419 -1.543 -1.605 -1.879 -2.18 -2.19 -1.93 -2.138 -1.896 -1.755 -1.887 -2.17 -2.218 -2.235 -1.933 -1.886 -2.188 -2.203 -2.143 -1.89 -1.685 -1.841 -1.927 -1.892 -1.956 -1.952 -1.949 -2.185 -2.148 -2.138 -1.917 -2.21 -2.143 -2.158 -2.193 -1.913 -2.188 -2.168 -2.168 -1.937 -2.175 -2.235 -2.225 -1.943 -1.893 -2.153 -2.188 -2.198 -2.198 -1.915 -2.183 -2.17 -2.168 -2.17 -2.183 -1.952 -2.223 -2.185 -2.16 -1.876 -2.18 -2.235 -2.235 -2.208 -2.213 -2.208 -2.153 -2.125 -2.113 -2.188 -2.163 -2.17 -2.18 -2.195 -2.113 -2.183 -2.218 -2.235 -2.195 -2.205 -2.233 -2.138 -2.208 -2.18 -2.191 -2.235 -2.228 -2.24 -2.044 -1.978 -1.916 -2.173 -1.902 -2.228 -2.218 -1.739 -1.722 -1.664 -1.793 -1.751 -1.618 -1.606 -1.639 -1.652 -1.686 -1.688 -1.695 -1.737 -1.694 -1.653 -1.663 -1.654 -1.676 -1.661 -1.6 -1.603 -1.646 -1.613 -1.559 -1.566 -1.589 -1.625 -1.608 -1.607 -1.64 -1.612 -1.607 -1.606 -1.682 -1.628 -1.606 -1.646 -1.679 -1.641 -1.609 -1.592 -1.651 -1.675 -1.683 -1.678 -1.624 -1.624 -1.669 -1.631 -1.589 -1.57 -1.567 -1.575 -1.602 -1.586 -1.611 -1.636 -1.641 -1.584 -1.633 -1.653 -1.653 -1.626 -1.631 -1.604 -1.579 -1.609 -1.611 -1.63 -1.575 -1.651 -1.628 -1.671 -1.573 -1.638 -1.671 -1.584 -1.574 -1.56 -1.594 -1.606 -1.561 -1.574 -1.582 -1.561 -1.609 -1.597 -1.638 -1.645 -1.643 -1.601 -1.552 -1.595 -1.556 -1.601 -1.603 -1.638 -1.643 -1.626 -1.557 -1.602 -1.603 -1.605 -1.627 -1.57 -1.638 -1.638 -1.611 -1.62 -1.639 -1.615 -1.594 -1.618 -1.638 -1.621 -1.611 -1.591 -1.554 -1.591 -1.606 -1.6 -1.588 -1.608 -1.627 -1.585 -1.626 -1.632 -1.635 -1.629 -1.592 -1.604 -1.613 -1.662 -1.617 -1.572 -1.589 -1.599 -1.601 -1.589 -1.583 -1.638 -1.603 -1.593 -1.597 -1.612 -1.624 -1.653 -1.664 -1.632 -1.639 -1.638 -1.596 -1.606 -1.614 -1.596 -1.646 -1.64 -1.601 -1.608 -1.576 -1.605 -1.67 -1.68 -1.642 -1.656 -1.707 -1.732 -1.784 -1.828 -1.801 -1.763 -1.726 -1.689 -1.68 -1.624 -1.682 -1.707 -1.705 -1.733 -1.784 -1.799 -1.841 -1.882 -1.901 -1.954 -2.003 -2.037 -2.047 -2.036 -2.026 -2.048 -2.076 -2.137 -2.217 -2.208 -2.224 -2.186 -2.211 -2.234 -2.184 -2.171 -2.164 -2.141 -2.155 -2.175 -2.173 -2.162 -2.167 -2.167 -2.227 -2.245 -2.166 -2.246 -2.216 -2.231 -2.259 -2.216 -2.239 -2.254 -2.326 -2.286 -2.229 -2.209 -2.211 -2.256 -2.271 -2.199 -2.176
1.685 1.78 1.777 1.837 1.835 1.862 1.847 1.72 1.792 1.757 1.772 1.865 1.775 1.78 1.795 1.697 1.802 1.81 1.79 1.745 1.765 1.745 1.767 1.867 1.815 1.812 1.855 1.917 1.902 1.905 1.752 1.692 1.73 1.712 1.74 1.812 1.792 1.835 1.74 1.732 1.777 1.727 1.602 1.717 1.76 1.962 1.855 1.682 1.685 1.697 1.735 1.727 1.815 1.9 1.92 1.75 1.732 1.805 1.802 1.912 1.827 1.72 1.747 1.827 1.792 1.73 1.76 1.867 1.812 1.542 1.353 1.233 1.063 0.996 0.85 0.682 0.466 0.204 -0.012 -0.143 -0.282 -0.425 -0.5 -0.576 -0.622 -0.665 -0.586 -0.467 -0.674 -0.864 -1 -1.068 -1.092 -1.087 -1.032 -1.075 -1.338 -1.565 -1.774 -1.884 -1.937 -1.926 -1.768 -1.588 -1.346 -1.205 -1.375 -1.691 -1.875 -2.135 -2.19 -2.223 -1.926 -1.92 -2.163 -1.925 -1.799 -1.614 -1.428 -1.646 -1.897 -2.143 -2.175 -1.918 -1.65 -1.364 -1.598 -1.784 -1.911 -1.859 -2.16 -2.143 -2.18 -1.91 -1.796 -1.93 -2.18 -2.18 -2.165 -2.203 -2.178 -2.148 -1.909 -2.215 -1.914 -1.803 -1.658 -1.85 -2.19 -2.203 -1.954 -1.812 -1.81 -1.914 -2.198 -2.155 -1.906 -2.208 -2.14 -2.183 -2.15 -1.913 -2.183 -2.198 -2.183 -1.956 -1.933 -2.195 -1.924 -1.939 -2.143 -2.225 -2.173 -2.115 -1.958 -2.2 -2.2 -2.158 -2.123 -1.928 -1.949 -1.931 -2.245 -2.213 -2.155 -1.859 -1.902 -1.953 -1.935 -1.915 -2.173 -2.2 -2.253 -2.193 -2.158 -2.173 -2.185 -2.23 -2.228 -2.188 -2.165 -2.17 -2.185 -1.895 -2.205 -2.193 -2.18 -2.22 -2.223 -2.22 -2.138 -2.19 -2.193 -2.185 -2.086 -2.028 -1.969 -1.97 -2.203 -2.173 -2.2 -1.748 -1.71 -1.731 -1.827 -1.677 -1.68 -1.64 -1.672 -1.777 -1.758 -1.725 -1.751 -1.739 -1.69 -1.69 -1.706 -1.687 -1.701 -1.688 -1.647 -1.613 -1.658 -1.615 -1.615 -1.607 -1.605 -1.688 -1.705 -1.748 -1.663 -1.659 -1.647 -1.591 -1.665 -1.634 -1.627 -1.607 -1.565 -1.604 -1.614 -1.603 -1.624 -1.635 -1.615 -1.638 -1.652 -1.648 -1.692 -1.651 -1.602 -1.656 -1.613 -1.588 -1.592 -1.597 -1.638 -1.689 -1.697 -1.571 -1.616 -1.613 -1.651 -1.638 -1.673 -1.617 -1.607 -1.611 -1.57 -1.548 -1.558 -1.571 -1.582 -1.632 -1.571 -1.628 -1.628 -1.552 -1.569 -1.58 -1.633 -1.651 -1.611 -1.581 -1.594 -1.562 -1.604 -1.654 -1.68 -1.617 -1.612 -1.598 -1.548 -1.571 -1.577 -1.596 -1.628 -1.635 -1.636 -1.616 -1.628 -1.617 -1.639 -1.611 -1.597 -1.54 -1.673 -1.641 -1.648 -1.637 -1.638 -1.625 -1.61 -1.621 -1.602 -1.612 -1.621 -1.619 -1.619 -1.632 -1.628 -1.596 -1.621 -1.654 -1.62 -1.591 -1.606 -1.653 -1.628 -1.632 -1.62 -1.598 -1.6 -1.634 -1.604 -1.573 -1.57 -1.57 -1.555 -1.608 -1.631 -1.618 -1.632 -1.615 -1.642 -1.632 -1.579 -1.623 -1.635 -1.624 -1.63 -1.61 -1.625 -1.664 -1.659 -1.607 -1.631 -1.619 -1.605 -1.621 -1.627 -1.637 -1.647 -1.637 -1.626 -1.669 -1.697 -1.731 -1.754 -1.761 -1.779 -1.751 -1.721 -1.684 -1.636 -1.641 -1.626 -1.683 -1.721 -1.697 -1.746 -1.781 -1.81 -1.872 -1.89 -1.922 -1.962 -2.006 -2.049 -2.016 -2.033 -2.085 -2.121 -2.12 -2.114 -2.145 -2.184 -2.288 -2.236 -2.218 -2.183 -2.206 -2.159 -2.155 -2.162 -2.103 -2.118 -2.16 -2.198 -2.149 -2.163 -2.233 -2.216 -2.214 -2.173 -2.191 -2.246 -2.219 -2.254 -2.244 -2.246 -2.239 -2.234 -2.226 -2.226 -2.171 -2.189 -2.256 -2.234
1.682 1.857 1.79 1.722 1.78 1.79 1.74 1.687 1.77 1.782 1.797 1.712 1.717 1.827 1.797 1.76 1.835 1.875 1.757 1.687 1.767 1.74 1.882 1.845 1.767 1.75 1.775 1.93 1.892 1.765 1.737 1.73 1.712 1.727 1.747 1.807 1.822 1.885 1.742 1.762 1.812 1.687 1.69 1.88 1.87 1.872 1.785 1.74 1.685 1.695 1.727 1.875 1.9 1.752 1.835 1.765 1.812 1.837 1.827 1.87 1.742 1.662 1.755 1.88 1.715 1.842 1.792 1.757 1.508 1.316 1.155 1.105 0.861 0.741 0.561 0.425 0.341 0.281 0.167 0.107 -0.06 -0.158 -0.307 -0.353 -0.39 -0.374 -0.29 -0.254 -0.46 -0.673 -0.755 -0.791 -0.797 -0.831 -0.813 -1.052 -1.352 -1.651 -1.948 -2.19 -2.18 -2.208 -1.884 -1.692 -1.419 -1.112 -1.369 -1.686 -1.924 -2.183 -2.15 -1.915 -1.79 -1.911 -2.18 -2.183 -1.899 -1.636 -1.576 -1.808 -1.899 -2.158 -2.118 -1.875 -1.64 -1.416 -1.633 -1.927 -2.168 -2.175 -2.118 -2.148 -1.967 -1.828 -1.946 -1.919 -1.92 -2.15 -2.168 -2.15 -2.16 -2.143 -1.898 -1.894 -1.804 -1.6 -1.797 -1.916 -2.168 -2.208 -2.2 -1.961 -1.928 -2.158 -2.265 -2.215 -2.183 -2.165 -2.165 -2.18 -2.173 -1.937 -1.9 -2.15 -1.927 -1.917 -1.908 -2.165 -2.168 -2.2 -2.283 -2.205 -2.235 -2.185 -1.907 -2.25 -2.178 -2.203 -2.188 -2.195 -2.19 -2.125 -2.17 -2.203 -2.183 -2.193 -1.929 -1.889 -2.16 -2.228 -2.188 -2.22 -2.3 -2.263 -2.208 -2.165 -2.193 -2.188 -2.14 -2.143 -1.887 -2.145 -2.19 -2.198 -2.273 -2.178 -2.19 -2.193 -2.195 -2.188 -2.215 -2.178 -2.169 -2.105 -2.105 -2.046 -2.037 -1.989 -1.975 -2.18 -2.215 -1.784 -1.75 -1.771 -1.741 -1.738 -1.728 -1.724 -1.72 -1.714 -1.811 -1.796 -1.736 -1.904 -1.733 -1.746 -1.707 -1.744 -1.718 -1.668 -1.648 -1.66 -1.714 -1.681 -1.63 -1.604 -1.572 -1.733 -1.757 -1.734 -1.718 -1.657 -1.603 -1.62 -1.675 -1.737 -1.701 -1.598 -1.658 -1.68 -1.639 -1.63 -1.589 -1.591 -1.604 -1.602 -1.632 -1.631 -1.632 -1.601 -1.641 -1.653 -1.595 -1.602 -1.601 -1.629 -1.641 -1.721 -1.678 -1.555 -1.583 -1.647 -1.656 -1.646 -1.617 -1.615 -1.608 -1.577 -1.585 -1.611 -1.646 -1.613 -1.673 -1.642 -1.631 -1.641 -1.661 -1.641 -1.585 -1.611 -1.662 -1.628 -1.632 -1.584 -1.605 -1.571 -1.599 -1.661 -1.691 -1.606 -1.598 -1.617 -1.604 -1.6 -1.613 -1.601 -1.594 -1.595 -1.586 -1.596 -1.611 -1.646 -1.646 -1.609 -1.573 -1.566 -1.638 -1.631 -1.62 -1.609 -1.614 -1.622 -1.635 -1.622 -1.584 -1.585 -1.581 -1.619 -1.655 -1.661 -1.643 -1.618 -1.613 -1.617 -1.623 -1.621 -1.6 -1.631 -1.623 -1.641 -1.635 -1.603 -1.607 -1.635 -1.612 -1.597 -1.591 -1.616 -1.564 -1.586 -1.607 -1.592 -1.651 -1.65 -1.636 -1.576 -1.557 -1.622 -1.631 -1.627 -1.671 -1.669 -1.613 -1.662 -1.664 -1.615 -1.603 -1.628 -1.634 -1.621 -1.662 -1.639 -1.658 -1.657 -1.682 -1.657 -1.687 -1.736 -1.743 -1.746 -1.752 -1.764 -1.748 -1.717 -1.688 -1.691 -1.668 -1.682 -1.693 -1.689 -1.714 -1.765 -1.799 -1.846 -1.866 -1.885 -1.922 -1.922 -2 -1.983 -2.027 -2.084 -2.082 -2.119 -2.103 -2.091 -2.163 -2.175 -2.182 -2.242 -2.179 -2.148 -2.106 -2.141 -2.136 -2.13 -2.039 -2.127 -2.148 -2.12 -2.19 -2.1 -2.172 -2.247 -2.186 -2.208 -2.229 -2.194 -2.261 -2.269 -2.249 -2.236 -2.204 -2.264 -2.249 -2.171 -2.156 -2.199 -2.199
1.777 1.81 1.827 1.755 1.767 1.777 1.732 1.715 1.797 1.847 1.8 1.75 1.832 1.89 1.82 1.735 1.872 1.86 1.757 1.69 1.712 1.785 1.89 1.942 1.727 1.725 1.862 1.855 1.76 1.802 1.807 1.772 1.737 1.752 1.962 1.817 1.83 1.86 1.705 1.682 1.835 1.767 1.845 1.862 1.782 1.812 1.81 1.8 1.762 1.777 1.73 1.835 1.84 1.77 1.717 1.782 1.707 1.782 1.82 1.822 1.71 1.697 1.867 1.85 1.7 1.635 1.732 1.631 1.445 1.228 0.991 0.873 0.632 0.561 0.382 0.154 0.06 0.009 -0.027 -0.114 -0.026 0.041 -0.09 -0.117 -0.077 0.046 0.055 -0.076 -0.251 -0.478 -0.507 -0.543 -0.618 -0.64 -0.869 -1.165 -1.427 -1.675 -1.935 -2.17 -2.148 -2.21 -1.99 -1.663 -1.405 -1.137 -1.345 -1.622 -1.84 -1.933 -1.887 -1.798 -1.619 -1.817 -1.932 -1.925 -1.826 -1.628 -1.743 -1.877 -2.18 -2.173 -2.17 -1.877 -1.658 -1.623 -1.761 -1.894 -2.143 -2.16 -2.155 -1.869 -1.76 -1.893 -2.203 -2.15 -2.203 -2.19 -2.175 -2.178 -2.155 -1.95 -1.787 -1.868 -1.877 -1.869 -1.941 -2.24 -2.148 -2.168 -2.17 -1.902 -1.93 -2.223 -2.198 -2.213 -1.912 -2.153 -2.223 -2.19 -2.138 -2.16 -1.903 -1.916 -1.914 -2.178 -2.17 -2.223 -2.17 -2.165 -2.258 -2.225 -2.225 -2.213 -2.113 -2.123 -2.123 -2.208 -1.947 -2.173 -2.16 -2.15 -2.148 -2.173 -2.168 -2.218 -1.962 -1.867 -2.158 -2.228 -2.213 -2.218 -2.22 -2.263 -2.2 -2.213 -2.223 -2.238 -2.195 -2.115 -1.907 -2.213 -2.18 -2.193 -2.253 -2.195 -2.188 -2.168 -2.208 -2.21 -2.24 -2.243 -2.241 -2.176 -2.119 -2.115 -2.213 -2.001 -2.067 -2.027 -1.963 -1.809 -1.804 -1.782 -1.777 -1.671 -1.76 -1.847 -1.755 -1.754 -1.773 -1.761 -1.785 -1.891 -1.808 -1.805 -1.777 -1.802 -1.758 -1.735 -1.724 -1.713 -1.709 -1.666 -1.608 -1.638 -1.598 -1.67 -1.722 -1.708 -1.646 -1.603 -1.589 -1.63 -1.695 -1.757 -1.693 -1.678 -1.681 -1.692 -1.633 -1.639 -1.657 -1.61 -1.609 -1.646 -1.655 -1.635 -1.596 -1.585 -1.615 -1.625 -1.633 -1.653 -1.65 -1.643 -1.638 -1.65 -1.646 -1.663 -1.625 -1.614 -1.632 -1.644 -1.602 -1.606 -1.651 -1.612 -1.606 -1.658 -1.668 -1.657 -1.648 -1.641 -1.636 -1.633 -1.658 -1.653 -1.599 -1.617 -1.616 -1.602 -1.608 -1.597 -1.595 -1.581 -1.617 -1.647 -1.626 -1.616 -1.638 -1.623 -1.604 -1.637 -1.615 -1.605 -1.572 -1.597 -1.608 -1.577 -1.618 -1.658 -1.686 -1.641 -1.624 -1.638 -1.648 -1.651 -1.651 -1.658 -1.638 -1.628 -1.636 -1.623 -1.611 -1.623 -1.608 -1.609 -1.616 -1.64 -1.655 -1.615 -1.629 -1.632 -1.646 -1.627 -1.614 -1.63 -1.633 -1.636 -1.612 -1.616 -1.619 -1.635 -1.628 -1.602 -1.617 -1.639 -1.618 -1.602 -1.614 -1.663 -1.64 -1.618 -1.65 -1.638 -1.618 -1.614 -1.641 -1.61 -1.593 -1.644 -1.667 -1.625 -1.642 -1.648 -1.652 -1.641 -1.631 -1.615 -1.62 -1.631 -1.648 -1.679 -1.663 -1.616 -1.658 -1.691 -1.702 -1.699 -1.719 -1.741 -1.747 -1.746 -1.735 -1.732 -1.697 -1.606 -1.636 -1.698 -1.741 -1.76 -1.81 -1.852 -1.849 -1.877 -1.866 -1.892 -1.948 -1.933 -1.985 -2.006 -2.075 -2.07 -2.073 -2.084 -2.168 -2.155 -2.162 -2.146 -2.113 -2.125 -2.112 -2.087 -2.045 -2.04 -2.032 -2.078 -2.034 -2.05 -2.124 -2.099 -2.108 -2.129 -2.171 -2.185 -2.212 -2.218 -2.184 -2.274 -2.209 -2.236 -2.224 -2.284 -2.226 -2.286 -2.286 -2.224 -2.244
1.797 1.842 1.935 1.765 1.75 1.732 1.737 1.715 1.807 1.83 1.815 1.742 1.787 1.75 1.805 1.787 1.825 1.73 1.73 1.772 1.76 1.747 1.845 1.817 1.782 1.827 1.847 1.855 1.725 1.712 1.737 1.767 1.837 1.86 1.837 1.725 1.832 1.747 1.71 1.767 1.937 1.8 1.79 1.81 1.785 1.78 1.775 1.777 1.812 1.735 1.777 1.9 1.81 1.685 1.772 1.78 1.745 1.752 1.652 1.715 1.72 1.747 1.927 1.855 1.695 1.755 1.686 1.593 1.431 1.019 0.788 0.707 0.452 0.21 0.106 -0.074 -0.224 -0.276 -0.266 -0.332 -0.317 -0.284 -0.191 -0.046 0.115 0.25 0.223 0.065 -0.039 -0.175 -0.171 -0.295 -0.358 -0.636 -0.865 -1.129 -1.32 -1.593 -1.805 -1.909 -2.158 -1.992 -1.877 -1.571 -1.314 -1.11 -1.232 -1.453 -1.612 -1.666 -1.661 -1.58 -1.452 -1.628 -1.709 -1.696 -1.82 -1.916 -1.904 -2.14 -2.155 -2.153 -2.125 -1.855 -1.652 -1.658 -1.914 -2.18 -2.173 -2.18 -2.188 -1.9 -1.889 -2.148 -2.205 -2.143 -2.12 -2.17 -2.163 -2.15 -2.163 -1.928 -1.91 -2.173 -2.138 -2.233 -1.907 -1.934 -2.188 -2.163 -1.937 -2.143 -1.894 -1.906 -2.198 -2.163 -2.168 -1.894 -1.946 -2.185 -2.193 -2.19 -1.882 -2.215 -2.16 -2.2 -2.183 -2.213 -2.243 -2.175 -2.185 -1.913 -1.931 -2.225 -2.175 -2.163 -2.175 -2.24 -2.218 -2.238 -2.193 -2.21 -2.178 -2.198 -2.17 -2.263 -1.965 -1.825 -1.921 -2.18 -2.125 -2.153 -2.245 -2.203 -2.208 -2.26 -2.22 -2.21 -2.203 -1.956 -1.799 -1.971 -2.21 -2.178 -2.168 -1.904 -2.203 -2.185 -2.14 -2.18 -2.198 -2.255 -2.243 -2.246 -2.161 -2.175 -2.203 -2.225 -2.119 -2.116 -2.069 -1.873 -1.906 -1.811 -1.782 -1.706 -1.879 -1.882 -1.901 -1.802 -1.813 -1.826 -1.843 -1.862 -1.889 -1.857 -1.837 -1.848 -1.8 -1.787 -1.782 -1.743 -1.705 -1.689 -1.687 -1.704 -1.709 -1.733 -1.787 -1.752 -1.717 -1.635 -1.646 -1.65 -1.733 -1.782 -1.738 -1.688 -1.645 -1.629 -1.623 -1.653 -1.658 -1.663 -1.624 -1.691 -1.713 -1.627 -1.627 -1.626 -1.593 -1.592 -1.628 -1.671 -1.653 -1.636 -1.65 -1.62 -1.631 -1.65 -1.656 -1.649 -1.624 -1.608 -1.58 -1.651 -1.638 -1.638 -1.665 -1.661 -1.69 -1.66 -1.629 -1.601 -1.595 -1.631 -1.636 -1.637 -1.647 -1.621 -1.609 -1.613 -1.58 -1.593 -1.625 -1.611 -1.634 -1.599 -1.601 -1.609 -1.632 -1.608 -1.617 -1.633 -1.633 -1.606 -1.586 -1.641 -1.622 -1.605 -1.629 -1.638 -1.643 -1.604 -1.629 -1.665 -1.661 -1.661 -1.646 -1.646 -1.641 -1.639 -1.621 -1.622 -1.652 -1.625 -1.632 -1.631 -1.628 -1.628 -1.629 -1.63 -1.639 -1.673 -1.67 -1.644 -1.611 -1.617 -1.627 -1.622 -1.624 -1.629 -1.624 -1.641 -1.619 -1.62 -1.637 -1.648 -1.648 -1.619 -1.626 -1.682 -1.637 -1.596 -1.64 -1.704 -1.683 -1.663 -1.634 -1.625 -1.625 -1.668 -1.62 -1.621 -1.673 -1.692 -1.669 -1.645 -1.644 -1.627 -1.636 -1.656 -1.67 -1.646 -1.678 -1.629 -1.643 -1.684 -1.658 -1.671 -1.696 -1.714 -1.683 -1.714 -1.742 -1.739 -1.701 -1.626 -1.631 -1.69 -1.754 -1.774 -1.788 -1.845 -1.846 -1.86 -1.874 -1.876 -1.886 -1.902 -1.945 -1.959 -2.046 -2.021 -2.068 -2.091 -2.122 -2.128 -2.146 -2.127 -2.131 -2.05 -2.04 -2.102 -2.063 -2.065 -2.096 -2.043 -1.99 -2.013 -2.041 -2.045 -2.077 -2.068 -2.121 -2.201 -2.182 -2.253 -2.087 -2.155 -2.204 -2.206 -2.241 -2.279 -2.294 -2.259 -2.269 -2.296 -2.286
1.782 1.745 1.852 1.772 1.77 1.795 1.72 1.832 1.897 1.875 1.8 1.697 1.78 1.88 1.81 1.822 1.777 1.675 1.832 1.725 1.737 1.78 1.8 1.795 1.722 1.762 1.852 1.757 1.69 1.787 1.817 1.81 1.875 1.867 1.802 1.73 1.795 1.76 1.687 1.825 1.89 1.805 1.722 1.722 1.742 1.767 1.81 1.835 1.735 1.745 1.81 1.812 1.825 1.667 1.895 1.927 1.8 1.747 1.745 1.742 1.835 1.83 1.84 1.802 1.755 1.812 1.627 1.411 1.209 0.912 0.747 0.454 0.306 0.041 -0.157 -0.292 -0.407 -0.514 -0.543 -0.552 -0.575 -0.484 -0.392 -0.232 -0.095 0.029 0.205 0.276 0.18 0.067 0.031 -0.048 -0.261 -0.481 -0.769 -1.019 -1.201 -1.425 -1.594 -1.807 -1.928 -1.831 -1.631 -1.421 -1.241 -1.028 -1.075 -1.261 -1.367 -1.393 -1.409 -1.331 -1.249 -1.375 -1.402 -1.686 -1.951 -2.235 -2.17 -2.18 -2.155 -2.183 -1.908 -1.757 -1.531 -1.607 -1.875 -2.143 -2.123 -2.165 -1.926 -1.794 -1.912 -2.155 -2.175 -2.12 -2.138 -2.183 -2.198 -2.123 -1.876 -1.823 -1.952 -2.215 -2.148 -2.155 -1.878 -1.749 -1.924 -2.168 -2.183 -2.168 -2.178 -1.96 -2.198 -2.178 -1.941 -1.916 -2.198 -2.235 -2.24 -2.193 -2.19 -2.165 -2.173 -2.18 -2.213 -2.178 -2.18 -2.173 -2.198 -1.882 -1.885 -2.163 -2.175 -2.223 -2.228 -2.155 -2.143 -2.155 -2.215 -2.185 -2.18 -2.17 -2.213 -2.24 -1.934 -1.917 -2.188 -2.135 -2.165 -2.188 -2.18 -2.14 -2.17 -2.273 -2.235 -2.183 -2.188 -1.958 -1.923 -2.178 -2.188 -2.26 -2.22 -2.14 -2.15 -2.2 -2.2 -2.168 -2.165 -2.17 -2.173 -2.22 -2.213 -2.217 -2.213 -2.139 -2.126 -2.063 -2.1 -1.938 -1.916 -1.845 -1.846 -1.866 -1.936 -1.93 -1.868 -1.875 -1.848 -1.894 -1.897 -1.893 -1.87 -1.851 -1.866 -1.866 -1.859 -1.798 -1.8 -1.78 -1.773 -1.744 -1.745 -1.747 -1.732 -1.756 -1.805 -1.776 -1.776 -1.686 -1.672 -1.677 -1.699 -1.729 -1.726 -1.688 -1.655 -1.619 -1.679 -1.701 -1.672 -1.634 -1.648 -1.653 -1.659 -1.647 -1.705 -1.643 -1.662 -1.67 -1.648 -1.621 -1.633 -1.639 -1.636 -1.613 -1.638 -1.666 -1.681 -1.694 -1.665 -1.64 -1.625 -1.63 -1.628 -1.663 -1.626 -1.653 -1.691 -1.618 -1.598 -1.603 -1.615 -1.639 -1.632 -1.625 -1.65 -1.632 -1.64 -1.626 -1.611 -1.632 -1.609 -1.592 -1.643 -1.636 -1.621 -1.653 -1.627 -1.634 -1.63 -1.626 -1.612 -1.614 -1.619 -1.612 -1.625 -1.619 -1.621 -1.618 -1.611 -1.627 -1.626 -1.642 -1.661 -1.661 -1.641 -1.621 -1.621 -1.633 -1.63 -1.647 -1.65 -1.608 -1.63 -1.621 -1.626 -1.609 -1.628 -1.599 -1.636 -1.663 -1.667 -1.652 -1.637 -1.665 -1.628 -1.619 -1.636 -1.618 -1.655 -1.637 -1.651 -1.671 -1.687 -1.641 -1.636 -1.666 -1.659 -1.676 -1.631 -1.629 -1.664 -1.712 -1.713 -1.667 -1.677 -1.68 -1.654 -1.663 -1.65 -1.632 -1.677 -1.704 -1.688 -1.675 -1.641 -1.677 -1.675 -1.641 -1.634 -1.628 -1.696 -1.646 -1.67 -1.68 -1.646 -1.624 -1.675 -1.72 -1.674 -1.664 -1.712 -1.719 -1.703 -1.688 -1.667 -1.703 -1.732 -1.785 -1.787 -1.806 -1.822 -1.805 -1.822 -1.83 -1.872 -1.872 -1.907 -1.914 -2.027 -2.007 -2.062 -2.082 -2.103 -2.097 -2.105 -2.083 -2.075 -2.008 -2.032 -2.114 -2.032 -2.033 -2.014 -1.998 -2 -2.039 -1.975 -2.034 -2.027 -2.04 -2.086 -2.107 -2.142 -2.131 -2.163 -2.186 -2.137 -2.162 -2.216 -2.216 -2.143 -2.191 -2.244 -2.331 -2.334
1.775 1.707 1.787 1.705 1.767 1.762 1.807 1.79 1.822 1.86 1.77 1.815 1.807 1.947 1.84 1.735 1.71 1.775 1.8 1.835 1.83 1.865 1.825 1.67 1.652 1.775 1.835 1.812 1.775 1.867 1.777 1.775 1.822 1.822 1.75 1.65 1.75 1.772 1.852 1.895 1.797 1.75 1.75 1.737 1.76 1.745 1.887 1.757 1.785 1.762 1.71 1.755 1.69 1.81 1.895 1.792 1.772 1.69 1.867 1.842 1.895 1.792 1.74 1.797 1.772 1.72 1.493 1.31 0.981 0.792 0.514 0.377 0.128 -0.178 -0.309 -0.473 -0.592 -0.72 -0.82 -0.81 -0.775 -0.737 -0.594 -0.48 -0.32 -0.133 0.186 0.367 0.479 0.334 0.229 0.012 -0.181 -0.369 -0.615 -0.897 -1.021 -1.182 -1.41 -1.611 -1.67 -1.569 -1.442 -1.184 -1.086 -0.891 -0.907 -1.036 -1.098 -1.164 -1.121 -1.096 -0.998 -1.136 -1.367 -1.657 -1.941 -2.225 -2.17 -2.195 -2.17 -1.899 -1.807 -1.54 -1.37 -1.546 -1.776 -1.94 -1.92 -1.843 -1.8 -1.904 -1.896 -1.916 -1.933 -2.158 -2.155 -2.185 -1.903 -1.898 -1.795 -1.562 -1.79 -1.93 -2.2 -2.15 -1.885 -1.599 -1.818 -1.929 -2.193 -2.158 -2.148 -1.898 -2.17 -2.188 -1.89 -1.944 -2.178 -2.143 -2.178 -2.203 -2.223 -2.213 -2.19 -2.173 -2.17 -2.145 -2.153 -2.18 -1.874 -1.8 -1.786 -1.918 -2.145 -2.123 -2.188 -2.218 -2.165 -2.148 -2.233 -2.215 -2.223 -2.175 -2.193 -2.175 -2.183 -2.215 -2.193 -2.213 -2.2 -1.911 -1.946 -1.893 -2.175 -2.175 -2.22 -2.245 -2.215 -1.975 -2.193 -2.083 -2.15 -1.922 -1.953 -1.894 -2.153 -2.23 -2.268 -2.145 -2.205 -2.22 -2.158 -2.243 -2.203 -2.208 -2.139 -2.162 -2.207 -2.228 -2.158 -2.015 -1.971 -1.952 -1.93 -1.909 -1.873 -1.885 -1.89 -1.938 -1.96 -1.96 -1.956 -1.966 -1.902 -1.899 -1.904 -1.93 -1.881 -1.875 -1.846 -1.798 -1.819 -1.815 -1.803 -1.814 -1.791 -1.812 -1.838 -1.802 -1.752 -1.762 -1.779 -1.726 -1.722 -1.767 -1.727 -1.691 -1.695 -1.677 -1.672 -1.732 -1.678 -1.68 -1.657 -1.63 -1.648 -1.71 -1.709 -1.694 -1.664 -1.702 -1.696 -1.65 -1.687 -1.698 -1.688 -1.645 -1.638 -1.666 -1.705 -1.685 -1.679 -1.65 -1.64 -1.65 -1.639 -1.642 -1.651 -1.667 -1.676 -1.632 -1.63 -1.651 -1.603 -1.615 -1.635 -1.632 -1.668 -1.653 -1.671 -1.673 -1.638 -1.644 -1.642 -1.618 -1.638 -1.641 -1.617 -1.625 -1.622 -1.625 -1.619 -1.622 -1.598 -1.615 -1.644 -1.614 -1.618 -1.627 -1.637 -1.629 -1.622 -1.641 -1.632 -1.639 -1.616 -1.612 -1.629 -1.627 -1.617 -1.648 -1.645 -1.642 -1.647 -1.652 -1.622 -1.646 -1.658 -1.631 -1.642 -1.64 -1.603 -1.625 -1.655 -1.617 -1.636 -1.665 -1.624 -1.615 -1.63 -1.631 -1.645 -1.634 -1.661 -1.64 -1.651 -1.692 -1.646 -1.694 -1.715 -1.705 -1.672 -1.687 -1.644 -1.62 -1.676 -1.684 -1.701 -1.697 -1.696 -1.638 -1.644 -1.66 -1.682 -1.733 -1.724 -1.699 -1.68 -1.705 -1.743 -1.663 -1.63 -1.628 -1.659 -1.7 -1.706 -1.673 -1.641 -1.646 -1.671 -1.704 -1.683 -1.641 -1.676 -1.718 -1.725 -1.729 -1.724 -1.735 -1.738 -1.768 -1.764 -1.753 -1.794 -1.761 -1.776 -1.779 -1.813 -1.831 -1.876 -1.907 -1.939 -1.928 -1.96 -2.055 -2.063 -2.06 -2.039 -2.055 -2.014 -1.972 -1.967 -1.991 -1.963 -1.952 -1.933 -1.944 -1.974 -1.963 -1.974 -1.992 -2.02 -2.004 -2.03 -2.074 -2.09 -2.1 -2.148 -2.137 -2.119 -2.127 -2.12 -2.151 -2.172 -2.183 -2.226 -2.284 -2.216
1.725 1.707 1.732 1.847 1.835 1.847 1.812 1.82 1.755 1.842 1.807 1.82 1.757 1.76 1.755 1.792 1.727 1.815 1.855 1.785 1.81 1.755 1.745 1.727 1.73 1.76 1.797 1.785 1.775 1.81 1.81 1.862 1.81 1.74 1.792 1.732 1.78 1.837 1.84 1.917 1.747 1.727 1.76 1.722 1.815 1.782 1.87 1.707 1.732 1.737 1.632 1.7 1.777 1.832 1.775 1.715 1.692 1.675 1.807 1.845 1.79 1.68 1.712 1.75 1.782 1.626 1.418 1.169 0.89 0.657 0.435 0.189 -0.022 -0.193 -0.433 -0.656 -0.802 -0.988 -1.095 -1.145 -1.092 -0.976 -0.8 -0.669 -0.495 -0.242 0.016 0.25 0.452 0.274 0.065 -0.147 -0.27 -0.375 -0.598 -0.709 -0.848 -1.091 -1.241 -1.363 -1.378 -1.326 -1.153 -0.999 -0.895 -0.688 -0.664 -0.752 -0.852 -0.944 -0.899 -0.875 -0.849 -1.11 -1.367 -1.662 -1.902 -2.193 -2.22 -2.18 -1.907 -1.791 -1.583 -1.411 -1.186 -1.408 -1.572 -1.759 -1.904 -1.87 -1.901 -2.195 -2.185 -1.907 -1.802 -1.886 -1.901 -1.897 -1.794 -1.623 -1.569 -1.403 -1.559 -1.77 -1.935 -1.917 -1.784 -1.546 -1.548 -1.821 -1.916 -2.163 -1.924 -1.887 -1.921 -1.905 -1.783 -1.927 -2.2 -2.208 -2.21 -2.188 -2.173 -2.225 -2.228 -1.935 -1.907 -2.17 -2.14 -1.957 -1.849 -1.925 -1.847 -1.915 -2.14 -2.165 -2.22 -1.94 -2.218 -2.163 -2.168 -1.915 -2.198 -2.218 -2.185 -2.195 -2.195 -2.208 -2.193 -2.155 -2.215 -1.895 -1.616 -1.784 -1.941 -2.165 -2.158 -2.143 -2.205 -2.173 -2.193 -2.228 -2.12 -2.133 -2.248 -2.24 -1.912 -2.185 -2.208 -2.143 -2.26 -2.21 -2.148 -2.233 -2.215 -2.215 -2.168 -2.155 -2.192 -2.288 -2.233 -2.078 -2.024 -2.007 -1.981 -1.995 -1.959 -1.973 -1.976 -1.982 -2.011 -1.989 -1.99 -2.105 -2.033 -1.986 -1.986 -1.976 -1.918 -1.913 -1.902 -1.857 -1.871 -1.871 -1.845 -1.863 -1.86 -1.872 -1.86 -1.814 -1.803 -1.807 -1.799 -1.77 -1.788 -1.787 -1.751 -1.74 -1.724 -1.708 -1.705 -1.774 -1.742 -1.717 -1.655 -1.651 -1.703 -1.699 -1.694 -1.705 -1.679 -1.717 -1.741 -1.703 -1.717 -1.72 -1.733 -1.693 -1.678 -1.68 -1.706 -1.661 -1.651 -1.635 -1.642 -1.636 -1.632 -1.679 -1.693 -1.69 -1.699 -1.669 -1.672 -1.672 -1.637 -1.629 -1.635 -1.649 -1.676 -1.638 -1.636 -1.655 -1.645 -1.641 -1.658 -1.639 -1.641 -1.622 -1.638 -1.685 -1.619 -1.639 -1.636 -1.65 -1.619 -1.61 -1.652 -1.631 -1.609 -1.63 -1.648 -1.671 -1.619 -1.626 -1.648 -1.656 -1.633 -1.657 -1.636 -1.636 -1.636 -1.63 -1.652 -1.648 -1.645 -1.649 -1.624 -1.649 -1.659 -1.643 -1.631 -1.646 -1.644 -1.635 -1.644 -1.648 -1.662 -1.675 -1.615 -1.633 -1.625 -1.62 -1.629 -1.643 -1.656 -1.65 -1.661 -1.677 -1.683 -1.656 -1.689 -1.672 -1.696 -1.703 -1.663 -1.63 -1.648 -1.702 -1.654 -1.677 -1.717 -1.679 -1.672 -1.695 -1.706 -1.765 -1.734 -1.724 -1.721 -1.702 -1.754 -1.702 -1.671 -1.678 -1.688 -1.72 -1.705 -1.688 -1.659 -1.634 -1.656 -1.725 -1.7 -1.688 -1.685 -1.736 -1.748 -1.768 -1.78 -1.763 -1.76 -1.736 -1.718 -1.704 -1.725 -1.719 -1.755 -1.785 -1.809 -1.814 -1.855 -1.911 -1.921 -1.933 -1.921 -1.99 -1.999 -1.999 -2.022 -2.035 -2.04 -1.978 -1.936 -1.926 -1.897 -1.893 -1.894 -1.907 -1.933 -1.958 -1.959 -1.975 -2.01 -1.996 -1.999 -2.077 -2.029 -2.017 -2.092 -2.108 -2.091 -2.103 -2.114 -2.144 -2.19 -2.182 -2.181 -2.159 -2.199
1.777 1.772 1.795 1.985 1.932 1.765 1.702 1.752 1.795 1.825 1.745 1.697 1.76 1.74 1.757 1.782 1.77 1.89 1.847 1.705 1.8 1.73 1.81 1.727 1.782 1.855 1.772 1.84 1.767 1.795 1.88 1.782 1.745 1.745 1.775 1.727 1.81 1.977 1.852 1.795 1.645 1.662 1.742 1.775 1.835 1.817 1.817 1.672 1.785 1.775 1.745 1.74 1.745 1.807 1.785 1.677 1.8 1.702 1.785 1.775 1.792 1.712 1.777 1.777 1.79 1.653 1.405 1.1 0.748 0.54 0.323 0.044 -0.207 -0.377 -0.609 -0.847 -1.038 -1.249 -1.306 -1.337 -1.318 -1.185 -1.051 -0.84 -0.633 -0.394 -0.198 0.165 0.293 0.066 -0.14 -0.331 -0.449 -0.629 -0.828 -0.992 -1.081 -1.151 -1.082 -1.079 -1.094 -1.081 -0.978 -0.881 -0.779 -0.503 -0.493 -0.605 -0.62 -0.658 -0.639 -0.783 -0.99 -1.216 -1.425 -1.671 -1.912 -2.178 -1.95 -1.918 -1.774 -1.622 -1.661 -1.573 -1.386 -1.557 -1.762 -1.871 -2.148 -2.185 -1.844 -2.178 -2.138 -2.188 -1.927 -1.683 -1.645 -1.775 -1.907 -1.903 -1.812 -1.538 -1.615 -1.604 -1.65 -1.661 -1.581 -1.397 -1.37 -1.581 -1.798 -1.888 -1.895 -2.158 -2.188 -1.931 -1.874 -2.175 -2.185 -2.175 -1.867 -2.125 -2.195 -2.183 -1.969 -1.848 -1.853 -1.915 -1.918 -1.773 -1.894 -2.188 -2.185 -2.138 -1.925 -1.907 -2.16 -2.225 -2.238 -2.18 -2.138 -1.897 -2.155 -2.21 -2.228 -2.225 -2.203 -2.245 -2.208 -2.24 -1.984 -1.909 -1.846 -1.876 -1.805 -1.896 -2.15 -2.183 -2.16 -2.188 -2.185 -2.253 -2.158 -2.173 -2.153 -2.193 -2.265 -2.208 -2.22 -2.168 -2.23 -2.175 -2.225 -2.203 -2.183 -2.225 -2.2 -2.243 -2.175 -2.205 -2.238 -2.121 -2.088 -2.044 -2.054 -2.028 -2.013 -2.011 -2.022 -2.053 -2.031 -1.978 -1.994 -2.114 -2.115 -2.098 -2.04 -2.006 -1.978 -1.957 -1.978 -1.933 -1.875 -1.904 -1.901 -1.903 -1.909 -1.919 -1.879 -1.869 -1.851 -1.836 -1.821 -1.819 -1.838 -1.809 -1.791 -1.799 -1.768 -1.769 -1.773 -1.815 -1.819 -1.718 -1.685 -1.691 -1.699 -1.694 -1.633 -1.673 -1.687 -1.686 -1.746 -1.76 -1.762 -1.745 -1.693 -1.717 -1.692 -1.7 -1.712 -1.69 -1.663 -1.676 -1.671 -1.673 -1.651 -1.658 -1.714 -1.708 -1.693 -1.673 -1.636 -1.699 -1.656 -1.633 -1.628 -1.666 -1.703 -1.671 -1.678 -1.698 -1.646 -1.679 -1.691 -1.668 -1.663 -1.648 -1.631 -1.717 -1.668 -1.653 -1.653 -1.648 -1.658 -1.641 -1.643 -1.641 -1.618 -1.646 -1.648 -1.646 -1.653 -1.646 -1.668 -1.646 -1.636 -1.653 -1.641 -1.656 -1.641 -1.606 -1.651 -1.653 -1.631 -1.658 -1.636 -1.636 -1.648 -1.648 -1.638 -1.661 -1.683 -1.621 -1.643 -1.651 -1.641 -1.648 -1.626 -1.651 -1.651 -1.631 -1.626 -1.638 -1.636 -1.648 -1.671 -1.636 -1.646 -1.658 -1.656 -1.648 -1.698 -1.698 -1.646 -1.653 -1.676 -1.671 -1.633 -1.676 -1.712 -1.746 -1.731 -1.73 -1.707 -1.735 -1.697 -1.716 -1.715 -1.714 -1.744 -1.755 -1.732 -1.727 -1.723 -1.725 -1.746 -1.697 -1.689 -1.678 -1.693 -1.707 -1.734 -1.705 -1.72 -1.729 -1.717 -1.725 -1.736 -1.745 -1.76 -1.705 -1.679 -1.69 -1.695 -1.697 -1.714 -1.757 -1.765 -1.803 -1.862 -1.881 -1.9 -1.958 -1.926 -1.962 -1.956 -1.951 -1.955 -1.999 -2.033 -1.959 -1.964 -1.929 -1.863 -1.876 -1.863 -1.865 -1.885 -1.893 -1.875 -1.941 -1.962 -1.992 -1.99 -2.045 -2.044 -2.032 -2.015 -2.023 -2.029 -2.052 -2.14 -2.12 -2.101 -2.161 -2.203 -2.171 -2.221
1.805 1.777 1.85 1.86 1.767 1.717 1.735 1.855 1.862 1.805 1.667 1.69 1.79 1.767 1.742 1.74 1.792 1.835 1.767 1.737 1.735 1.72 1.77 1.772 1.792 1.835 1.842 1.8 1.775 1.712 1.747 1.775 1.702 1.707 1.805 1.762 1.807 1.855 1.82 1.75 1.667 1.615 1.76 1.845 1.812 1.82 1.755 1.675 1.795 1.812 1.827 1.782 1.785 1.797 1.8 1.73 1.77 1.76 1.89 1.757 1.86 1.755 1.755 1.825 1.85 1.681 1.286 0.985 0.733 0.525 0.246 0.042 -0.245 -0.51 -0.718 -0.961 -1.178 -1.427 -1.574 -1.652 -1.523 -1.446 -1.216 -0.986 -0.715 -0.504 -0.255 0.062 0.103 -0.154 -0.318 -0.472 -0.647 -0.812 -1.065 -1.225 -1.363 -1.41 -1.354 -1.21 -1.042 -0.858 -0.768 -0.671 -0.5 -0.65 -0.758 -0.84 -0.875 -0.883 -0.749 -0.818 -1.073 -1.35 -1.577 -1.805 -1.933 -1.88 -1.905 -1.838 -1.92 -1.903 -1.898 -1.808 -1.589 -1.656 -1.86 -2.133 -2.15 -2.173 -1.894 -1.896 -2.17 -1.92 -1.786 -1.622 -1.778 -1.897 -2.165 -2.175 -1.924 -1.835 -1.955 -1.875 -1.795 -1.641 -1.652 -1.608 -1.604 -1.784 -1.922 -1.923 -2.155 -2.195 -1.926 -1.787 -1.879 -2.16 -2.18 -2.165 -2.183 -2.153 -2.15 -2.183 -1.931 -1.935 -1.807 -1.944 -1.942 -1.91 -1.922 -2.145 -2.208 -2.188 -2.175 -2.21 -2.17 -2.18 -2.15 -2.22 -2.17 -1.912 -2.15 -2.23 -2.203 -2.19 -2.188 -2.175 -2.19 -2.21 -1.969 -2.23 -2.208 -2.165 -1.922 -1.895 -2.163 -2.148 -2.155 -2.19 -2.16 -2.15 -2.22 -2.19 -2.145 -2.093 -2.155 -2.235 -2.165 -2.213 -1.917 -2.195 -2.188 -2.178 -2.16 -2.23 -2.213 -2.208 -2.173 -2.148 -2.208 -2.154 -2.107 -2.1 -2.124 -2.067 -2.064 -2.077 -2.081 -2.076 -2.086 -2.054 -2.083 -2.105 -2.106 -2.144 -2.084 -2.034 -2.033 -2.005 -1.967 -2.032 -1.948 -1.96 -1.891 -1.896 -1.947 -1.939 -1.914 -1.902 -1.892 -1.894 -1.86 -1.856 -1.863 -1.832 -1.832 -1.813 -1.797 -1.805 -1.792 -1.84 -1.796 -1.733 -1.735 -1.705 -1.674 -1.663 -1.633 -1.683 -1.661 -1.693 -1.704 -1.735 -1.73 -1.717 -1.72 -1.688 -1.671 -1.648 -1.694 -1.684 -1.638 -1.641 -1.675 -1.712 -1.658 -1.651 -1.656 -1.698 -1.699 -1.671 -1.611 -1.663 -1.681 -1.651 -1.683 -1.611 -1.638 -1.704 -1.686 -1.687 -1.682 -1.684 -1.653 -1.651 -1.643 -1.643 -1.653 -1.687 -1.657 -1.658 -1.636 -1.621 -1.661 -1.623 -1.652 -1.653 -1.648 -1.616 -1.618 -1.631 -1.666 -1.643 -1.633 -1.656 -1.656 -1.653 -1.631 -1.631 -1.668 -1.641 -1.656 -1.648 -1.628 -1.628 -1.633 -1.633 -1.661 -1.658 -1.643 -1.638 -1.643 -1.648 -1.648 -1.641 -1.636 -1.658 -1.643 -1.643 -1.646 -1.651 -1.613 -1.651 -1.623 -1.628 -1.646 -1.658 -1.653 -1.633 -1.698 -1.658 -1.643 -1.666 -1.643 -1.698 -1.691 -1.711 -1.686 -1.631 -1.696 -1.723 -1.705 -1.696 -1.676 -1.703 -1.688 -1.697 -1.692 -1.674 -1.679 -1.706 -1.744 -1.774 -1.719 -1.696 -1.698 -1.682 -1.71 -1.714 -1.745 -1.745 -1.724 -1.71 -1.735 -1.698 -1.662 -1.661 -1.715 -1.745 -1.718 -1.678 -1.629 -1.651 -1.624 -1.663 -1.701 -1.721 -1.724 -1.784 -1.823 -1.846 -1.883 -1.908 -1.9 -1.912 -1.936 -1.917 -1.921 -1.95 -1.961 -1.887 -1.901 -1.894 -1.851 -1.863 -1.829 -1.814 -1.804 -1.845 -1.853 -1.911 -1.932 -1.958 -1.976 -1.979 -1.952 -1.975 -2.002 -2.026 -2.022 -2.013 -2.06 -2.039 -2.099 -2.142 -2.248 -2.259 -2.208
1.75 1.775 1.737 1.765 1.642 1.787 1.755 1.835 1.795 1.717 1.7 1.735 1.862 1.837 1.792 1.827 1.822 1.755 1.735 1.77 1.77 1.737 1.757 1.777 1.777 1.83 1.9 1.797 1.72 1.75 1.792 1.83 1.687 1.73 1.872 1.772 1.772 1.767 1.71 1.802 1.792 1.73 1.79 1.907 1.797 1.782 1.742 1.737 1.86 1.807 1.772 1.845 1.9 1.832 1.795 1.757 1.862 1.872 1.825 1.72 1.715 1.75 1.755 1.795 1.7 1.486 1.204 0.97 0.748 0.498 0.178 -0.04 -0.313 -0.536 -0.87 -1.099 -1.343 -1.553 -1.835 -1.917 -1.759 -1.542 -1.384 -1.125 -0.777 -0.553 -0.286 -0.042 -0.063 -0.259 -0.451 -0.667 -0.879 -1.019 -1.268 -1.434 -1.572 -1.663 -1.556 -1.395 -1.236 -1.021 -0.795 -0.51 -0.686 -0.853 -0.992 -1.072 -1.132 -1.126 -0.996 -0.842 -1.142 -1.389 -1.705 -1.962 -2.2 -2.195 -2.175 -1.92 -2.215 -2.223 -2.183 -1.91 -1.664 -1.655 -1.921 -2.15 -2.155 -2.13 -2.173 -1.865 -1.908 -1.812 -1.812 -1.896 -1.907 -2.178 -2.178 -2.178 -1.918 -1.91 -2.215 -2.173 -1.895 -1.884 -1.937 -1.843 -1.799 -1.879 -2.118 -2.193 -2.198 -2.228 -1.898 -1.913 -2.165 -2.168 -2.183 -2.173 -2.203 -2.178 -1.93 -1.873 -2.14 -2.2 -1.952 -2.223 -2.23 -2.198 -1.913 -2.193 -2.18 -2.175 -2.185 -2.138 -2.168 -2.133 -2.138 -2.235 -2.225 -2.198 -2.19 -2.165 -2.178 -1.928 -1.899 -2.19 -2.21 -2.168 -1.934 -1.949 -2.233 -2.218 -2.215 -2.185 -2.173 -2.218 -2.155 -2.233 -2.258 -2.15 -2.233 -2.238 -2.215 -2.15 -2.073 -2.22 -2.21 -2.158 -1.895 -2.205 -2.205 -2.223 -2.21 -2.193 -2.223 -2.213 -2.195 -2.17 -2.155 -2.158 -2.165 -2.129 -2.179 -2.081 -2.081 -2.094 -2.103 -2.138 -2.088 -2.087 -2.149 -2.121 -2.139 -2.151 -2.131 -2.109 -2.109 -2.078 -2.015 -1.993 -1.994 -1.998 -1.934 -1.919 -1.953 -1.965 -1.938 -1.923 -1.941 -1.903 -1.884 -1.898 -1.884 -1.88 -1.861 -1.862 -1.828 -1.821 -1.875 -1.846 -1.811 -1.794 -1.779 -1.731 -1.687 -1.638 -1.628 -1.673 -1.703 -1.729 -1.703 -1.714 -1.709 -1.692 -1.694 -1.687 -1.66 -1.656 -1.703 -1.71 -1.638 -1.711 -1.701 -1.712 -1.703 -1.591 -1.674 -1.648 -1.631 -1.668 -1.661 -1.656 -1.661 -1.663 -1.651 -1.678 -1.658 -1.656 -1.681 -1.734 -1.725 -1.631 -1.661 -1.658 -1.673 -1.646 -1.641 -1.668 -1.661 -1.641 -1.658 -1.626 -1.651 -1.653 -1.674 -1.643 -1.661 -1.653 -1.661 -1.626 -1.656 -1.638 -1.651 -1.621 -1.628 -1.616 -1.643 -1.636 -1.628 -1.671 -1.638 -1.651 -1.651 -1.636 -1.651 -1.636 -1.656 -1.666 -1.626 -1.613 -1.631 -1.656 -1.633 -1.638 -1.633 -1.643 -1.661 -1.633 -1.628 -1.651 -1.621 -1.621 -1.658 -1.641 -1.631 -1.643 -1.661 -1.641 -1.653 -1.663 -1.646 -1.633 -1.658 -1.668 -1.698 -1.684 -1.702 -1.641 -1.673 -1.668 -1.641 -1.676 -1.646 -1.688 -1.639 -1.639 -1.646 -1.636 -1.654 -1.684 -1.72 -1.727 -1.733 -1.679 -1.631 -1.671 -1.662 -1.697 -1.755 -1.732 -1.7 -1.703 -1.711 -1.666 -1.646 -1.624 -1.691 -1.743 -1.742 -1.693 -1.656 -1.649 -1.641 -1.641 -1.682 -1.694 -1.714 -1.764 -1.786 -1.84 -1.846 -1.875 -1.867 -1.888 -1.964 -1.916 -1.903 -1.909 -1.943 -1.949 -1.873 -1.854 -1.831 -1.818 -1.781 -1.805 -1.79 -1.805 -1.836 -1.864 -1.909 -1.91 -1.978 -1.955 -1.963 -1.976 -1.979 -1.977 -1.952 -1.963 -1.989 -2.019 -2.089 -2.121 -2.129 -2.178 -2.21
1.782 1.807 1.705 1.752 1.682 1.745 1.797 1.807 1.755 1.695 1.762 1.827 1.925 1.867 1.84 1.74 1.782 1.795 1.79 1.817 1.76 1.83 1.842 1.86 1.745 1.84 1.81 1.742 1.715 1.765 1.755 1.785 1.755 1.817 1.865 1.84 1.815 1.78 1.745 1.762 1.76 1.787 1.875 1.87 1.77 1.732 1.732 1.787 1.825 1.805 1.732 1.697 1.71 1.732 1.78 1.787 1.892 1.74 1.697 1.62 1.715 1.8 1.852 1.992 1.842 1.532 1.289 0.981 0.8 0.471 0.235 -0.047 -0.347 -0.567 -0.845 -1.134 -1.41 -1.649 -1.896 -2.183 -1.905 -1.638 -1.357 -1.134 -0.85 -0.59 -0.328 -0.287 -0.286 -0.373 -0.644 -0.854 -1.066 -1.266 -1.457 -1.559 -1.736 -1.913 -1.803 -1.567 -1.342 -1.086 -0.818 -0.629 -0.863 -1.072 -1.233 -1.33 -1.391 -1.335 -1.214 -1.067 -1.117 -1.386 -1.624 -1.8 -1.91 -2.168 -1.886 -1.905 -1.92 -1.966 -1.912 -1.79 -1.585 -1.816 -1.915 -2.165 -2.155 -2.14 -2.163 -1.876 -1.634 -1.635 -1.909 -2.175 -2.155 -1.921 -2.165 -1.935 -1.929 -2.188 -2.198 -1.922 -2.155 -2.135 -2.143 -1.898 -1.904 -2.155 -2.165 -2.163 -2.23 -2.173 -1.896 -2.143 -2.193 -2.18 -2.213 -1.898 -1.916 -1.911 -1.775 -1.875 -2.155 -2.153 -2.2 -2.185 -2.238 -2.235 -1.946 -1.948 -1.919 -1.912 -2.17 -2.183 -2.158 -2.198 -2.163 -2.155 -2.21 -2.198 -2.19 -2.158 -2.175 -1.89 -2.173 -2.145 -2.15 -2.185 -1.894 -2.138 -2.18 -2.258 -2.153 -2.168 -2.163 -2.23 -1.9 -2.15 -2.125 -2.185 -2.09 -1.935 -1.956 -2.173 -2.11 -2.13 -2.225 -2.243 -2.163 -2.178 -2.175 -2.238 -2.21 -2.118 -2.13 -2.19 -2.21 -2.175 -2.218 -2.194 -1.917 -1.872 -2.225 -2.131 -2.123 -2.133 -2.158 -2.136 -2.114 -2.108 -2.16 -2.196 -2.192 -2.061 -2.15 -2.095 -2.056 -2.169 -2.087 -1.995 -2.014 -2.06 -2.017 -1.957 -1.946 -2.017 -2.005 -1.963 -1.942 -1.948 -1.926 -1.941 -1.93 -1.896 -1.863 -1.891 -1.879 -1.878 -1.888 -1.861 -1.85 -1.814 -1.77 -1.744 -1.692 -1.676 -1.637 -1.696 -1.723 -1.694 -1.671 -1.696 -1.653 -1.641 -1.653 -1.654 -1.681 -1.672 -1.686 -1.663 -1.676 -1.681 -1.699 -1.723 -1.736 -1.707 -1.631 -1.651 -1.658 -1.675 -1.707 -1.648 -1.648 -1.656 -1.673 -1.656 -1.658 -1.681 -1.725 -1.707 -1.692 -1.638 -1.658 -1.631 -1.623 -1.705 -1.671 -1.663 -1.713 -1.648 -1.656 -1.648 -1.656 -1.675 -1.699 -1.682 -1.643 -1.668 -1.638 -1.626 -1.641 -1.616 -1.663 -1.626 -1.638 -1.621 -1.613 -1.626 -1.648 -1.638 -1.631 -1.653 -1.666 -1.653 -1.641 -1.638 -1.623 -1.673 -1.678 -1.646 -1.638 -1.653 -1.663 -1.641 -1.616 -1.626 -1.671 -1.638 -1.626 -1.643 -1.618 -1.611 -1.646 -1.626 -1.648 -1.623 -1.653 -1.662 -1.677 -1.643 -1.656 -1.628 -1.633 -1.671 -1.692 -1.608 -1.677 -1.648 -1.638 -1.691 -1.68 -1.649 -1.654 -1.659 -1.639 -1.639 -1.641 -1.634 -1.651 -1.665 -1.682 -1.673 -1.711 -1.691 -1.626 -1.644 -1.654 -1.687 -1.734 -1.712 -1.667 -1.646 -1.69 -1.681 -1.646 -1.646 -1.681 -1.707 -1.711 -1.669 -1.646 -1.659 -1.646 -1.644 -1.651 -1.691 -1.71 -1.73 -1.768 -1.771 -1.774 -1.805 -1.835 -1.88 -1.894 -1.887 -1.879 -1.833 -1.859 -1.879 -1.864 -1.805 -1.785 -1.743 -1.733 -1.768 -1.766 -1.786 -1.799 -1.83 -1.872 -1.901 -1.919 -1.898 -1.892 -1.93 -1.944 -1.924 -1.927 -1.92 -1.945 -2.013 -2.021 -2.051 -2.091 -2.119 -2.221
1.737 1.702 1.715 1.75 1.742 1.83 1.877 1.807 1.71 1.717 1.91 1.812 1.837 1.762 1.735 1.687 1.747 1.835 1.665 1.857 1.897 1.942 1.782 1.752 1.802 1.802 1.787 1.702 1.755 1.792 1.812 1.945 1.775 1.787 1.89 1.805 1.81 1.78 1.782 1.732 1.775 1.89 1.875 1.817 1.82 1.72 1.737 1.825 1.905 1.8 1.805 1.667 1.752 1.79 1.8 1.85 1.977 1.807 1.707 1.612 1.735 1.782 1.88 1.855 1.842 1.514 1.243 1.047 0.756 0.44 0.209 -0.041 -0.304 -0.579 -0.813 -1.147 -1.427 -1.633 -1.894 -2.158 -1.952 -1.668 -1.371 -1.139 -0.868 -0.608 -0.466 -0.552 -0.585 -0.537 -0.731 -1.003 -1.252 -1.421 -1.582 -1.772 -1.896 -2.21 -1.908 -1.671 -1.35 -1.115 -0.855 -0.754 -0.99 -1.253 -1.456 -1.57 -1.636 -1.573 -1.433 -1.236 -1.235 -1.43 -1.585 -1.801 -1.925 -2.178 -2.183 -2.178 -1.894 -1.636 -1.66 -1.573 -1.624 -1.929 -2.18 -2.19 -2.185 -2.17 -2.17 -1.932 -1.894 -1.818 -1.887 -2.163 -2.155 -2.12 -1.862 -1.868 -1.922 -1.905 -1.883 -2.143 -2.165 -2.165 -2.12 -1.894 -1.883 -2.178 -2.19 -2.115 -2.135 -2.203 -1.934 -2.188 -2.18 -2.218 -2.218 -1.942 -1.945 -1.905 -1.808 -1.9 -2.21 -2.148 -2.14 -2.185 -2.178 -2.21 -1.918 -1.83 -1.629 -1.914 -2.183 -2.188 -2.175 -2.248 -2.195 -2.158 -2.123 -1.943 -2.22 -1.93 -1.927 -1.917 -2.15 -2.155 -2.16 -2.193 -2.16 -2.238 -2.203 -2.213 -2.233 -2.208 -2.23 -2.188 -1.936 -1.89 -1.871 -2.21 -2.188 -2.205 -2.233 -2.19 -2.198 -2.193 -2.243 -1.933 -2.228 -2.15 -2.18 -2.22 -2.258 -2.215 -2.188 -2.198 -2.233 -2.2 -2.208 -2.251 -1.901 -1.901 -2.199 -2.157 -2.165 -2.156 -2.148 -2.137 -2.171 -2.173 -2.171 -2.206 -2.23 -2.162 -2.094 -2.145 -2.095 -2.143 -2.13 -2.111 -2.066 -2.105 -2.094 -2.038 -1.994 -2.04 -2.029 -2.001 -1.958 -1.981 -1.963 -2.034 -1.955 -1.939 -1.917 -1.911 -1.898 -1.905 -1.887 -1.871 -1.844 -1.821 -1.765 -1.759 -1.708 -1.727 -1.725 -1.713 -1.695 -1.658 -1.656 -1.679 -1.708 -1.648 -1.703 -1.717 -1.752 -1.737 -1.688 -1.671 -1.658 -1.641 -1.703 -1.736 -1.741 -1.723 -1.687 -1.648 -1.705 -1.71 -1.707 -1.692 -1.687 -1.694 -1.712 -1.656 -1.653 -1.693 -1.701 -1.679 -1.651 -1.656 -1.646 -1.651 -1.676 -1.651 -1.653 -1.683 -1.687 -1.668 -1.656 -1.653 -1.658 -1.705 -1.674 -1.714 -1.689 -1.648 -1.658 -1.643 -1.646 -1.636 -1.658 -1.651 -1.636 -1.648 -1.636 -1.623 -1.608 -1.621 -1.643 -1.638 -1.653 -1.641 -1.628 -1.636 -1.626 -1.636 -1.666 -1.651 -1.651 -1.671 -1.646 -1.656 -1.638 -1.628 -1.658 -1.646 -1.636 -1.646 -1.638 -1.626 -1.663 -1.646 -1.668 -1.675 -1.673 -1.678 -1.682 -1.618 -1.648 -1.638 -1.626 -1.68 -1.668 -1.658 -1.658 -1.656 -1.653 -1.659 -1.701 -1.636 -1.629 -1.639 -1.671 -1.669 -1.664 -1.644 -1.654 -1.678 -1.651 -1.649 -1.665 -1.701 -1.697 -1.631 -1.671 -1.684 -1.666 -1.707 -1.644 -1.634 -1.686 -1.706 -1.704 -1.702 -1.702 -1.726 -1.705 -1.685 -1.665 -1.68 -1.688 -1.685 -1.675 -1.689 -1.726 -1.776 -1.78 -1.751 -1.727 -1.737 -1.794 -1.838 -1.856 -1.849 -1.855 -1.853 -1.85 -1.838 -1.816 -1.783 -1.757 -1.75 -1.72 -1.716 -1.729 -1.758 -1.788 -1.821 -1.878 -1.908 -1.856 -1.894 -1.905 -1.866 -1.871 -1.895 -1.9 -1.935 -1.943 -1.986 -1.961 -1.998 -2.018 -2.088 -2.145
1.737 1.757 1.712 1.73 1.797 1.882 1.855 1.737 1.7 1.727 1.837 1.9 1.825 1.737 1.757 1.84 1.772 1.8 1.867 1.9 1.802 1.842 1.74 1.775 1.79 1.82 1.707 1.662 1.817 1.87 1.842 1.935 1.732 1.79 1.81 1.727 1.675 1.73 1.757 1.722 1.82 1.9 1.792 1.762 1.777 1.732 1.827 1.847 1.895 1.822 1.75 1.722 1.772 1.82 1.842 1.87 1.877 1.8 1.772 1.69 1.837 1.912 1.865 1.807 1.742 1.534 1.308 1.048 0.761 0.489 0.228 -0.098 -0.349 -0.62 -0.841 -1.113 -1.326 -1.582 -1.785 -1.883 -1.834 -1.58 -1.348 -1.085 -0.859 -0.607 -0.705 -0.82 -0.846 -0.825 -0.833 -1.073 -1.323 -1.579 -1.81 -1.898 -2.158 -2.145 -1.886 -1.635 -1.37 -1.035 -0.824 -0.781 -1.077 -1.323 -1.555 -1.752 -1.882 -1.803 -1.607 -1.449 -1.31 -1.569 -1.827 -1.917 -2.173 -2.148 -2.198 -2.17 -1.889 -1.63 -1.661 -1.635 -1.664 -1.909 -2.21 -2.21 -2.18 -2.133 -1.878 -2.16 -2.195 -1.901 -1.903 -2.173 -2.15 -2.155 -1.876 -2.17 -2.158 -1.889 -2.148 -2.17 -2.195 -2.19 -1.897 -2.153 -2.175 -2.163 -1.911 -1.889 -2.115 -2.17 -1.915 -2.185 -2.148 -2.205 -2.148 -1.948 -2.12 -2.13 -1.87 -1.896 -2.18 -2.2 -1.872 -2.193 -2.138 -2.133 -2.16 -1.931 -1.917 -1.9 -2.13 -2.223 -2.173 -2.165 -2.198 -2.143 -2.128 -1.9 -2.165 -2.18 -1.926 -2.195 -1.925 -2.233 -1.893 -1.907 -2.163 -2.215 -2.16 -2.143 -2.173 -2.203 -2.205 -2.253 -2.235 -1.945 -2.208 -2.2 -2.178 -2.143 -2.138 -2.173 -2.223 -2.16 -2.173 -2.183 -1.92 -2.178 -2.14 -2.243 -2.228 -2.223 -2.143 -2.17 -2.19 -2.16 -2.165 -2.171 -2.146 -1.923 -2.126 -2.166 -2.273 -2.196 -2.158 -2.191 -2.186 -2.163 -2.178 -2.176 -2.233 -2.268 -2.175 -2.165 -2.174 -2.172 -2.126 -2.127 -2.117 -2.084 -2.092 -2.143 -2.106 -2.007 -2.01 -1.988 -2.021 -2.072 -2.018 -2.063 -1.974 -1.964 -1.969 -1.936 -1.949 -1.934 -1.927 -1.931 -1.876 -1.852 -1.792 -1.775 -1.758 -1.759 -1.782 -1.717 -1.686 -1.648 -1.666 -1.703 -1.708 -1.667 -1.707 -1.744 -1.741 -1.749 -1.703 -1.667 -1.658 -1.661 -1.701 -1.738 -1.739 -1.752 -1.724 -1.681 -1.716 -1.744 -1.705 -1.696 -1.713 -1.707 -1.678 -1.686 -1.671 -1.621 -1.668 -1.658 -1.636 -1.651 -1.658 -1.638 -1.646 -1.646 -1.684 -1.682 -1.628 -1.656 -1.668 -1.646 -1.643 -1.648 -1.628 -1.638 -1.709 -1.698 -1.653 -1.663 -1.661 -1.641 -1.638 -1.663 -1.636 -1.638 -1.646 -1.646 -1.658 -1.666 -1.656 -1.633 -1.662 -1.684 -1.626 -1.633 -1.643 -1.611 -1.623 -1.697 -1.651 -1.631 -1.651 -1.646 -1.668 -1.628 -1.626 -1.648 -1.646 -1.626 -1.641 -1.641 -1.631 -1.638 -1.633 -1.636 -1.643 -1.651 -1.626 -1.644 -1.621 -1.636 -1.638 -1.631 -1.643 -1.641 -1.648 -1.7 -1.671 -1.646 -1.659 -1.649 -1.641 -1.629 -1.651 -1.639 -1.631 -1.646 -1.669 -1.68 -1.649 -1.656 -1.636 -1.686 -1.691 -1.644 -1.659 -1.651 -1.673 -1.68 -1.683 -1.696 -1.703 -1.719 -1.716 -1.706 -1.717 -1.753 -1.742 -1.731 -1.698 -1.687 -1.663 -1.695 -1.686 -1.698 -1.724 -1.735 -1.733 -1.722 -1.715 -1.73 -1.773 -1.809 -1.806 -1.782 -1.797 -1.834 -1.821 -1.791 -1.828 -1.773 -1.731 -1.712 -1.672 -1.678 -1.706 -1.728 -1.787 -1.813 -1.837 -1.865 -1.817 -1.837 -1.841 -1.847 -1.833 -1.87 -1.874 -1.905 -1.936 -1.956 -1.943 -1.982 -2.043 -2.082 -2.124
1.73 1.832 1.777 1.807 1.8 1.91 1.732 1.727 1.747 1.875 1.807 1.837 1.69 1.615 1.682 1.787 1.78 1.815 1.822 1.775 1.835 1.782 1.712 1.795 1.777 1.88 1.695 1.775 1.85 1.89 1.902 1.907 1.775 1.875 1.745 1.722 1.76 1.762 1.76 1.772 1.812 1.847 1.752 1.715 1.752 1.817 1.822 1.727 1.937 1.845 1.757 1.742 1.86 1.812 1.797 1.742 1.645 1.705 1.847 1.857 1.825 1.895 1.84 1.792 1.8 1.626 1.344 1.052 0.817 0.575 0.271 -0.009 -0.318 -0.55 -0.731 -0.935 -1.19 -1.388 -1.623 -1.632 -1.588 -1.414 -1.196 -1.028 -0.747 -0.847 -0.971 -1.108 -1.144 -1.186 -1.076 -1.099 -1.341 -1.642 -1.964 -2.225 -2.163 -2.13 -1.875 -1.606 -1.391 -1.066 -0.828 -0.851 -1.125 -1.39 -1.658 -1.89 -2.213 -1.862 -1.771 -1.561 -1.342 -1.628 -1.911 -2.155 -2.198 -2.165 -2.143 -1.887 -1.795 -1.777 -1.898 -1.896 -1.925 -1.809 -1.89 -2.173 -2.165 -1.936 -1.937 -2.165 -2.183 -1.921 -1.908 -2.185 -2.12 -2.15 -2.18 -2.205 -2.135 -2.115 -2.143 -2.183 -2.22 -2.168 -2.183 -2.16 -2.118 -2.095 -1.881 -1.931 -1.88 -1.87 -1.776 -1.938 -2.143 -2.16 -2.188 -2.2 -2.213 -2.15 -2.135 -1.939 -1.952 -1.982 -1.948 -2.155 -2.175 -2.158 -2.098 -2.195 -2.205 -2.185 -2.18 -2.155 -2.17 -2.125 -2.208 -2.198 -2.168 -2.14 -2.113 -2.18 -2.178 -2.123 -2.2 -2.253 -1.901 -2.178 -2.158 -2.148 -2.198 -2.158 -2.168 -2.175 -2.168 -2.198 -2.163 -2.205 -2.25 -2.175 -2.163 -2.218 -2.203 -2.195 -2.185 -2.198 -2.158 -2.19 -2.168 -2.228 -2.15 -2.165 -2.198 -2.213 -2.168 -2.173 -2.158 -2.228 -2.208 -2.208 -2.181 -2.151 -2.166 -2.188 -2.148 -2.186 -2.193 -2.203 -2.163 -2.208 -2.271 -2.271 -2.178 -2.206 -2.193 -2.169 -2.148 -2.12 -2.008 -2.111 -2.166 -2.12 -2.105 -2.153 -2.146 -2.11 -2.027 -2.097 -2.074 -2.036 -2.069 -2.065 -2.023 -2.034 -2.024 -1.979 -1.999 -1.997 -1.943 -1.953 -1.895 -1.873 -1.854 -1.801 -1.771 -1.786 -1.768 -1.745 -1.725 -1.675 -1.638 -1.702 -1.713 -1.731 -1.741 -1.77 -1.79 -1.786 -1.748 -1.678 -1.651 -1.676 -1.703 -1.741 -1.755 -1.762 -1.74 -1.736 -1.753 -1.737 -1.671 -1.661 -1.666 -1.666 -1.67 -1.71 -1.683 -1.638 -1.656 -1.653 -1.684 -1.7 -1.651 -1.621 -1.656 -1.643 -1.672 -1.681 -1.613 -1.623 -1.658 -1.671 -1.628 -1.656 -1.646 -1.651 -1.656 -1.656 -1.653 -1.663 -1.671 -1.668 -1.638 -1.643 -1.653 -1.606 -1.648 -1.648 -1.653 -1.653 -1.621 -1.641 -1.643 -1.626 -1.641 -1.653 -1.636 -1.636 -1.618 -1.643 -1.661 -1.643 -1.643 -1.661 -1.663 -1.641 -1.628 -1.636 -1.68 -1.618 -1.636 -1.626 -1.606 -1.633 -1.663 -1.641 -1.626 -1.646 -1.648 -1.611 -1.628 -1.621 -1.638 -1.674 -1.687 -1.656 -1.638 -1.641 -1.636 -1.639 -1.641 -1.688 -1.684 -1.681 -1.661 -1.644 -1.646 -1.659 -1.67 -1.688 -1.616 -1.664 -1.651 -1.678 -1.703 -1.682 -1.656 -1.681 -1.641 -1.649 -1.651 -1.629 -1.677 -1.726 -1.709 -1.71 -1.712 -1.728 -1.77 -1.729 -1.686 -1.657 -1.634 -1.651 -1.649 -1.676 -1.7 -1.702 -1.705 -1.684 -1.695 -1.723 -1.761 -1.8 -1.812 -1.762 -1.743 -1.763 -1.763 -1.737 -1.768 -1.777 -1.736 -1.664 -1.634 -1.664 -1.684 -1.715 -1.76 -1.804 -1.836 -1.816 -1.783 -1.794 -1.811 -1.828 -1.796 -1.822 -1.849 -1.851 -1.857 -1.93 -1.962 -1.992 -2.046 -2.035 -2.081
1.765 1.792 1.81 1.805 1.757 1.745 1.752 1.79 1.795 1.887 1.87 1.725 1.657 1.687 1.81 1.85 1.865 1.82 1.717 1.805 1.812 1.777 1.792 1.79 1.76 1.75 1.78 1.795 1.827 1.945 1.792 1.715 1.72 1.722 1.777 1.747 1.73 1.757 1.797 1.807 1.807 1.825 1.715 1.762 1.752 1.78 1.81 1.79 1.852 1.87 1.842 1.795 1.972 1.79 1.772 1.7 1.717 1.795 1.882 1.995 1.845 1.8 1.845 1.902 1.812 1.615 1.42 1.158 0.834 0.538 0.249 -0.003 -0.191 -0.378 -0.65 -0.796 -0.952 -1.197 -1.397 -1.395 -1.344 -1.181 -1.026 -0.774 -0.857 -1.094 -1.26 -1.351 -1.376 -1.382 -1.372 -1.332 -1.364 -1.613 -1.848 -1.91 -1.893 -1.903 -1.795 -1.553 -1.3 -0.991 -0.793 -0.876 -1.129 -1.377 -1.681 -1.907 -2.21 -2.195 -1.855 -1.6 -1.662 -1.608 -1.954 -2.183 -2.168 -2.193 -2.16 -1.868 -1.612 -1.915 -2.158 -2.188 -2.168 -1.906 -1.797 -1.906 -1.878 -1.873 -2.208 -2.173 -2.19 -1.924 -1.76 -1.897 -2.185 -2.19 -2.193 -2.173 -2.153 -1.866 -1.872 -2.175 -2.185 -2.133 -2.21 -2.168 -2.143 -2.135 -2.19 -2.198 -2.188 -1.914 -1.866 -1.742 -1.877 -2.125 -2.12 -2.173 -2.178 -2.213 -2.16 -2.17 -1.885 -1.927 -1.905 -2.195 -2.185 -2.165 -2.158 -1.884 -2.2 -2.23 -2.198 -2.155 -2.175 -2.14 -2.163 -2.213 -2.185 -2.18 -2.175 -2.143 -2.193 -2.15 -2.16 -2.23 -2.205 -2.163 -1.871 -1.899 -2.208 -2.18 -2.18 -2.203 -2.17 -2.18 -2.193 -2.165 -2.21 -2.183 -2.193 -2.22 -1.972 -2.208 -2.15 -2.185 -1.914 -2.173 -2.153 -2.22 -2.215 -2.188 -2.118 -2.138 -2.17 -2.17 -2.17 -2.218 -2.218 -2.203 -2.198 -2.166 -2.203 -2.203 -2.133 -2.153 -2.183 -2.168 -2.188 -2.173 -2.203 -2.218 -2.208 -2.238 -2.213 -2.191 -2.223 -2.225 -2.095 -2.176 -2.188 -2.176 -2.096 -2.081 -2.122 -2.193 -2.099 -2.115 -2.133 -2.081 -2.095 -2.099 -2.068 -2.069 -2.059 -2.017 -2.034 -1.984 -1.991 -1.93 -1.877 -1.878 -1.899 -1.86 -1.834 -1.798 -1.764 -1.774 -1.762 -1.706 -1.672 -1.702 -1.705 -1.774 -1.764 -1.802 -1.816 -1.786 -1.744 -1.713 -1.666 -1.687 -1.73 -1.765 -1.8 -1.769 -1.737 -1.744 -1.748 -1.728 -1.67 -1.696 -1.671 -1.678 -1.686 -1.674 -1.678 -1.658 -1.613 -1.697 -1.71 -1.702 -1.678 -1.663 -1.681 -1.727 -1.698 -1.701 -1.706 -1.651 -1.631 -1.651 -1.638 -1.621 -1.653 -1.656 -1.638 -1.641 -1.661 -1.666 -1.648 -1.631 -1.611 -1.616 -1.656 -1.651 -1.653 -1.631 -1.648 -1.663 -1.623 -1.643 -1.653 -1.633 -1.633 -1.648 -1.628 -1.653 -1.623 -1.618 -1.636 -1.638 -1.643 -1.623 -1.646 -1.658 -1.621 -1.586 -1.692 -1.662 -1.656 -1.668 -1.638 -1.618 -1.638 -1.633 -1.621 -1.616 -1.633 -1.638 -1.628 -1.623 -1.673 -1.676 -1.67 -1.667 -1.626 -1.633 -1.648 -1.639 -1.649 -1.629 -1.654 -1.661 -1.649 -1.646 -1.646 -1.636 -1.681 -1.7 -1.66 -1.666 -1.659 -1.683 -1.706 -1.669 -1.634 -1.679 -1.646 -1.641 -1.676 -1.659 -1.69 -1.683 -1.696 -1.677 -1.693 -1.717 -1.748 -1.714 -1.7 -1.659 -1.641 -1.631 -1.646 -1.693 -1.693 -1.682 -1.659 -1.644 -1.689 -1.723 -1.757 -1.806 -1.782 -1.751 -1.716 -1.695 -1.701 -1.709 -1.732 -1.748 -1.713 -1.666 -1.649 -1.639 -1.709 -1.733 -1.741 -1.776 -1.817 -1.792 -1.775 -1.767 -1.756 -1.771 -1.786 -1.801 -1.838 -1.819 -1.83 -1.934 -1.959 -1.947 -1.984 -2.029 -2.032
1.765 1.837 1.79 1.757 1.727 1.752 1.802 1.775 1.77 1.73 1.81 1.845 1.695 1.78 1.917 1.82 1.797 1.672 1.695 1.802 1.762 1.755 1.705 1.81 1.75 1.842 1.822 1.772 1.707 1.747 1.592 1.62 1.762 1.765 1.83 1.767 1.685 1.677 1.83 1.707 1.775 1.822 1.77 1.812 1.752 1.715 1.802 1.84 1.847 1.802 1.825 1.805 1.745 1.687 1.725 1.685 1.852 1.822 1.83 1.845 1.757 1.777 1.922 1.83 1.83 1.732 1.44 1.165 0.875 0.65 0.4 0.182 -0.056 -0.283 -0.544 -0.629 -0.819 -0.982 -1.102 -1.071 -1.088 -1.016 -0.885 -0.751 -0.974 -1.198 -1.521 -1.574 -1.601 -1.711 -1.7 -1.605 -1.455 -1.426 -1.596 -1.631 -1.611 -1.612 -1.581 -1.45 -1.187 -0.938 -0.746 -0.85 -1.126 -1.303 -1.593 -1.759 -1.907 -1.923 -1.814 -1.896 -1.919 -1.771 -1.82 -1.867 -2.145 -2.17 -1.908 -1.846 -1.821 -1.924 -1.87 -2.178 -2.168 -1.892 -1.778 -1.625 -1.895 -2.163 -2.165 -2.155 -2.188 -1.899 -1.617 -1.775 -1.892 -2.163 -2.125 -2.173 -2.198 -1.923 -1.913 -2.155 -2.18 -2.148 -2.173 -2.233 -2.198 -2.188 -1.93 -2.183 -2.195 -2.193 -2.14 -1.88 -1.931 -2.18 -2.135 -2.148 -2.118 -1.918 -1.933 -1.91 -2.15 -2.173 -2.165 -2.238 -2.248 -2.173 -1.905 -1.886 -2.118 -2.19 -2.208 -2.185 -2.225 -2.19 -2.173 -2.198 -2.188 -2.173 -2.17 -2.18 -2.165 -2.175 -2.165 -2.155 -2.168 -2.228 -1.938 -1.78 -1.901 -2.185 -2.12 -2.248 -2.195 -2.173 -2.193 -2.208 -2.22 -2.195 -2.188 -2.208 -2.203 -2.193 -2.173 -2.153 -2.18 -2.178 -2.155 -2.205 -2.205 -2.233 -2.21 -2.17 -2.145 -2.238 -2.135 -2.16 -2.215 -2.228 -2.136 -2.216 -2.278 -2.193 -2.153 -2.143 -2.143 -2.161 -2.203 -2.143 -2.188 -2.178 -2.186 -2.273 -2.218 -2.236 -2.231 -2.183 -2.206 -2.223 -2.203 -2.233 -2.201 -2.147 -2.172 -2.239 -2.214 -2.16 -2.131 -2.143 -2.149 -2.108 -2.103 -2.1 -2.099 -2.03 -1.998 -1.996 -2.011 -1.961 -1.924 -1.909 -1.899 -1.89 -1.877 -1.826 -1.781 -1.802 -1.785 -1.745 -1.72 -1.736 -1.713 -1.762 -1.782 -1.821 -1.804 -1.786 -1.748 -1.733 -1.726 -1.733 -1.734 -1.799 -1.766 -1.73 -1.699 -1.681 -1.696 -1.685 -1.707 -1.714 -1.664 -1.692 -1.68 -1.705 -1.689 -1.677 -1.694 -1.691 -1.681 -1.673 -1.661 -1.656 -1.711 -1.704 -1.683 -1.696 -1.732 -1.717 -1.623 -1.648 -1.666 -1.613 -1.638 -1.676 -1.636 -1.628 -1.668 -1.658 -1.616 -1.658 -1.626 -1.641 -1.651 -1.651 -1.621 -1.616 -1.656 -1.648 -1.656 -1.666 -1.648 -1.651 -1.623 -1.651 -1.656 -1.658 -1.651 -1.611 -1.653 -1.623 -1.648 -1.633 -1.636 -1.633 -1.633 -1.683 -1.705 -1.653 -1.641 -1.636 -1.661 -1.631 -1.651 -1.643 -1.633 -1.638 -1.621 -1.671 -1.658 -1.631 -1.66 -1.678 -1.655 -1.636 -1.621 -1.643 -1.648 -1.629 -1.631 -1.624 -1.644 -1.664 -1.695 -1.691 -1.701 -1.689 -1.657 -1.683 -1.697 -1.644 -1.659 -1.639 -1.693 -1.688 -1.668 -1.688 -1.634 -1.636 -1.616 -1.649 -1.705 -1.687 -1.634 -1.634 -1.636 -1.686 -1.709 -1.714 -1.705 -1.679 -1.634 -1.629 -1.629 -1.649 -1.676 -1.682 -1.644 -1.649 -1.658 -1.73 -1.768 -1.803 -1.761 -1.743 -1.689 -1.66 -1.659 -1.667 -1.687 -1.688 -1.665 -1.692 -1.685 -1.685 -1.709 -1.735 -1.749 -1.817 -1.804 -1.757 -1.718 -1.727 -1.721 -1.743 -1.756 -1.784 -1.8 -1.824 -1.827 -1.882 -1.932 -1.965 -1.985 -2.021 -2.077
1.76 1.76 1.777 1.75 1.697 1.79 1.857 1.662 1.707 1.727 1.832 1.762 1.802 1.807 1.912 1.787 1.76 1.735 1.785 1.845 1.795 1.702 1.852 1.855 1.842 1.86 1.695 1.662 1.655 1.63 1.712 1.842 1.917 1.825 1.797 1.832 1.795 1.83 1.822 1.755 1.812 1.78 1.877 1.74 1.695 1.812 1.942 1.885 1.827 1.84 1.867 1.87 1.692 1.607 1.742 1.795 1.855 1.8 1.9 1.765 1.71 1.797 1.8 1.737 1.805 1.752 1.467 1.237 0.94 0.825 0.519 0.257 0.109 -0.047 -0.349 -0.47 -0.63 -0.747 -0.843 -0.809 -0.797 -0.811 -0.654 -0.798 -1.12 -1.325 -1.589 -1.757 -1.869 -1.946 -1.985 -1.839 -1.555 -1.348 -1.337 -1.392 -1.383 -1.387 -1.346 -1.18 -1.108 -1.084 -1.023 -0.887 -0.986 -1.195 -1.41 -1.563 -1.67 -1.659 -1.917 -2.168 -2.175 -1.936 -1.633 -1.773 -1.909 -1.897 -1.802 -1.631 -1.886 -2.2 -2.205 -1.875 -2.158 -2.16 -1.905 -1.896 -1.867 -2.143 -2.14 -2.155 -1.899 -1.805 -1.589 -1.574 -1.749 -1.879 -2.145 -2.143 -2.165 -2.16 -1.883 -2.15 -2.138 -2.17 -2.16 -2.213 -2.2 -2.168 -2.15 -2.118 -2.143 -2.188 -2.183 -1.926 -1.793 -1.925 -2.178 -2.143 -1.854 -1.78 -1.899 -2.218 -2.208 -2.15 -2.15 -2.193 -2.213 -1.963 -2.188 -2.183 -2.153 -2.165 -2.208 -2.173 -2.223 -2.255 -1.926 -2.215 -2.22 -2.215 -2.135 -2.16 -2.203 -2.2 -2.173 -1.865 -1.89 -1.939 -1.983 -1.789 -1.9 -2.183 -2.173 -2.155 -2.188 -1.915 -1.941 -2.203 -2.17 -2.215 -2.163 -2.208 -2.175 -2.205 -2.178 -2.21 -2.205 -2.208 -2.18 -2.218 -2.173 -2.163 -2.223 -2.183 -2.16 -2.268 -2.198 -2.12 -2.13 -2.228 -2.156 -2.138 -2.226 -2.203 -2.216 -2.178 -2.196 -2.183 -2.148 -2.151 -2.156 -2.251 -2.236 -2.228 -2.151 -2.201 -2.243 -2.218 -2.211 -2.211 -2.176 -2.186 -2.303 -2.196 -2.163 -2.156 -2.169 -2.208 -2.119 -2.131 -2.165 -2.136 -2.091 -2.09 -2.101 -2.074 -2.083 -2.048 -2.029 -1.995 -1.977 -1.945 -1.959 -1.935 -1.886 -1.87 -1.846 -1.79 -1.763 -1.757 -1.72 -1.708 -1.709 -1.721 -1.778 -1.805 -1.861 -1.81 -1.792 -1.769 -1.769 -1.784 -1.785 -1.782 -1.773 -1.748 -1.708 -1.641 -1.658 -1.678 -1.728 -1.701 -1.723 -1.743 -1.736 -1.721 -1.703 -1.709 -1.718 -1.663 -1.651 -1.648 -1.656 -1.668 -1.668 -1.641 -1.641 -1.667 -1.698 -1.688 -1.653 -1.658 -1.643 -1.696 -1.621 -1.641 -1.643 -1.646 -1.658 -1.626 -1.636 -1.646 -1.656 -1.653 -1.628 -1.638 -1.656 -1.641 -1.664 -1.676 -1.678 -1.646 -1.674 -1.633 -1.641 -1.638 -1.648 -1.646 -1.653 -1.611 -1.631 -1.631 -1.651 -1.636 -1.643 -1.641 -1.653 -1.702 -1.677 -1.651 -1.676 -1.621 -1.633 -1.661 -1.631 -1.688 -1.661 -1.651 -1.621 -1.646 -1.653 -1.633 -1.631 -1.658 -1.638 -1.631 -1.618 -1.621 -1.631 -1.611 -1.624 -1.649 -1.649 -1.656 -1.72 -1.697 -1.634 -1.651 -1.626 -1.646 -1.679 -1.699 -1.644 -1.639 -1.641 -1.68 -1.624 -1.646 -1.614 -1.629 -1.639 -1.671 -1.697 -1.614 -1.611 -1.636 -1.621 -1.673 -1.699 -1.692 -1.687 -1.687 -1.649 -1.646 -1.634 -1.634 -1.684 -1.694 -1.682 -1.701 -1.695 -1.733 -1.76 -1.806 -1.781 -1.71 -1.675 -1.626 -1.678 -1.646 -1.619 -1.629 -1.666 -1.713 -1.703 -1.717 -1.736 -1.75 -1.777 -1.775 -1.767 -1.742 -1.683 -1.677 -1.694 -1.687 -1.701 -1.719 -1.751 -1.828 -1.856 -1.889 -1.906 -1.959 -1.989 -2.032 -2.066
1.77 1.77 1.792 1.737 1.742 1.762 1.727 1.64 1.665 1.827 1.805 1.777 1.795 1.807 1.867 1.81 1.732 1.702 1.867 1.85 1.69 1.752 1.772 1.807 1.817 1.817 1.765 1.732 1.745 1.76 1.87 1.895 1.795 1.772 1.727 1.79 1.837 1.695 1.802 1.78 1.817 1.725 1.76 1.652 1.83 1.897 1.812 1.78 1.697 1.7 1.705 1.725 1.69 1.805 1.842 1.847 1.877 1.812 1.767 1.767 1.692 1.747 1.737 1.77 1.835 1.872 1.541 1.395 1.136 0.8 0.657 0.412 0.318 0.155 -0.099 -0.253 -0.409 -0.527 -0.592 -0.626 -0.584 -0.509 -0.577 -0.851 -1.168 -1.39 -1.62 -1.904 -2.135 -2.175 -2.188 -1.906 -1.6 -1.369 -1.146 -1.156 -1.148 -1.12 -1.175 -1.289 -1.371 -1.323 -1.249 -1.079 -1.062 -1.233 -1.334 -1.41 -1.403 -1.679 -1.92 -2.188 -2.178 -1.92 -1.657 -1.805 -1.933 -1.902 -1.842 -1.811 -1.886 -2.135 -2.153 -1.92 -1.901 -1.942 -2.203 -2.193 -1.873 -1.876 -1.877 -1.897 -1.785 -1.537 -1.619 -1.632 -1.784 -1.891 -1.925 -2.153 -2.158 -2.16 -2.148 -1.883 -1.908 -2.178 -2.153 -2.143 -1.92 -1.904 -2.128 -2.175 -2.155 -2.168 -2.183 -2.16 -1.897 -1.923 -2.153 -2.173 -2.2 -1.844 -1.909 -2.143 -2.205 -2.178 -2.188 -2.163 -2.178 -2.17 -2.165 -2.23 -2.203 -2.198 -2.203 -2.185 -2.213 -2.203 -1.98 -2.223 -2.283 -2.213 -1.919 -2.163 -2.203 -2.168 -2.203 -1.905 -2.188 -2.19 -2.153 -1.924 -1.888 -2.19 -2.148 -2.188 -2.21 -2.243 -2.19 -2.178 -2.198 -2.18 -2.228 -2.195 -2.195 -2.223 -2.21 -2.163 -2.19 -2.23 -2.218 -2.183 -1.904 -2.17 -2.225 -2.235 -2.155 -2.225 -2.203 -2.153 -2.158 -2.191 -2.213 -2.198 -2.171 -2.191 -2.193 -2.228 -2.173 -2.196 -2.183 -2.188 -2.141 -2.193 -2.206 -2.248 -2.181 -2.218 -2.166 -2.213 -2.213 -2.238 -2.253 -2.226 -2.216 -2.218 -2.196 -2.198 -2.188 -2.226 -2.216 -2.253 -2.194 -2.217 -2.168 -2.169 -2.135 -2.153 -2.169 -2.079 -2.046 -1.997 -2.048 -2.002 -2.01 -1.932 -1.909 -1.91 -1.856 -1.788 -1.777 -1.725 -1.682 -1.636 -1.69 -1.729 -1.744 -1.793 -1.852 -1.85 -1.846 -1.808 -1.78 -1.809 -1.849 -1.8 -1.758 -1.731 -1.697 -1.698 -1.661 -1.638 -1.651 -1.686 -1.727 -1.772 -1.771 -1.76 -1.743 -1.73 -1.717 -1.707 -1.661 -1.666 -1.693 -1.683 -1.693 -1.651 -1.661 -1.663 -1.656 -1.646 -1.653 -1.68 -1.682 -1.683 -1.651 -1.606 -1.653 -1.651 -1.653 -1.656 -1.656 -1.661 -1.653 -1.651 -1.641 -1.638 -1.663 -1.661 -1.641 -1.656 -1.656 -1.646 -1.646 -1.651 -1.656 -1.641 -1.628 -1.628 -1.631 -1.643 -1.638 -1.636 -1.636 -1.648 -1.643 -1.618 -1.631 -1.648 -1.657 -1.598 -1.633 -1.643 -1.626 -1.678 -1.663 -1.636 -1.679 -1.651 -1.633 -1.638 -1.668 -1.666 -1.638 -1.653 -1.646 -1.671 -1.648 -1.643 -1.653 -1.664 -1.629 -1.644 -1.654 -1.624 -1.629 -1.631 -1.639 -1.669 -1.654 -1.661 -1.661 -1.685 -1.639 -1.654 -1.634 -1.634 -1.629 -1.651 -1.641 -1.639 -1.629 -1.676 -1.693 -1.692 -1.631 -1.644 -1.654 -1.651 -1.654 -1.651 -1.66 -1.639 -1.656 -1.712 -1.621 -1.634 -1.688 -1.724 -1.708 -1.709 -1.677 -1.69 -1.724 -1.751 -1.768 -1.7 -1.689 -1.649 -1.654 -1.696 -1.616 -1.667 -1.709 -1.707 -1.764 -1.783 -1.777 -1.767 -1.792 -1.784 -1.75 -1.726 -1.67 -1.634 -1.636 -1.639 -1.674 -1.736 -1.752 -1.813 -1.86 -1.898 -1.895 -1.931 -1.993 -2.036 -2.057
1.745 1.8 1.78 1.725 1.717 1.722 1.765 1.752 1.78 1.852 1.825 1.785 1.722 1.86 1.935 1.757 1.742 1.782 1.802 1.765 1.722 1.71 1.805 1.8 1.762 1.67 1.78 1.74 1.787 1.79 1.867 1.792 1.79 1.787 1.852 1.81 1.82 1.687 1.802 1.782 1.857 1.807 1.85 1.79 1.88 1.87 1.78 1.682 1.685 1.765 1.747 1.772 1.732 1.807 1.945 1.847 1.797 1.802 1.752 1.812 1.795 1.877 1.835 1.822 1.84 1.82 1.597 1.412 1.225 1.027 0.86 0.659 0.517 0.34 0.109 -0.056 -0.211 -0.273 -0.285 -0.359 -0.343 -0.292 -0.582 -0.921 -1.179 -1.416 -1.631 -1.936 -2.158 -2.16 -1.864 -1.775 -1.551 -1.323 -1.09 -0.9 -0.988 -1.194 -1.435 -1.572 -1.699 -1.588 -1.424 -1.191 -1.215 -1.434 -1.605 -1.62 -1.714 -1.687 -1.899 -2.143 -2.16 -1.937 -1.656 -1.897 -2.15 -2.18 -2.135 -1.889 -1.786 -1.944 -1.908 -1.799 -1.621 -1.805 -1.936 -2.183 -1.893 -1.754 -1.615 -1.6 -1.552 -1.77 -1.892 -1.907 -1.89 -2.16 -1.904 -1.931 -1.895 -2.133 -1.897 -1.891 -1.872 -2.148 -1.925 -1.854 -1.753 -1.759 -1.845 -2.213 -2.185 -2.238 -2.188 -2.168 -2.15 -1.918 -2.198 -2.16 -2.163 -2.145 -2.13 -2.133 -2.143 -1.896 -2.203 -2.175 -2.165 -2.118 -2.168 -2.223 -2.225 -1.913 -2.205 -1.951 -2.175 -2.16 -2.233 -2.18 -2.178 -2.228 -2.213 -2.2 -2.168 -2.18 -2.228 -2.23 -2.17 -2.195 -2.193 -2.24 -1.902 -2.195 -2.175 -2.168 -2.123 -2.205 -2.23 -2.188 -2.148 -2.168 -2.193 -2.208 -2.203 -2.19 -2.193 -2.168 -2.188 -2.215 -2.205 -2.213 -2.195 -2.165 -2.19 -2.215 -2.138 -2.118 -2.16 -2.263 -2.175 -2.168 -2.246 -2.246 -2.181 -2.236 -2.158 -2.246 -2.173 -2.176 -2.156 -2.226 -2.211 -2.151 -2.206 -2.173 -2.218 -2.191 -2.171 -2.226 -2.221 -2.241 -2.236 -2.208 -2.173 -2.146 -2.263 -2.161 -2.206 -2.238 -2.166 -2.246 -2.173 -2.228 -2.225 -2.22 -2.223 -2.172 -2.198 -2.127 -2.065 -2.009 -2.054 -2.028 -1.962 -1.973 -1.88 -1.846 -1.841 -1.823 -1.758 -1.727 -1.68 -1.623 -1.675 -1.707 -1.757 -1.784 -1.851 -1.885 -1.847 -1.826 -1.836 -1.845 -1.89 -1.845 -1.78 -1.732 -1.692 -1.684 -1.693 -1.688 -1.696 -1.706 -1.726 -1.768 -1.812 -1.809 -1.78 -1.736 -1.728 -1.706 -1.709 -1.724 -1.696 -1.662 -1.681 -1.656 -1.651 -1.676 -1.638 -1.673 -1.666 -1.689 -1.653 -1.643 -1.681 -1.648 -1.661 -1.663 -1.671 -1.658 -1.641 -1.626 -1.643 -1.653 -1.663 -1.631 -1.628 -1.648 -1.653 -1.651 -1.661 -1.641 -1.668 -1.646 -1.711 -1.633 -1.606 -1.648 -1.623 -1.653 -1.636 -1.643 -1.638 -1.636 -1.633 -1.643 -1.611 -1.631 -1.638 -1.633 -1.626 -1.643 -1.633 -1.648 -1.663 -1.674 -1.651 -1.68 -1.628 -1.621 -1.638 -1.658 -1.641 -1.712 -1.643 -1.633 -1.661 -1.636 -1.638 -1.67 -1.634 -1.649 -1.651 -1.641 -1.631 -1.639 -1.659 -1.666 -1.646 -1.695 -1.639 -1.634 -1.659 -1.664 -1.646 -1.676 -1.641 -1.688 -1.636 -1.661 -1.634 -1.691 -1.664 -1.701 -1.649 -1.701 -1.689 -1.644 -1.654 -1.656 -1.688 -1.651 -1.651 -1.664 -1.631 -1.682 -1.715 -1.729 -1.679 -1.672 -1.641 -1.699 -1.689 -1.683 -1.774 -1.744 -1.704 -1.687 -1.654 -1.706 -1.682 -1.677 -1.754 -1.749 -1.779 -1.803 -1.807 -1.765 -1.766 -1.764 -1.771 -1.727 -1.711 -1.641 -1.641 -1.619 -1.691 -1.716 -1.747 -1.76 -1.843 -1.873 -1.913 -1.96 -2.031 -2.046 -2.019
1.75 1.755 1.73 1.757 1.75 1.795 1.742 1.712 1.822 1.757 1.747 1.715 1.822 1.827 1.75 1.697 1.692 1.797 1.825 1.71 1.74 1.855 1.85 1.822 1.735 1.725 1.715 1.8 1.745 1.805 1.732 1.795 1.732 1.8 1.705 1.807 1.717 1.707 1.81 1.927 1.82 1.815 1.792 1.857 1.887 1.685 1.637 1.655 1.652 1.685 1.802 1.847 1.742 1.845 1.825 1.775 1.702 1.787 1.712 1.787 1.82 1.837 1.772 1.825 1.772 1.772 1.795 1.628 1.464 1.264 1.081 0.889 0.692 0.543 0.338 0.192 -0.01 0.007 -0.028 -0.028 0.043 -0.306 -0.594 -0.853 -1.109 -1.335 -1.531 -1.79 -1.925 -1.906 -1.808 -1.583 -1.378 -1.221 -0.983 -0.873 -1.038 -1.329 -1.579 -1.794 -1.934 -1.805 -1.539 -1.335 -1.281 -1.592 -1.809 -1.944 -1.956 -1.937 -1.771 -1.983 -1.924 -1.808 -1.64 -1.897 -2.153 -2.143 -2.18 -1.849 -1.658 -1.659 -1.655 -1.547 -1.415 -1.603 -1.759 -1.93 -2.15 -1.92 -1.827 -1.558 -1.606 -1.913 -2.14 -2.153 -2.168 -2.143 -1.858 -1.605 -1.772 -1.886 -2.21 -2.198 -2.145 -2.135 -1.881 -1.87 -1.876 -1.879 -2.22 -2.165 -2.18 -2.173 -2.185 -2.155 -2.128 -2.155 -2.215 -2.208 -2.18 -2.153 -2.135 -2.14 -2.11 -1.905 -1.848 -2.223 -2.183 -2.153 -2.168 -2.22 -1.921 -1.869 -2.148 -2.198 -2.163 -2.148 -2.19 -2.163 -2.178 -2.188 -2.19 -2.2 -2.213 -2.175 -2.198 -2.228 -2.173 -2.168 -2.143 -2.173 -2.263 -2.19 -2.225 -2.185 -2.148 -2.183 -2.178 -2.188 -2.188 -2.158 -2.223 -2.21 -2.193 -2.23 -2.205 -2.16 -2.175 -2.165 -2.233 -2.19 -2.198 -2.19 -2.218 -2.21 -2.155 -2.168 -2.158 -2.168 -2.165 -2.136 -2.198 -2.223 -2.186 -2.196 -2.216 -2.166 -2.236 -2.186 -2.223 -2.258 -2.238 -2.163 -2.211 -2.206 -2.211 -2.248 -2.211 -2.178 -2.188 -2.208 -2.248 -2.278 -2.236 -2.213 -2.166 -2.138 -2.186 -2.143 -2.186 -2.236 -2.183 -2.243 -2.236 -2.256 -2.218 -2.157 -2.184 -2.156 -2.106 -2.065 -2.026 -2.017 -1.952 -1.94 -1.894 -1.863 -1.833 -1.831 -1.788 -1.735 -1.708 -1.66 -1.701 -1.734 -1.778 -1.8 -1.858 -1.889 -1.896 -1.898 -1.899 -1.897 -1.869 -1.859 -1.836 -1.8 -1.726 -1.745 -1.741 -1.744 -1.717 -1.757 -1.8 -1.786 -1.76 -1.813 -1.799 -1.729 -1.697 -1.689 -1.677 -1.648 -1.636 -1.633 -1.651 -1.673 -1.641 -1.692 -1.668 -1.666 -1.648 -1.676 -1.676 -1.691 -1.673 -1.651 -1.631 -1.663 -1.653 -1.643 -1.658 -1.646 -1.636 -1.658 -1.683 -1.633 -1.626 -1.651 -1.678 -1.648 -1.676 -1.668 -1.653 -1.658 -1.658 -1.68 -1.653 -1.658 -1.658 -1.676 -1.641 -1.636 -1.621 -1.663 -1.633 -1.643 -1.618 -1.618 -1.641 -1.633 -1.626 -1.638 -1.626 -1.628 -1.638 -1.663 -1.648 -1.653 -1.646 -1.608 -1.631 -1.641 -1.636 -1.653 -1.724 -1.674 -1.641 -1.646 -1.628 -1.662 -1.636 -1.664 -1.619 -1.654 -1.641 -1.634 -1.644 -1.709 -1.68 -1.688 -1.688 -1.616 -1.644 -1.659 -1.641 -1.649 -1.654 -1.631 -1.661 -1.664 -1.629 -1.656 -1.674 -1.646 -1.646 -1.659 -1.667 -1.644 -1.659 -1.631 -1.651 -1.651 -1.646 -1.654 -1.644 -1.649 -1.671 -1.679 -1.695 -1.621 -1.631 -1.661 -1.693 -1.688 -1.759 -1.747 -1.715 -1.69 -1.689 -1.7 -1.71 -1.713 -1.765 -1.783 -1.8 -1.777 -1.798 -1.754 -1.75 -1.737 -1.713 -1.7 -1.674 -1.644 -1.636 -1.626 -1.679 -1.727 -1.747 -1.775 -1.828 -1.861 -1.913 -1.935 -1.994 -2.034 -1.991
1.707 1.752 1.79 1.705 1.727 1.83 1.755 1.697 1.78 1.822 1.85 1.832 1.775 1.722 1.732 1.75 1.78 1.905 1.882 1.762 1.83 1.915 1.835 1.787 1.73 1.742 1.817 1.84 1.75 1.787 1.667 1.81 1.81 1.857 1.642 1.782 1.805 1.887 1.88 1.945 1.735 1.747 1.75 1.832 1.84 1.64 1.7 1.872 1.772 1.715 1.73 1.84 1.812 1.775 1.682 1.692 1.712 1.74 1.777 1.755 1.807 1.805 1.71 1.8 1.715 1.74 1.817 1.83 1.671 1.404 1.227 1.095 0.948 0.753 0.559 0.439 0.341 0.279 0.218 0.187 0.059 -0.25 -0.458 -0.729 -0.956 -1.237 -1.427 -1.564 -1.648 -1.644 -1.623 -1.46 -1.188 -1.043 -0.876 -0.864 -1.124 -1.367 -1.668 -1.879 -2.185 -1.911 -1.636 -1.351 -1.348 -1.632 -1.88 -2.183 -2.165 -2.2 -1.92 -1.652 -1.639 -1.585 -1.618 -1.905 -2.175 -2.183 -2.193 -1.93 -1.651 -1.586 -1.584 -1.58 -1.535 -1.63 -1.877 -2.188 -2.133 -2.145 -1.919 -1.638 -1.596 -1.884 -2.195 -2.16 -2.14 -2.14 -1.863 -1.894 -1.939 -1.909 -2.173 -2.17 -2.183 -2.158 -2.133 -2.16 -2.168 -2.14 -2.178 -2.163 -2.145 -2.15 -2.145 -2.19 -1.919 -1.9 -2.155 -2.21 -2.188 -2.168 -2.165 -2.173 -1.895 -1.937 -2.128 -2.188 -2.213 -2.188 -2.16 -2.168 -1.904 -2.225 -2.135 -2.175 -1.926 -1.93 -2.185 -2.178 -2.165 -2.198 -2.21 -2.183 -2.208 -2.188 -2.13 -2.143 -2.178 -2.193 -2.183 -2.11 -2.203 -2.175 -2.165 -2.165 -2.148 -2.143 -2.15 -2.168 -2.188 -2.163 -2.18 -2.145 -2.188 -2.2 -2.163 -2.208 -2.183 -2.188 -2.22 -2.185 -2.218 -2.173 -2.2 -2.203 -2.215 -2.2 -2.158 -2.148 -2.143 -2.096 -2.158 -2.228 -2.196 -2.168 -2.213 -2.166 -2.218 -2.238 -2.201 -2.216 -2.223 -2.201 -2.218 -2.181 -2.133 -2.228 -2.203 -2.196 -2.181 -2.163 -2.188 -2.263 -2.243 -2.211 -2.191 -2.188 -2.231 -2.158 -2.211 -2.213 -2.271 -2.261 -2.198 -2.176 -2.218 -2.193 -2.171 -2.135 -2.058 -2.037 -2.059 -2.011 -1.99 -1.98 -1.921 -1.876 -1.847 -1.805 -1.784 -1.767 -1.765 -1.711 -1.73 -1.754 -1.804 -1.819 -1.878 -1.866 -1.917 -1.929 -1.921 -1.95 -1.884 -1.855 -1.849 -1.821 -1.78 -1.782 -1.765 -1.782 -1.76 -1.751 -1.728 -1.738 -1.756 -1.754 -1.777 -1.708 -1.669 -1.638 -1.641 -1.611 -1.648 -1.656 -1.653 -1.678 -1.712 -1.714 -1.712 -1.716 -1.654 -1.708 -1.673 -1.648 -1.646 -1.671 -1.676 -1.651 -1.641 -1.641 -1.728 -1.71 -1.715 -1.658 -1.643 -1.648 -1.638 -1.656 -1.668 -1.651 -1.668 -1.643 -1.653 -1.663 -1.646 -1.681 -1.681 -1.648 -1.663 -1.658 -1.661 -1.661 -1.643 -1.663 -1.666 -1.673 -1.651 -1.651 -1.661 -1.641 -1.648 -1.618 -1.601 -1.626 -1.626 -1.651 -1.651 -1.653 -1.653 -1.651 -1.618 -1.646 -1.653 -1.631 -1.636 -1.709 -1.668 -1.628 -1.636 -1.659 -1.654 -1.639 -1.639 -1.626 -1.629 -1.651 -1.636 -1.671 -1.631 -1.672 -1.686 -1.651 -1.661 -1.661 -1.631 -1.619 -1.649 -1.634 -1.636 -1.646 -1.626 -1.654 -1.683 -1.641 -1.644 -1.629 -1.682 -1.679 -1.661 -1.641 -1.644 -1.646 -1.619 -1.641 -1.656 -1.644 -1.678 -1.636 -1.646 -1.661 -1.634 -1.614 -1.69 -1.732 -1.753 -1.731 -1.707 -1.668 -1.636 -1.678 -1.729 -1.767 -1.758 -1.751 -1.78 -1.76 -1.753 -1.718 -1.676 -1.667 -1.689 -1.659 -1.68 -1.68 -1.687 -1.679 -1.673 -1.718 -1.757 -1.78 -1.825 -1.862 -1.914 -1.983 -1.984 -1.963 -1.995
1.745 1.77 1.77 1.742 1.767 1.792 1.727 1.765 1.822 1.792 1.802 1.802 1.715 1.67 1.805 1.787 1.807 1.87 1.812 1.725 1.827 1.805 1.755 1.69 1.712 1.757 1.805 1.825 1.725 1.822 1.657 1.832 1.74 1.775 1.715 1.805 1.857 1.827 1.802 1.777 1.72 1.77 1.755 1.822 1.857 1.83 1.865 1.785 1.707 1.817 1.767 1.787 1.797 1.785 1.797 1.682 1.702 1.737 1.835 1.82 1.797 1.882 1.812 1.727 1.832 1.77 1.782 1.892 1.871 1.615 1.362 1.188 1.131 0.915 0.792 0.669 0.633 0.504 0.48 0.394 0.09 -0.109 -0.35 -0.605 -0.805 -1.015 -1.249 -1.32 -1.361 -1.395 -1.356 -1.26 -1.066 -0.849 -0.835 -0.834 -1.126 -1.358 -1.609 -1.88 -2.185 -1.882 -1.619 -1.376 -1.395 -1.611 -1.854 -2.178 -2.163 -2.165 -1.913 -1.658 -1.406 -1.322 -1.557 -1.734 -1.951 -1.953 -1.906 -1.849 -1.632 -1.771 -1.918 -1.911 -1.799 -1.665 -1.947 -2.175 -2.193 -2.198 -1.904 -1.965 -1.94 -1.892 -2.138 -2.16 -2.133 -1.899 -2.188 -2.173 -2.218 -1.866 -2.143 -2.163 -2.183 -2.193 -1.858 -2.138 -2.175 -2.143 -1.882 -1.89 -1.858 -2.13 -2.125 -2.175 -1.949 -2.175 -2.145 -2.125 -2.18 -1.903 -2.18 -1.895 -1.924 -1.916 -2.195 -2.158 -2.138 -2.178 -2.185 -1.914 -1.937 -2.208 -2.18 -2.113 -1.907 -2.178 -2.205 -2.185 -2.188 -2.158 -2.165 -2.148 -2.223 -2.228 -2.19 -2.128 -2.195 -2.195 -2.2 -2.198 -2.17 -2.223 -2.208 -2.248 -2.203 -2.175 -2.185 -2.19 -2.23 -2.178 -2.158 -2.15 -2.17 -2.243 -2.185 -2.195 -2.185 -2.208 -2.153 -2.178 -2.205 -2.193 -2.193 -2.188 -2.233 -2.21 -2.193 -2.183 -2.213 -2.148 -2.148 -2.143 -2.188 -2.163 -2.163 -2.183 -2.163 -2.208 -2.186 -2.201 -2.166 -2.191 -2.203 -2.163 -2.178 -2.158 -2.206 -2.186 -2.193 -2.196 -2.198 -2.201 -2.213 -2.231 -2.188 -2.213 -2.268 -2.173 -2.163 -2.201 -2.193 -2.143 -2.198 -2.173 -2.193 -2.183 -2.176 -2.152 -2.118 -2.165 -2.071 -2.04 -2.003 -1.974 -1.95 -1.883 -1.876 -1.836 -1.804 -1.792 -1.786 -1.776 -1.754 -1.8 -1.836 -1.851 -1.872 -1.868 -1.908 -1.925 -1.963 -1.979 -1.911 -1.865 -1.847 -1.864 -1.844 -1.819 -1.816 -1.799 -1.782 -1.734 -1.709 -1.684 -1.717 -1.733 -1.804 -1.732 -1.716 -1.648 -1.648 -1.628 -1.667 -1.708 -1.643 -1.656 -1.711 -1.742 -1.727 -1.723 -1.692 -1.711 -1.651 -1.676 -1.648 -1.648 -1.666 -1.676 -1.678 -1.616 -1.724 -1.718 -1.665 -1.651 -1.653 -1.651 -1.633 -1.638 -1.626 -1.628 -1.648 -1.643 -1.675 -1.658 -1.661 -1.673 -1.636 -1.613 -1.698 -1.658 -1.661 -1.683 -1.631 -1.636 -1.668 -1.648 -1.668 -1.648 -1.638 -1.633 -1.646 -1.633 -1.643 -1.646 -1.646 -1.636 -1.638 -1.633 -1.623 -1.646 -1.668 -1.636 -1.641 -1.636 -1.641 -1.651 -1.682 -1.631 -1.648 -1.636 -1.634 -1.639 -1.649 -1.624 -1.651 -1.634 -1.611 -1.631 -1.649 -1.644 -1.688 -1.639 -1.671 -1.669 -1.646 -1.644 -1.649 -1.639 -1.641 -1.656 -1.654 -1.668 -1.631 -1.656 -1.644 -1.621 -1.664 -1.664 -1.669 -1.679 -1.659 -1.634 -1.644 -1.646 -1.666 -1.685 -1.695 -1.644 -1.646 -1.717 -1.702 -1.633 -1.679 -1.753 -1.722 -1.722 -1.694 -1.631 -1.646 -1.694 -1.719 -1.737 -1.733 -1.688 -1.738 -1.73 -1.745 -1.731 -1.659 -1.619 -1.641 -1.649 -1.667 -1.678 -1.724 -1.715 -1.681 -1.693 -1.736 -1.773 -1.82 -1.852 -1.872 -1.897 -1.912 -1.904 -1.925
1.885 1.76 1.825 1.72 1.75 1.722 1.722 1.862 1.782 1.725 1.775 1.722 1.7 1.707 1.782 1.817 1.855 1.815 1.797 1.792 1.737 1.752 1.74 1.73 1.81 1.792 1.782 1.845 1.722 1.722 1.74 1.732 1.857 1.857 1.94 1.95 1.867 1.82 1.8 1.76 1.737 1.825 1.75 1.91 1.805 1.757 1.75 1.692 1.74 1.702 1.807 1.81 1.807 1.727 1.697 1.667 1.642 1.81 1.762 1.722 1.825 1.83 1.667 1.747 1.855 1.815 1.822 1.82 1.822 1.791 1.637 1.44 1.352 1.126 0.941 0.957 0.894 0.718 0.55 0.413 0.221 -0.071 -0.263 -0.429 -0.654 -0.82 -0.99 -1.077 -1.103 -1.093 -1.097 -1.021 -0.859 -0.966 -1.059 -1.091 -1.148 -1.372 -1.58 -1.862 -2.143 -1.92 -1.637 -1.385 -1.349 -1.546 -1.772 -1.939 -2.203 -2.168 -1.868 -1.605 -1.381 -1.204 -1.441 -1.572 -1.651 -1.656 -1.655 -1.624 -1.799 -1.912 -2.148 -2.155 -1.894 -1.633 -1.789 -1.912 -1.89 -1.923 -2.165 -2.145 -2.203 -1.89 -1.893 -2.14 -1.896 -1.895 -2.213 -2.138 -2.168 -2.173 -2.165 -2.175 -2.148 -2.163 -1.934 -1.945 -2.165 -2.138 -2.168 -1.928 -1.957 -1.908 -2.168 -2.138 -1.942 -2.185 -2.185 -2.133 -2.09 -1.915 -2.138 -2.175 -2.165 -1.911 -1.897 -2.165 -1.929 -1.91 -2.19 -2.185 -2.153 -2.168 -2.178 -1.886 -2.153 -2.188 -2.16 -2.193 -2.175 -2.123 -2.158 -2.128 -2.158 -2.225 -2.168 -2.173 -2.193 -2.195 -2.205 -2.198 -2.215 -2.19 -2.208 -2.188 -2.16 -2.208 -2.21 -2.16 -2.14 -2.168 -2.165 -2.148 -2.158 -2.13 -2.25 -2.225 -2.183 -2.203 -2.18 -2.175 -2.178 -2.195 -2.165 -2.183 -2.165 -2.25 -2.23 -2.158 -2.21 -2.203 -2.146 -2.146 -2.153 -2.148 -2.131 -2.168 -2.153 -2.208 -2.206 -2.176 -2.208 -2.251 -2.188 -2.218 -2.156 -2.203 -2.141 -2.138 -2.166 -2.221 -2.196 -2.151 -2.141 -2.241 -2.213 -2.176 -2.208 -2.196 -2.231 -2.241 -2.228 -2.161 -2.208 -2.213 -2.156 -2.216 -2.206 -2.253 -2.185 -2.129 -2.033 -2.045 -2.039 -1.993 -1.943 -1.949 -1.91 -1.888 -1.826 -1.791 -1.803 -1.831 -1.79 -1.8 -1.835 -1.874 -1.868 -1.94 -1.956 -1.973 -1.981 -1.986 -1.931 -1.89 -1.871 -1.882 -1.847 -1.827 -1.81 -1.766 -1.741 -1.713 -1.666 -1.671 -1.703 -1.735 -1.796 -1.754 -1.686 -1.663 -1.687 -1.661 -1.638 -1.692 -1.678 -1.651 -1.697 -1.738 -1.721 -1.711 -1.678 -1.641 -1.651 -1.646 -1.678 -1.653 -1.668 -1.656 -1.673 -1.653 -1.653 -1.701 -1.669 -1.643 -1.643 -1.656 -1.651 -1.633 -1.646 -1.646 -1.646 -1.661 -1.68 -1.678 -1.653 -1.631 -1.653 -1.669 -1.683 -1.668 -1.656 -1.658 -1.661 -1.631 -1.641 -1.651 -1.661 -1.648 -1.658 -1.641 -1.633 -1.626 -1.623 -1.641 -1.641 -1.631 -1.648 -1.658 -1.646 -1.643 -1.658 -1.626 -1.643 -1.681 -1.653 -1.636 -1.668 -1.638 -1.648 -1.644 -1.646 -1.634 -1.664 -1.641 -1.584 -1.626 -1.646 -1.641 -1.621 -1.641 -1.646 -1.674 -1.646 -1.661 -1.649 -1.649 -1.681 -1.666 -1.646 -1.651 -1.629 -1.679 -1.679 -1.634 -1.669 -1.639 -1.651 -1.651 -1.649 -1.659 -1.606 -1.682 -1.674 -1.641 -1.639 -1.685 -1.72 -1.708 -1.663 -1.634 -1.656 -1.67 -1.655 -1.702 -1.694 -1.698 -1.704 -1.679 -1.698 -1.69 -1.721 -1.713 -1.691 -1.65 -1.674 -1.697 -1.748 -1.713 -1.658 -1.624 -1.636 -1.659 -1.656 -1.678 -1.685 -1.666 -1.661 -1.69 -1.753 -1.763 -1.802 -1.839 -1.888 -1.892 -1.859 -1.868 -1.885
1.787 1.737 1.737 1.78 1.902 1.805 1.93 1.835 1.73 1.71 1.677 1.682 1.712 1.782 1.837 1.845 1.887 1.697 1.655 1.747 1.815 1.785 1.79 1.742 1.81 1.795 1.825 1.787 1.702 1.745 1.717 1.782 1.712 1.815 1.902 1.912 1.8 1.82 1.692 1.77 1.88 1.815 1.83 1.795 1.755 1.792 1.727 1.75 1.79 1.812 1.92 1.8 1.902 1.792 1.802 1.747 1.732 1.825 1.93 1.767 1.875 1.85 1.717 1.762 1.752 1.737 1.78 1.817 1.792 1.79 1.75 1.596 1.627 1.396 1.223 1.164 1.079 0.918 0.673 0.656 0.526 0.145 -0.128 -0.332 -0.487 -0.596 -0.755 -0.804 -0.81 -0.81 -0.822 -0.81 -1.063 -1.204 -1.292 -1.34 -1.383 -1.359 -1.608 -1.824 -2.036 -1.819 -1.608 -1.35 -1.186 -1.411 -1.578 -1.851 -1.899 -1.915 -1.807 -1.584 -1.438 -1.244 -1.215 -1.324 -1.449 -1.431 -1.435 -1.718 -1.936 -2.185 -2.193 -2.168 -1.865 -1.607 -1.623 -1.634 -1.661 -1.809 -1.869 -2.173 -2.18 -1.917 -1.905 -2.2 -1.951 -1.787 -1.917 -2.148 -2.128 -2.155 -2.205 -2.165 -2.16 -1.901 -1.804 -1.967 -1.903 -1.872 -1.919 -2.168 -2.23 -1.916 -1.87 -1.884 -1.818 -2.155 -2.185 -2.14 -2.205 -2.135 -2.173 -2.16 -2.183 -2.138 -2.14 -2.19 -2.153 -2.1 -2.183 -2.15 -2.183 -1.869 -2.175 -2.223 -2.16 -2.145 -2.2 -2.173 -2.228 -2.16 -2.188 -2.17 -2.155 -2.158 -2.223 -2.24 -2.178 -2.15 -2.193 -2.188 -2.165 -2.17 -2.153 -1.902 -2.203 -2.253 -2.215 -2.188 -2.15 -2.155 -2.125 -2.193 -2.153 -2.145 -2.165 -2.168 -2.203 -2.178 -2.17 -2.193 -2.215 -2.14 -2.158 -2.173 -2.183 -2.193 -2.183 -2.165 -2.185 -2.246 -2.191 -2.168 -2.121 -2.213 -2.201 -2.161 -2.146 -2.133 -2.198 -2.186 -2.158 -2.201 -2.258 -2.176 -2.223 -2.203 -2.161 -2.198 -2.178 -2.163 -2.191 -2.151 -2.171 -2.191 -2.233 -2.208 -2.163 -2.211 -2.216 -2.181 -2.231 -2.216 -2.228 -2.263 -2.256 -2.213 -2.186 -2.196 -2.126 -2.072 -2.064 -2.069 -2.041 -1.99 -1.953 -1.99 -1.937 -1.923 -1.867 -1.826 -1.831 -1.856 -1.83 -1.848 -1.866 -1.872 -1.881 -1.94 -1.99 -2.024 -2.021 -2.025 -1.921 -1.923 -1.915 -1.923 -1.87 -1.794 -1.749 -1.739 -1.741 -1.691 -1.633 -1.641 -1.708 -1.729 -1.774 -1.761 -1.711 -1.71 -1.693 -1.631 -1.648 -1.698 -1.685 -1.702 -1.733 -1.757 -1.713 -1.693 -1.699 -1.666 -1.651 -1.693 -1.715 -1.714 -1.703 -1.641 -1.666 -1.651 -1.613 -1.691 -1.702 -1.706 -1.696 -1.698 -1.701 -1.636 -1.663 -1.643 -1.684 -1.692 -1.689 -1.651 -1.638 -1.613 -1.653 -1.696 -1.641 -1.676 -1.671 -1.661 -1.678 -1.648 -1.641 -1.646 -1.661 -1.661 -1.643 -1.646 -1.618 -1.663 -1.653 -1.643 -1.668 -1.651 -1.636 -1.656 -1.648 -1.633 -1.641 -1.636 -1.643 -1.643 -1.651 -1.618 -1.646 -1.653 -1.621 -1.646 -1.671 -1.656 -1.626 -1.639 -1.621 -1.621 -1.629 -1.634 -1.601 -1.629 -1.644 -1.666 -1.656 -1.666 -1.646 -1.639 -1.706 -1.677 -1.666 -1.674 -1.634 -1.661 -1.711 -1.675 -1.644 -1.644 -1.616 -1.639 -1.654 -1.649 -1.644 -1.651 -1.649 -1.694 -1.634 -1.678 -1.678 -1.646 -1.656 -1.609 -1.646 -1.699 -1.619 -1.644 -1.651 -1.681 -1.739 -1.727 -1.731 -1.724 -1.724 -1.707 -1.641 -1.631 -1.631 -1.675 -1.716 -1.735 -1.677 -1.669 -1.641 -1.636 -1.641 -1.692 -1.675 -1.649 -1.675 -1.68 -1.718 -1.75 -1.806 -1.843 -1.917 -1.869 -1.844 -1.842 -1.84
1.822 1.71 1.72 1.82 1.75 1.74 1.782 1.737 1.767 1.717 1.672 1.73 1.79 1.93 1.88 1.802 1.702 1.632 1.787 1.81 1.8 1.755 1.845 1.837 1.78 1.78 1.835 1.642 1.735 1.802 1.757 1.792 1.732 1.835 1.74 1.73 1.747 1.797 1.71 1.745 1.842 1.775 1.855 1.815 1.737 1.805 1.817 1.822 1.852 1.822 1.872 1.76 1.7 1.805 1.867 1.805 1.83 1.84 1.74 1.797 1.787 1.735 1.762 1.765 1.785 1.775 1.755 1.745 1.75 1.822 1.722 1.782 1.698 1.682 1.497 1.389 1.409 1.121 0.907 0.691 0.57 0.286 0.037 -0.193 -0.314 -0.416 -0.465 -0.543 -0.607 -0.589 -0.84 -1.086 -1.162 -1.388 -1.549 -1.654 -1.568 -1.375 -1.46 -1.622 -1.648 -1.608 -1.391 -1.215 -1.264 -1.446 -1.583 -1.823 -1.892 -1.922 -1.932 -1.873 -1.596 -1.377 -1.166 -1.255 -1.456 -1.597 -1.632 -1.833 -1.936 -2.195 -2.14 -2.178 -1.885 -1.812 -1.851 -1.876 -1.931 -1.92 -2.148 -2.155 -1.9 -1.801 -1.872 -2.193 -2.22 -1.887 -1.808 -1.9 -1.86 -1.894 -1.876 -1.921 -1.899 -2.148 -1.909 -2.165 -2.233 -2.163 -1.944 -2.14 -2.145 -2.148 -2.183 -2.153 -2.135 -2.143 -2.173 -2.198 -2.18 -1.833 -1.893 -1.855 -2.15 -2.15 -2.155 -2.205 -2.15 -2.13 -2.165 -2.153 -2.193 -1.873 -2.153 -2.193 -2.145 -2.183 -2.17 -2.185 -2.18 -2.188 -2.14 -2.185 -2.163 -2.093 -2.175 -2.198 -2.168 -2.145 -2.173 -2.19 -2.208 -2.193 -1.906 -1.917 -2.203 -2.165 -2.22 -2.18 -2.218 -2.2 -2.178 -1.908 -1.913 -2.203 -2.165 -2.138 -2.14 -2.153 -2.183 -2.17 -2.183 -2.19 -2.15 -2.178 -2.108 -2.175 -2.185 -2.22 -2.205 -2.188 -2.263 -2.193 -2.171 -2.198 -2.173 -2.186 -2.181 -2.156 -2.188 -2.208 -2.196 -2.153 -2.211 -2.218 -2.211 -2.201 -2.268 -2.243 -2.181 -2.193 -2.176 -2.188 -2.191 -2.203 -2.191 -2.216 -2.218 -2.178 -2.223 -2.191 -2.201 -2.191 -2.188 -2.183 -2.186 -2.163 -2.211 -2.196 -2.108 -2.154 -2.118 -2.087 -2.003 -1.976 -1.958 -1.994 -1.922 -1.945 -1.901 -1.883 -1.892 -1.872 -1.823 -1.893 -1.92 -1.942 -1.904 -1.915 -1.983 -2.067 -2.081 -2.048 -1.978 -1.948 -1.96 -1.979 -1.904 -1.857 -1.815 -1.746 -1.746 -1.715 -1.695 -1.648 -1.695 -1.732 -1.775 -1.76 -1.738 -1.719 -1.714 -1.696 -1.682 -1.728 -1.746 -1.737 -1.729 -1.696 -1.751 -1.727 -1.716 -1.701 -1.699 -1.721 -1.741 -1.732 -1.71 -1.701 -1.663 -1.646 -1.682 -1.705 -1.718 -1.672 -1.689 -1.7 -1.656 -1.653 -1.689 -1.702 -1.636 -1.641 -1.676 -1.69 -1.72 -1.661 -1.638 -1.678 -1.641 -1.656 -1.651 -1.646 -1.671 -1.686 -1.661 -1.641 -1.641 -1.661 -1.636 -1.636 -1.618 -1.643 -1.693 -1.666 -1.666 -1.656 -1.638 -1.641 -1.626 -1.613 -1.623 -1.651 -1.641 -1.641 -1.666 -1.633 -1.653 -1.668 -1.641 -1.659 -1.661 -1.669 -1.644 -1.651 -1.631 -1.626 -1.641 -1.641 -1.651 -1.646 -1.636 -1.651 -1.621 -1.651 -1.679 -1.644 -1.651 -1.664 -1.666 -1.671 -1.659 -1.656 -1.713 -1.677 -1.669 -1.659 -1.631 -1.654 -1.654 -1.669 -1.639 -1.689 -1.641 -1.656 -1.693 -1.697 -1.646 -1.641 -1.641 -1.639 -1.691 -1.714 -1.629 -1.644 -1.661 -1.684 -1.673 -1.696 -1.717 -1.731 -1.703 -1.717 -1.651 -1.651 -1.659 -1.664 -1.7 -1.697 -1.676 -1.714 -1.687 -1.674 -1.653 -1.697 -1.7 -1.673 -1.676 -1.729 -1.778 -1.787 -1.817 -1.859 -1.884 -1.851 -1.825 -1.803 -1.786
1.767 1.765 1.747 1.802 1.76 1.73 1.69 1.765 1.777 1.712 1.715 1.817 1.845 1.937 1.822 1.697 1.72 1.732 1.787 1.86 1.775 1.74 1.737 1.802 1.76 1.855 1.8 1.757 1.76 1.722 1.742 1.77 1.827 1.77 1.825 1.802 1.735 1.857 1.727 1.737 1.792 1.785 1.822 1.77 1.722 1.845 1.837 1.87 1.867 1.887 1.8 1.845 1.717 1.775 1.807 1.762 1.795 1.86 1.725 1.705 1.822 1.85 1.83 1.772 1.752 1.75 1.74 1.782 1.81 1.692 1.7 1.735 1.845 1.835 1.704 1.581 1.479 1.247 1.123 0.927 0.57 0.405 0.225 0.084 -0.089 -0.209 -0.265 -0.276 -0.52 -0.724 -0.989 -1.263 -1.413 -1.513 -1.753 -1.912 -1.76 -1.609 -1.456 -1.347 -1.321 -1.316 -1.176 -1.035 -1.352 -1.617 -1.888 -1.92 -2.225 -2.183 -2.223 -2.032 -1.651 -1.446 -1.283 -1.418 -1.589 -1.788 -1.893 -1.913 -2.2 -2.21 -2.2 -1.961 -1.786 -1.895 -2.213 -2.128 -2.168 -1.922 -2.17 -2.15 -1.928 -1.893 -2.213 -2.17 -2.215 -1.914 -1.65 -1.698 -1.636 -1.661 -1.641 -1.919 -2.158 -2.158 -2.2 -2.158 -2.19 -2.178 -2.148 -1.901 -2.133 -2.183 -2.185 -2.19 -2.183 -2.158 -2.218 -2.183 -2.18 -1.862 -1.903 -1.887 -2.143 -2.165 -2.143 -2.133 -2.15 -2.138 -2.163 -1.883 -1.913 -1.921 -2.153 -2.155 -2.145 -2.2 -2.195 -2.183 -2.178 -2.215 -2.18 -2.2 -2.175 -2.153 -2.118 -2.18 -2.17 -2.18 -2.17 -2.183 -2.165 -1.926 -2.155 -2.215 -2.173 -2.178 -2.185 -2.218 -2.23 -2.233 -2.208 -1.919 -1.893 -1.922 -2.165 -2.155 -2.12 -2.17 -2.205 -2.205 -2.203 -2.188 -2.188 -2.193 -2.165 -2.178 -2.193 -2.208 -2.223 -2.181 -2.231 -2.251 -2.153 -2.208 -2.156 -2.233 -2.206 -2.136 -2.116 -2.198 -2.191 -2.156 -2.133 -2.206 -2.173 -2.171 -2.218 -2.236 -2.233 -2.186 -2.161 -2.208 -2.221 -2.188 -2.188 -2.226 -2.176 -2.133 -2.208 -2.218 -2.206 -2.178 -2.188 -2.196 -2.226 -2.283 -2.236 -2.173 -2.16 -2.209 -2.178 -2.123 -2.111 -2.065 -2.006 -1.977 -1.971 -1.965 -1.949 -1.952 -1.921 -1.888 -1.885 -1.946 -1.953 -1.938 -1.948 -1.943 -1.971 -2.072 -2.064 -2.047 -2.027 -1.987 -1.957 -1.943 -1.911 -1.863 -1.803 -1.792 -1.758 -1.733 -1.749 -1.718 -1.708 -1.774 -1.823 -1.79 -1.768 -1.755 -1.741 -1.742 -1.737 -1.741 -1.782 -1.747 -1.709 -1.678 -1.708 -1.738 -1.711 -1.704 -1.686 -1.714 -1.743 -1.758 -1.732 -1.712 -1.693 -1.691 -1.656 -1.694 -1.718 -1.628 -1.656 -1.698 -1.633 -1.646 -1.688 -1.68 -1.686 -1.653 -1.656 -1.658 -1.711 -1.666 -1.678 -1.661 -1.691 -1.668 -1.653 -1.663 -1.648 -1.661 -1.691 -1.673 -1.661 -1.671 -1.638 -1.651 -1.673 -1.666 -1.692 -1.656 -1.633 -1.661 -1.648 -1.641 -1.636 -1.633 -1.633 -1.641 -1.643 -1.646 -1.681 -1.653 -1.641 -1.641 -1.673 -1.644 -1.624 -1.639 -1.636 -1.654 -1.651 -1.621 -1.646 -1.626 -1.641 -1.634 -1.621 -1.626 -1.619 -1.621 -1.693 -1.631 -1.604 -1.646 -1.639 -1.651 -1.651 -1.699 -1.669 -1.636 -1.656 -1.691 -1.685 -1.609 -1.629 -1.656 -1.649 -1.69 -1.669 -1.686 -1.707 -1.718 -1.684 -1.654 -1.664 -1.656 -1.672 -1.664 -1.692 -1.649 -1.654 -1.692 -1.634 -1.641 -1.696 -1.694 -1.667 -1.681 -1.649 -1.624 -1.626 -1.661 -1.649 -1.651 -1.651 -1.664 -1.705 -1.702 -1.725 -1.732 -1.726 -1.715 -1.734 -1.761 -1.796 -1.813 -1.852 -1.88 -1.858 -1.801 -1.796 -1.776 -1.759
