ncols 440
nrows 31
xllcorner    457116
yllcorner    90480
cellsize     2
NODATA_value -9999
32.465 32.552 32.67 32.752 32.847 32.937 33.012 33.1 33.205 33.267 33.34 33.422 33.487 33.567 33.647 33.702 35.257 35.64 34.25 34.267 34.342 34.487 34.53 34.605 34.715 34.76 34.845 34.925 35.025 35.147 35.262 35.37 35.492 35.585 35.682 35.817 35.937 36.047 36.187 36.32 36.437 36.565 36.677 36.81 36.92 37.035 37.117 37.25 37.37 37.495 37.592 37.697 37.802 37.942 38.042 38.182 38.29 38.405 38.547 38.64 38.747 38.885 39.01 39.12 39.262 39.375 39.437 39.495 39.562 39.592 39.69 39.725 39.845 39.94 40.03 40.13 40.205 40.277 40.385 40.462 40.627 40.802 40.987 41.155 41.347 41.532 41.735 41.912 42.067 42.217 42.427 42.632 42.825 43 43.23 43.35 43.438 43.548 43.643 43.743 43.835 43.95 44.015 44.053 44.133 44.16 44.223 44.28 44.31 44.353 44.423 44.445 44.488 44.483 44.523 44.55 44.53 44.53 44.553 44.583 44.585 44.605 44.623 44.638 44.64 44.633 44.65 44.665 44.673 44.625 44.638 44.645 44.595 44.583 44.57 44.56 44.548 44.558 44.545 44.525 44.493 44.458 44.443 44.415 44.393 44.39 44.358 44.338 44.323 44.273 44.25 44.2 44.183 44.13 44.098 44.058 44.025 43.985 43.93 43.91 43.878 43.84 43.788 43.748 43.713 43.673 43.638 43.59 43.553 43.503 43.485 43.495 43.458 43.465 43.47 43.413 43.393 43.323 43.28 43.25 43.223 43.2 43.16 43.13 43.098 43.07 43.04 43.01 42.975 42.965 42.928 42.913 42.93 42.938 42.903 42.888 42.928 42.958 44.183 44.045 43.313 43.1 43.455 44.133 43.158 43.255 43.113 42.885 42.895 43.018 43.28 43.548 43.638 43.348 43.285 43.348 43.438 43.483 43.555 43.625 43.678 44.305 45.978 44.658 43.895 43.863 43.86 44.685 43.55 43.545 43.586 43.679 43.697 43.764 45.937 45.107 44.18 44.672 46.21 46.873 44.278 44.234 44.462 44.166 44.633 44.142 44.01 45.187 46.074 46.302 44.958 44.008 44.025 43.578 43.6 43.736 44.873 46.03 43.965 45.753 44.711 43.656 44.322 43.194 43.216 43.158 43.099 43.088 43.179 43.122 43.189 43.795 46.563 44.043 43.027 42.894 43.022 42.926 42.937 43.002 47.473 46.988 50.028 46.953 46.328 43.24 45.478 43.158 43.158 43.22 45.295 44.108 44.225 44.613 43.808 43.82 49.61 50.268 48.263 45.615 47.75 45.99 44.863 44.455 43.15 44.405 45.255 43.24 43.315 45.433 43.5 43.548 44.073 43.94 43.718 43.79 43.903 44.058 44.713 44.105 44.135 45.43 45.043 44.518 51.108 48.053 45.343 45.09 45.483 45.728 46.993 46.963 46.213 47.523 48.185 48.215 47.25 45.548 45.545 45.66 45.745 45.82 45.766 45.786 45.831 45.913 45.956 46.051 46.118 46.228 46.318 46.406 46.501 46.616 46.698 46.796 46.888 46.991 47.076 47.293 47.421 47.491 47.548 47.568 47.518 47.653 47.811 47.983 48.168 48.356 48.581 48.753 48.943 49.748 52.018 52.191 51.096 50.381 51.666 55.033 56.298 56.743 56.978 56.636 56.068 54.396 51.968 52.493 53.383 53.666 53.761 53.748 53.826 56.496 58.756 59.156 59.583 60.003 59.833 59.208 56.893 55.323 54.778 54.883 54.901 55.611 56.458 56.858 57.078 57.183 57.368 57.553 57.736 57.981 58.233 58.448 58.726 59.023 59.263 59.543 59.806 60.016 60.216 60.403 60.598 60.811 61.028 61.236 61.463 61.682 61.899 62.131 62.356 62.568 62.78 62.976 63.168 63.366 63.58 63.842
32.51 32.595 32.7 32.795 32.902 32.992 33.06 33.152 33.222 33.3 33.395 33.49 33.56 33.645 33.705 33.792 35.247 35.53 34.355 34.297 34.41 34.525 34.565 34.637 34.722 34.79 34.87 34.94 35.05 35.165 35.277 35.385 35.505 35.602 35.71 35.822 35.942 36.08 36.2 36.332 36.462 36.572 36.685 36.805 36.937 37.05 37.15 37.267 37.377 37.507 37.612 37.717 37.815 37.937 38.047 38.147 38.277 38.407 38.515 38.625 38.742 38.855 38.98 39.092 39.21 39.322 39.397 39.44 39.48 39.555 39.635 39.695 39.827 39.942 40.062 40.167 40.237 40.27 40.35 40.447 40.587 40.73 40.887 41.1 41.287 41.49 41.67 41.85 42.012 42.19 42.385 42.57 42.793 42.99 43.173 43.305 43.435 43.54 43.628 43.723 43.798 43.895 43.963 44.028 44.1 44.158 44.218 44.283 44.333 44.375 44.44 44.475 44.493 44.508 44.538 44.57 44.578 44.583 44.605 44.603 44.62 44.63 44.678 44.715 44.73 44.738 44.738 44.748 44.755 44.743 44.723 44.713 44.7 44.698 44.663 44.655 44.655 44.645 44.635 44.633 44.625 44.605 44.548 44.52 44.5 44.468 44.435 44.423 44.415 44.368 44.343 44.323 44.26 44.223 44.178 44.145 44.135 44.078 44.06 44.025 43.988 43.935 43.905 43.828 43.808 43.763 43.723 43.7 43.63 43.6 43.598 43.56 43.52 43.495 43.485 43.423 43.418 43.378 43.338 43.305 43.28 43.235 43.235 43.2 43.165 43.135 43.095 43.08 43.023 42.99 42.983 42.943 42.93 42.923 42.91 42.92 42.92 43.185 44.418 43.88 43.263 43.16 43.775 43.335 43.228 43.305 43.128 42.883 42.938 43.158 43.333 43.62 43.5 43.28 43.29 43.363 43.453 43.5 43.545 43.595 43.613 43.628 43.603 43.683 44.253 44.038 44.403 46.96 46.495 44.027 43.765 43.765 43.724 43.818 43.851 43.848 43.908 43.92 48.435 47.584 44.692 44.345 44.774 44.551 45.289 44.573 44.398 45.824 51.28 52.236 48.328 44.095 43.898 45.088 44.448 44.013 45.731 47.07 48.216 45.84 44.115 43.591 43.367 43.373 43.524 43.223 43.186 43.19 44.019 43.547 43.211 43.421 43.665 44.185 43.282 43.184 43.871 44.905 44.083 46.19 45.238 49.425 47.658 45.338 43.353 43.425 47.705 46.46 48.165 46.4 45.3 45.473 44.208 44.305 45.033 51.298 47.058 45.678 44.865 46.863 43.955 43.535 43.54 43.75 43.448 43.958 45.935 43.41 45.333 43.895 43.495 43.633 43.768 43.853 43.753 43.77 46.748 44.08 44.69 44.233 44.248 47.408 46.255 50.14 49.69 51.693 45.32 44.808 45.59 45.538 45.73 45.975 47.365 48.833 48.828 48.408 46.23 45.69 45.683 46.005 45.943 45.928 45.816 45.851 45.868 45.948 46.036 46.108 46.198 46.261 46.368 46.461 46.551 46.653 46.751 46.843 46.923 47.001 47.173 47.346 47.383 47.461 47.471 47.438 47.516 47.701 47.868 48.063 48.233 48.423 48.613 48.791 48.951 49.261 50.236 50.763 50.076 50.648 52.478 55.573 56.368 56.831 57.028 56.588 55.843 53.416 52.031 52.706 53.483 53.698 53.728 53.723 54.101 57.491 58.913 59.308 59.718 60.138 60.426 60.111 59.716 58.693 57.213 55.468 55.353 56.173 56.718 56.943 57.148 57.253 57.431 57.623 57.841 58.073 58.321 58.576 58.856 59.143 59.386 59.678 59.951 60.146 60.353 60.558 60.768 60.981 61.193 61.436 61.638 61.853 62.042 62.242 62.462 62.694 62.909 63.122 63.341 63.596 63.846 64.077
32.555 32.645 32.735 32.84 32.925 33.01 33.122 33.182 33.277 33.352 33.445 33.512 33.602 33.697 33.76 33.847 35.255 35.71 34.457 34.36 34.447 34.547 34.597 34.657 34.735 34.79 34.895 34.97 35.055 35.187 35.292 35.41 35.525 35.652 35.722 35.84 35.977 36.115 36.235 36.362 36.477 36.57 36.695 36.822 36.942 37.032 37.145 37.287 37.395 37.492 37.602 37.722 37.82 37.932 38.062 38.167 38.275 38.395 38.467 38.6 38.705 38.812 38.92 39.022 39.15 39.247 39.327 39.382 39.46 39.545 39.627 39.702 39.805 39.905 40.042 40.127 40.235 40.425 40.455 40.507 40.59 40.735 40.865 41.032 41.235 41.46 41.642 41.827 42.002 42.19 42.377 42.575 42.78 42.97 43.183 43.308 43.413 43.495 43.62 43.743 43.805 43.883 43.938 44.035 44.103 44.158 44.21 44.265 44.31 44.368 44.408 44.47 44.493 44.523 44.555 44.565 44.57 44.61 44.598 44.625 44.63 44.668 44.71 44.723 44.755 44.785 44.8 44.775 44.795 44.795 44.775 44.79 44.768 44.763 44.768 44.76 44.745 44.735 44.735 44.718 44.713 44.688 44.648 44.618 44.603 44.568 44.523 44.51 44.485 44.45 44.42 44.373 44.328 44.303 44.268 44.213 44.19 44.148 44.128 44.088 44.055 44.023 43.965 43.925 43.893 43.865 43.83 43.788 43.733 43.695 43.685 43.645 43.6 43.568 43.575 43.513 43.488 43.468 43.4 43.363 43.338 43.305 43.273 43.243 43.205 43.185 43.163 43.148 43.078 43.058 43.02 43.005 42.968 42.953 42.935 42.93 42.918 43.375 44.57 44.27 43.193 43.198 44.055 43.305 43.353 43.368 43.168 43.24 43 43.2 43.56 43.603 43.375 43.3 43.353 43.43 43.463 43.51 43.533 43.578 43.648 43.665 43.615 43.65 43.873 44.014 44.153 44.672 44.505 44.387 44.514 44.374 44.041 44.539 44.009 43.905 43.952 44.017 44.697 44.338 43.97 44.017 44.489 44.682 45.482 46.54 46.486 47.6 50.598 50.586 47.156 43.944 44.14 46.91 48.224 44.346 48.822 50.551 47.761 45.833 43.559 43.56 43.552 43.952 43.929 43.332 43.331 43.237 43.216 44.97 43.471 43.209 43.72 44.083 43.566 43.303 45.218 47.153 44.613 43.058 43.018 43.26 43.708 46.59 43.86 43.28 43.305 43.333 45.183 46.033 44.15 43.718 43.76 43.825 46.478 54.27 45.735 43.678 43.74 43.42 43.6 43.585 43.83 43.763 43.458 43.278 44.733 44.223 43.385 43.515 43.493 45.685 50.415 43.813 43.753 43.915 44.103 44.008 44.035 44.098 44.25 44.813 45.365 44.535 44.75 46.625 45.253 45.158 45.083 45.385 45.263 46.2 47.38 49.81 50.173 50.07 46.575 45.803 45.775 45.795 45.863 45.885 45.846 45.908 45.951 46.031 46.076 46.161 46.236 46.303 46.446 46.518 46.616 46.666 46.771 46.888 46.958 47.123 47.306 47.336 47.388 47.423 47.368 47.473 47.598 47.748 47.903 48.091 48.236 48.443 48.638 48.803 48.993 49.143 49.401 49.636 50.031 50.941 53.091 56.023 56.476 56.883 56.923 56.521 55.861 52.541 52.103 52.931 53.531 53.716 53.728 53.711 55.441 58.628 59.086 59.491 59.871 60.301 60.343 59.928 59.531 59.131 57.906 56.073 55.976 56.596 56.818 57.023 57.158 57.343 57.528 57.726 57.931 58.173 58.431 58.711 59.003 59.313 59.541 59.821 60.076 60.293 60.486 60.696 60.881 61.106 61.343 61.566 61.761 62.001 62.19 62.399 62.622 62.826 63.04 63.253 63.48 63.721 63.966 64.227
32.592 32.672 32.757 32.86 32.97 33.05 33.167 33.235 33.317 33.4 33.477 33.562 33.647 33.73 33.797 33.872 35.212 35.717 34.497 34.385 34.49 34.587 34.647 34.685 34.737 34.817 34.885 35 35.09 35.175 35.302 35.427 35.545 35.657 35.752 35.897 36.035 36.127 36.252 36.355 36.477 36.582 36.695 36.822 36.925 37.045 37.162 37.28 37.37 37.497 37.605 37.73 37.837 37.93 38.022 38.16 38.257 38.337 38.452 38.57 38.667 38.765 38.855 39.002 39.087 39.167 39.235 39.335 39.437 39.542 39.635 39.617 39.662 39.74 39.772 39.83 39.957 40.225 40.39 40.472 40.63 40.74 40.885 41.012 41.177 41.375 41.577 41.772 41.955 42.15 42.347 42.537 42.753 42.955 43.14 43.3 43.428 43.523 43.648 43.748 43.838 43.918 44.005 44.055 44.128 44.193 44.25 44.3 44.353 44.403 44.473 44.535 44.548 44.585 44.61 44.623 44.64 44.655 44.673 44.693 44.683 44.743 44.785 44.818 44.853 44.865 44.868 44.863 44.88 44.893 44.883 44.888 44.873 44.853 44.833 44.845 44.835 44.835 44.82 44.815 44.78 44.77 44.723 44.683 44.658 44.645 44.593 44.57 44.543 44.508 44.465 44.425 44.395 44.375 44.325 44.275 44.225 44.208 44.17 44.163 44.103 44.07 44.04 44.005 43.953 43.913 43.888 43.86 43.818 43.793 43.76 43.743 43.693 43.675 43.665 43.638 43.585 43.525 43.478 43.445 43.435 43.38 43.335 43.29 43.263 43.238 43.213 43.17 43.153 43.108 43.048 43.033 43.008 42.983 42.975 42.93 42.948 43.35 44.665 44.268 43.295 43.523 44.2 43.3 43.458 43.395 43.07 42.99 43.12 43.418 43.598 43.455 43.343 43.358 43.453 43.51 43.563 43.578 43.55 43.61 43.725 43.787 43.726 43.727 43.885 44.022 44.099 46.034 44.846 44.335 44.243 44.549 44.996 44.768 44.73 44.056 45.012 45.362 44.686 44.015 44.045 44.055 44.049 44.065 46.459 48.668 50.562 49.841 46.87 50.42 46.425 44.586 44.597 51.412 52.101 52.499 48.451 48.898 52.809 48.402 43.656 43.722 44.376 43.587 43.416 43.376 43.404 43.352 43.311 43.446 43.485 43.256 43.661 43.61 47.67 43.65 43.308 43.183 43.335 47.433 44.65 48.25 44.318 44.98 44.3 43.8 43.348 43.43 43.47 43.435 43.593 45.453 46.13 44.325 47.46 49.865 49.198 43.693 43.528 43.395 43.278 43.448 44.653 43.953 43.468 43.375 46.6 44.445 43.52 43.473 43.54 49.6 45.753 45.765 44.365 43.86 43.998 44.153 44.145 44.198 44.373 44.338 44.485 44.728 46.203 45.215 44.958 46.388 46.918 45.14 45.64 45.973 48.93 50.02 50.275 48.72 47.545 45.843 45.82 45.838 45.915 45.973 45.923 45.953 46.021 46.071 46.123 46.198 46.288 46.366 46.473 46.561 46.621 46.723 46.828 46.911 47.126 47.276 47.273 47.343 47.326 47.298 47.358 47.486 47.648 47.778 47.933 48.118 48.301 48.466 48.658 48.821 49.013 49.193 49.428 49.658 50.081 51.241 53.326 55.983 56.568 57.001 56.851 56.451 55.978 53.061 52.293 53.141 53.601 54.151 54.816 53.816 56.463 58.833 59.263 59.628 60.043 60.411 60.201 59.746 59.366 58.976 57.511 55.376 56.443 56.991 57.073 57.101 57.241 57.426 57.618 57.833 58.056 58.306 58.558 58.823 59.093 59.398 59.691 59.976 60.241 60.443 60.648 60.848 61.033 61.256 61.466 61.686 61.922 62.154 62.351 62.559 62.783 63.014 63.207 63.406 63.631 63.874 64.112 64.36
32.617 32.692 32.785 32.89 33 33.08 33.187 33.257 33.34 33.415 33.482 33.597 33.665 33.76 33.837 33.925 34.975 35.545 34.56 34.437 34.505 34.605 34.667 34.722 34.78 34.827 34.887 35.01 35.097 35.212 35.317 35.435 35.557 35.665 35.76 35.897 36.017 36.147 36.277 36.377 36.507 36.59 36.7 36.85 36.967 37.055 37.14 37.275 37.41 37.492 37.61 37.725 37.842 37.922 38.025 38.137 38.207 38.305 38.392 38.5 38.605 38.7 38.817 38.935 39.032 39.107 39.177 39.265 39.42 39.655 39.637 39.28 39.19 39.297 39.375 39.052 38.982 39.345 39.725 40.24 40.46 40.445 40.877 41.102 41.227 41.357 41.537 41.697 41.92 42.077 42.297 42.487 42.723 42.933 43.133 43.28 43.43 43.518 43.653 43.733 43.84 43.91 43.98 44.035 44.128 44.183 44.253 44.308 44.395 44.45 44.51 44.55 44.58 44.605 44.635 44.653 44.703 44.69 44.695 44.738 44.77 44.805 44.84 44.86 44.895 44.9 44.938 44.943 44.925 44.95 44.955 44.95 44.943 44.953 44.943 44.918 44.91 44.913 44.9 44.878 44.835 44.835 44.8 44.758 44.738 44.703 44.675 44.618 44.6 44.553 44.545 44.488 44.448 44.43 44.363 44.328 44.278 44.25 44.218 44.205 44.16 44.125 44.105 44.04 44.01 43.985 43.948 43.933 43.88 43.85 43.843 43.815 43.778 43.765 43.733 43.695 43.663 43.64 43.585 43.563 43.508 43.443 43.43 43.385 43.343 43.31 43.275 43.225 43.195 43.158 43.093 43.045 43.018 42.995 42.96 42.955 42.978 43.39 44.723 44.268 43.338 43.6 44.348 43.223 43.418 43.383 43.123 43.033 43.283 43.568 43.528 43.378 43.395 43.48 43.585 43.705 43.753 43.709 43.714 43.685 43.801 43.864 43.836 43.812 43.924 44.075 44.134 44.278 44.24 44.291 44.366 44.371 44.409 44.598 47.062 45.293 45.376 46.494 44.06 44.025 44.225 45.502 44.524 44.099 46.337 50.002 50.098 49.015 44.933 48.235 48.183 45.369 49.191 56.354 55.098 56.619 54.084 56.829 54.618 47.789 44.193 45.32 43.968 43.689 43.736 43.723 43.557 43.539 43.356 43.321 43.343 44.458 43.535 43.628 45.858 45.44 44.485 43.425 43.91 44.923 46.368 46.09 45.67 43.308 44.088 43.825 43.43 44.398 44.178 44.23 43.908 45.3 46.35 44.508 44.695 45.568 45.005 43.92 43.523 43.385 43.835 43.77 44.715 43.935 43.425 43.5 44.435 46.14 43.648 43.563 43.713 43.93 43.728 45.893 44.553 43.95 44.028 47.438 44.363 44.328 44.518 44.413 44.638 44.735 44.643 44.745 46.028 46.94 47.108 45.213 45.193 45.583 48.733 50.078 50.29 48.29 46.285 45.903 45.818 45.873 45.968 46.043 45.988 46.023 46.088 46.153 46.218 46.276 46.341 46.423 46.541 46.593 46.678 46.783 46.866 47.011 47.196 47.228 47.273 47.306 47.221 47.261 47.381 47.516 47.678 47.818 47.971 48.163 48.311 48.491 48.656 48.856 49.061 49.251 49.503 49.733 50.273 51.663 54.956 56.196 56.636 56.983 56.786 56.353 54.213 52.733 52.476 53.306 53.618 54.166 55.548 54.498 57.883 59.008 59.393 59.843 60.241 60.363 60.016 59.598 59.196 58.486 55.511 55.823 56.738 57.881 58.053 57.248 57.288 57.496 57.696 57.901 58.161 58.388 58.648 58.943 59.206 59.501 59.821 60.101 60.336 60.583 60.801 60.993 61.178 61.396 61.651 61.881 62.061 62.282 62.496 62.698 62.96 63.185 63.367 63.58 63.797 64.053 64.273 64.524
32.632 32.727 32.815 32.93 33.017 33.105 33.2 33.26 33.362 33.432 33.522 33.645 33.707 33.812 33.872 33.98 35.047 35.572 34.542 34.447 34.522 34.635 34.695 34.75 34.812 34.865 34.942 35.007 35.112 35.197 35.36 35.462 35.555 35.667 35.782 35.912 36.052 36.145 36.275 36.402 36.515 36.62 36.727 36.835 36.955 37.057 37.142 37.252 37.377 37.485 37.587 37.715 37.84 37.927 38.025 38.11 38.195 38.287 38.39 38.477 38.562 38.682 38.785 38.89 38.985 39.067 39.14 39.21 39.385 39.415 39.202 38.78 38.89 38.945 38.71 38.46 38.405 38.562 38.742 39.095 39.635 40.117 40.632 41.05 41.352 41.425 41.57 41.672 41.857 42.067 42.29 42.477 42.7 42.915 43.13 43.263 43.398 43.518 43.638 43.72 43.805 43.89 43.983 44.03 44.108 44.168 44.253 44.328 44.38 44.453 44.51 44.565 44.588 44.63 44.673 44.695 44.675 44.715 44.745 44.748 44.788 44.828 44.89 44.915 44.96 44.953 44.983 44.963 44.995 45.005 45.015 44.988 45.018 45.013 45.008 44.995 44.988 44.983 44.953 44.935 44.915 44.92 44.875 44.838 44.793 44.768 44.725 44.695 44.665 44.608 44.593 44.538 44.5 44.45 44.423 44.358 44.32 44.298 44.255 44.243 44.198 44.16 44.123 44.098 44.038 44 43.993 43.965 43.905 43.883 43.893 43.853 43.83 43.79 43.773 43.773 43.743 43.718 43.668 43.625 43.555 43.513 43.48 43.433 43.4 43.37 43.333 43.32 43.275 43.23 43.15 43.075 43.05 43.035 42.985 42.978 43.025 43.408 44.745 43.943 43.355 43.64 44.313 43.195 43.338 43.325 43.228 43.17 43.353 43.515 43.425 43.433 43.515 43.595 43.705 43.835 43.875 43.86 43.881 43.874 43.917 44.015 44.023 43.955 44.044 44.18 44.238 44.298 44.309 44.372 44.464 44.491 44.55 44.635 45.402 45.086 47.418 50.495 47.793 46.691 47.22 46.562 45.7 44.111 44.336 45.533 48.766 46.376 46.365 44.68 45.875 45.87 49.673 56.446 58.156 54.237 55.642 55.755 53.934 51.62 45.98 44.548 43.878 44.1 43.719 44.788 45.173 45.36 43.553 43.673 44.463 45.523 43.64 43.578 43.56 44.23 43.925 43.58 43.238 43.443 45.638 50.705 48.785 44.3 44.933 44.803 44.31 43.89 44.48 43.858 44 44.343 45.443 44.553 44.083 45.625 47.353 44.603 44.878 43.72 45.245 45.543 45.065 44.57 44.443 43.543 45.093 48.98 43.898 44.13 44.163 43.768 43.88 43.963 44.003 44.04 44.153 44.278 44.918 45.073 44.353 44.38 44.488 46.265 46.42 45.285 45.903 47.458 46.263 45.563 47.788 47.19 48.35 50.068 50.303 49.485 46.1 45.965 45.905 45.908 45.993 46.028 46.071 46.096 46.171 46.188 46.271 46.336 46.411 46.498 46.583 46.648 46.718 46.813 46.901 47.156 47.216 47.251 47.316 47.238 47.201 47.263 47.418 47.566 47.721 47.866 48.026 48.181 48.351 48.528 48.718 48.903 49.136 49.301 49.568 49.776 50.606 51.796 54.748 56.286 56.728 56.968 56.701 56.261 55.018 52.108 52.683 53.373 53.676 54.213 54.261 55.526 58.611 59.191 59.536 59.983 60.301 60.238 59.873 59.451 59.023 58.108 55.966 56.121 56.393 58.018 58.431 57.226 57.378 57.573 57.746 57.978 58.221 58.456 58.708 59.018 59.328 59.651 59.933 60.201 60.516 60.723 60.951 61.151 61.333 61.538 61.821 62.046 62.226 62.455 62.681 62.911 63.123 63.34 63.551 63.747 63.978 64.209 64.445 64.659
32.66 32.745 32.842 32.95 33.035 33.127 33.202 33.287 33.387 33.462 33.522 33.65 33.755 33.82 33.907 34.072 35.33 35.985 34.652 34.47 34.555 34.65 34.702 34.752 34.825 34.88 34.935 35.012 35.125 35.24 35.375 35.457 35.562 35.67 35.797 35.917 36.037 36.132 36.255 36.38 36.497 36.587 36.69 36.802 36.907 37.035 37.13 37.245 37.377 37.492 37.61 37.715 37.827 37.947 38.025 38.112 38.207 38.28 38.372 38.46 38.565 38.665 38.772 38.872 38.937 39.03 39.135 39.197 39.047 38.795 38.595 38.495 38.397 38.192 38.06 38.155 38.297 39.062 39.055 38.6 38.93 39.54 40.15 40.547 41.215 41.517 41.605 41.71 41.85 42.04 42.262 42.487 42.693 42.908 43.088 43.253 43.42 43.525 43.643 43.703 43.808 43.89 43.953 44.035 44.098 44.163 44.255 44.315 44.395 44.46 44.51 44.573 44.605 44.643 44.67 44.705 44.705 44.743 44.758 44.778 44.818 44.888 44.958 44.978 45.018 45.013 45.03 45.05 45.055 45.06 45.078 45.07 45.098 45.113 45.085 45.085 45.063 45.045 45.03 45.003 44.983 44.963 44.94 44.89 44.85 44.818 44.765 44.748 44.703 44.655 44.638 44.59 44.54 44.518 44.465 44.428 44.403 44.348 44.305 44.28 44.248 44.205 44.153 44.123 44.08 44.055 44.02 44 43.98 43.948 43.92 43.89 43.888 43.87 43.878 43.83 43.798 43.78 43.738 43.693 43.648 43.578 43.535 43.508 43.485 43.45 43.418 43.383 43.35 43.265 43.185 43.125 43.09 43.053 43.023 43.04 43.068 43.42 44.625 43.52 43.403 43.955 44.185 43.218 43.278 43.295 43.288 43.305 43.338 43.385 43.435 43.52 43.601 43.698 43.81 43.923 43.934 43.969 43.99 43.997 44.054 44.142 44.189 44.133 44.227 44.368 44.43 44.484 44.544 44.626 44.617 44.63 44.66 44.67 44.687 44.677 46.472 48.444 46.786 49.381 45.994 44.968 44.773 44.525 46.981 45.972 44.356 46.642 48.439 44.416 44.6 44.335 44.907 50.702 56.322 56.615 56.665 56.187 51.904 49.307 45.725 45.133 45.692 47.107 45.825 45.251 46.494 45.373 46.485 43.663 44.91 45.62 44.788 43.775 43.878 43.8 44.523 44.295 43.74 43.695 45.77 47.06 49.575 44.903 43.653 45.725 44.693 43.633 43.653 46.53 43.858 44.46 44.165 44.263 44.65 45.165 44.733 44.243 44.488 43.62 43.573 43.53 44.218 45.18 43.475 43.51 43.608 43.843 43.753 43.743 43.745 43.87 44.023 44.09 44.148 44.27 45.155 52.843 49.163 46.258 44.343 44.378 44.488 45.13 46.15 45.355 47.983 46.423 48.333 47.2 47.94 49.695 49.728 50.058 49.99 49.245 46.6 45.983 45.958 45.878 45.933 46.065 46.138 46.188 46.213 46.276 46.326 46.426 46.491 46.548 46.611 46.698 46.791 46.838 47.096 47.216 47.213 47.266 47.228 47.186 47.238 47.336 47.463 47.608 47.751 47.893 48.056 48.218 48.401 48.573 48.758 48.983 49.176 49.393 49.658 49.923 50.826 52.766 55.781 56.376 56.846 57.058 56.601 56.013 53.511 52.301 52.948 53.473 53.666 53.941 54.851 57.653 58.918 59.336 59.723 60.136 60.398 60.088 59.656 59.283 58.868 55.943 55.743 56.403 57.681 58.646 57.736 57.268 57.428 57.611 57.803 58.043 58.281 58.551 58.833 59.126 59.441 59.741 60.038 60.338 60.618 60.841 61.086 61.293 61.498 61.701 61.916 62.173 62.375 62.612 62.843 63.06 63.307 63.538 63.73 63.943 64.169 64.396 64.643 64.865
32.677 32.76 32.862 32.955 33.06 33.142 33.235 33.3 33.385 33.487 33.582 33.707 33.775 33.875 33.935 34.052 34.802 35.787 34.485 34.492 34.575 34.692 34.727 34.785 34.842 34.89 34.972 35.047 35.127 35.26 35.36 35.45 35.582 35.682 35.815 35.907 36.01 36.117 36.232 36.35 36.44 36.537 36.672 36.777 36.897 37.025 37.13 37.237 37.372 37.475 37.587 37.712 37.817 37.935 38.042 38.147 38.205 38.277 38.382 38.462 38.547 38.665 38.765 38.835 38.885 38.97 39.045 38.945 38.467 38.217 38.197 38.097 38.007 37.995 38.04 37.99 38.707 38.777 38.237 38.415 38.662 38.97 39.707 40.135 40.602 41.372 41.675 41.742 41.88 42.015 42.255 42.465 42.678 42.89 43.09 43.258 43.398 43.493 43.603 43.71 43.79 43.863 43.958 44.025 44.085 44.17 44.238 44.335 44.39 44.47 44.543 44.57 44.62 44.658 44.693 44.723 44.748 44.78 44.798 44.825 44.873 44.928 44.99 45.05 45.075 45.078 45.078 45.103 45.11 45.135 45.13 45.16 45.153 45.17 45.15 45.148 45.138 45.12 45.103 45.078 45.053 45.038 44.985 44.945 44.918 44.898 44.873 44.82 44.773 44.708 44.683 44.64 44.6 44.555 44.523 44.48 44.443 44.41 44.37 44.348 44.313 44.27 44.208 44.17 44.14 44.098 44.073 44.06 44.013 43.985 43.978 43.95 43.925 43.918 43.92 43.875 43.863 43.81 43.765 43.743 43.683 43.635 43.583 43.57 43.53 43.513 43.475 43.44 43.403 43.318 43.258 43.155 43.13 43.085 43.063 43.095 43.158 43.515 44.6 43.465 43.493 44.305 43.925 43.26 43.305 43.303 43.325 43.325 43.352 43.416 43.49 43.61 43.714 43.807 43.92 44.005 44.082 44.157 44.175 44.218 44.274 44.336 44.344 44.327 44.449 44.556 44.594 44.652 44.748 44.776 44.779 44.784 44.793 44.803 44.792 44.813 44.834 44.925 45.097 45.099 45.105 45.382 45.139 45.165 48.01 46.612 46.265 49.977 47.835 44.943 44.352 44.38 44.419 44.669 49.105 54.535 55.388 53.794 49.6 44.977 45.967 44.898 45.89 48.297 48.941 46.101 44.354 45.743 47.305 44.36 43.878 46.765 44.655 44.44 44.003 44.25 44.71 45.015 44.788 43.828 50.875 43.72 50.858 45.295 43.713 43.72 43.683 43.898 44.12 50.303 44.125 44.128 44.14 44.505 44.538 44.373 44.275 44.498 44.143 44.375 44.705 43.62 43.57 43.49 43.595 43.575 44.17 43.833 43.818 43.795 43.83 44.073 44.05 44.125 46.545 44.55 45.238 49.985 46.418 47.205 49.993 44.58 44.603 44.695 44.723 45.065 44.998 45.018 45.688 47.663 46.6 47.51 49.538 50.078 50.288 47.575 46.215 46.025 45.983 45.715 45.57 45.908 46.231 46.276 46.316 46.356 46.458 46.461 46.566 46.601 46.646 46.748 46.843 46.991 47.136 47.176 47.228 47.216 47.128 47.181 47.281 47.356 47.496 47.663 47.811 47.938 48.083 48.253 48.411 48.616 48.843 49.041 49.291 49.541 49.751 50.061 50.981 52.548 55.728 56.453 56.886 56.933 56.521 56.078 52.968 52.261 53.066 53.528 53.688 53.698 55.381 58.671 59.121 59.511 59.916 60.326 60.313 59.931 59.513 59.111 57.763 56.098 55.993 56.713 57.903 58.083 57.458 57.393 57.556 57.711 57.903 58.136 58.356 58.621 58.921 59.241 59.531 59.863 60.181 60.481 60.731 60.978 61.186 61.406 61.606 61.798 62.076 62.286 62.495 62.746 62.972 63.206 63.437 63.682 63.888 64.115 64.355 64.597 64.846 65.065
32.697 32.792 32.902 33.002 33.072 33.147 33.235 33.31 33.4 33.507 33.602 33.727 33.822 33.882 33.975 34.087 34.837 35.667 34.435 34.507 34.61 34.705 34.73 34.807 34.865 34.907 34.99 35.087 35.172 35.277 35.397 35.497 35.605 35.727 35.82 35.92 36.062 36.172 36.255 36.365 36.445 36.535 36.672 36.795 36.88 37.025 37.12 37.252 37.367 37.467 37.587 37.697 37.805 37.917 38.002 38.125 38.2 38.302 38.402 38.477 38.565 38.682 38.77 38.822 38.892 38.957 39 38.632 38.252 38.085 38.027 38.075 38.08 38.017 38.015 38.06 38.037 37.96 38.852 40.525 38.512 38.662 39.075 39.732 40.105 40.727 41.497 41.802 41.912 42.03 42.227 42.442 42.665 42.858 43.078 43.243 43.37 43.463 43.585 43.705 43.795 43.868 43.963 44.033 44.11 44.178 44.258 44.355 44.42 44.49 44.553 44.6 44.65 44.69 44.75 44.75 44.79 44.813 44.823 44.878 44.95 45.03 45.055 45.085 45.103 45.118 45.145 45.135 45.18 45.2 45.228 45.228 45.235 45.243 45.23 45.235 45.218 45.205 45.18 45.14 45.118 45.088 45.075 45.025 44.985 44.965 44.898 44.865 44.848 44.795 44.755 44.698 44.65 44.62 44.595 44.553 44.508 44.478 44.443 44.415 44.363 44.318 44.26 44.22 44.19 44.163 44.133 44.09 44.05 44.023 44.04 43.995 43.968 43.96 43.94 43.923 43.903 43.873 43.84 43.773 43.71 43.688 43.655 43.615 43.593 43.545 43.518 43.47 43.423 43.363 43.295 43.228 43.195 43.13 43.108 43.133 43.213 43.885 44.65 43.513 43.653 44.695 43.523 43.308 43.35 43.325 43.344 43.376 43.435 43.474 43.572 43.71 43.805 43.908 43.996 44.104 44.211 44.282 44.352 44.437 44.514 44.508 44.462 44.472 44.619 44.693 44.915 44.804 44.802 44.978 45.013 44.97 44.907 44.591 44.522 44.698 44.932 44.989 45.093 45.064 45.108 45.205 45.114 45.145 45.2 45.242 46.498 46.639 46.795 45.163 45.446 44.463 44.422 44.463 44.79 48.563 48.384 47.147 45.638 45.654 45.414 44.76 45.039 45.698 47.195 45.752 45.239 45.733 45.2 47.583 44.458 45.385 46.6 44.498 44.135 44.178 44.073 44.293 47.823 43.763 43.978 44.01 43.783 44.855 44.163 45.32 44.028 44.428 44.138 44.17 44.103 44.453 45.505 45.235 44.67 43.888 44.263 45.405 44.045 44.848 46.195 44.068 43.62 43.62 46.805 43.858 43.803 43.825 43.823 43.841 43.965 44.107 44.207 44.17 44.181 44.305 44.345 44.383 45.375 47.238 49.145 45.23 44.76 44.945 44.985 45.805 45.58 45.258 48.625 48.68 45.668 46.278 49.225 50.088 50.318 48.02 46.113 46.08 45.983 45.798 45.72 45.84 45.806 45.878 46.026 46.283 46.378 46.518 46.628 46.693 46.766 46.828 46.968 47.111 47.176 47.228 47.211 47.128 47.118 47.201 47.303 47.433 47.568 47.721 47.876 48.021 48.191 48.331 48.498 48.686 48.911 49.106 49.391 49.608 49.806 50.088 51.021 51.703 52.981 54.616 54.751 56.656 56.443 55.336 52.816 52.493 53.233 53.523 53.698 54.208 56.956 58.726 59.266 59.663 60.066 60.376 60.176 59.751 59.341 58.953 57.528 55.468 56.288 57.243 59.291 58.518 58.236 57.743 57.546 57.916 57.906 58.123 58.411 58.656 58.946 59.278 59.608 59.923 60.221 60.558 60.786 61.046 61.266 61.503 61.773 62.003 62.208 62.426 62.642 62.894 63.135 63.358 63.601 63.838 64.043 64.272 64.52 64.78 65.037 65.293
32.73 32.835 32.922 33.005 33.082 33.152 33.247 33.33 33.437 33.542 33.625 33.732 33.832 33.907 33.972 34.065 34.902 35.405 34.455 34.547 34.642 34.73 34.732 34.817 34.897 34.94 35.022 35.125 35.217 35.347 35.462 35.552 35.652 35.802 35.905 36.005 36.112 36.227 36.327 36.425 36.525 36.61 36.735 36.83 36.942 37.05 37.162 37.282 37.37 37.475 37.587 37.71 37.815 37.91 37.997 38.112 38.172 38.292 38.37 38.46 38.585 38.667 38.74 38.82 38.885 38.96 38.95 38.362 38.015 38.02 38.012 38.012 37.987 37.96 38.06 37.962 38.005 37.957 39.697 40.34 38.282 38.467 38.817 39.437 40.065 40.697 41.377 41.722 41.925 42.065 42.2 42.427 42.635 42.83 43.053 43.205 43.355 43.485 43.58 43.68 43.788 43.888 43.965 44.065 44.143 44.223 44.263 44.368 44.45 44.52 44.575 44.62 44.663 44.703 44.758 44.783 44.833 44.873 44.9 44.94 44.98 45.05 45.115 45.17 45.183 45.183 45.188 45.22 45.24 45.25 45.285 45.305 45.308 45.318 45.313 45.315 45.29 45.26 45.243 45.223 45.175 45.158 45.128 45.07 45.045 45.02 44.968 44.93 44.888 44.848 44.788 44.735 44.715 44.655 44.625 44.585 44.568 44.525 44.493 44.45 44.41 44.36 44.33 44.293 44.255 44.2 44.178 44.143 44.11 44.073 44.078 44.06 44.03 44.018 43.995 43.955 43.953 43.905 43.873 43.815 43.753 43.738 43.723 43.673 43.643 43.603 43.555 43.495 43.475 43.418 43.363 43.305 43.268 43.215 43.208 43.21 43.288 44.36 44.41 43.593 43.693 44.803 43.363 43.341 43.385 43.404 43.392 43.439 43.517 43.566 43.658 43.791 43.931 44.011 44.084 44.194 44.302 44.367 44.376 44.501 44.589 44.596 44.552 44.597 44.71 44.788 44.865 44.859 44.926 45.083 45.305 45.076 45.025 44.309 44.11 44.571 44.985 45.076 45.143 45.127 45.136 45.153 45.136 45.197 45.311 45.31 45.295 45.293 45.315 45.325 48.326 46.631 44.984 44.704 44.537 44.492 44.534 44.574 44.596 44.646 44.573 44.673 45.826 45.034 44.744 44.897 45.002 44.918 47.103 53.438 48.065 45.19 47.293 46.135 44.348 44.758 44.303 44.265 43.865 44.178 45.705 43.915 43.708 44.19 43.818 44.59 45.483 46.218 44.975 44.34 44.213 45.72 47.895 48.918 45.328 44.088 43.905 45.335 44.59 45.023 44.798 44.043 43.805 44.148 45.754 43.789 43.898 44.165 45.529 44.242 45.187 46.016 45.415 44.232 44.352 44.388 44.416 44.501 44.52 44.758 44.625 44.653 44.753 44.798 44.873 44.933 48.718 45.008 48.525 47.388 46.815 47.925 49.863 50.09 49.663 49.098 46.115 46.105 46.07 45.803 45.9 46.085 46.098 46.098 46.081 46.058 46.121 46.173 46.301 46.473 46.678 46.831 47.103 47.176 47.213 47.173 47.131 47.143 47.138 47.241 47.351 47.461 47.611 47.776 47.933 48.066 48.208 48.373 48.571 48.733 48.918 49.418 49.378 49.583 49.758 50.038 50.968 51.976 52.821 52.161 51.923 52.251 53.916 53.518 52.123 52.493 53.118 53.458 53.643 54.183 57.811 59.048 59.421 59.876 60.231 60.346 59.983 59.593 59.181 58.243 55.508 55.828 56.171 57.703 59.193 58.248 58.571 58.648 58.743 60.851 59.101 60.143 60.926 60.988 59.971 59.651 60.876 61.936 60.553 60.748 60.921 61.126 61.393 61.596 61.838 62.081 62.331 62.548 62.779 63.036 63.267 63.522 63.757 63.987 64.201 64.433 64.686 64.924 65.163 65.378
32.755 32.832 32.94 33.01 33.082 33.18 33.252 33.365 33.46 33.537 33.635 33.755 33.842 33.92 33.99 34.057 34.975 35.555 34.512 34.6 34.67 34.747 34.787 34.857 34.935 34.992 35.07 35.177 35.287 35.405 35.53 35.627 35.722 35.835 35.95 36.072 36.192 36.287 36.402 36.515 36.615 36.707 36.815 36.912 37.017 37.12 37.215 37.35 37.452 37.542 37.64 37.732 37.835 37.935 38.022 38.115 38.192 38.272 38.377 38.465 38.57 38.67 38.76 38.807 38.902 38.947 38.9 38.297 38.06 38.02 37.992 37.982 37.982 37.972 38.022 38.037 38.062 38.037 38.217 37.912 37.972 38.315 38.887 39.555 40.157 40.545 41.165 41.727 41.955 42.072 42.217 42.432 42.638 42.845 43.033 43.213 43.375 43.485 43.595 43.688 43.81 43.91 44 44.08 44.18 44.24 44.32 44.423 44.488 44.538 44.6 44.648 44.703 44.76 44.803 44.833 44.883 44.893 44.948 45 45.06 45.118 45.19 45.213 45.22 45.265 45.275 45.29 45.298 45.32 45.338 45.378 45.395 45.398 45.405 45.373 45.373 45.36 45.328 45.268 45.253 45.21 45.2 45.163 45.12 45.095 45.068 45.008 44.963 44.91 44.863 44.82 44.793 44.733 44.693 44.655 44.638 44.598 44.57 44.523 44.468 44.443 44.388 44.353 44.298 44.26 44.22 44.208 44.17 44.133 44.138 44.115 44.108 44.063 44.05 44.025 43.99 43.968 43.92 43.895 43.825 43.788 43.753 43.738 43.688 43.648 43.593 43.565 43.538 43.493 43.445 43.388 43.345 43.305 43.275 43.278 43.43 44.69 44.16 43.638 43.77 44.73 43.466 43.397 43.437 43.456 43.482 43.516 43.545 43.633 43.74 43.917 44.056 44.126 44.187 44.288 44.407 44.426 44.439 44.526 44.631 44.656 44.662 44.739 44.862 44.893 44.92 45.206 45.001 45.486 45.748 45.328 45.175 44.378 44.348 44.916 45.354 45.199 45.167 45.183 45.249 45.22 45.203 45.321 45.262 45.274 45.306 45.372 45.326 45.389 45.423 47.666 45.989 45.462 45.258 44.959 44.605 44.563 44.617 44.665 44.619 44.776 48.611 47.651 44.749 44.698 44.745 44.97 46.008 49.995 51.978 47.915 44.615 44.43 44.545 44.77 50.028 44.675 44.29 44.418 45.17 44.098 43.753 43.688 43.82 49.263 47.305 45.335 44.86 44.178 44.21 44.833 46.82 51.143 49.398 45.903 44.913 44.46 44.778 44.933 44.94 44.098 44.441 45.185 43.972 43.899 43.952 44.377 45.19 44.309 44.262 47.218 44.233 44.291 44.385 44.412 44.508 44.94 44.633 44.675 44.64 44.723 44.77 45.268 44.918 46.353 49.445 45.813 45.685 46.908 47.913 46.53 49.265 48.178 48.158 46.335 46.113 46.138 46.113 45.763 45.925 46.128 46.138 46.181 46.233 46.291 46.371 46.413 46.381 46.388 46.673 46.993 47.178 47.228 47.186 47.126 47.106 47.161 47.223 47.316 47.386 47.521 47.633 47.791 47.916 48.053 48.263 50.083 49.153 49.378 49.588 52.406 50.898 49.771 49.831 50.026 50.691 53.486 57.048 56.418 51.766 51.841 52.003 52.036 52.123 52.411 52.956 53.341 53.546 53.856 57.396 59.178 59.616 60.011 60.338 60.241 59.813 59.436 58.941 58.033 56.043 56.068 57.053 57.258 57.083 57.186 57.506 58.276 59.621 61.963 60.583 59.993 61.981 63.203 61.948 61.326 62.776 64.678 62.966 61.976 61.728 62.088 62.211 61.871 61.926 62.146 62.421 62.798 62.876 63.102 63.372 63.624 63.867 64.097 64.341 64.596 64.853 65.098 65.309 65.568
32.77 32.862 32.967 33.025 33.11 33.195 33.272 33.377 33.485 33.57 33.675 33.78 33.877 33.967 34.01 34.042 35.142 35.492 34.557 34.632 34.715 34.782 34.832 34.91 34.98 35.067 35.127 35.232 35.335 35.447 35.58 35.677 35.802 35.907 36.037 36.127 36.247 36.365 36.485 36.58 36.72 36.817 36.902 37.015 37.105 37.212 37.305 37.417 37.512 37.602 37.695 37.792 37.902 37.992 38.092 38.16 38.245 38.322 38.42 38.51 38.62 38.665 38.787 38.855 38.937 39.007 38.905 38.295 38.055 38.022 37.995 38.005 37.97 38.002 37.972 38.045 38.065 38.047 38.102 38.067 38.025 38.585 39.137 39.725 40.26 41.28 41.747 41.705 42 42.095 42.217 42.427 42.668 42.888 43.065 43.268 43.383 43.505 43.608 43.71 43.805 43.903 44.018 44.103 44.19 44.258 44.34 44.443 44.523 44.575 44.628 44.703 44.755 44.79 44.845 44.88 44.945 44.978 44.998 45.063 45.145 45.208 45.265 45.273 45.31 45.335 45.335 45.36 45.398 45.41 45.41 45.465 45.48 45.493 45.483 45.465 45.448 45.408 45.393 45.353 45.333 45.325 45.28 45.25 45.21 45.18 45.133 45.068 45.023 44.99 44.94 44.883 44.838 44.81 44.763 44.73 44.693 44.658 44.643 44.59 44.518 44.515 44.463 44.423 44.363 44.32 44.285 44.268 44.255 44.22 44.21 44.163 44.15 44.133 44.093 44.073 44.023 44.003 43.973 43.92 43.865 43.843 43.795 43.77 43.718 43.703 43.64 43.613 43.593 43.548 43.503 43.463 43.413 43.35 43.353 43.365 43.463 44.716 43.857 43.69 44.326 44.423 43.464 43.477 43.508 43.512 43.533 43.587 43.647 43.732 43.846 44.034 44.155 44.208 44.273 44.375 44.436 44.477 44.508 44.58 44.672 44.733 44.769 44.847 44.943 44.974 44.989 46.029 45.065 45.148 45.199 45.273 45.236 44.955 44.821 45.165 45.251 45.36 45.3 45.293 45.292 45.282 45.274 45.384 45.382 45.355 45.369 45.352 45.382 45.457 45.45 46.956 46.725 46.129 45.294 45.184 46.234 44.737 45.73 45.456 45.836 44.653 47.565 46.944 45.462 44.713 44.808 44.785 44.833 45.185 47.823 47.648 45.07 44.988 44.89 44.688 44.508 44.265 44.143 44.153 45.103 46.378 43.855 44.615 45.053 47.64 50.158 46.308 44.24 44.3 44.268 44.363 48.75 52.888 51.663 50.438 45.495 43.968 46.045 45.498 44.297 44.658 47.678 45.089 43.969 43.963 43.992 44.073 44.107 44.21 44.207 44.462 45.353 44.334 44.405 44.492 44.538 45.022 44.858 44.689 45.712 44.779 44.883 44.95 45.275 48.32 46.983 46.06 46.33 46.485 46.883 46.958 47.523 48.103 49.03 47.213 46.14 46.18 46.193 45.885 45.853 46.165 46.211 46.288 46.313 46.343 46.423 46.518 46.608 46.796 47.066 47.166 47.216 47.286 47.091 47.108 47.166 47.191 47.218 47.281 47.413 47.563 47.701 47.883 48.003 48.158 48.526 49.008 49.988 50.106 50.733 53.903 52.231 52.636 50.088 50.921 52.556 57.193 60.576 61.053 53.656 52.003 51.831 51.968 51.971 52.316 52.761 53.141 53.476 53.776 54.056 55.213 57.508 59.076 60.393 60.058 59.668 59.256 58.886 55.986 55.656 56.491 57.391 57.048 57.053 57.186 57.358 57.571 57.776 58.026 58.893 58.475 58.807 60.299 61.478 61.269 60.823 61.99 61.926 62.244 62.498 64.222 65.443 64.321 64.963 63.963 64.451 65.198 64.794 64.628 64.416 64.697 64.714 64.74 64.998 65.219 65.307 65.187 65.421 65.655
32.802 32.895 32.97 33.045 33.125 33.202 33.297 33.417 33.507 33.607 33.702 33.795 33.885 33.985 34.005 34.047 35.135 35.175 34.612 34.692 34.76 34.84 34.882 34.975 35.032 35.107 35.182 35.285 35.387 35.522 35.65 35.747 35.865 35.985 36.08 36.23 36.332 36.46 36.537 36.662 36.77 36.89 36.985 37.092 37.187 37.277 37.39 37.485 37.575 37.672 37.782 37.872 37.987 38.09 38.18 38.242 38.332 38.405 38.5 38.595 38.682 38.735 38.822 38.932 39 39.057 39.117 38.757 38.07 38.05 37.992 37.997 37.982 37.99 38.015 38.02 38.092 38.102 38.025 38.067 38.56 38.705 39.142 39.745 41.487 42.057 41.917 41.732 41.96 42.112 42.255 42.467 42.708 42.948 43.108 43.278 43.4 43.518 43.65 43.743 43.83 43.925 44.025 44.11 44.213 44.275 44.368 44.453 44.538 44.62 44.663 44.713 44.795 44.848 44.888 44.958 45.003 45.04 45.065 45.118 45.193 45.27 45.335 45.335 45.365 45.388 45.403 45.418 45.458 45.483 45.505 45.518 45.553 45.57 45.573 45.538 45.525 45.513 45.465 45.428 45.4 45.375 45.36 45.318 45.293 45.25 45.19 45.148 45.103 45.043 45 44.965 44.92 44.878 44.82 44.795 44.753 44.733 44.693 44.66 44.608 44.585 44.53 44.488 44.453 44.415 44.393 44.343 44.318 44.288 44.273 44.228 44.193 44.18 44.165 44.115 44.078 44.06 44.018 43.998 43.935 43.908 43.878 43.815 43.775 43.743 43.703 43.643 43.64 43.6 43.548 43.533 43.49 43.43 43.421 43.456 43.58 44.808 43.934 43.724 44.638 44.166 43.494 43.527 43.572 43.591 43.617 43.657 43.715 43.827 43.96 44.12 44.235 44.324 44.428 44.485 44.531 44.561 44.597 44.68 44.766 44.809 44.867 44.946 45.021 46.375 45.294 45.129 45.144 45.424 45.184 45.037 45.035 45.095 45.097 45.209 45.316 45.417 47.226 45.391 45.407 45.6 45.471 45.423 45.464 45.736 45.535 45.48 45.481 45.463 45.452 45.456 45.62 48.664 45.354 45.195 44.99 44.842 50.848 53.787 46.486 44.948 47.19 49.683 53.446 45.578 45.535 45.528 44.783 44.765 49.56 50.058 45.97 45.215 45.635 45.15 44.898 44.613 44.45 44.845 48.023 50.003 50.665 51.678 47.628 44.948 44.643 44.195 45.678 44.523 44.41 47.363 50.118 50.938 49.97 49.113 44.203 44.053 44 45.303 44.539 43.953 44.741 44.871 44.029 44.547 45.21 44.985 44.32 44.327 44.827 44.332 44.507 44.486 44.536 44.721 44.841 44.923 44.978 44.802 44.822 44.861 44.924 45.038 45.22 45.255 45.623 45.975 46.638 47.023 47.183 46.395 46.265 46.285 46.11 46.158 46.203 46.273 46.218 46.015 45.923 46.233 46.306 46.363 46.416 46.471 46.501 46.603 46.758 47.018 47.196 47.238 47.278 46.963 46.928 47.023 47.081 47.206 47.311 47.433 47.531 47.656 47.811 47.956 48.116 48.256 48.408 48.683 48.986 49.663 49.333 51.811 51.426 53.766 51.118 51.428 54.156 58.791 61.503 61.556 57.683 54.343 53.328 53.136 55.758 55.163 53.203 52.968 53.571 53.596 53.868 54.888 55.686 54.983 56.286 57.308 59.498 59.113 57.808 55.656 55.911 56.536 57.468 57.118 57.158 57.218 57.373 57.528 57.773 57.95 58.167 58.439 58.722 58.998 59.324 59.63 59.99 60.299 60.659 60.967 61.256 61.539 62.226 62.903 63.563 63.493 64.483 64.391 64.913 65.412 66.102 67.926 67.641 67.487 67.622 68.526 67.715 66.159 65.891 66.068
32.82 32.912 33 33.067 33.16 33.237 33.332 33.425 33.52 33.622 33.72 33.825 33.902 33.95 34.01 34.057 35.092 34.945 34.677 34.735 34.807 34.862 34.902 35.01 35.08 35.177 35.242 35.347 35.475 35.602 35.715 35.84 35.957 36.042 36.172 36.275 36.377 36.495 36.597 36.715 36.815 36.922 37.02 37.127 37.242 37.355 37.46 37.545 37.635 37.74 37.832 37.932 38.062 38.162 38.245 38.342 38.412 38.49 38.59 38.702 38.757 38.837 38.91 38.962 39.072 39.142 39.222 38.98 38.32 38.027 37.995 37.957 37.975 37.965 38.037 37.997 38.002 38.007 37.97 38.807 40.902 38.625 39.495 43.292 41.755 41.54 41.665 41.83 42.01 42.165 42.305 42.455 42.72 42.965 43.143 43.303 43.438 43.565 43.66 43.743 43.84 43.945 44.038 44.12 44.213 44.293 44.408 44.475 44.553 44.63 44.703 44.8 44.845 44.878 44.945 45.025 45.073 45.075 45.118 45.203 45.27 45.323 45.385 45.435 45.433 45.438 45.458 45.498 45.523 45.56 45.598 45.635 45.625 45.643 45.638 45.623 45.598 45.573 45.538 45.528 45.5 45.485 45.418 45.395 45.363 45.328 45.283 45.245 45.18 45.133 45.065 45.03 44.99 44.955 44.905 44.875 44.835 44.81 44.765 44.73 44.68 44.66 44.595 44.568 44.513 44.475 44.448 44.393 44.37 44.33 44.305 44.268 44.253 44.21 44.19 44.165 44.133 44.128 44.09 44.053 43.995 43.963 43.93 43.875 43.843 43.768 43.728 43.703 43.658 43.633 43.625 43.598 43.554 43.468 43.47 43.509 43.983 44.734 43.843 43.803 44.901 43.813 43.529 43.585 43.645 43.689 43.689 43.744 43.82 43.921 44.032 44.217 44.357 44.488 44.578 44.61 44.65 44.703 44.741 44.811 44.879 44.92 44.951 45.002 45.188 47.066 45.766 45.202 45.17 45.242 45.21 45.123 45.097 45.189 45.238 45.272 45.403 45.463 45.492 45.49 45.465 45.55 45.666 45.612 45.492 45.504 45.553 45.562 45.545 45.497 45.442 45.438 45.51 45.668 45.7 45.266 45.067 44.978 47.03 51.167 50.65 46.511 49.272 47.549 47.283 47.785 46.92 50.715 46.968 44.9 44.91 44.848 44.903 44.888 44.928 45.065 45.188 45.258 45.213 45.178 46.388 50.6 51.003 53.598 52.19 46.82 44.998 48.83 52.71 48.248 46.59 45.138 47.52 50.11 53.4 56.828 48.14 45.65 44.363 45.175 45.213 44.314 44.172 44.669 44.128 45.722 44.89 44.323 44.35 44.354 45.116 44.454 44.567 44.533 45.681 46.142 46.596 45.49 47.819 45.342 45.186 45.003 45.009 45.115 45.305 45.628 46.185 46.763 47.538 47.565 47.233 46.555 46.313 46.203 46.208 46.29 46.303 46.323 46.32 46.115 46.203 46.298 46.393 46.441 46.518 46.551 46.593 46.703 46.988 47.208 47.243 47.293 47.218 47.061 47.116 47.188 47.253 47.331 47.406 47.516 47.621 47.736 47.868 48.038 48.186 48.346 48.486 48.661 49.046 49.956 49.341 49.443 49.698 50.671 50.521 50.703 51.976 53.778 57.608 58.498 56.513 55.053 55.133 55.431 56.393 56.606 55.498 55.203 55.786 55.373 55.728 57.206 57.438 56.723 56.251 55.648 56.521 57.148 57.436 55.961 57.576 56.971 57.338 57.123 57.228 57.273 57.408 57.583 57.795 57.99 58.203 58.449 58.709 58.999 59.302 59.615 59.961 60.275 60.601 60.912 61.202 61.479 61.751 62.005 62.312 62.588 62.858 63.118 63.34 63.565 64.021 65.15 66.787 67.525 68.57 69.248 69.164 68.766 68.479 67.056
32.822 32.907 33 33.087 33.175 33.257 33.367 33.44 33.542 33.655 33.777 33.86 33.932 34.002 34.047 34.262 34.91 34.632 34.677 34.775 34.827 34.89 34.96 35.062 35.122 35.245 35.33 35.422 35.55 35.662 35.792 35.905 36.042 36.137 36.227 36.327 36.455 36.545 36.65 36.76 36.88 36.962 37.085 37.2 37.285 37.385 37.467 37.582 37.687 37.792 37.875 37.982 38.085 38.215 38.305 38.407 38.497 38.595 38.692 38.782 38.855 38.94 39 39.062 39.137 39.215 39.26 39.287 38.895 38.472 38.337 38.075 37.992 38.022 38.087 38.057 38.025 38.06 38.085 38.5 38.952 39.265 40.535 42.007 41.337 41.55 41.65 41.855 42.04 42.16 42.312 42.492 42.753 43.005 43.205 43.345 43.475 43.558 43.653 43.753 43.868 43.948 44.058 44.158 44.253 44.333 44.415 44.508 44.603 44.673 44.745 44.823 44.895 44.94 45.04 45.095 45.123 45.148 45.198 45.27 45.373 45.433 45.45 45.475 45.503 45.503 45.548 45.563 45.625 45.68 45.688 45.708 45.725 45.71 45.708 45.695 45.683 45.658 45.63 45.598 45.57 45.543 45.51 45.475 45.428 45.39 45.355 45.318 45.26 45.19 45.143 45.128 45.065 45.013 44.988 44.975 44.92 44.888 44.83 44.795 44.758 44.718 44.663 44.61 44.568 44.528 44.515 44.465 44.435 44.393 44.365 44.32 44.3 44.265 44.248 44.205 44.195 44.18 44.145 44.108 44.068 44.03 43.975 43.933 43.903 43.84 43.788 43.731 43.733 43.722 43.695 43.672 43.62 43.534 43.552 43.599 44.305 44.228 43.854 43.914 45.47 44.071 43.633 43.677 43.699 43.734 43.779 43.848 43.914 44.022 44.171 44.356 44.478 44.579 44.689 44.751 44.79 44.822 44.871 44.956 44.991 44.993 45.052 45.124 45.116 45.338 45.328 45.243 45.289 45.285 45.25 45.238 45.306 45.287 45.35 45.408 45.515 45.573 45.643 45.583 45.563 45.873 49.485 45.655 45.601 45.617 45.641 45.626 45.61 45.612 45.624 45.863 45.492 45.452 46.211 45.585 45.181 45.131 47.127 48.385 46.985 45.233 45.12 45.035 45.285 44.968 45.453 47.215 48.093 46.078 44.91 44.988 44.905 44.945 44.88 44.898 44.975 45.088 45.415 47.193 48.998 49.95 48.558 49.618 52.985 48.92 45.898 46.075 48.323 47.603 51.495 45.155 47.88 52 53.52 56.633 53.235 45.015 44.348 45.141 48.19 46.015 44.351 45.766 44.375 44.694 44.379 44.421 44.382 44.695 44.462 44.488 44.673 44.564 44.71 44.749 44.835 45.755 50.018 48.805 46.426 45.087 45.192 45.562 45.323 45.508 45.728 46.898 47.355 47.193 46.838 46.6 46.313 46.255 46.445 46.888 47.503 46.855 46.43 46.09 46.235 46.415 46.426 46.511 46.603 46.636 46.706 46.951 47.221 47.286 47.363 47.286 47.161 47.148 47.193 47.246 47.301 47.381 47.423 47.526 47.703 47.878 47.971 48.106 48.246 48.388 48.531 48.721 48.816 48.971 49.193 49.393 49.526 49.741 50.048 51.691 53.013 52.266 51.348 52.771 51.518 51.998 52.146 52.353 52.818 53.806 54.396 54.948 55.726 56.336 56.983 57.476 57.551 57.518 57.453 57.416 57.351 58.808 56.421 58.718 61.076 58.571 57.133 57.093 57.153 57.291 57.431 57.625 57.837 58.062 58.275 58.545 58.811 59.091 59.379 59.702 60.027 60.344 60.654 60.943 61.236 61.53 61.785 62.057 62.332 62.617 62.853 63.081 63.302 63.561 63.834 64.11 64.486 64.778 65.379 65.54 66.436 66.904 66.685 66.571
32.812 32.915 33.007 33.112 33.182 33.282 33.385 33.462 33.562 33.68 33.787 33.852 33.947 34.05 34.105 34.152 34.747 34.635 34.655 34.775 34.855 34.92 34.99 35.095 35.175 35.267 35.382 35.51 35.63 35.757 35.875 35.995 36.105 36.217 36.292 36.41 36.517 36.602 36.705 36.822 36.93 37.022 37.125 37.222 37.332 37.427 37.51 37.63 37.727 37.82 37.905 38.025 38.125 38.25 38.36 38.452 38.55 38.655 38.75 38.835 38.94 39.035 39.095 39.167 39.22 39.282 39.355 39.475 39.38 39.072 38.905 38.865 38.665 38.182 38.005 37.927 38.102 38.427 38.89 39.312 39.502 39.657 40.33 41.087 41.505 41.625 41.757 41.9 42.01 42.127 42.315 42.522 42.803 43.035 43.215 43.373 43.488 43.56 43.68 43.785 43.888 43.995 44.088 44.17 44.275 44.398 44.47 44.573 44.638 44.743 44.798 44.87 44.95 45.033 45.1 45.16 45.195 45.24 45.28 45.35 45.41 45.488 45.53 45.555 45.56 45.598 45.613 45.645 45.678 45.715 45.748 45.755 45.76 45.745 45.77 45.76 45.72 45.703 45.673 45.655 45.62 45.6 45.545 45.53 45.49 45.458 45.415 45.358 45.315 45.278 45.223 45.173 45.113 45.078 45.053 45.015 44.973 44.943 44.89 44.855 44.813 44.773 44.698 44.648 44.623 44.583 44.568 44.51 44.488 44.455 44.413 44.375 44.315 44.288 44.278 44.255 44.26 44.235 44.195 44.195 44.16 44.105 44.05 44.01 43.952 43.902 43.859 43.812 43.799 43.77 43.76 43.742 43.671 43.626 43.633 43.655 44.819 44.269 43.958 44.454 45.432 44.213 43.749 43.772 43.83 43.856 43.921 43.986 44.053 44.167 44.312 44.489 44.596 44.716 44.793 44.849 44.895 44.953 45.025 45.071 45.081 45.114 45.16 45.27 45.347 45.314 45.165 45.289 45.321 45.365 45.323 45.356 45.477 45.443 45.525 45.543 45.603 45.645 45.738 45.645 45.693 45.713 45.71 45.66 45.938 46.792 45.753 45.755 45.914 46.684 46.573 46.054 45.516 45.515 45.44 45.402 45.242 45.185 45.431 45.389 45.159 44.99 44.963 44.96 46.368 44.975 45.02 44.97 45.32 46.178 45.55 45.355 44.993 44.92 44.965 44.985 44.97 44.973 45.013 45.143 46.448 47.813 48.625 49.488 50.38 48.915 46.673 50.048 54.37 45.493 47.873 48.733 47.03 50.148 50.385 48.975 51.043 50.438 45.429 46.655 45.316 44.841 44.602 44.6 44.641 45.871 45.116 44.569 44.564 44.608 44.594 44.678 44.998 44.675 45.036 44.882 45.029 46.541 49.211 49.315 46.313 45.293 45.545 46.005 45.371 45.84 48.493 46.89 46.538 46.858 48.308 50.708 46.39 46.32 47.485 49.055 49.35 47.465 46.543 46.215 46.173 46.473 46.528 46.568 46.663 46.726 46.903 47.213 47.331 47.401 47.336 47.188 47.176 47.218 47.281 47.311 47.373 47.421 47.518 47.613 47.768 47.906 48.041 48.168 48.311 48.431 48.606 48.791 48.871 49.053 49.241 49.418 49.628 49.821 50.008 52.251 53.478 52.448 51.088 51.393 52.023 52.831 53.156 53.916 53.283 52.568 52.853 53.183 53.576 53.866 54.816 57.436 57.516 57.588 57.556 57.526 57.396 56.421 57.743 60.643 58.828 58.336 57.128 57.146 57.156 57.293 57.463 57.661 57.868 58.092 58.329 58.587 58.846 59.125 59.427 59.742 60.059 60.392 60.734 61.031 61.319 61.6 61.867 62.146 62.434 62.673 62.918 63.133 63.347 63.566 63.837 64.11 64.387 64.684 65.008 65.313 65.614 65.902 66.168 66.413
32.81 32.925 33.012 33.115 33.232 33.3 33.38 33.492 33.607 33.712 33.792 33.862 33.975 34.06 34.092 34.885 36.145 34.657 34.722 34.81 34.897 34.952 35.047 35.15 35.235 35.332 35.435 35.56 35.675 35.815 35.937 36.052 36.16 36.267 36.367 36.475 36.57 36.667 36.755 36.86 36.955 37.065 37.157 37.27 37.392 37.477 37.565 37.665 37.775 37.852 37.972 38.085 38.187 38.287 38.405 38.502 38.592 38.717 38.792 38.905 39.025 39.102 39.205 39.267 39.317 39.387 39.47 39.54 39.655 39.65 39.482 39.47 39.37 38.892 38.645 38.625 38.797 39.225 39.522 39.777 40.07 40.56 41.085 41.442 41.645 41.707 41.795 41.9 41.985 42.107 42.372 42.597 42.87 43.08 43.293 43.418 43.528 43.613 43.708 43.82 43.938 44.048 44.118 44.225 44.325 44.435 44.548 44.623 44.708 44.78 44.87 44.948 45.05 45.105 45.178 45.255 45.27 45.308 45.368 45.44 45.478 45.54 45.588 45.618 45.668 45.665 45.7 45.718 45.758 45.78 45.795 45.833 45.818 45.848 45.835 45.81 45.78 45.745 45.728 45.708 45.678 45.638 45.613 45.588 45.558 45.51 45.47 45.43 45.375 45.32 45.28 45.233 45.185 45.14 45.105 45.063 45.02 44.995 44.958 44.898 44.85 44.803 44.75 44.72 44.663 44.628 44.605 44.565 44.54 44.485 44.443 44.408 44.37 44.345 44.323 44.31 44.313 44.325 44.278 44.248 44.21 44.172 44.137 44.102 44.024 43.975 43.929 43.905 43.841 43.837 43.805 43.794 43.711 43.704 43.71 43.773 44.766 44.302 44.034 44.651 45.297 44.063 43.835 43.905 43.959 43.995 44.041 44.112 44.191 44.316 44.464 44.612 44.759 44.851 44.924 44.97 45.021 45.021 45.081 45.16 45.198 45.236 45.264 45.423 46.212 46.398 45.268 45.321 45.396 45.4 45.48 45.553 45.615 45.638 45.653 45.698 45.668 45.713 45.853 45.893 45.775 45.793 45.858 46.495 45.908 46.105 45.795 45.826 45.814 45.821 45.76 45.61 45.536 45.493 46.509 45.362 45.231 45.26 45.27 45.318 45.235 45.07 45.305 45.21 44.983 44.978 45.255 46.308 45.255 46.078 48.013 49.458 48.168 45.893 45.335 45.145 45.04 45.025 45.043 45.085 45.088 45.128 45.373 45.835 45.428 45.588 45.793 47.06 50.308 46.648 48.028 47.625 47.853 53.07 50.483 47.843 50.783 50.201 45.15 45.437 46.499 45.445 45.66 44.828 44.753 45.135 45.729 45.356 44.733 44.735 44.781 44.811 44.976 44.982 45.474 44.976 45.037 46.725 47.549 48.286 46.438 45.953 45.362 45.458 45.605 47.49 48.533 48.07 47.485 47.318 46.62 49.478 47.728 47.815 47.178 48.093 49.228 47.915 46.585 46.373 46.298 46.623 46.616 46.668 46.738 46.918 47.263 47.378 47.423 47.388 47.241 47.196 47.213 47.276 47.328 47.373 47.411 47.501 47.586 47.703 47.856 48.003 48.148 48.238 48.358 48.471 48.641 48.798 48.936 49.123 49.321 49.536 49.721 49.898 50.536 52.966 53.253 51.236 51.161 51.468 52.673 54.901 56.346 57.343 56.341 54.188 52.963 53.358 53.588 53.936 54.298 54.458 54.648 55.028 55.968 57.213 57.568 57.153 57.866 58.428 61.228 57.498 57.133 57.166 57.206 57.328 57.487 57.694 57.916 58.152 58.398 58.636 58.887 59.176 59.484 59.806 60.122 60.459 60.777 61.089 61.38 61.677 61.934 62.213 62.476 62.761 63.009 63.213 63.419 63.68 63.925 64.155 64.476 64.754 65.054 65.317 65.6 65.872 66.132 66.393
32.815 32.927 33.012 33.1 33.22 33.307 33.395 33.522 33.61 33.735 33.837 33.882 33.992 34.057 34.18 35.58 36.147 34.662 34.75 34.825 34.947 35.017 35.105 35.212 35.285 35.38 35.522 35.637 35.745 35.892 36 36.122 36.217 36.315 36.407 36.502 36.615 36.722 36.82 36.922 37.035 37.117 37.227 37.31 37.427 37.517 37.63 37.727 37.825 37.92 38.005 38.112 38.185 38.317 38.435 38.525 38.615 38.747 38.847 38.96 39.065 39.155 39.25 39.335 39.395 39.442 39.535 39.605 39.675 39.755 39.727 39.69 39.64 39.46 39.377 39.31 39.332 39.53 39.957 40.377 41.065 41.492 41.492 41.555 41.645 41.69 41.752 41.82 41.927 42.155 42.442 42.702 42.948 43.148 43.308 43.438 43.548 43.665 43.778 43.898 44.008 44.1 44.183 44.313 44.398 44.518 44.61 44.685 44.778 44.85 44.95 45.028 45.123 45.195 45.265 45.305 45.333 45.38 45.415 45.483 45.55 45.608 45.653 45.683 45.728 45.76 45.743 45.785 45.833 45.85 45.878 45.883 45.883 45.88 45.88 45.863 45.83 45.813 45.798 45.765 45.743 45.71 45.693 45.668 45.613 45.56 45.52 45.46 45.43 45.388 45.333 45.278 45.223 45.188 45.145 45.105 45.088 45.045 45.003 44.955 44.898 44.86 44.783 44.763 44.708 44.648 44.613 44.59 44.553 44.525 44.49 44.45 44.428 44.41 44.38 44.38 44.392 44.401 44.348 44.322 44.289 44.244 44.219 44.156 44.096 44.023 43.98 43.955 43.935 43.904 43.884 43.854 43.784 43.766 43.781 44.084 44.82 44.151 44.158 45.088 45.298 44.08 43.981 44.053 44.094 44.159 44.227 44.26 44.363 44.503 44.648 44.782 44.912 44.988 45.055 45.114 45.132 45.14 45.224 45.285 45.305 45.319 45.381 45.481 45.442 45.33 45.318 45.495 45.52 45.543 45.593 45.67 45.69 45.69 45.775 45.805 45.793 45.833 45.87 45.953 45.903 45.915 46.138 47.675 46.333 45.908 45.928 45.92 45.908 45.87 45.813 45.753 45.635 45.503 45.498 45.605 45.283 45.323 45.28 45.205 45.075 45.005 45.03 45.138 44.99 45.098 46.628 45.74 45.188 45.25 51.135 49.248 48.398 47.34 46.198 45.54 45.93 45.323 45.053 45.11 45.135 45.17 45.155 45.213 45.225 45.2 45.268 45.393 47.118 46.443 46.508 47.865 48.843 46.78 46.555 45.5 45.801 46.608 45.361 44.984 48.898 48.077 45.147 47.819 46.138 47.896 47.074 47.671 44.953 44.94 45.051 45.029 45.023 45.633 45.223 45.16 45.353 45.275 45.325 45.319 45.472 45.872 46.437 46.194 46.422 46.149 46.62 45.995 48.565 47.61 46.465 48.87 48.9 46.665 47.003 47.13 46.78 46.868 46.69 46.658 46.655 46.72 46.728 46.803 46.943 47.228 47.388 47.476 47.378 47.231 47.236 47.266 47.301 47.366 47.413 47.471 47.526 47.598 47.661 47.796 47.898 48.033 48.193 48.323 48.438 48.548 48.688 48.843 49.066 49.281 49.441 49.633 49.811 49.993 50.203 50.663 51.218 51.066 51.286 51.546 52.473 54.391 57.101 58.223 57.116 55.126 53.348 53.253 53.651 54.011 54.321 54.451 54.566 54.658 54.873 54.938 55.006 55.461 57.653 57.631 57.123 57.411 57.153 57.161 57.235 57.394 57.561 57.77 57.986 58.211 58.444 58.7 58.94 59.244 59.552 59.87 60.201 60.525 60.84 61.168 61.438 61.732 61.999 62.271 62.51 62.778 63.011 63.234 63.463 63.726 63.989 64.244 64.502 64.809 65.08 65.356 65.669 65.917 66.194 66.449
32.805 32.925 33.017 33.125 33.217 33.337 33.412 33.532 33.655 33.755 33.845 33.93 34.012 34.1 34.257 35.795 36.06 34.74 34.797 34.902 35.002 35.087 35.177 35.265 35.36 35.437 35.572 35.69 35.825 35.935 36.07 36.147 36.265 36.372 36.477 36.562 36.642 36.762 36.875 36.96 37.03 37.16 37.257 37.35 37.46 37.57 37.667 37.767 37.842 37.945 38.047 38.142 38.227 38.355 38.465 38.582 38.662 38.772 38.9 38.975 39.085 39.2 39.3 39.392 39.46 39.512 39.577 39.655 39.725 39.79 39.892 39.92 39.99 40.045 39.952 39.995 40.062 40.122 40.652 41.062 41.37 41.345 41.407 41.545 41.597 41.612 41.682 41.785 41.977 42.225 42.48 42.775 42.99 43.185 43.363 43.48 43.61 43.72 43.825 43.94 44.05 44.163 44.268 44.373 44.48 44.588 44.678 44.755 44.843 44.935 45.02 45.095 45.195 45.275 45.345 45.395 45.415 45.433 45.478 45.548 45.598 45.68 45.703 45.748 45.795 45.823 45.83 45.833 45.868 45.898 45.933 45.93 45.945 45.943 45.943 45.928 45.9 45.873 45.83 45.82 45.813 45.778 45.745 45.708 45.683 45.623 45.583 45.513 45.463 45.433 45.378 45.348 45.283 45.24 45.2 45.155 45.105 45.083 45.033 44.998 44.955 44.908 44.855 44.795 44.733 44.685 44.668 44.635 44.605 44.57 44.54 44.493 44.463 44.475 44.476 44.467 44.484 44.467 44.43 44.405 44.359 44.33 44.29 44.229 44.169 44.099 44.063 44.026 43.985 43.97 43.965 43.928 43.858 43.871 43.886 44.252 45.381 44.49 44.25 45.329 44.867 44.142 44.134 44.201 44.266 44.326 44.384 44.449 44.579 44.737 44.85 44.955 45.032 45.117 45.176 45.225 45.246 45.278 45.314 45.375 45.43 45.475 45.5 45.66 45.578 45.535 45.508 45.583 45.638 45.705 45.678 45.703 45.73 45.843 46.07 45.908 45.9 45.913 45.933 45.935 46.09 46.143 45.993 46.165 45.98 45.98 46.035 46.013 45.985 45.958 45.875 45.813 45.678 45.55 45.483 45.49 45.373 45.383 45.303 45.25 45.14 45.105 45.058 45.013 44.97 44.995 46.413 45.395 44.958 44.918 47.945 46.895 47.065 46.468 47.08 47.018 46.835 46.055 45.388 45.065 45.093 45.145 45.163 45.258 45.275 45.288 45.26 45.283 45.388 45.34 46.223 47.185 47.818 45.933 45.675 45.883 45.953 47.717 46.623 45.619 46.755 45.868 45.293 45.136 46.024 48.481 47.735 47.279 45.545 45.195 45.525 45.229 45.291 45.156 45.136 45.194 45.965 45.317 45.449 45.796 46.531 48.147 47.686 47.126 47.049 46.435 45.915 46.05 46.058 47.503 47.35 48.57 49.108 46.873 46.938 48.65 46.688 46.84 46.783 46.875 46.838 46.9 46.891 46.988 47.238 47.448 47.503 47.526 47.246 47.216 47.271 47.341 47.411 47.508 47.526 47.578 47.588 47.666 47.773 47.886 48.038 48.203 48.326 48.433 48.538 48.661 48.798 48.971 49.201 49.386 49.563 49.743 49.931 50.106 50.336 50.613 50.876 51.201 51.418 51.933 53.071 55.381 57.278 58.331 56.933 54.571 53.198 53.366 53.726 54.103 54.403 54.523 54.618 54.783 54.763 54.911 55.033 55.618 57.203 57.671 57.848 57.316 57.188 57.193 57.282 57.439 57.597 57.817 58.053 58.293 58.537 58.757 59.018 59.308 59.593 59.91 60.254 60.578 60.898 61.204 61.501 61.785 62.047 62.334 62.578 62.82 63.059 63.298 63.527 63.807 64.039 64.268 64.558 64.843 65.121 65.411 65.702 65.942 66.215 66.492
32.832 32.942 33.02 33.127 33.25 33.36 33.457 33.557 33.672 33.782 33.87 33.955 34.077 34.152 34.305 35.682 35.665 34.807 34.862 34.955 35.07 35.13 35.217 35.3 35.385 35.517 35.617 35.737 35.847 35.992 36.1 36.205 36.31 36.402 36.52 36.59 36.68 36.8 36.89 36.99 37.092 37.2 37.307 37.395 37.492 37.557 37.677 37.79 37.87 37.995 38.085 38.167 38.277 38.405 38.51 38.617 38.72 38.8 38.92 39.032 39.132 39.257 39.335 39.45 39.532 39.59 39.657 39.747 39.812 39.867 39.907 39.987 40.097 40.202 40.295 40.332 40.51 40.585 40.822 40.955 41.105 41.202 41.317 41.397 41.5 41.592 41.712 41.862 42.05 42.287 42.567 42.81 43.045 43.23 43.413 43.54 43.693 43.788 43.898 44.028 44.15 44.245 44.36 44.445 44.573 44.67 44.735 44.845 44.928 45.018 45.113 45.213 45.275 45.37 45.413 45.46 45.468 45.515 45.548 45.62 45.685 45.745 45.768 45.823 45.863 45.875 45.9 45.913 45.923 45.955 45.95 45.993 46.005 45.995 45.998 45.97 45.948 45.928 45.923 45.898 45.87 45.863 45.813 45.763 45.738 45.68 45.633 45.573 45.535 45.485 45.42 45.395 45.323 45.283 45.24 45.2 45.17 45.143 45.085 45.053 45.005 44.953 44.89 44.83 44.803 44.745 44.715 44.698 44.673 44.624 44.599 44.552 44.531 44.527 44.511 44.516 44.519 44.51 44.494 44.478 44.424 44.407 44.356 44.297 44.23 44.199 44.138 44.097 44.052 44.028 44.043 44.002 43.951 43.964 44 44.988 45.558 44.521 44.343 45.236 44.824 44.83 44.297 44.348 44.402 44.51 44.564 44.65 44.795 44.914 45.043 45.12 45.166 45.254 45.34 45.376 45.394 45.403 45.478 45.528 45.555 45.608 45.683 45.678 45.653 45.643 45.64 45.695 45.81 46.298 45.88 45.828 45.845 46.01 46.118 46.008 45.985 46.005 45.995 46.043 46.523 46.398 46.473 46.55 46.09 46.123 46.11 46.17 46.178 46.068 46.138 47.248 47.278 45.808 45.518 45.52 45.41 45.46 45.375 45.395 45.245 45.183 45.15 45.105 45.01 45.01 44.993 44.945 44.973 44.983 44.97 45.02 45.06 45 45.03 45.765 45.663 46.283 46.595 45.593 45.638 45.155 45.36 45.768 46.318 45.385 45.253 45.233 45.498 45.738 45.83 45.638 46.785 45.473 45.545 45.573 49.734 49.007 49.614 46.902 46.53 45.853 45.688 45.579 45.438 45.731 45.38 45.404 46.048 45.69 45.261 45.47 45.849 45.389 45.381 45.375 45.628 45.62 45.488 45.536 46.306 46.968 46.568 46.445 46.315 45.875 46.753 46.81 46.158 49.488 48.88 48.015 49.783 47.208 46.875 46.898 46.935 46.958 46.93 46.935 46.863 46.885 46.993 47.251 47.476 47.508 47.538 47.308 47.233 47.246 47.303 47.393 47.488 47.596 47.671 47.703 47.753 47.818 47.923 48.011 48.151 48.306 48.428 48.538 48.651 48.823 48.913 49.078 49.268 49.486 49.673 49.841 50.028 50.211 50.426 50.688 51.008 51.328 51.556 51.931 52.968 55.591 57.421 58.021 56.768 54.341 53.288 53.498 53.803 54.118 54.426 54.478 54.653 55.066 56.003 55.198 55.361 56.133 57.986 58.431 58.533 57.291 57.226 57.225 57.304 57.435 57.627 57.842 58.095 58.321 58.553 58.807 59.065 59.361 59.658 59.971 60.293 60.619 60.949 61.262 61.518 61.796 62.076 62.346 62.621 62.866 63.108 63.372 63.607 63.827 64.079 64.37 64.639 64.896 65.166 65.442 65.715 65.982 66.229 66.476
32.87 32.967 33.06 33.16 33.25 33.35 33.482 33.6 33.685 33.812 33.915 33.982 34.135 34.185 34.3 36.057 35.647 34.855 34.927 35.007 35.115 35.172 35.257 35.35 35.435 35.555 35.675 35.782 35.905 36.02 36.145 36.23 36.345 36.452 36.525 36.635 36.737 36.857 36.907 37.02 37.137 37.222 37.332 37.432 37.54 37.622 37.71 37.82 37.902 38.017 38.1 38.212 38.307 38.427 38.537 38.64 38.74 38.845 38.942 39.065 39.175 39.275 39.377 39.49 39.6 39.675 39.76 39.825 39.922 39.97 40.02 40.05 40.1 40.182 40.31 40.407 40.517 40.642 40.782 40.94 41.095 41.195 41.275 41.36 41.49 41.647 41.785 41.962 42.165 42.357 42.642 42.877 43.103 43.293 43.458 43.595 43.745 43.86 43.98 44.095 44.21 44.328 44.47 44.555 44.648 44.753 44.825 44.92 45.028 45.133 45.23 45.293 45.375 45.473 45.503 45.535 45.56 45.578 45.625 45.695 45.763 45.81 45.86 45.878 45.92 45.948 45.948 45.968 46 46.013 46.043 46.048 46.07 46.053 46.055 46.055 46.01 45.978 45.983 45.96 45.92 45.908 45.895 45.843 45.8 45.74 45.683 45.638 45.593 45.56 45.508 45.45 45.403 45.348 45.3 45.27 45.213 45.168 45.138 45.093 45.063 44.998 44.938 44.883 44.845 44.822 44.777 44.765 44.737 44.705 44.67 44.617 44.62 44.615 44.603 44.597 44.6 44.578 44.566 44.536 44.492 44.473 44.431 44.383 44.304 44.263 44.211 44.15 44.123 44.095 44.088 44.054 44.024 44.05 44.076 45.069 45.326 44.366 44.791 45.673 44.614 44.367 44.45 44.513 44.626 44.695 44.735 44.844 44.954 45.067 45.224 45.305 45.344 45.393 45.453 45.498 45.513 45.6 45.61 45.655 45.71 45.73 45.783 45.79 45.753 45.745 45.748 45.788 45.958 46.57 46.235 46.168 45.973 46.09 46.215 46.143 46.058 46.005 46.065 46.073 46.195 46.123 46.163 46.205 46.298 46.138 46.27 46.223 46.19 46.26 46.123 46.588 45.968 45.705 45.608 45.483 45.398 45.45 45.813 47.128 45.36 45.315 45.233 45.19 45.17 45.105 45.015 44.993 44.973 45.008 45.015 45.048 44.998 45.145 45.108 45.123 45.538 46.76 47.475 47.545 48.998 48.088 47.49 47.615 48.36 46.783 45.57 45.54 47.153 50.315 51.665 46.033 45.623 45.86 47.085 46.605 45.959 45.909 49.685 46.923 46.134 46.171 47.731 48.682 46.04 45.866 45.763 45.685 45.519 45.621 45.916 45.582 45.777 45.676 45.594 45.641 45.587 45.797 45.874 46.276 45.708 47.599 45.824 47.514 47.148 45.817 46.06 46.143 49.14 47.618 48.715 48.903 50.818 48.513 47.61 47.733 47.055 47.068 46.998 47.038 47.04 46.938 47.231 47.533 47.568 47.588 47.421 47.328 47.301 47.303 47.331 47.441 47.566 47.701 47.766 47.811 47.871 47.933 48.033 48.123 48.258 48.403 48.528 48.623 48.741 48.876 49.013 49.126 49.353 49.543 49.748 49.923 50.151 50.363 50.586 50.848 51.133 51.411 51.676 52.406 52.703 55.321 57.616 58.011 56.633 54.376 53.268 53.903 54.641 54.246 54.523 55.338 55.128 56.531 58.031 57.703 56.841 57.771 59.816 59.951 58.361 57.236 57.213 57.263 57.34 57.501 57.7 57.887 58.131 58.36 58.602 58.844 59.104 59.425 59.719 60.028 60.347 60.669 60.983 61.28 61.572 61.855 62.135 62.387 62.684 62.933 63.177 63.422 63.666 63.9 64.147 64.405 64.666 64.931 65.215 65.487 65.754 66.017 66.297 66.515
32.897 32.972 33.072 33.172 33.287 33.372 33.5 33.627 33.722 33.86 33.94 34.035 34.14 34.222 35.08 36.345 35.597 34.885 34.997 35.092 35.147 35.222 35.32 35.415 35.497 35.605 35.717 35.85 35.957 36.082 36.17 36.272 36.367 36.477 36.577 36.66 36.78 36.857 36.977 37.065 37.167 37.255 37.367 37.46 37.56 37.645 37.74 37.84 37.945 38.04 38.147 38.237 38.34 38.455 38.555 38.675 38.775 38.887 38.975 39.09 39.21 39.312 39.402 39.497 39.625 39.72 39.82 39.9 39.967 40.032 40.08 40.125 40.162 40.197 40.307 40.405 40.527 40.7 40.845 41.015 41.117 41.227 41.332 41.482 41.652 41.787 41.942 42.072 42.23 42.445 42.707 42.955 43.178 43.373 43.533 43.67 43.823 43.953 44.07 44.203 44.293 44.415 44.523 44.645 44.733 44.835 44.925 45.033 45.105 45.185 45.298 45.395 45.475 45.56 45.59 45.615 45.67 45.67 45.723 45.803 45.848 45.88 45.923 45.945 45.955 45.983 46.003 46.028 46.05 46.083 46.12 46.138 46.138 46.143 46.115 46.1 46.098 46.073 46.05 46.035 45.99 45.985 45.923 45.908 45.855 45.808 45.75 45.7 45.665 45.625 45.573 45.495 45.465 45.39 45.343 45.305 45.26 45.248 45.203 45.138 45.095 45.051 45.013 44.967 44.926 44.889 44.859 44.819 44.792 44.752 44.716 44.696 44.68 44.662 44.672 44.673 44.67 44.653 44.637 44.608 44.572 44.548 44.493 44.445 44.38 44.33 44.287 44.231 44.199 44.179 44.145 44.124 44.107 44.12 44.204 45.234 45.317 44.417 44.936 45.786 44.567 44.537 44.608 44.681 44.765 44.866 44.949 45.029 45.132 45.295 45.391 45.469 45.498 45.548 45.61 45.653 45.695 45.72 45.755 45.778 45.81 45.828 45.875 45.885 45.91 45.91 45.905 45.94 45.95 45.993 46.228 46.515 46.158 46.098 46.325 46.763 46.118 46.105 46.148 46.193 46.305 46.175 46.183 46.24 46.398 46.27 46.295 46.298 46.283 46.32 46.19 46.07 45.85 45.743 45.575 45.543 45.478 45.56 45.783 45.543 45.425 45.375 45.305 45.245 45.155 45.098 45.108 45.04 45.03 45.055 45.085 45.165 45.063 45.188 45.32 45.185 45.405 46.115 47.27 48.82 51.243 51.275 50.94 50.71 50.163 46.335 45.295 46.095 48.745 48.55 51.673 48.573 46.048 45.653 50.673 48.473 45.794 45.844 47.02 48.196 45.895 46.139 54.086 52.768 46.63 47.139 47.043 46.17 46.569 45.944 45.82 46.354 46.17 45.782 45.779 46.772 46.376 46.621 47.108 46.107 45.867 46.682 47.585 49.047 46.434 47.369 46.138 46.275 47.203 46.418 49.305 51.005 50.568 49.31 47.018 47.37 47.43 47.333 47.163 47.245 47.305 47.28 47.551 47.638 47.706 47.523 47.383 47.401 47.386 47.413 47.451 47.556 47.621 47.728 47.858 47.906 48.003 48.076 48.146 48.218 48.311 48.466 48.586 48.713 48.881 49.003 49.121 49.251 49.501 49.671 49.873 50.046 50.251 50.456 50.678 50.913 51.208 51.476 51.723 52.511 52.706 54.533 57.538 57.636 56.228 53.591 53.338 53.878 54.446 54.313 54.543 55.278 54.753 56.581 57.821 58.363 58.126 58.266 60.521 59.596 57.878 57.181 57.193 57.274 57.368 57.53 57.72 57.939 58.158 58.401 58.63 58.887 59.143 59.439 59.745 60.06 60.371 60.684 61.009 61.298 61.595 61.89 62.168 62.44 62.712 62.977 63.232 63.481 63.736 63.976 64.247 64.484 64.741 65.003 65.285 65.534 65.784 66.076 66.315 66.543
32.91 33.015 33.1 33.21 33.31 33.417 33.555 33.672 33.782 33.9 33.972 34.067 34.192 34.275 35.365 36.155 35.295 34.947 35.032 35.137 35.222 35.282 35.392 35.45 35.527 35.657 35.755 35.89 36.007 36.105 36.23 36.305 36.405 36.5 36.595 36.71 36.807 36.912 36.985 37.105 37.187 37.27 37.39 37.48 37.585 37.67 37.772 37.882 37.985 38.085 38.182 38.282 38.377 38.48 38.587 38.697 38.817 38.91 39.017 39.15 39.235 39.33 39.435 39.547 39.67 39.775 39.887 39.982 40.067 40.147 40.19 40.225 40.282 40.3 40.34 40.42 40.562 40.727 40.902 41.032 41.175 41.315 41.485 41.667 41.805 41.935 42.072 42.21 42.367 42.58 42.842 43.07 43.275 43.44 43.63 43.755 43.893 44.03 44.153 44.268 44.38 44.483 44.61 44.675 44.798 44.893 44.993 45.108 45.2 45.293 45.398 45.478 45.548 45.618 45.673 45.693 45.73 45.765 45.845 45.895 45.965 45.988 45.985 46.01 46.023 46.055 46.068 46.093 46.135 46.165 46.17 46.185 46.203 46.203 46.198 46.18 46.188 46.115 46.115 46.08 46.065 46.023 45.98 45.94 45.918 45.868 45.815 45.798 45.748 45.668 45.623 45.585 45.523 45.468 45.408 45.378 45.338 45.306 45.264 45.215 45.173 45.122 45.079 45.022 45.006 44.958 44.916 44.889 44.866 44.833 44.793 44.774 44.748 44.748 44.74 44.753 44.741 44.747 44.7 44.675 44.649 44.627 44.561 44.522 44.455 44.408 44.347 44.313 44.287 44.254 44.231 44.194 44.19 44.24 44.521 45.808 45.358 44.657 45.659 45.665 44.743 44.711 44.785 44.888 44.993 45.056 45.141 45.219 45.347 45.467 45.566 45.648 45.665 45.71 45.758 45.8 45.87 45.89 45.93 45.928 45.923 45.955 46.003 46.783 46.203 46.008 45.995 46.1 46.09 46.118 46.33 46.405 46.21 46.203 46.898 46.225 46.193 46.173 46.22 46.228 46.275 46.305 46.353 46.308 46.353 46.333 46.338 46.403 46.425 46.42 46.278 46.098 45.948 45.78 45.89 46.743 45.758 45.52 45.555 45.52 45.488 45.43 45.363 45.283 45.228 45.165 45.165 45.128 45.128 45.173 45.18 45.178 45.12 45.238 45.293 45.395 45.4 46.418 47.375 48.978 51.045 51.295 51.74 51.89 51.67 47.833 45.225 45.39 47.345 47.37 52.268 54.845 48.19 46.953 49.908 48.975 46.778 46.11 46.439 48.178 45.97 48.279 54.594 55.282 47.109 46.27 47.425 47.066 46.887 46.671 46.368 47.58 48.405 45.979 46.437 47.261 47.553 46.775 46.42 46.461 46.1 47.235 46.293 47.118 47.359 46.267 46.928 46.34 46.473 49.425 49.078 55.14 49.863 49.905 47.05 47.373 48.163 48.265 47.483 47.713 47.668 47.633 47.696 47.711 47.668 47.418 47.448 47.466 47.483 47.516 47.556 47.643 47.746 47.818 47.881 47.998 48.101 48.153 48.241 48.323 48.421 48.578 48.731 48.871 49.023 49.148 49.211 49.366 49.588 49.758 49.958 50.166 50.373 50.596 50.773 51.016 51.278 51.558 51.793 52.173 52.516 52.498 52.681 53.061 54.081 53.403 53.468 53.846 54.178 54.333 54.441 54.671 55.038 55.431 55.573 55.991 56.881 58.331 58.316 59.041 57.506 57.163 57.202 57.29 57.423 57.578 57.771 57.985 58.204 58.457 58.685 58.926 59.179 59.486 59.772 60.093 60.413 60.718 61.019 61.318 61.613 61.883 62.154 62.436 62.706 62.996 63.262 63.514 63.759 64.013 64.261 64.517 64.791 65.05 65.332 65.605 65.871 66.131 66.386 66.629
32.957 33.065 33.142 33.245 33.345 33.457 33.595 33.687 33.802 33.92 33.995 34.112 34.237 34.337 35.877 36.55 35.125 35.005 35.075 35.192 35.265 35.332 35.405 35.502 35.58 35.682 35.812 35.947 36.032 36.137 36.272 36.352 36.432 36.545 36.63 36.727 36.837 36.942 37.04 37.132 37.202 37.325 37.432 37.527 37.635 37.715 37.812 37.917 38.007 38.105 38.197 38.287 38.402 38.505 38.64 38.732 38.825 38.937 39.062 39.16 39.27 39.372 39.47 39.592 39.7 39.84 39.955 40.06 40.157 40.257 40.327 40.405 40.455 40.512 40.56 40.637 40.735 40.88 41.022 41.17 41.337 41.51 41.67 41.817 41.942 42.075 42.19 42.327 42.532 42.77 42.99 43.207 43.395 43.56 43.705 43.843 43.968 44.11 44.238 44.36 44.478 44.563 44.675 44.768 44.883 44.985 45.08 45.183 45.293 45.4 45.485 45.565 45.623 45.688 45.725 45.755 45.793 45.858 45.943 46 46.053 46.073 46.08 46.08 46.093 46.11 46.135 46.165 46.203 46.203 46.248 46.275 46.263 46.253 46.245 46.23 46.22 46.205 46.178 46.138 46.11 46.07 46.053 46.01 45.97 45.943 45.883 45.823 45.778 45.74 45.693 45.643 45.59 45.521 45.462 45.443 45.384 45.354 45.326 45.284 45.252 45.182 45.142 45.1 45.076 45.012 44.979 44.954 44.92 44.889 44.883 44.841 44.817 44.815 44.826 44.825 44.837 44.825 44.796 44.766 44.735 44.701 44.653 44.592 44.542 44.484 44.446 44.389 44.353 44.349 44.331 44.293 44.309 44.336 44.576 45.773 45.001 44.651 45.842 45.385 44.814 44.913 45.005 45.06 45.122 45.214 45.317 45.386 45.502 45.63 45.748 45.818 45.818 45.85 45.903 45.983 45.958 46.003 46.065 46.088 46.11 46.125 46.14 46.605 46.995 46.075 46.115 46.278 46.505 46.258 46.36 46.318 46.313 46.678 46.908 48.18 46.995 46.325 46.348 46.323 46.318 46.358 46.388 46.438 46.403 46.44 46.418 46.465 46.473 46.975 46.383 46.215 46.02 45.88 45.775 45.773 45.605 45.593 45.588 45.593 45.543 45.533 45.468 45.35 45.273 45.265 45.225 45.235 45.215 45.245 45.248 45.213 45.233 45.205 45.295 45.313 45.328 45.41 45.628 46.42 50.693 51.213 51.28 51.365 50.915 48.153 46.268 47.238 47.928 47.623 48.3 51.493 50.548 47.19 47.053 46.93 47.182 48.232 47.162 46.158 46.984 50.43 49.291 49.577 46.647 46.111 46.179 46.238 46.516 47.065 47.168 48.23 50.994 46.549 46.452 47.236 47.692 46.032 46.826 46.502 46.171 48.49 46.261 46.234 46.238 46.514 46.83 46.485 47.19 47.925 48.233 60.553 53.408 46.928 46.97 47.118 47.58 48.885 47.905 47.488 47.653 47.728 47.798 47.641 47.408 47.471 47.493 47.523 47.573 47.633 47.701 47.763 47.851 47.926 48.026 48.116 48.198 48.286 48.371 48.443 48.568 48.726 48.876 48.973 49.163 49.266 49.366 49.493 49.713 49.923 50.078 50.488 50.853 50.818 50.921 51.126 51.368 51.601 51.946 52.381 52.213 52.521 52.678 52.821 53.121 53.261 53.773 54.008 54.116 54.346 54.606 54.976 55.206 55.431 55.638 55.803 56.366 58.706 60.433 59.328 57.608 57.186 57.181 57.302 57.437 57.617 57.824 58.024 58.24 58.483 58.727 58.977 59.238 59.528 59.829 60.127 60.449 60.751 61.071 61.37 61.658 61.927 62.189 62.477 62.726 63.011 63.284 63.547 63.796 64.06 64.305 64.554 64.813 65.08 65.356 65.618 65.907 66.169 66.436 66.65
32.997 33.097 33.177 33.295 33.42 33.497 33.625 33.725 33.855 33.965 34.032 34.155 34.272 34.377 35.922 36.47 35.135 35.047 35.13 35.235 35.282 35.385 35.48 35.55 35.65 35.735 35.87 35.957 36.075 36.185 36.292 36.387 36.492 36.567 36.68 36.762 36.867 36.962 37.085 37.177 37.237 37.34 37.457 37.537 37.65 37.732 37.85 37.955 38.052 38.122 38.235 38.34 38.442 38.532 38.662 38.742 38.86 38.985 39.077 39.185 39.3 39.415 39.517 39.655 39.772 39.892 40.02 40.14 40.245 40.362 40.462 40.555 40.625 40.71 40.802 40.872 40.977 41.105 41.255 41.415 41.562 41.71 41.845 41.985 42.12 42.23 42.365 42.537 42.75 42.955 43.16 43.342 43.48 43.645 43.795 43.915 44.05 44.198 44.343 44.468 44.558 44.655 44.75 44.873 44.958 45.088 45.193 45.285 45.368 45.46 45.555 45.625 45.663 45.74 45.78 45.835 45.868 45.91 45.993 46.085 46.135 46.145 46.165 46.16 46.183 46.198 46.22 46.238 46.263 46.308 46.32 46.333 46.338 46.368 46.333 46.305 46.29 46.278 46.243 46.2 46.168 46.138 46.11 46.1 46.025 45.998 45.953 45.89 45.828 45.793 45.759 45.695 45.631 45.58 45.554 45.506 45.471 45.426 45.394 45.353 45.309 45.262 45.225 45.161 45.116 45.072 45.048 45.018 44.99 44.96 44.95 44.921 44.885 44.894 44.903 44.915 44.905 44.887 44.87 44.842 44.814 44.775 44.743 44.674 44.624 44.567 44.53 44.49 44.472 44.457 44.429 44.405 44.412 44.438 45.321 46.139 45.137 45.097 46.249 45.829 45.008 45.037 45.124 45.203 45.323 45.42 45.498 45.578 45.66 45.788 45.883 45.928 45.953 45.973 46.025 46.07 46.093 46.153 46.238 46.265 46.253 46.263 46.308 47.078 46.783 46.183 46.225 46.44 47.018 47.62 47.333 46.48 46.453 49.398 48.985 50.358 49.593 48.295 46.445 46.405 46.458 46.49 46.518 46.608 46.618 46.603 46.67 46.728 47.768 47.035 46.425 46.338 46.185 46.043 45.935 45.925 45.735 45.675 45.685 45.675 45.625 45.613 45.55 45.443 45.365 45.333 45.33 45.35 45.335 45.32 45.3 45.283 45.303 45.293 45.25 45.363 45.395 45.405 45.303 45.848 49.98 51.46 51.8 51.73 50.715 46.225 46.023 47.493 48.048 48.788 51.463 49.538 47.495 47.008 47.095 47.865 47.046 46.936 47.065 47.045 47.303 53.29 48.231 47.359 47.358 46.948 46.303 46.262 46.295 46.665 48.093 54.986 56.833 48.218 47.238 47.015 46.875 46.626 46.479 46.291 47.024 46.328 46.289 46.361 46.604 46.55 46.558 46.635 46.843 47.178 47.433 46.958 46.995 47.103 47.12 47.183 47.255 49.053 50.908 47.598 47.705 47.77 47.773 47.566 47.503 47.571 47.601 47.638 47.698 47.766 47.806 47.876 47.993 48.073 48.181 48.248 48.328 48.403 48.508 48.596 48.751 48.898 49.056 49.188 49.318 49.381 49.513 49.651 49.798 50.008 50.188 50.428 50.668 50.853 51.036 51.256 51.471 51.668 51.876 52.101 52.228 52.593 52.793 53.213 53.453 53.891 54.036 53.966 54.216 54.858 54.753 55.008 55.321 55.481 56.216 56.888 58.063 57.053 60.196 59.271 57.356 57.243 57.296 57.356 57.51 57.658 57.855 58.048 58.274 58.49 58.736 58.983 59.248 59.552 59.824 60.145 60.469 60.775 61.098 61.396 61.686 61.983 62.252 62.504 62.805 63.079 63.337 63.604 63.868 64.112 64.361 64.629 64.871 65.131 65.408 65.657 65.914 66.179 66.412 66.655
33.025 33.107 33.237 33.34 33.465 33.55 33.682 33.787 33.892 33.985 34.112 34.19 34.322 34.42 35.915 36.325 35.187 35.092 35.172 35.29 35.337 35.452 35.52 35.615 35.7 35.8 35.912 36.022 36.122 36.24 36.345 36.415 36.527 36.617 36.722 36.787 36.9 36.995 37.087 37.167 37.275 37.38 37.475 37.567 37.692 37.762 37.875 37.962 38.057 38.157 38.252 38.355 38.48 38.58 38.685 38.8 38.91 39.022 39.127 39.227 39.355 39.457 39.557 39.68 39.802 39.955 40.075 40.2 40.327 40.45 40.585 40.675 40.782 40.872 40.982 41.09 41.222 41.357 41.515 41.662 41.797 41.935 42.06 42.167 42.302 42.437 42.592 42.757 42.952 43.137 43.31 43.472 43.598 43.748 43.868 43.998 44.153 44.303 44.44 44.535 44.66 44.755 44.865 44.975 45.073 45.185 45.273 45.373 45.468 45.555 45.635 45.703 45.77 45.838 45.885 45.915 45.995 46.033 46.103 46.165 46.19 46.223 46.223 46.235 46.273 46.285 46.305 46.32 46.358 46.4 46.393 46.395 46.403 46.41 46.408 46.388 46.37 46.34 46.33 46.273 46.248 46.208 46.18 46.13 46.108 46.068 46.01 45.946 45.919 45.868 45.833 45.803 45.726 45.656 45.626 45.563 45.521 45.496 45.469 45.421 45.365 45.316 45.286 45.238 45.19 45.143 45.129 45.078 45.061 45.018 45 44.996 44.97 44.987 44.99 44.983 44.982 44.962 44.953 44.909 44.887 44.852 44.804 44.773 44.7 44.65 44.607 44.575 44.572 44.549 44.525 44.488 44.527 44.553 45.332 45.842 44.877 45.341 46.76 47.173 45.338 45.27 45.363 45.465 45.553 45.663 45.715 45.763 45.855 45.92 46.015 46.055 46.105 46.138 46.19 46.198 46.243 46.29 46.358 46.388 46.435 46.458 46.518 47.038 46.518 46.273 46.418 46.55 47.783 48.888 47.16 46.525 46.545 46.478 46.975 48.685 48.005 46.59 46.535 46.585 46.635 46.685 46.708 46.915 46.83 46.773 46.768 47.128 47.373 46.98 46.73 46.385 46.275 46.213 46.35 46.153 45.833 45.765 45.745 45.765 45.72 45.688 45.613 45.558 45.505 45.45 45.433 45.443 45.428 45.413 45.395 45.343 45.34 45.303 45.343 45.44 45.463 45.51 45.363 46.278 48.34 50.568 51.443 51.415 50.748 46.69 45.458 46.553 47.658 47.785 47.65 48.17 47.365 47.285 47.705 47.4 47.247 47.281 47.259 47.78 47.443 53.962 52.343 50.833 50.662 48.699 46.8 46.372 46.41 47.747 54.628 59.67 58.534 48.422 46.877 47.03 47.373 47.394 47.969 47.478 49.787 46.933 46.593 46.619 47.085 46.819 46.815 46.795 50.76 47.063 48.293 47.268 47.155 47.265 47.308 47.528 47.578 49.438 52.52 47.76 47.828 47.835 47.833 47.658 47.643 47.718 47.758 47.786 47.858 47.911 47.986 48.066 48.173 48.258 48.353 48.443 48.511 48.593 48.673 48.763 48.868 49.036 49.153 49.298 49.441 49.538 49.646 49.773 49.931 50.101 50.271 50.478 50.678 50.876 51.076 51.303 51.606 51.808 51.936 52.358 52.371 52.978 52.773 54.856 57.003 54.306 53.916 53.936 54.576 55.133 54.966 55.113 56.853 57.266 57.553 59.146 58.706 60.191 60.663 58.338 57.371 57.478 57.73 57.949 58.212 58.249 58.29 58.539 58.568 58.967 59.249 59.364 59.511 59.667 59.962 60.255 60.518 61.074 61.735 61.761 62.007 62.037 62.297 62.593 62.868 63.139 63.402 63.698 63.944 64.211 64.47 64.7 64.958 65.218 65.457 65.697 65.939 66.178 66.411 66.64
33.062 33.16 33.275 33.41 33.505 33.61 33.715 33.825 33.932 34.055 34.147 34.25 34.37 34.485 35.997 35.972 35.06 35.125 35.242 35.345 35.382 35.49 35.572 35.662 35.76 35.83 35.947 36.067 36.16 36.27 36.37 36.462 36.565 36.672 36.747 36.855 36.935 37.015 37.125 37.207 37.287 37.417 37.502 37.59 37.71 37.787 37.895 37.985 38.075 38.18 38.282 38.375 38.5 38.62 38.72 38.847 38.962 39.067 39.175 39.275 39.412 39.495 39.625 39.735 39.852 39.992 40.117 40.272 40.4 40.517 40.66 40.775 40.9 40.997 41.14 41.245 41.395 41.547 41.715 41.845 41.982 42.115 42.247 42.377 42.497 42.665 42.797 42.95 43.107 43.27 43.387 43.542 43.69 43.83 43.97 44.115 44.245 44.403 44.518 44.633 44.735 44.855 44.95 45.068 45.175 45.278 45.368 45.46 45.56 45.663 45.735 45.788 45.863 45.923 45.963 45.995 46.065 46.108 46.198 46.245 46.275 46.288 46.303 46.308 46.318 46.353 46.39 46.395 46.415 46.448 46.463 46.488 46.47 46.47 46.47 46.465 46.443 46.4 46.385 46.345 46.335 46.285 46.26 46.216 46.159 46.116 46.09 46.044 45.977 45.928 45.894 45.858 45.808 45.737 45.682 45.647 45.601 45.576 45.506 45.477 45.422 45.385 45.342 45.278 45.246 45.22 45.193 45.153 45.122 45.094 45.09 45.079 45.052 45.07 45.07 45.061 45.053 45.057 45.027 45.025 44.963 44.943 44.89 44.867 44.794 44.73 44.687 44.667 44.668 44.65 44.614 44.624 44.692 44.774 45.654 46.064 45.044 45.526 46.849 46.723 45.59 45.495 45.558 45.71 45.793 45.9 45.97 46.038 46.07 46.133 46.205 46.23 46.243 46.283 46.33 46.368 46.41 46.5 46.525 46.538 46.533 46.538 47.21 48.81 46.563 46.47 46.543 46.695 46.875 47.588 46.923 46.778 46.558 46.535 46.588 46.628 46.658 46.66 46.625 46.688 46.973 46.925 46.915 47.285 46.903 46.953 47.013 47.26 47.128 46.938 46.803 46.493 46.365 46.258 46.145 46.055 45.963 45.905 45.85 45.8 45.8 45.77 45.678 45.65 45.635 45.575 45.558 45.555 45.52 45.483 45.445 45.41 45.365 45.303 45.383 45.558 45.603 46.218 46.795 46.238 47.373 49.698 51.47 51.48 51.175 48.668 47.543 47.375 47.68 47.683 48.435 48.585 47.52 47.568 47.745 47.59 47.564 47.69 48.593 47.71 48.113 51.398 55.696 56.423 52.34 49.627 48.149 47.162 46.709 47.377 52.918 58.932 54.409 50.258 47.655 46.615 46.723 46.989 47.409 47.662 48.726 48.068 47.236 47.147 47.12 47.051 46.943 47.268 48.52 47.7 48.29 47.963 47.228 47.255 47.273 47.453 47.663 48.378 52.18 48.703 47.933 47.938 47.868 47.793 47.751 47.838 47.901 47.981 48.036 48.108 48.186 48.283 48.381 48.461 48.551 48.616 48.643 48.736 48.803 48.916 49.003 49.161 49.301 49.411 49.506 49.693 49.766 49.881 50.021 50.196 50.401 50.586 50.783 50.966 51.171 51.353 51.751 51.923 52.306 53.201 52.703 52.628 52.958 54.386 56.668 54.036 53.933 55.933 57.336 57.521 56.966 56.668 57.721 57.023 57.443 61.443 62.128 60.916 60.936 57.751 57.413 57.468 57.632 58.179 58.781 59.019 59.103 59.243 59.35 60.016 60.108 60.229 60.461 61.031 61.395 61.538 61.316 63.881 64.923 63.227 64.472 62.637 62.499 62.782 63.005 63.301 63.508 63.741 64.002 64.267 64.515 64.775 65.032 65.285 65.519 65.762 66.004 66.245 66.459 66.697
33.085 33.202 33.34 33.417 33.56 33.647 33.762 33.865 33.982 34.087 34.192 34.3 34.435 34.737 36.1 35.812 35.1 35.17 35.297 35.395 35.435 35.532 35.62 35.717 35.815 35.885 35.997 36.097 36.217 36.322 36.415 36.507 36.605 36.7 36.795 36.875 36.945 37.062 37.145 37.247 37.327 37.445 37.535 37.655 37.737 37.812 37.927 38.025 38.112 38.21 38.317 38.43 38.542 38.675 38.78 38.897 39.005 39.12 39.23 39.35 39.46 39.567 39.697 39.815 39.912 40.057 40.212 40.342 40.472 40.605 40.727 40.845 40.995 41.127 41.25 41.392 41.545 41.7 41.847 41.972 42.11 42.25 42.372 42.52 42.652 42.802 42.945 43.077 43.227 43.357 43.5 43.635 43.79 43.928 44.053 44.215 44.365 44.495 44.615 44.715 44.803 44.943 45.065 45.173 45.245 45.363 45.45 45.568 45.633 45.73 45.818 45.893 45.94 45.998 46.048 46.083 46.123 46.2 46.283 46.328 46.325 46.358 46.375 46.39 46.405 46.445 46.458 46.488 46.523 46.538 46.553 46.555 46.545 46.558 46.55 46.525 46.513 46.495 46.445 46.435 46.396 46.382 46.324 46.278 46.255 46.196 46.139 46.109 46.045 45.977 45.973 45.92 45.856 45.782 45.747 45.703 45.659 45.632 45.587 45.56 45.494 45.452 45.405 45.364 45.338 45.3 45.269 45.244 45.2 45.174 45.161 45.159 45.14 45.144 45.142 45.126 45.13 45.128 45.111 45.088 45.061 45 44.979 44.92 44.875 44.828 44.804 44.782 44.78 44.771 44.755 44.779 44.831 45.064 46.342 45.693 45.198 46.378 46.125 45.878 45.603 45.718 45.8 45.905 45.998 46.158 46.268 46.355 46.385 46.388 46.39 46.368 46.408 46.408 46.443 46.445 46.528 46.58 46.63 46.688 46.693 46.753 46.725 46.625 46.66 46.778 46.823 46.85 46.813 46.743 46.703 46.683 46.693 46.715 46.763 46.835 46.755 46.8 46.765 46.843 46.923 47.225 49.535 47.12 47.183 47.285 47.115 47.053 47.093 47.725 47.248 46.743 46.525 46.435 46.293 46.203 46.11 46.043 45.968 45.93 45.84 45.813 45.778 45.775 45.778 45.778 45.658 45.615 45.62 45.615 45.598 45.508 45.405 45.388 45.525 45.683 46.193 48.858 50.188 48.628 46.498 48.355 48.883 50.103 50.283 47.945 48.513 48.79 47.068 47.888 48.348 47.978 48.13 48.945 51.33 48.123 47.71 48.58 49.294 48.39 49.219 52.72 56.966 55.516 50.104 48.264 47.692 47.611 47.532 47.327 55.328 56.464 54.167 52.355 51.059 47.627 46.717 46.776 46.871 47.034 47.599 48.244 47.747 47.754 47.581 47.547 47.508 48.873 49.33 47.995 48.35 47.258 47.31 47.31 47.48 47.523 47.758 48.093 50.96 49.105 48.01 48.01 47.953 47.906 47.921 48.028 48.096 48.168 48.231 48.346 48.426 48.528 48.606 48.636 48.711 48.756 48.801 48.851 48.938 49.026 49.136 49.293 49.406 49.518 49.678 50.046 50.538 50.013 50.171 50.371 50.566 50.736 50.911 51.093 51.308 51.506 51.676 51.886 52.348 53.638 53.486 52.871 53.361 54.821 54.861 53.808 54.601 55.803 55.153 55.171 57.051 57.731 57.101 57.638 57.173 59.311 59.023 58.416 59.373 57.708 57.181 57.393 57.588 58.145 58.332 58.431 58.763 58.632 58.954 59.511 59.701 59.763 60.024 60.323 61.459 62.73 64.175 69.539 71.146 71.864 70.362 67.452 63.819 62.939 63.246 63.514 63.743 63.969 64.168 64.362 64.601 64.843 65.09 65.32 65.564 65.817 66.064 66.294 66.514 66.75
33.132 33.242 33.357 33.432 33.557 33.677 33.782 33.897 34.035 34.137 34.235 34.345 34.472 34.925 35.887 35.48 35.16 35.227 35.345 35.44 35.485 35.57 35.655 35.735 35.847 35.932 36.042 36.155 36.235 36.352 36.427 36.532 36.64 36.717 36.817 36.905 36.99 37.08 37.185 37.265 37.382 37.495 37.585 37.665 37.802 37.877 37.967 38.055 38.135 38.265 38.372 38.48 38.582 38.692 38.815 38.935 39.072 39.165 39.292 39.41 39.527 39.63 39.755 39.867 39.992 40.12 40.255 40.39 40.545 40.672 40.81 40.952 41.085 41.227 41.37 41.515 41.655 41.822 41.945 42.057 42.217 42.347 42.47 42.615 42.762 42.89 43.025 43.175 43.325 43.46 43.59 43.74 43.893 44.028 44.15 44.303 44.435 44.578 44.698 44.815 44.913 45.045 45.165 45.255 45.358 45.448 45.563 45.628 45.728 45.8 45.913 45.983 46.053 46.098 46.14 46.19 46.265 46.313 46.37 46.41 46.418 46.438 46.46 46.475 46.508 46.528 46.56 46.59 46.613 46.63 46.643 46.64 46.64 46.615 46.613 46.61 46.591 46.547 46.535 46.512 46.466 46.442 46.401 46.354 46.293 46.251 46.216 46.171 46.111 46.069 46.016 45.982 45.915 45.849 45.819 45.758 45.72 45.701 45.653 45.631 45.577 45.541 45.484 45.439 45.408 45.37 45.333 45.298 45.27 45.245 45.246 45.254 45.242 45.219 45.244 45.23 45.214 45.205 45.179 45.158 45.135 45.074 45.035 44.99 44.978 44.91 44.898 44.898 44.928 44.915 44.852 44.893 44.953 45.275 46.578 45.768 45.235 46.135 46.553 45.78 45.775 45.85 45.963 46.103 46.245 46.398 46.515 46.628 46.603 46.6 46.548 46.503 46.468 46.483 46.508 46.538 46.573 46.623 46.708 46.79 46.833 46.918 46.943 46.835 46.97 47.403 48.59 46.98 46.93 46.878 46.885 46.835 46.843 46.875 46.873 46.83 46.87 47.043 46.978 47.008 47.098 47.138 47.203 47.363 47.5 47.458 47.348 47.238 47.24 47.218 47.023 47.508 47.115 46.683 46.47 46.358 46.303 46.19 46.098 46.04 46.263 45.845 45.86 45.95 46.29 47.29 45.915 45.718 45.745 45.775 45.723 45.635 45.538 45.543 45.683 45.813 46.125 48.458 49.263 46.733 45.848 46.903 46.82 47.895 48.06 46.8 47.215 47.288 47.965 48.658 48.848 48.313 48.105 48.42 50.573 48.993 48.293 48.468 49.624 48.495 50.19 53.585 53.906 54.042 48.701 47.918 47.867 47.813 47.958 49.907 59.488 59.196 56.908 55.115 56.213 49.727 46.856 46.918 46.974 46.97 47.07 47.184 47.433 47.793 47.888 48.019 48.075 48.19 47.78 51.073 50.928 47.578 47.568 48.345 48.188 47.618 47.695 49.803 50.86 49.138 48.045 48.078 48.106 48.063 48.053 48.156 48.281 48.358 48.413 48.486 48.563 48.613 48.673 48.716 48.776 48.858 48.921 48.991 49.088 49.196 49.326 49.441 49.611 49.701 49.861 50.298 50.083 50.193 50.303 50.511 50.703 50.881 51.073 51.258 51.456 51.656 51.851 52.028 52.246 52.408 52.841 53.318 53.633 54.653 54.103 53.831 54.343 55.098 55.008 55.783 57.788 57.493 56.786 57.463 56.593 56.531 57.021 60.538 59.841 57.433 57.298 57.488 57.915 58.634 58.235 58.32 58.45 58.669 59.115 59.503 59.589 59.812 60.095 61.31 61.895 62.632 67.75 73.115 75.691 74.848 78.815 74.036 67.342 63.466 63.428 63.675 63.919 64.138 64.368 64.554 64.762 64.991 65.225 65.456 65.714 65.953 66.184 66.394 66.589 66.822
33.187 33.277 33.375 33.485 33.595 33.715 33.83 33.94 34.06 34.19 34.247 34.367 34.487 35.022 36.305 35.39 35.205 35.27 35.4 35.485 35.527 35.612 35.702 35.782 35.857 35.977 36.085 36.18 36.275 36.39 36.482 36.57 36.65 36.747 36.86 36.935 37.027 37.117 37.212 37.31 37.42 37.5 37.605 37.685 37.797 37.895 38 38.102 38.185 38.307 38.417 38.525 38.64 38.76 38.89 39.012 39.122 39.227 39.365 39.5 39.597 39.705 39.822 39.925 40.062 40.217 40.37 40.48 40.597 40.745 40.885 41.05 41.195 41.307 41.45 41.61 41.735 41.86 42 42.12 42.272 42.405 42.547 42.72 42.84 42.985 43.122 43.275 43.422 43.54 43.667 43.825 43.98 44.123 44.25 44.405 44.533 44.648 44.773 44.9 45.033 45.15 45.245 45.353 45.463 45.55 45.643 45.72 45.823 45.92 45.988 46.088 46.148 46.183 46.225 46.275 46.353 46.415 46.465 46.49 46.513 46.533 46.563 46.58 46.605 46.623 46.643 46.658 46.68 46.705 46.708 46.72 46.732 46.72 46.701 46.691 46.656 46.634 46.618 46.584 46.562 46.498 46.466 46.407 46.365 46.32 46.275 46.232 46.178 46.124 46.074 46.026 45.973 45.918 45.866 45.842 45.804 45.751 45.712 45.695 45.635 45.593 45.552 45.506 45.485 45.447 45.418 45.381 45.339 45.342 45.334 45.329 45.334 45.314 45.316 45.322 45.303 45.292 45.263 45.278 45.233 45.17 45.142 45.105 45.059 45.045 45.016 45.03 45.053 45.035 45.01 45.068 45.125 46.138 46.655 45.88 45.795 46.578 45.985 45.863 45.965 46.043 46.15 46.283 46.433 46.635 46.753 46.843 46.825 46.875 46.73 46.59 46.5 46.558 46.58 46.573 46.61 46.66 46.715 46.83 46.883 46.963 47.12 47.08 47.09 47.483 48.678 47.195 47.05 46.983 46.985 47.005 46.985 46.975 47.013 47 47.008 47.093 47.163 47.198 47.228 47.253 47.34 47.573 47.553 47.53 47.59 47.405 47.4 47.43 49.523 48.565 47.375 47.003 46.658 46.593 46.56 46.445 46.603 46.88 47.695 46.105 46.06 46.175 46.045 46.74 46.04 45.87 45.85 45.87 45.815 45.685 45.66 45.768 45.905 46.025 46.12 46.723 46.848 46.498 46.93 47 45.775 46.445 48.135 47.678 47.29 48.5 48.735 48.293 48.58 48.713 48.18 48.77 50.353 49.428 48.253 48.207 49.567 49.784 49.809 56.247 49.676 50.323 47.935 48.204 48.04 47.978 48.814 50.606 55.969 57.087 57.173 52.186 50.775 50.779 47.921 48.485 47.017 47.032 47.124 47.125 47.184 47.201 47.314 47.523 47.938 49.698 50.013 55.02 53.893 48.725 48.35 50.815 48.523 48.628 48.528 50.168 51.148 51.868 48.57 48.223 48.216 48.193 48.178 48.268 48.366 48.436 48.488 48.568 48.646 48.723 48.773 48.823 48.866 48.921 49.006 49.113 49.213 49.353 49.491 49.651 49.793 49.961 50.001 50.196 50.331 50.453 50.536 50.681 50.861 51.018 51.186 51.381 51.586 51.796 51.988 52.173 52.361 52.543 52.741 52.911 53.193 53.503 53.823 53.891 54.208 55.058 55.211 55.428 56.263 56.126 57.306 59.556 57.703 56.553 56.698 57.993 58.491 57.321 57.376 57.633 58.026 58.665 58.373 58.444 59.4 60.354 59.506 59.497 59.631 59.842 60.111 61.443 62.153 66.995 74.377 75.547 75.893 77.905 75.994 76.491 73.251 66.471 63.576 63.775 63.986 64.175 64.408 64.627 64.877 65.117 65.34 65.598 65.84 66.079 66.317 66.549 66.752 66.971
33.205 33.295 33.407 33.487 33.597 33.742 33.877 33.977 34.112 34.205 34.297 34.42 34.547 35.24 36.492 35.442 35.217 35.297 35.437 35.5 35.565 35.645 35.735 35.802 35.897 35.995 36.09 36.212 36.302 36.4 36.5 36.585 36.695 36.792 36.87 36.975 37.052 37.15 37.26 37.375 37.432 37.532 37.635 37.725 37.845 37.955 38.037 38.13 38.212 38.335 38.452 38.577 38.687 38.82 38.92 39.042 39.165 39.295 39.422 39.552 39.667 39.79 39.92 40.002 40.127 40.277 40.417 40.547 40.695 40.845 40.972 41.127 41.262 41.39 41.522 41.682 41.812 41.952 42.075 42.2 42.337 42.47 42.615 42.767 42.932 43.095 43.24 43.367 43.495 43.635 43.762 43.9 44.06 44.195 44.335 44.47 44.6 44.748 44.88 45.018 45.135 45.235 45.363 45.438 45.528 45.63 45.705 45.813 45.923 46.005 46.073 46.175 46.24 46.28 46.33 46.365 46.418 46.508 46.56 46.59 46.62 46.62 46.668 46.678 46.693 46.713 46.73 46.743 46.764 46.776 46.77 46.778 46.785 46.789 46.773 46.759 46.741 46.723 46.688 46.643 46.612 46.568 46.533 46.489 46.432 46.394 46.335 46.273 46.218 46.178 46.128 46.064 46.028 45.968 45.936 45.889 45.854 45.825 45.812 45.742 45.703 45.651 45.608 45.578 45.547 45.522 45.503 45.452 45.428 45.439 45.415 45.408 45.429 45.396 45.421 45.416 45.413 45.405 45.363 45.33 45.316 45.271 45.216 45.148 45.158 45.13 45.143 45.15 45.178 45.16 45.165 45.235 45.293 46.065 46.658 45.578 45.85 46.943 46.26 46.018 46.093 46.213 46.335 46.465 46.648 46.82 46.93 47.018 47.063 48.02 47.063 46.753 46.57 46.62 46.613 46.618 46.653 46.703 46.765 46.853 46.908 46.975 47.093 47.195 47.068 47.105 47.15 47.183 47.173 47.113 47.118 47.083 47.083 47.093 47.178 47.158 47.215 47.295 47.28 47.3 47.38 47.385 47.555 47.745 47.638 47.638 47.605 47.538 47.535 47.62 49.165 47.803 47.368 46.963 46.848 46.798 46.678 46.583 46.908 46.455 47.25 46.295 46.013 45.85 45.9 45.908 45.948 45.99 45.945 45.878 45.798 45.788 45.87 46.003 46.148 46.22 46.285 46.68 46.855 46.72 47.393 47.273 45.855 47.735 48.74 48.19 48.145 50.063 49.34 48.648 48.655 49.483 49.715 51.33 56.275 49.233 53.83 50.935 49.9 50.388 53.286 49.172 50.692 52.958 51.012 48.324 47.958 48.07 48.146 50.148 51.386 51.283 52.391 49.157 48.715 50.442 50.303 49.94 47.624 47.198 47.122 47.205 47.289 47.292 47.341 47.405 47.463 47.603 48.793 52.348 52.78 52.175 50.5 52.368 52.848 48.958 48.813 48.638 52.945 53.648 51.823 48.29 48.326 48.303 48.261 48.351 48.438 48.508 48.571 48.641 48.713 48.763 48.818 48.873 48.953 48.993 49.123 49.231 49.341 49.478 49.636 49.808 49.981 50.083 50.216 50.323 50.446 50.576 50.718 50.863 51.021 51.141 51.333 51.538 51.763 51.978 52.136 52.341 52.503 52.676 52.876 53.073 53.296 53.563 53.931 54.058 54.328 55.148 55.333 55.446 55.553 55.786 59.036 57.376 57.218 57.048 57.043 58.358 58.166 57.378 57.511 57.763 58.605 58.532 58.45 58.508 58.752 59.083 59.421 59.674 59.61 59.905 60.102 61.235 63.512 68.966 73.576 75.12 75.636 76.545 76.685 76.548 71.423 70.8 64.34 63.751 63.97 64.174 64.425 64.656 64.921 65.191 65.445 65.697 65.955 66.19 66.432 66.656 66.877 67.096
