ncols 433
nrows 31
xllcorner    457072
yllcorner    92584
cellsize     2
NODATA_value -9999
18.484 18.562 18.839 18.722 18.882 18.882 21.912 21.462 21.719 24.577 24.779 25.387 24.894 24.522 20.644 18.659 19.739 20.199 22.172 21.564 21.562 22.264 18.414 18.484 18.514 18.469 18.504 18.477 18.492 18.469 18.474 19.207 20.562 20.812 22.427 19.374 18.787 18.439 18.534 18.557 18.549 18.567 18.684 18.544 18.549 18.609 18.704 18.634 18.654 18.682 18.697 18.734 18.799 19.199 19.084 18.967 18.942 19.639 19.207 19.024 19.097 21.817 28.039 32.257 35.064 33.378 27.434 24.425 23.1 21.159 19.58 19.952 22.214 24.313 22.171 21.618 21.656 20.503 20.271 20.219 20.195 20.244 20.256 20.298 20.316 20.334 20.373 20.432 20.467 20.464 20.492 20.567 20.659 20.742 20.842 20.834 20.849 20.914 21.049 21.394 21.909 21.599 21.547 22.014 21.312 21.482 21.402 21.427 21.312 21.444 21.509 21.397 21.489 22.452 21.554 21.519 21.629 21.632 21.798 21.713 21.587 21.419 21.337 21.534 21.264 20.847 19.905 19.275 18.554 18.508 19.845 19.78 19.301 19.078 18.977 19.024 19.224 19.339 19.394 19.302 19.169 19.004 19.054 18.972 19.134 19.144 19.054 19.269 18.952 18.737 18.947 19.259 18.907 18.592 18.332 19.844 18.527 19.962 21.002 21.952 21.944 21.877 22.279 22.152 23.404 23.459 22.679 22.124 22.136 22.114 23.799 24.296 23.826 24.849 24.806 25.351 25.804 26.526 26.734 26.069 24.254 25.801 25.961 26.099 23.679 22.559 22.709 24.156 24.406 22.821 22.614 23.344 26.444 27.169 26.854 26.474 28.099 31.146 32.684 28.814 25.559 25.869 28.124 27.036 26.149 26.581 26.456 26.221 26.031 25.239 25.346 24.836 24.654 24.146 24.281 24.599 24.019 22.951 22.641 22.856 23.089 22.646 24.114 25.464 23.524 22.154 22.129 23.866 24.076 22.839 23.836 24.109 22.459 21.934 21.949 21.909 21.916 21.894 21.949 21.936 22.024 27.904 30.289 30.219 28.961 24.544 21.964 21.894 21.871 21.859 23.154 23.586 22.179 22.056 22.014 21.539 20.776 20.654 20.534 20.174 19.914 19.781 19.769 19.809 19.536 19.446 19.351 19.234 19.149 19.089 19.024 18.934 18.859 18.809 18.746 18.726 18.626 18.534 18.504 18.314 17.799 17.139 16.454 15.861 15.264 14.674 14.106 13.414 12.811 12.454 12.449 12.594 12.839 13.159 13.416 13.656 13.886 14.139 14.344 14.471 14.449 14.444 14.324 14.229 14.251 14.349 14.326 14.221 14.134 14.004 13.981 13.936 13.904 13.926 13.936 13.909 13.794 13.614 13.379 13.041 12.409 11.771 11.074 10.379 9.831 9.379 8.954 8.644 8.419 8.199 7.971 7.714 7.336 6.989 6.699 6.469 6.241 6.016 5.809 5.956 5.286 6.909 5.769 8.511 12.244 4.916 4.981 5.326 6.186 5.584 5.989 6.356 6.679 6.961 7.186 7.381 7.619 7.871 8.169 8.529 8.994 9.434 9.874 10.276 10.791 11.474 12.044 12.376 12.701 12.974 13.261 13.526 13.734 13.964 14.254 14.549 14.769 14.949 15.026 15.134 15.246 15.309 15.354 15.419 15.479 15.589 15.784 16.069 16.381 16.566 16.826 16.959 16.984 16.924 16.874 16.844 17.151 16.671 16.671 16.684 16.606 17.466 16.956 16.754 16.924 17.129 17.329 17.606 17.836 17.966 18.056 18.056 18.151 18.289 18.321 18.376 18.419 18.399 18.484 18.506 18.561 18.624 18.676 18.771 18.911 19.101 19.289 19.464 19.761 20.066 20.461 20.759 21.089
18.627 18.654 18.674 19.092 18.814 18.669 18.929 18.792 20.247 24.689 23.669 24.264 25.642 23.789 19.442 19.479 19.894 21.469 22.364 21.802 20.982 19.877 18.529 18.672 18.632 18.514 18.512 18.552 18.597 18.594 18.544 18.812 19.542 20.399 20.492 20.339 18.714 18.604 18.844 18.757 18.712 18.689 18.657 18.592 18.622 18.674 18.717 18.692 18.694 18.724 18.754 18.807 18.822 18.959 19.034 19.049 18.997 19.454 21.529 19.784 19.144 22.737 30.942 32.234 35.209 33.252 29.537 25.331 21.039 19.603 19.735 20.684 25.254 25.204 23.606 23.304 22.673 21.375 20.418 20.334 20.255 20.267 20.288 20.3 20.318 20.355 20.403 20.447 20.499 20.503 20.507 20.502 20.607 20.669 20.762 20.817 20.862 21.032 21.264 21.634 21.372 21.592 23.574 22.742 21.474 21.312 21.834 21.352 21.432 21.389 22.582 22.189 24.422 26.042 22.842 21.799 21.547 22.424 24.425 21.758 21.557 21.822 21.778 21.409 21.39 21.751 20.356 18.634 18.36 19.973 19.723 18.925 19.128 19.181 19.077 19.127 19.269 19.399 19.392 19.344 19.172 19.019 19.059 18.922 19.292 19.574 19.289 19.144 19.069 18.384 18.339 18.777 19.392 19.559 19.354 19.217 19.562 21.059 21.589 22.209 22.169 22.082 22.079 22.712 23.924 24.119 22.366 22.106 22.109 22.429 23.899 24.169 24.231 24.939 25.371 25.416 25.414 25.491 25.601 24.824 24.294 23.874 24.814 25.334 22.894 22.519 22.531 22.554 23.566 22.609 22.606 23.161 24.676 23.886 23.804 24.866 27.256 27.196 28.971 31.621 28.031 26.571 29.534 23.621 24.166 27.556 27.599 27.519 27.374 26.626 24.894 23.876 23.871 23.821 24.424 24.419 23.484 22.656 22.606 23.206 23.039 22.639 22.359 22.156 22.251 22.101 23.091 24.781 24.806 24.346 22.916 24.281 23.139 21.974 21.911 21.916 21.934 21.916 21.806 22.491 25.416 25.621 29.806 29.844 28.156 22.439 22.006 21.969 22.181 22.264 22.766 23.661 24.844 24.696 24.326 23.436 20.844 20.641 20.486 20.174 19.946 19.819 19.641 19.499 19.466 19.421 19.316 19.199 19.114 19.044 18.996 18.926 18.829 18.791 18.734 18.681 18.629 18.529 18.534 18.389 17.964 17.394 16.759 16.189 15.571 15.009 14.409 13.794 13.126 12.636 12.366 12.479 12.726 13.036 13.334 13.576 13.796 14.046 14.346 14.539 14.521 14.496 14.374 14.291 14.311 14.384 14.404 14.294 14.226 14.156 14.086 14.039 14.036 14.026 14.019 13.949 13.889 13.726 13.464 13.141 12.556 11.911 11.206 10.499 9.921 9.459 9.026 8.694 8.474 8.251 8.064 7.759 7.419 7.061 6.794 6.524 6.264 6.069 5.811 5.566 5.299 4.979 5.349 8.914 8.134 5.031 5.256 6.659 5.549 5.646 5.991 6.326 6.651 6.961 7.199 7.401 7.614 7.919 8.201 8.564 9.056 9.461 9.876 10.364 10.994 11.584 12.151 12.471 12.821 13.091 13.346 13.591 13.829 14.069 14.326 14.646 14.799 14.936 15.039 15.141 15.261 15.339 15.351 15.396 15.464 15.541 15.761 16.076 16.359 16.639 16.899 16.996 17.016 16.999 16.974 16.901 17.484 16.951 16.754 16.726 16.691 16.779 17.019 16.921 17.129 17.374 17.624 17.836 18.031 18.094 18.164 18.179 18.204 18.264 18.314 18.319 18.344 18.399 18.459 18.494 18.541 18.576 18.664 18.784 18.931 19.156 19.384 19.554 19.881 20.196 20.491 20.844 21.134
18.632 18.782 18.669 19.067 18.932 19.162 19.909 19.222 24.737 25.412 24.144 23.929 24.959 21.862 19.479 21.487 20.847 24.384 24.419 22.474 20.652 18.554 18.662 18.647 18.574 18.724 21.417 19.599 18.592 18.592 18.589 18.632 18.652 19.059 19.972 19.379 18.772 18.674 18.902 18.847 18.694 18.779 18.689 18.687 18.747 18.719 18.767 18.764 18.767 18.789 18.829 18.847 18.949 18.979 19.002 19.027 19.142 20.584 21.069 19.629 19.212 19.202 26.081 30.702 31.57 28.825 25.83 25.128 20.93 19.616 19.843 19.839 21.519 24.895 24.971 24.053 22.357 22.118 20.762 20.354 20.337 20.273 20.291 20.284 20.348 20.382 20.436 20.484 20.513 20.519 20.521 20.522 20.592 20.654 20.744 20.832 21.079 21.354 21.372 21.397 21.387 21.572 21.259 21.992 22.282 21.834 21.947 21.417 21.544 21.437 21.477 22.607 24.122 27.769 29.917 22.867 21.629 21.649 25.683 23.169 22.004 21.501 21.646 21.887 23.236 24.076 19.558 18.334 18.485 19.509 19.246 19.237 19.853 19.524 19.282 19.224 20.714 22.742 20.672 19.422 19.134 19.029 18.939 19.107 19.982 20.009 19.662 19.184 18.792 18.037 18.614 19.742 21.927 22.147 21.502 20.917 21.882 22.964 21.929 22.294 22.439 22.364 22.527 24.554 23.284 23.036 22.116 22.136 22.161 22.941 24.074 23.339 23.766 24.924 25.559 24.721 24.744 25.049 25.129 25.069 24.886 24.696 23.726 23.606 23.324 23.809 22.564 25.621 23.804 22.564 22.819 24.151 25.221 25.581 23.411 23.894 23.881 25.526 28.829 32.889 25.611 25.506 24.824 24.531 25.081 26.729 27.051 27.864 27.851 26.686 24.871 23.449 23.344 23.219 23.376 22.946 22.754 22.606 22.526 22.914 22.689 22.979 23.006 22.121 22.066 22.041 22.654 24.559 24.751 24.001 22.519 24.039 23.934 22.176 21.926 22.166 22.764 22.286 24.526 27.864 27.886 26.594 25.241 24.764 24.049 22.051 22.001 21.959 22.024 22.289 22.191 23.876 25.291 23.929 23.764 24.016 23.786 20.694 20.504 20.159 19.921 20.554 20.026 19.549 19.489 19.414 19.264 19.194 19.069 19.004 18.976 18.884 18.804 18.724 18.721 18.709 18.644 18.594 18.529 18.429 18.109 17.699 17.144 16.441 15.854 15.304 14.649 14.124 13.456 12.879 12.476 12.476 12.631 12.919 13.181 13.499 13.674 13.986 14.314 14.524 14.584 14.541 14.399 14.384 14.369 14.424 14.434 14.336 14.339 14.256 14.216 14.211 14.201 14.146 14.109 14.059 13.994 13.811 13.559 13.236 12.771 12.041 11.354 10.666 10.041 9.609 9.186 8.836 8.521 8.349 8.166 7.871 7.506 7.191 6.891 6.629 6.349 6.109 5.851 5.644 5.984 5.041 4.886 6.914 7.879 5.069 5.161 5.296 6.571 6.439 6.119 6.361 6.674 6.941 7.171 7.419 7.646 7.914 8.209 8.626 9.089 9.546 9.944 10.529 11.179 11.739 12.279 12.591 12.896 13.171 13.419 13.634 13.886 14.126 14.409 14.696 14.871 14.964 15.054 15.176 15.264 15.306 15.384 15.421 15.466 15.489 15.761 16.119 16.401 16.684 16.971 17.079 17.066 17.094 17.079 16.984 16.931 16.914 16.856 16.774 16.734 16.841 16.954 17.069 17.319 17.611 17.789 17.996 18.119 18.181 18.239 18.326 18.289 18.274 18.261 18.239 18.294 18.341 18.371 18.396 18.416 18.486 18.571 18.711 18.914 19.176 19.446 19.684 20.029 20.269 20.579 20.929 21.169
20.627 18.657 18.972 21.282 20.279 18.927 18.887 20.099 24.939 27.274 26.032 27.117 25.444 21.034 21.374 25.062 21.519 22.169 22.532 23.114 22.054 18.564 18.752 18.677 18.669 18.947 21.649 18.907 18.672 18.592 18.564 18.639 18.714 18.732 18.704 18.682 18.689 18.749 18.759 18.749 18.759 18.797 18.772 18.754 18.759 18.784 18.904 19.407 18.859 18.947 19.409 19.072 19.509 19.274 19.184 19.329 19.392 20.112 19.374 19.312 19.299 19.312 19.407 20.964 20.546 20.697 21.914 22.786 20.74 19.806 20.105 20.118 20.051 23.501 23.89 25.523 24.682 23.373 20.516 20.489 20.443 20.352 20.317 20.338 20.391 20.423 20.471 20.482 20.519 20.56 20.541 20.555 20.587 20.762 20.859 21.142 21.382 21.454 21.449 21.329 21.214 23.309 22.437 21.544 22.444 22.437 21.602 21.324 21.382 21.407 21.519 21.592 24.237 24.469 22.372 21.557 21.684 21.556 21.637 21.831 21.16 21.152 21.919 22.136 22.86 22.72 20.629 18.414 18.899 19.39 18.901 19.29 20.163 20.032 19.452 19.369 19.669 22.174 21.757 19.407 19.214 19.064 19.024 19.417 20.247 20.307 20.479 20.307 19.234 19.642 21.239 21.522 22.869 23.064 22.727 24.292 25.152 26.872 22.917 23.212 24.674 22.539 23.077 23.802 23.764 22.744 22.131 22.109 22.811 23.636 23.711 22.584 22.749 23.911 24.511 24.484 22.706 24.124 25.201 24.904 24.631 24.739 24.929 24.924 25.091 26.886 29.441 28.701 23.519 22.661 23.989 25.441 26.144 27.509 25.291 22.559 23.164 27.041 27.879 27.486 24.771 25.646 23.576 24.404 25.959 25.826 26.599 28.009 28.791 28.096 26.229 23.566 22.884 22.731 22.746 22.699 22.694 22.556 22.481 22.554 22.349 22.334 22.281 22.051 22.211 21.986 22.159 23.254 22.579 22.041 22.926 23.641 24.244 23.106 21.956 21.999 22.411 23.919 27.144 29.149 29.019 27.801 25.684 21.916 21.986 21.999 21.986 21.954 21.941 21.886 22.441 23.774 22.326 21.171 21.181 21.424 21.339 20.699 20.531 20.249 22.499 21.261 21.526 19.584 19.626 19.726 19.964 20.436 19.094 19.819 18.949 18.874 18.804 18.719 18.654 18.681 18.641 18.591 18.514 18.454 18.276 17.879 17.339 16.701 16.084 15.516 14.954 14.414 13.814 13.224 12.701 12.531 12.566 12.839 13.096 13.369 13.649 13.966 14.254 14.521 14.624 14.536 14.406 14.409 14.451 14.476 14.449 14.386 14.396 14.329 14.304 14.309 14.374 14.309 14.226 14.116 14.026 13.919 13.664 13.344 12.876 12.141 11.516 10.824 10.211 9.756 9.319 8.951 8.671 8.441 8.214 7.931 7.614 7.291 6.966 6.684 6.431 6.194 5.954 7.271 5.989 5.321 7.629 11.911 5.091 5.051 5.184 5.564 5.426 5.584 6.381 8.324 6.824 6.961 7.191 7.386 7.631 7.884 8.194 8.659 9.131 9.566 10.046 10.701 11.316 11.836 12.374 12.684 13.004 13.284 13.529 13.741 13.989 14.219 14.496 14.711 14.874 14.964 15.059 15.189 15.234 15.294 15.351 15.429 15.479 15.526 15.804 16.214 16.484 16.751 17.039 17.154 17.156 17.166 17.134 17.076 17.011 16.984 16.959 16.859 16.841 16.969 17.079 17.244 17.544 17.749 17.936 18.054 18.171 18.256 18.286 18.316 18.271 18.276 18.234 18.226 18.271 18.299 18.296 18.294 18.341 18.401 18.504 18.599 18.794 19.091 19.396 19.771 20.084 20.374 20.649 20.949 21.224
21.294 18.752 18.784 20.077 20.032 19.007 19.319 21.127 24.167 28.664 29.624 28.434 26.487 20.542 21.032 27.912 27.532 24.712 21.767 22.529 21.709 18.672 18.799 18.794 18.837 23.912 24.382 20.204 18.732 18.727 18.659 18.664 18.684 18.739 18.804 18.804 18.787 18.804 18.797 18.804 18.834 18.854 18.882 18.859 18.877 18.912 18.997 19.249 19.252 19.044 19.224 19.192 20.257 21.219 20.224 20.179 19.302 19.367 19.534 19.88 19.696 19.562 19.349 19.357 20.019 20.337 19.688 19.742 20.553 20.04 20.696 21.846 20.397 24.623 28.684 26.946 25.428 23.715 20.436 20.531 20.534 20.394 20.345 20.374 20.41 20.447 20.495 20.521 20.548 20.581 20.571 20.657 20.869 21.134 20.899 21.077 21.147 21.619 21.184 21.659 22.309 22.869 23.497 22.384 22.434 22.244 22.367 21.267 21.342 21.467 21.507 21.564 21.774 21.739 21.409 21.522 21.694 21.751 21.623 21.398 21.058 21.82 22.602 22.768 22.609 20.979 19.675 19.441 18.484 18.369 18.473 19.141 19.974 19.979 19.549 19.502 19.492 19.534 20.674 19.369 19.369 19.254 19.224 19.457 19.764 20.327 20.782 20.597 19.912 21.594 22.537 23.299 23.207 23.009 23.117 24.542 27.289 26.184 22.702 25.882 23.079 22.634 22.732 23.294 23.204 22.181 22.146 22.116 23.046 23.564 23.054 22.581 22.716 23.369 23.806 23.304 22.426 25.164 26.331 26.079 25.784 24.809 24.264 24.316 23.944 24.459 29.159 32.156 29.631 23.791 23.559 25.444 26.649 29.131 28.461 25.299 22.659 23.996 27.296 25.586 23.464 23.656 22.934 23.744 25.686 25.741 26.694 28.136 28.994 27.991 26.556 23.126 22.771 22.746 22.701 22.669 22.836 22.766 22.411 22.816 22.939 23.294 22.481 22.059 23.644 22.816 21.831 21.804 21.811 21.831 21.831 22.399 24.074 23.464 22.116 21.954 23.306 25.406 26.829 28.186 29.334 28.719 27.369 23.609 21.986 21.979 22.029 21.924 21.981 23.111 22.294 23.854 22.831 21.324 21.241 21.116 20.994 21.264 20.764 21.961 20.369 22.774 21.511 19.564 19.754 21.274 22.316 20.261 19.029 19.056 18.889 18.829 18.764 18.694 18.631 18.609 18.606 18.576 18.539 18.519 18.431 18.061 17.579 16.841 16.299 15.749 15.214 14.584 14.081 13.599 13.081 12.691 12.641 12.766 13.029 13.329 13.604 13.936 14.241 14.489 14.604 14.551 14.454 14.501 14.516 14.459 14.454 14.416 14.469 14.421 14.386 14.449 14.474 14.414 14.266 14.201 14.134 14.034 13.791 13.479 13.031 12.276 11.696 10.981 10.356 9.899 9.454 9.064 8.766 8.564 8.314 8.031 7.741 7.446 7.134 6.826 6.519 6.269 6.024 5.836 6.126 5.174 6.191 9.479 6.281 6.896 5.221 5.609 5.836 5.621 5.889 6.796 6.614 6.921 7.179 7.381 7.626 7.886 8.249 8.724 9.141 9.624 10.234 10.809 11.381 11.954 12.444 12.809 13.126 13.384 13.631 13.824 14.019 14.291 14.506 14.659 14.829 14.944 15.104 15.189 15.279 15.299 15.326 15.399 15.444 15.636 15.859 16.251 16.539 16.831 17.109 17.179 17.194 17.236 17.254 17.206 17.126 17.046 17.074 16.989 17.016 17.146 17.346 17.531 17.749 17.881 17.996 18.106 18.206 18.279 18.296 18.264 18.239 18.209 18.166 18.186 18.194 18.269 18.301 18.326 18.344 18.429 18.476 18.544 18.699 18.966 19.266 19.616 19.984 20.391 20.724 21.009 21.271
19.349 18.689 18.697 19.492 18.899 19.292 19.734 19.764 20.792 25.132 30.639 30.174 26.417 20.057 22.532 28.552 28.772 24.669 21.172 22.337 20.604 18.754 18.879 18.859 18.887 21.862 24.917 22.212 18.824 18.809 18.732 18.757 18.737 18.729 18.754 18.822 18.917 18.934 18.929 18.919 18.947 19.012 19.062 19.022 18.994 19.149 19.419 19.232 19.124 19.304 21.082 19.982 23.994 25.937 24.589 21.657 19.424 19.607 19.509 19.624 19.846 20.032 19.483 19.382 20.012 20.41 20.019 19.686 19.704 19.974 20.97 22.82 22.208 25.207 26.775 27.785 26.412 24.958 20.483 20.599 20.534 20.396 20.358 20.393 20.446 20.489 20.492 20.559 20.627 20.782 20.98 21.349 21.167 21.094 21.397 21.492 21.634 21.957 22.049 22.112 22.449 22.522 24.052 24.084 21.392 21.332 21.417 21.322 21.504 21.597 21.662 21.839 21.412 21.637 21.244 21.289 21.632 21.768 21.711 21.48 21.536 21.944 22.223 22.615 22.754 21.286 20.303 20.027 18.483 18.839 19.245 20.208 20.592 20.177 19.602 19.624 19.637 19.484 19.452 19.422 19.474 19.482 19.407 19.472 19.494 19.652 19.972 20.219 20.784 21.747 22.574 23.392 23.127 22.722 22.557 22.249 22.932 23.297 22.947 22.699 22.464 22.824 23.367 23.747 22.729 22.119 22.124 22.271 23.449 24.051 22.671 22.629 22.574 22.636 22.901 22.536 22.956 26.079 26.834 26.949 26.921 27.279 27.329 25.874 23.531 22.769 22.816 24.389 23.724 23.856 24.759 25.069 24.471 24.809 26.011 26.171 23.441 23.839 29.951 26.079 23.031 23.069 23.326 23.146 23.236 25.564 27.006 28.369 29.159 27.949 26.409 23.696 23.161 22.986 22.674 22.789 24.451 25.061 22.461 23.376 24.609 24.956 23.261 23.161 24.079 23.311 21.896 22.896 22.999 21.809 22.414 23.161 24.276 24.589 22.511 21.934 22.476 26.189 27.874 28.769 28.884 29.426 26.774 24.001 22.171 22.924 25.496 23.859 22.056 23.356 22.659 23.926 22.214 21.476 21.334 21.219 21.074 21.064 20.796 20.731 21.384 21.864 20.736 19.571 19.479 21.964 22.771 19.039 20.674 18.934 18.854 18.759 20.309 18.689 18.631 18.596 18.594 18.569 18.519 18.509 18.381 18.126 17.691 16.996 16.384 15.946 15.459 14.859 14.419 13.959 13.461 12.931 12.736 12.756 12.986 13.301 13.594 13.901 14.219 14.416 14.624 14.644 14.576 14.586 14.584 14.539 14.539 14.491 14.554 14.611 14.591 14.591 14.604 14.476 14.361 14.309 14.264 14.129 13.896 13.574 13.114 12.459 11.896 11.139 10.514 10.046 9.596 9.231 8.861 8.674 8.434 8.151 7.851 7.621 7.309 6.959 6.644 6.366 6.121 5.911 5.976 5.326 8.101 14.804 9.821 7.399 7.076 5.294 5.411 5.566 6.546 8.761 7.924 6.944 7.174 7.381 7.621 7.881 8.279 8.714 9.169 9.714 10.314 10.899 11.469 12.004 12.509 12.899 13.234 13.466 13.669 13.901 14.121 14.344 14.546 14.679 14.809 14.976 15.134 15.264 15.306 15.341 15.359 15.436 15.594 15.794 15.991 16.339 16.629 16.969 17.126 17.199 17.284 17.324 17.364 17.319 17.276 17.206 17.186 17.124 17.266 17.454 17.631 17.741 17.841 17.921 18.049 18.146 18.239 18.254 18.269 18.189 18.141 18.154 18.151 18.166 18.206 18.286 18.396 18.454 18.509 18.511 18.511 18.554 18.666 18.876 19.109 19.426 19.819 20.344 20.729 20.994 21.299
18.699 20.732 20.597 23.737 25.047 20.014 19.482 19.217 20.904 22.534 31.194 31.034 23.037 18.997 19.744 22.457 25.639 27.707 25.944 24.069 19.827 18.967 19.092 19.902 18.947 18.939 18.919 18.914 18.954 18.872 18.842 18.852 18.824 18.777 18.799 18.849 19.292 19.062 19.014 19.024 19.004 19.087 19.092 19.089 19.107 19.982 20.974 19.414 19.337 19.244 19.904 20.689 24.944 27.284 28.974 25.142 20.924 20.487 19.922 19.779 20.289 19.581 19.507 19.523 19.528 19.641 19.663 19.737 21.246 22.262 25.841 23.759 21.398 22.48 24.279 23.806 25.84 25.746 20.852 20.382 20.506 20.414 20.427 20.421 20.447 20.494 20.581 20.74 21.144 21.333 21.516 21.835 21.092 21.767 21.389 21.989 21.344 21.634 24.229 22.957 22.997 21.964 21.487 23.374 22.039 21.269 21.309 21.409 22.159 21.864 21.867 21.464 21.032 21.022 20.749 20.922 21.252 21.712 21.824 22.996 22.333 22.759 22.682 22.834 21.871 21.309 20.289 19.989 20.015 20.048 20.636 21.605 21.534 19.639 19.524 19.664 19.717 19.587 19.434 19.437 19.564 19.639 19.509 19.427 19.467 19.484 19.592 20.147 21.279 21.964 22.679 22.922 22.852 22.402 22.054 22.019 22.849 23.229 22.979 23.317 22.569 23.877 24.252 23.937 22.974 22.119 22.119 22.219 22.794 24.366 23.006 22.961 22.841 22.589 22.454 22.909 24.151 24.906 25.726 25.959 26.529 27.524 27.001 25.706 24.819 23.319 23.046 24.206 22.796 23.256 22.836 23.249 23.919 24.726 24.929 24.441 26.064 26.744 27.144 28.221 23.394 23.391 23.834 23.206 23.256 25.384 27.201 28.174 28.476 27.636 26.429 23.639 24.316 23.256 22.784 24.166 25.356 24.231 22.341 22.894 25.309 25.459 23.999 24.066 22.499 25.041 26.081 28.089 26.714 22.934 22.129 22.409 23.186 23.739 23.586 22.139 23.051 25.464 28.494 28.419 27.116 27.529 24.599 24.486 22.779 23.319 24.641 25.574 22.599 23.124 23.179 22.104 21.649 21.534 21.436 21.319 21.166 20.909 20.606 20.224 20.351 21.794 20.316 19.551 19.516 19.359 22.041 20.486 23.326 18.844 18.756 18.769 19.189 19.014 18.631 18.619 18.604 18.551 18.509 18.466 18.394 18.206 17.801 17.134 16.516 16.136 15.621 15.131 14.716 14.266 13.794 13.224 12.881 12.819 12.951 13.219 13.526 13.846 14.151 14.434 14.631 14.694 14.634 14.666 14.669 14.654 14.629 14.579 14.651 14.711 14.714 14.749 14.701 14.571 14.456 14.424 14.344 14.186 13.981 13.669 13.271 12.614 12.046 11.321 10.644 10.159 9.734 9.374 9.014 8.799 8.594 8.296 7.986 7.746 7.446 7.124 6.806 6.496 6.209 6.506 7.291 5.706 11.276 12.674 10.234 7.156 7.134 5.319 9.519 6.014 6.536 7.016 7.289 6.934 7.191 7.404 7.649 7.899 8.281 8.679 9.169 9.794 10.404 10.971 11.501 12.096 12.616 12.974 13.294 13.559 13.761 13.981 14.189 14.421 14.571 14.726 14.874 15.041 15.204 15.336 15.376 15.436 15.486 15.591 15.696 15.829 16.136 16.434 16.731 17.029 17.176 17.256 17.354 17.426 17.429 17.394 17.341 17.304 17.279 17.294 17.481 17.661 17.741 17.816 17.894 17.996 18.079 18.184 18.211 18.216 18.286 18.194 18.161 18.166 18.194 18.259 18.316 18.381 18.536 18.609 18.614 18.601 18.561 18.561 18.636 18.836 19.089 19.401 19.749 20.241 20.764 21.091 21.336
19.012 19.062 21.372 24.449 29.437 21.174 19.029 20.414 20.952 23.012 27.264 26.364 22.329 19.302 19.107 24.167 25.449 31.944 30.282 28.804 20.587 19.089 19.177 19.509 19.107 18.999 18.967 18.909 19.009 18.944 18.897 18.969 18.914 18.864 18.839 18.909 18.962 19.042 19.084 19.122 19.569 19.114 19.134 19.147 19.184 20.474 20.964 19.744 19.364 19.332 20.322 20.079 23.219 23.342 23.914 21.172 20.402 20.389 19.857 20.067 20.52 19.868 20.048 20.478 19.694 19.587 20.289 21.704 23.119 25.853 26.341 23.455 20.592 20.58 21.631 24.019 27.43 26.299 23.241 20.371 20.433 20.483 20.541 20.524 20.56 20.557 20.637 20.841 21.275 21.111 21.374 22.347 20.937 24.554 22.832 23.214 21.692 21.322 22.564 21.929 21.702 21.222 21.164 21.219 21.194 21.362 21.559 21.502 21.792 21.739 21.462 21.029 20.692 20.207 19.947 19.929 20.59 21.109 21.657 23.805 22.865 22.78 22.23 21.804 22.063 21.557 21.691 21.527 20.542 19.544 20.416 21.124 20.442 19.527 19.547 19.734 19.992 19.634 19.517 19.452 19.537 19.539 19.492 19.422 19.442 19.619 20.172 21.322 21.979 22.427 22.919 22.864 22.652 22.377 22.252 22.087 22.354 27.032 23.947 23.419 23.592 24.739 24.059 24.124 22.661 22.101 22.169 22.549 22.629 22.404 22.496 22.614 22.754 22.896 22.559 22.444 23.314 23.201 23.886 25.351 26.541 27.634 26.714 25.466 24.971 23.854 23.054 23.251 23.651 25.509 25.726 23.176 22.621 23.639 24.111 22.791 26.409 26.144 27.401 25.801 23.811 24.789 24.544 24.399 24.756 25.904 26.721 27.066 27.239 27.316 25.889 22.954 23.584 24.179 24.411 25.506 25.394 23.974 22.311 22.991 25.791 25.541 22.559 22.361 21.956 25.351 27.339 28.529 26.694 22.746 22.089 21.786 22.119 22.831 24.291 22.371 22.589 23.671 25.349 26.851 25.206 24.579 24.056 24.166 24.084 23.306 24.239 25.164 24.696 24.461 24.319 24.241 21.759 21.561 21.501 21.371 21.164 20.901 20.554 20.201 19.946 19.834 19.671 19.521 19.446 19.306 19.194 19.306 19.009 18.886 18.744 21.639 19.831 18.654 18.654 18.601 18.571 18.514 18.486 18.414 18.346 18.194 17.799 17.186 16.594 16.156 15.756 15.321 14.966 14.481 14.016 13.439 13.059 12.919 12.964 13.181 13.446 13.749 14.121 14.384 14.636 14.736 14.749 14.756 14.754 14.716 14.701 14.669 14.651 14.736 14.799 14.806 14.786 14.704 14.586 14.534 14.416 14.264 14.076 13.799 13.431 12.774 12.149 11.461 10.826 10.279 9.869 9.504 9.159 8.899 8.684 8.404 8.091 7.799 7.559 7.256 6.956 6.659 6.376 6.151 7.796 6.299 11.071 11.824 11.364 8.691 5.336 5.151 7.869 5.549 5.794 6.111 6.526 6.879 7.144 7.384 7.611 7.871 8.246 8.701 9.234 9.801 10.394 10.999 11.586 12.226 12.641 13.021 13.376 13.646 13.869 14.089 14.299 15.234 15.651 14.791 14.979 15.044 15.281 15.411 15.526 15.644 15.684 15.671 15.711 15.909 16.254 16.501 16.776 17.051 17.224 17.299 17.386 17.464 17.511 17.441 17.424 17.394 17.416 17.506 17.651 17.744 17.779 17.856 17.934 18.059 19.314 18.174 18.201 18.189 18.236 18.224 18.269 18.271 18.261 18.349 18.449 18.529 18.596 18.664 18.716 18.686 18.639 18.594 18.644 18.836 19.114 19.411 19.761 20.256 20.781 21.144 21.379
20.562 22.242 21.692 25.677 27.592 22.274 19.354 19.192 19.432 19.827 19.839 23.097 19.292 22.032 30.614 27.549 33.994 31.527 29.134 30.592 19.259 19.212 19.509 19.489 19.112 19.384 19.232 20.342 19.309 20.814 21.997 19.522 19.014 19.917 19.664 19.224 19.284 20.379 21.229 19.694 19.459 19.254 19.267 19.664 19.857 21.932 20.962 19.647 19.607 19.542 19.594 20.197 20.759 20.957 20.149 19.752 19.87 20.342 20.119 20.089 19.922 20.223 20.154 20.112 20.661 20.443 22.702 23.002 24.892 25.11 23.361 21.028 24.503 20.092 22.571 32.95 29.196 23.907 24.296 20.78 20.541 20.543 20.713 20.609 20.573 20.659 20.782 20.867 21.331 21.229 21.662 24.668 21.884 23.829 24.867 21.164 21.002 21.277 21.237 21.172 21.157 21.134 21.182 21.234 21.519 26.612 29.634 21.609 21.502 23.057 21.562 21.209 20.854 20.537 20.189 20.259 20.782 21.078 21.742 22.453 22.591 22.38 21.694 21.14 21.361 22.304 21.542 20.374 21.495 23.006 21.031 19.999 19.977 19.752 19.619 19.617 19.689 19.647 19.602 19.529 19.607 19.519 19.444 19.489 19.639 19.802 20.952 22.064 22.629 23.027 23.277 23.349 23.019 22.647 22.472 22.422 22.834 23.739 23.142 23.769 24.294 24.182 23.902 23.747 22.144 22.106 23.116 23.829 23.704 23.024 22.511 22.466 22.476 22.584 22.519 22.736 24.271 23.439 22.526 25.036 26.884 27.599 26.411 25.254 24.766 23.654 23.349 23.069 23.709 26.274 26.691 25.861 22.726 23.411 23.151 22.809 23.691 25.259 25.419 23.454 24.531 24.254 23.489 23.971 24.179 24.431 25.149 25.681 25.616 25.946 24.751 23.839 25.071 25.789 25.584 25.261 26.721 23.944 22.349 22.889 23.734 22.871 21.819 21.819 22.936 26.611 27.344 28.456 27.196 25.324 21.859 21.661 21.736 21.909 24.284 23.849 23.746 24.111 23.766 22.051 23.796 24.281 23.379 24.509 25.044 25.059 25.186 23.719 22.589 23.629 24.904 25.616 23.239 21.596 21.496 21.379 21.184 20.949 20.714 20.396 19.916 19.799 19.649 19.531 19.474 20.334 21.369 20.801 20.526 19.306 20.486 23.041 20.414 18.661 18.611 18.601 18.599 18.646 18.824 18.439 18.306 18.229 17.869 17.296 16.714 16.214 15.766 15.454 15.116 14.686 14.189 13.644 13.209 12.976 12.966 13.086 13.354 13.629 13.999 14.326 14.609 14.806 14.834 14.814 14.829 14.789 14.806 14.806 14.754 14.836 14.889 14.906 14.861 14.801 14.696 14.611 14.504 14.351 14.134 13.916 13.564 12.936 12.304 11.669 10.989 10.406 9.954 9.611 9.259 9.021 8.791 8.531 8.204 7.891 7.644 7.374 7.109 6.786 6.514 6.261 6.016 7.219 6.894 11.159 11.981 10.046 7.106 5.314 6.409 7.641 7.041 6.084 6.504 6.864 7.146 7.394 7.631 7.924 8.311 8.776 9.269 9.804 10.364 10.991 11.601 12.204 12.641 13.084 13.451 13.661 13.916 14.109 14.339 14.871 14.971 17.199 15.431 15.091 15.304 15.416 15.576 15.639 15.714 15.721 15.861 16.119 16.349 16.584 16.869 17.124 17.306 17.406 17.479 17.561 17.571 17.531 17.496 17.496 17.531 17.664 17.804 17.816 17.851 17.899 17.999 18.101 18.391 18.239 18.209 18.204 18.209 18.276 18.304 18.354 18.454 18.516 18.591 18.626 18.664 18.706 18.741 18.749 18.791 18.714 18.736 18.899 19.156 19.486 19.979 20.441 20.824 21.176 21.456
19.212 19.547 19.207 24.477 21.062 19.042 19.139 19.244 19.192 19.209 19.512 26.319 28.062 23.522 31.934 28.274 31.669 31.274 35.827 37.782 27.239 21.007 19.212 20.099 19.194 20.629 20.827 19.807 19.117 22.934 26.732 26.957 20.372 25.579 27.972 25.577 21.459 20.564 23.869 24.857 20.877 19.517 19.374 19.679 19.549 19.877 20.442 19.637 19.777 19.654 19.619 19.814 20.309 20.099 19.684 19.729 19.781 19.851 19.959 20.351 20.101 19.873 20.398 19.867 20.595 20.345 24.887 23.653 21.392 20.36 20.17 21.468 27.049 23.268 26.594 35.419 30.692 21.967 24.212 21.235 20.451 20.542 20.625 20.541 20.78 20.698 21.553 20.993 21.966 22.257 22.124 21.68 25.367 22.612 21.884 21.014 20.999 21.062 21.049 21.087 21.152 23.639 22.807 21.179 21.407 23.827 26.334 22.992 21.922 22.622 21.789 21.654 21.527 21.312 21.217 21.319 21.623 21.89 22.287 22.577 22.784 23.104 21.776 20.836 21.762 22.006 23.196 24.736 28.152 32.102 21.252 19.307 19.649 20.469 19.827 20.894 20.697 19.712 19.689 19.664 19.644 19.529 19.524 19.592 19.617 19.977 21.252 23.237 23.374 23.529 23.662 23.657 23.627 22.937 22.604 22.169 22.542 22.842 22.734 24.214 25.252 23.702 23.617 22.189 22.089 22.419 23.851 24.106 26.784 27.251 24.526 23.086 22.456 22.609 22.479 23.424 24.491 23.621 24.296 25.659 27.166 27.439 26.134 25.091 24.526 23.641 23.746 23.119 22.776 24.739 29.444 29.254 23.984 24.011 23.044 23.436 24.389 25.841 24.336 23.451 23.879 24.111 23.011 22.954 23.009 23.091 23.274 23.324 23.266 23.244 24.826 25.909 25.349 25.576 26.281 25.306 26.419 25.799 22.531 22.594 23.596 22.544 21.811 21.736 22.966 26.731 27.221 28.466 28.699 27.604 22.641 21.656 21.736 21.924 23.714 24.476 24.569 24.524 22.826 22.681 23.179 24.591 26.549 27.136 24.636 24.279 22.914 22.021 22.951 23.369 25.824 24.794 24.056 21.804 21.504 21.361 21.154 21.351 21.724 21.734 19.921 19.756 19.666 19.544 19.449 21.556 23.311 23.034 22.461 19.271 19.041 19.174 20.189 18.681 18.619 19.509 21.071 21.511 21.221 18.676 18.341 18.231 17.881 17.339 16.791 16.236 15.814 15.474 15.224 14.816 14.269 13.779 13.316 13.059 12.991 13.026 13.194 13.419 13.819 14.109 14.511 14.791 14.939 14.914 14.944 14.954 15.011 15.041 15.004 14.989 15.001 15.019 14.966 14.906 14.779 14.681 14.571 14.431 14.249 13.999 13.664 13.159 12.466 11.809 11.196 10.621 10.091 9.736 9.424 9.159 8.924 8.646 8.329 8.039 7.769 7.471 7.186 6.874 6.559 6.329 6.051 5.761 5.489 6.371 7.241 8.354 7.266 8.444 9.471 7.761 7.451 6.366 6.474 6.796 7.094 7.366 7.609 7.954 8.334 8.779 9.269 9.774 10.364 10.944 11.566 12.184 12.714 13.136 13.486 13.734 13.956 14.211 14.364 15.584 15.634 17.774 14.941 15.064 15.164 15.259 15.464 15.661 15.739 15.816 15.989 16.201 16.481 16.676 16.966 17.206 17.341 17.484 17.559 17.649 17.639 17.599 17.549 17.584 17.644 17.764 17.874 17.934 17.969 17.984 18.059 18.146 18.224 18.234 18.281 18.301 18.304 18.346 18.346 18.466 18.576 18.659 18.746 18.761 18.746 18.771 18.816 18.824 18.844 18.784 18.886 19.026 19.226 19.609 20.186 20.574 20.934 21.199 21.529
18.952 19.094 19.019 18.999 19.107 19.147 19.114 19.207 19.134 19.247 19.642 24.492 24.987 27.164 34.127 38.044 41.184 36.902 38.299 39.404 34.549 31.859 23.624 19.302 19.617 20.369 19.399 20.504 21.434 24.462 33.507 35.957 31.222 26.749 27.992 27.199 24.732 23.487 23.004 27.379 24.444 19.957 19.507 19.562 19.499 19.524 19.507 19.469 19.517 19.534 19.582 19.617 19.674 19.684 19.712 19.752 19.768 19.78 20.62 20.713 19.88 19.88 19.887 19.929 19.856 20.859 25.477 24.392 21.571 20.736 20.788 23.17 25.409 26.703 25.72 33.638 31.212 21.472 23.261 21.751 20.387 20.501 20.604 21.084 21.838 21.302 24.057 21.793 21.491 21.258 21.254 20.897 21.522 21.189 20.989 20.979 20.999 21.024 21.087 21.109 21.124 25.207 25.852 21.307 21.227 24.862 21.664 22.204 22.022 21.857 21.812 21.694 21.822 21.739 21.752 22.352 22.391 22.517 23.009 22.733 22.816 22.203 21.307 20.8 20.815 23.66 28.634 28.272 26.663 25.639 22.685 19.039 19.584 23.747 27.697 24.689 21.142 19.817 19.772 19.739 19.707 19.649 19.644 19.662 19.624 20.142 21.307 22.332 23.644 23.982 23.842 24.187 25.287 23.284 22.519 21.969 21.872 22.154 22.374 23.549 24.007 23.752 23.092 22.107 22.114 23.334 24.436 24.969 27.616 28.644 24.476 23.254 22.541 23.064 23.561 23.676 24.771 24.616 24.471 23.731 25.094 24.469 25.591 25.016 24.064 22.956 24.179 22.839 22.684 23.169 26.066 25.834 25.166 23.429 23.611 23.641 24.849 26.094 23.534 23.596 23.126 22.884 23.306 23.934 24.504 24.656 23.156 23.756 24.029 23.894 24.716 23.924 23.466 23.616 24.271 24.069 25.564 26.071 22.681 22.569 23.794 22.819 21.814 21.711 22.284 25.341 26.946 28.474 28.044 27.799 22.889 21.679 21.791 22.114 23.309 23.729 24.549 24.571 23.821 24.206 24.456 24.131 25.021 25.256 23.066 24.034 22.156 21.969 22.439 22.976 25.341 25.839 23.469 21.531 21.414 21.321 21.099 20.796 20.424 20.094 19.884 19.739 19.644 19.564 19.511 21.904 25.309 23.091 20.481 20.706 19.409 20.329 18.816 18.734 19.504 22.549 20.266 19.816 22.236 18.664 18.339 18.156 17.816 17.294 16.719 16.269 15.861 15.541 15.259 14.851 14.326 13.839 13.386 13.169 13.019 12.989 13.036 13.211 13.541 13.926 14.351 14.756 14.984 15.031 15.056 15.146 15.161 15.159 15.149 15.136 15.126 15.079 15.021 14.984 14.881 14.766 14.646 14.496 14.381 14.119 13.781 13.291 12.641 12.044 11.396 10.754 10.246 9.849 9.591 9.281 9.039 8.794 8.476 8.169 7.861 7.539 7.284 6.954 6.649 6.331 6.094 5.849 5.554 5.309 5.181 8.244 8.406 9.756 8.801 5.549 5.796 6.051 6.426 6.784 7.084 7.346 7.684 7.976 8.379 8.796 9.276 9.759 10.281 10.841 11.511 12.146 12.719 13.114 13.491 13.741 13.994 14.269 14.439 15.734 16.786 15.411 14.941 15.036 15.074 15.201 15.389 15.664 15.789 15.931 16.131 16.314 16.526 16.739 17.079 17.376 17.489 17.559 17.609 17.671 17.691 17.636 17.621 17.661 17.721 17.814 17.901 17.934 17.961 18.074 18.099 18.176 18.256 18.321 18.326 18.374 18.394 18.421 18.489 18.636 18.746 18.794 18.831 18.834 18.816 18.841 18.864 18.851 18.896 18.901 19.064 19.196 19.339 19.656 20.209 20.711 21.021 21.296 21.526
18.999 19.037 19.177 19.064 19.159 19.134 19.149 19.194 19.192 19.822 20.392 24.192 25.369 32.224 32.717 35.832 38.204 40.554 40.372 39.454 30.942 27.797 23.447 20.182 19.787 25.344 24.482 27.037 29.969 31.049 36.152 36.522 32.197 24.339 23.707 24.912 25.654 23.682 21.504 26.592 24.449 19.939 19.527 19.624 19.627 20.874 19.607 19.919 20.874 19.577 19.657 19.689 19.692 19.727 19.734 19.715 19.759 19.771 20.221 20.238 21.119 19.997 20.013 19.974 20.494 25.41 29.5 24.87 23.434 22.496 20.836 22.055 23.811 23.443 23.48 23.31 23.502 22.499 21.262 21.182 20.425 21.82 20.62 22.437 22.563 21.983 21.73 20.946 21.121 21.185 20.863 20.979 20.987 21.054 21.019 20.997 21.034 21.039 21.242 21.202 21.092 21.039 21.047 21.257 21.432 23.859 27.544 22.037 22.132 21.772 21.769 21.704 21.847 21.942 21.932 22.36 25.922 24.915 22.284 22.481 22.556 22.338 21.608 20.644 19.895 19.988 26.089 28.043 21.43 20.169 19.388 19.054 19.927 21.037 23.419 21.919 20.229 20.009 19.974 19.867 19.849 19.749 19.712 19.822 19.704 20.502 21.634 22.617 23.714 24.079 23.637 24.209 24.012 23.137 22.572 22.097 21.772 21.937 22.239 23.427 23.929 23.759 22.407 22.112 22.124 23.899 24.709 25.011 25.461 25.809 24.681 24.481 24.066 23.474 23.171 23.729 24.626 24.826 24.711 23.206 23.511 23.056 24.566 23.316 24.199 23.399 24.216 22.641 22.614 24.181 24.146 23.739 23.839 23.496 23.246 23.799 25.574 26.461 23.619 23.411 23.139 22.996 23.499 26.059 26.566 25.931 23.249 24.316 26.189 26.496 26.306 24.554 23.094 23.351 23.016 23.421 24.186 25.181 23.121 22.076 23.659 22.704 21.831 21.749 21.849 23.616 25.904 26.424 24.766 24.076 22.724 21.764 21.891 21.691 22.034 23.899 24.879 25.149 24.931 23.654 23.366 23.601 22.229 21.829 21.891 22.306 21.826 22.181 22.119 21.874 22.596 22.291 21.731 21.496 21.369 21.204 20.984 21.449 21.399 20.366 19.904 19.789 19.666 20.069 21.081 20.976 24.036 21.816 19.311 19.091 18.964 18.894 18.899 18.809 18.756 20.049 21.459 21.024 22.076 19.196 18.319 18.121 17.836 17.314 16.816 16.359 15.921 15.549 15.251 14.849 14.344 13.856 13.494 13.259 13.039 12.961 13.026 13.131 13.376 13.779 14.194 14.651 14.986 15.201 15.211 15.276 15.256 15.264 15.261 15.219 15.199 15.174 15.136 15.074 15.004 14.869 14.736 14.596 14.444 14.246 13.894 13.371 12.731 12.116 11.534 10.951 10.469 10.054 9.746 9.441 9.166 8.931 8.626 8.321 7.966 7.646 7.344 7.011 6.704 6.431 6.166 5.866 5.594 5.394 5.819 11.364 6.619 11.156 12.916 8.211 6.596 6.316 6.394 6.749 7.069 7.349 7.656 8.014 8.376 8.791 9.254 9.774 10.309 10.819 11.436 12.194 12.714 13.144 13.486 13.779 14.031 14.276 14.429 14.609 14.724 14.841 14.911 14.976 15.096 15.219 15.359 15.581 15.769 15.934 16.134 16.346 16.531 16.804 17.194 17.434 17.614 17.654 17.696 17.729 17.729 17.664 17.639 17.706 17.769 17.829 17.909 17.971 18.036 18.101 18.146 18.211 18.306 18.374 18.404 18.424 18.469 18.506 18.584 18.721 18.804 18.846 18.911 18.956 18.969 18.969 18.906 18.951 18.966 18.999 19.146 19.304 19.484 19.784 20.321 20.771 21.116 21.316 21.471
19.034 19.169 19.152 19.179 19.197 19.232 19.264 19.374 21.277 24.319 24.572 27.357 29.242 31.824 34.782 29.447 33.849 39.142 38.579 35.962 23.912 21.989 24.179 26.997 26.922 28.484 25.324 28.304 26.114 24.289 29.402 32.847 30.422 25.222 21.697 23.452 21.694 23.717 22.629 22.292 21.544 19.917 19.629 19.702 21.252 22.142 20.437 19.589 19.824 19.634 19.644 19.714 19.717 19.704 19.719 19.722 19.772 19.745 19.779 19.897 20.031 21.388 21.323 20.572 26.165 33.6 34.156 28.418 23.568 20.637 21.596 22.296 23.021 26.87 27.916 24.986 22.927 22.699 23.754 20.666 20.449 21.29 22.587 23.204 21.726 22.77 20.825 20.864 20.967 20.942 20.868 20.896 21.922 20.992 21.032 20.994 21.002 20.992 23.732 21.432 21.219 21.139 21.304 21.254 21.339 21.392 21.479 21.642 21.757 22.004 22.072 21.757 21.699 21.802 22.089 22.422 23.055 22.932 22.395 22.441 22.12 22.943 24.465 19.984 20.975 19.788 19.41 20.04 18.961 19.2 19.309 19.197 19.582 19.817 19.942 21.737 20.747 20.389 20.029 19.914 19.932 19.932 19.747 21.602 19.814 20.624 21.764 23.024 23.914 23.924 23.342 23.044 23.784 22.664 22.019 22.304 22.062 21.769 22.917 24.629 24.092 23.864 22.119 22.084 22.329 23.566 23.124 23.476 23.659 24.534 23.896 23.539 25.354 25.404 25.029 24.579 24.226 24.279 24.404 23.541 23.521 24.099 24.721 24.274 24.126 22.601 22.694 23.666 23.956 24.736 25.126 25.741 24.146 23.509 22.641 24.769 25.941 28.261 28.686 23.331 22.746 22.816 23.531 26.114 27.114 26.344 23.961 24.189 26.441 27.506 26.789 25.009 23.196 23.714 23.059 23.379 23.281 25.229 23.121 21.976 24.489 25.799 23.346 21.881 21.879 21.876 21.894 21.839 21.716 22.156 23.346 21.906 21.831 22.206 25.149 25.789 25.684 24.836 23.916 22.656 21.949 22.891 21.881 21.831 21.856 21.849 21.836 21.881 21.819 22.006 22.839 22.596 22.181 21.584 21.374 21.119 20.821 20.536 20.736 20.004 19.886 19.769 19.699 20.151 21.756 20.494 20.329 23.211 20.776 19.084 18.996 18.956 18.901 18.854 19.064 21.221 22.121 22.489 20.099 18.484 18.316 18.041 17.696 17.324 16.901 16.414 16.016 15.596 15.194 14.719 14.271 13.889 13.574 13.346 13.099 13.054 13.039 13.139 13.291 13.686 14.096 14.539 14.996 15.226 15.321 15.351 15.336 15.304 15.309 15.304 15.281 15.234 15.174 15.099 15.069 14.931 14.821 14.674 14.481 14.176 13.734 13.234 12.696 12.091 11.584 11.114 10.684 10.241 9.926 9.594 9.309 9.044 8.734 8.406 8.041 7.726 7.409 7.061 6.764 6.449 6.196 5.916 5.599 5.401 5.519 12.444 8.259 12.136 15.486 14.079 9.704 6.086 6.384 6.729 7.031 7.329 7.656 7.981 8.356 8.769 9.231 9.761 10.289 10.801 11.396 12.114 12.669 13.149 13.524 13.826 14.074 14.226 14.434 14.664 14.821 14.916 14.999 15.056 15.059 15.174 15.349 15.489 16.299 15.961 16.199 16.369 16.581 16.861 17.239 17.479 17.699 17.789 17.831 17.811 17.724 17.649 17.656 17.694 17.751 17.826 17.921 17.959 18.029 18.064 18.144 18.241 18.336 18.391 18.404 18.459 20.204 19.891 18.671 18.754 18.854 18.879 18.924 18.994 19.064 19.031 18.999 19.024 19.019 19.044 19.236 19.454 19.626 19.939 20.449 20.879 21.194 21.319 21.314
19.122 19.257 19.164 19.222 19.239 19.574 19.349 22.517 25.717 27.677 25.577 28.569 29.949 29.359 31.719 28.172 29.284 27.644 25.942 28.234 21.714 21.807 25.537 25.627 25.169 27.459 24.462 23.377 27.279 20.594 20.584 24.287 24.447 22.707 19.677 20.254 21.069 22.499 22.819 21.757 21.259 20.282 20.059 19.667 20.009 19.872 20.952 19.609 19.614 19.624 19.634 19.687 19.719 19.772 19.819 19.83 19.858 19.99 20.122 20.629 20.58 23.691 23.02 22.628 31.253 35.946 36.463 34.316 28.435 22.934 21.694 21.643 21.917 27.569 28.805 27.761 26.362 22.48 22.115 20.52 20.538 22.548 22.07 21.753 21.016 20.942 20.79 23.621 20.82 20.895 20.93 24.407 27.344 24.019 20.962 20.967 21.067 21.139 21.192 21.399 21.564 21.462 21.229 21.202 21.344 21.397 21.382 21.467 21.459 21.402 21.669 21.927 21.834 22.012 22.344 22.227 22.627 22.901 22.235 22.198 22.621 25.321 25.827 26.444 21.817 19.176 19.55 18.67 18.518 18.599 18.774 19.049 19.334 19.652 19.932 20.169 21.889 20.889 20.239 19.997 20.009 19.994 19.857 19.859 19.947 20.674 22.547 23.017 23.844 23.849 23.212 22.807 22.269 21.869 22.404 22.407 21.569 21.884 23.799 24.389 24.229 23.239 22.104 22.059 22.339 22.531 22.511 22.521 22.504 22.514 22.461 24.169 25.701 26.839 26.881 25.716 25.166 22.799 23.651 25.099 25.911 27.641 28.134 23.514 23.951 23.554 23.796 25.649 25.371 26.119 27.396 28.246 26.726 24.106 24.094 25.636 26.014 25.831 24.836 23.061 22.719 22.764 23.341 25.941 27.146 26.456 24.029 24.641 27.701 28.256 27.029 25.194 23.056 23.329 23.719 23.379 23.491 25.501 23.831 22.236 24.961 26.209 24.919 22.491 23.156 22.449 21.819 21.839 22.824 23.994 24.221 23.779 23.511 24.081 25.296 24.949 24.616 24.111 24.036 23.861 22.209 21.781 21.776 21.766 21.809 21.834 21.819 21.814 23.004 23.701 24.161 23.316 21.806 22.061 21.324 21.069 20.704 20.301 21.749 20.551 19.834 19.719 19.636 19.741 21.914 23.921 24.741 23.041 20.501 19.114 19.024 18.954 18.824 18.796 18.736 18.789 19.761 19.831 19.064 18.409 18.321 18.149 17.934 17.619 17.164 16.956 17.219 15.904 15.219 14.879 14.261 13.896 13.651 13.406 13.196 13.126 13.054 13.104 13.231 13.599 13.996 14.461 14.886 15.716 15.371 15.389 15.346 15.336 15.329 15.304 15.281 15.219 15.146 15.096 15.046 14.939 14.874 14.736 14.404 13.989 13.579 13.036 12.511 11.914 11.479 11.121 10.859 10.481 10.091 9.741 9.454 9.181 8.864 8.529 8.154 7.851 7.476 7.154 6.841 6.474 6.226 5.939 5.626 5.424 5.319 7.944 6.674 15.809 16.821 14.036 8.889 6.081 6.394 6.759 7.016 7.279 7.599 7.989 8.349 8.769 9.236 9.714 10.261 10.804 11.369 12.111 12.706 13.144 13.531 13.829 14.061 14.209 14.471 14.744 14.866 14.966 15.039 15.111 15.134 15.251 18.554 16.446 16.124 16.039 16.234 16.449 16.649 16.919 17.219 17.494 17.731 17.821 17.881 17.841 17.774 17.669 17.641 17.646 17.704 17.786 17.889 17.934 17.989 18.071 18.151 18.236 18.319 18.366 18.416 18.804 18.674 19.971 18.696 18.794 18.846 18.896 18.959 19.044 19.079 19.024 19.044 19.084 19.046 19.074 19.236 19.454 19.779 20.099 20.659 20.999 21.171 21.166 21.109
19.184 19.252 19.319 19.492 19.292 19.627 21.059 22.654 25.204 30.422 29.659 23.924 28.412 29.729 30.429 26.799 22.379 21.182 21.652 20.409 22.124 20.729 21.042 24.069 22.504 20.962 20.092 20.912 25.067 21.819 19.929 19.752 19.814 19.707 19.722 19.879 20.344 21.149 21.144 20.942 21.059 20.342 19.967 19.704 19.684 19.674 19.642 19.647 19.619 19.667 19.682 19.762 19.839 19.894 19.909 19.932 19.928 20.005 20.1 20.495 20.524 22.113 23.146 24.824 33.077 35.551 36.777 36.63 35.316 25.831 20.567 20.36 20.529 22.845 25.231 29.43 30.609 22.902 21.376 20.585 20.818 20.826 20.75 21.037 21.618 21.765 21.763 22.827 20.887 21.309 24.024 22.457 21.612 22.757 28.197 26.989 21.217 21.137 21.487 21.629 22.037 21.169 21.052 21.247 21.389 21.437 21.399 21.444 21.402 21.417 21.532 21.982 22.429 22.354 22.406 22.37 22.716 23.293 21.959 21.876 22.938 21.418 19.669 25.216 24.102 20.293 19.006 18.973 18.544 18.546 18.984 19.172 19.172 19.569 20.904 20.909 20.599 20.937 20.542 21.244 20.042 20.104 20.017 19.939 20.157 21.309 22.672 23.337 24.014 24.522 25.219 24.734 22.102 22.072 23.997 24.562 21.569 22.772 23.479 24.182 24.152 22.534 22.094 22.142 22.476 22.456 22.491 22.499 22.449 22.419 22.444 24.381 25.949 27.034 26.666 25.584 24.451 22.416 22.421 23.201 24.601 27.599 28.029 24.001 24.336 23.726 23.711 23.891 24.614 26.376 26.839 27.044 26.661 23.546 25.846 27.306 25.821 25.641 23.614 22.764 22.694 22.749 22.884 25.841 27.136 27.461 28.594 29.764 31.101 29.836 28.191 25.214 22.926 22.914 22.964 22.929 24.561 25.649 23.739 21.986 23.281 22.766 22.344 22.226 22.956 22.774 21.986 21.864 22.994 24.286 24.289 24.551 25.296 24.899 23.284 21.886 23.774 24.106 23.861 22.519 21.986 21.774 21.746 21.779 21.809 21.826 21.809 21.804 22.251 24.161 24.311 23.774 22.339 22.361 21.236 20.944 20.596 20.194 21.301 21.264 19.804 19.676 19.596 19.521 21.306 22.061 21.116 19.601 19.131 19.109 18.931 18.779 18.646 18.551 18.416 18.366 18.306 18.289 18.319 18.326 18.656 18.276 18.639 18.031 18.189 17.631 18.126 16.421 17.419 16.674 14.824 14.064 13.776 13.489 13.304 13.164 13.049 13.036 13.159 13.476 13.881 14.411 14.889 15.159 16.934 15.429 15.396 16.994 15.379 15.354 15.316 15.199 15.179 16.139 15.029 14.891 14.826 14.699 14.341 13.886 13.326 12.729 12.211 11.751 11.404 11.109 10.894 10.579 10.264 9.889 9.556 9.274 8.936 8.671 8.319 7.971 7.539 7.211 6.889 6.569 6.279 5.969 5.666 6.681 5.839 5.649 5.411 14.001 13.709 12.726 6.666 6.089 6.386 6.719 7.021 7.301 7.616 7.981 8.351 8.776 9.224 9.669 10.204 10.799 11.344 12.146 12.726 13.116 13.524 13.839 14.041 14.246 14.504 14.774 14.919 15.039 15.111 15.166 15.174 15.344 19.896 17.336 16.256 17.066 16.299 16.521 16.724 17.009 17.326 17.594 17.751 17.851 17.906 17.889 17.829 17.701 17.649 17.654 17.674 17.741 17.836 17.931 18.031 18.106 18.189 18.256 18.321 18.379 18.439 18.519 18.689 19.669 19.271 18.824 18.879 18.949 18.961 18.986 19.009 19.054 19.079 19.079 19.041 19.139 19.296 19.519 19.854 20.391 20.886 21.044 20.981 20.879 20.719
19.332 19.337 19.454 19.404 19.424 19.372 21.549 28.204 25.502 35.302 30.364 28.504 28.532 29.042 27.944 25.784 21.934 24.244 20.784 19.999 21.939 19.864 20.302 23.077 19.774 19.724 19.767 21.414 24.054 24.194 21.707 19.729 20.132 19.822 19.899 20.182 20.312 20.204 21.129 20.749 22.217 21.849 20.094 19.744 19.742 19.684 19.672 19.689 19.732 19.814 19.867 19.844 19.887 19.952 19.972 19.995 20.098 20.069 20.127 20.223 20.41 22.134 21.136 24.383 30.61 34.72 35.842 35.967 33.275 26.042 20.805 20.501 20.596 21.431 22.237 22.941 22.524 21.268 20.67 20.641 20.686 20.797 20.827 21.856 22.55 23.176 21.33 22.33 21.38 23.968 25.794 24.504 28.464 26.314 27.067 31.072 23.997 21.522 21.522 21.009 21.049 21.087 21.292 21.397 21.697 21.432 21.297 21.352 21.322 21.772 21.759 22.162 22.534 22.582 22.48 22.107 22.161 22.027 21.769 21.769 21.641 20.853 19.526 18.687 21.452 19.18 18.669 19.516 18.503 18.425 19.512 20.637 19.434 20.542 23.869 25.037 22.927 21.217 20.952 21.424 20.119 20.174 20.119 20.109 21.337 22.384 24.734 24.439 24.814 24.644 24.634 23.327 22.119 22.012 23.279 23.099 23.149 24.832 24.489 24.437 23.392 22.069 22.052 22.282 22.459 22.444 22.581 22.611 22.531 22.404 22.401 24.644 26.184 27.091 26.831 25.439 24.721 22.421 22.459 22.566 22.691 26.001 26.436 24.851 23.194 22.971 23.199 23.501 23.621 23.746 24.001 24.549 24.789 24.414 25.091 26.659 25.351 27.524 26.146 22.684 22.656 22.716 22.776 25.464 27.044 27.676 29.074 30.431 31.104 29.906 28.484 25.211 23.756 22.856 22.809 22.764 23.889 24.271 22.409 21.954 22.744 22.204 22.459 22.399 22.726 21.924 21.884 22.071 22.744 23.931 24.969 25.514 24.941 22.189 22.161 21.966 21.886 24.046 22.199 22.159 22.889 23.751 22.861 22.471 21.764 21.786 21.799 21.821 21.931 23.794 24.451 23.934 22.374 21.544 21.129 20.921 20.494 20.096 19.921 19.956 19.701 19.644 19.581 19.476 19.381 19.296 19.201 19.126 19.101 19.061 18.831 18.626 18.459 18.259 18.136 18.061 18.019 17.984 18.084 18.119 18.321 19.091 18.459 17.384 16.941 16.851 16.741 16.554 16.581 15.939 15.531 15.169 14.666 14.051 14.186 13.399 13.204 13.461 16.021 15.146 14.904 14.714 14.976 15.284 16.189 16.081 15.876 20.104 18.591 15.821 15.336 15.231 15.234 15.629 15.226 15.281 15.329 15.021 16.134 15.531 13.286 13.251 12.104 13.009 12.171 11.446 11.399 10.556 10.304 9.999 9.639 9.306 8.994 8.686 8.349 7.994 7.651 7.294 6.956 6.636 6.294 5.959 5.699 5.484 10.741 5.241 6.956 6.741 7.066 6.899 6.611 6.129 7.071 6.666 7.016 7.281 7.614 7.986 8.404 8.806 9.246 9.716 10.254 10.761 11.331 12.161 12.669 13.164 13.524 13.871 14.101 14.276 14.566 14.796 14.956 15.076 15.244 15.786 15.259 16.124 15.589 16.069 16.329 16.134 16.389 16.596 16.816 17.134 17.474 17.674 17.806 17.854 17.866 17.861 17.844 17.771 17.714 17.671 17.659 17.746 17.816 17.949 18.051 18.124 18.176 18.264 18.329 18.399 18.501 18.564 18.624 19.221 19.006 18.859 18.939 18.944 18.981 18.961 18.956 19.034 19.099 19.081 19.091 19.276 19.449 19.684 20.191 20.736 20.904 20.826 20.681 20.579 20.304
19.344 19.387 19.367 19.417 19.512 19.437 19.807 31.109 29.242 34.684 33.687 27.799 25.394 26.639 24.554 23.907 22.924 26.387 21.347 21.097 21.142 19.787 20.184 20.992 19.867 19.784 20.519 23.344 24.467 25.279 22.104 19.947 20.107 20.444 19.974 20.027 20.027 19.939 20.399 20.332 22.587 22.509 20.127 19.802 21.712 20.139 19.832 19.877 19.899 19.927 19.954 19.954 19.964 19.997 20.029 20.038 20.206 20.126 20.39 21.185 20.97 20.719 25.297 28.164 31.24 33.607 34.337 34.795 25.898 22.747 20.674 21.022 21.772 22.311 20.629 20.603 20.721 20.641 20.635 20.691 20.783 21.244 21.199 22.015 26.113 22.26 22.173 28.081 21.924 26.04 33.023 30.439 36.289 22.314 32.122 25.592 22.427 23.789 21.427 21.172 21.197 21.274 21.364 21.532 21.682 21.472 21.262 21.307 21.312 21.532 24.552 23.299 22.717 22.578 22.194 21.952 22.478 22.812 22.087 21.772 21.094 22.323 23.293 19.28 18.892 18.874 19.673 19.818 18.453 18.319 18.152 18.367 20.362 25.914 22.724 27.722 23.189 22.747 20.999 21.439 20.542 20.229 20.157 20.567 21.252 22.024 28.554 30.277 30.107 24.252 23.827 23.292 23.909 23.722 22.212 23.554 23.749 24.779 24.544 24.067 22.337 22.084 22.079 22.334 22.376 22.429 22.554 22.616 22.589 22.629 22.896 25.254 26.371 27.074 26.209 25.086 22.489 22.536 22.576 22.829 22.601 22.579 23.206 23.879 22.989 23.721 25.234 24.621 23.826 22.784 22.761 23.636 25.306 25.049 28.074 26.451 24.446 23.426 22.684 22.659 22.714 22.746 22.846 25.529 27.131 29.354 29.531 30.366 31.174 30.014 29.081 28.756 28.961 23.379 22.784 22.819 24.924 24.076 22.161 21.949 21.936 22.629 23.299 24.441 23.459 22.254 22.096 23.204 24.921 25.291 25.754 24.974 22.689 22.069 22.009 22.041 22.034 22.229 22.259 22.206 22.844 24.009 24.189 22.799 21.751 22.174 21.951 21.774 21.771 22.819 24.314 23.774 21.601 21.386 21.441 20.876 20.439 20.081 19.921 19.801 19.679 19.651 19.919 19.509 19.334 19.244 19.144 19.129 19.069 18.934 18.744 18.524 18.324 18.119 18.036 18.016 18.004 18.009 18.096 18.319 18.771 18.061 17.371 17.019 16.916 16.859 16.829 16.771 16.486 16.079 15.616 15.106 14.461 14.009 13.874 13.894 14.139 16.566 18.769 16.216 17.314 16.391 15.384 15.731 15.171 17.071 18.764 24.504 18.864 16.416 17.311 20.211 18.646 20.104 19.004 19.286 19.139 17.669 18.266 18.296 16.409 14.359 13.484 17.581 17.841 16.106 12.851 10.499 10.231 10.014 9.696 9.349 9.039 8.684 8.361 8.006 7.651 7.336 7.001 6.636 6.419 5.986 5.679 6.011 10.356 7.006 8.151 8.859 12.011 7.811 8.424 9.499 7.336 6.659 6.976 7.219 7.581 7.961 8.354 8.784 9.229 9.716 10.204 10.719 11.324 12.114 12.691 13.174 13.541 13.866 14.161 14.384 14.569 14.819 14.959 15.089 15.924 18.299 15.351 16.221 17.471 16.904 16.884 16.181 16.446 16.709 16.966 17.224 17.491 17.664 17.769 17.844 17.841 17.864 17.811 17.764 17.714 17.689 17.709 17.756 17.849 17.929 18.044 18.146 18.194 18.291 18.336 18.414 18.509 18.589 18.621 18.679 18.789 18.841 18.859 18.894 18.899 18.949 18.951 18.984 19.086 19.139 19.284 19.416 19.634 20.131 20.579 20.749 20.694 20.474 20.356 20.179 19.919
20.034 19.459 19.409 19.872 19.802 20.984 24.262 27.354 28.634 32.262 32.754 23.814 22.749 24.782 21.759 22.577 21.912 25.179 20.842 21.822 21.137 19.814 19.842 19.869 19.892 19.899 21.509 23.339 25.059 25.037 24.204 21.329 20.002 20.014 19.944 20.027 19.979 19.944 19.969 19.959 21.759 22.834 20.389 19.852 20.362 20.409 20.132 20.087 19.994 20.012 20.029 20.079 20.094 20.097 20.099 20.06 20.108 20.146 20.213 20.648 21.146 22.719 24.302 27.333 27.969 29.469 30.888 30.211 27.298 23.715 21.666 21.555 22.248 20.575 20.562 20.545 20.592 21.35 20.747 21.24 20.875 21.076 21.936 21.568 21.501 21.336 21.364 28.535 21.195 21.121 27.8 28.177 36.602 24.687 24.262 21.204 23.842 25.532 22.174 21.122 21.227 21.342 21.477 21.604 21.599 21.529 21.367 21.257 21.244 21.532 22.237 22.584 22.694 22.351 22.476 22.122 22.623 22.42 22.969 21.725 21.324 20.971 21.482 21.6 20.156 19.234 19.345 18.904 18.279 18.357 18.109 18.362 19.839 21.777 22.104 24.784 23.382 20.914 20.807 21.432 20.807 20.297 20.294 20.492 21.017 22.514 23.507 24.567 24.829 24.662 24.462 24.029 23.887 24.267 23.992 22.644 24.044 25.062 24.237 23.434 22.147 22.062 22.122 22.212 22.284 22.366 22.451 22.499 23.094 22.791 23.774 25.486 26.596 27.066 25.999 24.056 22.399 22.414 22.509 22.521 22.536 22.571 22.589 22.581 22.589 23.696 24.711 24.469 23.836 22.754 22.819 24.719 27.881 29.729 30.444 27.249 22.784 22.666 22.614 22.649 22.726 22.786 22.764 24.479 25.624 28.904 30.229 30.441 31.161 30.236 29.831 29.819 29.766 22.816 22.779 22.796 23.616 23.829 22.236 21.971 21.929 21.924 22.106 22.721 22.656 24.864 28.861 26.406 25.754 24.451 22.071 23.404 22.111 22.046 21.999 22.401 28.064 22.796 22.269 22.266 22.791 23.221 24.101 23.091 21.766 23.384 21.766 21.746 21.736 21.771 21.641 21.586 21.389 21.271 21.219 20.671 20.334 20.121 19.961 19.849 19.656 19.564 20.521 19.439 19.294 19.196 19.896 19.541 19.026 18.889 18.684 18.404 18.176 18.054 17.969 18.021 18.226 18.409 18.066 18.896 18.659 17.589 17.131 17.019 16.936 16.866 16.824 16.791 16.716 16.559 16.361 15.969 14.921 15.066 14.849 14.789 14.624 15.171 14.841 14.109 14.511 14.594 14.834 15.371 15.116 15.221 20.689 19.894 18.479 15.726 16.439 20.984 17.366 17.949 18.654 18.194 17.746 19.221 18.779 19.276 18.559 17.219 19.981 19.766 19.866 18.474 13.941 12.666 10.706 9.979 9.719 9.404 9.094 8.721 8.319 7.986 7.619 7.256 6.969 6.539 6.489 5.969 8.826 8.136 5.334 6.301 6.696 16.479 16.871 14.959 8.964 7.171 6.571 6.644 6.916 7.404 7.551 7.929 8.329 8.851 9.264 9.756 10.204 10.746 11.344 12.184 12.751 13.171 13.526 13.856 14.156 14.399 14.569 14.804 14.964 15.109 15.471 15.536 15.399 15.576 15.746 15.921 16.064 16.214 16.439 16.724 16.951 17.226 17.451 17.589 17.734 17.831 17.831 17.854 17.804 17.776 17.746 17.696 17.726 17.754 17.851 17.956 18.039 18.101 18.179 18.261 18.326 18.414 18.481 18.519 18.619 18.721 18.774 18.789 18.761 18.814 18.826 19.896 19.266 18.956 19.109 19.189 19.321 19.526 19.941 20.439 20.601 20.556 20.349 20.226 20.079 19.829 19.576
20.987 19.577 20.814 23.969 28.607 27.127 26.949 26.709 23.827 28.159 26.959 22.519 19.989 21.042 23.477 23.859 22.909 22.222 19.877 20.589 20.382 20.204 19.917 19.917 19.954 19.994 21.934 23.572 24.514 25.347 23.897 21.329 21.174 20.499 20.037 20.054 20.052 19.982 19.957 19.889 22.542 23.619 20.627 20.069 20.007 20.792 21.014 20.087 20.074 20.087 20.117 20.157 20.167 20.164 20.187 20.161 20.17 20.472 20.316 20.333 21.031 22.99 22.843 21.736 26.049 30.749 29.624 28.26 26.295 25.495 21.507 20.525 20.514 20.571 20.601 20.75 20.885 21.919 21.368 22.76 20.661 21.411 21.293 21.027 21.079 21.184 21.128 21.337 24.891 22.734 21.569 27.997 35.372 25.917 21.212 21.162 21.107 21.277 21.349 21.264 21.334 21.442 21.539 21.677 21.702 21.552 21.252 25.917 24.144 23.499 25.137 22.529 22.634 22.726 22.539 21.964 21.701 21.715 22.253 21.878 21.427 21.227 21.652 23.152 21.473 22.12 19.284 19.014 18.931 19.202 19.389 18.224 20.609 22.159 21.662 21.777 22.669 21.822 20.674 21.074 20.729 20.379 20.394 20.444 20.714 23.214 23.862 23.972 23.864 24.412 23.959 24.422 23.789 23.862 23.572 23.654 24.237 24.962 24.049 22.739 22.124 22.089 22.154 22.224 22.231 22.271 22.339 22.371 22.446 22.446 23.489 25.701 26.796 26.899 25.809 23.506 22.419 22.519 22.496 22.504 22.539 22.584 22.626 22.651 22.596 22.961 23.826 22.676 22.636 23.034 23.119 23.684 26.469 33.044 33.791 30.336 22.994 22.569 22.524 22.546 22.709 22.811 22.771 23.051 23.654 27.429 29.191 30.171 31.021 29.974 28.701 28.454 27.439 22.791 22.751 22.709 22.534 22.356 22.246 21.971 21.931 21.944 21.966 22.329 24.931 26.754 25.474 24.334 23.299 22.559 21.999 22.029 22.001 22.031 22.131 23.674 25.934 22.234 22.256 22.284 23.306 25.044 24.404 23.741 21.724 21.759 21.716 21.761 22.109 21.699 21.616 21.469 21.471 21.489 21.319 20.614 20.344 20.151 20.069 19.914 19.714 20.831 19.504 19.394 19.364 19.766 19.216 20.226 19.011 18.826 18.554 18.259 18.079 17.979 17.946 18.141 19.099 18.249 19.384 18.641 17.451 17.176 17.131 17.044 16.954 16.891 16.854 16.801 16.714 16.599 16.474 16.254 15.254 15.124 14.869 14.181 13.994 13.454 13.154 13.226 13.554 14.096 14.594 14.951 15.144 15.519 18.889 15.251 15.524 16.101 18.864 17.546 15.141 15.196 14.924 15.966 15.454 17.536 15.599 14.904 14.969 18.841 19.744 19.641 19.711 19.839 19.354 15.316 12.706 10.771 10.129 9.541 9.186 8.881 8.691 8.394 9.104 7.204 8.514 7.471 6.916 6.124 13.334 11.239 10.569 5.656 8.691 15.584 16.971 16.096 14.276 9.051 10.379 8.664 7.189 8.641 7.644 8.116 8.356 9.009 10.594 9.729 10.199 10.724 11.456 12.324 12.796 13.196 13.544 13.876 14.176 14.384 14.586 14.839 15.009 15.121 15.201 15.324 15.426 15.614 15.756 15.919 16.069 16.219 16.456 16.726 16.931 17.201 17.436 17.591 17.696 17.784 17.834 17.806 17.776 17.806 17.784 17.761 17.744 17.729 17.826 17.904 17.979 18.061 18.176 18.261 18.301 18.416 18.474 18.519 18.616 18.651 18.684 18.691 18.664 18.676 18.679 20.151 18.859 18.901 19.081 19.239 19.391 19.764 20.214 20.424 20.421 20.191 20.026 19.914 19.754 19.489 19.299
20.307 19.759 23.014 26.584 26.159 27.252 26.852 25.692 24.939 23.157 21.897 20.199 21.327 23.717 29.792 24.242 23.519 21.754 20.059 20.342 21.434 22.402 20.397 20.017 20.037 20.079 20.337 21.779 23.429 24.299 23.102 20.742 22.024 21.172 20.229 20.074 20.044 20.082 20.069 20.072 21.207 23.449 22.219 20.129 21.154 22.207 20.284 20.162 20.157 20.154 20.214 20.267 20.237 20.227 20.254 20.255 20.264 20.522 20.723 21.095 23.032 28.136 26.159 23.663 24.103 25.084 28.055 26.595 24.06 22.04 21 21.91 21.093 21.058 21.933 21.964 20.899 21.239 22.152 22.01 21.975 21.241 21.563 20.927 21.058 21.318 21.076 27.399 26.609 30.189 21.977 26.082 31.012 24.847 21.289 21.297 21.249 21.279 23.474 21.379 21.624 21.447 21.504 21.597 21.467 21.307 20.929 20.502 22.564 28.779 24.867 22.402 22.347 22.196 21.821 21.293 21.322 21.942 21.327 21.84 21.58 22.409 23.059 23.779 24.421 24.159 22.581 20.768 28.672 26.009 18.987 18.487 25.254 30.057 22.779 21.789 22.074 21.032 22.034 22.564 21.047 20.474 20.464 20.599 20.977 22.122 23.394 23.562 23.359 24.739 24.379 22.434 22.847 22.604 23.319 24.772 25.137 24.134 23.949 22.217 22.097 22.112 22.442 22.439 22.249 22.904 22.696 22.456 22.429 22.441 24.221 25.946 26.899 26.719 25.549 23.731 22.524 22.551 22.514 22.481 22.539 22.609 22.996 22.834 22.621 22.829 23.724 22.746 22.684 22.731 23.641 24.674 29.684 33.239 33.989 32.614 24.739 23.081 22.899 22.801 22.791 22.669 22.681 22.864 23.051 23.181 23.206 24.409 26.516 26.074 25.496 25.876 25.274 22.766 22.714 22.619 22.509 22.421 22.231 21.971 21.939 21.951 21.959 22.384 24.089 27.001 32.126 29.494 23.729 23.086 22.081 22.039 22.094 22.049 22.134 22.279 22.549 22.714 22.241 22.256 22.564 23.329 23.451 24.094 24.331 24.799 22.394 23.701 21.731 21.654 21.566 22.196 23.131 23.011 21.554 21.551 20.301 20.181 20.141 20.019 19.854 19.681 19.554 19.389 19.541 19.419 19.279 19.149 19.011 18.814 18.516 18.239 18.056 18.029 17.961 19.136 18.634 18.829 19.696 17.636 17.206 17.149 17.099 17.071 16.984 16.899 16.854 16.804 16.734 16.621 16.491 16.279 15.639 15.746 16.749 15.579 14.069 13.186 12.991 13.046 13.426 13.921 14.474 14.951 15.186 16.186 15.256 15.281 15.271 15.806 17.206 15.176 15.516 15.921 15.906 18.071 18.014 17.911 17.616 15.816 15.636 16.784 18.401 18.371 16.786 17.584 17.551 14.774 12.291 10.659 9.809 9.469 9.271 10.219 9.571 10.944 10.439 8.534 8.356 7.214 6.219 9.491 17.729 12.654 11.979 4.679 5.756 9.784 12.829 12.994 13.074 13.279 8.284 9.399 8.339 8.739 8.124 10.246 8.691 9.091 9.354 9.789 10.226 10.739 11.549 14.134 12.976 13.231 13.611 14.194 14.239 14.414 14.621 14.821 14.984 15.091 15.184 15.289 15.411 15.614 15.746 15.876 16.019 16.216 16.449 16.724 16.909 17.209 17.449 17.579 17.671 17.731 17.796 17.771 17.721 17.784 17.749 17.724 17.714 17.711 17.796 17.861 17.969 18.036 18.134 18.211 18.261 18.329 18.474 18.566 18.574 18.581 18.596 18.611 18.544 18.469 18.506 18.541 19.661 18.829 18.976 19.221 19.556 20.036 20.274 20.249 20.119 19.951 19.781 19.584 19.404 19.211 19.014
22.872 21.414 20.412 22.037 24.959 22.902 24.327 24.512 23.457 21.672 21.064 19.947 22.964 27.617 26.134 24.202 23.457 21.137 20.164 21.394 23.354 22.754 21.314 20.269 20.564 20.269 20.177 20.852 21.392 23.609 23.752 20.397 20.489 20.337 20.214 20.104 20.174 20.372 20.464 20.254 21.237 23.427 22.052 20.074 22.242 21.097 20.172 20.204 20.212 20.294 20.347 20.379 20.367 20.474 20.629 20.422 21.273 22.015 23.029 21.248 23.081 27.386 25.287 22.01 21.38 20.876 22.036 23.059 21.466 20.816 21.294 24.353 23.824 23.805 22.187 21.539 20.938 23.008 21.248 21.068 21.446 21.412 21.152 21.064 21.034 21.317 21.038 21.048 25.452 25.069 26.809 26.007 22.064 21.319 21.317 21.439 21.352 23.672 23.224 21.909 21.829 21.614 21.734 21.764 21.887 21.279 20.652 20.567 21.114 21.042 21.474 21.957 21.976 21.774 21.821 22.018 20.73 21.9 21.68 22.277 21.858 22.01 22.648 23.043 24.226 30.598 29.581 28.454 30.144 27.632 21.654 22.162 22.529 25.959 23.184 22.219 21.992 21.577 21.404 21.624 21.122 20.779 20.642 20.754 21.054 21.924 22.752 23.367 22.989 23.142 22.484 21.874 21.987 22.362 23.177 24.217 24.859 24.407 23.894 22.194 22.072 23.434 24.409 24.437 24.204 23.679 22.866 23.191 24.304 23.824 23.919 24.149 22.896 25.044 24.144 23.721 23.759 22.564 22.534 22.491 22.584 22.624 22.734 22.889 22.671 22.714 23.431 22.791 22.749 22.834 25.521 26.479 27.489 29.424 31.774 27.164 22.571 22.904 23.276 23.104 23.059 23.051 23.006 22.999 23.036 22.814 22.664 22.564 23.041 23.279 23.086 23.446 24.279 23.446 22.676 22.544 22.314 22.264 22.049 21.984 21.976 21.929 21.941 23.524 24.711 31.736 39.236 40.839 27.921 22.101 22.056 22.344 24.356 24.374 22.929 22.301 24.306 23.179 24.349 22.219 22.141 22.636 22.986 24.231 25.436 24.166 23.341 21.894 21.694 21.624 21.544 21.804 22.289 21.526 22.049 22.614 20.376 20.189 20.176 20.071 19.959 19.826 19.629 20.076 22.399 19.469 19.299 20.716 19.016 18.736 18.481 18.201 18.124 18.079 18.851 20.876 19.764 18.639 17.549 17.209 17.151 17.144 17.106 17.029 16.959 16.891 16.851 16.816 16.736 16.639 16.496 16.251 16.204 16.469 16.504 15.389 14.031 13.684 13.911 12.936 13.294 13.756 14.294 14.834 15.159 15.236 15.206 15.219 15.241 15.234 16.006 15.136 15.906 15.909 15.106 15.019 15.001 16.144 16.264 16.226 16.049 16.136 16.109 15.869 13.039 14.344 15.606 12.976 10.939 10.251 9.844 9.449 9.049 9.721 9.599 14.736 9.626 10.216 9.486 7.751 6.474 10.421 15.406 10.626 5.764 5.294 4.786 10.739 13.099 12.329 10.174 7.729 9.339 11.301 12.054 12.556 14.499 11.366 13.419 11.531 11.194 10.631 11.649 11.459 11.656 15.694 14.729 13.729 13.984 15.886 14.439 14.466 14.639 14.869 15.001 15.121 15.214 15.284 15.409 15.604 15.724 15.754 15.966 16.224 16.476 16.716 16.959 17.246 17.444 17.534 17.634 17.734 17.751 17.781 17.749 17.769 17.681 17.636 17.644 17.654 17.741 17.859 17.941 18.031 18.144 18.214 18.321 18.419 18.504 18.516 18.481 18.546 18.531 18.484 18.436 18.364 18.371 18.444 19.364 18.871 19.046 19.366 19.846 20.061 20.081 19.999 19.899 19.746 19.501 19.286 19.126 18.974 18.764
20.939 21.884 20.879 24.187 21.507 23.057 21.522 22.682 23.177 21.039 19.937 21.084 20.892 22.399 23.967 24.579 23.037 20.512 20.179 20.802 22.409 23.724 21.722 20.534 20.394 20.252 20.437 20.462 20.702 21.819 22.944 20.937 20.272 20.274 20.224 20.279 20.309 20.457 20.727 20.449 20.789 22.897 21.772 20.152 20.587 20.217 20.422 20.354 20.369 20.372 20.439 20.452 20.522 21.307 21.859 22.484 23.464 23.045 23.01 21.918 23.718 28.159 25.619 20.728 20.551 20.656 20.935 21.683 20.978 21.861 21.308 21.644 24.313 23.497 20.577 20.704 20.929 20.766 20.795 20.868 21.918 21.517 21.226 21.327 21.859 21.287 21.233 23.15 24.209 21.097 27.317 22.839 21.142 21.389 21.312 21.432 21.314 23.632 23.942 21.744 21.627 21.707 22.369 23.174 21.902 21.504 20.944 20.667 21.129 21.462 21.897 22.122 22.083 22.734 23.438 22.737 23.684 22.92 22.92 24.103 23.374 22.191 23.052 23.274 25.525 24.112 24.44 24.679 26.789 22.327 22.264 20.454 21.624 24.129 26.379 25.694 27.979 25.762 21.914 21.727 21.297 23.309 20.804 20.902 21.127 22.549 23.842 23.602 22.809 22.474 22.212 22.562 22.472 22.999 23.629 23.667 23.814 24.252 22.614 22.102 22.114 23.939 23.732 23.237 23.299 23.839 23.759 23.944 24.449 24.764 24.751 23.251 22.431 22.394 22.414 22.826 24.374 23.864 24.776 24.366 23.991 24.664 22.994 22.621 22.651 22.684 22.719 22.779 23.386 23.119 24.729 26.014 26.374 26.346 25.316 22.911 22.654 22.989 23.126 23.009 22.989 23.009 23.004 23.231 23.196 22.924 22.339 22.599 22.754 22.826 22.626 22.916 22.951 23.134 22.724 22.486 22.279 22.081 21.989 21.946 21.951 21.989 25.871 33.934 36.071 38.819 41.699 41.231 37.219 22.439 24.169 25.624 26.079 23.859 21.981 22.749 23.089 22.636 22.764 22.246 23.086 24.999 23.756 25.141 24.271 23.479 23.001 21.634 21.634 21.636 21.491 21.279 20.996 20.859 21.346 22.624 20.326 20.219 20.226 20.146 20.054 19.951 19.784 19.539 19.689 19.469 19.356 19.651 18.999 19.261 20.316 19.659 20.016 18.734 19.001 19.516 19.689 17.841 17.301 17.191 17.154 17.141 17.084 16.994 16.931 16.889 16.826 16.759 16.696 16.649 16.521 16.266 16.834 17.279 16.096 15.499 13.861 13.351 12.984 12.849 13.094 13.574 14.136 14.586 15.014 15.186 15.144 15.181 15.204 15.181 15.126 15.179 15.164 15.119 15.069 15.846 17.911 17.971 18.396 18.006 17.189 16.316 15.236 14.106 13.909 14.379 15.269 11.259 10.601 10.261 9.876 9.436 8.991 8.659 8.456 10.456 9.706 7.269 7.074 6.564 7.084 8.809 12.404 9.651 4.599 4.686 5.136 5.426 5.634 5.781 9.589 7.504 7.066 7.946 9.549 9.661 12.651 12.656 15.374 14.121 13.341 13.729 14.489 13.459 14.214 18.156 15.381 15.284 14.329 16.084 14.951 14.481 14.699 14.891 15.024 15.134 15.236 15.306 15.476 15.576 15.689 17.631 15.981 16.259 16.536 16.741 16.966 17.266 17.399 17.509 17.586 17.694 17.736 18.006 17.746 17.701 17.601 17.571 17.581 17.636 17.721 17.836 17.951 18.041 18.136 18.244 18.381 18.456 18.464 18.419 18.431 18.439 18.426 18.386 18.364 18.296 18.329 18.499 18.806 19.014 19.249 19.671 19.939 19.949 19.864 19.811 19.679 19.479 19.264 19.061 18.916 18.744 18.541
22.349 22.592 23.797 25.742 24.044 23.044 23.534 24.767 24.692 22.707 19.989 20.197 21.922 24.089 22.472 23.872 23.359 20.287 20.287 21.082 21.959 21.959 20.767 20.522 20.359 20.334 20.422 20.824 20.932 20.992 21.587 22.054 21.032 20.247 20.322 20.402 20.602 21.014 20.912 20.609 20.607 23.169 24.117 20.652 20.337 20.487 20.577 20.467 20.789 20.514 20.559 20.654 22.704 23.369 24.207 23.384 23.259 22.977 21.149 20.786 21.267 26.42 24.369 20.74 20.743 20.844 21.286 20.738 21.504 21.815 21.172 21.049 21.681 21.001 20.731 21.33 21.43 21.212 20.809 20.725 21.345 21.206 20.915 20.983 24.942 22.754 21.328 21.867 25.189 25.699 21.167 21.289 21.244 21.387 21.447 21.769 21.259 22.717 26.082 22.904 21.609 21.607 21.877 22.047 22.037 21.457 21.289 21.109 21.287 21.794 22.252 22.322 22.078 21.762 20.848 20.621 21.918 22.888 22.539 23.996 26.28 23.204 22.795 22.641 22.585 23.487 25.32 24.784 22.142 22.177 24.742 27.999 22.877 23.494 28.277 26.439 29.217 26.747 22.072 22.577 21.877 22.072 21.064 21.114 21.789 23.484 23.864 23.857 23.469 22.897 22.467 23.294 23.942 23.392 24.964 24.347 23.904 23.939 22.459 22.107 22.214 22.557 22.337 22.354 22.391 22.376 22.679 24.324 24.741 23.514 23.876 23.921 23.576 23.746 23.026 23.424 24.674 25.601 26.381 26.456 26.419 25.806 25.024 25.091 24.741 24.004 24.454 25.366 25.446 23.526 23.194 24.311 25.814 27.124 25.371 23.131 22.709 23.161 23.506 22.891 22.909 22.894 23.061 23.239 23.174 22.949 22.579 22.934 22.699 22.926 23.126 24.024 23.044 22.886 22.819 22.449 22.264 22.124 22.001 21.976 21.926 21.909 25.994 37.551 39.189 41.644 41.776 40.836 35.739 23.644 25.264 24.474 23.831 22.256 21.936 22.176 22.664 23.236 23.084 22.024 22.834 24.011 25.319 30.259 26.059 21.779 22.324 21.684 21.616 21.551 21.414 21.186 20.996 20.869 21.026 22.986 21.026 20.329 20.291 20.259 20.126 20.059 20.144 20.694 20.054 19.951 19.424 20.326 19.011 19.634 18.934 22.606 19.839 19.474 19.786 19.589 17.896 17.359 17.274 17.226 17.179 17.139 17.076 16.984 16.921 16.844 16.776 16.681 16.619 16.581 16.489 16.711 18.664 19.751 17.786 15.934 16.351 13.569 13.066 13.181 12.989 13.371 13.894 14.331 14.789 15.006 15.091 15.144 15.194 15.214 15.131 15.146 15.156 15.126 15.024 14.984 18.546 18.879 18.269 17.689 16.766 15.959 14.871 14.036 14.124 14.746 14.514 10.976 10.619 10.249 9.841 9.411 9.036 8.674 8.326 7.976 7.754 7.319 8.604 7.259 6.399 6.134 8.131 7.164 4.449 4.944 5.291 5.524 5.704 5.854 6.021 8.234 6.579 6.906 7.114 7.499 8.024 8.759 10.724 11.604 12.819 13.446 13.716 14.829 16.009 16.174 16.479 16.551 17.289 20.529 17.954 16.861 15.724 14.974 15.069 15.136 15.244 15.336 15.514 15.579 19.829 21.811 17.164 16.504 17.531 18.029 17.819 17.669 17.429 17.521 17.571 17.659 17.669 18.681 17.706 17.656 17.564 17.531 17.529 17.639 17.731 17.854 17.979 18.044 18.154 18.251 18.354 18.366 18.379 18.364 18.386 18.404 18.396 18.391 18.371 18.316 18.336 18.584 18.896 19.169 19.571 19.836 19.834 19.731 19.639 19.529 19.356 19.209 19.014 18.876 18.681 18.529 18.521
20.154 20.527 21.287 25.667 25.394 23.747 22.977 26.277 24.392 23.822 20.137 21.884 24.637 25.477 21.759 20.972 23.042 20.339 20.309 21.172 22.297 21.494 20.662 20.454 20.377 20.382 20.437 20.509 21.049 20.479 22.002 22.562 21.894 20.452 20.414 20.524 20.644 20.837 21.639 20.639 20.567 21.534 23.209 21.397 20.517 20.514 20.852 20.499 20.627 20.822 20.602 20.757 22.547 23.474 21.559 21.244 21.018 21.267 20.911 21.47 20.841 21.142 21.461 20.958 21.081 21.012 21.066 22.155 23.477 22.715 22.633 23.09 22.265 21.147 21.131 23.605 21.624 20.936 20.777 20.795 20.816 20.746 20.87 21.325 23.151 22.934 21.069 21.434 25.374 24.644 22.272 21.484 21.419 21.519 21.642 21.592 21.344 21.697 21.399 21.427 21.569 21.684 21.709 22.012 22.449 21.737 21.742 21.849 22.087 21.834 22.307 22.556 22.761 22.749 20.784 20.242 20.151 21.034 21.34 22.104 23.852 22.197 22.376 22.895 24.912 23.462 23.042 22.419 26.089 22.202 23.057 25.997 23.719 22.929 24.502 23.117 23.429 27.387 22.684 25.774 26.702 24.362 21.517 21.277 22.087 28.327 28.204 24.814 24.884 24.132 22.792 22.062 22.352 24.004 24.849 24.579 23.954 23.062 22.137 22.119 22.367 22.449 22.357 22.342 22.349 22.361 22.349 24.791 26.716 27.154 25.909 23.059 22.369 22.381 22.819 23.299 23.811 24.884 25.274 26.039 26.179 24.961 25.324 25.716 26.196 26.024 25.824 25.771 24.871 22.934 26.559 26.834 25.599 26.054 24.524 23.569 22.916 22.969 23.129 22.979 22.999 23.029 23.189 23.096 22.536 22.564 22.611 22.879 22.759 22.679 22.711 23.334 22.904 22.759 22.661 22.574 22.951 22.244 22.009 21.961 23.594 24.356 24.254 36.134 41.376 42.371 41.371 38.989 32.021 27.049 26.431 24.939 26.236 22.069 21.999 21.934 21.986 23.256 22.689 21.984 21.949 25.219 28.759 31.244 27.236 21.864 21.776 22.794 22.374 21.694 21.354 21.181 21.039 20.894 20.874 22.489 21.551 20.456 20.351 20.334 20.201 20.131 20.049 19.849 19.851 20.449 19.496 19.266 19.071 18.951 19.079 23.491 23.104 18.704 19.719 18.046 17.519 17.401 17.306 17.241 17.196 17.134 17.059 16.979 16.901 16.799 16.669 16.621 16.596 16.526 16.411 16.196 19.246 19.604 17.831 19.749 22.751 17.501 14.656 14.361 12.914 13.214 13.636 14.089 14.501 14.786 15.019 15.084 15.154 15.171 15.091 15.076 15.044 15.029 14.949 14.869 15.764 16.559 15.879 15.119 13.814 14.361 14.796 14.364 14.334 13.599 12.291 10.961 10.611 10.186 9.784 9.371 9.011 8.674 8.341 8.011 7.644 7.321 7.909 6.891 6.304 7.044 6.059 5.304 5.829 5.186 5.391 5.576 5.759 5.931 6.114 6.366 6.661 6.974 7.241 7.579 7.999 8.371 8.829 9.359 10.059 10.334 11.379 12.966 14.139 13.731 13.941 15.909 16.326 17.649 19.226 19.726 17.434 15.496 15.439 15.159 15.419 15.426 15.496 15.906 23.371 22.501 16.061 18.216 17.571 17.539 20.066 18.649 18.649 17.659 17.591 17.601 17.641 17.649 17.659 18.346 17.536 17.504 17.551 17.629 17.736 17.884 17.984 18.039 18.144 18.226 18.219 18.261 18.329 18.361 18.404 18.461 18.469 18.454 18.424 19.019 18.624 18.659 18.966 19.376 19.739 19.699 19.576 19.521 19.401 19.224 19.054 18.954 18.794 18.589 18.459 18.424 18.636
21.049 20.552 20.282 21.672 22.257 21.697 24.529 25.517 26.159 24.624 24.729 25.739 27.309 27.502 22.089 22.157 24.454 20.527 20.394 20.357 20.479 20.754 20.682 21.152 20.459 20.474 20.852 20.687 20.979 21.007 21.587 21.894 21.482 20.552 20.514 20.657 20.614 20.754 20.822 20.674 20.627 20.794 21.417 21.624 21.829 21.507 21.467 20.619 20.619 22.234 20.927 20.717 20.649 20.839 20.614 20.804 20.977 22.344 22.515 23.069 22.947 24.314 27.835 26.619 21.409 21.679 21.479 28.336 28.268 21.389 21.572 21.315 23.103 20.814 20.94 22.422 21.338 21.671 20.933 20.909 20.879 20.979 21.298 21.705 22.217 21.167 21.079 21.134 21.107 21.812 22.742 21.364 21.504 21.734 21.622 21.652 21.387 21.342 21.324 21.372 21.362 21.477 21.652 22.162 22.467 21.909 21.987 22.774 22.022 21.737 22.204 22.787 23.913 22.864 21.749 21.38 20.884 21.365 21.753 23.596 23.734 22.391 22.298 22.499 29.775 24.517 22.284 22.629 26.249 24.657 24.357 28.557 26.849 30.289 25.199 22.552 25.587 26.469 24.402 24.127 24.754 26.762 25.579 21.822 22.774 24.942 24.512 24.504 24.049 24.154 22.402 22.122 22.437 22.994 23.697 24.264 24.039 22.899 22.147 22.149 22.402 22.459 22.309 22.307 22.319 22.374 22.836 25.474 26.946 27.036 25.459 22.581 22.424 22.414 22.431 22.424 22.546 22.736 23.151 24.254 25.016 27.339 28.861 29.109 29.591 27.596 27.391 26.744 26.044 26.684 30.089 31.511 29.511 26.849 25.141 25.004 23.241 22.939 22.969 23.049 23.051 23.034 23.106 22.936 22.579 22.639 22.589 22.466 22.581 22.749 22.731 22.529 22.489 22.586 22.644 22.439 22.344 22.171 21.999 21.991 21.961 22.716 22.511 29.704 41.766 41.834 39.924 36.659 35.026 26.334 24.809 25.229 25.566 22.311 22.601 24.199 23.304 21.994 22.001 22.019 22.566 23.339 30.216 31.224 30.431 23.204 22.854 24.014 26.794 26.021 23.276 21.221 21.081 20.989 20.864 22.284 22.839 20.591 20.406 20.396 20.251 20.219 20.061 19.909 19.819 21.946 19.579 19.364 21.336 21.074 20.449 20.556 19.746 22.511 20.579 17.556 17.441 17.381 17.294 17.214 17.149 17.076 17.006 16.904 16.846 16.736 16.631 16.534 16.524 16.436 16.326 16.139 17.626 17.311 16.241 21.349 22.954 22.979 17.124 14.789 12.904 13.081 13.374 13.801 14.246 14.606 14.906 15.029 15.104 15.079 15.024 15.046 15.001 14.991 14.901 14.809 14.671 14.504 14.246 13.894 13.451 13.161 13.474 13.579 12.689 11.759 11.321 10.896 10.504 10.126 9.759 9.424 9.056 8.686 8.419 8.056 7.691 7.306 7.079 6.926 9.566 14.176 10.466 7.459 5.314 6.624 7.111 5.686 5.906 6.069 6.239 6.494 6.759 7.036 7.354 7.764 8.131 8.576 9.054 9.601 10.151 10.639 11.064 11.736 12.349 12.901 13.289 16.886 17.804 16.994 18.329 15.786 15.976 16.906 17.076 16.021 16.411 16.761 16.336 17.321 20.874 23.059 16.459 17.041 16.679 20.884 23.061 17.479 18.319 17.846 18.114 17.609 17.589 17.564 17.636 17.599 17.569 17.529 17.534 17.629 17.764 17.884 17.966 18.084 18.169 18.166 18.141 18.204 18.284 18.364 18.456 18.514 18.569 18.556 18.489 19.391 19.316 18.994 19.304 19.661 19.669 19.429 19.199 19.099 19.051 18.896 18.784 18.679 18.516 18.349 18.356 18.574 18.931
20.687 22.004 24.599 24.464 23.459 25.874 26.334 25.382 26.719 25.597 23.522 25.709 29.547 31.389 27.584 23.769 23.629 20.487 20.947 20.639 20.957 20.844 20.674 20.622 20.599 20.564 20.697 20.667 20.834 20.634 20.709 20.984 20.547 20.574 20.597 20.872 20.802 20.744 20.727 20.659 20.772 21.804 20.874 21.749 24.947 25.319 23.019 21.404 20.797 20.727 20.647 20.652 20.632 20.704 20.797 21.852 23.164 24.384 23.431 25.535 24.821 26.952 29.235 26.438 21.757 26.855 21.446 22.297 24.529 23.216 21.935 21.569 25.359 21.546 20.929 21.184 21.15 21.208 25.875 24.194 22.299 27.882 24.197 21.069 25.244 26.059 25.074 21.117 21.184 21.132 21.282 21.212 21.189 21.459 21.997 24.404 21.679 21.602 22.087 22.304 21.499 21.514 21.914 22.119 22.249 22.074 21.894 21.872 21.742 21.619 22.017 22.472 23.11 22.791 22.073 21.449 21.467 21.732 22.736 24.619 23.921 22.278 21.752 27.092 29.815 22.357 22.724 26.319 23.359 23.247 27.042 26.667 26.159 25.609 24.289 23.279 25.734 25.722 23.717 24.717 27.347 26.089 24.397 21.759 21.892 23.554 24.187 24.327 23.987 22.817 22.237 22.809 23.067 24.034 24.174 24.189 23.349 22.159 22.147 22.169 22.204 22.309 22.262 22.279 22.321 22.359 23.646 25.814 27.129 26.806 25.499 22.629 22.424 22.449 22.454 22.439 22.536 22.756 22.846 25.359 27.626 25.509 29.519 29.726 28.399 29.031 28.336 28.544 29.381 29.784 28.981 30.724 30.296 28.074 25.311 25.621 22.941 22.896 23.346 23.724 23.569 23.266 23.156 22.914 22.736 22.566 22.669 22.659 22.629 22.684 23.204 22.666 22.486 22.439 23.206 22.651 22.301 22.101 21.971 22.006 22.051 22.386 22.406 26.851 39.851 41.026 38.091 35.361 34.086 32.754 23.496 24.766 24.851 22.476 24.614 26.434 26.194 22.464 22.184 22.171 22.039 22.954 26.509 26.206 24.216 22.014 23.244 26.899 28.801 28.191 27.451 24.229 21.074 21.016 21.009 23.349 23.321 21.896 21.214 20.354 20.236 21.579 20.126 19.966 20.584 20.506 20.006 19.676 19.914 19.741 20.389 22.911 23.441 22.786 17.636 17.496 17.436 17.366 17.281 17.216 17.106 17.034 16.986 16.899 16.779 16.671 16.559 16.479 16.436 16.341 16.666 16.976 19.221 17.424 16.146 18.976 17.766 16.936 14.741 13.171 12.939 12.989 13.169 13.596 14.001 14.369 14.726 14.896 15.001 15.021 14.986 14.976 14.956 14.934 14.879 14.769 14.606 14.394 14.134 13.779 13.286 12.924 12.581 12.289 11.894 11.541 11.191 10.816 10.449 10.114 9.749 9.421 9.099 8.706 8.411 8.101 7.721 7.324 6.936 7.851 8.324 12.376 11.136 5.979 5.881 9.656 6.539 5.779 5.939 6.139 6.341 6.556 6.829 7.101 7.416 7.859 8.274 8.746 9.304 9.886 10.444 10.931 11.299 11.871 12.539 13.024 13.271 13.721 14.631 14.896 15.584 14.989 14.906 15.289 16.454 15.461 15.466 15.454 15.854 16.259 17.454 20.051 19.184 17.824 17.646 33.171 28.844 27.881 18.941 18.404 19.974 18.854 19.594 20.184 19.209 18.029 17.546 17.556 17.606 17.631 17.754 17.864 17.929 18.074 18.109 18.141 18.121 18.164 18.276 18.399 18.471 18.556 18.624 18.621 18.689 18.844 18.936 19.284 19.651 19.706 19.446 19.191 18.949 18.726 18.586 18.519 18.411 18.264 18.231 18.214 18.431 18.756 19.204
21.594 21.867 23.567 24.882 22.794 25.497 26.737 26.912 27.682 24.137 21.544 25.672 28.407 26.519 33.002 24.637 22.832 20.522 21.367 21.374 25.682 24.104 21.859 22.427 20.927 20.692 20.747 20.724 20.722 20.782 20.704 20.659 20.707 20.924 20.737 20.807 20.914 20.937 20.829 20.924 21.514 23.529 22.309 21.457 22.939 22.729 21.284 20.764 20.704 20.712 20.727 20.792 20.874 20.927 20.877 21.564 22.427 26.679 25.842 25.176 26.689 26.483 28.314 30.502 21.807 24.726 23.2 22.64 23.318 21.722 22.992 21.961 21.334 21.252 20.996 21.054 21.309 21.142 21.18 22.813 29.48 23.097 22.359 21.317 23.182 21.747 21.129 21.037 21.227 21.577 21.337 21.609 21.734 21.464 21.307 21.512 23.622 21.959 23.017 24.444 21.679 21.869 23.357 22.292 22.309 22.157 21.857 21.714 21.732 21.747 21.897 21.997 22.111 22.71 22.408 21.664 21.796 22.124 22.947 22.425 23.976 23.424 22.48 21.614 21.315 21.845 24.564 24.797 22.277 23.912 29.502 26.112 23.454 23.442 24.984 23.459 26.747 25.074 22.849 25.177 26.189 26.237 24.544 22.009 21.854 22.687 23.579 24.044 23.689 22.707 22.512 22.619 22.987 24.092 24.962 24.034 22.719 22.177 22.169 22.429 22.562 22.244 22.314 22.309 22.354 22.699 23.361 25.984 27.169 26.614 24.694 22.366 22.409 22.431 22.464 22.451 22.514 22.579 22.686 26.374 27.396 27.781 27.014 27.314 28.499 28.896 29.101 29.474 29.704 29.266 29.134 30.074 30.041 30.909 35.244 35.524 33.399 33.074 30.344 24.506 23.811 23.426 23.189 22.846 22.429 22.459 22.464 22.434 22.496 22.514 22.744 22.641 22.354 22.501 23.301 22.711 22.196 22.064 22.086 22.044 22.064 22.101 23.756 27.654 38.896 40.119 37.516 34.721 33.871 29.531 25.186 24.786 25.766 24.306 23.294 25.179 25.259 24.031 22.564 22.404 22.174 22.001 21.961 21.954 21.966 21.946 22.694 26.929 27.986 28.579 28.561 28.001 23.139 20.971 21.181 22.641 23.736 23.851 22.951 20.364 20.204 20.154 22.071 21.279 20.364 24.796 21.646 21.089 20.654 21.221 23.389 25.134 23.201 20.479 17.491 17.459 17.424 17.321 17.261 17.144 17.031 16.949 16.911 16.854 16.764 16.674 16.601 16.499 16.384 16.284 17.789 19.994 20.461 20.454 16.529 17.304 15.976 14.321 13.889 13.421 13.089 13.001 13.036 13.384 13.796 14.136 14.431 14.661 14.834 14.901 14.946 14.934 14.861 14.861 14.804 14.689 14.544 14.279 14.051 13.651 13.116 12.756 12.391 12.091 11.794 11.454 11.086 10.756 10.421 10.096 9.756 9.426 9.106 8.741 8.424 8.099 7.706 7.289 6.989 7.556 9.721 8.419 8.261 5.636 7.979 5.266 5.616 5.856 6.014 6.201 6.361 6.656 6.876 7.139 7.459 7.889 8.364 8.849 9.406 10.009 10.571 11.056 11.471 12.004 12.509 12.949 13.274 13.821 14.571 14.624 15.236 15.034 14.939 15.006 15.099 15.226 15.401 15.304 15.519 15.676 17.079 17.381 16.686 16.279 16.426 23.719 25.899 27.811 18.241 17.761 18.196 18.371 18.981 20.534 20.081 17.571 17.561 17.569 17.644 17.689 17.759 17.834 17.946 18.006 18.039 18.084 18.101 18.164 18.274 18.401 18.544 18.646 18.756 18.841 18.936 19.079 19.371 19.631 19.671 19.491 19.231 18.991 18.724 18.421 18.361 18.181 18.049 18.031 18.136 18.309 18.611 19.061 19.514
25.067 24.454 24.192 24.244 23.387 24.087 26.779 26.547 24.642 24.874 21.127 24.559 29.382 28.082 32.177 25.512 21.987 20.984 21.917 21.164 23.094 24.644 21.034 21.912 22.704 21.314 21.337 21.157 20.902 21.164 20.869 20.994 21.024 20.864 20.767 20.919 21.034 21.184 21.797 23.089 22.724 22.759 22.292 26.077 21.664 20.769 20.772 20.804 20.809 20.824 20.877 20.919 20.972 20.829 20.844 21.194 22.654 26.337 28.054 25.716 26.812 27.014 23.983 25.236 27.494 21.64 21.9 21.49 21.818 21.222 21.811 22.61 21.357 21.265 21.179 21.524 21.908 21.189 21.403 22.084 24.574 21.427 21.792 21.427 21.297 21.222 21.154 21.592 22.509 22.192 21.702 21.694 21.474 21.394 21.329 21.459 23.019 26.297 24.627 22.749 23.399 24.962 27.322 23.532 22.172 22.124 21.899 21.822 21.767 21.784 21.922 22.629 22.511 22.946 22.3 22.501 21.975 22.098 24.039 24.394 23.028 23.642 21.918 21.553 21.486 21.549 24.447 26.034 28.904 22.639 22.962 23.509 24.564 25.974 23.562 28.799 25.522 23.742 23.229 23.454 24.534 26.299 24.619 22.217 21.949 22.002 22.547 23.119 22.894 22.679 25.129 23.039 22.957 23.924 24.242 23.764 22.257 22.154 22.272 22.619 22.412 22.344 22.484 22.457 22.391 24.226 24.759 25.599 26.569 26.289 24.381 22.371 22.414 22.461 22.549 22.459 22.464 22.464 22.829 29.336 32.656 24.984 23.914 23.931 24.379 26.414 25.709 27.821 28.129 28.066 28.089 27.489 28.616 35.276 38.129 38.221 38.036 38.646 37.939 26.796 24.579 25.759 24.249 24.684 23.041 23.036 23.009 22.686 22.304 22.079 22.166 22.221 22.231 22.521 22.794 22.296 22.101 22.061 22.234 22.259 22.084 22.031 24.669 27.031 30.334 35.184 37.134 34.741 31.524 23.951 23.819 24.651 25.211 25.659 23.569 22.759 24.339 24.449 22.951 22.836 22.509 22.144 22.024 21.974 21.991 22.334 24.421 25.284 26.341 27.524 28.234 28.956 21.719 20.941 20.884 21.639 25.024 24.771 24.426 20.716 20.169 20.109 21.569 22.901 20.849 23.039 23.301 22.236 21.421 20.479 22.071 21.746 21.074 17.544 17.419 17.424 17.429 17.361 17.209 17.079 16.956 16.901 16.851 16.836 16.749 16.674 16.596 16.521 16.349 16.219 17.344 19.571 20.719 19.206 15.466 18.046 18.266 14.934 14.379 15.201 13.686 13.056 12.956 13.146 13.476 13.821 14.106 14.309 14.554 14.709 14.836 14.879 14.831 14.729 14.719 14.586 14.439 14.219 13.976 13.451 12.979 12.621 12.289 11.979 11.719 11.376 10.994 10.669 10.381 10.071 9.759 9.451 9.116 8.744 8.409 8.089 8.216 8.691 6.991 7.409 8.079 7.639 6.321 9.731 6.259 5.061 5.671 5.961 6.149 6.321 6.471 6.764 6.994 7.186 7.629 8.114 8.579 8.981 9.504 10.059 10.746 11.111 11.574 11.976 12.484 12.906 13.271 13.839 14.141 14.526 15.129 14.724 14.989 15.001 15.034 15.429 15.369 15.311 15.574 15.941 15.854 17.296 16.991 16.241 19.376 25.001 27.169 19.901 17.481 17.554 17.646 17.696 18.444 18.931 19.126 17.601 17.509 17.634 17.696 17.726 17.814 17.899 17.911 17.899 17.949 18.064 18.116 18.174 18.276 18.464 18.606 18.776 18.861 18.999 19.136 19.359 19.619 19.649 19.514 19.309 19.044 18.759 18.431 18.166 18.131 17.969 17.904 18.011 18.134 18.456 18.926 19.391 19.809
23.787 25.577 26.309 25.642 20.864 25.209 25.087 26.872 24.052 21.842 20.824 24.427 23.054 28.137 29.677 23.824 20.964 21.137 21.484 21.027 21.962 26.824 26.759 26.719 27.082 25.577 22.817 22.732 22.359 22.959 22.574 22.392 22.732 21.177 21.467 21.284 21.679 21.977 21.982 22.884 22.174 21.844 22.094 26.424 21.694 20.827 20.892 21.019 21.149 20.939 20.914 20.882 20.952 20.962 22.042 21.154 21.127 30.519 28.027 26.514 26.657 27.28 27.76 25.137 21.533 21.36 23.012 23.783 21.457 21.279 21.494 21.496 21.312 21.316 21.235 21.574 21.597 21.2 21.236 22.202 21.784 21.379 22.557 21.442 22.292 21.417 21.432 21.217 21.792 21.259 21.392 21.809 21.449 22.302 22.334 22.384 24.719 23.722 24.689 21.497 21.409 21.772 25.474 22.002 21.959 22.037 22.114 22.279 22.234 22.457 22.567 22.88 22.794 22.664 22.131 22.537 22.167 22.643 22.898 24.129 24.281 23.062 22.676 23.714 24.69 23.487 24.789 24.647 27.522 25.432 25.047 23.539 24.722 28.187 23.997 29.979 24.927 24.044 24.962 23.272 23.152 23.452 22.872 21.949 21.924 21.949 22.042 22.272 22.442 23.269 23.147 23.159 22.977 23.072 23.132 22.789 22.162 22.157 22.322 22.352 22.682 22.662 22.599 24.299 23.991 24.849 25.034 25.019 23.866 22.736 22.809 22.361 22.416 22.526 22.924 22.619 22.461 22.441 24.251 30.576 31.071 24.691 25.288 24.837 24.408 24.704 25.192 25.894 27.848 28.418 28.535 27.793 25.248 32.514 37.001 36.459 36.536 37.914 38.159 32.329 30.896 30.464 27.456 29.014 26.151 26.739 27.144 26.789 26.484 22.656 22.264 22.199 22.161 22.504 22.691 22.226 22.094 22.094 22.124 22.066 22.104 22.099 22.691 23.744 23.924 30.336 35.399 38.671 30.039 22.881 26.461 25.564 24.831 27.591 25.936 23.044 23.164 23.279 22.849 22.951 22.596 22.249 22.036 21.994 22.056 23.976 25.004 25.134 25.704 24.936 25.879 24.174 21.231 21.239 21.211 21.411 22.736 24.314 21.619 20.616 20.856 21.609 22.569 24.241 24.099 23.344 22.384 22.386 21.789 20.469 22.041 22.016 18.466 17.461 17.399 17.396 17.399 17.331 17.211 17.051 16.944 16.871 16.854 16.776 16.731 16.686 16.581 16.526 16.386 16.281 16.714 16.641 19.146 19.111 16.999 16.891 20.226 16.771 14.739 15.336 14.236 13.174 12.946 12.916 13.086 13.419 13.704 13.981 14.254 14.489 14.681 14.779 14.774 14.654 14.614 14.509 14.366 14.194 13.916 13.344 12.904 12.569 12.254 11.896 11.626 11.269 10.896 10.629 10.371 10.029 9.741 9.401 9.066 8.706 8.399 8.034 7.736 7.811 7.021 8.956 11.134 9.169 8.156 11.714 12.654 5.576 5.739 6.014 6.411 6.436 6.984 7.291 7.266 7.384 8.009 8.544 9.014 9.404 9.791 10.166 10.616 12.481 11.531 11.944 12.456 12.886 13.204 13.721 14.159 15.031 14.864 14.799 15.069 15.066 15.014 15.144 15.259 16.371 15.461 15.846 16.284 16.436 17.201 16.186 16.431 16.709 17.741 17.216 17.354 17.521 17.601 17.694 17.979 21.324 25.139 19.969 17.581 17.611 17.689 17.759 17.816 17.831 17.879 17.881 17.936 18.046 18.129 18.194 18.331 18.506 18.686 18.854 18.959 19.146 19.379 19.614 19.674 19.529 19.346 19.146 18.844 18.574 18.271 18.034 17.899 17.896 17.924 18.084 18.284 18.826 19.274 19.704 20.019
23.252 24.544 28.229 27.154 22.477 25.814 22.179 26.807 21.189 20.572 20.974 21.172 20.959 22.704 26.834 25.074 21.304 21.947 23.292 22.717 22.352 28.312 28.539 28.369 28.417 28.527 25.019 23.907 23.492 24.957 24.062 23.092 24.777 25.287 22.072 21.444 22.684 24.522 23.204 22.784 21.114 20.929 20.907 22.072 21.684 21.247 22.429 22.632 21.189 20.969 21.044 21.024 21.167 21.082 21.694 21.422 21.122 22.247 28.677 34.952 32.654 30.097 26.537 26.336 24.806 21.981 21.991 22.132 21.614 22.119 21.898 21.339 22.246 21.431 21.39 21.407 21.349 21.425 21.704 21.427 21.572 22.477 21.479 21.852 22.769 21.917 21.532 21.257 21.372 21.564 21.399 21.662 21.487 21.674 25.289 24.554 22.344 22.202 25.392 23.037 22.037 21.729 22.429 22.489 21.922 22.317 21.839 21.972 22.404 22.517 22.16 21.952 22.21 23.096 23.666 22.793 22.205 23.368 23.006 23.799 24.087 25.98 25.396 23.846 22.923 23.232 26.144 24.414 27.734 25.389 23.484 22.962 26.417 25.949 24.952 28.989 29.699 23.064 22.944 22.962 23.154 22.384 21.974 21.857 21.904 21.907 21.927 22.102 22.424 23.907 23.477 23.474 23.384 23.092 22.907 22.329 22.174 22.129 22.394 22.299 22.344 22.462 23.512 26.067 25.751 25.339 25.076 24.914 23.521 23.224 23.366 23.309 22.496 23.066 24.741 23.786 23.024 22.464 26.696 29.878 28.844 25.461 26.263 23.923 24.451 23.41 24.681 26.232 26.901 27.64 27.751 27.945 26.771 28.772 32.746 29.701 30.421 35.474 34.039 29.959 29.251 31.514 30.604 29.329 28.694 27.359 28.111 29.069 29.006 28.316 25.559 26.399 24.636 24.291 25.691 24.516 22.414 22.144 22.181 22.119 22.141 22.126 22.141 22.409 27.051 28.241 28.621 28.541 26.581 24.329 25.321 24.716 23.631 25.071 23.449 22.969 23.101 22.874 22.866 22.796 22.539 22.281 22.086 22.044 22.411 23.909 24.821 25.106 24.891 22.654 22.006 21.814 21.604 21.481 21.541 22.221 22.431 22.611 21.811 21.204 22.456 26.694 28.081 25.119 21.926 20.906 20.586 21.429 20.794 19.661 23.831 22.224 17.746 17.484 17.426 17.436 17.386 17.274 17.226 17.054 16.961 16.891 16.871 16.784 16.691 16.646 16.581 16.521 16.446 16.394 19.041 18.381 18.166 19.481 16.849 20.381 20.014 16.001 14.621 14.149 13.686 13.221 12.966 12.786 12.796 13.056 13.384 13.686 13.994 14.246 14.526 14.684 14.734 14.646 14.564 14.414 14.306 14.156 13.826 13.224 12.809 12.484 12.176 11.894 11.561 11.199 10.891 10.601 10.366 10.041 9.734 9.381 9.024 8.716 8.361 7.989 7.644 7.336 6.961 9.436 12.401 13.586 7.771 13.664 13.401 10.381 5.824 6.144 6.356 6.501 6.819 7.154 7.421 7.826 8.479 9.071 9.521 9.869 11.009 10.621 10.936 12.414 11.649 12.066 12.539 12.906 13.204 14.034 14.171 14.809 14.946 15.676 16.521 15.226 15.116 15.194 15.504 15.229 15.439 15.604 15.749 15.876 17.731 16.181 16.454 16.704 16.914 17.164 17.319 17.459 17.551 17.681 17.876 21.501 20.256 17.946 17.561 17.649 17.694 17.754 17.749 17.774 17.766 17.836 17.931 18.039 18.156 18.249 18.376 18.596 18.784 18.961 19.146 19.354 19.576 19.629 19.549 19.394 19.186 18.959 18.664 18.341 18.064 17.849 17.766 17.919 18.136 18.324 18.636 19.144 19.626 19.976 20.251
22.082 23.929 24.127 26.332 25.204 28.904 26.349 28.737 31.259 24.664 24.189 25.217 21.317 22.429 28.822 28.649 22.269 22.722 24.677 24.234 22.007 26.634 27.202 27.342 27.264 27.579 25.154 23.644 23.762 28.877 27.499 24.279 22.997 23.487 21.902 25.157 23.427 22.117 21.739 21.102 21.074 21.039 22.359 22.099 25.039 25.759 29.059 32.417 29.862 21.397 21.044 21.257 21.139 21.192 21.364 21.172 21.107 25.859 24.102 30.402 31.164 28.774 23.742 26.757 26.971 21.81 23.352 22.177 21.825 22.077 21.885 21.444 21.478 21.493 22.216 21.49 21.367 21.469 21.342 21.404 21.554 21.799 23.139 22.224 23.662 25.814 21.442 21.542 21.532 22.257 21.399 21.467 21.697 21.457 21.547 22.217 23.227 21.432 21.762 22.352 21.632 22.492 21.964 23.667 22.704 21.769 21.684 21.634 21.624 21.634 21.694 22.122 22.365 24.247 24.309 22.07 22.265 23.797 23.996 25.26 22.662 24.804 24.909 23.406 24.032 23.654 23.717 22.757 23.852 25.379 22.077 25.519 26.732 31.527 30.014 31.809 33.229 29.207 24.649 28.144 25.832 21.959 21.839 21.779 21.854 21.914 21.974 22.059 22.212 22.582 23.047 23.394 23.487 23.319 23.314 22.177 22.132 22.207 22.487 22.287 22.207 22.372 24.432 26.317 26.521 26.511 25.991 24.286 22.846 23.631 24.126 24.654 23.641 24.021 24.566 23.861 24.039 26.501 29.03 29.164 26.471 23.679 24.654 23.749 22.7 22.673 22.736 23.531 26.441 26.983 27.41 28.147 27.829 27.949 25.925 22.757 23.179 27.971 25.476 27.126 26.906 28.456 26.104 23.326 27.714 27.829 27.724 30.231 30.341 30.324 29.859 30.124 30.269 30.214 27.581 29.314 27.576 26.361 26.531 26.141 22.114 22.109 22.126 22.674 23.554 25.419 23.226 22.039 22.316 23.204 24.539 25.301 25.669 25.126 25.296 25.301 24.569 23.501 23.426 22.766 22.559 22.369 22.239 22.406 23.019 22.286 22.939 24.229 24.319 21.791 21.731 21.656 22.721 22.806 22.959 23.081 21.839 21.551 23.311 21.816 22.281 24.471 25.894 24.374 21.666 20.826 18.491 18.081 19.169 21.091 23.644 19.291 17.541 17.501 17.451 17.434 17.336 17.239 17.149 17.054 17.004 16.944 16.899 16.846 16.721 16.606 16.569 16.564 16.566 16.946 15.986 17.536 18.514 19.649 16.854 17.004 17.014 15.196 14.841 14.304 13.866 13.361 12.956 12.624 12.594 12.791 13.111 13.466 13.759 14.029 14.269 14.519 14.641 14.621 14.569 14.406 14.269 14.074 13.716 13.106 12.756 12.434 12.151 11.829 11.511 11.181 10.904 10.624 10.319 10.031 9.711 9.374 9.036 8.679 8.366 8.429 7.669 7.364 7.134 10.454 13.874 6.126 6.701 8.366 12.386 12.849 8.344 6.189 6.411 6.624 7.026 7.626 8.034 8.461 9.066 9.566 10.034 12.499 10.774 11.151 11.396 11.696 12.034 12.354 12.721 12.944 13.216 13.704 14.194 14.636 14.991 15.166 15.536 15.144 15.126 15.199 15.226 15.234 15.511 15.649 16.414 16.559 16.041 16.216 16.481 16.751 16.936 17.131 17.279 17.384 17.521 17.646 17.751 23.041 20.241 17.684 17.629 17.689 17.739 17.726 17.664 17.666 17.701 17.781 17.896 18.034 18.171 18.329 18.519 18.746 18.974 19.144 19.341 19.509 19.551 19.489 19.366 19.199 18.966 18.756 18.436 18.114 17.944 17.799 17.804 18.084 18.464 18.726 19.114 19.544 19.901 20.201 20.501
