ncols 443
nrows 32
xllcorner    457054
yllcorner    89738
cellsize     2
NODATA_value -9999
31.227 31.422 32.27 32.397 32.362 32.532 32.96 33.165 33.197 33.462 35.052 33.795 33.927 34.382 34.425 34.45 34.532 34.657 34.775 34.94 35.052 35.265 35.497 36.492 35.997 35.905 36.09 36.082 36.03 36.157 36.022 36.09 36.18 36.275 36.475 36.49 36.662 36.605 36.655 36.63 36.652 36.672 36.692 36.747 36.74 36.622 37.412 37.21 38.42 43.007 45.35 37.657 36.605 36.627 36.812 36.957 37.017 36.867 36.645 37.557 46.18 44.987 43.107 37.612 37.767 40.557 40.672 38.665 39.007 39.307 40.097 39.932 40.102 40.27 40.575 40.58 42.867 48.835 48.09 43.69 41.945 44.165 43.552 42.735 42.922 44.21 50.06 47.647 44.882 45.862 46.72 45.125 45.38 45.5 45.645 45.817 45.932 46.09 46.325 46.517 46.735 46.937 47.147 47.315 47.525 47.76 47.987 48.197 48.442 48.665 48.91 49.19 49.44 49.7 49.967 50.237 50.512 50.815 51.077 51.362 51.635 51.895 52.16 52.388 52.643 52.925 53.183 53.46 53.733 54.005 54.313 54.613 54.908 55.213 55.498 55.76 56.063 56.32 56.585 56.878 57.105 57.36 57.575 57.795 58.003 58.19 58.385 58.595 58.805 59.023 59.195 59.328 59.473 59.49 59.625 60.02 61.008 62.29 61.998 60.665 60.63 60.705 60.828 60.868 60.878 60.94 61.033 61.083 61.108 61.168 61.21 61.238 61.278 61.303 61.333 61.34 61.33 61.353 61.358 61.35 61.333 61.263 61.268 61.208 61.148 61.115 61.065 60.995 60.93 60.875 60.825 60.75 60.63 60.53 60.42 60.288 60.203 60.103 60.03 59.935 59.798 59.695 59.6 59.523 59.433 59.325 59.225 59.15 59.058 58.963 58.868 58.778 58.695 58.618 58.453 58.453 58.52 58.565 58.475 58.12 58.49 57.583 59.098 59.128 58.67 58.788 58.923 59.128 59.32 59.505 59.71 59.935 60.105 60.283 60.475 60.635 60.865 61.12 61.343 61.575 61.808 62.065 62.315 62.52 62.678 62.815 62.928 63.023 63.128 63.255 63.38 63.508 63.633 63.775 63.868 63.963 64.098 64.253 64.405 64.49 64.54 64.585 64.648 64.698 64.765 64.81 64.898 64.965 65.043 65.08 65.138 65.228 65.285 65.345 65.393 65.455 65.495 65.575 65.648 65.718 65.753 65.808 65.888 65.943 65.993 66.065 66.09 66.143 66.165 66.215 66.308 66.34 66.415 66.485 66.553 66.608 66.695 66.755 66.843 66.92 67.028 67.078 67.16 67.208 67.24 67.278 67.683 68.868 69.413 68.373 67.808 67.795 67.805 67.83 67.93 67.965 68.005 68.075 68.17 68.293 68.348 68.393 68.443 68.518 68.525 68.563 68.6 68.635 68.668 68.695 68.738 68.728 68.78 68.798 68.833 68.818 68.798 68.813 68.838 68.828 68.81 68.8 68.773 68.74 68.645 68.613 68.538 68.488 68.368 68.315 68.27 68.243 68.195 68.133 68.07 68.018 67.93 67.875 67.793 67.715 67.648 67.545 67.498 67.423 67.32 67.248 67.163 67.14 67.06 66.973 66.935 66.905 66.88 66.811 66.716 66.593 66.468 66.728 70.401 69.276 65.706 65.668 66.698 68.258 65.816 65.348 65.633 66.088 67.086 68.006 67.871 66.216 65.981 66.563 65.978 67.441 68.126 68.103 67.601 65.326 64.373 64.318 64.286 64.228 64.878 65.683 64.826 64.336 64.281 64.243 64.066 63.696 63.371 63.011 62.783 62.628 62.468 62.338 62.106 61.883 61.746 61.646 61.556 61.441 61.336 61.178 61.006 60.846 60.673 60.543 60.406 60.228 60.093 59.913 59.753 59.598 59.428 59.261 59.091 58.918 58.766 58.621 58.451
31.142 31.41 31.732 32.105 32.26 32.495 32.78 33.01 33.25 33.587 33.647 33.725 33.88 34.017 34.137 34.227 34.38 34.51 34.662 34.952 38.277 35.282 39.302 51.04 35.915 35.697 36.007 36.105 36.05 36.285 35.985 35.987 36.105 36.315 36.35 36.482 36.487 37.84 36.462 36.615 36.525 36.502 36.567 36.755 37.117 36.605 36.682 36.632 37.532 40.027 40.767 38.352 36.532 36.68 36.79 36.83 36.677 36.362 36.87 39.287 38.552 38.947 37.715 37.732 38.18 38.535 38.522 38.732 39.692 39.365 39.665 40.005 40.135 40.237 40.547 40.72 42.43 44.907 46.597 41.975 42.082 42.352 42.612 42.805 43.682 47.525 46.465 45.917 44.695 45.73 45.74 45.24 45.47 45.617 45.73 45.9 46.06 46.217 46.415 46.617 46.83 47.05 47.277 47.457 47.677 47.902 48.152 48.332 48.582 48.852 49.102 49.367 49.642 49.862 50.135 50.405 50.657 50.977 51.237 51.525 51.752 52.025 52.285 52.53 52.788 53.033 53.25 53.523 53.818 54.105 54.398 54.7 54.965 55.257 55.54 55.798 56.07 56.32 56.608 56.87 57.095 57.335 57.593 57.783 57.978 58.195 58.39 58.565 58.76 58.998 59.14 59.3 59.403 59.4 59.53 60.315 60.873 62.238 61.863 60.535 60.47 60.538 60.65 60.705 60.785 60.835 60.928 60.99 61.028 61.063 61.11 61.153 61.19 61.16 61.175 61.215 61.225 61.23 61.238 61.213 61.163 61.138 61.08 61.033 60.97 60.94 60.9 60.828 60.775 60.683 60.613 60.515 60.403 60.263 60.188 60.08 59.978 59.885 59.823 59.673 59.575 59.48 59.383 59.31 59.183 59.078 59.035 58.908 58.815 58.728 58.65 58.568 58.478 58.358 58.205 58.255 58.295 58.315 58.32 58.355 58.633 57.895 58.873 58.503 58.588 58.725 58.883 59.098 59.265 59.46 59.678 59.883 60.083 60.235 60.398 60.595 60.83 61.068 61.318 61.52 61.763 62.005 62.253 62.465 62.61 62.748 62.868 62.97 63.105 63.205 63.308 63.465 63.593 63.728 63.813 63.915 64.088 64.24 64.33 64.415 64.485 64.525 64.59 64.63 64.728 64.773 64.843 64.89 64.935 65.013 65.068 65.163 65.225 65.248 65.315 65.378 65.433 65.49 65.575 65.623 65.678 65.733 65.813 65.84 65.903 65.963 65.998 66.038 66.07 66.155 66.19 66.25 66.333 66.405 66.465 66.51 66.575 66.665 66.745 66.815 66.918 66.975 67.038 67.105 67.133 67.218 68.19 69.045 69.05 67.98 67.72 67.688 67.715 67.74 67.825 67.878 67.928 68.005 68.12 68.2 68.243 68.293 68.343 68.4 68.443 68.475 68.488 68.513 68.563 68.58 68.615 68.66 68.698 68.715 68.753 68.753 68.698 68.743 68.718 68.705 68.713 68.673 68.63 68.578 68.543 68.49 68.415 68.358 68.255 68.198 68.153 68.133 68.11 68.025 67.98 67.938 67.86 67.765 67.708 67.635 67.555 67.45 67.408 67.325 67.248 67.145 67.085 67.053 66.958 66.875 66.845 66.858 66.813 66.748 66.645 66.493 66.41 66.615 68.465 67.05 65.628 65.725 66.603 68.138 65.91 65.473 65.27 65.55 67.528 68.12 67.483 66.313 67.025 65.445 66.108 67.77 68.248 67.965 66.913 64.333 64.248 64.22 64.228 64.278 65.168 66.458 66.57 66.058 64.658 64 63.94 63.73 63.39 63.003 62.725 62.558 62.405 62.25 62.025 61.843 61.733 61.6 61.488 61.388 61.255 61.098 60.94 60.778 60.633 60.49 60.37 60.238 60.068 59.893 59.728 59.535 59.403 59.25 59.08 58.9 58.723 58.543 58.418
31.082 31.4 31.59 31.922 32.302 32.327 32.667 32.987 33.312 33.36 33.417 33.54 33.627 33.825 33.977 34.105 34.35 34.59 34.917 35.045 41.422 35.837 41.692 40.852 35.627 35.675 35.845 36.03 36.172 36.045 35.85 35.872 36.075 36.11 36.165 36.337 36.345 38.367 37.397 36.647 36.257 36.432 36.54 36.23 36.235 36.21 37.165 38.052 37.94 36.915 37.272 36.447 37.427 37.1 36.587 36.747 36.27 41.88 37.625 37.58 37.282 39.32 41.487 37.83 38 38.265 39.872 38.825 39.085 39.482 39.615 39.957 40.135 40.272 40.537 40.807 41.95 44.317 42.202 43.815 42.387 42.45 42.71 42.832 43.662 44.315 43.727 45.115 44.872 47.592 45.172 45.365 45.587 45.702 45.852 46.005 46.152 46.312 46.527 46.745 46.965 47.172 47.385 47.567 47.807 48.047 48.275 48.49 48.76 49.022 49.27 49.532 49.792 50.065 50.302 50.595 50.84 51.127 51.402 51.675 51.932 52.187 52.422 52.683 52.915 53.138 53.37 53.632 53.895 54.153 54.453 54.735 55.023 55.31 55.578 55.83 56.093 56.35 56.608 56.85 57.09 57.335 57.625 57.788 57.973 58.153 58.338 58.535 58.703 58.875 59.08 59.202 59.303 59.31 59.503 60.14 60.913 62.05 60.82 60.425 60.39 60.445 60.538 60.603 60.688 60.748 60.825 60.875 60.943 60.978 61 61.013 61.075 61.06 61.078 61.095 61.1 61.118 61.12 61.065 61.04 60.985 60.948 60.885 60.848 60.803 60.743 60.663 60.575 60.518 60.42 60.355 60.223 60.1 59.975 59.853 59.748 59.68 59.61 59.47 59.355 59.278 59.185 59.095 58.973 58.893 58.803 58.708 58.618 58.518 58.44 58.348 58.253 58.088 58.013 58.09 58.098 57.93 59.488 57.365 58.383 58.505 58.755 58.338 58.485 58.655 58.853 59.023 59.183 59.393 59.638 59.828 60 60.13 60.33 60.565 60.763 61.02 61.268 61.478 61.718 61.97 62.21 62.408 62.575 62.705 62.773 62.868 62.97 63.078 63.193 63.368 63.5 63.62 63.745 63.848 64.015 64.168 64.248 64.328 64.383 64.428 64.528 64.583 64.658 64.728 64.768 64.843 64.9 64.95 65.01 65.093 65.133 65.185 65.248 65.285 65.34 65.4 65.485 65.548 65.59 65.65 65.703 65.745 65.818 65.875 65.915 65.965 66.003 66.05 66.105 66.16 66.24 66.3 66.355 66.418 66.485 66.545 66.615 66.733 66.773 66.873 66.96 66.998 67.003 67.075 68.108 68.958 68.755 67.635 67.6 67.575 67.608 67.673 67.75 67.793 67.833 67.938 68.05 68.108 68.15 68.21 68.258 68.3 68.335 68.375 68.375 68.418 68.45 68.49 68.528 68.55 68.6 68.63 68.658 68.625 68.618 68.623 68.615 68.583 68.56 68.535 68.515 68.453 68.41 68.34 68.295 68.245 68.168 68.088 68.07 68.018 68 67.888 67.89 67.823 67.76 67.655 67.638 67.538 67.458 67.388 67.318 67.243 67.168 67.073 67.03 67.013 66.91 66.838 66.818 66.815 66.778 66.705 66.62 66.468 66.638 69.058 69.075 65.763 65.533 66.463 66.935 66.938 65.418 65.26 65.215 65.74 67.75 68.02 67.035 67.113 67.188 65.873 66.535 67.928 68.235 67.77 66.573 64.263 64.218 64.195 64.153 64.193 65.515 66.545 66.585 66.163 64.39 63.998 63.923 63.678 63.258 62.855 62.515 62.393 62.378 62.09 61.91 61.76 61.668 61.558 61.433 61.33 61.178 61.045 60.868 60.718 60.578 60.445 60.305 60.18 60.003 59.843 59.693 59.525 59.365 59.21 59.048 58.885 58.705 58.56 58.403
31.08 31.267 31.48 31.755 32.01 32.282 32.865 33.122 32.91 33.1 33.242 33.367 33.54 33.777 33.935 34.205 34.447 34.735 35.03 35.25 35.05 35.252 35.655 35.457 35.467 35.665 35.787 35.925 36.087 35.78 35.645 35.787 36.03 36.05 36.025 36.06 36.1 36.09 36.15 36.712 36.04 36.097 36.29 36.035 35.967 36.212 36.105 36.405 36.31 36.275 36.335 36.337 41.632 38.82 36.612 36.495 36.375 39.742 46.66 39.567 37.757 37.617 37.517 41.602 39.927 42.96 47.47 40.805 39.34 39.525 39.725 39.98 40.127 41.462 40.65 40.872 42.972 41.75 41.662 41.98 42.27 43.31 42.762 43.057 45.007 43.56 43.775 44.912 49.762 47.545 45.205 45.465 45.652 45.817 45.965 46.122 46.267 46.452 46.625 46.845 47.052 47.297 47.527 47.732 47.975 48.185 48.452 48.68 48.922 49.187 49.46 49.697 49.962 50.217 50.505 50.775 51.042 51.31 51.575 51.837 52.075 52.32 52.557 52.798 53.015 53.268 53.51 53.778 54.03 54.272 54.535 54.8 55.08 55.363 55.635 55.868 56.123 56.355 56.62 56.85 57.1 57.327 57.593 57.768 57.98 58.15 58.348 58.498 58.683 58.903 59.01 59.118 59.193 59.24 59.38 59.858 60.228 61.013 60.505 60.373 60.388 60.398 60.423 60.507 60.588 60.643 60.743 60.78 60.823 60.863 60.908 60.915 60.968 60.943 60.963 60.983 60.978 60.963 60.955 60.923 60.893 60.873 60.808 60.73 60.65 60.64 60.565 60.513 60.415 60.348 60.255 60.158 60.043 59.883 59.773 59.66 59.55 59.473 59.398 59.298 59.16 59.063 58.97 58.855 58.76 58.683 58.593 58.51 58.42 58.283 58.215 58.108 57.978 57.858 57.883 57.87 57.813 57.313 57.99 58.595 58.01 58.355 58.748 58.198 58.395 58.588 58.768 58.93 59.105 59.33 59.54 59.735 59.913 60.083 60.285 60.48 60.728 60.978 61.21 61.463 61.695 61.928 62.14 62.35 62.51 62.625 62.705 62.795 62.895 63.01 63.128 63.248 63.408 63.515 63.653 63.795 63.923 64.045 64.163 64.233 64.305 64.35 64.425 64.52 64.578 64.645 64.71 64.785 64.82 64.863 64.943 65.015 65.053 65.11 65.16 65.21 65.263 65.34 65.388 65.44 65.495 65.565 65.63 65.655 65.725 65.778 65.833 65.873 65.895 65.943 66.018 66.085 66.15 66.21 66.27 66.325 66.38 66.453 66.535 66.615 66.658 66.743 66.833 66.84 66.865 67.245 68.58 69.228 68.645 67.523 67.488 67.48 67.505 67.578 67.63 67.71 67.765 67.87 67.96 68.005 68.075 68.11 68.158 68.193 68.228 68.263 68.273 68.323 68.323 68.393 68.418 68.455 68.513 68.528 68.53 68.483 68.51 68.525 68.488 68.47 68.46 68.405 68.385 68.345 68.283 68.248 68.198 68.085 68.018 67.973 67.948 67.9 67.865 67.793 67.768 67.69 67.655 67.59 67.533 67.455 67.355 67.275 67.19 67.145 67.085 66.99 66.983 66.953 66.843 66.785 66.798 66.795 66.763 66.655 66.518 66.428 68.408 69.408 66.883 65.54 65.528 67.05 69.495 67.48 65.23 65.148 65.15 66.063 66.338 67.148 66.3 67.273 67.185 66.233 67.575 68.098 68.158 67.303 64.685 64.205 64.188 64.185 64.2 64.273 65.363 66.423 66.55 65.595 64.045 64.013 63.893 63.543 63.215 62.855 62.515 62.25 62.085 61.915 61.79 61.673 61.595 61.483 61.398 61.253 61.095 60.938 60.755 60.64 60.503 60.405 60.265 60.12 59.938 59.778 59.618 59.465 59.323 59.178 59.015 58.843 58.673 58.51 58.37
31.08 31.2 31.33 31.57 31.84 32.112 32.245 32.477 32.677 32.832 33.057 33.33 33.557 33.97 42.305 35.182 38.682 34.712 35.022 34.902 38.105 34.8 35.16 35.787 35.632 35.677 36.262 35.927 35.755 35.57 35.515 35.705 35.827 35.907 35.94 35.907 35.865 35.895 35.927 35.945 35.88 36.985 35.967 35.83 35.8 35.877 36.857 36.62 36.985 36.185 36.192 38.282 44.125 40.95 36.497 36.075 38.157 47.335 45.017 40.535 37.31 37.735 37.49 39.942 38.237 43.532 48.96 44.345 42.467 39.502 39.795 39.99 40.222 40.44 40.757 41.062 43.017 41.472 41.655 42.537 42.277 42.5 42.807 43.042 45.83 43.997 47.387 47.03 46.795 46.087 45.322 45.557 45.755 45.885 46.03 46.205 46.375 46.492 46.725 46.937 47.175 47.41 47.672 47.885 48.13 48.352 48.595 48.832 49.095 49.355 49.61 49.857 50.13 50.385 50.652 50.942 51.202 51.462 51.73 51.972 52.217 52.457 52.692 52.92 53.18 53.382 53.61 53.895 54.158 54.39 54.643 54.938 55.178 55.435 55.67 55.945 56.165 56.403 56.648 56.888 57.098 57.328 57.59 57.748 57.963 58.15 58.305 58.47 58.625 58.853 59.007 59.04 59.163 59.148 59.318 60.428 61.428 60.65 60.35 60.28 60.26 60.3 60.378 60.423 60.498 60.55 60.613 60.678 60.723 60.76 60.8 60.805 60.845 60.848 60.87 60.835 60.858 60.875 60.818 60.78 60.755 60.748 60.663 60.6 60.533 60.488 60.418 60.34 60.253 60.163 60.078 59.968 59.835 59.703 59.563 59.478 59.36 59.253 59.153 59.063 58.95 58.835 58.738 58.648 58.54 58.46 58.37 58.265 58.155 58.088 57.958 57.875 57.735 57.683 57.678 57.633 57.14 57.34 58.265 59.763 59.178 58.58 58.083 58.093 58.28 58.483 58.653 58.85 59.04 59.268 59.46 59.638 59.828 60.013 60.183 60.4 60.65 60.91 61.155 61.405 61.638 61.87 62.09 62.285 62.423 62.535 62.645 62.728 62.788 62.92 63.018 63.16 63.323 63.46 63.558 63.718 63.868 63.993 64.07 64.143 64.195 64.265 64.358 64.428 64.5 64.558 64.64 64.72 64.743 64.825 64.875 64.913 64.973 65.025 65.063 65.133 65.198 65.243 65.29 65.345 65.405 65.465 65.535 65.603 65.633 65.69 65.695 65.76 65.795 65.865 65.89 65.955 66.013 66.088 66.153 66.2 66.26 66.333 66.413 66.49 66.55 66.635 66.678 66.678 66.69 67.285 68.643 69.04 67.918 67.365 67.325 67.363 67.395 67.47 67.53 67.588 67.66 67.795 67.875 67.9 67.958 68.013 68.078 68.073 68.13 68.145 68.188 68.188 68.245 68.285 68.315 68.343 68.368 68.383 68.388 68.335 68.395 68.4 68.37 68.315 68.31 68.305 68.27 68.245 68.17 68.113 68.025 67.958 67.908 67.843 67.81 67.785 67.728 67.678 67.62 67.565 67.52 67.485 67.423 67.338 67.273 67.175 67.098 67.063 66.995 66.928 66.895 66.87 66.793 66.735 66.745 66.743 66.698 66.585 66.483 66.393 67.603 69.818 66.903 65.475 65.703 67.65 68.118 65.593 65.145 65.16 65.363 67.405 68.655 68.148 66.813 66.263 65.895 66.395 67.748 68.24 67.945 67.18 64.763 64.203 64.16 64.158 64.183 64.378 65.238 66.195 66.585 64.735 64.05 64.013 63.848 63.463 63.088 62.76 62.425 62.133 61.923 61.775 61.668 61.59 61.505 61.415 61.303 61.17 61.025 60.863 60.7 60.578 60.458 60.34 60.188 60.043 59.895 59.715 59.56 59.415 59.28 59.14 58.983 58.785 58.663 58.505 58.328
30.857 30.87 31.132 31.407 31.68 31.917 32.125 32.35 32.59 32.945 33.235 33.277 33.572 43.75 47.33 52.1 42.36 34.347 34.392 34.522 34.725 38.565 35.2 45.847 38.047 35.475 35.575 35.55 35.472 35.32 35.365 35.582 35.725 35.977 35.847 35.67 35.73 35.757 35.772 35.8 35.762 35.782 35.727 35.735 35.732 35.97 38.517 35.922 37.21 36.13 36.17 36.325 38.982 39.012 36.92 36.187 39.46 43.667 40.995 36.972 37.275 37.405 37.637 37.767 38.312 44.702 46.627 43.507 39.295 39.555 39.797 40.005 40.192 40.88 42.072 40.912 41.555 42.192 41.75 42.007 42.525 42.957 44.112 43.145 43.667 47.792 49.817 50.67 47.002 45.412 45.375 45.627 45.832 45.967 46.13 46.275 46.445 46.585 46.82 47.035 47.287 47.512 47.752 48.012 48.235 48.512 48.752 48.985 49.255 49.525 49.785 50.01 50.272 50.552 50.825 51.1 51.352 51.587 51.857 52.097 52.322 52.58 52.825 53.062 53.305 53.495 53.738 54.01 54.268 54.508 54.755 55 55.215 55.485 55.75 55.985 56.19 56.415 56.65 56.89 57.095 57.335 57.562 57.738 57.915 58.1 58.245 58.445 58.59 58.805 58.883 58.985 59.073 59.11 59.382 60.87 60.168 60.49 60.165 60.143 60.08 60.185 60.29 60.333 60.4 60.463 60.538 60.563 60.628 60.69 60.678 60.71 60.725 60.763 60.745 60.735 60.718 60.705 60.695 60.663 60.638 60.568 60.518 60.44 60.393 60.323 60.273 60.195 60.1 59.99 59.915 59.77 59.653 59.525 59.418 59.278 59.188 59.073 58.965 58.845 58.72 58.618 58.545 58.433 58.345 58.245 58.158 58.035 57.95 57.843 57.73 57.615 57.495 57.5 57.445 57.435 57.225 59.4 58.99 59.703 59.235 58.613 57.89 58.01 58.2 58.405 58.6 58.758 58.963 59.17 59.383 59.54 59.723 59.91 60.115 60.325 60.565 60.86 61.113 61.365 61.585 61.803 62.005 62.21 62.325 62.473 62.585 62.655 62.713 62.83 62.92 63.073 63.22 63.345 63.495 63.665 63.78 63.913 63.995 64.045 64.11 64.16 64.255 64.34 64.4 64.493 64.56 64.633 64.675 64.728 64.778 64.825 64.9 64.963 64.995 65.045 65.113 65.168 65.198 65.253 65.325 65.4 65.448 65.505 65.523 65.55 65.625 65.655 65.698 65.735 65.805 65.878 65.905 65.973 66.033 66.068 66.148 66.24 66.32 66.348 66.43 66.483 66.5 66.5 66.565 67.573 68.698 68.66 67.46 67.225 67.2 67.235 67.29 67.358 67.41 67.478 67.555 67.663 67.718 67.775 67.835 67.893 67.95 67.97 68.005 68.028 68.04 68.083 68.113 68.145 68.183 68.22 68.253 68.245 68.22 68.205 68.265 68.265 68.2 68.188 68.195 68.17 68.148 68.105 68.04 68.01 67.9 67.808 67.755 67.695 67.663 67.65 67.58 67.563 67.498 67.45 67.415 67.37 67.313 67.213 67.155 67.073 66.993 66.948 66.893 66.85 66.82 66.79 66.693 66.645 66.668 66.688 66.628 66.503 66.37 66.305 67.483 69.255 65.66 65.403 66.078 68.468 66.78 65.173 65.03 65.04 65.278 68.215 68.81 69.133 68.588 67.705 67.058 67.633 67.983 68.188 67.77 65.668 64.233 64.175 64.205 64.135 64.13 64.093 64.383 66.435 65.985 64.21 64.015 63.945 63.828 63.273 62.835 62.503 62.265 62.008 61.825 61.713 61.608 61.535 61.44 61.34 61.233 61.093 60.928 60.775 60.625 60.515 60.39 60.26 60.103 59.99 59.813 59.628 59.495 59.348 59.218 59.065 58.903 58.733 58.59 58.448 58.308
30.61 30.807 31.042 31.307 31.612 31.827 32.182 32.552 32.827 33.04 34.165 33.805 33.387 34.95 46.84 46.617 37.185 34.105 34.285 34.282 34.42 44.602 35.145 36.39 35.54 35.22 35.437 35.302 35.19 35.082 35.245 35.39 35.567 35.835 35.692 35.59 35.685 35.837 35.817 35.67 35.66 35.592 35.522 35.677 35.567 35.857 36.01 35.825 35.842 35.982 36.03 42.927 38.38 35.702 35.985 36.832 36.647 40.987 37.827 36.907 37.157 37.25 37.622 39.06 38.705 39.642 42.415 41.82 39.297 39.585 39.842 40.02 40.295 40.347 40.662 41.007 41.207 41.46 42.47 42.402 42.467 42.745 43.17 43.38 43.665 47.287 44.712 51.792 50.072 47.04 45.457 45.742 45.902 46.03 46.202 46.38 46.537 46.682 46.905 47.137 47.38 47.622 47.877 48.14 48.362 48.637 48.88 49.145 49.382 49.655 49.907 50.19 50.452 50.722 50.97 51.24 51.477 51.71 51.967 52.232 52.45 52.725 52.962 53.178 53.393 53.638 53.845 54.093 54.328 54.595 54.845 55.068 55.318 55.553 55.765 56.005 56.223 56.428 56.675 56.88 57.103 57.288 57.503 57.703 57.873 58.058 58.215 58.398 58.555 58.783 58.853 58.923 59.007 59.038 59.753 60.153 60.343 61.415 60.195 60.028 59.983 60.093 60.198 60.258 60.333 60.39 60.44 60.465 60.503 60.55 60.57 60.6 60.608 60.618 60.628 60.635 60.62 60.588 60.57 60.513 60.503 60.448 60.378 60.308 60.245 60.175 60.098 60.03 59.958 59.835 59.71 59.603 59.493 59.35 59.205 59.1 58.998 58.883 58.753 58.628 58.525 58.408 58.333 58.21 58.143 58.035 57.918 57.833 57.743 57.613 57.493 57.395 57.318 57.303 57.25 57.283 59.093 60.598 57.933 57.963 58.37 57.445 57.7 57.898 58.12 58.298 58.47 58.67 58.85 59.055 59.235 59.44 59.615 59.82 60.028 60.25 60.513 60.768 61.038 61.273 61.53 61.715 61.928 62.1 62.265 62.373 62.483 62.61 62.645 62.745 62.848 62.988 63.15 63.253 63.408 63.555 63.688 63.81 63.883 63.94 64.013 64.068 64.16 64.245 64.325 64.37 64.46 64.515 64.578 64.625 64.665 64.72 64.82 64.863 64.908 64.968 65.035 65.058 65.1 65.178 65.223 65.275 65.345 65.393 65.425 65.448 65.5 65.56 65.59 65.658 65.71 65.748 65.78 65.85 65.913 65.94 66.045 66.128 66.143 66.215 66.295 66.33 66.335 66.335 66.46 67.69 68.583 68.173 67.183 67.085 67.055 67.108 67.165 67.255 67.305 67.363 67.433 67.528 67.583 67.65 67.698 67.745 67.793 67.833 67.865 67.898 67.925 67.925 67.968 67.99 68.033 68.068 68.075 68.103 68.07 68.07 68.098 68.125 68.068 68.053 68.05 68.033 68.02 67.968 67.933 67.835 67.728 67.673 67.618 67.598 67.56 67.518 67.465 67.428 67.388 67.308 67.295 67.255 67.168 67.103 67.043 66.955 66.898 66.835 66.785 66.758 66.715 66.665 66.593 66.583 66.608 66.578 66.505 66.38 66.253 66.453 69.053 66.735 65.388 65.388 66.715 66.6 65.76 65.098 64.993 65.003 66.003 68.39 68.965 68.97 68.39 67.435 66.075 67.348 68.085 68.133 67.553 64.92 64.188 64.198 64.145 64.12 64.105 64.108 64.528 66.383 65.193 64.088 64 63.88 63.57 63.018 62.578 62.273 62.09 61.923 61.815 61.67 61.565 61.445 61.335 61.263 61.145 61.005 60.88 60.715 60.56 60.458 60.335 60.205 60.04 59.9 59.735 59.58 59.435 59.318 59.16 59.033 58.885 58.725 58.563 58.395 58.238
30.532 30.757 30.997 31.295 34.007 31.99 32.285 32.532 32.705 32.845 33.385 33.19 33.297 37.18 45.487 36.74 33.9 34.002 34.055 34.107 35.41 44.427 35.342 35.882 35.232 35.6 35.33 35.212 34.952 34.96 35.11 35.39 35.527 35.49 35.475 35.502 35.385 35.425 35.462 35.592 35.565 35.64 35.467 35.63 35.61 35.77 35.84 35.862 35.832 35.927 36.12 42.862 46.382 36.025 36.242 36.507 36.64 36.802 37.642 36.8 37.012 38.932 39.25 41.51 39.425 46.922 43.69 39.762 39.97 39.585 39.85 40.33 43.985 41.107 41.725 41.11 41.862 43.367 43.955 46.075 42.947 43.462 45.18 43.655 45.87 45.367 46.092 53.455 49.215 45.98 45.57 45.8 45.95 46.13 46.28 46.445 46.587 46.787 47.017 47.235 47.49 47.735 47.997 48.272 48.482 48.752 49.025 49.29 49.562 49.85 50.067 50.325 50.59 50.857 51.082 51.38 51.625 51.852 52.11 52.362 52.59 52.835 53.082 53.3 53.518 53.748 53.968 54.193 54.448 54.683 54.915 55.133 55.393 55.595 55.803 56.06 56.27 56.467 56.683 56.865 57.093 57.28 57.495 57.673 57.878 58.033 58.22 58.373 58.52 58.75 58.82 58.89 58.985 59.03 60.143 62.028 61.328 60.88 60.1 59.928 59.95 60.033 60.108 60.178 60.22 60.28 60.333 60.37 60.408 60.453 60.463 60.49 60.468 60.475 60.498 60.498 60.488 60.46 60.443 60.37 60.335 60.3 60.243 60.135 60.09 60.018 59.945 59.86 59.758 59.68 59.558 59.41 59.313 59.155 59.013 58.933 58.83 58.695 58.593 58.45 58.34 58.255 58.125 58.035 57.905 57.83 57.718 57.635 57.518 57.38 57.258 57.188 57.158 57.153 57.09 57.243 59.798 58.553 58.495 57.59 57.023 57.253 57.568 57.803 58.04 58.235 58.393 58.565 58.753 58.943 59.118 59.31 59.493 59.695 59.908 60.138 60.415 60.68 60.928 61.18 61.405 61.615 61.813 61.968 62.135 62.248 62.373 62.463 62.558 62.668 62.77 62.91 63.028 63.163 63.328 63.46 63.595 63.693 63.785 63.84 63.893 63.973 64.07 64.103 64.198 64.265 64.358 64.438 64.48 64.508 64.553 64.62 64.738 64.79 64.79 64.86 64.938 64.98 65.035 65.053 65.148 65.138 65.235 65.3 65.325 65.368 65.39 65.435 65.498 65.535 65.63 65.64 65.68 65.715 65.775 65.823 65.863 65.963 66.03 66.093 66.143 66.17 66.155 66.173 66.375 67.705 68.773 67.98 66.898 66.905 66.918 66.965 67.028 67.11 67.173 67.24 67.33 67.41 67.46 67.523 67.545 67.615 67.675 67.685 67.743 67.75 67.76 67.783 67.81 67.835 67.903 67.915 67.925 67.945 67.905 67.933 67.975 67.965 67.923 67.925 67.918 67.88 67.855 67.82 67.758 67.685 67.613 67.538 67.468 67.435 67.418 67.388 67.33 67.32 67.245 67.218 67.188 67.135 67.065 66.983 66.935 66.873 66.815 66.77 66.68 66.645 66.628 66.593 66.51 66.453 66.4 66.39 66.338 66.27 66.13 66.555 69.103 66.075 65.308 65.41 66.01 66.365 67.113 64.898 64.895 64.928 66.7 68.545 69.123 68.798 68.233 66.95 65.885 67.723 68.193 67.923 66.81 64.25 64.183 64.178 64.14 64.12 64.11 64.063 64.293 65.358 64.338 64.033 63.97 63.818 63.375 62.818 62.37 62.155 62.038 61.878 61.735 61.62 61.508 61.373 61.265 61.145 61.063 60.928 60.788 60.623 60.49 60.398 60.27 60.14 59.97 59.828 59.653 59.53 59.42 59.273 59.118 58.985 58.84 58.685 58.523 58.373 58.223
30.475 31.422 36.617 42.4 37.42 40.345 32.217 32.492 32.767 32.685 38.14 36.685 33.2 37.042 41.687 36.55 33.69 33.877 33.89 34.19 34.315 34.82 35.26 34.98 35.13 35.692 35.212 35.005 34.76 34.812 34.96 35.42 35.715 35.462 35.177 35.232 35.277 35.225 35.122 35.247 35.287 35.537 35.497 35.377 35.507 35.562 35.76 35.84 35.977 36.772 38.835 43.64 39.917 36.227 36.37 36.492 37.107 36.82 36.85 37.192 37.772 49.375 47.7 38.435 38.252 43.967 43.297 43.662 41.845 43.637 40.782 40.097 42.432 42.03 42.155 41.157 46.062 44.675 45.925 42.89 43.057 44.267 44.422 43.762 44.837 44.057 50.282 49.195 47.655 46.387 45.675 45.862 46.032 46.197 46.372 46.522 46.665 46.84 47.085 47.33 47.59 47.832 48.085 48.357 48.615 48.892 49.137 49.437 49.697 49.952 50.19 50.47 50.737 51.002 51.272 51.522 51.747 51.992 52.23 52.492 52.742 52.952 53.192 53.443 53.645 53.875 54.083 54.295 54.555 54.765 55.023 55.218 55.46 55.665 55.87 56.09 56.303 56.473 56.7 56.88 57.09 57.298 57.48 57.663 57.84 58 58.148 58.34 58.498 58.708 58.758 58.845 58.928 58.965 61.003 61.213 59.825 60.363 59.898 59.883 59.858 59.923 60.018 60.055 60.133 60.18 60.235 60.265 60.285 60.325 60.35 60.373 60.383 60.38 60.37 60.363 60.358 60.333 60.3 60.225 60.18 60.138 60.09 60.01 59.955 59.87 59.798 59.71 59.588 59.493 59.39 59.268 59.15 58.998 58.873 58.763 58.66 58.508 58.385 58.278 58.173 58.045 57.935 57.838 57.733 57.598 57.498 57.43 57.348 57.2 57.08 56.968 57.01 56.993 56.955 57.6 59.198 57.11 56.558 56.523 56.848 57.23 57.49 57.705 57.905 58.105 58.265 58.468 58.675 58.845 59.018 59.183 59.34 59.538 59.783 60.015 60.28 60.538 60.838 61.075 61.273 61.465 61.665 61.818 61.998 62.115 62.238 62.328 62.43 62.548 62.665 62.788 62.92 63.058 63.223 63.378 63.47 63.58 63.663 63.743 63.778 63.868 63.948 64.015 64.113 64.183 64.215 64.31 64.365 64.415 64.483 64.533 64.608 64.63 64.68 64.758 64.798 64.85 64.905 64.968 65.023 65.055 65.135 65.178 65.19 65.225 65.3 65.323 65.38 65.408 65.483 65.533 65.555 65.568 65.63 65.688 65.765 65.855 65.878 65.94 65.985 65.99 65.993 66.07 66.558 67.988 68.57 67.53 66.725 66.753 66.758 66.803 66.905 66.97 67.015 67.108 67.203 67.27 67.313 67.363 67.448 67.5 67.508 67.535 67.563 67.59 67.588 67.598 67.62 67.688 67.728 67.765 67.758 67.788 67.758 67.788 67.828 67.825 67.765 67.79 67.768 67.733 67.718 67.683 67.623 67.523 67.445 67.4 67.338 67.308 67.298 67.265 67.24 67.195 67.14 67.108 67.09 67.033 66.95 66.885 66.833 66.765 66.718 66.658 66.588 66.558 66.473 66.433 66.36 66.293 66.275 66.283 66.27 66.103 66.005 66.288 66.338 65.273 65.248 65.8 66.803 69.038 70.18 69.425 64.958 65.243 67.745 68.755 69.1 68.62 67.803 64.983 66.05 67.893 68.248 67.758 65.623 64.17 64.18 64.15 64.148 64.135 64.113 64.073 64.855 65.053 64.098 63.99 63.915 63.603 63.1 62.68 62.298 62.125 61.99 61.8 61.69 61.583 61.475 61.345 61.213 61.083 60.953 60.8 60.645 60.56 60.413 60.303 60.185 60.05 59.913 59.765 59.64 59.513 59.365 59.233 59.09 58.958 58.82 58.65 58.493 58.335 58.203
30.355 32.767 40.702 44.702 41.362 32.112 34.997 32.74 32.792 32.555 41.547 36.902 33.2 34.675 40.7 43.155 33.53 33.69 33.862 34.03 34.315 34.487 36.64 35.362 35.312 35.162 34.94 34.7 34.607 34.772 35.137 35.537 35.317 35.162 35.102 35.257 35.197 35.052 35.052 35.145 35.25 35.367 35.36 35.4 35.55 35.575 35.702 36.152 35.812 35.835 37.425 41.192 39.117 36.282 36.352 36.467 36.535 36.697 36.852 36.895 40.495 47.697 49.645 41.082 38.235 39.075 40.535 41.055 46.015 49.882 48.667 40.262 40.937 45.527 46.535 42.592 42.74 44.9 45.167 44.455 44.475 44.272 43.555 43.772 43.985 44.865 46.412 47.24 46.742 45.7 45.77 46 46.122 46.26 46.467 46.597 46.755 46.935 47.19 47.42 47.66 47.96 48.207 48.465 48.715 49.005 49.257 49.532 49.827 50.087 50.365 50.617 50.887 51.145 51.39 51.65 51.897 52.145 52.385 52.617 52.842 53.07 53.312 53.56 53.763 54.003 54.203 54.42 54.663 54.89 55.11 55.3 55.543 55.74 55.908 56.128 56.323 56.518 56.733 56.92 57.098 57.315 57.458 57.655 57.838 57.995 58.15 58.303 58.488 58.665 58.713 58.773 58.83 58.988 60.425 60.093 59.785 59.855 59.838 59.77 59.803 59.87 59.938 59.98 60.03 60.06 60.13 60.153 60.185 60.2 60.213 60.23 60.26 60.25 60.25 60.245 60.22 60.213 60.158 60.1 60.068 60.008 59.95 59.87 59.785 59.688 59.615 59.555 59.443 59.353 59.21 59.103 58.958 58.825 58.703 58.575 58.445 58.343 58.225 58.108 58.005 57.848 57.735 57.653 57.553 57.438 57.318 57.215 57.11 56.97 56.893 56.82 56.863 56.83 56.835 59.243 57.883 56.55 56.373 56.663 57.01 57.228 57.395 57.593 57.785 57.945 58.118 58.37 58.523 58.695 58.875 59.043 59.178 59.41 59.64 59.898 60.168 60.42 60.69 60.948 61.17 61.353 61.518 61.678 61.835 61.983 62.088 62.178 62.295 62.398 62.56 62.678 62.813 62.978 63.073 63.24 63.343 63.45 63.518 63.598 63.655 63.745 63.848 63.9 63.983 64.06 64.143 64.213 64.27 64.293 64.35 64.423 64.483 64.513 64.583 64.64 64.67 64.733 64.785 64.845 64.875 64.925 65.01 65.038 65.08 65.125 65.14 65.193 65.265 65.293 65.383 65.423 65.45 65.468 65.503 65.555 65.635 65.698 65.733 65.778 65.813 65.823 65.84 65.903 66.59 68.018 68.2 66.988 66.533 66.565 66.585 66.643 66.758 66.825 66.88 66.963 67.055 67.088 67.165 67.245 67.278 67.338 67.37 67.395 67.41 67.393 67.443 67.435 67.458 67.508 67.578 67.615 67.62 67.623 67.61 67.613 67.68 67.638 67.625 67.633 67.623 67.608 67.59 67.523 67.49 67.408 67.31 67.253 67.208 67.2 67.185 67.128 67.168 67.11 67.038 66.983 66.988 66.908 66.848 66.788 66.758 66.68 66.595 66.555 66.513 66.473 66.388 66.298 66.235 66.223 66.158 66.065 65.988 65.87 65.85 66.065 65.723 65.195 65.2 65.638 65.885 65.668 64.845 65.333 64.855 66.305 68.325 68.955 69.033 68.453 67.305 65.188 67.595 68.088 68.07 67.573 64.965 64.16 64.165 64.138 64.12 64.115 64.07 64.215 64.85 64.61 64.055 63.993 63.885 63.478 62.94 62.508 62.203 62.05 61.928 61.795 61.695 61.583 61.493 61.34 61.2 61.063 60.955 60.778 60.61 60.473 60.348 60.225 60.108 59.95 59.8 59.673 59.57 59.423 59.28 59.15 59.028 58.91 58.73 58.585 58.458 58.308 58.145
30.322 39.937 52.677 39.247 34.905 37.487 37.565 32.302 32.822 34.45 45.33 38.767 33.242 47.66 45.037 46.107 33.56 33.54 34.98 34.505 34.362 34.34 34.86 34.497 35.02 34.947 35.002 34.49 34.482 34.73 34.96 35.08 34.962 35.027 35.112 35.22 35.187 35.105 35.115 35.227 35.137 35.177 35.672 35.397 35.39 35.47 35.485 35.767 35.57 35.31 35.81 36.052 36.735 36.287 36.392 36.52 40.2 37.517 36.807 36.875 39.085 42.35 46.7 41.622 38.09 38.425 38.677 40.217 44.58 48.225 49.01 41.965 43.245 49.052 48.167 46.007 41.645 42.387 43.45 44.052 43.512 43.562 43.535 43.762 45.672 44.41 44.6 45.375 45.605 45.942 47.095 46.125 46.222 46.337 46.515 46.7 46.85 47.045 47.29 47.51 47.777 48.052 48.32 48.58 48.86 49.117 49.412 49.702 49.977 50.255 50.527 50.757 51.025 51.277 51.525 51.77 52.025 52.252 52.502 52.717 52.972 53.187 53.435 53.668 53.865 54.11 54.335 54.558 54.757 55.008 55.193 55.382 55.623 55.813 56.015 56.208 56.408 56.59 56.778 56.953 57.158 57.298 57.467 57.653 57.808 57.965 58.11 58.272 58.445 58.628 58.673 58.743 58.778 58.875 60.145 59.768 59.72 59.76 59.72 59.69 59.718 59.798 59.823 59.908 59.945 59.968 60.018 60.053 60.07 60.105 60.133 60.128 60.128 60.15 60.125 60.125 60.095 60.053 60 59.965 59.913 59.855 59.798 59.705 59.623 59.535 59.45 59.378 59.245 59.123 59.028 58.903 58.758 58.648 58.493 58.373 58.238 58.135 58.015 57.9 57.79 57.655 57.538 57.438 57.325 57.22 57.123 57.005 56.883 56.77 56.678 56.715 56.71 56.688 57.605 57.768 56.353 56.633 56.675 56.878 57.028 57.148 57.325 57.463 57.638 57.828 58 58.22 58.368 58.525 58.723 58.87 59.05 59.295 59.518 59.78 60.025 60.295 60.563 60.81 61.04 61.223 61.375 61.525 61.678 61.81 61.92 62.038 62.165 62.298 62.42 62.535 62.675 62.798 62.963 63.1 63.208 63.275 63.348 63.443 63.54 63.648 63.73 63.785 63.828 63.948 64.023 64.07 64.143 64.198 64.263 64.295 64.338 64.385 64.445 64.533 64.54 64.593 64.64 64.695 64.735 64.805 64.87 64.925 64.958 64.973 65.018 65.063 65.125 65.165 65.23 65.263 65.318 65.348 65.383 65.42 65.503 65.543 65.588 65.603 65.668 65.653 65.67 65.848 67.03 67.815 67.768 66.723 66.385 66.385 66.42 66.51 66.595 66.665 66.743 66.81 66.9 66.92 66.988 67.078 67.14 67.19 67.193 67.223 67.23 67.238 67.25 67.273 67.32 67.358 67.435 67.44 67.45 67.423 67.44 67.49 67.54 67.488 67.49 67.498 67.465 67.453 67.43 67.393 67.335 67.26 67.178 67.11 67.1 67.083 67.033 67.028 67.06 66.98 66.945 66.905 66.888 66.823 66.755 66.7 66.665 66.593 66.53 66.493 66.473 66.393 66.298 66.195 66.115 66.14 66.035 65.913 65.803 65.655 65.485 65.345 65.17 65.19 65.433 67.42 68.965 65.67 64.758 64.78 64.818 66.723 68.553 69.03 68.883 68.285 67.035 65.97 65.93 66.9 67.353 66.598 64.468 64.138 64.108 64.103 64.083 64.095 64.333 64.31 64.263 64.27 64.038 63.97 63.775 63.275 62.8 62.435 62.15 61.993 61.89 61.785 61.678 61.598 61.508 61.34 61.16 61.033 60.915 60.758 60.575 60.425 60.333 60.205 60.068 59.91 59.765 59.64 59.498 59.37 59.245 59.12 58.988 58.875 58.678 58.543 58.41 58.25 58.108
31.985 48.617 48.417 40.54 31.572 32.362 33.425 32.017 31.892 32.265 38.845 38.095 35.937 37.562 33.147 33.152 33.267 33.292 38.037 40.757 47.212 46.432 46.435 34.94 34.647 34.632 34.44 34.262 34.372 34.632 34.952 34.865 34.792 34.947 34.945 35.085 35.055 34.985 35.04 35.09 35.15 35.11 35.19 35.177 35.34 35.297 35.312 35.332 41.202 36.947 35.92 36.097 36.85 36.255 36.307 38.775 38.68 37.745 37.097 37.195 37.18 39.705 42.052 37.567 38.017 38.065 38.262 39.752 44.007 50.087 48.847 41.395 46.912 45.892 53.552 46.475 42.24 47.14 46.077 42.762 43.24 43.365 43.575 45.532 44.517 45.525 45.33 45.6 47.452 47.917 49.387 48.227 46.277 46.43 46.627 46.762 46.92 47.137 47.392 47.63 47.892 48.185 48.44 48.725 48.992 49.287 49.61 49.827 50.125 50.392 50.665 50.91 51.162 51.44 51.672 51.94 52.172 52.407 52.635 52.85 53.1 53.332 53.54 53.78 54.015 54.243 54.45 54.675 54.878 55.105 55.295 55.503 55.698 55.88 56.09 56.26 56.438 56.6 56.79 56.995 57.145 57.363 57.488 57.645 57.8 57.958 58.088 58.23 58.413 58.555 58.568 58.678 58.75 58.768 59.205 59.668 59.863 59.668 59.625 59.565 59.598 59.693 59.778 59.803 59.845 59.885 59.903 59.95 59.975 60.005 60 60.013 59.995 60.018 59.995 60 59.975 59.935 59.883 59.845 59.775 59.708 59.633 59.56 59.438 59.343 59.245 59.14 59.06 58.955 58.843 58.74 58.568 58.423 58.295 58.163 58.058 57.925 57.803 57.678 57.558 57.445 57.338 57.22 57.13 57.03 56.943 56.808 56.655 56.56 56.523 56.57 56.533 57.5 59.378 56.813 57.413 56.615 56.593 56.755 56.888 57.053 57.21 57.315 57.483 57.648 57.87 58.04 58.218 58.363 58.55 58.72 58.903 59.115 59.365 59.635 59.898 60.143 60.408 60.663 60.9 61.08 61.253 61.37 61.533 61.635 61.798 61.903 62.038 62.143 62.288 62.388 62.515 62.683 62.825 62.95 63.043 63.118 63.2 63.29 63.4 63.52 63.61 63.695 63.743 63.82 63.895 63.948 64.018 64.065 64.125 64.188 64.195 64.258 64.328 64.403 64.45 64.498 64.52 64.573 64.615 64.66 64.705 64.77 64.773 64.81 64.873 64.903 64.94 65.025 65.08 65.125 65.193 65.23 65.24 65.31 65.38 65.408 65.44 65.493 65.495 65.478 65.53 65.91 67.078 67.78 67.19 66.343 66.188 66.238 66.303 66.383 66.465 66.515 66.608 66.685 66.75 66.783 66.863 66.905 66.96 67.018 67.05 67.058 67.075 67.065 67.113 67.123 67.168 67.21 67.285 67.298 67.29 67.26 67.328 67.355 67.343 67.338 67.313 67.338 67.315 67.29 67.283 67.258 67.165 67.15 67.065 66.98 66.97 66.968 66.948 66.955 66.945 66.885 66.848 66.813 66.793 66.73 66.673 66.61 66.558 66.503 66.455 66.405 66.365 66.295 66.235 66.145 66.068 66.095 66.008 65.878 65.738 65.565 65.405 65.23 65.12 65.153 65.165 66.018 67.145 65.14 64.805 64.77 65.018 67.255 68.71 69.165 68.713 68.03 66.635 66.155 65.703 65.573 65.523 64.848 64.39 64.05 64.07 64.05 64.03 64.025 64.43 64.413 64.093 64.198 64.003 63.938 63.703 63.243 62.678 62.345 62.1 61.938 61.845 61.74 61.67 61.568 61.45 61.313 61.153 60.983 60.88 60.738 60.565 60.423 60.298 60.168 59.985 59.855 59.738 59.63 59.488 59.378 59.225 59.098 58.96 58.833 58.675 58.523 58.375 58.25 58.103
31.607 38.237 40.037 30.777 30.892 31.192 32.45 35.395 33.47 34.537 34.802 36.315 32.392 32.647 37.61 32.91 36.817 33.195 34.027 34.397 48.222 52.572 47.212 40.11 34.395 34.32 34.27 34.105 34.307 34.445 34.832 34.745 34.78 34.765 34.885 34.87 35.005 35.057 35.207 35.057 35.105 35.067 35.012 35.012 35.175 35.195 35.097 35.135 40.84 35.632 39.462 35.767 36.647 36.892 36.512 35.977 36.062 36.177 36.35 36.597 36.72 36.935 42.037 37.41 37.685 38.247 39.172 40.815 39.527 48.255 46.742 48.68 45.035 51.257 51.98 47.025 41.845 45.477 44.425 42.937 45.377 45.45 43.677 43.972 44.175 48.092 45.63 45.227 47.622 46.142 46.252 46.225 46.33 46.505 46.672 46.83 47.012 47.245 47.487 47.75 48.037 48.292 48.577 48.87 49.127 49.392 49.707 49.975 50.242 50.507 50.77 51.052 51.302 51.555 51.81 52.075 52.277 52.517 52.747 52.98 53.197 53.445 53.645 53.885 54.09 54.333 54.58 54.763 54.985 55.168 55.405 55.59 55.78 55.965 56.132 56.283 56.435 56.61 56.805 56.983 57.145 57.315 57.48 57.628 57.77 57.895 58.053 58.178 58.39 58.528 58.548 58.63 58.675 58.735 59.083 59.348 59.533 59.593 59.515 59.47 59.51 59.593 59.678 59.713 59.77 59.78 59.818 59.85 59.9 59.903 59.88 59.888 59.883 59.89 59.87 59.863 59.858 59.803 59.753 59.68 59.633 59.553 59.463 59.393 59.288 59.198 59.115 59.045 58.915 58.765 58.64 58.518 58.38 58.248 58.088 57.98 57.845 57.755 57.613 57.488 57.348 57.215 57.145 57.008 56.895 56.803 56.718 56.588 56.453 56.34 56.36 56.378 56.615 59.118 58.71 55.368 56.238 56.338 56.448 56.608 56.748 56.91 57.045 57.155 57.318 57.525 57.713 57.855 58.033 58.203 58.385 58.54 58.743 58.938 59.223 59.46 59.748 59.963 60.235 60.498 60.74 60.928 61.1 61.2 61.368 61.515 61.62 61.743 61.895 62.01 62.138 62.245 62.393 62.553 62.673 62.818 62.903 62.993 63.063 63.16 63.263 63.375 63.488 63.563 63.635 63.7 63.755 63.815 63.88 63.94 64 64.038 64.08 64.148 64.203 64.223 64.298 64.34 64.383 64.43 64.47 64.5 64.553 64.605 64.643 64.655 64.713 64.753 64.825 64.888 64.925 64.938 65.028 65.06 65.098 65.165 65.228 65.275 65.31 65.355 65.333 65.328 65.403 66.463 67.7 68.275 66.993 65.998 66.038 66.073 66.133 66.225 66.295 66.35 66.418 66.52 66.593 66.625 66.703 66.738 66.825 66.858 66.908 66.908 66.92 66.898 66.928 66.95 66.993 67.038 67.105 67.135 67.133 67.103 67.145 67.198 67.335 67.253 67.225 67.18 67.153 67.13 67.113 67.07 67.025 66.978 66.935 66.878 66.873 66.875 66.883 66.878 66.828 66.785 66.765 66.72 66.67 66.625 66.585 66.528 66.478 66.428 66.395 66.325 66.28 66.205 66.178 66.073 66.043 66.015 65.93 65.838 65.75 65.678 65.535 65.125 65.073 65.1 65.075 65.435 65.36 65.035 64.793 64.77 65.333 67.248 68.673 69.045 68.528 66.465 65.983 66.313 65.943 65.373 64.783 64.535 64.345 64.028 64.005 63.975 64.01 64.013 63.973 64.015 63.958 64.04 63.958 63.858 63.548 63.005 62.593 62.275 62.068 61.935 61.843 61.72 61.643 61.545 61.43 61.28 61.085 60.955 60.79 60.643 60.473 60.353 60.235 60.095 59.933 59.823 59.705 59.595 59.455 59.343 59.195 59.048 58.92 58.823 58.628 58.51 58.365 58.248 58.12
30.21 30.292 36.16 30.9 30.735 31.32 38.845 39.76 35.755 45.722 35.967 45.667 43.482 35.98 36.487 33.367 42.385 39.452 38.492 42.44 49.397 52.157 53.297 40.102 34.295 34.26 33.922 33.935 34.162 34.47 34.932 34.642 34.625 34.72 34.8 34.88 34.925 34.94 34.962 34.955 34.977 35.86 35.265 35.032 35.105 35.06 35.082 35.595 35.917 35.562 37.402 35.47 35.805 36.022 35.862 36.515 36.357 36.677 36.81 37.057 37.232 38.16 37.672 37.965 38.252 38.507 43.977 46.29 40.167 47.545 46.69 49.26 44.905 46.687 44.752 43.995 46.082 42.26 43.79 44.54 45.672 49.762 44.66 43.962 46.697 47.445 47.122 48 46.755 45.815 46.017 46.207 46.392 46.557 46.745 46.892 47.1 47.342 47.595 47.86 48.112 48.382 48.69 48.97 49.267 49.537 49.825 50.107 50.382 50.637 50.907 51.157 51.407 51.655 51.91 52.162 52.41 52.647 52.86 53.09 53.29 53.515 53.792 53.968 54.203 54.43 54.643 54.853 55.07 55.263 55.473 55.658 55.83 55.993 56.133 56.305 56.495 56.635 56.808 56.985 57.143 57.315 57.448 57.608 57.75 57.863 58.01 58.158 58.383 58.47 58.473 58.55 58.6 58.665 59.148 59.535 59.418 59.46 59.41 59.355 59.42 59.485 59.558 59.635 59.683 59.678 59.693 59.738 59.76 59.788 59.775 59.768 59.75 59.768 59.753 59.743 59.695 59.648 59.608 59.543 59.508 59.458 59.35 59.26 59.163 59.058 58.963 58.86 58.745 58.605 58.46 58.308 58.158 58.025 57.918 57.785 57.655 57.533 57.405 57.27 57.133 57.02 56.92 56.793 56.678 56.593 56.485 56.345 56.245 56.173 56.188 56.165 56.285 58.703 58.095 55.758 56.048 56.113 56.275 56.44 56.623 56.763 56.858 56.98 57.135 57.36 57.55 57.698 57.86 58.025 58.22 58.368 58.56 58.785 59.063 59.288 59.55 59.815 60.065 60.34 60.583 60.788 60.938 61.07 61.24 61.375 61.485 61.608 61.773 61.905 62.02 62.153 62.29 62.413 62.57 62.663 62.775 62.84 62.935 63.028 63.145 63.268 63.348 63.425 63.523 63.58 63.645 63.705 63.78 63.855 63.895 63.893 63.943 63.998 64.068 64.09 64.165 64.208 64.255 64.27 64.308 64.35 64.393 64.443 64.468 64.51 64.535 64.603 64.658 64.715 64.735 64.8 64.843 64.903 64.958 65 65.05 65.095 65.15 65.18 65.168 65.168 65.36 66.463 67.695 67.995 66.313 65.813 65.86 65.91 65.963 66.05 66.11 66.188 66.275 66.345 66.405 66.47 66.56 66.57 66.668 66.695 66.748 66.748 66.743 66.765 66.808 66.795 66.833 66.908 66.96 66.975 66.958 66.968 67.023 67.088 67.095 67.083 67.098 67.15 67.138 67.138 67.233 67.048 67.215 66.815 66.92 67.063 66.798 66.788 66.783 66.773 66.718 66.683 66.653 66.638 66.57 66.525 66.453 66.403 66.385 66.35 66.29 66.235 66.193 66.128 66.113 66.045 66.065 65.975 65.893 65.868 66.13 67.028 66.585 65.075 65.053 65.075 65.108 65.118 65.135 65.673 64.953 64.7 64.75 64.99 66.678 67.405 67.673 66.363 64.938 65.425 65.383 65.4 64.435 64.415 64.24 63.94 63.928 63.885 63.97 63.925 63.893 63.875 63.883 63.918 63.925 63.723 63.43 62.873 62.495 62.253 62.123 61.98 61.82 61.693 61.573 61.478 61.403 61.27 61.075 60.91 60.78 60.6 60.443 60.325 60.198 60.043 59.893 59.768 59.68 59.553 59.42 59.288 59.163 58.97 58.88 58.763 58.625 58.495 58.365 58.23 58.128
29.932 32.697 37.382 32.012 31.025 30.907 33.787 37.552 35.025 39.787 44.512 46.815 40.01 43.447 35.465 34.57 36.902 44.385 40.295 37.932 44.82 39.475 44.282 37.44 33.875 33.945 33.705 33.835 34.057 34.737 34.835 34.63 34.632 34.655 34.655 34.737 34.92 34.897 34.9 34.942 34.885 35.07 34.895 34.737 34.892 35.33 35.03 35.405 35.34 35.97 35.94 36.042 37.815 36.897 36.517 36.757 36.695 36.93 37.647 37.642 37.562 37.837 38.012 38.192 38.82 39.212 47.455 48.057 39.65 45.107 45.34 41.215 40.855 41.39 43.775 47.622 46.855 42.732 46.59 50.242 48.095 48.772 44.987 46.135 53.962 52.915 46.125 46.615 45.98 45.89 46.075 46.28 46.465 46.62 46.795 46.965 47.197 47.447 47.66 47.957 48.22 48.517 48.802 49.092 49.375 49.642 49.922 50.245 50.502 50.765 51.027 51.277 51.537 51.787 52.022 52.255 52.5 52.727 52.957 53.182 53.395 53.64 53.885 54.078 54.303 54.503 54.7 54.913 55.135 55.355 55.538 55.708 55.858 56.035 56.193 56.355 56.505 56.695 56.848 56.983 57.115 57.318 57.428 57.588 57.688 57.815 57.978 58.125 58.323 58.395 58.443 58.513 58.55 58.65 59.588 59.608 59.42 59.373 59.315 59.255 59.305 59.403 59.44 59.513 59.568 59.575 59.598 59.628 59.658 59.67 59.665 59.658 59.66 59.643 59.635 59.625 59.588 59.523 59.48 59.418 59.358 59.293 59.17 59.085 59.035 58.903 58.803 58.705 58.583 58.413 58.263 58.115 57.98 57.845 57.688 57.565 57.443 57.3 57.183 57.045 56.905 56.813 56.68 56.553 56.458 56.368 56.26 56.153 56.03 55.998 56.005 55.908 57.28 57.445 57.053 56.058 55.76 55.913 56.12 56.27 56.475 56.573 56.673 56.82 56.97 57.17 57.39 57.543 57.708 57.905 58.045 58.21 58.4 58.648 58.883 59.113 59.358 59.63 59.905 60.165 60.41 60.608 60.755 60.91 61.088 61.228 61.358 61.478 61.623 61.795 61.873 62.003 62.165 62.318 62.435 62.553 62.625 62.733 62.838 62.933 63.025 63.133 63.233 63.313 63.388 63.448 63.513 63.538 63.648 63.72 63.725 63.783 63.838 63.845 63.928 63.94 63.988 64.045 64.093 64.135 64.143 64.185 64.233 64.29 64.3 64.34 64.375 64.42 64.473 64.55 64.595 64.623 64.675 64.74 64.785 64.828 64.88 64.905 64.96 64.988 64.973 64.988 65.46 66.698 67.5 66.445 65.64 65.623 65.688 65.733 65.815 65.883 65.958 65.983 66.073 66.16 66.21 66.29 66.36 66.433 66.508 66.55 66.575 66.608 66.608 66.633 66.63 66.665 66.708 66.783 66.808 66.825 66.81 66.83 66.858 66.88 66.868 66.908 66.91 66.92 66.938 66.92 66.86 66.813 66.768 66.708 66.695 66.893 66.785 66.648 66.643 66.643 66.598 66.593 66.555 66.513 66.448 66.41 66.378 66.308 66.283 66.24 66.195 66.158 66.118 66.033 66.013 65.95 65.935 65.92 65.885 65.913 66.16 67.21 67.003 65.033 65.013 65.06 65.05 65.04 65.138 68.598 65.763 64.628 64.665 64.865 66.82 67.298 65.805 64.77 64.633 64.978 65.31 64.833 64.408 64.268 63.95 63.845 63.828 63.815 63.855 63.818 64.058 64.13 63.863 63.858 63.87 63.608 63.163 62.705 62.375 62.195 62.065 61.955 61.798 61.663 61.56 61.473 61.37 61.223 61.035 60.885 60.77 60.615 60.455 60.333 60.205 60.07 59.908 59.773 59.625 59.52 59.38 59.273 59.098 58.963 58.825 58.715 58.573 58.455 58.323 58.203 58.088
29.802 30.062 30.41 30.532 35.687 47.025 31.07 38.38 31.34 32.957 34.382 45.982 36.275 38.125 32.315 32.467 36.317 45.072 36.042 33.102 39.895 37.765 42.51 39.88 39.267 33.6 33.522 33.69 33.945 34.865 34.265 34.332 34.442 34.48 34.53 34.607 34.732 34.805 34.73 34.867 34.692 34.707 34.657 34.59 34.777 34.672 35.005 35.605 35.817 35.975 35.955 36.217 38.045 37.712 36.705 36.592 36.705 37.007 37.192 37.42 37.685 38.06 38.225 38.43 38.652 39.172 40.53 39.615 39.84 40.715 41.847 44.332 40.885 41.162 41.37 42.625 48.337 44.842 44.357 51.582 43.925 45.585 47.547 45.13 50.347 46.875 45.285 45.71 46.112 45.99 46.12 46.332 46.5 46.67 46.837 47.015 47.252 47.517 47.765 48.077 48.312 48.602 48.905 49.207 49.495 49.782 50.062 50.342 50.61 50.885 51.11 51.362 51.625 51.872 52.11 52.35 52.612 52.812 53.07 53.275 53.477 53.697 53.927 54.16 54.388 54.6 54.788 54.98 55.203 55.408 55.588 55.768 55.928 56.045 56.223 56.36 56.543 56.698 56.833 56.965 57.143 57.255 57.393 57.528 57.655 57.775 57.91 58.085 58.295 58.33 58.355 58.443 58.463 58.6 60.093 60.15 59.328 59.283 59.225 59.153 59.23 59.32 59.358 59.425 59.438 59.47 59.493 59.533 59.538 59.565 59.525 59.558 59.553 59.533 59.488 59.483 59.448 59.378 59.333 59.285 59.22 59.14 59.063 58.95 58.868 58.768 58.665 58.55 58.395 58.248 58.085 57.933 57.83 57.675 57.518 57.385 57.25 57.103 56.97 56.808 56.685 56.588 56.445 56.325 56.24 56.135 56.048 55.935 55.845 55.828 55.833 55.72 57.675 60.215 59.735 55.448 55.633 55.803 55.978 56.108 56.273 56.398 56.49 56.64 56.768 57.018 57.188 57.343 57.548 57.718 57.878 58.028 58.263 58.52 58.723 58.948 59.183 59.458 59.735 59.998 60.238 60.43 60.59 60.748 60.928 61.08 61.193 61.318 61.515 61.665 61.773 61.898 62.05 62.218 62.335 62.42 62.525 62.61 62.695 62.815 62.925 63.023 63.09 63.183 63.288 63.338 63.385 63.445 63.498 63.59 63.625 63.663 63.693 63.72 63.76 63.8 63.875 63.903 63.928 63.965 63.988 64.033 64.1 64.115 64.158 64.19 64.235 64.285 64.328 64.385 64.438 64.453 64.495 64.56 64.635 64.658 64.725 64.758 64.77 64.785 64.788 64.915 65.918 67.118 68.473 66.05 65.445 65.475 65.528 65.575 65.63 65.705 65.795 65.86 65.925 65.978 66.03 66.138 66.213 66.275 66.373 66.388 66.395 66.433 66.475 66.485 66.5 66.538 66.575 66.64 66.673 66.673 66.685 66.688 66.728 66.698 66.73 66.75 66.753 66.755 66.773 66.778 66.718 66.685 66.65 66.575 66.563 66.553 66.525 66.545 66.583 66.53 66.47 66.448 66.408 66.378 66.365 66.315 66.263 66.223 66.185 66.145 66.085 66.078 65.998 65.938 65.928 66.015 65.858 65.843 65.843 65.825 66.408 67.798 66.798 65.063 65.038 65.02 65.07 64.938 64.828 65.533 64.693 64.63 64.603 65.118 65.705 65.403 64.43 64.388 64.333 64.253 64.205 64.39 64.333 64.048 63.82 63.743 63.708 63.688 63.668 63.678 63.918 64.12 63.93 63.853 63.815 63.43 63.015 62.615 62.288 62.123 61.993 61.893 61.78 61.653 61.54 61.438 61.345 61.208 61.038 60.895 60.725 60.598 60.435 60.325 60.2 60.045 59.923 59.78 59.635 59.505 59.395 59.258 59.108 58.963 58.818 58.688 58.54 58.423 58.295 58.188 58.055
29.58 29.93 30.317 30.63 43.16 40.392 37.345 36.935 31.38 38.217 31.517 39.592 42.387 32.027 34.2 36.63 32.527 43.602 44.11 32.887 35.19 33.29 46.527 41.232 41.325 39.175 33.337 33.525 33.782 34.3 34.252 34.245 34.335 34.357 34.61 34.545 34.655 34.615 34.595 34.577 34.63 34.682 34.652 34.63 34.63 35.02 35.545 35.732 35.825 36.125 36.092 36.255 37.585 36.715 36.667 36.657 36.815 37.132 37.382 37.652 37.845 38.485 39.455 38.532 38.832 38.725 39.235 39.735 39.88 42.165 41.162 48.71 43.545 41.25 41.507 41.757 44.492 49.537 46.262 44.025 46.935 44.515 45.12 46.522 45.587 44.845 45.91 45.732 46.14 46.032 46.197 46.395 46.562 46.727 46.92 47.065 47.322 47.582 47.842 48.115 48.382 48.662 48.995 49.282 49.592 49.882 50.155 50.427 50.67 50.925 51.167 51.422 51.715 51.975 52.205 52.452 52.67 52.882 53.122 53.33 53.535 53.775 54.012 54.22 54.445 54.66 54.83 55.015 55.225 55.428 55.628 55.8 55.94 56.098 56.248 56.388 56.533 56.655 56.8 56.96 57.118 57.235 57.37 57.485 57.618 57.728 57.853 58.015 58.193 58.27 58.325 58.393 58.395 58.53 60.248 59.66 59.273 59.173 59.11 59.068 59.145 59.195 59.28 59.338 59.353 59.38 59.41 59.423 59.433 59.44 59.425 59.453 59.415 59.443 59.403 59.385 59.315 59.268 59.223 59.173 59.088 59.028 58.908 58.82 58.695 58.585 58.495 58.373 58.253 58.123 57.933 57.755 57.598 57.445 57.315 57.188 57.02 56.888 56.745 56.58 56.468 56.353 56.235 56.103 56.028 55.938 55.815 55.73 55.658 55.663 56.855 56.655 57.738 58.28 55.81 55.305 55.488 55.635 55.813 55.96 56.105 56.188 56.315 56.435 56.605 56.825 56.988 57.17 57.37 57.538 57.72 57.875 58.1 58.35 58.558 58.795 59.063 59.315 59.565 59.788 60.008 60.233 60.428 60.6 60.775 60.905 61.07 61.203 61.368 61.52 61.643 61.803 61.95 62.11 62.203 62.293 62.38 62.48 62.6 62.688 62.815 62.898 62.983 63.088 63.208 63.223 63.26 63.33 63.4 63.453 63.49 63.52 63.565 63.598 63.608 63.668 63.72 63.728 63.753 63.815 63.89 63.928 63.945 63.96 64.015 64.02 64.065 64.143 64.188 64.21 64.243 64.28 64.325 64.383 64.42 64.485 64.543 64.59 64.615 64.615 64.59 64.8 65.968 68.04 67.668 66.143 65.303 65.33 65.375 65.39 65.48 65.57 65.618 65.705 65.77 65.818 65.89 65.973 66.045 66.14 66.19 66.228 66.255 66.293 66.308 66.32 66.35 66.378 66.428 66.505 66.54 66.513 66.545 66.545 66.57 66.86 66.558 66.58 66.59 66.605 66.593 66.62 66.593 66.54 66.493 66.448 66.46 66.43 66.39 66.423 66.448 66.415 66.38 66.345 66.31 66.265 66.235 66.203 66.15 66.125 66.088 66.043 65.983 65.973 65.905 65.848 65.835 65.86 65.843 65.778 65.795 65.793 66.678 68.043 65.488 64.98 64.988 65.568 66.728 65.97 64.75 64.66 64.615 64.57 64.528 64.45 64.363 64.29 64.213 64.17 64.123 64.075 64 64.03 64.04 63.85 63.705 63.68 63.625 63.59 63.558 63.548 63.708 63.498 63.573 63.733 63.67 63.308 62.848 62.505 62.218 62.075 61.94 61.84 61.76 61.633 61.528 61.378 61.303 61.168 61.018 60.873 60.683 60.568 60.423 60.278 60.188 60.04 59.918 59.798 59.683 59.535 59.388 59.235 59.103 58.963 58.828 58.685 58.543 58.438 58.305 58.205 58.085
29.712 29.767 29.92 30.247 42.07 37.655 39.042 39.477 39.26 40.722 40.945 38.767 41.117 41.1 35.347 35.767 32.47 41.392 53.72 42.99 38.73 36.48 39.247 42.067 42.79 33.515 33.17 33.437 33.967 34.007 34.482 35.16 34.58 34.282 34.507 34.425 34.49 34.46 34.657 34.895 34.667 34.557 34.49 34.51 34.545 35.195 35.53 35.977 35.965 35.972 36.045 36.642 37.207 36.685 36.792 36.762 36.967 37.18 37.527 37.83 38.205 39.385 42.155 42.682 38.927 38.82 40.425 39.855 43.687 51.715 47.047 44.32 44.23 41.265 41.575 42.162 42.222 43.877 45.537 47.847 54.075 48.407 44.002 44.717 44.547 47.437 47.44 45.825 46.077 46.045 46.277 46.437 46.582 46.78 46.93 47.137 47.382 47.622 47.87 48.157 48.45 48.725 49.045 49.362 49.655 49.927 50.2 50.477 50.737 51.015 51.28 51.52 51.79 52.055 52.31 52.53 52.78 53.005 53.205 53.42 53.617 53.835 54.077 54.285 54.48 54.68 54.913 55.093 55.285 55.473 55.65 55.823 55.97 56.09 56.27 56.398 56.538 56.678 56.793 56.952 57.123 57.215 57.338 57.44 57.57 57.688 57.79 57.958 58.165 58.202 58.273 58.333 58.32 58.455 60.49 60.443 59.103 59.068 58.998 58.983 59.038 59.098 59.188 59.235 59.255 59.275 59.305 59.315 59.343 59.328 59.328 59.353 59.353 59.345 59.318 59.275 59.23 59.155 59.083 59.028 58.945 58.843 58.793 58.67 58.565 58.448 58.343 58.188 58.098 57.933 57.755 57.563 57.403 57.245 57.12 56.985 56.843 56.695 56.528 56.41 56.273 56.145 56 55.888 55.788 55.693 55.603 55.523 55.488 55.485 55.543 58.205 63.11 60.7 55.838 55.23 56.04 55.465 55.663 55.8 55.895 56.003 56.108 56.245 56.448 56.645 56.785 56.99 57.185 57.368 57.508 57.705 57.96 58.165 58.37 58.623 58.888 59.145 59.365 59.595 59.828 60.04 60.213 60.433 60.558 60.75 60.913 61.055 61.245 61.37 61.513 61.645 61.81 61.963 62.053 62.168 62.273 62.363 62.453 62.59 62.678 62.783 62.893 63.015 63.085 63.088 63.163 63.248 63.305 63.325 63.363 63.405 63.448 63.475 63.478 63.513 63.545 63.548 63.603 63.675 63.765 63.808 63.815 63.82 63.865 63.883 63.93 64 64.043 64.073 64.113 64.143 64.173 64.22 64.278 64.333 64.373 64.388 64.393 64.41 64.45 65.07 66.128 67.828 66.75 65.448 65.155 65.178 65.223 65.228 65.3 65.405 65.47 65.553 65.655 65.67 65.748 65.803 65.868 65.973 65.998 66.068 66.113 66.12 66.14 66.163 66.18 66.228 66.3 66.353 66.353 66.35 66.388 66.448 66.425 66.433 66.343 66.373 66.355 66.343 66.33 66.328 66.365 66.345 66.315 66.278 66.275 66.273 66.29 66.29 66.273 66.263 66.248 66.248 66.208 66.165 66.14 66.075 66.038 66.038 65.998 65.94 65.903 65.853 65.793 65.77 65.8 65.808 65.74 65.735 65.713 65.825 67.44 67.62 65.655 65.02 65.318 66.528 66.535 65.28 64.68 64.605 64.59 64.525 64.483 64.4 64.29 64.213 64.115 64.048 63.995 63.935 63.893 63.815 63.808 63.7 63.633 63.59 63.52 63.483 63.46 63.635 63.65 63.538 63.433 63.588 63.455 63.07 62.668 62.305 62.135 62.03 61.923 61.805 61.683 61.59 61.458 61.323 61.23 61.09 60.968 60.838 60.685 60.55 60.41 60.3 60.183 60.013 59.908 59.783 59.645 59.508 59.393 59.23 59.07 58.953 58.805 58.668 58.555 58.423 58.303 58.19 58.043
29.745 29.787 29.955 30.06 34.05 31.397 33.702 34.1 39.397 43.127 31.63 34.797 43.417 43.625 34.88 32.147 32.17 48.035 47.65 43.12 34.87 32.945 32.765 32.897 33.175 32.897 33.045 33.292 33.602 33.715 34.2 39.56 37.567 37.815 34.352 34.207 34.297 34.375 34.51 34.657 34.562 34.572 34.327 34.162 34.667 35.127 35.567 35.837 35.77 35.98 36.157 36.39 36.72 37.252 36.87 37.28 37.382 37.467 37.607 37.86 37.897 38.41 39.125 41.907 39.462 38.96 44.16 45.452 43.645 49.835 41.555 41.387 42.07 41.35 41.647 41.917 42.657 42.55 44.44 49.367 51.392 46.755 46.12 44.362 44.987 46.015 45.437 45.82 45.982 46.095 46.322 46.485 46.64 46.802 46.972 47.152 47.415 47.675 47.952 48.212 48.522 48.817 49.135 49.44 49.712 50.005 50.285 50.58 50.822 51.09 51.35 51.615 51.875 52.15 52.39 52.62 52.847 53.07 53.282 53.507 53.722 53.947 54.122 54.333 54.53 54.723 54.93 55.135 55.328 55.495 55.685 55.84 55.985 56.125 56.248 56.383 56.525 56.67 56.778 56.925 57.068 57.205 57.323 57.413 57.573 57.638 57.775 57.938 58.1 58.115 58.205 58.265 58.278 58.425 59.068 59.723 59.053 58.968 58.893 58.88 58.943 59.007 59.053 59.128 59.15 59.183 59.235 59.238 59.255 59.23 59.243 59.235 59.21 59.215 59.215 59.17 59.135 59.068 58.988 58.905 58.82 58.728 58.67 58.555 58.428 58.295 58.163 58.035 57.863 57.723 57.58 57.395 57.218 57.05 56.933 56.778 56.62 56.5 56.328 56.15 56.04 55.92 55.793 55.665 55.525 55.443 55.388 55.325 55.32 55.32 56.555 57.433 57.628 58.62 55.653 55.38 55.18 55.305 55.44 55.58 55.728 55.813 55.943 56.09 56.295 56.463 56.623 56.815 57.01 57.193 57.313 57.51 57.745 57.97 58.198 58.423 58.698 58.96 59.203 59.438 59.663 59.853 60.045 60.225 60.375 60.588 60.733 60.93 61.08 61.203 61.358 61.503 61.675 61.818 61.938 62.03 62.125 62.205 62.31 62.448 62.568 62.648 62.758 62.87 62.93 62.968 63.083 63.153 63.18 63.208 63.233 63.275 63.295 63.31 63.325 63.363 63.385 63.4 63.46 63.543 63.608 63.648 63.673 63.695 63.73 63.725 63.78 63.828 63.88 63.91 63.938 63.983 64.025 64.063 64.118 64.163 64.183 64.213 64.235 64.218 64.27 64.73 65.55 66.853 66.235 64.973 64.948 64.983 65.02 65.058 65.11 65.2 65.285 65.38 65.468 65.51 65.558 65.61 65.698 65.785 65.858 65.903 65.935 65.925 65.943 65.965 66.01 66.098 66.143 66.158 66.175 66.193 66.235 66.32 66.298 66.245 66.243 66.25 66.248 66.215 66.218 66.243 66.25 66.205 66.178 66.16 66.158 66.15 66.143 66.248 66.153 66.158 66.155 66.123 66.113 66.023 65.978 65.965 65.93 65.903 65.905 65.858 65.805 65.728 65.725 65.718 65.828 65.743 65.728 66.448 66.028 66.313 67 66.163 64.973 64.953 65.685 67.19 67.773 67.49 66.908 64.915 64.548 64.525 64.5 64.448 64.41 64.188 64.043 63.988 63.915 63.883 63.803 63.733 63.7 63.623 63.608 63.54 63.448 63.4 63.438 63.915 64.86 64.503 63.355 63.403 63.32 62.925 62.508 62.183 62.03 61.893 61.793 61.7 61.593 61.48 61.355 61.238 61.145 61.013 60.883 60.765 60.615 60.493 60.37 60.268 60.155 60.035 59.903 59.765 59.643 59.523 59.368 59.208 59.07 58.953 58.8 58.645 58.505 58.388 58.255 58.143 58.008
32.092 29.97 30.295 30.335 30.472 30.437 30.512 31.012 44.232 34.84 31.202 31.36 31.527 31.73 31.715 31.88 36.075 42.815 49.835 41.167 32.95 32.745 32.755 32.915 32.765 32.815 32.99 33.162 33.42 34.037 33.552 36.4 35.702 33.87 34.022 33.985 34.247 34.36 34.497 34.4 34.41 34.445 34.152 34.807 34.94 35.122 35.372 35.62 35.925 36.04 36.607 36.332 36.632 38.332 37.347 38.225 37.272 37.565 38.162 37.917 37.97 38.027 38.302 38.612 38.87 38.887 41.872 44.705 43.932 43.335 40.622 40.972 41.217 41.39 41.687 41.95 43.192 42.692 44.197 43.69 43.42 45.307 46.402 44.255 45.265 47.85 47.35 46.087 46.002 46.142 46.387 46.532 46.662 46.832 47.022 47.207 47.462 47.73 48.045 48.287 48.577 48.92 49.222 49.52 49.807 50.077 50.367 50.642 50.917 51.175 51.452 51.725 51.982 52.235 52.452 52.702 52.932 53.192 53.387 53.61 53.812 54.005 54.222 54.43 54.573 54.778 54.973 55.163 55.378 55.538 55.71 55.825 55.97 56.125 56.255 56.37 56.523 56.638 56.765 56.915 57.053 57.145 57.28 57.403 57.51 57.61 57.73 57.855 58.04 58.06 58.13 58.168 58.205 58.43 59.018 59.01 59.02 58.858 58.798 58.783 58.86 58.953 58.99 59.025 59.045 59.093 59.123 59.128 59.135 59.113 59.153 59.11 59.1 59.12 59.11 59.06 59.023 58.963 58.88 58.773 58.668 58.583 58.503 58.39 58.25 58.158 58.023 57.855 57.725 57.588 57.403 57.2 57.03 56.863 56.738 56.555 56.445 56.275 56.14 55.985 55.868 55.728 55.618 55.488 55.345 55.25 55.18 55.118 55.125 55.155 56.063 56.843 54.443 56.218 57.268 57.123 54.988 55.123 55.283 55.415 55.51 55.618 55.743 55.92 56.1 56.273 56.453 56.638 56.825 56.985 57.083 57.33 57.54 57.743 57.988 58.218 58.48 58.748 59.038 59.258 59.468 59.663 59.828 60.023 60.193 60.398 60.563 60.723 60.93 61.065 61.213 61.385 61.53 61.655 61.76 61.86 61.935 62.06 62.175 62.29 62.403 62.498 62.618 62.715 62.795 62.873 62.94 63.033 63.085 63.105 63.125 63.158 63.178 63.18 63.213 63.233 63.255 63.29 63.338 63.41 63.47 63.465 63.513 63.543 63.563 63.608 63.625 63.685 63.74 63.753 63.78 63.808 63.868 63.913 63.94 63.958 63.995 64.01 63.998 63.995 64.193 65.128 66.04 66.418 65.68 64.863 64.753 64.813 64.868 64.913 64.953 65.015 65.09 65.168 65.265 65.31 65.388 65.453 65.545 65.585 65.685 65.72 65.72 65.723 65.76 65.798 65.865 65.963 66 66.008 65.993 66.028 66.088 66.153 66.21 66.16 66.12 66.113 66.14 66.14 66.135 66.145 66.13 66.11 66.098 66.08 66.078 66.07 66.045 66.148 66.02 66.045 66.023 65.968 65.888 65.793 65.8 65.83 65.825 65.82 65.75 65.735 65.698 65.658 65.66 65.66 65.7 65.683 65.663 66.933 66.048 67.11 68.228 66.52 64.92 65.103 66.465 67.168 67.708 67.8 67.475 65.108 64.483 64.47 64.48 66.068 66.348 65.32 65.105 64.803 64.138 63.925 63.73 63.648 63.558 63.565 63.533 63.425 63.425 63.42 63.333 63.22 63.133 63.028 62.913 62.815 62.823 62.643 62.36 62.038 61.87 61.773 61.875 61.66 61.563 61.328 61.223 61.145 61.015 60.88 60.765 60.688 60.57 60.405 60.28 60.195 60.075 59.975 59.835 59.728 59.608 59.473 59.313 59.173 59.04 58.903 58.75 58.605 58.485 58.378 58.27 58.093 57.978
36.495 30.032 30.085 30.33 30.417 30.51 30.812 30.955 36.057 32.977 30.935 31.825 31.21 41.567 33.395 31.717 31.907 32.047 44.617 32.457 32.377 32.755 32.817 32.735 32.635 32.73 32.965 34.102 33.495 33.44 39.39 37.67 33.75 33.585 33.875 33.992 34.295 34.382 34.392 34.257 34.232 33.907 34.49 34.71 34.82 35.095 35.365 35.652 35.982 36.232 36.6 38.237 39.532 36.82 39.112 41.087 38.247 40.062 37.825 40.035 38.137 38.082 38.34 38.612 38.872 39.085 39.852 41.675 41.19 41.992 42.207 44.812 41.19 43.992 43.797 42.512 42.252 42.75 46.412 43.887 43.505 43.782 43.95 44.765 44.67 45.46 45.632 46.325 46.077 46.185 46.397 46.545 46.712 46.867 47.07 47.262 47.54 47.822 48.11 48.382 48.652 49 49.31 49.592 49.877 50.165 50.467 50.735 51.002 51.267 51.537 51.815 52.057 52.317 52.545 52.79 53.025 53.24 53.442 53.667 53.895 54.097 54.265 54.435 54.63 54.818 55 55.2 55.37 55.568 55.735 55.845 55.983 56.135 56.26 56.388 56.498 56.623 56.758 56.88 56.998 57.132 57.255 57.345 57.468 57.558 57.675 57.855 57.963 57.985 58.05 58.085 58.108 59.12 58.903 60.275 59.238 58.763 58.693 58.695 58.778 58.843 58.905 58.915 58.938 58.975 59.003 59.023 59.03 59.03 59.048 59.018 59.023 59.03 58.988 58.955 58.895 58.82 58.73 58.643 58.555 58.445 58.343 58.238 58.11 58.018 57.86 57.72 57.588 57.393 57.203 57.018 56.84 56.685 56.528 56.358 56.215 56.06 55.958 55.788 55.655 55.525 55.383 55.275 55.158 55.05 54.97 54.955 54.94 54.978 55.09 56.423 55.463 57.25 55.005 54.915 54.823 54.958 55.078 55.215 55.29 55.413 55.543 55.723 55.905 56.06 56.275 56.465 56.63 56.758 56.88 57.14 57.345 57.6 57.808 58.03 58.278 58.55 58.838 59.05 59.258 59.448 59.635 59.833 59.995 60.198 60.403 60.573 60.765 60.885 61.073 61.208 61.378 61.5 61.623 61.72 61.793 61.885 62.05 62.165 62.25 62.353 62.475 62.563 62.645 62.723 62.82 62.883 62.955 62.958 62.985 63.013 63.025 63.035 63.053 63.103 63.118 63.158 63.218 63.288 63.328 63.325 63.36 63.368 63.388 63.438 63.48 63.528 63.583 63.598 63.635 63.653 63.713 63.743 63.743 63.773 63.8 63.813 63.8 63.803 64.078 65.153 65.79 66.21 65.505 64.64 64.508 64.578 64.675 64.783 64.825 64.883 64.948 65.058 65.113 65.18 65.22 65.273 65.345 65.433 65.483 65.518 65.538 65.568 65.605 65.64 65.71 65.77 65.84 65.848 65.848 65.888 65.965 65.968 66.043 66.073 66.005 66.013 66.01 66.015 66.02 66.01 66.043 66.005 65.99 65.983 65.978 65.98 65.993 65.985 65.913 65.888 65.84 65.745 65.7 65.665 65.643 65.618 65.665 65.748 65.638 65.68 65.683 65.695 65.68 65.62 65.673 65.635 65.655 65.573 65.813 66.888 67.235 65.035 64.9 65.013 66.258 67.345 67.718 67.8 65.97 64.563 64.44 64.438 65.153 67.068 66.588 66.023 68.185 67.483 66.488 65.115 64.78 63.54 63.53 63.49 63.443 63.398 63.355 63.37 63.278 63.168 63.045 62.908 62.755 62.568 62.42 62.258 62.123 61.958 61.823 61.928 62.305 62.093 61.503 61.27 61.145 61.043 60.928 60.835 60.723 60.603 60.453 60.32 60.215 60.115 60.005 59.878 59.81 59.68 59.563 59.398 59.24 59.11 58.953 58.838 58.698 58.59 58.455 58.343 58.195 58.068 57.94
37.425 33.23 34.687 30.515 30.34 34.847 39.467 35.547 43.922 40.6 31.452 40.69 42.16 38.455 34.31 31.417 31.627 32.03 33.667 31.977 32.15 32.515 32.53 32.615 32.542 32.72 33.402 33.71 33.49 33.42 37.34 39.047 33.657 33.502 33.715 33.982 34.325 34.067 34 35.132 33.967 34.037 34.567 34.797 34.88 35.072 35.522 35.752 35.982 35.992 36.155 37.732 38.165 36.87 38.39 41.845 41.085 38.252 47.835 38.952 38.127 38.257 38.6 40.362 38.867 39.562 39.78 39.827 40.145 49.617 56.367 46.21 41.78 46.072 47.082 43.682 42.487 42.727 42.882 50.332 43.545 45.087 44.122 44.375 45.437 46.585 45.825 46.582 46.135 46.197 46.455 46.582 46.747 46.9 47.097 47.307 47.615 47.882 48.125 48.425 48.725 49.05 49.357 49.63 49.937 50.235 50.547 50.787 51.06 51.362 51.65 51.862 52.13 52.36 52.615 52.855 53.077 53.302 53.512 53.705 53.922 54.105 54.31 54.455 54.67 54.82 55.038 55.198 55.382 55.565 55.68 55.823 55.953 56.118 56.225 56.338 56.46 56.562 56.698 56.838 56.968 57.09 57.198 57.285 57.388 57.498 57.615 57.79 57.908 57.928 57.948 57.98 57.993 58.443 59.438 58.865 59.458 58.648 58.59 58.62 58.698 58.76 58.835 58.833 58.858 58.868 58.9 58.923 58.908 58.93 58.943 58.943 58.93 58.9 58.873 58.843 58.785 58.7 58.608 58.54 58.415 58.343 58.243 58.09 57.973 57.848 57.73 57.54 57.418 57.23 57.053 56.85 56.68 56.525 56.36 56.19 56.028 55.88 55.74 55.608 55.485 55.348 55.223 55.118 54.95 54.86 54.783 54.77 54.783 54.778 54.928 55.12 53.735 55.17 54.573 54.538 54.62 54.748 54.898 55.008 55.095 55.183 55.353 55.53 55.71 55.87 56.053 56.255 56.395 56.538 56.745 56.968 57.173 57.39 57.62 57.845 58.085 58.348 58.605 58.823 59.023 59.24 59.425 59.628 59.82 59.995 60.23 60.415 60.588 60.718 60.91 61.063 61.233 61.358 61.475 61.57 61.635 61.778 61.905 61.983 62.113 62.195 62.293 62.388 62.503 62.575 62.67 62.728 62.793 62.805 62.84 62.865 62.868 62.863 62.893 62.958 62.993 63.015 63.105 63.15 63.208 63.19 63.2 63.218 63.243 63.3 63.34 63.405 63.433 63.448 63.46 63.515 63.568 63.565 63.593 63.618 63.645 63.628 63.588 63.628 64.353 65.528 65.755 65.835 64.898 64.305 64.355 64.435 64.533 64.595 64.638 64.735 64.823 64.893 64.983 65.025 65.053 65.14 65.223 65.275 65.318 65.333 65.363 65.398 65.428 65.483 65.53 65.605 65.633 65.663 65.688 65.74 65.785 65.82 65.908 66.025 65.938 65.943 65.915 65.923 65.943 65.928 65.935 65.943 65.92 65.885 65.915 65.908 65.948 66.083 65.925 66.06 65.89 65.943 66.898 66.163 65.663 65.65 65.588 65.613 65.613 65.588 65.578 65.55 65.553 65.56 65.585 65.58 65.565 65.705 67.11 68.34 65.978 64.845 64.858 65.463 66.693 67.635 67.733 67.745 65.935 64.46 64.448 64.358 66.208 67.13 66.545 67.57 68.153 68.218 68.255 67.78 66.943 66.893 64.425 64.405 63.668 63.348 63.308 63.27 63.21 63.078 62.903 62.785 62.64 62.518 62.388 62.218 62.058 61.933 61.793 61.71 61.635 61.51 61.37 61.25 61.14 61.02 60.903 60.78 60.673 60.545 60.408 60.255 60.133 60.058 59.928 59.803 59.715 59.638 59.488 59.318 59.153 58.998 58.858 58.728 58.635 58.538 58.423 58.288 58.148 58.02 57.898
30.472 37.067 38.652 35.422 36.772 37.77 38.432 43.11 37.12 33.475 32.212 40.197 40.025 40.135 32.132 31.245 31.385 31.542 31.665 31.805 32.14 32.245 32.392 32.435 32.512 32.68 33.527 33.407 33.34 33.4 34.615 37.2 36.445 34.005 33.732 33.777 33.777 33.82 33.795 34.492 34.267 34.432 34.64 34.73 34.85 35.242 35.442 35.67 35.825 36.03 36.362 37.342 38.132 37.132 37.39 42.722 40.84 48.98 48.5 38.062 39.25 38.607 38.917 41.72 40.487 39.885 41.412 44.395 46.79 50.267 53.642 49.222 42.485 47.345 46.597 42.147 42.327 42.622 43.955 45.61 43.602 49.987 46.245 44.35 45.575 48.762 46.237 46.687 45.997 46.207 46.425 46.572 46.74 46.93 47.112 47.345 47.61 47.905 48.187 48.495 48.795 49.09 49.392 49.685 49.985 50.27 50.56 50.85 51.13 51.41 51.702 51.937 52.177 52.4 52.622 52.852 53.082 53.292 53.52 53.737 53.92 54.122 54.292 54.483 54.658 54.813 54.993 55.185 55.358 55.508 55.653 55.827 55.935 56.08 56.215 56.315 56.42 56.523 56.647 56.78 56.908 57.013 57.133 57.235 57.345 57.435 57.543 57.718 57.888 57.86 57.915 57.908 57.978 60.23 62.078 59.705 58.673 58.56 58.513 58.538 58.615 58.688 58.73 58.728 58.733 58.763 58.818 58.808 58.838 58.82 58.838 58.805 58.803 58.798 58.76 58.723 58.645 58.585 58.518 58.418 58.318 58.228 58.105 57.978 57.848 57.703 57.57 57.395 57.25 57.083 56.94 56.7 56.523 56.338 56.208 56 55.85 55.71 55.56 55.415 55.305 55.185 55.09 54.93 54.783 54.66 54.605 54.59 54.623 54.628 54.518 53.983 52.978 54.473 54.648 54.375 54.41 54.55 54.698 54.783 54.868 54.993 55.158 55.333 55.503 55.67 55.858 56.025 56.198 56.325 56.55 56.773 56.998 57.2 57.45 57.688 57.915 58.13 58.355 58.573 58.818 59.035 59.218 59.415 59.605 59.825 60.003 60.223 60.4 60.56 60.745 60.92 61.075 61.198 61.305 61.408 61.495 61.643 61.768 61.868 61.978 62.065 62.163 62.233 62.328 62.423 62.52 62.59 62.63 62.65 62.705 62.728 62.733 62.718 62.8 62.813 62.85 62.88 62.928 62.965 63.03 63.045 63.063 63.075 63.113 63.16 63.205 63.28 63.288 63.305 63.348 63.365 63.428 63.455 63.43 63.458 63.475 63.423 63.408 63.495 64.45 65.385 65.538 65.413 64.58 64.138 64.213 64.308 64.355 64.393 64.473 64.578 64.653 64.708 64.75 64.828 64.878 64.955 65.033 65.105 65.143 65.168 65.188 65.22 65.245 65.32 65.365 65.415 65.49 65.515 65.525 65.573 65.638 65.643 65.728 65.843 65.873 65.855 65.84 65.865 65.868 65.865 65.855 65.855 65.853 65.863 65.843 65.873 65.953 66.173 66.095 66.105 66.1 66.038 68.345 65.985 65.64 65.608 65.558 65.573 65.59 65.583 65.573 65.565 65.558 65.555 65.515 65.515 65.515 65.633 67.835 68.173 65.403 64.803 64.84 65.953 68.995 66.555 67.573 67.22 64.513 64.415 64.385 64.465 66.698 67.045 65.263 67.93 67.953 68.01 68.043 68.148 68.233 68.018 68.263 67.348 64.818 65.018 64.19 63.168 63.075 62.953 62.845 62.685 62.58 62.695 63.023 63.035 62.795 62.43 61.73 61.675 61.613 61.525 61.418 61.313 61.175 61.025 60.903 60.773 60.653 60.543 60.408 60.253 60.13 60.04 59.893 59.775 59.648 59.588 59.445 59.253 59.095 58.943 58.8 58.72 58.63 58.513 58.403 58.265 58.14 57.985 57.853
29.84 37.412 35.01 35.352 38.877 40.932 36.77 33.467 36.195 30.842 30.83 34.767 34.3 34.26 31.36 31.5 33.132 34.887 31.582 31.725 31.872 32.085 32.302 32.367 32.497 32.595 33.042 33.255 33.262 33.387 33.255 37.98 40.555 33.627 33.757 33.682 33.625 33.502 33.802 33.915 34.172 34.22 34.487 34.787 34.915 35.165 35.415 35.505 35.717 36.162 36.48 36.767 40.905 36.912 37.807 38.55 41.022 45.015 46.067 40.355 39.567 38.377 40.542 39.172 39.102 42.135 51.12 48.575 48.335 48.952 47.297 43.407 42.892 42.967 42.95 42.977 42.492 42.845 44.267 43.715 43.907 46.65 47.972 44.772 45.787 46.52 46.017 46.767 45.992 46.207 46.425 46.602 46.762 46.935 47.105 47.372 47.62 47.915 48.212 48.507 48.787 49.08 49.405 49.685 50.022 50.325 50.577 50.895 51.152 51.447 51.727 51.972 52.187 52.42 52.655 52.89 53.125 53.31 53.54 53.707 53.905 54.115 54.28 54.45 54.65 54.813 54.985 55.163 55.323 55.47 55.625 55.778 55.923 56.04 56.132 56.248 56.393 56.49 56.615 56.755 56.858 56.945 57.068 57.175 57.273 57.382 57.475 57.635 57.773 57.8 57.855 57.873 57.903 59.083 59.44 59.425 58.643 58.45 58.435 58.465 58.533 58.57 58.63 58.648 58.643 58.69 58.683 58.71 58.738 58.723 58.725 58.723 58.688 58.648 58.65 58.598 58.525 58.458 58.383 58.305 58.198 58.098 57.97 57.83 57.725 57.585 57.423 57.263 57.113 56.918 56.748 56.543 56.383 56.21 56.028 55.875 55.69 55.53 55.388 55.26 55.148 54.983 54.9 54.785 54.62 54.498 54.445 54.425 54.458 54.675 54.673 54.518 53.063 54.153 54.313 54.175 54.218 54.36 54.475 54.59 54.67 54.8 54.978 55.15 55.303 55.518 55.665 55.84 55.998 56.15 56.36 56.608 56.8 57 57.275 57.505 57.743 57.96 58.155 58.36 58.583 58.805 59.033 59.188 59.393 59.625 59.843 60.053 60.218 60.39 60.59 60.763 60.89 61.02 61.17 61.268 61.36 61.503 61.628 61.705 61.808 61.935 62.035 62.115 62.188 62.293 62.378 62.423 62.473 62.5 62.538 62.588 62.598 62.613 62.673 62.668 62.678 62.745 62.798 62.848 62.885 62.905 62.875 62.915 62.953 63.005 63.055 63.1 63.13 63.158 63.188 63.225 63.26 63.27 63.29 63.283 63.283 63.223 63.233 63.623 64.353 64.785 64.68 64.62 64.56 64.11 64.098 64.17 64.215 64.298 64.368 64.428 64.475 64.523 64.593 64.655 64.705 64.793 64.858 64.938 64.993 65.03 65.065 65.1 65.125 65.173 65.228 65.28 65.345 65.378 65.43 65.465 65.5 65.53 65.71 65.81 65.9 65.85 65.97 65.86 65.823 65.88 65.863 65.86 65.825 65.833 65.82 65.81 65.865 66.368 66.455 66.045 65.875 67.025 67.81 65.583 66.29 65.92 66.143 66.315 65.588 66.098 65.658 65.663 65.56 65.76 65.74 65.488 65.503 65.515 67.81 66.635 64.708 64.73 64.758 65.193 67.5 64.91 66.948 67.203 65.418 64.71 64.678 64.53 65.62 66.035 66.55 67.7 67.785 67.825 67.903 67.95 68.015 68.113 68.178 68.248 68.068 66.965 66.79 63.1 62.953 62.845 62.748 62.628 62.495 62.673 62.553 62.533 62.508 62.2 61.785 61.67 61.61 61.483 61.398 61.273 61.168 61.013 60.878 60.735 60.598 60.473 60.393 60.273 60.15 60.013 59.905 59.778 59.678 59.563 59.42 59.288 59.123 58.963 58.815 58.705 58.593 58.498 58.395 58.243 58.085 57.963 57.82
33.007 38.86 36.447 30.292 30.84 33.182 31.155 31.25 32.38 30.785 30.8 30.767 30.935 31.222 31.392 31.83 43.455 35.522 36.477 37.517 34.092 32.107 32.255 32.3 32.415 32.452 32.837 32.815 33.167 39.465 39.962 42.325 35.747 33.325 33.58 34.025 33.512 33.552 33.605 33.845 34.282 34.23 34.515 34.817 35.06 34.907 35.272 35.607 36.117 36.325 36.532 36.502 41.837 37.932 39.522 37.537 37.71 38.31 40.617 38.227 42.257 38.412 38.795 39.042 41.307 42.775 49.272 50.18 47.395 43.827 49.727 50.552 41.757 43.152 42.182 42.265 42.562 42.907 43.76 43.467 44.182 44.987 44.3 45.407 45.202 45.92 48.552 48.842 46.955 46.182 46.395 46.552 46.765 46.955 47.12 47.35 47.65 47.915 48.177 48.477 48.77 49.112 49.422 49.71 50.025 50.297 50.612 50.88 51.19 51.452 51.745 51.965 52.205 52.412 52.66 52.885 53.1 53.302 53.52 53.705 53.882 54.09 54.252 54.445 54.638 54.765 54.935 55.12 55.28 55.418 55.59 55.725 55.873 56.013 56.093 56.203 56.303 56.43 56.535 56.675 56.785 56.883 56.995 57.083 57.198 57.295 57.413 57.615 57.73 57.757 57.8 57.808 57.823 58.278 58.508 59.312 58.455 58.395 58.355 58.373 58.463 58.515 58.528 58.57 58.58 58.613 58.57 58.608 58.613 58.59 58.598 58.595 58.583 58.55 58.523 58.48 58.398 58.35 58.265 58.203 58.098 58 57.875 57.73 57.6 57.463 57.288 57.15 56.96 56.77 56.593 56.408 56.248 56.07 55.868 55.733 55.51 55.355 55.175 55.093 54.95 54.823 54.725 54.62 54.483 54.335 54.295 54.28 54.305 57.175 55.515 53.67 53.085 53.923 54.143 53.953 53.988 54.143 54.29 54.383 54.495 54.633 54.82 54.98 55.128 55.34 55.553 55.653 55.805 55.975 56.205 56.425 56.625 56.838 57.09 57.325 57.573 57.765 57.97 58.155 58.338 58.578 58.798 58.968 59.188 59.415 59.653 59.82 60.018 60.243 60.443 60.618 60.733 60.873 60.995 61.098 61.215 61.335 61.463 61.558 61.695 61.833 61.885 61.97 62.053 62.135 62.213 62.293 62.31 62.333 62.383 62.418 62.443 62.493 62.53 62.54 62.555 62.603 62.638 62.698 62.71 62.75 62.763 62.798 62.83 62.863 62.898 62.943 62.973 63.008 63.015 63.073 63.088 63.11 63.1 63.13 63.085 63.03 63.063 63.483 64.165 64.918 64.57 64.545 64.435 64.488 64.698 64.41 64.53 65.375 65.618 65.243 64.843 64.885 64.873 64.75 64.713 64.918 65.043 65.313 65.093 65.033 66.008 66.143 65.25 65.368 65.408 65.215 65.308 65.328 65.443 65.445 65.448 65.465 65.485 65.53 65.59 65.668 65.72 65.758 65.805 65.823 65.818 65.84 65.868 65.85 65.845 65.903 65.945 66.69 66.753 67.16 66.703 66.415 67.648 67.855 68.543 68.385 68.193 68.508 68.418 68.053 67.963 67.383 67.61 68.055 67.948 67.908 66.145 66.218 67.683 65.588 64.61 64.698 64.68 64.823 65.19 64.563 64.983 67.135 67.175 67.03 65.863 65.748 64.843 64.72 66.63 67.553 67.605 67.665 67.73 67.775 67.865 67.91 67.963 68.05 68.158 67.928 64.77 63.17 62.933 62.763 62.65 62.61 62.465 62.653 62.503 62.133 62.135 61.878 61.743 61.653 61.518 61.428 61.323 61.2 61.11 60.94 60.84 60.693 60.535 60.438 60.358 60.26 60.13 59.988 59.873 59.75 59.645 59.518 59.415 59.278 59.12 58.973 58.845 58.72 58.63 58.488 58.408 58.293 58.113 57.938 57.778
29.742 41.437 37.08 30.357 30.377 31.015 31.042 30.922 30.977 30.915 30.835 30.805 30.937 31.057 31.372 32.002 38.872 40.492 41.952 41.027 38.807 32.205 32.19 32.27 32.307 32.52 32.647 32.677 34.417 41.162 42.182 40.19 36.42 33.767 33.292 33.66 33.847 35.11 33.74 33.812 34.125 34.26 34.5 34.662 35.45 39.47 37.837 35.522 35.932 36.195 36.367 36.455 41.99 44.277 55.612 38.78 37.622 37.79 38.117 39.742 38.31 38.53 38.815 39.022 39.447 40.865 51.845 45.88 42.877 41.66 46.875 44.682 43.602 47.207 42.162 42.332 42.642 43.055 43.27 43.417 44.177 43.892 44.185 44.502 45.305 45.415 45.775 46.47 48.05 46.172 46.355 46.542 46.76 46.937 47.132 47.372 47.632 47.872 48.192 48.507 48.802 49.095 49.392 49.712 50.02 50.307 50.62 50.905 51.167 51.462 51.702 51.97 52.187 52.42 52.675 52.865 53.077 53.285 53.497 53.68 53.857 54.035 54.215 54.388 54.6 54.71 54.9 55.05 55.238 55.4 55.533 55.688 55.795 55.925 56.04 56.153 56.273 56.39 56.5 56.628 56.733 56.85 56.953 57.038 57.148 57.238 57.355 57.57 57.67 57.68 57.723 57.75 57.76 58.055 58.633 59.02 58.383 58.328 58.215 58.258 58.385 58.438 58.445 58.45 58.468 58.483 58.493 58.493 58.498 58.493 58.485 58.48 58.463 58.453 58.413 58.375 58.278 58.235 58.16 58.068 57.96 57.858 57.73 57.593 57.48 57.315 57.15 56.985 56.81 56.598 56.428 56.228 56.073 55.895 55.7 55.53 55.363 55.2 55.033 54.905 54.768 54.643 54.58 54.438 54.325 54.193 54.133 54.145 54.183 57.753 54.195 53.908 53.663 53.86 54.17 53.72 53.825 53.955 54.103 54.193 54.318 54.483 54.658 54.828 54.978 55.178 55.38 55.48 55.638 55.858 56.033 56.243 56.473 56.675 56.898 57.135 57.39 57.625 57.818 57.985 58.14 58.32 58.555 58.75 58.963 59.22 59.453 59.633 59.833 60.063 60.265 60.413 60.55 60.698 60.803 60.93 61.058 61.185 61.325 61.44 61.545 61.668 61.748 61.81 61.943 62.02 62.063 62.138 62.17 62.215 62.253 62.278 62.34 62.348 62.368 62.413 62.425 62.465 62.53 62.573 62.59 62.605 62.625 62.635 62.678 62.703 62.733 62.77 62.8 62.825 62.875 62.908 62.913 62.935 62.94 62.965 62.915 62.835 62.935 63.925 64.448 64.895 64.653 64.463 64.068 63.958 64.398 64.278 64.283 65.235 65.635 65.263 64.873 64.848 64.813 64.84 64.915 65.243 66.008 66.74 66.208 66.97 66.543 70.265 69.515 70.175 69.503 68.498 68.658 68.898 67.398 66.458 67.775 65.438 65.438 65.49 65.495 65.633 65.688 66.19 66.203 65.933 65.938 66.885 67.825 65.82 65.735 65.653 66.12 66.74 68.285 69.96 69.008 66.685 66.34 68.098 68.77 68.55 68.503 68.398 68.335 68.403 68.493 68.33 68.56 68.353 68.368 67.625 65.62 65.843 66.53 64.915 64.618 64.603 65.45 65.52 64.535 64.413 64.403 65.658 66.628 67.098 67.235 67.155 66.813 66.363 65.26 66.573 67.378 67.478 67.555 67.578 67.65 67.715 67.773 67.87 67.925 67.823 65.168 63.63 62.91 62.803 62.638 62.548 62.455 62.323 62.193 62.2 62.163 61.843 61.723 61.623 61.508 61.365 61.273 61.153 61.028 60.918 60.808 60.668 60.555 60.443 60.3 60.173 60.075 59.938 59.845 59.738 59.648 59.495 59.36 59.243 59.103 58.978 58.848 58.713 58.585 58.468 58.373 58.278 58.118 57.928 57.775
29.43 35.41 31.852 29.905 30.24 30.932 30.5 30.725 30.937 30.875 30.84 30.955 31.075 31.047 31.195 32.365 38.427 40.667 33.597 42.992 35.135 32.19 32.177 32.292 32.262 32.697 32.815 32.645 35.17 40.137 42.467 38.822 38.007 33.075 33.287 33.412 33.615 33.687 33.715 33.932 34.355 34.7 34.502 36.027 42.255 40.502 37.98 35.41 36.005 36.145 36.507 37.145 42.015 38.482 45.17 43.21 37.655 38.07 38.06 38.115 39.692 39.065 38.85 39.775 39.43 40.077 46.985 47.18 41.092 41.25 44.657 43.25 43.33 47.975 43.697 42.442 42.835 43.61 43.777 44.307 44.965 44.512 44.32 44.63 45.035 47.69 45.992 47.065 46.577 46.19 46.365 46.537 46.75 46.922 47.097 47.347 47.645 47.917 48.23 48.497 48.785 49.107 49.41 49.725 50.04 50.315 50.607 50.902 51.202 51.45 51.71 51.97 52.21 52.417 52.665 52.895 53.11 53.285 53.452 53.637 53.847 54.045 54.202 54.375 54.55 54.665 54.863 55.028 55.185 55.353 55.515 55.645 55.8 55.905 56.025 56.148 56.243 56.38 56.465 56.575 56.695 56.79 56.908 56.973 57.11 57.202 57.325 57.518 57.613 57.6 57.645 57.67 57.678 58.263 58.505 58.33 58.308 58.203 58.138 58.198 58.308 58.355 58.365 58.363 58.395 58.4 58.413 58.415 58.393 58.395 58.383 58.353 58.35 58.348 58.315 58.235 58.163 58.118 58.058 57.923 57.838 57.715 57.605 57.465 57.335 57.195 56.99 56.825 56.628 56.468 56.26 56.063 55.875 55.715 55.525 55.355 55.17 55.045 54.903 54.768 54.63 54.505 54.418 54.31 54.185 54.048 54.003 54.01 54.018 54.825 53.125 53.28 53.503 53.665 53.87 53.643 53.663 53.813 53.915 54.035 54.178 54.34 54.518 54.72 54.865 55.04 55.19 55.315 55.51 55.703 55.905 56.103 56.3 56.538 56.765 56.978 57.218 57.44 57.64 57.82 57.973 58.148 58.343 58.535 58.77 58.99 59.23 59.43 59.625 59.878 60.058 60.22 60.37 60.493 60.628 60.755 60.903 61.058 61.16 61.27 61.42 61.548 61.643 61.73 61.82 61.88 61.94 62.015 62.06 62.08 62.083 62.16 62.193 62.23 62.26 62.285 62.283 62.333 62.39 62.425 62.45 62.463 62.49 62.5 62.52 62.573 62.598 62.6 62.658 62.673 62.703 62.748 62.768 62.76 62.77 62.753 62.69 62.673 62.83 63.8 64.49 64.863 65.733 64.635 63.465 63.675 63.755 63.74 63.79 64.178 64.733 64.605 64.235 64.193 64.183 64.278 64.485 65.32 66.838 69.67 69.06 67.463 67.75 72.263 71.078 70.845 70.633 71.205 71.255 70.153 70.133 70.523 71.468 66.603 66.388 67.215 66.465 67.715 67.353 68.623 67.898 69.383 70.5 71.145 70.333 69.775 70.633 68.268 69.413 68.863 70.858 71.51 70.885 69.05 67.973 70.99 71.573 70.935 68.33 68.833 70.633 70.003 68.81 71.165 71.588 69.24 66.455 66.053 65.518 66.28 66.78 65.21 64.63 65.793 67.345 64.738 64.548 64.45 64.373 64.35 64.473 65.233 66.703 67.113 67.155 66.183 66.038 66.293 66.148 66.16 66.45 66.848 67.388 67.57 67.618 67.69 67.733 66.553 65.448 63.528 62.868 62.738 62.64 62.535 62.48 62.315 62.16 62.165 61.953 61.803 61.675 61.573 61.483 61.34 61.208 61.073 60.98 60.868 60.735 60.615 60.515 60.375 60.23 60.145 60.053 59.928 59.795 59.718 59.608 59.468 59.323 59.18 59.053 58.955 58.813 58.673 58.55 58.45 58.345 58.27 58.09 57.898 57.76
29.422 29.547 29.592 29.79 30.222 30.82 30.425 30.88 30.815 30.615 30.9 31.227 31.105 31.162 33.485 36.645 38.08 33.942 32.312 34.18 32.162 32.24 32.225 32.255 32.415 36.115 38.585 37.975 32.745 36.112 38.73 37.925 37.707 34.3 33.43 33.31 33.81 33.532 33.795 34.032 34.307 34.367 34.462 35.217 37.95 40.165 35.225 35.652 36.442 36.172 36.952 48.51 40.55 37.507 38.262 37.417 37.79 37.87 38.29 38.172 38.292 38.427 38.64 38.997 39.99 39.982 41.295 44.337 45.32 42.24 45.695 43.987 41.902 51.227 49.36 42.86 42.805 43.077 43.312 43.562 44.312 44.53 44.455 44.612 44.852 45.235 46.295 45.965 46.027 46.19 46.385 46.515 46.727 46.897 47.065 47.34 47.637 47.897 48.182 48.472 48.777 49.105 49.402 49.68 49.99 50.307 50.612 50.895 51.212 51.5 51.76 51.962 52.202 52.427 52.647 52.872 53.077 53.312 53.462 53.64 53.825 53.997 54.162 54.34 54.5 54.675 54.833 55.003 55.16 55.335 55.488 55.628 55.75 55.883 55.998 56.115 56.243 56.355 56.445 56.55 56.643 56.753 56.875 56.965 57.055 57.153 57.25 57.478 57.538 57.543 57.6 57.58 57.625 59.288 58.683 58.178 58.18 58.175 58.033 58.145 58.238 58.268 58.27 58.258 58.29 58.303 58.315 58.283 58.28 58.275 58.265 58.255 58.26 58.215 58.185 58.123 58.053 58.025 57.93 57.823 57.723 57.6 57.45 57.335 57.18 57.01 56.818 56.643 56.458 56.303 56.085 55.905 55.7 55.54 55.375 55.185 55.015 54.888 54.74 54.62 54.503 54.385 54.255 54.163 54.068 53.933 53.915 53.883 53.83 53.573 52.953 53 53.16 53.45 53.7 53.54 53.538 53.65 53.755 53.89 54.04 54.195 54.345 54.505 54.7 54.843 55.025 55.183 55.365 55.625 55.783 55.998 56.195 56.418 56.608 56.823 57.053 57.268 57.488 57.66 57.855 58.028 58.19 58.365 58.548 58.755 59.003 59.24 59.438 59.648 59.838 60.04 60.238 60.343 60.475 60.613 60.793 60.94 61.045 61.173 61.298 61.428 61.513 61.603 61.685 61.78 61.823 61.898 61.953 61.955 61.973 62.023 62.063 62.1 62.143 62.133 62.175 62.22 62.25 62.265 62.3 62.308 62.36 62.343 62.373 62.425 62.423 62.443 62.48 62.505 62.538 62.565 62.595 62.585 62.6 62.56 62.49 62.508 63.02 64.493 65.373 65.618 66.798 65.765 64.365 63.573 63.48 63.73 63.655 63.665 63.718 63.693 63.883 63.95 63.858 63.993 64.245 65.773 66.623 70.728 68.795 64.938 66.403 69.523 71.205 70.13 69.575 70.083 69.008 69.035 69.318 71.425 71.508 68.938 65.875 68.023 66.47 65.93 68.405 70.04 67.465 69.575 69.975 70.313 70.998 71.04 72.085 70.183 71.993 71.748 71.288 71.323 70.853 71.108 72.363 71.79 72.713 72.62 70.623 73.49 72.503 71.765 70.613 72.338 72.453 69.808 66.675 66.075 66.065 69.098 68.56 65.758 64.563 69.035 67.745 64.718 64.57 64.37 64.34 64.268 64.203 64.198 64.28 65.128 65.883 65.4 67.245 67.523 67.058 65.293 64.025 64.028 64.533 65.728 66.875 67.45 67.483 66.263 64.623 62.91 62.818 62.698 62.58 62.478 62.428 62.253 62.105 62.128 61.935 61.738 61.615 61.535 61.435 61.27 61.14 61.09 60.94 60.838 60.718 60.603 60.45 60.32 60.218 60.128 60.015 59.873 59.788 59.665 59.563 59.413 59.298 59.155 59.045 58.91 58.755 58.59 58.483 58.378 58.295 58.203 58.048 57.84 57.71
29.497 29.522 32.875 32.365 30.03 30.41 30.2 42.825 33.612 33.277 32.345 31.042 31.097 32.425 36.732 31.877 31.68 31.907 31.922 32.067 32.245 32.232 32.262 32.222 32.975 44.487 42.147 33.86 32.542 34.675 34.952 32.86 33.612 33.365 33.337 33.28 39.245 33.907 34.062 34.202 34.152 34.27 34.432 34.987 35.982 35.172 35.337 36.247 36.065 36.245 45.892 50.967 43.837 40.307 37.197 37.35 37.592 37.812 38.737 38.482 38.247 38.7 38.915 39.145 40.502 40.037 40.412 49.835 46.54 47.03 42.192 42.892 41.882 46.722 48.617 46.2 42.865 43.112 43.317 43.592 44.94 46.485 44.925 45.155 44.927 45.527 46.195 45.86 45.97 46.215 46.337 46.495 46.687 46.862 47.087 47.32 47.612 47.887 48.172 48.475 48.78 49.07 49.375 49.69 49.995 50.305 50.63 50.922 51.237 51.48 51.74 51.96 52.21 52.45 52.65 52.897 53.087 53.302 53.49 53.612 53.832 53.977 54.155 54.348 54.5 54.632 54.818 54.98 55.123 55.31 55.483 55.628 55.728 55.848 55.965 56.095 56.208 56.323 56.428 56.507 56.61 56.725 56.808 56.92 57 57.115 57.213 57.418 57.473 57.485 57.528 57.545 57.558 59.273 58.22 58.163 58.11 58.048 57.95 58.04 58.12 58.145 58.148 58.188 58.208 58.218 58.198 58.19 58.175 58.15 58.17 58.155 58.15 58.143 58.108 58.028 57.935 57.913 57.82 57.685 57.575 57.445 57.328 57.188 57.038 56.885 56.663 56.48 56.285 56.098 55.903 55.688 55.515 55.38 55.21 55.055 54.875 54.73 54.61 54.473 54.348 54.23 54.148 54.063 53.948 53.81 53.77 53.72 53.63 53.335 52.83 52.788 53.933 53.445 53.693 53.458 53.475 53.555 53.66 53.775 53.93 54.023 54.198 54.355 54.525 54.718 54.953 55.103 55.263 55.475 55.645 55.87 56.073 56.29 56.505 56.685 56.903 57.09 57.31 57.515 57.715 57.895 58.055 58.235 58.413 58.585 58.808 59.033 59.225 59.45 59.643 59.848 60.038 60.163 60.343 60.503 60.685 60.82 60.973 61.08 61.203 61.31 61.445 61.49 61.563 61.628 61.69 61.773 61.815 61.813 61.865 61.94 61.945 61.99 62.008 62.013 62.055 62.098 62.145 62.138 62.163 62.163 62.18 62.183 62.238 62.245 62.265 62.295 62.313 62.33 62.37 62.375 62.405 62.403 62.393 62.33 62.293 62.425 63.135 64.498 65.43 65.205 65.345 64.578 63.958 63.66 63.35 63.263 63.308 63.443 63.593 63.533 63.55 63.68 63.635 63.718 63.8 65.728 70.1 70.188 69.433 67.873 65.368 65.69 68.253 65.695 67.648 66.91 64.978 65.038 66.28 68.178 67.923 65.963 64.758 65.38 65.14 64.898 66.838 65.69 65.535 65.89 66.4 67.955 66.678 65.565 69.518 69.605 68.628 70.1 69.73 70.06 70.02 70.028 71.5 71.453 71.678 71.818 70.41 71.198 71.138 70.39 70.298 72.255 71.965 69.113 66.085 65.228 65.248 68.115 67.805 64.478 64.483 69.415 69.09 65.073 64.493 64.335 64.275 64.21 64.145 64.088 64.073 64.045 64.083 63.97 65.02 66.45 66.32 63.988 63.603 63.548 63.608 63.703 63.905 64.723 64.665 63.688 63.793 62.823 62.748 62.64 62.528 62.398 62.375 62.15 62.008 61.955 61.808 61.668 61.573 61.47 61.353 61.203 61.083 61.013 60.898 60.775 60.678 60.523 60.383 60.253 60.155 60.093 59.99 59.883 59.748 59.613 59.523 59.385 59.238 59.13 59.01 58.863 58.71 58.578 58.463 58.373 58.28 58.13 57.983 57.773 57.623
29.66 29.847 38.55 40.46 31.75 31.435 42.147 44.035 42.352 41.907 38.335 34.357 33.107 31.222 31.282 32.025 31.537 31.547 31.62 32.047 32.312 32.215 32.242 31.982 33.577 38.165 50.122 37.062 34.255 32.78 32.817 32.852 32.932 33.202 33.222 33.295 34.037 33.885 33.955 34.07 34.08 34.255 34.445 34.72 38.145 35.797 39.18 35.45 37.7 36.24 42.18 47.057 46.95 49.615 37.045 37.222 40.27 37.82 38.017 38.245 38.172 38.617 38.982 39.277 39.797 43.215 41.325 44.757 45.177 41.17 41.482 41.76 41.97 42.177 44.835 47.602 43.12 44.56 43.637 43.897 44.837 44.677 45.567 46.13 45.042 46.267 46.24 45.752 45.98 46.185 46.32 46.497 46.672 46.85 47.055 47.315 47.617 47.91 48.157 48.477 48.74 49.057 49.395 49.69 50.007 50.327 50.645 50.932 51.217 51.505 51.742 52.005 52.242 52.467 52.647 52.885 53.082 53.3 53.47 53.63 53.817 53.997 54.165 54.333 54.483 54.62 54.793 54.963 55.123 55.28 55.433 55.583 55.708 55.823 55.965 56.088 56.18 56.288 56.43 56.528 56.588 56.675 56.778 56.885 56.98 57.075 57.185 57.37 57.393 57.405 57.448 57.415 57.493 58.175 58.46 59.153 58.033 57.953 57.885 57.972 58.045 58.068 58.085 58.1 58.108 58.12 58.103 58.098 58.088 58.068 58.098 58.08 58.058 58.02 57.983 57.935 57.878 57.795 57.718 57.62 57.463 57.32 57.158 57.038 56.91 56.72 56.488 56.3 56.138 55.948 55.778 55.56 55.395 55.24 55.08 54.915 54.723 54.583 54.47 54.335 54.238 54.143 54.055 53.97 53.855 53.718 53.61 53.503 53.515 53.283 52.713 53.463 53.163 53.815 53.61 53.348 53.458 53.47 53.55 53.663 53.805 53.953 54.068 54.22 56.535 57.52 54.935 55.078 55.22 55.398 55.54 55.75 55.988 56.168 56.38 56.603 56.753 56.948 57.178 57.415 57.605 57.79 57.983 58.17 58.345 58.538 58.7 58.9 59.088 59.29 59.528 59.745 59.905 60.033 60.205 60.405 60.56 60.713 60.888 61.008 61.128 61.253 61.365 61.383 61.468 61.52 61.6 61.67 61.688 61.68 61.76 61.82 61.84 61.855 61.878 61.908 61.975 61.968 61.985 62.03 62.025 62.03 62.038 62.05 62.083 62.068 62.093 62.128 62.153 62.208 62.233 62.188 62.223 62.223 62.203 62.133 62.098 62.383 63.348 64.188 64.158 65.288 64.76 63.555 63.683 63.598 63.09 63.035 63.05 63.163 63.16 63.24 63.245 63.315 63.48 63.835 65.02 66.835 70.963 71.373 71.543 70.775 65.94 64.313 64.458 63.993 64.25 64.168 64.223 64.305 64.375 64.553 64.575 64.58 64.62 64.533 64.605 64.653 64.688 64.705 64.733 64.738 64.758 64.838 64.813 64.885 65.563 65.838 65.533 65.848 65.795 66.12 66.578 66.155 67.873 68.373 67.938 68.263 66.18 66.31 67.165 67.338 68.593 69.968 69.295 66.27 64.943 65.08 65.068 64.833 64.485 64.453 64.505 66.673 65.773 65.07 64.45 64.325 64.253 64.838 64.63 64.055 63.998 63.96 63.928 63.98 64.623 64.073 64.09 63.668 63.505 63.738 64.205 64.17 63.42 63.108 63.033 62.898 62.77 62.725 62.668 62.578 62.453 62.333 62.235 62.063 61.96 61.91 61.75 61.628 61.54 61.428 61.333 61.198 61.065 60.968 60.85 60.733 60.603 60.488 60.328 60.22 60.125 60.023 59.913 59.825 59.698 59.603 59.468 59.345 59.195 59.07 58.953 58.813 58.663 58.523 58.445 58.36 58.268 58.133 57.965 57.748 57.578
29.635 36.337 42.645 41.762 41.685 39.797 46.11 49.587 46.915 47.89 41.565 39.367 39.062 35.74 31.29 31.457 31.527 31.695 31.642 31.887 32.257 32.227 32.2 31.765 31.372 31.497 36.32 43.025 43.432 39.437 33.032 32.982 32.95 33.097 33.057 33.265 33.415 33.65 33.757 33.88 34.065 34.342 34.562 34.795 37.41 40.087 37.162 36.612 40.722 35.927 36.817 47.292 52.115 42.69 38.867 37.475 39.937 38.955 39.605 38.44 38.722 38.91 39.075 39.42 39.925 47.53 42.795 42.14 42.352 41.207 42.03 41.702 41.932 42.23 42.635 43.942 48.102 43.477 43.402 43.762 44.012 44.422 45.59 44.635 48.257 46.67 45.805 46.065 45.97 46.142 46.307 46.492 46.677 46.852 47.087 47.347 47.607 47.887 48.172 48.492 48.747 49.065 49.387 49.687 49.992 50.307 50.605 50.937 51.21 51.525 51.795 52.025 52.257 52.46 52.675 52.892 53.067 53.29 53.487 53.66 53.852 54.002 54.167 54.313 54.46 54.65 54.78 54.93 55.09 55.28 55.405 55.553 55.67 55.803 55.92 56.023 56.135 56.25 56.383 56.458 56.55 56.623 56.74 56.83 56.925 56.995 57.115 57.275 57.325 57.358 57.388 57.343 57.415 58.165 58.233 59.373 57.948 57.85 57.805 57.89 57.963 57.97 57.98 57.993 58.03 58.048 58.038 58.008 57.998 57.993 58.008 57.96 57.948 57.893 57.87 57.828 57.77 57.693 57.583 57.475 57.34 57.178 57.053 56.908 56.753 56.583 56.385 56.16 55.988 55.78 55.573 55.408 55.23 55.11 54.953 54.763 54.618 54.473 54.34 54.238 54.173 54.075 53.99 53.918 53.8 53.615 53.513 53.323 53.405 53.093 52.368 52.305 52.535 53.943 53.433 53.755 53.413 53.388 53.448 53.585 54.6 54.518 53.878 56.04 61.59 55.455 55.388 55.495 55.778 55.795 55.945 56.158 56.368 56.41 56.675 56.965 57.163 57.463 57.503 57.893 58.018 58.403 58.488 58.75 59.063 59.32 59.35 59.368 59.575 59.733 59.748 59.803 59.953 60.145 60.205 60.353 60.503 60.648 60.808 60.923 61.065 61.195 61.255 61.308 61.355 61.43 61.495 61.543 61.465 61.493 61.633 61.708 61.705 61.723 61.74 61.738 61.813 61.835 61.868 61.87 61.85 61.88 61.883 61.888 61.928 61.93 61.945 61.953 61.97 61.99 62.023 62.015 62.018 62.063 62.023 61.96 61.95 62.765 63.553 62.763 63.615 65.14 64.31 64.25 63.773 62.953 62.69 62.748 62.823 62.898 62.92 62.96 62.985 63.013 63.11 64.358 64.665 64.373 67.92 68.625 66.97 68.193 66.88 64.62 63.883 63.888 64 64.128 64.085 64.178 64.273 64.283 64.293 64.413 64.453 64.418 64.49 64.543 64.593 64.605 64.615 64.685 64.658 64.673 64.693 64.785 64.885 64.978 64.958 64.905 64.918 64.978 64.923 64.908 65.035 65.025 64.865 64.883 64.915 64.983 64.915 64.983 65.538 65.998 65.643 64.93 64.92 65.05 66.558 66.515 64.613 64.4 64.478 65.208 64.823 64.545 64.48 64.305 64.17 64.593 65.153 63.988 63.938 63.858 63.83 63.878 64.155 63.748 63.718 63.598 63.485 63.488 63.685 63.763 63.268 63.023 63.438 63.033 62.763 62.685 62.665 62.465 62.378 62.288 62.143 62.018 61.878 61.833 61.69 61.6 61.503 61.405 61.278 61.118 61.028 60.925 60.778 60.658 60.545 60.435 60.288 60.208 60.095 59.993 59.858 59.773 59.63 59.535 59.408 59.27 59.148 59.04 58.905 58.77 58.635 58.5 58.388 58.32 58.243 58.088 57.88 57.673 57.518
41.047 38.702 39.345 43.372 46.487 47.202 43.627 47.447 50.267 49.745 49.367 47.582 48.472 42.87 36.905 33.28 31.747 35.535 31.627 31.817 32.097 32.125 32.16 32.115 31.907 32.227 36.365 41.635 42.54 34.507 35.015 32.97 32.952 32.932 33.47 33.292 33.402 33.615 34.222 34.937 35.392 34.482 34.527 34.675 34.922 35.047 35.235 39.862 41.58 37.437 36.202 36.652 38.892 38.07 39.162 38.277 40.225 45.757 41.687 39.407 46.19 38.837 39.49 46.292 43.155 45.53 43.315 41.445 41.08 41.247 45.155 41.717 41.992 42.197 42.375 46.437 44.37 43.275 43.537 44.067 43.88 44.85 44.762 45.65 46.52 46.3 48.96 45.967 45.927 46.117 46.295 46.47 46.655 46.822 47.02 47.302 47.577 47.867 48.167 48.447 48.73 49.047 49.347 49.665 49.967 50.295 50.605 50.902 51.215 51.5 51.77 52.027 52.265 52.465 52.705 52.89 53.072 53.272 53.477 53.65 53.81 53.975 54.13 54.29 54.468 54.625 54.75 54.93 55.05 55.23 55.373 55.513 55.632 55.763 55.868 55.968 56.093 56.208 56.333 56.425 56.507 56.605 56.698 56.78 56.855 56.943 57.038 57.228 57.265 57.283 57.298 57.295 57.408 58.108 59.248 58.508 57.845 57.76 57.733 57.79 57.858 57.878 57.895 57.935 57.913 57.938 57.915 57.905 57.865 57.873 57.86 57.825 57.803 57.778 57.74 57.713 57.668 57.593 57.508 57.38 57.223 57.058 56.9 56.785 56.593 56.393 56.213 56.013 55.86 55.635 55.438 55.283 55.115 54.955 54.783 54.618 54.48 54.35 54.25 54.133 54.048 53.98 53.915 53.87 53.745 53.598 53.405 53.068 53.003 52.888 52.255 52.098 52.248 52.663 53.04 53.49 53.985 53.318 52.803 53.903 55.08 55.543 53.69 56.235 62.308 58.45 55.528 55.8 55.82 56.128 56.055 56.143 56.553 56.718 57.315 57.5 57.743 57.958 58.078 58.338 58.71 58.88 59.235 59.313 59.295 59.723 59.815 60.09 60.013 60.22 60.013 60.508 60.62 60.985 61.215 61.098 61.038 60.96 60.885 60.933 60.988 61.085 61.185 61.27 61.31 61.353 61.408 61.373 61.218 61.33 61.538 61.6 61.625 61.62 61.6 61.63 61.68 61.715 61.715 61.71 61.703 61.74 61.748 61.765 61.77 61.763 61.765 61.745 61.785 61.823 61.843 61.82 61.838 61.863 61.823 61.768 61.813 63.125 63.808 62.46 64.603 65.423 63.695 63.9 63.665 62.605 62.41 62.423 62.57 62.62 62.658 62.688 62.745 62.815 63.095 63.108 63.71 64.92 64.915 65.85 63.885 64.083 64.16 63.7 63.618 63.65 63.813 63.798 63.895 63.93 64.003 64.115 64.143 64.205 64.248 64.305 64.323 64.38 64.43 64.44 64.443 64.483 64.533 64.538 64.62 64.948 64.768 64.795 64.743 64.925 64.905 64.908 64.813 64.845 64.883 64.89 64.8 64.85 64.928 64.91 64.84 64.958 64.91 64.918 64.88 64.873 64.87 65.14 68.005 66.365 64.41 64.383 64.578 64.73 64.568 64.535 64.395 64.28 64.148 63.988 64.035 63.895 63.84 63.785 63.765 63.828 64.485 63.933 63.648 63.53 63.393 63.305 63.223 63.17 63.033 63 63.345 62.968 62.828 62.678 62.525 62.438 62.393 62.26 62.125 62.003 62.09 62.443 61.983 61.598 61.465 61.33 61.208 61.073 61.02 60.885 60.72 60.62 60.5 60.365 60.273 60.153 60.065 59.953 59.845 59.703 59.595 59.495 59.36 59.213 59.088 58.963 58.85 58.725 58.553 58.433 58.315 58.213 58.148 58.04 57.828 57.635 57.478
