ncols 410
nrows 30
xllcorner    457094
yllcorner    87736
cellsize     2
NODATA_value -9999
84.305 84.492 84.76 84.985 85.852 85.017 85.12 85.19 84.942 84.422 84.162 83.792 83.422 83.187 83.365 84.245 84.682 85.325 85.9 86.407 86.517 86.657 86.97 87.257 87.352 87.46 87.587 87.692 87.847 87.975 88.077 88.137 88.347 88.477 88.615 88.74 88.822 88.917 88.957 89.012 89.005 89.037 89.07 89.107 89.22 89.352 89.592 89.89 90.195 90.485 90.752 91.005 91.202 91.352 91.532 91.752 91.937 92.115 92.51 93.022 92.375 92.215 92.155 92.097 92.35 93.865 95.665 97.735 94.642 93.6 93.775 93.857 94.085 94.272 94.382 94.512 94.682 94.817 94.97 95.165 95.407 95.647 95.887 96.1 96.26 96.347 96.472 96.6 96.742 96.915 97.007 97.115 97.255 97.365 97.527 97.675 97.827 97.975 98.145 98.315 98.445 98.61 98.757 98.867 99.012 99.147 99.28 99.432 99.582 99.727 99.895 100.067 100.215 100.335 100.442 100.595 100.737 100.747 100.947 101.077 101.235 101.372 101.507 101.62 101.745 101.875 101.99 102.112 102.207 102.32 102.375 102.417 102.49 102.575 102.67 102.777 102.86 102.965 103.095 103.17 103.28 103.382 103.502 103.602 103.71 103.802 103.897 104.002 104.105 104.23 104.335 104.43 104.532 104.655 104.757 104.897 105.027 105.125 105.267 105.392 105.52 105.632 105.745 105.837 105.935 106.005 106.097 106.192 106.27 106.345 106.415 106.502 106.617 106.72 106.802 106.91 107.06 107.19 107.367 107.552 107.71 107.865 107.972 108.055 108.157 108.27 108.472 109.587 109.02 108.685 109.152 108.932 109.717 109.865 109.45 109.09 109.127 109.2 109.302 109.377 109.447 109.555 109.645 109.727 109.815 109.862 109.962 110.02 110.087 110.15 110.242 110.292 110.367 110.437 110.542 110.595 110.697 110.79 110.907 111.03 111.162 111.3 111.457 111.585 111.747 111.905 111.997 112.105 112.202 112.285 112.38 112.43 112.48 112.52 112.57 112.587 112.622 112.652 112.662 112.705 112.7 112.692 112.705 112.737 112.72 112.732 112.74 112.775 112.787 112.812 112.822 112.847 112.87 112.85 112.862 112.842 112.867 112.89 112.885 112.925 112.965 113.005 113.06 113.07 113.115 113.152 113.155 113.165 113.152 113.15 113.145 113.165 113.162 113.175 113.207 113.217 113.23 113.255 113.265 113.282 113.297 113.285 113.3 113.282 113.307 113.292 113.31 113.287 113.267 113.285 113.262 113.192 113.195 113.105 113.065 113.045 113.012 112.98 112.945 112.937 112.922 112.89 112.86 112.822 112.747 112.687 112.61 112.512 112.442 112.352 112.25 112.162 112.092 112.07 111.985 111.937 111.862 111.852 111.772 111.715 111.682 111.62 111.545 111.497 111.452 111.415 111.395 111.367 111.32 111.247 111.115 111 110.93 110.88 110.802 110.675 110.617 110.56 110.507 110.44 110.38 110.337 110.247 110.2 110.155 110.065 109.985 109.917 109.85 109.752 109.732 109.637 109.537 109.482 109.432 109.365 109.282 109.212 109.14 109.082 108.985 108.905 108.832 108.747 108.66 108.62 108.51 108.437 108.357 108.235 108.152 108.062 107.982 107.877 107.787 107.692 107.59 107.492 107.372 107.252 107.16 107.05 106.902 106.805 106.692 106.57 106.442 106.33 106.255 106.1 105.935 105.82 105.75 105.63 105.555 105.515 105.695 105.127 104.975 104.907 104.812 104.67 104.615 104.43 104.835 104.37 103.91 103.785 103.675 103.647
84.605 84.825 85.04 85.302 85.477 85.425 85.495 85.617 85.735 85.707 85.535 85.152 84.875 84.805 85.112 85.552 85.892 86.4 86.777 86.997 87.177 87.337 87.44 87.537 87.627 87.725 87.862 88.002 88.115 88.25 88.395 88.535 88.702 88.8 88.897 88.995 89.092 89.155 89.2 89.247 89.29 89.295 89.35 89.41 89.552 89.747 89.992 90.307 90.602 90.88 91.13 91.362 91.545 91.715 91.917 92.11 92.287 92.832 93.24 92.52 92.417 92.395 92.272 92.812 93.182 93.262 95.34 95.145 93.705 93.83 93.977 94.127 94.282 94.427 94.572 94.745 94.935 95.132 95.37 95.62 95.857 96.115 96.36 96.54 96.7 96.872 97.06 97.23 97.39 97.532 97.537 97.612 97.697 97.82 97.942 98.09 98.237 98.395 98.535 98.687 98.83 98.98 99.11 99.25 99.39 99.545 99.677 99.83 100.002 100.152 100.312 100.455 100.59 100.715 100.847 100.982 101.172 101.24 101.385 101.527 101.677 101.792 101.915 102.035 102.165 102.292 102.385 102.49 102.577 102.665 102.715 102.777 102.865 102.957 103.05 103.157 103.255 103.387 103.46 103.567 103.647 103.757 103.857 103.972 104.055 104.155 104.28 104.377 104.475 104.612 104.747 104.88 104.995 105.115 105.272 105.39 105.495 105.605 105.725 105.88 105.977 106.087 106.225 106.327 106.442 106.557 106.607 106.672 106.947 107.842 107.985 107.187 107.155 107.382 108.725 108.672 107.625 107.782 107.947 108.077 108.467 109.81 109.35 108.455 108.512 108.567 109.215 111.815 110.357 109.282 111.41 110.59 110.055 109.86 109.867 109.515 109.475 109.552 109.645 109.727 109.812 109.91 110.017 110.102 110.18 110.22 110.295 110.362 110.447 110.5 110.59 110.637 110.732 110.815 110.89 110.975 111.055 111.185 111.272 111.382 111.495 111.67 111.755 111.892 112.037 112.16 112.28 112.412 112.472 112.55 112.655 112.715 112.777 112.832 112.88 112.92 112.972 113.015 113.03 113.065 113.067 113.062 113.09 113.142 113.142 113.155 113.195 113.235 113.265 113.292 113.302 113.34 113.36 113.34 113.37 113.332 113.342 113.362 113.355 113.382 113.41 113.42 113.43 113.412 113.422 113.427 113.41 113.422 113.4 113.395 113.382 113.39 113.42 113.44 113.437 113.417 113.47 113.472 113.495 113.515 113.515 113.535 113.555 113.557 113.56 113.547 113.555 113.567 113.545 113.547 113.537 113.487 113.475 113.435 113.395 113.355 113.335 113.305 113.272 113.247 113.227 113.192 113.172 113.145 113.085 113.03 112.952 112.847 112.785 112.692 112.592 112.522 112.465 112.42 112.362 112.295 112.225 112.215 112.17 112.112 112.057 112.01 111.917 111.867 111.815 111.755 111.722 111.7 111.647 111.537 111.382 111.26 111.197 111.115 111.055 110.942 110.88 110.802 110.772 110.725 110.642 110.6 110.522 110.442 110.385 110.305 110.237 110.142 110.062 109.987 109.925 109.837 109.79 109.715 109.647 109.575 109.495 109.445 109.352 109.262 109.207 109.122 109.06 108.977 108.89 108.822 108.74 108.652 108.56 108.472 108.345 108.247 108.17 108.057 107.962 107.88 107.762 107.642 107.737 107.422 107.305 107.167 107.135 107.037 106.812 107.47 106.72 106.532 106.385 106.207 106.08 105.96 105.852 105.745 105.68 105.677 105.865 105.632 106.002 105.342 105.142 104.945 105.425 105.81 104.512 104.275 104.09 103.952 104.07 103.997
84.922 85.137 85.332 85.53 85.827 85.852 85.857 85.965 86.057 86.202 86.255 86.16 85.997 86.052 86.28 86.567 86.907 87.125 87.21 87.28 87.417 87.542 87.642 87.775 87.89 88.015 88.137 88.29 88.387 88.547 88.692 88.837 88.972 89.08 89.182 89.28 89.35 89.437 89.497 89.555 89.577 89.59 89.642 89.755 89.902 90.152 90.407 90.712 90.985 91.262 91.49 91.67 91.872 92.055 92.267 92.44 92.815 93.437 92.757 92.572 92.575 92.53 94.387 95.432 93.887 93.885 93.935 93.887 94.017 94.14 94.237 94.405 94.575 94.73 94.907 95.115 95.34 95.565 95.807 96.035 96.317 96.522 96.772 96.955 97.155 97.37 97.562 97.677 97.9 98.057 98.085 98.137 98.232 98.31 98.407 98.56 98.66 98.79 98.932 99.075 99.217 99.345 99.475 99.632 99.795 99.947 100.107 100.272 100.41 100.557 100.69 100.855 101.007 101.122 101.262 101.385 101.537 101.695 101.85 102.005 102.132 102.25 102.347 102.472 102.582 102.672 102.752 102.852 102.912 103 103.087 103.16 103.255 103.337 103.452 103.555 103.67 103.752 103.83 103.927 104.02 104.135 104.237 104.34 104.457 104.552 104.665 104.78 104.9 105.027 105.157 105.315 105.42 105.537 105.665 105.795 105.92 106.047 106.195 106.302 106.442 106.562 106.677 106.812 106.922 107.012 107.075 107.157 107.43 109.092 108.707 107.732 109.785 110.362 111.68 110.475 108.255 108.352 108.53 108.93 110.635 111.85 110.79 108.935 108.9 108.922 108.977 110.827 110.902 110.33 112.147 110.282 109.852 109.97 110.237 110.462 109.97 109.902 109.987 110.055 110.157 110.252 110.97 110.637 110.56 110.602 110.67 110.727 110.785 110.875 110.952 111.03 111.102 111.207 111.29 111.34 111.45 111.562 111.645 111.757 111.882 112.012 112.142 112.26 112.362 112.512 112.607 112.685 112.782 112.85 112.91 112.962 113.002 113.077 113.147 113.177 113.25 113.295 113.335 113.395 113.412 113.42 113.427 113.517 113.527 113.557 113.587 113.635 113.682 113.705 113.732 113.73 113.777 113.775 113.777 113.752 113.762 113.77 113.767 113.757 113.77 113.757 113.755 113.725 113.755 113.73 113.695 113.672 113.68 113.67 113.662 113.662 113.677 113.69 113.725 113.707 113.735 113.755 113.765 113.78 113.785 113.782 113.787 113.782 113.78 113.79 113.782 113.792 113.77 113.767 113.73 113.707 113.662 113.665 113.625 113.597 113.592 113.575 113.55 113.525 113.525 113.477 113.46 113.437 113.385 113.297 113.25 113.165 113.09 112.997 112.92 112.855 112.817 112.79 112.745 112.68 112.625 112.577 112.547 112.475 112.425 112.382 112.302 112.202 112.155 112.072 112.032 112.002 111.94 111.832 111.652 111.525 111.432 111.337 111.317 111.232 111.16 111.13 111.065 110.992 110.925 110.865 110.785 110.695 110.635 110.552 110.485 110.392 110.295 110.207 110.137 110.075 110.047 109.975 109.87 109.785 109.71 109.637 109.542 109.467 109.385 109.315 109.23 109.167 109.072 108.992 108.895 108.83 108.737 108.645 108.497 108.392 108.27 108.152 108.072 108 107.907 108.41 108.037 107.522 107.462 107.277 107.15 107.03 107.382 107.017 106.672 106.57 106.567 106.387 106.275 106.177 106.1 106.007 105.95 105.9 105.855 105.737 105.587 105.487 105.352 105.565 107.027 105.705 105.032 105.135 104.217 104.112 104.03 104.387
85.235 85.415 85.635 85.822 86.132 86.197 86.2 86.252 86.367 86.51 86.595 86.717 86.792 86.915 87.055 87.192 87.292 87.385 87.49 87.587 87.69 87.802 87.922 88.042 88.2 88.307 88.457 88.577 88.707 88.86 88.997 89.115 89.262 89.38 89.502 89.58 89.637 89.717 89.772 89.787 89.852 89.877 89.94 90.065 90.267 90.53 90.835 91.095 91.357 91.615 91.83 92.037 92.227 92.43 92.592 92.895 93.295 92.91 92.81 92.735 93.675 94.765 95.617 97.287 94.85 94.21 94.115 94.222 94.322 94.477 94.632 94.757 94.915 95.1 95.325 95.542 95.762 95.942 96.192 96.442 96.695 96.897 97.18 97.377 97.575 97.752 97.93 98.02 98.222 98.457 98.462 98.595 98.71 98.792 98.897 99.02 99.11 99.225 99.345 99.497 99.637 99.795 99.922 100.09 100.222 100.385 100.53 100.675 100.835 100.977 101.142 101.265 101.4 101.545 101.697 101.832 102.005 102.15 102.302 102.407 102.535 102.645 102.742 102.85 102.942 103.042 103.125 103.22 103.307 103.37 103.45 103.525 103.607 103.707 103.825 103.927 104.025 104.095 104.207 104.31 104.432 104.537 104.642 104.737 104.845 104.95 105.082 105.2 105.315 105.432 105.552 105.677 105.827 105.952 106.055 106.21 106.335 106.457 106.587 106.71 106.812 106.927 107.057 107.202 107.31 107.422 107.535 107.63 107.752 107.935 108.015 108.477 109.402 109.792 111.047 109.095 108.872 108.992 109.115 109.55 110.387 110.337 109.865 109.367 109.335 109.285 109.31 109.405 109.51 109.625 110.892 110.055 109.952 110.455 111.397 112.022 111.29 110.545 110.405 110.44 110.51 110.647 112.417 113.182 110.872 110.92 110.972 111.077 111.142 111.242 111.307 111.39 111.447 111.552 111.62 111.692 111.805 111.922 112.027 112.112 112.265 112.372 112.497 112.587 112.705 112.812 112.93 112.995 113.1 113.137 113.202 113.247 113.317 113.355 113.427 113.495 113.527 113.562 113.595 113.625 113.685 113.697 113.732 113.775 113.802 113.84 113.882 113.947 113.977 114.022 114.037 114.052 114.067 114.07 114.092 114.05 114.055 114.06 114.05 114.067 114.03 114.05 114.032 114.01 114.005 113.997 113.992 113.992 113.98 113.967 113.955 113.985 113.992 114.017 113.995 113.995 114.015 114.035 114.03 114.027 114.02 114.04 114.035 114.027 114.042 114.022 114.007 114.002 113.98 113.987 113.942 113.922 113.867 113.882 113.845 113.805 113.805 113.79 113.777 113.765 113.755 113.75 113.722 113.705 113.65 113.595 113.53 113.47 113.422 113.345 113.292 113.237 113.197 113.135 113.097 113.062 113.022 112.957 112.925 112.857 112.792 112.72 112.66 112.602 112.512 112.452 112.415 112.342 112.267 112.135 111.995 111.835 111.747 111.652 111.572 111.53 111.48 111.45 111.372 111.335 111.242 111.135 111.062 110.98 110.9 110.802 110.707 110.64 110.535 110.445 110.282 110.14 110.115 110.107 110.06 109.99 109.9 109.84 109.737 109.657 109.555 109.48 109.39 109.362 109.247 109.13 109.062 108.952 108.887 108.837 109.157 108.475 108.352 108.207 108.142 108.175 108.077 107.905 107.782 107.655 107.592 107.56 107.415 107.4 107.145 107.102 106.962 106.882 107.312 106.695 106.49 106.4 106.282 106.212 106.117 106.312 105.995 105.935 105.782 106.755 106.335 105.305 105.155 104.947 104.852 104.64 104.36 104.247 104.162 104.002
85.51 85.7 85.89 86.085 86.335 86.562 86.575 86.572 86.65 86.775 86.89 87.01 87.145 87.257 87.332 87.445 87.56 87.655 87.735 87.845 87.975 88.107 88.27 88.39 88.52 88.625 88.755 88.862 89.022 89.167 89.292 89.435 89.555 89.665 89.765 89.852 89.925 89.995 90.057 90.087 90.135 90.177 90.247 90.397 90.645 90.91 91.2 91.492 91.727 91.965 92.2 92.395 92.612 92.777 93.002 93.41 93.132 93.01 92.972 92.9 93.19 97.1 94.965 97.535 94.342 94.352 94.42 94.552 94.647 94.81 94.952 95.152 95.342 95.522 95.75 95.912 96.115 96.342 96.592 96.815 97.065 97.29 97.54 97.767 97.937 98.095 98.257 98.412 98.56 98.612 98.85 99.012 99.145 99.28 99.367 99.495 99.617 99.707 99.837 100.005 100.137 100.257 100.397 100.51 100.672 100.815 100.997 101.12 101.252 101.397 101.522 101.677 101.84 102.012 102.167 102.31 102.455 102.552 102.662 102.802 102.897 103.002 103.112 103.232 103.322 103.412 103.52 103.6 103.65 103.745 103.835 103.945 104.017 104.117 104.22 104.332 104.425 104.512 104.612 104.732 104.86 104.94 105.03 105.175 105.27 105.372 105.49 105.592 105.69 105.81 105.955 106.1 106.225 106.32 106.46 106.552 106.667 106.787 106.917 107.012 107.137 107.252 107.407 107.557 107.692 107.82 107.932 108.037 108.172 108.337 108.51 108.73 109.86 109.64 110.062 109.31 109.46 109.6 109.715 109.92 111.972 112.482 110.297 109.875 109.832 110.377 110.635 109.722 109.802 109.9 110.64 110.092 110.185 110.68 111.747 112.167 111.907 111.645 110.985 110.835 110.887 110.955 111.4 111.135 111.37 111.307 111.35 111.437 111.487 111.57 111.637 111.717 111.792 111.875 111.97 112.067 112.172 112.275 112.4 112.51 112.637 112.767 112.857 112.95 113.042 113.155 113.242 113.312 113.385 113.42 113.487 113.517 113.552 113.605 113.672 113.725 113.755 113.797 113.837 113.88 113.917 113.942 113.982 114.02 114.057 114.085 114.14 114.192 114.222 114.255 114.295 114.302 114.332 114.34 114.352 114.35 114.347 114.347 114.347 114.337 114.322 114.3 114.28 114.275 114.287 114.267 114.25 114.245 114.247 114.232 114.245 114.242 114.265 114.275 114.297 114.305 114.31 114.312 114.31 114.307 114.305 114.295 114.29 114.305 114.282 114.275 114.255 114.23 114.23 114.202 114.175 114.172 114.13 114.102 114.097 114.037 114.055 114.035 114.017 114.02 114.012 113.992 113.98 113.942 113.902 113.847 113.797 113.772 113.697 113.645 113.612 113.565 113.505 113.482 113.462 113.412 113.36 113.317 113.28 113.242 113.195 113.112 113.055 112.987 112.892 112.837 112.782 112.695 112.59 112.447 112.27 112.387 112.027 111.935 111.84 111.747 111.702 111.637 111.597 111.542 111.455 111.37 111.295 111.225 111.15 110.997 110.912 110.802 110.682 110.635 110.515 111.067 110.382 110.192 110.187 110.127 110.04 109.98 109.877 109.78 109.677 109.577 109.525 109.48 109.332 109.297 109.4 109.172 109.012 110.08 109.007 108.98 109.062 108.477 108.402 108.365 108.272 108.177 108.13 107.865 107.762 108.082 107.63 107.972 107.532 107.38 107.202 107.735 108.177 106.977 106.705 106.58 106.532 106.425 106.365 106.28 106.185 106.077 105.987 105.842 105.815 105.472 105.3 105.125 104.97 104.74 104.54 104.412 104.277 104.107
85.78 85.972 86.147 86.337 86.53 86.752 86.817 86.837 86.947 87.052 87.157 87.27 87.362 87.497 87.595 87.705 87.802 87.93 88.035 88.15 88.277 88.425 88.555 88.66 88.795 88.917 89.055 89.142 89.307 89.487 89.602 89.745 89.852 89.962 90.067 90.12 90.205 90.267 90.312 90.367 90.425 90.475 90.585 90.787 91.035 91.312 91.595 91.87 92.135 92.335 92.52 92.737 92.93 93.142 93.74 93.362 93.147 93.142 93.097 93.565 95.87 96.395 97.86 96.365 94.605 94.687 94.8 94.875 95.025 95.207 95.395 95.562 95.755 95.922 96.105 96.297 96.505 96.747 96.94 97.22 97.43 97.672 97.917 98.082 98.252 98.417 98.585 98.76 98.917 98.972 99.105 99.372 99.545 99.69 99.852 100.005 100.132 100.265 100.367 100.507 100.647 100.78 100.907 101.037 101.165 101.287 101.407 101.515 101.645 101.8 101.942 102.115 102.32 102.447 102.575 102.697 102.825 102.912 103.022 103.145 103.272 103.38 103.492 103.605 103.705 103.79 103.872 103.957 104.05 104.14 104.23 104.322 104.437 104.555 104.635 104.737 104.83 104.93 105.047 105.117 105.21 105.29 105.425 105.555 105.637 105.752 105.865 105.987 106.102 106.222 106.345 106.447 106.577 106.667 106.777 106.905 107.03 107.16 107.292 107.41 107.53 107.687 107.795 107.927 108.045 108.162 108.322 108.46 108.615 108.81 108.995 109.155 109.27 109.505 109.712 109.88 110.002 110.175 110.247 110.415 111.82 111.325 110.56 110.35 110.197 110.9 110.89 111.267 113.475 111.507 110.715 111.425 113.145 111.705 111.775 111.615 111.857 111.845 111.385 111.205 111.26 111.307 111.325 111.722 112.305 111.69 111.747 111.815 111.882 111.987 112.072 112.142 112.192 112.315 112.397 112.49 112.59 112.68 112.78 112.865 112.975 113.072 113.19 113.282 113.347 113.44 113.52 113.557 113.635 113.655 113.695 113.722 113.767 113.802 113.845 113.877 113.927 113.962 114.005 114.052 114.072 114.135 114.165 114.212 114.285 114.307 114.36 114.39 114.442 114.465 114.502 114.535 114.56 114.575 114.592 114.58 114.575 114.605 114.567 114.577 114.55 114.55 114.55 114.54 114.52 114.522 114.5 114.485 114.482 114.457 114.455 114.465 114.497 114.497 114.502 114.52 114.525 114.515 114.527 114.512 114.5 114.502 114.495 114.507 114.502 114.485 114.472 114.452 114.447 114.41 114.402 114.375 114.342 114.332 114.337 114.312 114.295 114.287 114.255 114.267 114.23 114.235 114.232 114.212 114.17 114.112 114.062 114.025 113.952 113.91 113.872 113.835 113.82 113.842 113.762 113.722 113.707 113.665 113.615 113.597 113.545 113.477 113.435 113.377 113.282 113.19 113.152 113.065 112.94 112.78 112.542 113.975 115.362 113.432 112.665 112.155 112.11 112.09 111.722 111.69 111.772 112.177 111.767 111.465 111.387 111.275 111.15 111.045 110.957 110.87 110.7 110.767 110.512 110.352 110.325 110.267 110.17 110.067 110.042 109.932 109.795 109.732 109.74 109.717 109.602 109.637 110.475 110.58 109.54 109.197 110.02 109.237 108.832 108.812 108.627 108.52 108.44 108.312 108.277 108.032 108.517 108.657 107.81 107.717 107.567 107.752 107.467 108.035 107.09 107.052 106.937 106.885 106.772 106.662 106.577 106.48 106.375 106.25 106.115 105.975 105.82 105.627 105.437 105.277 105.107 104.932 104.702 104.522 104.405 104.172
86.02 86.23 86.395 86.592 86.757 86.942 87.085 87.142 87.172 87.295 87.397 87.48 87.6 87.715 87.815 87.957 88.065 88.18 88.302 88.422 88.577 88.71 88.797 88.942 89.07 89.192 89.285 89.452 89.627 89.775 89.922 90.017 90.14 90.255 90.337 90.415 90.492 90.555 90.602 90.67 90.72 90.802 90.925 91.16 91.42 91.717 92.002 92.257 92.497 92.697 92.897 93.09 93.282 93.777 93.54 93.377 93.325 93.26 93.57 95.74 96.947 98.752 98.062 95.112 94.882 94.975 95.1 95.25 95.412 95.617 95.775 95.935 96.115 96.275 96.48 96.69 96.925 97.14 97.377 97.61 97.842 98.055 98.165 98.39 98.6 98.73 98.915 99.062 99.215 99.38 99.562 99.715 99.9 100.06 100.267 100.422 100.575 100.737 100.877 101.027 101.152 101.26 101.367 101.465 101.567 101.677 101.795 101.907 102.08 102.24 102.41 102.592 102.717 102.847 102.967 103.05 103.155 103.23 103.37 103.502 103.647 103.772 103.872 103.992 104.09 104.172 104.287 104.35 104.445 104.54 104.65 104.745 104.845 104.947 105.025 105.142 105.222 105.3 105.412 105.482 105.595 105.702 105.81 105.937 106.042 106.165 106.272 106.375 106.495 106.577 106.682 106.797 106.9 107.035 107.17 107.34 107.455 107.595 107.757 107.875 108.02 108.18 108.262 108.357 108.5 108.635 108.807 108.952 109.08 109.205 109.355 109.505 110.295 109.972 110.27 110.382 110.5 110.64 110.692 110.82 110.882 110.912 110.952 110.907 110.615 110.707 112.092 111.607 113.25 115.057 111.035 110.965 114.295 112.057 111.115 111.367 111.86 112.002 111.707 111.932 111.752 111.732 112.55 113.23 112.46 112.05 112.137 112.215 112.317 112.405 112.492 112.557 112.652 112.755 112.857 112.937 113.035 113.12 113.227 113.31 113.397 113.472 113.55 113.615 113.677 113.737 113.775 113.79 113.827 113.867 113.897 113.935 113.962 113.992 114.05 114.095 114.112 114.155 114.197 114.237 114.297 114.345 114.35 114.4 114.48 114.502 114.555 114.61 114.655 114.66 114.707 114.765 114.792 114.787 114.81 114.795 114.797 114.782 114.797 114.797 114.812 114.79 114.772 114.772 114.755 114.747 114.735 114.717 114.705 114.722 114.73 114.707 114.742 114.732 114.76 114.74 114.75 114.74 114.74 114.745 114.742 114.715 114.712 114.722 114.712 114.717 114.695 114.68 114.662 114.632 114.63 114.605 114.55 114.535 114.542 114.527 114.507 114.505 114.492 114.485 114.455 114.48 114.44 114.415 114.38 114.332 114.275 114.267 114.202 114.172 114.14 114.115 114.125 114.11 114.072 114.027 114.002 113.975 113.94 113.917 113.887 113.807 113.745 113.675 113.55 113.43 113.33 113.255 113.095 112.962 112.872 114.502 116.385 114.442 112.795 112.395 113.107 113.555 112.117 112.27 111.925 112.167 111.967 111.692 111.592 111.7 111.605 111.282 111.147 111.07 111.185 110.832 110.617 110.507 110.51 110.467 110.45 110.34 110.26 110.215 110.247 110.042 109.99 110.02 109.907 110.277 110.832 109.975 110.07 109.42 109.447 109.352 109.437 110.58 110.325 108.932 109.482 108.52 108.43 108.25 108.185 108.112 107.982 107.902 107.78 107.612 107.5 107.407 107.305 107.24 107.14 107.097 106.99 106.875 106.765 106.66 106.53 106.382 106.257 106.12 105.95 105.772 105.612 105.45 105.295 105.16 104.965 104.755 104.522 104.335
86.297 86.472 86.66 86.822 87.022 87.175 87.382 87.375 87.425 87.55 87.627 87.747 87.862 87.97 88.097 88.207 88.345 88.477 88.59 88.702 88.842 88.96 89.072 89.2 89.302 89.45 89.602 89.75 89.902 90.045 90.195 90.3 90.45 90.517 90.61 90.697 90.807 90.857 90.902 90.957 91.027 91.112 91.272 91.525 91.815 92.117 92.402 92.642 92.86 93.062 93.265 93.425 93.872 93.81 93.562 93.475 93.4 93.785 96.135 97.432 96.77 94.932 94.947 95.065 95.162 95.285 95.437 95.625 95.83 95.97 96.132 96.315 96.492 96.695 96.902 97.122 97.337 97.565 97.787 98.017 98.225 98.405 98.497 98.69 98.842 99.017 99.192 99.385 99.567 99.72 99.89 100.047 100.242 100.43 100.635 100.79 100.977 101.14 101.29 101.422 101.547 101.67 101.765 101.85 101.942 102.04 102.185 102.332 102.522 102.675 102.832 102.985 103.1 103.212 103.31 103.42 103.525 103.645 103.787 103.902 104.02 104.142 104.257 104.377 104.44 104.537 104.64 104.742 104.85 104.945 105.06 105.155 105.212 105.307 105.405 105.525 105.6 105.695 105.817 105.897 106.005 106.102 106.222 106.322 106.442 106.545 106.627 106.755 106.87 106.97 107.072 107.202 107.345 107.495 107.657 107.79 107.947 108.11 108.262 108.402 108.507 108.645 108.777 108.86 109.007 109.172 109.332 109.452 109.495 110.742 112.025 112.8 113.952 112.21 110.697 110.857 111.042 111.14 111.242 111.275 111.325 111.372 111.397 111.427 111.317 111.815 113.86 111.737 111.49 113.245 112.522 111.265 114.945 113.722 111.547 112.287 112.897 113.197 113.282 114.15 113.77 112.115 112.632 115.055 113.425 112.5 112.585 112.69 112.765 112.862 112.942 113.042 113.132 113.212 113.312 113.395 113.485 113.592 113.667 113.74 113.805 113.892 113.967 114 114.057 114.095 114.135 114.165 114.152 114.145 114.177 114.175 114.192 114.23 114.29 114.34 114.357 114.395 114.45 114.495 114.517 114.577 114.6 114.665 114.725 114.765 114.802 114.855 114.897 114.912 114.962 114.977 115.005 115.015 115.047 115.035 115.032 115.037 115.017 115.017 115.032 115.012 114.995 115.015 115.002 115.007 114.995 114.985 114.99 115.007 115.04 114.997 115.015 115.04 115.04 115.015 115.027 115.015 115.02 115.012 114.985 114.965 114.985 114.97 114.945 114.96 114.922 114.93 114.882 114.865 114.867 114.815 114.805 114.762 114.75 114.742 114.71 114.712 114.72 114.732 114.7 114.707 114.66 114.637 114.627 114.602 114.537 114.5 114.472 114.455 114.417 114.387 114.36 114.38 114.352 114.312 114.297 114.23 114.192 114.142 114.125 114.057 113.972 113.842 113.705 113.602 113.622 114.75 113.682 114.425 113.45 113.242 114.282 112.762 112.707 112.632 113.677 112.707 112.647 112.617 112.337 112.17 112.022 112.635 111.852 112.58 112.535 111.84 111.44 111.315 111.497 111.957 111.505 110.83 111.64 110.67 110.74 110.555 110.477 110.435 110.312 110.282 110.215 110.155 110.097 109.982 109.922 109.762 109.677 109.622 109.545 109.45 109.45 111.817 110.845 108.852 109.012 108.647 108.505 108.39 108.3 108.202 108.065 107.942 107.862 107.772 107.65 107.535 107.43 107.355 107.252 107.187 107.137 107.045 106.905 106.815 106.692 106.567 106.43 106.302 106.187 106.037 105.892 105.802 105.817 105.762 105.612 105.347 104.995 104.64
86.562 86.712 86.9 87.072 87.252 87.395 87.67 87.7 87.72 87.79 87.882 88.012 88.132 88.255 88.357 88.507 88.647 88.73 88.84 88.982 89.107 89.24 89.36 89.482 89.612 89.725 89.89 90.027 90.197 90.342 90.457 90.587 90.72 90.8 90.867 90.955 91.09 91.162 91.222 91.28 91.36 91.462 91.687 91.935 92.242 92.517 92.79 92.997 93.237 93.445 93.617 94.152 94 93.805 93.737 93.685 94.197 95.962 95.442 95.55 95.095 95.21 95.295 95.395 95.517 95.662 95.81 96.005 96.165 96.345 96.532 96.717 96.88 97.115 97.315 97.54 97.737 97.967 98.187 98.407 98.567 98.72 98.867 99.01 99.195 99.365 99.525 99.7 99.88 100.027 100.2 100.367 100.547 100.77 100.957 101.142 101.312 101.467 101.63 101.765 101.895 102.005 102.115 102.225 102.327 102.452 102.575 102.732 102.905 103.045 103.187 103.335 103.435 103.547 103.67 103.785 103.9 104.015 104.14 104.265 104.385 104.497 104.592 104.7 104.825 104.942 105.047 105.165 105.245 105.347 105.44 105.522 105.62 105.672 105.81 105.895 105.997 106.1 106.202 106.295 106.407 106.517 106.62 106.725 106.837 106.962 107.055 107.16 107.267 107.392 107.517 107.702 107.867 107.995 108.127 108.312 108.507 108.68 108.837 108.992 109.095 109.195 109.35 109.432 109.555 109.687 109.84 110 110.847 112.55 113.492 113.497 114.202 112.097 111.325 111.452 111.542 111.582 111.635 111.665 111.707 111.742 111.81 111.875 111.885 112.152 112.492 112.502 112.472 112.012 113.49 112.382 114.927 113.357 112.09 112.352 112.777 113.287 113.742 113.66 113.217 112.57 112.677 112.727 112.855 112.95 113.04 113.125 113.232 113.297 113.377 113.465 113.555 113.645 113.74 113.837 113.93 114.002 114.07 114.142 114.182 114.255 114.3 114.332 114.347 114.39 114.435 114.455 114.442 114.452 114.477 114.472 114.507 114.54 114.572 114.612 114.615 114.665 114.68 114.737 114.767 114.807 114.857 114.892 114.95 114.977 115.01 115.08 115.09 115.147 115.187 115.212 115.225 115.26 115.272 115.282 115.252 115.265 115.267 115.282 115.282 115.285 115.275 115.282 115.277 115.282 115.292 115.315 115.315 115.33 115.337 115.317 115.357 115.362 115.352 115.35 115.35 115.34 115.345 115.335 115.327 115.297 115.295 115.292 115.262 115.237 115.217 115.177 115.17 115.127 115.115 115.065 115.052 115.025 115.015 115.022 114.992 115.015 115.002 114.992 114.997 114.992 114.97 114.922 114.875 114.845 114.855 114.775 114.745 114.712 114.672 114.64 114.615 114.592 114.585 114.587 114.537 114.752 114.377 114.31 114.22 114.172 114.122 113.987 114.072 114.93 114.175 114.342 114.092 113.945 113.51 113.327 113.24 113.237 113.205 113.52 113.507 112.912 113.23 112.652 112.62 112.512 112.41 112.49 112.412 112.23 112.01 112.335 111.735 111.635 111.605 112.045 111.817 111.232 110.997 111.247 111.005 110.772 110.815 110.845 110.597 110.47 110.435 110.362 110.292 110.19 110.095 109.982 109.897 109.817 109.712 109.552 109.39 109.977 109.15 109.012 108.887 108.765 108.647 108.542 108.437 108.262 108.112 107.997 107.922 107.88 107.767 107.642 107.545 107.417 107.325 107.255 107.212 107.15 107.09 106.947 106.857 106.73 106.622 106.492 106.395 106.337 106.23 106.305 106.367 106.205 106.035 105.762 105.425 104.935
86.805 86.967 87.155 87.31 87.475 87.64 87.867 87.992 88.052 88.087 88.19 88.29 88.4 88.542 88.662 88.762 88.89 88.975 89.12 89.25 89.387 89.505 89.635 89.75 89.875 90.012 90.147 90.292 90.46 90.587 90.732 90.85 90.965 91.062 91.195 91.295 91.395 91.497 91.54 91.612 91.732 91.91 92.11 92.367 92.64 92.902 93.152 93.402 93.62 93.77 94.092 94.22 93.995 93.88 93.86 94.06 96.697 98.302 96.182 95.552 95.352 95.457 95.612 95.712 95.867 96.032 96.237 96.39 96.547 96.735 96.935 97.11 97.295 97.497 97.715 97.952 98.17 98.372 98.572 98.75 98.912 99.072 99.192 99.34 99.482 99.672 99.86 99.997 100.177 100.357 100.517 100.682 100.877 101.092 101.285 101.462 101.62 101.777 101.962 102.082 102.222 102.342 102.437 102.55 102.672 102.79 102.925 103.08 103.232 103.367 103.51 103.667 103.802 103.907 104.022 104.165 104.247 104.362 104.482 104.6 104.74 104.85 104.952 105.047 105.185 105.325 105.435 105.545 105.635 105.717 105.817 105.905 106.007 106.097 106.202 106.287 106.397 106.525 106.592 106.71 106.807 106.927 107.06 107.15 107.747 108.037 108.437 107.742 107.732 107.877 108.017 108.19 108.352 108.502 108.675 108.86 109.05 109.207 109.392 109.565 109.655 109.787 109.847 109.947 110.092 110.282 110.432 110.602 111.125 111.957 111.802 112.122 112.17 111.61 111.687 111.72 111.79 111.827 111.847 111.892 111.915 112.002 112.122 112.27 112.372 112.402 112.315 112.202 112.852 113.765 112.12 115.157 116.552 113.117 112.477 113.45 113.37 115.07 114.112 112.877 112.882 113.01 113.09 113.195 113.295 113.395 113.477 113.57 113.642 113.742 113.86 113.937 114.027 114.112 114.197 114.29 114.372 114.457 114.49 114.562 114.61 114.64 114.655 114.657 114.65 114.7 114.707 114.705 114.69 114.71 114.71 114.73 114.722 114.757 114.797 114.84 114.85 114.887 114.94 114.975 114.997 115.06 115.077 115.105 115.155 115.21 115.247 115.262 115.307 115.335 115.382 115.387 115.427 115.467 115.48 115.485 115.477 115.497 115.5 115.495 115.537 115.547 115.54 115.56 115.567 115.582 115.61 115.61 115.617 115.607 115.622 115.615 115.637 115.622 115.62 115.632 115.615 115.6 115.605 115.577 115.572 115.557 115.547 115.542 115.52 115.515 115.477 115.47 115.437 115.44 115.415 115.375 115.37 115.312 115.305 115.3 115.28 115.267 115.262 115.26 115.227 115.195 115.17 115.145 115.102 115.132 115.17 114.985 114.957 114.927 114.9 114.865 114.82 114.807 114.827 114.775 116.48 115.417 114.505 115.42 116.412 114.332 114.412 114.33 114.525 115.025 114.792 114.942 114.317 113.935 113.915 114.172 113.942 113.665 113.707 113.785 113.955 113.495 113.307 113.012 112.905 112.762 112.705 112.597 112.45 113.037 114.087 112.197 112.067 111.94 111.842 111.955 111.925 111.43 111.325 111.262 111.262 111.137 111.155 111.022 110.765 110.64 110.587 110.497 110.422 110.317 110.197 110.105 110.027 109.962 109.842 109.685 109.552 109.422 109.257 109.122 108.985 108.875 108.737 108.65 108.502 108.37 108.205 108.095 108.025 107.945 107.9 107.772 107.66 107.515 107.405 107.372 107.262 107.2 107.19 107.105 106.99 106.9 106.797 106.685 106.6 106.595 106.592 106.652 106.46 106.235 106.04 105.825 105.63 105.187
87.055 87.222 87.377 87.562 87.72 87.862 88.035 88.752 88.78 88.377 88.447 88.57 88.67 88.762 88.885 89.007 89.132 89.252 89.385 89.517 89.66 89.757 89.88 90.002 90.132 90.265 90.397 90.53 90.695 90.8 90.94 91.13 91.225 91.325 91.487 91.585 91.705 91.815 91.895 92.035 92.165 92.332 92.55 92.807 93.057 93.297 93.54 93.755 93.947 94.25 94.52 94.19 94.155 94.08 94.115 94.88 96.137 96.297 95.787 95.637 95.717 95.8 95.935 96.077 96.242 96.437 96.625 96.79 96.982 97.16 97.34 97.517 97.695 97.912 98.147 98.362 98.577 98.777 98.965 99.16 99.297 99.387 99.517 99.682 99.845 99.995 100.152 100.272 100.452 100.647 100.852 101.03 101.205 101.41 101.59 101.765 101.92 102.085 102.225 102.39 102.517 102.66 102.75 102.865 102.95 103.112 103.255 103.415 103.547 103.682 103.822 103.972 104.1 104.232 104.362 104.475 104.587 104.717 104.815 104.94 105.042 105.147 105.292 105.44 105.557 105.672 105.787 105.885 105.99 106.077 106.172 106.282 106.37 106.48 106.595 106.717 106.792 106.88 106.98 107.095 107.202 107.36 107.477 107.607 108.195 109.467 109.922 108.187 108.267 108.352 108.517 108.662 108.837 109.062 109.27 109.437 109.595 109.732 109.922 110.055 110.157 110.285 110.427 110.59 110.765 110.93 111.095 111.215 111.45 111.56 111.645 111.725 111.805 111.855 111.907 111.93 111.98 112.037 112.05 112.04 112.12 112.23 112.402 112.57 112.692 112.76 112.742 112.702 112.82 114.282 113.49 114.895 116.34 113.84 112.927 114.037 114.865 118.38 118.037 113.302 113.345 113.44 113.55 113.66 113.742 113.855 113.95 114.03 114.12 114.21 114.352 114.437 114.517 114.635 114.712 114.787 114.872 114.935 114.957 115.022 115.022 115.035 115.03 115.017 114.982 114.975 114.985 114.975 114.965 114.942 114.927 114.937 114.935 114.985 115.01 115.037 115.055 115.112 115.15 115.2 115.245 115.29 115.312 115.357 115.402 115.427 115.46 115.517 115.54 115.567 115.605 115.645 115.667 115.667 115.697 115.72 115.707 115.742 115.76 115.76 115.792 115.81 115.795 115.812 115.837 115.862 115.87 115.89 115.89 115.9 115.897 115.9 115.897 115.902 115.892 115.885 115.87 115.88 115.862 115.857 115.825 115.81 115.805 115.787 115.772 115.76 115.762 115.735 115.695 115.682 115.652 115.642 115.607 115.58 115.542 115.555 115.522 115.512 115.495 115.455 115.42 115.412 115.375 115.355 115.295 115.237 115.225 115.2 115.182 115.13 115.09 115.092 115.067 115.032 114.995 115.06 115.217 114.855 114.805 115.202 115.56 114.755 114.617 114.585 115.025 114.645 114.89 115.16 114.577 114.322 114.527 114.642 114.042 114.027 113.96 113.945 116.122 115.337 114.63 114.352 114.445 113.077 113.02 112.895 112.747 113.382 112.725 112.42 112.285 112.2 112.035 111.867 111.757 111.645 111.545 111.465 112.16 112.88 111.337 111.107 110.875 110.805 110.735 110.645 110.542 110.452 110.335 110.207 110.127 110.057 109.915 109.792 109.667 109.557 109.382 109.247 109.122 109 108.877 108.742 108.6 108.492 108.36 108.257 108.155 108.07 107.972 107.89 107.78 107.607 107.51 107.41 107.345 107.28 107.272 107.187 107.085 107.005 106.912 106.842 106.787 106.787 106.822 106.802 106.497 106.212 105.985 105.8 105.68 105.34
87.295 87.46 87.6 87.78 87.947 88.092 88.24 88.532 88.545 88.627 88.712 88.815 88.92 89.012 89.127 89.252 89.367 89.507 89.655 89.77 89.905 90.035 90.165 90.262 90.372 90.522 90.647 90.785 90.91 91.04 91.207 91.342 91.482 91.63 91.797 91.922 92.05 92.185 92.332 92.472 92.607 92.79 93.05 93.235 93.46 93.685 93.905 94.095 94.322 94.567 94.405 94.35 94.295 95.057 95.69 97.882 97.112 95.83 95.867 95.92 96.015 96.132 96.28 96.472 96.645 96.832 97.012 97.185 97.382 97.537 97.705 97.89 98.115 98.327 98.575 98.802 98.965 99.132 99.335 99.49 99.595 99.76 99.872 100.025 100.177 100.317 100.45 100.592 100.777 100.97 101.172 101.342 101.522 101.685 101.875 102.045 102.202 102.31 102.47 102.665 102.81 102.942 103.05 103.187 103.315 103.477 103.622 103.745 103.872 104.012 104.14 104.28 104.41 104.547 104.7 104.82 104.927 105.03 105.16 105.25 105.405 105.53 105.667 105.78 105.89 106.022 106.115 106.23 106.317 106.437 106.555 106.652 106.752 106.87 106.965 107.05 107.152 107.267 107.39 107.517 107.667 107.85 107.98 108.115 108.432 109.072 108.807 108.635 108.837 108.9 108.982 109.082 109.295 109.607 109.855 110.02 110.16 110.275 110.432 110.577 110.747 110.9 111.055 111.207 111.33 111.47 111.565 111.65 111.74 111.797 111.862 111.922 111.975 112.012 112.062 112.077 112.112 112.167 112.172 112.2 112.295 112.452 112.627 112.847 113 113.135 113.15 113.177 113.147 113.465 113.282 115.282 116.262 114.605 114.552 115.5 116.27 118.045 115.942 113.715 113.812 113.975 114.072 114.187 114.295 114.377 114.462 114.56 114.64 114.757 114.86 114.965 115.057 115.112 115.197 115.255 115.315 115.36 115.372 115.395 115.402 115.417 115.392 115.375 115.332 115.335 115.317 115.285 115.277 115.247 115.235 115.205 115.235 115.227 115.255 115.297 115.335 115.347 115.425 115.452 115.507 115.542 115.562 115.607 115.645 115.695 115.72 115.772 115.812 115.845 115.89 115.912 115.927 115.965 116 115.99 115.98 116.007 116.027 116.032 116.042 116.045 116.092 116.097 116.115 116.157 116.142 116.175 116.195 116.19 116.2 116.177 116.192 116.202 116.215 116.202 116.192 116.197 116.18 116.167 116.165 116.122 116.112 116.112 116.087 116.065 116.045 116.002 115.962 115.935 115.887 115.852 115.812 115.79 115.727 115.685 115.702 115.702 115.782 115.687 115.632 115.602 115.575 115.562 116.252 116.007 115.407 115.367 115.34 115.357 115.43 115.492 115.337 115.317 117.237 115.287 115.22 115.485 115.995 115.422 117.015 117.47 115.602 115.77 115.685 115.06 114.677 114.662 114.517 114.69 114.477 114.38 114.297 114.2 114.212 114.187 114.687 114.42 113.857 114.13 113.665 113.445 113.302 113.147 113.002 112.89 112.742 112.667 112.535 112.407 112.25 112.11 111.97 111.842 111.722 111.607 113.667 114.255 111.595 111.07 111.007 111.137 110.872 110.782 110.715 110.605 110.477 110.347 110.28 110.177 110.077 109.992 109.81 109.637 109.505 109.365 109.25 109.137 108.997 108.84 108.725 108.615 108.495 108.412 108.315 108.185 108.037 107.952 107.88 107.772 107.65 107.512 107.44 107.375 107.327 107.235 107.167 107.11 107.035 106.98 106.985 106.965 106.995 106.895 106.642 106.375 106.14 105.842 105.695 105.312
87.562 87.697 87.812 87.995 88.15 88.312 88.452 88.585 88.727 88.85 88.915 89.032 89.14 89.245 89.36 89.497 89.65 89.775 89.915 90.055 90.187 90.282 90.427 90.512 90.615 90.787 90.902 90.995 91.13 91.287 91.445 91.602 91.755 91.942 92.132 92.277 92.455 92.627 92.8 92.937 93.112 93.31 93.515 93.647 93.862 94.057 94.237 94.437 94.757 94.64 94.565 94.515 94.457 94.85 95.522 95.945 96.02 96.012 96.067 96.197 96.332 96.477 96.647 96.825 97.05 97.24 97.385 97.56 97.72 97.92 98.082 98.312 98.53 98.772 98.987 99.185 99.345 99.52 99.657 99.795 99.895 100.06 100.212 100.372 100.48 100.62 100.772 100.947 101.137 101.335 101.475 101.645 101.822 102.015 102.16 102.315 102.48 102.607 102.797 102.96 103.107 103.237 103.397 103.547 103.662 103.797 103.937 104.082 104.217 104.365 104.507 104.66 104.765 104.9 105.042 105.145 105.232 105.352 105.49 105.602 105.74 105.86 105.977 106.1 106.227 106.335 106.447 106.562 106.675 106.795 106.892 106.99 107.09 107.202 107.332 107.44 107.555 107.687 107.867 107.987 108.11 108.275 108.445 108.597 108.745 108.895 109.045 109.28 109.475 109.505 109.54 109.7 109.902 110.26 110.515 110.697 110.842 110.98 111.087 111.157 111.295 111.377 111.477 111.565 111.642 111.73 111.79 111.847 111.935 111.992 112.02 112.067 112.115 112.147 112.162 112.205 112.222 112.272 112.31 112.405 112.492 112.67 112.88 113.09 113.282 113.442 113.567 113.662 113.685 113.77 113.782 114.745 115.885 115.212 115.015 115.785 114.3 114.615 115.652 114.545 114.37 114.56 114.66 114.747 114.862 114.94 115 115.105 115.17 115.26 115.335 115.385 115.452 115.517 115.562 115.622 115.667 115.707 115.705 115.707 115.717 115.695 115.665 115.647 115.6 115.597 115.577 115.565 115.535 115.507 115.512 115.505 115.49 115.535 115.545 115.582 115.65 115.66 115.7 115.737 115.79 115.815 115.842 115.86 115.895 115.937 115.985 116.01 116.055 116.085 116.105 116.152 116.177 116.195 116.227 116.235 116.235 116.275 116.292 116.315 116.352 116.365 116.4 116.41 116.412 116.472 116.475 116.49 116.495 116.5 116.492 116.47 116.477 116.487 116.505 116.48 116.497 116.485 116.475 116.49 116.45 116.415 116.407 116.385 116.345 116.307 116.275 116.265 116.197 116.13 116.107 116.085 116.065 116.03 115.957 115.972 115.912 115.95 116.325 116.125 116.21 116.165 116.297 115.935 117.165 116.535 115.755 116.86 116.807 115.722 115.667 115.677 115.675 115.607 117.222 115.527 115.44 115.507 115.595 115.295 115.907 117.897 115.242 114.975 115.047 114.85 114.802 114.75 114.675 114.627 114.582 114.535 114.497 114.457 114.405 114.335 114.265 114.197 114.105 113.99 113.85 113.75 113.627 113.447 113.295 113.192 113.035 112.895 112.76 112.65 112.512 112.372 112.217 112.035 111.93 111.752 112.052 111.755 111.297 111.247 111.117 111.082 111.007 110.94 110.867 110.777 110.692 110.587 110.465 110.347 110.23 110.112 110.015 109.757 109.625 109.52 109.407 109.285 109.12 108.967 108.832 108.712 108.592 108.51 108.385 108.265 108.15 108.015 107.907 107.815 107.765 107.642 107.555 107.472 107.377 107.305 107.257 107.192 107.137 107.122 107.102 107.067 107.022 106.89 106.695 106.462 106.18 105.892 105.617 105.322
87.8 87.912 88.057 88.207 88.36 88.552 88.69 88.81 89.017 89.11 89.137 89.245 89.377 89.512 89.612 89.757 89.892 90.032 90.172 90.335 90.455 90.567 90.67 90.765 90.892 90.972 91.097 91.202 91.35 91.512 91.695 91.862 92.047 92.252 92.465 92.66 92.892 93.107 93.302 93.482 93.662 93.84 93.952 94.09 94.252 94.39 94.567 94.885 94.88 94.747 94.7 94.645 95.127 96.052 96.34 96.907 96.182 96.28 96.392 96.542 96.69 96.857 97.042 97.2 97.47 97.622 97.737 97.935 98.097 98.287 98.512 98.735 98.972 99.152 99.39 99.55 99.695 99.825 99.992 100.127 100.28 100.35 100.51 100.68 100.822 100.95 101.125 101.307 101.455 101.627 101.802 101.94 102.115 102.275 102.44 102.607 102.79 102.947 103.097 103.24 103.372 103.542 103.705 103.83 103.975 104.11 104.245 104.425 104.58 104.722 104.857 105.015 105.142 105.26 105.365 105.467 105.577 105.702 105.805 105.93 106.062 106.192 106.302 106.427 106.552 106.657 106.782 106.885 107.002 107.1 107.225 107.342 107.435 107.555 107.717 107.845 107.982 108.11 108.24 108.375 108.515 108.687 108.895 109.085 109.275 109.48 109.682 109.897 110.067 110.165 110.267 110.427 110.62 110.837 110.997 111.072 111.182 111.257 111.372 111.417 111.52 111.585 111.66 111.74 111.797 111.86 111.92 112.007 112.08 112.11 112.17 112.205 112.24 112.247 112.302 112.337 112.372 112.435 112.477 112.615 112.742 112.905 113.142 113.362 113.547 113.737 113.915 114.005 114.09 114.195 114.23 114.38 114.542 115.012 115.827 115.502 114.682 114.85 114.905 114.822 114.897 115.025 115.12 115.232 115.3 115.382 115.45 115.54 115.62 115.68 115.717 115.772 115.825 115.905 115.925 115.962 115.997 116.002 115.997 115.99 115.97 115.96 115.935 115.905 115.88 115.857 115.847 115.825 115.775 115.762 115.775 115.767 115.772 115.805 115.832 115.88 115.915 115.945 115.98 116.03 116.062 116.075 116.11 116.117 116.147 116.195 116.222 116.242 116.285 116.312 116.337 116.362 116.412 116.44 116.515 116.5 116.502 116.53 116.537 116.567 116.592 116.625 116.67 116.705 116.717 116.737 116.755 116.775 116.787 116.807 116.812 116.79 116.81 116.777 116.782 116.772 116.755 116.732 116.722 116.69 116.677 116.66 116.637 116.58 116.557 116.507 116.547 116.395 116.377 116.33 117.352 116.94 116.297 116.335 116.365 116.35 116.247 116.45 116.725 116.632 116.835 116.555 116.762 116.895 116.297 116.615 116.72 117.637 116.142 116.025 116.377 115.872 115.835 115.82 115.8 115.702 115.63 115.562 115.462 115.36 115.29 115.385 115.2 115.11 115.05 114.975 114.92 114.862 114.797 114.75 114.71 114.677 114.625 114.575 114.52 114.48 114.412 114.325 114.275 114.18 114.08 113.987 113.867 113.767 113.627 113.497 113.345 113.21 113.062 112.917 112.79 112.642 112.492 112.317 112.142 111.965 111.792 111.64 111.515 111.427 111.33 111.237 111.167 111.08 111.04 110.957 110.902 110.97 110.695 110.57 110.385 110.207 110.055 109.907 109.765 109.632 109.547 109.387 109.25 109.097 108.945 108.827 108.705 108.587 108.487 108.352 108.235 108.095 107.97 107.905 107.847 107.72 107.65 107.537 107.46 107.38 107.32 107.26 107.21 107.15 107.092 107.012 106.942 106.81 106.617 106.402 106.175 105.92 105.645 105.332
88.06 88.177 88.292 88.442 88.582 88.75 88.907 89.07 89.19 89.415 89.407 89.5 89.625 89.757 89.882 90.005 90.15 90.275 90.43 90.59 90.715 90.817 90.92 90.982 91.117 91.212 91.337 91.437 91.595 91.745 91.912 92.11 92.332 92.537 92.802 93.032 93.31 93.56 93.842 94.095 94.245 94.345 94.43 94.49 94.6 94.687 94.997 95.172 94.977 94.95 94.89 95.257 96.432 98.227 98.237 96.65 96.477 96.572 96.725 96.9 97.072 97.242 97.41 97.577 97.795 97.962 98.115 98.307 98.502 98.73 98.935 99.177 99.38 99.585 99.767 99.907 100.062 100.18 100.3 100.437 100.572 100.707 100.85 100.99 101.147 101.292 101.447 101.63 101.795 101.932 102.117 102.267 102.45 102.59 102.77 102.947 103.1 103.235 103.392 103.55 103.68 103.832 103.972 104.112 104.275 104.417 104.602 104.792 104.942 105.107 105.227 105.367 105.487 105.572 105.682 105.79 105.907 106.035 106.15 106.275 106.425 106.572 106.642 106.765 106.845 106.975 107.09 107.2 107.33 107.452 107.592 107.702 107.832 107.955 108.097 108.212 108.35 108.457 108.597 108.737 108.865 109.05 109.257 109.515 109.725 109.947 110.17 110.322 110.472 110.612 110.76 110.897 111.002 111.077 111.202 111.277 111.352 111.407 111.47 111.542 111.62 111.692 111.76 111.845 111.9 111.957 112.057 112.1 112.155 112.21 112.275 112.305 112.355 112.38 112.45 112.47 112.532 112.612 112.695 112.835 112.972 113.165 113.375 113.602 113.77 113.94 114.13 114.275 114.382 114.51 114.587 114.68 114.775 114.86 115.557 116.142 115.575 115.09 115.115 115.24 115.315 115.377 115.462 115.565 115.637 115.702 115.767 115.835 115.9 116.012 116.06 116.115 116.155 116.225 116.245 116.272 116.312 116.322 116.317 116.315 116.297 116.27 116.265 116.255 116.205 116.17 116.155 116.122 116.075 116.062 116.032 116.027 116.03 116.052 116.105 116.112 116.137 116.172 116.19 116.267 116.3 116.292 116.335 116.37 116.392 116.43 116.442 116.485 116.537 116.595 116.622 116.637 116.682 116.685 116.742 116.787 116.795 116.787 116.825 116.817 116.865 116.897 116.93 116.94 116.967 116.98 117.002 117.02 117.02 117.032 117.022 117.012 117.027 117.017 117.015 117.007 116.965 116.942 116.94 116.877 117.415 116.81 116.802 116.785 116.752 116.765 118.922 117.855 117.407 116.62 118.555 118.615 116.667 117.557 116.775 116.872 117.137 116.837 116.742 116.76 116.76 116.662 116.57 116.702 116.487 116.497 116.477 116.472 116.405 116.335 118.97 116.725 116.73 116.485 116.062 115.947 115.847 115.792 115.727 115.575 115.515 115.41 115.352 115.262 115.165 115.082 115.022 114.977 114.907 114.845 114.77 114.71 114.7 114.64 114.59 114.56 114.505 114.447 114.372 114.315 114.242 114.2 114.107 114.017 113.902 113.775 113.645 113.515 113.387 113.23 113.077 112.927 112.772 112.617 112.432 112.27 112.095 111.917 111.762 111.62 111.512 111.405 111.332 111.27 111.222 111.15 111.067 111.327 110.907 110.747 110.545 110.355 110.217 110.072 109.93 109.782 109.67 109.547 109.387 109.245 109.105 108.977 108.85 108.712 108.562 108.445 108.3 108.167 108.035 107.977 107.917 107.78 107.685 107.597 107.517 107.44 107.342 107.28 107.225 107.14 107.027 106.95 106.88 106.69 106.477 106.3 106.192 105.905 105.49 105.265
88.27 88.4 88.522 88.665 88.802 88.94 89.097 89.285 89.415 89.627 89.705 89.762 89.882 90.01 90.122 90.265 90.405 90.547 90.692 90.817 90.942 91.047 91.155 91.23 91.332 91.427 91.545 91.665 91.797 91.967 92.16 92.387 92.612 92.84 93.107 93.432 93.76 94.087 94.467 94.702 94.805 94.835 94.865 94.88 94.915 95.062 95.395 95.2 95.167 95.115 95.187 97.05 96.722 100 98.982 96.662 96.777 96.915 97.085 97.255 97.42 97.582 97.765 97.922 98.135 98.295 98.505 98.692 98.9 99.147 99.36 99.585 99.775 99.99 100.097 100.23 100.385 100.482 100.627 100.77 100.932 101.06 101.18 101.33 101.492 101.62 101.787 101.96 102.077 102.265 102.44 102.625 102.79 102.952 103.095 103.272 103.4 103.557 103.677 103.815 103.96 104.09 104.265 104.43 104.592 104.762 104.945 105.095 105.277 105.42 105.535 105.655 105.79 105.895 106.022 106.125 106.252 106.37 106.495 106.635 106.757 106.857 106.952 107.06 107.192 107.34 107.462 107.57 107.72 107.827 107.947 108.055 108.18 108.33 108.457 108.592 108.715 108.832 108.925 109.04 109.182 109.362 109.605 109.937 110.12 110.337 110.515 110.672 110.802 110.895 110.99 111.075 111.152 111.185 111.267 111.357 111.43 111.477 111.572 111.637 111.73 111.802 111.885 111.982 112.047 112.1 112.19 112.257 112.32 112.37 112.417 112.48 112.507 112.567 112.63 112.667 112.742 112.825 112.92 113.087 113.212 113.395 113.545 113.78 113.96 114.14 114.31 114.452 114.597 114.712 114.82 114.895 115.032 115.12 115.175 115.632 115.537 115.395 115.46 115.57 115.635 115.687 115.795 115.872 115.917 115.977 116.087 116.095 116.095 116.192 116.307 116.377 116.442 116.495 116.537 116.555 116.62 116.602 116.612 116.61 116.595 116.57 116.567 116.547 116.517 116.49 116.48 116.457 116.407 116.367 116.362 116.337 116.317 116.32 116.33 116.37 116.39 116.402 116.427 116.505 116.542 116.54 116.577 116.612 116.615 116.667 116.712 116.727 116.772 116.802 116.857 116.865 116.927 116.957 116.985 117.015 117.04 117.055 117.05 117.072 117.097 117.177 117.17 117.177 117.202 117.227 117.227 117.227 117.23 117.227 117.175 117.12 117.1 117.19 117.187 117.172 117.102 117.27 117.095 117.075 118.02 119.697 118.255 117.13 119.35 118.037 117.697 117.32 117.115 117.085 117.095 117.075 118.362 120.565 116.967 116.99 118.347 117.752 116.98 116.99 117 116.942 116.855 116.787 116.725 116.74 116.707 116.687 116.647 116.572 117.282 116.912 116.485 116.315 116.257 116.152 116.067 115.972 115.887 115.78 115.705 115.585 115.505 115.402 115.3 115.25 115.16 115.105 115.05 114.945 114.847 114.79 114.747 114.685 114.652 114.635 114.59 114.532 114.475 114.42 114.375 114.3 114.225 114.155 114.085 113.985 113.882 113.78 113.66 113.532 113.402 113.232 113.077 112.945 112.83 112.677 112.467 112.247 112.082 111.887 111.725 111.612 111.53 111.467 111.392 111.297 111.18 111.052 111.012 110.86 110.66 110.495 110.337 110.207 110.065 109.932 109.807 109.682 109.517 109.39 109.25 109.13 108.96 108.805 108.672 108.532 108.37 108.257 108.132 108.072 107.952 107.825 107.74 107.64 107.537 107.432 107.362 107.272 107.18 107.08 106.97 106.9 106.765 106.562 106.38 106.247 106 105.605 105.392 105.192
88.515 88.647 88.777 88.905 89.015 89.127 89.277 89.487 89.66 89.787 89.992 90.042 90.147 90.242 90.37 90.517 90.67 90.815 90.925 91.02 91.15 91.277 91.395 91.482 91.575 91.672 91.752 91.88 92.017 92.162 92.367 92.612 92.882 93.165 93.49 93.832 94.197 94.6 95.04 95.265 95.31 95.3 95.255 95.215 95.242 95.567 95.447 95.382 95.365 95.32 97.062 96.575 97.127 97.16 96.875 96.957 97.12 97.275 97.415 97.562 97.735 97.89 98.072 98.287 98.427 98.617 98.882 99.102 99.317 99.557 99.807 100.005 100.167 100.357 100.452 100.585 100.697 100.795 100.91 101.065 101.23 101.37 101.502 101.635 101.782 101.932 102.107 102.3 102.46 102.647 102.8 102.952 103.097 103.26 103.407 103.555 103.687 103.815 103.947 104.097 104.26 104.432 104.6 104.75 104.897 105.08 105.26 105.39 105.545 105.695 105.837 105.985 106.122 106.232 106.35 106.472 106.577 106.717 106.83 106.95 107.062 107.17 107.317 107.442 107.59 107.705 107.815 107.957 108.09 108.182 108.312 108.395 108.527 108.667 108.777 108.895 109.01 109.112 109.205 109.307 109.49 109.687 109.96 110.22 110.405 110.627 110.795 110.927 111.005 111.06 111.115 111.155 111.23 111.302 111.39 111.442 111.527 111.602 111.67 111.777 111.855 111.932 112.007 112.132 112.202 112.29 112.37 112.427 112.497 112.55 112.602 112.667 112.735 112.765 112.835 112.882 112.98 113.042 113.192 113.335 113.47 113.63 113.81 114.015 114.182 114.345 114.525 114.635 114.772 114.88 115.02 115.127 115.227 115.362 115.482 115.607 116.855 118.355 115.775 115.887 115.935 115.977 116.07 116.155 116.21 116.277 116.352 116.407 116.455 116.507 116.572 116.607 116.675 116.73 116.767 116.787 116.832 116.85 116.862 116.852 116.845 116.87 116.842 116.807 116.805 116.79 116.772 116.74 116.682 116.67 116.657 116.632 116.602 116.597 116.637 116.64 116.687 116.757 116.767 116.807 116.797 116.817 116.842 116.84 116.88 116.922 116.957 116.987 117.007 117.027 117.075 117.105 117.127 117.17 117.177 117.145 117.147 117.157 117.237 117.302 117.335 117.367 117.377 117.385 117.382 117.425 117.415 117.42 117.422 117.407 117.66 117.817 117.36 117.372 117.382 117.37 119.04 120.345 118.932 117.91 118.682 121.085 118.765 117.397 119.405 118.32 117.422 117.422 117.417 117.75 117.355 117.27 117.667 117.99 117.242 117.242 117.237 117.285 117.26 117.215 117.177 117.137 117.06 117.005 116.95 116.93 116.907 116.902 116.865 116.792 116.72 116.67 116.572 116.53 116.44 116.37 116.262 116.165 116.052 115.95 115.88 115.78 115.665 115.562 115.482 115.44 115.337 115.27 115.157 115.067 114.982 114.935 114.87 114.797 114.795 114.765 114.697 114.635 114.587 114.507 114.45 114.377 114.312 114.255 114.197 114.115 114.052 113.95 113.825 113.727 113.605 113.472 113.36 113.22 113.072 112.962 112.805 112.542 112.342 112.13 111.947 111.84 111.725 111.95 111.67 111.502 111.32 111.187 111.102 110.99 110.797 110.63 110.54 110.39 110.282 110.172 109.997 109.852 109.672 109.53 109.365 109.22 109.037 108.92 108.795 108.667 108.542 108.395 108.307 108.175 108.035 107.932 107.802 107.695 107.575 107.48 107.382 107.285 107.162 107.112 106.965 106.85 106.707 106.577 106.427 106.117 105.88 105.705 105.485 105.232
88.735 88.84 89.007 89.135 89.242 89.375 89.522 89.71 89.897 90.057 90.26 90.34 90.41 90.497 90.617 90.762 90.917 91.037 91.147 91.287 91.392 91.49 91.595 91.69 91.777 91.86 91.97 92.085 92.212 92.377 92.582 92.83 93.115 93.475 93.875 94.262 94.642 95.112 95.515 95.737 95.767 95.707 95.6 95.56 95.78 95.692 95.63 95.57 95.455 97.732 96.51 97.452 97.625 97.522 97.162 97.29 97.44 97.582 97.725 97.915 98.07 98.22 98.43 98.615 98.81 99.065 99.287 99.512 99.747 99.952 100.155 100.335 100.457 100.48 100.717 100.852 100.975 101.107 101.235 101.365 101.517 101.665 101.8 101.977 102.14 102.315 102.49 102.652 102.807 102.98 103.125 103.265 103.407 103.562 103.697 103.842 103.977 104.137 104.285 104.44 104.587 104.752 104.885 105.035 105.2 105.352 105.49 105.667 105.832 105.99 106.135 106.275 106.4 106.555 106.647 106.792 106.942 107.057 107.185 107.32 107.437 107.555 107.7 107.832 107.942 108.077 108.2 108.305 108.445 108.507 108.62 108.742 108.85 108.952 109.09 109.2 109.295 109.407 109.512 109.635 109.79 110.015 110.232 110.447 110.637 110.845 110.972 111.045 111.12 111.162 111.2 111.25 111.33 111.4 111.505 111.58 111.652 111.732 111.835 111.925 112.002 112.1 112.192 112.287 112.377 112.442 112.55 112.605 112.687 112.777 112.822 112.895 112.922 113.017 113.08 113.17 113.255 113.352 113.5 113.62 113.755 113.947 114.117 114.287 114.44 114.597 114.74 114.842 114.982 115.092 115.222 115.315 115.435 115.56 115.7 115.907 118.082 119.52 116.935 116.197 116.19 116.267 116.33 116.42 116.455 116.525 116.592 116.67 116.722 116.785 116.837 116.875 116.925 116.972 116.992 117.022 117.042 117.06 117.085 117.06 117.08 117.082 117.065 117.052 117.04 117.02 117.015 116.992 116.982 116.95 116.932 116.942 116.912 117.645 117.925 116.975 117.077 117.062 117.072 117.08 117.097 117.097 117.112 117.137 117.14 117.14 117.187 117.185 117.23 117.235 117.25 117.28 117.305 117.327 117.342 117.91 118.32 117.332 117.405 117.477 117.49 117.567 117.687 117.565 117.567 118.34 117.76 118.8 118.012 117.967 119.312 118.18 117.697 118.612 118.51 118.915 118.852 120.817 120.262 117.79 117.905 118.647 117.685 117.71 117.762 117.687 117.687 117.68 117.675 118.272 117.6 117.515 117.527 117.472 117.5 117.505 117.512 117.49 117.47 117.445 117.395 117.33 117.275 117.215 117.2 117.152 117.125 117.115 117.082 117.022 116.97 116.907 116.845 116.747 116.652 116.57 116.487 116.377 116.295 116.172 116.085 115.96 115.86 115.782 115.685 115.615 115.535 115.462 115.347 115.287 115.192 115.107 115.052 114.99 114.952 114.912 114.872 114.785 114.675 114.602 114.547 114.465 114.385 114.297 114.27 114.187 114.125 114.037 113.965 113.86 113.76 113.65 113.542 113.387 113.265 113.177 113.017 112.805 112.622 112.395 112.17 112.05 111.93 111.922 111.985 111.735 111.52 111.357 111.22 111.077 110.92 110.775 110.662 110.545 110.412 110.26 110.095 109.962 109.805 109.602 109.462 109.31 109.137 109.035 108.902 108.757 108.68 108.57 108.435 108.29 108.125 108.04 107.917 107.785 107.662 107.54 107.435 107.33 107.182 107.077 106.97 106.87 106.72 106.587 106.275 106.09 105.947 105.702 105.435 105.2
88.945 89.07 89.222 89.357 89.47 89.592 89.735 89.925 90.08 90.26 90.455 90.585 90.64 90.745 90.847 90.952 91.117 91.265 91.402 91.502 91.622 91.735 91.802 91.867 91.952 92.065 92.165 92.27 92.432 92.602 92.8 93.09 93.432 93.83 94.285 94.697 95.102 95.517 95.87 96.065 96.115 96.04 95.9 96.27 95.99 95.85 95.79 95.725 95.932 101.14 100.192 97.657 98.66 98.7 97.43 97.58 97.737 97.877 98.042 98.227 98.395 98.57 98.792 98.985 99.21 99.467 99.687 99.932 100.177 100.345 100.487 100.642 100.76 100.882 101.02 101.15 101.255 101.38 101.53 101.677 101.845 102.017 102.18 102.36 102.507 102.675 102.83 102.977 103.122 103.292 103.447 103.582 103.717 103.86 104.037 104.177 104.32 104.467 104.595 104.74 104.89 105.035 105.19 105.322 105.477 105.645 106.765 106.295 106.117 106.262 106.417 106.562 106.712 106.86 106.997 107.117 107.265 107.4 107.537 107.647 107.77 107.92 108.03 108.157 108.28 108.427 108.522 108.615 108.732 108.822 108.942 109.07 109.185 109.3 109.422 109.515 109.592 109.72 109.83 109.96 110.082 110.26 110.422 110.627 110.842 111.015 111.107 111.167 111.23 111.282 111.32 111.39 111.475 111.565 111.657 111.755 111.822 111.917 112.015 112.092 112.19 112.28 112.377 112.482 112.587 112.677 112.77 112.857 112.932 113.047 113.112 113.2 113.235 113.335 113.395 113.485 113.557 113.662 113.822 113.917 114.102 114.257 114.4 114.577 114.707 114.83 114.962 115.065 115.192 115.282 115.41 115.51 115.602 115.747 115.827 115.875 115.962 116.825 116.242 116.355 116.37 116.45 116.515 116.585 116.657 116.752 116.82 116.9 116.902 116.98 117.03 117.1 117.127 117.16 117.195 117.227 117.26 117.262 117.327 117.307 117.312 117.347 117.335 117.352 117.33 117.312 117.28 117.277 117.242 117.262 117.255 117.227 117.242 117.64 119.185 117.26 117.297 117.312 117.332 117.345 117.362 117.327 117.337 117.327 117.36 117.367 117.367 117.35 117.36 117.377 117.425 117.422 117.442 117.527 117.532 118.03 118.395 117.595 117.625 117.67 117.69 117.762 118.485 118.135 118.005 119.817 120.257 121.31 118.47 119.335 120.965 119.695 119.762 118.032 118.56 119.255 119.127 118.175 118.335 117.962 117.955 117.955 117.945 117.952 117.897 117.84 117.845 117.825 117.745 117.77 117.767 117.762 117.752 117.742 117.757 117.76 117.752 117.722 117.705 117.667 117.63 117.552 117.5 117.445 117.4 117.357 117.34 117.325 117.28 117.225 117.172 117.145 117.067 116.97 116.87 116.787 116.717 116.622 116.472 116.367 116.257 116.157 116.057 115.97 115.887 115.795 115.727 115.69 115.56 115.47 115.38 115.322 115.255 115.182 115.115 115.055 115.032 114.992 114.897 114.752 114.652 114.575 114.512 114.432 114.335 114.275 114.172 114.112 114.035 113.972 113.877 113.772 113.657 113.532 113.457 113.35 113.197 113.01 112.822 112.622 112.35 112.177 112.087 112.017 111.967 111.88 111.695 111.515 111.345 111.212 111.062 110.942 110.795 110.645 110.477 110.325 110.15 109.98 109.847 109.682 109.557 109.422 109.272 109.165 109.015 108.882 108.77 108.647 108.492 108.335 108.207 108.115 107.957 107.862 107.725 107.622 107.502 107.365 107.232 107.102 107.025 106.912 106.687 106.457 106.345 106.137 105.895 105.632 105.41 105.182
89.125 89.292 89.427 89.575 89.692 89.842 89.945 90.125 90.305 90.492 90.667 90.797 90.892 90.995 91.072 91.22 91.347 91.5 91.6 91.695 91.802 91.897 91.945 92.047 92.137 92.267 92.385 92.485 92.625 92.835 93.09 93.385 93.76 94.22 94.692 95.102 95.517 95.85 96.1 96.297 96.352 96.292 96.29 96.372 96.085 96.02 95.945 96.91 97.01 99.155 104.097 98.917 97.497 97.607 97.76 97.892 98.065 98.232 98.365 98.532 98.71 98.907 99.14 99.382 99.632 99.872 100.077 100.312 100.505 100.667 100.81 100.952 101.07 101.185 101.312 101.447 101.565 101.725 101.88 102.032 102.205 102.37 102.535 102.702 102.855 103.017 103.162 103.3 103.46 103.607 103.735 103.9 104.065 104.202 104.34 104.485 104.635 104.777 104.902 105.022 105.187 105.365 105.455 105.62 105.78 105.932 106.08 106.247 106.44 106.592 106.732 106.885 107.052 107.21 107.325 107.455 107.61 107.73 107.84 107.985 108.105 108.237 108.355 108.507 108.657 108.78 108.882 108.982 109.095 109.21 109.325 109.417 109.545 109.637 109.742 109.84 109.922 110.035 110.155 110.25 110.365 110.5 110.652 110.855 111.07 111.215 111.285 111.335 111.4 111.457 111.545 111.595 111.66 111.757 111.857 111.957 112.03 112.132 112.22 112.31 112.435 112.51 112.645 112.717 112.822 112.955 113.03 113.147 113.23 113.342 113.42 113.495 113.552 113.65 113.717 113.795 113.867 113.975 114.107 114.237 114.375 114.527 114.685 114.847 114.947 115.07 115.19 115.36 115.467 115.547 115.672 115.745 115.887 115.945 116.962 117.17 116.252 116.345 116.48 116.555 116.565 116.62 116.685 116.775 116.842 116.905 116.947 117.022 117.077 117.137 117.197 117.252 117.302 117.327 117.38 117.402 117.445 117.48 117.537 117.567 117.6 117.622 117.637 117.637 117.65 117.607 117.607 117.57 117.575 117.545 117.577 117.545 117.537 117.48 117.475 117.5 117.53 117.575 117.592 117.587 117.605 117.567 117.547 117.542 117.545 117.682 117.472 117.562 117.642 117.912 117.682 117.887 118.092 118.002 117.96 118.885 118.867 118.017 117.975 118.062 118.005 119.21 118.572 118.165 118.19 118.76 119.857 119.02 118.277 118.262 118.73 118.367 118.58 118.282 118.252 118.18 118.207 118.237 118.227 118.202 118.215 118.197 118.177 118.16 118.122 118.035 118.01 118.017 117.995 117.952 117.985 117.995 117.975 117.972 117.992 117.992 118.002 117.967 117.937 117.885 117.857 117.815 117.757 117.695 117.64 117.602 117.597 117.552 117.51 117.437 117.402 117.362 117.262 117.147 117.065 117.012 116.93 116.79 116.68 116.555 116.455 116.357 116.277 116.187 116.12 116.035 115.975 115.91 115.842 115.747 115.645 115.585 115.495 115.422 115.347 115.245 115.197 115.15 115.057 114.927 114.845 114.757 114.65 114.547 114.462 114.377 114.287 114.22 114.142 114.02 113.972 113.867 113.745 113.61 113.572 113.46 113.307 113.165 112.995 112.802 112.585 112.332 112.217 112.172 112.11 111.98 111.832 111.702 111.55 111.807 111.187 111.165 110.917 110.735 110.572 110.407 110.252 110.102 109.947 109.807 109.687 109.545 109.377 109.26 109.122 109.002 108.857 108.725 108.575 108.432 108.285 108.16 108.027 107.907 107.765 107.61 107.467 107.335 107.28 107.202 107.002 106.725 106.605 106.5 106.302 106.07 105.885 105.645 105.42 105.17
89.357 89.52 89.652 89.81 89.932 90.042 90.182 90.337 90.512 90.685 90.852 91.007 91.132 91.237 91.31 91.445 91.585 91.7 91.807 91.897 91.99 92.065 92.137 92.225 92.36 92.46 92.59 92.747 92.9 93.117 93.39 93.682 94.067 94.515 94.982 95.455 95.837 96.04 96.237 96.435 96.512 96.487 96.595 96.355 96.272 96.207 96.697 98.122 98.425 100.01 100.95 98.232 97.79 97.892 98.07 98.21 98.38 98.522 98.677 98.832 99.03 99.295 99.54 99.802 99.995 100.257 100.497 100.675 100.827 100.99 101.12 101.235 101.345 101.477 101.617 101.765 101.927 102.057 102.212 102.382 102.535 102.707 102.85 103 103.17 103.305 103.487 103.65 103.807 103.977 104.087 104.232 104.392 104.537 104.66 104.797 104.945 105.112 105.227 105.355 105.5 105.652 105.772 105.915 106.055 106.23 106.387 106.57 106.732 106.912 107.067 107.235 107.4 107.552 107.677 107.802 107.932 108.072 108.185 108.315 108.425 108.562 108.702 108.86 108.992 109.132 109.22 109.335 109.447 109.545 109.632 109.772 109.867 109.977 110.07 110.155 110.242 110.352 110.415 110.542 110.622 110.762 110.945 111.13 111.32 111.447 111.517 111.585 111.612 111.687 111.735 111.81 111.935 112.007 112.11 112.195 112.282 112.395 112.487 112.642 112.737 112.832 112.957 113.042 113.147 113.26 113.35 113.457 113.567 113.65 113.722 113.772 113.877 114.775 113.952 114.077 114.182 114.317 114.427 114.535 114.782 115 114.965 115.105 115.235 115.362 115.432 115.622 115.715 115.795 115.905 116.185 117.995 116.485 117.065 117.97 116.507 116.64 116.712 116.732 116.767 116.822 116.885 116.987 117.045 117.125 117.162 117.23 117.262 117.317 117.38 117.427 117.462 117.5 117.552 117.61 117.64 117.68 117.715 117.772 117.79 117.84 117.87 117.89 117.902 117.897 117.905 117.83 118.115 117.977 117.827 117.792 117.752 117.725 118.44 117.722 117.737 117.765 118.197 118.43 117.907 118.29 118.325 117.925 118.235 118.177 118.357 119.367 118.69 118.92 118.75 118.52 118.275 118.43 118.43 118.712 118.62 118.322 118.26 118.322 118.492 120.017 118.982 118.477 118.5 118.487 118.507 118.49 118.515 118.542 118.537 118.507 118.49 118.497 118.5 118.51 118.502 118.477 118.482 118.462 118.462 118.422 118.412 118.392 118.362 118.315 118.285 118.255 118.25 118.2 118.212 118.212 118.2 118.24 118.25 118.227 118.222 118.215 118.187 118.16 118.12 118.057 118.012 117.955 117.912 117.885 117.842 117.815 117.76 117.702 117.657 117.607 117.507 117.415 117.322 117.23 117.147 117.025 116.92 116.837 116.712 116.61 116.522 116.45 116.385 116.31 116.235 116.167 116.087 116.012 115.93 115.84 115.765 115.652 115.595 115.457 115.367 115.275 115.197 115.125 115.02 114.902 114.78 114.675 114.58 114.5 114.405 114.287 114.205 114.11 114.06 113.942 113.817 113.752 113.637 113.527 113.42 113.287 113.115 112.93 112.725 112.457 112.262 112.232 112.157 112.037 111.935 111.832 111.697 111.66 111.302 111.202 111 110.83 110.687 110.527 110.385 110.235 110.07 109.925 109.762 109.63 109.512 109.365 109.232 109.097 108.955 108.8 108.65 108.502 108.352 108.21 108.067 107.91 107.76 107.612 107.47 107.4 107.312 107.002 106.76 106.722 106.617 106.435 106.287 106.105 105.897 105.647 105.375 105.16
89.55 89.737 89.875 90.035 90.15 90.292 90.442 90.55 90.74 90.887 91.082 91.227 91.407 91.45 91.527 91.675 91.775 91.9 91.997 92.14 92.19 92.29 92.392 92.462 92.58 92.732 92.852 93.02 93.225 93.465 93.705 94.02 94.357 94.742 95.19 95.665 95.99 96.167 96.38 96.552 96.64 96.812 96.715 96.507 96.455 96.362 98.115 102.975 102.805 98.45 97.895 97.992 98.065 98.192 98.352 98.49 98.627 98.797 99 99.21 99.445 99.687 99.922 100.15 100.415 100.637 100.842 101.017 101.135 101.265 101.397 101.51 101.657 101.802 101.945 102.087 102.24 102.39 102.557 102.7 102.857 103.012 103.187 103.345 103.517 103.67 103.83 103.97 104.145 104.287 104.422 104.567 104.692 104.827 104.967 105.122 105.275 105.422 105.542 105.675 105.817 105.942 106.065 106.197 106.37 106.535 106.687 106.877 107.1 107.282 107.46 107.61 107.735 107.87 108 108.117 108.252 108.385 108.495 108.62 108.78 108.895 109.04 109.192 109.337 109.44 109.552 109.677 109.782 109.895 110.012 110.135 110.192 110.3 110.382 110.46 110.565 110.672 110.782 110.905 111.022 111.117 111.262 111.437 111.617 111.727 111.762 111.825 111.85 111.922 112.007 112.075 112.2 112.31 112.417 112.515 112.632 112.7 112.827 112.962 113.067 113.177 113.27 113.362 113.46 113.565 113.665 113.78 113.907 113.952 113.992 114.06 115.137 117.225 114.472 114.405 114.547 114.685 114.777 117.07 117.462 116.66 115.307 115.405 115.5 115.615 115.66 115.81 115.957 116.085 116.145 117.045 119.622 117.15 119.265 117.225 116.672 116.84 116.89 116.922 116.97 117.017 118.625 117.947 117.26 117.29 117.372 117.465 117.477 117.54 117.6 117.625 117.647 117.715 117.74 117.785 117.832 117.882 117.907 117.967 117.977 118.027 118.065 118.155 118.137 118.215 118.102 118.535 119.205 118.8 118.647 118.737 118.06 118.06 118.115 118.357 118.052 118.09 118.78 118.695 118.392 118.562 118.475 118.462 118.495 118.547 118.605 119.537 118.752 118.89 118.865 118.657 118.542 118.822 118.842 120.112 118.78 118.875 118.967 118.74 118.702 118.715 118.727 118.765 118.742 118.75 118.77 118.747 118.762 118.772 118.777 118.775 118.75 118.742 118.74 118.747 118.742 118.73 118.715 118.71 118.687 118.65 118.637 118.63 118.587 118.562 118.537 118.482 118.482 118.452 118.45 118.457 118.47 118.477 118.5 118.502 118.482 118.462 118.427 118.41 118.37 118.305 118.28 118.212 118.167 118.13 118.11 118.05 118.002 117.935 117.857 117.805 117.715 117.625 117.535 117.45 117.337 117.22 117.107 117.01 116.917 116.837 116.755 116.675 116.59 116.505 116.427 116.342 116.287 116.195 116.13 116.015 115.932 115.867 115.75 115.652 115.56 115.452 115.33 115.26 115.15 115.047 114.917 114.812 114.707 114.58 114.48 114.38 114.277 114.192 114.1 114.035 113.927 113.86 113.765 113.625 113.49 113.377 113.24 113.05 112.835 112.607 112.337 112.24 112.192 112.09 111.97 112.512 112.212 112.027 111.487 111.3 111.145 111.01 110.845 110.657 110.497 110.35 110.2 110.042 109.895 109.765 109.627 109.467 109.317 109.175 109.007 108.84 108.71 108.522 108.355 108.207 108.042 107.892 107.755 107.625 107.522 107.335 106.977 106.88 106.84 106.727 106.567 106.475 106.292 106.072 105.84 105.632 105.397 105.17
89.745 89.932 90.102 90.257 90.405 90.517 90.64 90.782 90.925 91.112 91.29 91.465 91.682 91.685 91.78 91.887 92 92.11 92.23 92.297 92.415 92.515 92.637 92.68 92.807 92.982 93.135 93.315 93.56 93.847 94.097 94.4 94.692 95.04 95.397 95.78 96.072 96.295 96.56 96.732 97.04 97.337 96.745 96.695 96.627 96.75 99.572 102.82 101.472 98.77 98.15 98.25 98.367 98.49 98.615 98.755 98.902 99.092 99.305 99.54 99.757 100.025 100.287 100.545 100.77 100.982 101.12 101.272 101.43 101.555 101.697 101.83 101.965 102.097 102.242 102.405 102.557 102.7 102.862 103.06 103.22 103.367 103.535 103.69 103.817 103.98 104.13 104.277 104.42 104.582 104.715 104.847 104.987 105.147 105.285 105.435 105.575 105.715 105.852 105.977 106.097 106.25 106.362 106.497 106.692 106.857 107.065 107.282 107.47 107.64 107.785 107.917 108.05 108.19 108.317 108.44 108.592 108.717 108.83 108.965 109.125 109.242 109.412 109.545 109.667 109.775 109.91 110.012 110.11 110.205 110.33 110.417 110.51 110.585 110.705 110.817 110.905 111.012 111.135 111.245 111.36 111.437 111.562 111.742 111.892 111.98 112.052 112.082 112.142 112.227 112.312 112.392 112.507 112.612 112.737 112.842 112.96 113.032 113.162 113.255 113.36 113.455 113.57 113.662 113.77 113.85 113.975 114.105 114.19 114.255 114.327 114.385 114.78 115.7 114.692 114.755 114.887 115.042 115.197 117.715 117.857 115.482 115.582 115.675 115.787 115.92 116.26 116.36 116.27 116.632 116.662 116.672 117.552 117.597 118.89 117.242 116.867 116.94 117.02 117.077 117.227 118.587 119.76 117.535 117.482 117.495 117.57 117.63 117.692 117.73 117.775 117.812 117.85 117.897 117.937 117.967 117.997 118.032 118.085 118.125 118.19 118.247 118.317 119.082 118.41 118.407 118.387 118.612 119.18 118.98 118.465 118.985 119.27 119.025 119.277 119.02 118.655 118.722 118.73 118.66 118.765 119.15 118.742 119.007 118.852 119.317 118.697 119.405 119.607 119.95 119.765 119.385 118.862 119.012 120.337 122.352 119.885 119.072 118.957 118.907 118.985 119.002 119.022 119.017 119.027 119.01 119.027 119.03 119.04 119.027 119.037 119.032 119.017 118.992 118.987 118.965 118.96 118.975 118.965 118.927 118.917 118.885 118.88 118.842 118.812 118.782 118.767 118.725 118.702 118.685 118.705 118.697 118.722 118.752 118.75 118.76 118.735 118.72 118.705 118.662 118.615 118.53 118.51 118.47 118.417 118.375 118.337 118.295 118.215 118.157 118.057 117.99 117.94 117.867 117.782 117.692 117.527 117.407 117.32 117.22 117.162 117.075 116.987 116.922 116.805 116.73 116.645 116.565 116.51 116.402 116.335 116.217 116.13 116.027 115.917 115.81 115.697 115.617 115.495 115.395 115.262 115.155 115.03 114.925 114.837 114.702 114.612 114.46 114.37 114.287 114.187 114.095 114 113.945 113.84 113.72 113.58 113.472 113.292 113.102 113.037 112.675 112.442 112.342 112.255 112.12 112.347 112.325 112.682 111.977 111.672 111.567 111.405 111.227 111.03 110.822 110.642 110.477 110.345 110.197 110.037 109.902 109.732 109.557 109.4 109.217 109.057 108.877 108.697 108.54 108.337 108.182 108.012 107.882 107.807 107.7 107.37 107.09 107.03 106.962 106.837 106.72 106.562 106.387 106.227 106.04 105.845 105.662 105.432 105.195
89.952 90.152 90.317 90.485 90.605 90.735 90.837 90.977 91.157 91.307 91.485 91.677 91.92 91.925 91.98 92.085 92.2 92.33 92.425 92.517 92.62 92.76 92.855 92.935 93.08 93.25 93.45 93.69 93.937 94.212 94.482 94.775 95.08 95.35 95.642 95.947 96.212 96.52 96.77 96.975 97.765 97.25 96.95 96.9 96.812 97.527 101.955 100.185 99.337 98.397 98.47 98.56 98.647 98.757 98.885 99.052 99.23 99.417 99.62 99.862 100.15 100.397 100.64 100.887 101.125 101.277 101.407 101.582 101.742 101.885 102.012 102.137 102.252 102.387 102.552 102.7 102.88 103.06 103.207 103.39 103.52 103.67 103.842 104 104.142 104.285 104.422 104.575 104.727 104.87 105.002 105.11 105.29 105.442 105.585 105.735 105.882 106.015 106.125 106.252 106.405 106.545 106.715 106.9 107.075 107.267 107.47 107.667 107.827 107.977 108.112 108.247 108.385 108.537 108.68 108.797 108.925 109.077 109.212 109.35 109.477 109.625 109.735 109.855 109.992 110.1 110.202 110.307 110.417 110.535 110.65 110.732 110.822 110.932 111.04 111.117 111.232 111.352 111.45 111.57 111.647 111.73 111.867 112.032 112.175 112.26 112.347 112.4 112.46 112.532 112.615 112.707 112.832 112.952 113.065 113.162 113.255 113.34 113.435 113.565 113.67 113.77 113.895 114.012 114.09 114.162 114.27 114.395 114.487 114.575 114.667 114.725 114.807 114.88 114.985 115.102 115.187 115.32 115.422 115.907 115.942 115.702 115.862 115.96 116.07 119.172 117.107 117.635 118.615 116.707 117.397 117.21 116.73 117.432 119.395 118.327 117.06 117.167 117.207 117.232 117.332 117.432 118.28 117.55 117.65 117.672 117.732 117.797 117.84 117.89 117.94 117.98 117.99 118.075 118.165 118.19 118.162 118.227 119.25 118.952 118.77 118.662 119.297 120.472 118.807 119.51 118.892 119.202 118.962 120.63 118.882 119.562 119.117 119.04 119.745 121.157 120.637 119.197 119.367 119.245 119.325 120 121.745 119.51 119.135 119.092 119.117 119.105 119.232 119.522 119.607 119.43 119.095 119.495 119.38 120.745 120.295 119.185 119.175 119.202 119.24 119.262 119.265 119.267 119.287 119.29 119.282 119.312 119.302 119.302 119.32 119.295 119.282 119.252 119.195 119.175 119.15 119.19 119.17 119.137 119.12 119.105 119.075 119.04 119.03 119.015 118.987 118.96 118.952 118.952 118.957 118.962 118.987 118.982 118.975 118.95 118.95 118.922 118.877 118.842 118.805 118.732 118.725 118.675 118.627 118.572 118.535 118.497 118.45 118.357 118.25 118.205 118.14 118.065 118.007 117.86 117.727 117.645 117.567 117.522 117.462 117.38 117.272 117.175 117.055 116.945 116.847 116.767 116.69 116.6 116.535 116.407 116.327 116.217 116.092 116.007 115.897 115.78 115.66 115.565 115.437 115.327 115.2 115.095 114.98 114.85 114.742 114.58 114.487 114.355 114.3 114.217 114.112 114.035 113.952 113.84 113.692 113.57 113.4 113.2 113.022 112.782 112.587 112.405 112.322 112.227 112.717 112.73 112.19 112.11 111.76 111.63 111.582 111.535 111.227 111.042 110.767 110.632 110.447 110.29 110.145 109.957 109.79 109.617 109.452 109.28 109.08 108.88 108.705 108.532 108.375 108.212 108.035 107.95 107.787 107.462 107.272 107.192 107.082 106.942 106.807 106.66 106.512 106.367 106.217 106.072 105.897 105.697 105.457 105.21
90.18 90.352 90.537 90.712 90.85 91 91.102 91.207 91.347 91.517 91.687 91.88 92.062 92.17 92.207 92.305 92.432 92.547 92.637 92.737 92.84 92.965 93.052 93.2 93.375 93.587 93.84 94.097 94.362 94.627 94.895 95.192 95.437 95.68 95.92 96.16 96.462 96.762 97.025 97.472 97.85 97.18 97.137 97.047 99.07 99.715 101.885 99.747 98.817 98.72 98.817 98.905 98.982 99.055 99.162 99.295 99.505 99.695 99.907 100.187 100.472 100.715 100.985 101.235 101.41 101.57 101.74 101.89 102.032 102.15 102.292 102.42 102.557 102.702 102.875 103.015 103.182 103.377 103.505 103.682 103.845 103.977 104.15 104.305 104.462 104.607 104.75 104.887 105.015 105.152 105.287 105.44 105.605 105.76 105.877 106.025 106.165 106.317 106.452 106.602 106.752 106.932 107.075 107.27 107.442 107.632 107.812 108.007 108.187 108.305 108.475 108.61 108.77 108.9 109.04 109.167 109.305 109.437 109.572 109.712 109.827 109.942 110.06 110.172 110.315 110.415 110.527 110.61 110.727 110.887 110.982 111.055 111.147 111.255 111.36 111.465 111.545 111.652 111.72 111.835 111.905 112.01 112.152 112.327 112.452 112.552 112.655 112.745 112.81 112.872 112.962 113.022 113.135 113.277 113.382 113.485 113.57 113.662 113.777 113.895 114.037 114.162 114.255 114.357 114.455 114.492 114.585 114.697 114.8 114.862 114.975 115.05 115.132 115.185 115.29 115.372 115.485 115.617 115.725 115.807 115.865 117.38 117.852 116.22 116.332 117.072 117.402 120.047 119.622 117.165 116.827 117.74 117.807 117.325 120.795 118.882 117.235 117.57 117.43 117.437 117.5 117.572 117.647 117.697 117.785 117.842 117.892 117.942 118.02 118.015 118.07 118.125 118.222 118.312 118.542 118.767 118.387 121.017 120.82 119.607 119.347 119.085 121.347 119.345 119.717 122.18 119.53 119.675 120.657 121.035 120.225 120.42 119.507 120.16 119.382 122.972 121.762 119.517 119.622 119.805 121.55 119.715 120.362 119.572 119.545 119.53 119.507 119.482 119.48 119.457 119.455 119.622 119.48 119.645 119.512 119.417 119.447 119.452 119.462 119.467 119.487 119.497 119.507 119.507 119.522 119.532 119.542 119.53 119.545 119.54 119.53 119.532 119.512 119.492 119.47 119.837 120.415 120.52 119.375 119.34 119.335 119.315 119.337 119.31 119.28 119.255 119.23 119.19 119.18 119.17 119.167 119.19 119.207 119.207 119.19 119.175 119.147 119.11 119.072 119.015 118.972 118.935 118.915 118.865 118.805 118.797 118.745 118.707 118.665 118.585 118.482 118.37 118.29 118.245 118.18 118.097 117.995 117.922 117.897 117.837 117.772 117.705 117.605 117.45 117.32 117.177 117.075 116.962 116.895 116.812 116.717 116.602 116.507 116.427 116.297 116.197 116.08 115.962 115.842 115.745 115.607 115.497 115.377 115.242 115.127 114.995 114.88 114.757 114.635 114.522 114.402 114.312 114.232 114.152 114.007 113.932 113.812 113.642 113.465 113.262 113.062 112.867 112.645 112.502 112.365 112.302 112.212 112.03 112.077 111.927 111.752 111.907 111.935 111.882 111.387 111.06 110.887 110.712 110.545 110.362 110.207 110.012 109.822 109.652 109.48 109.32 109.14 108.962 108.795 108.61 108.422 108.307 108.172 107.89 107.54 107.432 107.34 107.19 107.057 106.92 106.792 106.66 106.505 106.377 106.24 106.107 105.917 105.74 105.507 105.297
90.375 90.555 90.752 90.917 91.075 91.222 91.337 91.437 91.56 91.735 91.902 92.077 92.227 92.41 92.447 92.517 92.63 92.747 92.882 92.975 93.09 93.2 93.315 93.482 93.715 93.975 94.222 94.487 94.74 95.025 95.322 95.572 95.797 96.012 96.242 96.472 96.772 97.04 97.372 97.695 97.445 97.362 97.29 97.575 99.05 101.725 102.725 99.152 98.95 99.037 99.14 99.215 99.325 99.4 99.52 99.66 99.842 100.01 100.255 100.545 100.832 101.092 101.305 101.495 101.685 101.867 102.032 102.17 102.277 102.422 102.57 102.717 102.852 103 103.16 103.34 103.545 103.675 103.82 104 104.155 104.312 104.462 104.62 104.745 104.887 105.04 105.185 105.352 105.47 105.612 105.74 105.887 106.042 106.177 106.34 106.485 106.647 106.825 106.965 107.105 107.285 107.43 107.625 107.81 108.002 108.18 108.352 108.542 108.682 108.827 108.98 109.125 109.27 109.407 109.527 109.652 109.785 109.915 110.035 110.142 110.26 110.382 110.505 110.655 110.735 110.877 110.975 111.092 111.2 111.287 111.355 111.455 111.557 111.632 111.747 111.845 111.925 112.042 112.16 112.235 112.347 112.477 112.632 112.79 112.907 113 113.06 113.14 113.205 113.265 113.33 113.452 113.617 113.74 113.822 113.922 114.032 114.132 114.242 114.352 114.455 114.545 114.672 114.74 114.807 114.862 114.94 115.062 115.157 115.25 115.325 115.405 115.48 115.57 115.675 115.787 115.895 115.992 116.105 116.485 120.002 118.43 116.522 116.625 117.107 119.992 120.03 117.242 116.995 118.502 118.337 117.165 117.247 120.22 118.847 117.925 118.022 117.647 117.637 117.682 117.772 117.85 117.952 118.417 118.062 118.275 118.27 118.222 118.402 118.412 118.625 118.58 118.695 119.327 119.122 118.83 119.515 119.972 119.167 119.265 119.907 120.902 119.602 119.71 120.967 119.847 119.9 120.405 120.545 120.175 119.99 120.457 122.33 120.517 122.732 122.987 119.86 119.967 119.962 119.952 119.96 119.96 119.95 119.93 119.902 119.885 119.862 119.867 119.865 119.9 119.987 119.815 119.785 119.765 119.775 119.755 119.745 119.725 119.725 119.75 119.737 119.745 119.755 119.777 119.782 119.782 119.815 119.827 119.835 119.807 119.797 119.792 119.775 119.762 120.515 120.71 119.957 119.632 119.592 119.6 119.605 119.595 119.572 119.56 119.497 119.47 119.465 119.447 119.442 119.407 119.402 119.417 119.41 119.397 119.365 119.315 119.28 119.217 119.195 119.157 119.145 119.095 119.065 119.025 118.992 118.957 118.915 118.857 118.775 118.67 118.52 118.45 118.397 118.39 118.32 118.255 118.212 118.175 118.145 118.107 118.042 117.972 117.79 117.61 117.42 117.295 117.17 117.082 116.977 116.897 116.8 116.702 116.605 116.472 116.365 116.252 116.13 115.995 115.895 115.785 115.675 115.55 115.42 115.295 115.182 115.042 114.915 114.775 114.69 114.557 114.432 114.342 114.26 114.135 114.037 113.902 113.732 113.557 113.4 113.147 112.907 112.722 112.585 112.502 112.352 112.212 112.065 111.977 111.912 111.802 112.03 111.87 111.777 111.442 111.14 110.967 110.82 110.63 110.447 110.262 110.085 109.885 109.722 109.537 109.362 109.19 108.997 108.825 108.665 108.522 108.325 107.952 107.7 107.6 107.47 107.35 107.202 107.05 106.912 106.777 106.667 106.54 106.412 106.27 106.125 105.952 105.787 105.602 105.375
90.62 90.8 90.957 91.162 91.31 91.447 91.585 91.685 91.807 91.96 92.13 92.31 92.43 92.615 92.722 92.747 92.86 92.972 93.095 93.187 93.337 93.457 93.647 93.837 94.1 94.347 94.632 94.88 95.147 95.43 95.712 95.922 96.15 96.342 96.575 96.825 97.105 97.357 97.765 97.747 97.59 97.525 97.512 99.84 100.527 101.21 100.567 99.092 99.257 99.345 99.457 99.585 99.695 99.797 99.917 100.075 100.227 100.41 100.655 100.97 101.225 101.445 101.62 101.8 101.97 102.112 102.267 102.412 102.552 102.707 102.857 102.985 103.117 103.295 103.445 103.637 103.817 103.975 104.125 104.275 104.445 104.592 104.735 104.895 105.045 105.187 105.312 105.46 105.61 105.737 105.9 106.037 106.175 106.34 106.502 106.682 106.847 107 107.157 107.307 107.46 107.605 107.77 107.957 108.182 108.387 108.562 108.745 108.89 109.027 109.185 109.332 109.455 109.572 109.722 109.83 109.952 110.09 110.227 110.345 110.472 110.605 110.697 110.827 110.967 111.067 111.215 111.302 111.405 111.472 111.582 111.657 111.745 111.867 111.957 112.072 112.167 112.262 112.382 112.49 112.6 112.71 112.825 112.957 113.117 113.235 113.31 113.405 113.475 113.532 113.6 113.697 113.812 113.967 114.07 114.187 114.28 114.365 114.467 114.54 114.635 114.702 114.827 114.932 115.012 115.082 115.132 115.232 115.357 115.44 115.555 115.635 115.692 115.767 115.87 115.992 116.08 116.182 116.315 116.402 116.607 117.817 117.47 116.795 116.927 117.007 117.942 119.132 118.012 118.705 119.615 119 119.2 118.642 117.84 118.125 118.272 117.97 117.93 118.31 119.362 118.04 118.267 119.755 120.67 118.505 119.415 119.15 119.037 118.912 118.795 118.905 118.93 119.215 119.812 119.2 119.495 119.742 119.495 119.487 119.665 119.815 119.975 120.037 120.147 120.22 120.23 120.165 120.262 120.242 120.26 120.247 120.232 120.917 120.562 120.552 121.487 120.277 120.33 120.337 120.36 120.355 120.347 120.34 120.307 120.267 120.25 120.222 120.225 120.227 120.18 120.097 120.08 120.09 120.095 120.105 120.092 120.057 120.045 120.047 120.03 120.015 119.992 120.01 120.02 120.025 120.027 120.052 120.05 120.075 120.072 120.06 120.047 120.035 120.002 119.992 119.932 119.922 119.887 119.9 119.92 119.885 119.865 119.84 119.777 119.742 119.73 119.707 119.687 119.685 120.37 120.842 119.63 119.602 119.592 119.552 119.487 119.462 119.415 119.39 119.367 119.327 119.285 119.25 119.217 119.172 119.145 119.11 119.055 118.952 118.84 118.705 118.652 118.617 118.61 118.572 118.51 118.467 118.435 118.407 118.407 118.397 118.375 118.22 117.992 117.755 117.567 117.43 117.327 117.23 117.117 117 116.887 116.767 116.627 116.487 116.392 116.255 116.147 116.05 115.937 115.79 115.677 115.58 115.435 115.312 115.167 115.04 114.932 114.79 114.687 114.56 114.45 114.347 114.27 114.16 114.005 113.84 113.63 113.457 113.24 112.992 112.817 112.635 112.552 112.415 112.277 112.14 111.96 112.04 111.837 111.89 111.915 111.62 111.437 111.22 111.015 110.855 110.685 110.527 110.342 110.162 109.97 109.777 109.57 109.362 109.19 108.992 108.862 108.7 108.405 108.052 107.897 107.822 107.68 107.525 107.375 107.215 107.055 106.92 106.807 106.705 106.56 106.425 106.277 106.14 106.017 105.865 105.665 105.397
90.822 90.987 91.165 91.357 91.515 91.672 91.83 91.95 92.06 92.182 92.355 92.502 92.66 92.812 92.99 92.997 93.1 93.207 93.33 93.447 93.617 93.817 93.992 94.225 94.517 94.78 95.03 95.282 95.567 95.807 96.067 96.282 96.482 96.692 96.922 97.177 97.447 97.68 98.062 97.855 97.765 97.697 98.095 99.597 101.242 100.627 99.257 99.407 99.522 99.62 99.752 99.885 100.027 100.172 100.35 100.525 100.662 100.862 101.117 101.42 101.64 101.802 101.96 102.12 102.27 102.402 102.542 102.695 102.832 102.975 103.115 103.28 103.42 103.562 103.75 103.9 104.085 104.24 104.387 104.53 104.702 104.887 105.025 105.167 105.312 105.437 105.592 105.732 105.872 106.015 106.162 106.315 106.502 106.68 106.832 107.012 107.195 107.355 107.49 107.642 107.795 107.957 108.142 108.352 108.57 108.78 108.942 109.117 109.247 109.38 109.53 109.662 109.767 109.89 110.027 110.152 110.29 110.42 110.54 110.685 110.795 110.932 111.035 111.17 111.272 111.382 111.497 111.605 111.712 111.795 111.887 111.965 112.092 112.195 112.292 112.422 112.532 112.62 112.732 112.855 112.957 113.037 113.14 113.287 113.432 113.557 113.65 113.715 113.787 113.877 113.972 114.085 114.167 114.287 114.405 114.485 114.582 114.665 114.737 114.822 114.887 115.007 115.105 115.2 115.31 115.375 115.427 115.502 115.685 115.755 115.872 115.977 116.005 116.097 116.18 116.28 116.405 116.487 116.622 116.72 116.767 116.857 116.985 117.112 117.24 117.33 117.357 118.062 118.382 117.587 118.107 117.82 118.71 117.96 118.007 118.107 118.287 118.212 118.282 118.532 121.542 119.922 118.677 121.692 122.097 119.01 119.102 118.96 120.932 122.755 119.29 119.15 119.24 119.305 120.267 119.392 119.432 119.522 119.652 119.842 120.005 120.12 120.255 120.365 120.435 120.487 120.512 120.462 120.457 120.475 120.527 120.567 120.56 120.562 120.595 120.61 120.655 120.685 120.712 120.705 120.737 120.737 120.715 120.68 120.702 120.652 120.64 120.605 120.572 120.565 120.515 120.475 120.44 120.435 120.455 120.43 120.387 120.365 120.345 120.325 120.307 120.302 120.28 120.275 120.267 120.28 120.282 120.282 120.307 120.332 120.345 120.315 120.315 120.275 120.245 120.215 120.177 120.18 120.17 120.162 120.157 120.12 120.095 120.072 120.025 119.98 119.952 119.91 119.92 119.882 120.092 121.17 119.887 119.845 119.817 119.795 119.735 119.665 119.637 119.605 119.602 119.545 119.512 119.472 119.39 119.335 119.305 119.277 119.227 119.127 119.005 118.88 118.832 118.785 118.775 118.765 118.7 118.675 118.655 118.652 118.665 118.657 118.695 118.58 118.385 118.115 117.92 117.772 117.672 117.552 117.412 117.27 117.102 116.93 116.805 116.645 116.522 116.392 116.275 116.157 116.042 115.945 115.84 115.692 115.577 115.457 115.285 115.162 115.075 114.952 114.812 114.697 114.602 114.515 114.372 114.24 114.087 113.902 113.735 113.53 113.31 113.087 112.892 112.727 112.592 112.462 112.34 112.18 112.077 111.955 111.852 111.827 111.747 111.62 111.435 111.257 111.137 110.937 110.79 110.6 110.387 110.18 109.97 109.772 109.57 109.335 109.2 109.082 108.88 108.51 108.247 108.162 108.055 107.887 107.717 107.555 107.372 107.235 107.082 106.97 106.845 106.702 106.572 106.422 106.3 106.157 106.035 105.852 105.62 105.337
91.052 91.21 91.39 91.567 91.75 91.917 92.057 92.165 92.307 92.435 92.567 92.717 92.887 93.007 93.262 93.262 93.335 93.477 93.58 93.705 93.932 94.102 94.347 94.62 94.93 95.165 95.422 95.685 95.952 96.155 96.405 96.622 96.835 97.045 97.272 97.55 97.76 98.135 98.022 97.965 97.922 98.027 99.242 100.985 101.217 99.427 99.475 99.655 99.762 99.875 100.017 100.17 100.342 100.527 100.71 100.895 101.087 101.315 101.575 101.852 102.035 102.192 102.36 102.505 102.645 102.74 102.872 103.005 103.125 103.265 103.402 103.56 103.715 103.845 104.007 104.177 104.32 104.5 104.635 104.79 104.957 105.12 105.265 105.415 105.547 105.705 105.842 106.015 106.17 106.3 106.472 106.625 106.807 107.007 107.162 107.35 107.522 107.677 107.825 107.972 108.125 108.312 108.555 108.777 108.957 109.157 109.32 109.457 109.605 109.717 109.84 109.975 110.092 110.19 110.365 110.522 110.63 110.755 110.887 111 111.12 111.25 111.375 111.492 111.615 111.725 111.827 111.922 112.005 112.11 112.202 112.307 112.41 112.522 112.647 112.737 112.842 112.935 113.05 113.162 113.25 113.362 113.477 113.63 113.77 113.917 114.01 114.077 114.137 114.207 114.3 114.415 114.487 114.565 114.695 114.785 114.895 114.962 115.035 115.117 115.197 115.312 115.407 115.512 115.605 115.702 115.745 115.827 115.992 116.06 116.182 116.3 116.335 116.42 116.477 116.61 116.73 116.835 116.97 117.037 117.11 117.207 117.315 117.435 117.547 117.645 117.7 117.71 117.807 117.895 117.985 118.077 118.132 118.225 118.285 118.4 118.422 118.465 118.552 118.642 119.66 121.325 119.33 120.687 119.267 119.41 119.317 119.267 121.127 122.9 119.805 119.427 119.53 119.567 119.615 119.672 119.71 119.782 119.955 120.112 120.232 120.35 120.457 120.587 120.67 120.695 120.742 120.72 120.745 120.792 120.787 120.837 120.875 120.89 120.857 120.935 121.027 121.035 121.062 121.082 121.117 121.12 121.117 121.107 121.105 121.092 121.047 121.032 121.037 120.997 120.945 121.55 120.957 120.817 120.805 120.805 120.747 120.727 120.687 120.652 120.617 120.592 120.597 120.567 120.55 120.547 120.54 120.532 120.532 120.552 120.532 120.542 120.525 120.5 120.475 120.485 120.457 120.442 120.415 120.392 120.4 120.375 120.357 120.327 120.282 120.242 120.22 120.17 120.175 120.157 120.15 120.137 120.127 120.155 120.127 120.09 120.067 120.07 120.05 119.995 119.882 119.805 119.742 119.652 119.557 119.472 119.442 119.392 119.365 119.31 119.185 119.07 119.01 118.97 118.96 118.957 118.922 118.88 118.847 118.85 118.865 118.9 118.895 118.802 118.58 118.372 118.21 118.115 118.002 117.887 117.735 117.575 117.357 117.145 116.985 116.825 116.672 116.557 116.395 116.3 116.197 116.06 115.955 115.852 115.71 115.585 115.442 115.325 115.19 115.067 115 114.877 114.757 114.627 114.485 114.345 114.187 113.965 113.825 113.645 113.47 113.235 113.042 112.865 112.675 112.565 112.422 112.275 112.135 112.015 111.892 111.8 111.69 111.57 111.432 111.285 111.127 110.97 110.752 110.542 110.327 110.142 109.927 109.75 109.562 109.43 109.31 109.085 108.687 108.502 108.412 108.275 108.115 107.925 107.762 107.6 107.45 107.32 107.13 106.982 106.845 106.722 106.575 106.445 106.295 106.152 105.942 105.72 105.5 105.282
91.275 91.44 91.632 91.815 91.977 92.157 92.285 92.407 92.55 92.68 92.795 92.952 93.112 93.237 93.48 93.572 93.617 93.725 93.877 94.032 94.275 94.497 94.747 95.005 95.322 95.602 95.835 96.08 96.262 96.522 96.755 96.98 97.157 97.36 97.657 97.887 98.135 98.332 98.175 98.11 98.11 98.775 99.367 100.885 103.165 99.832 99.732 99.902 100.01 100.147 100.275 100.445 100.637 100.805 100.985 101.197 101.407 101.702 101.997 102.227 102.447 102.617 102.767 102.887 103.03 103.117 103.232 103.37 103.512 103.605 103.735 103.887 104.015 104.195 104.375 104.485 104.627 104.795 104.935 105.077 105.235 105.39 105.53 105.687 105.817 105.967 106.125 106.295 106.422 106.567 106.765 106.925 107.125 107.312 107.492 107.712 107.887 107.99 108.145 108.3 108.472 108.66 108.945 109.157 109.367 109.54 109.697 109.8 109.887 110.01 110.125 110.285 110.452 110.56 110.717 110.835 110.967 111.085 111.21 111.317 111.437 111.585 111.712 111.827 111.94 112.015 112.127 112.23 112.317 112.4 112.512 112.63 112.742 112.835 112.93 113.055 113.132 113.24 113.362 113.475 113.562 113.655 113.795 113.955 114.107 114.232 114.34 114.42 114.477 114.557 114.647 114.732 114.775 114.892 114.985 115.082 115.177 115.305 115.357 115.437 115.495 115.627 115.722 115.812 115.93 116.002 116.075 116.172 116.312 116.402 116.505 116.585 116.655 116.745 116.792 116.922 117.062 117.185 117.295 117.37 117.45 117.505 117.652 117.74 117.847 117.965 118.015 118.025 118.122 118.182 118.277 118.382 118.435 118.495 118.567 118.677 118.727 118.765 118.877 118.975 119.11 119.99 119.625 120.352 120.325 119.605 119.522 119.642 120.57 120.58 119.592 119.675 119.76 119.832 119.872 119.905 119.95 120.05 120.202 120.312 120.45 120.547 120.67 120.745 120.842 120.862 120.895 120.93 120.967 121.012 121.017 121.072 121.127 121.205 123.157 125.337 121.767 121.39 121.405 121.41 121.452 121.467 121.472 121.477 121.472 121.455 121.467 121.432 121.41 121.387 121.905 124.385 123.307 121.245 121.172 121.15 121.085 121.057 121.007 120.99 120.962 120.917 120.872 120.885 120.837 120.82 120.792 120.78 120.775 120.792 120.76 120.78 120.752 120.742 120.72 120.695 120.68 120.66 120.65 120.642 120.65 120.605 120.575 120.565 120.53 120.522 120.485 120.465 120.455 120.46 120.432 120.44 120.432 120.447 120.43 120.462 120.47 120.497 120.487 120.395 120.232 120.087 119.962 119.877 119.775 119.665 119.617 119.537 119.502 119.407 119.3 119.242 119.187 119.197 119.18 119.167 119.115 119.032 119 118.992 118.987 119.017 119 118.907 118.705 118.555 118.41 118.332 118.257 118.212 118.177 117.995 117.71 117.39 117.177 117.01 116.885 116.717 116.562 116.45 116.312 116.192 116.072 115.975 115.84 115.69 115.577 115.46 115.322 115.222 115.092 114.995 114.875 114.792 114.617 114.445 114.267 114.112 113.92 113.735 113.575 113.402 113.207 113.01 112.825 112.65 112.502 112.362 112.17 112.055 111.935 111.795 111.715 111.56 111.39 111.222 111.042 110.842 110.667 110.5 110.342 110.107 109.907 109.807 109.677 109.58 109.207 108.87 108.775 108.682 108.51 108.337 108.155 107.987 107.835 107.677 107.515 107.345 107.162 106.997 106.845 106.68 106.54 106.372 106.192 106.045 105.797 105.625 105.425 105.22
