ncols 471
nrows 29
xllcorner    457058
yllcorner    94018
cellsize     2
NODATA_value -9999
-2.282 -2.279 -2.259 -2.177 -2.197 -2.224 -2.259 -2.179 -2.214 -2.219 -2.254 -2.299 -2.224 -2.159 -2.224 -2.172 -2.282 -2.232 -2.279 -2.272 -2.224 -2.222 -2.195 -2.232 -2.147 -2.21 -2.232 -2.23 -2.227 -2.325 -2.24 -2.185 -2.172 -2.25 -2.27 -2.232 -2.237 -2.245 -2.157 -2.237 -2.307 -2.212 -2.262 -2.16 -2.185 -2.172 -2.185 -2.212 -2.147 -2.192 -2.21 -2.18 -2.262 -2.285 -2.23 -2.177 -2.235 -2.257 -2.125 -2.2 -2.295 -2.295 -2.337 -2.295 -2.395 -2.247 -2.275 -2.257 -2.347 -2.327 -2.287 -2.305 -2.305 -2.23 -2.192 -2.2 -2.257 -2.23 -9999 -9999 -2.237 -2.227 -2.227 -2.252 -2.24 -2.185 -2.225 -2.267 -2.21 -2.19 -2.217 -2.197 -2.242 -2.287 -2.25 -2.24 -2.232 -2.285 -2.297 -2.25 -2.17 -2.222 -2.22 -2.26 -2.235 -2.187 -2.252 -2.272 -9999 -9999 -9999 -9999 -9999 -9999 -2.237 -2.29 -2.262 -2.235 -2.215 -2.13 -2.21 -2.22 -2.22 -2.285 -2.358 -2.208 -2.158 -2.105 -2.203 -9999 -2.221 -2.283 -2.243 -2.21 -2.143 -2.185 -2.145 -2.295 -2.253 -2.183 -2.195 -2.29 -2.215 -2.215 -2.248 -2.265 -2.228 -2.223 -9999 -9999 -2.188 -2.263 -2.218 -9999 -9999 -2.278 -2.28 -2.248 -2.2 -2.3 -2.245 -2.335 -2.42 -2.24 -2.135 -2.103 -2.105 -2.17 -2.2 -2.223 -2.315 -2.265 -2.205 -2.233 -2.168 -2.255 -2.225 -2.183 -2.168 -2.245 -2.24 -2.21 -2.203 -2.213 -2.23 -2.19 -2.155 -2.238 -2.233 -2.203 -2.288 -2.22 -2.205 -2.203 -2.21 -2.235 -2.24 -2.15 -2.138 -2.245 -2.303 -2.205 -2.26 -2.225 -2.165 -2.185 -2.33 -2.22 -2.208 -2.163 -2.15 -2.225 -2.225 -2.155 -2.163 -2.233 -2.255 -2.205 -2.218 -2.225 -2.155 -2.203 -2.23 -2.17 -2.148 -2.203 -2.183 -2.163 -2.205 -2.193 -2.24 -2.205 -2.23 -2.26 -2.19 -2.18 -2.148 -2.265 -2.213 -2.123 -2.173 -2.228 -2.15 -2.183 -2.26 -2.223 -2.133 -2.195 -2.265 -2.293 -2.165 -2.225 -2.215 -2.16 -2.185 -2.165 -2.203 -2.238 -2.195 -2.18 -2.253 -2.205 -2.173 -2.185 -2.19 -2.22 -2.188 -2.215 -2.263 -2.23 -2.205 -2.143 -2.246 -2.196 -2.193 -2.198 -2.221 -2.283 -2.173 -2.246 -2.236 -2.171 -2.178 -2.266 -2.238 -2.146 -2.176 -2.201 -2.208 -2.191 -2.223 -2.188 -2.131 -2.156 -2.168 -2.176 -2.226 -2.183 -2.211 -2.218 -2.163 -2.236 -2.238 -2.141 -2.218 -2.253 -2.166 -2.226 -2.221 -2.236 -2.191 -2.173 -2.186 -2.218 -2.253 -2.228 -2.188 -2.181 -2.121 -2.201 -2.246 -2.233 -2.181 -2.121 -2.223 -2.228 -2.173 -2.186 -2.228 -2.156 -2.193 -2.261 -2.141 -2.163 -2.218 -2.186 -2.223 -2.193 -2.241 -2.221 -2.163 -2.188 -2.181 -2.191 -2.221 -2.176 -2.161 -2.203 -2.126 -2.173 -2.218 -2.143 -2.208 -2.248 -2.148 -2.183 -2.141 -2.231 -2.191 -2.216 -2.123 -2.241 -2.258 -2.181 -2.211 -2.118 -2.103 -2.261 -2.221 -2.208 -2.213 -2.211 -2.183 -2.213 -2.158 -2.208 -2.158 -2.168 -2.183 -2.186 -2.143 -2.188 -2.186 -2.206 -2.191 -2.156 -2.143 -2.193 -2.188 -2.186 -2.201 -2.171 -2.213 -2.188 -2.136 -2.236 -2.153 -2.231 -2.133 -2.123 -2.176 -2.178 -2.181 -2.161 -2.246 -2.156 -2.148 -2.163 -2.178 -2.118 -2.201 -2.261 -2.148 -2.188 -2.203 -2.163 -2.191 -2.223 -2.093 -2.148 -2.233 -2.143 -2.163 -2.253 -2.181 -2.178 -2.186 -2.201 -2.141 -2.211 -2.138 -2.233 -2.313 -2.123 -2.228 -2.216 -2.133 -2.156 -2.138 -2.136 -2.216 -2.196 -2.111 -2.213 -2.223 -2.193 -2.201 -2.238 -2.193 -2.186 -2.166 -2.141 -2.113 -2.176 -2.181 -2.196 -2.223 -2.206 -2.211 -2.196 -2.166 -2.153 -2.188 -2.158 -2.113 -2.206 -2.226 -2.211 -2.158 -2.258 -2.188
-2.264 -2.269 -2.322 -2.207 -2.214 -2.197 -2.199 -2.257 -2.222 -2.229 -2.252 -2.242 -2.229 -2.127 -2.237 -2.152 -2.264 -2.259 -2.327 -2.269 -2.329 -2.205 -2.235 -2.217 -2.21 -2.142 -2.212 -2.217 -2.237 -2.295 -2.217 -2.19 -2.185 -2.207 -2.192 -2.187 -2.25 -2.297 -2.217 -2.245 -2.23 -2.16 -2.21 -2.205 -2.245 -2.24 -2.177 -2.215 -2.237 -2.167 -2.222 -2.197 -2.255 -2.325 -2.235 -2.247 -2.325 -2.22 -2.087 -2.195 -2.227 -2.25 -2.35 -2.192 -2.172 -2.257 -2.275 -2.197 -2.255 -2.247 -2.217 -2.245 -2.262 -2.227 -2.21 -2.245 -2.29 -2.247 -2.194 -2.212 -2.201 -2.22 -2.16 -2.217 -2.287 -2.252 -2.222 -2.285 -2.277 -2.252 -2.2 -2.207 -2.215 -2.297 -2.252 -2.26 -2.227 -2.215 -2.2 -2.222 -2.187 -2.232 -2.24 -2.242 -2.25 -2.307 -2.252 -2.232 -2.231 -9999 -9999 -2.26 -9999 -9999 -9999 -2.255 -2.282 -2.282 -2.207 -2.21 -2.235 -2.295 -2.225 -2.203 -2.32 -2.33 -2.295 -2.165 -2.2 -2.198 -2.258 -2.303 -2.26 -2.15 -2.115 -2.15 -2.118 -2.323 -2.265 -2.198 -2.22 -2.218 -2.238 -2.193 -2.215 -2.24 -2.218 -2.33 -2.218 -2.155 -2.155 -2.263 -2.268 -9999 -9999 -2.15 -2.163 -2.23 -2.228 -2.25 -2.193 -2.203 -2.218 -2.158 -2.065 -2.103 -2.158 -2.23 -2.24 -2.193 -2.278 -2.208 -2.16 -2.235 -2.153 -2.223 -2.173 -2.13 -2.123 -2.178 -2.198 -2.203 -2.128 -2.148 -2.23 -2.193 -2.21 -2.22 -2.298 -2.185 -2.24 -2.143 -2.205 -2.28 -2.188 -2.173 -2.225 -2.185 -2.183 -2.22 -2.218 -2.143 -2.253 -2.258 -2.153 -2.193 -2.24 -2.19 -2.215 -2.108 -2.1 -2.23 -2.148 -2.15 -2.163 -2.225 -2.223 -2.268 -2.22 -2.27 -2.16 -2.243 -2.223 -2.193 -2.183 -2.253 -2.188 -2.17 -2.13 -2.168 -2.268 -2.268 -2.175 -2.268 -2.25 -2.203 -2.155 -2.17 -2.195 -2.163 -2.133 -2.2 -2.228 -2.168 -2.223 -2.21 -2.138 -2.198 -2.205 -2.265 -2.17 -2.245 -2.243 -2.15 -2.273 -2.12 -2.183 -2.288 -2.22 -2.153 -2.213 -2.215 -2.19 -2.145 -2.178 -2.168 -2.18 -2.203 -2.24 -2.295 -2.235 -2.151 -2.201 -2.173 -2.123 -2.228 -2.231 -2.238 -2.171 -2.191 -2.248 -2.156 -2.183 -2.198 -2.188 -2.193 -2.178 -2.171 -2.208 -2.213 -2.171 -2.183 -2.153 -2.181 -2.221 -2.171 -2.263 -2.148 -2.183 -2.231 -2.128 -2.223 -2.223 -2.181 -2.186 -2.256 -2.196 -2.173 -2.263 -2.273 -2.241 -2.213 -2.211 -2.198 -2.186 -2.166 -2.196 -2.186 -2.146 -2.211 -2.243 -2.186 -2.241 -2.203 -2.261 -2.253 -2.181 -2.181 -2.198 -2.136 -2.218 -2.271 -2.193 -2.173 -2.208 -2.213 -2.206 -2.163 -2.183 -2.196 -2.201 -2.211 -2.183 -2.181 -2.298 -2.186 -2.108 -2.146 -2.198 -2.176 -2.236 -2.173 -2.126 -2.233 -2.186 -2.123 -2.178 -2.201 -2.161 -2.166 -2.213 -2.166 -2.196 -2.211 -2.193 -2.128 -2.158 -2.216 -2.246 -2.158 -2.206 -2.153 -2.146 -2.178 -2.166 -2.286 -2.233 -2.121 -2.166 -2.173 -2.146 -2.131 -2.176 -2.226 -2.153 -2.203 -2.213 -2.196 -2.126 -2.201 -2.153 -2.161 -2.281 -2.201 -2.148 -2.233 -2.156 -2.226 -2.136 -2.171 -2.241 -2.136 -2.113 -2.136 -2.246 -2.183 -2.231 -2.166 -2.133 -2.143 -2.183 -2.233 -2.111 -2.086 -2.178 -2.168 -2.193 -2.241 -2.103 -2.176 -2.241 -2.156 -2.133 -2.266 -2.208 -2.171 -2.166 -2.173 -2.153 -2.176 -2.171 -2.223 -2.233 -2.158 -2.156 -2.193 -2.191 -2.141 -2.103 -2.136 -2.273 -2.188 -2.111 -2.218 -2.208 -2.191 -2.201 -2.241 -2.228 -2.231 -2.176 -2.116 -2.168 -2.181 -2.221 -2.126 -2.188 -2.203 -2.213 -2.236 -2.188 -2.166 -2.241 -2.198 -2.143 -2.183 -2.213 -2.261 -2.246 -2.221 -2.248
-2.209 -2.244 -2.247 -2.267 -2.292 -2.222 -2.202 -2.239 -2.237 -2.169 -2.249 -2.287 -2.312 -2.174 -2.139 -2.189 -2.242 -2.274 -2.267 -2.164 -2.339 -2.252 -2.24 -2.272 -2.192 -2.162 -2.192 -2.215 -2.237 -2.242 -2.217 -2.177 -2.232 -2.26 -2.205 -2.212 -2.25 -2.297 -2.197 -2.287 -2.272 -2.162 -2.197 -2.157 -2.247 -2.28 -2.22 -2.17 -2.195 -2.275 -2.27 -2.125 -2.17 -2.307 -2.23 -2.26 -2.292 -2.192 -2.117 -2.212 -2.267 -2.18 -2.31 -2.28 -2.23 -2.245 -2.25 -2.187 -2.2 -2.262 -2.267 -2.207 -2.267 -2.292 -2.25 -2.267 -2.17 -2.22 -2.185 -2.172 -2.287 -2.282 -2.19 -2.192 -2.292 -2.33 -2.267 -2.292 -2.272 -2.232 -2.185 -2.177 -2.185 -2.175 -2.237 -2.347 -2.325 -2.25 -2.205 -2.212 -2.177 -2.217 -2.212 -2.257 -2.325 -2.25 -2.215 -2.217 -9999 -9999 -9999 -2.312 -9999 -9999 -9999 -2.257 -2.227 -2.185 -2.185 -2.16 -2.187 -2.323 -2.29 -2.243 -2.248 -2.183 -2.253 -2.235 -2.285 -2.25 -2.273 -2.29 -2.295 -2.143 -2.115 -2.19 -2.233 -2.283 -2.26 -2.188 -2.298 -2.313 -2.283 -2.258 -2.215 -2.285 -2.288 -2.268 -9999 -9999 -9999 -2.238 -2.338 -2.261 -2.258 -2.198 -2.198 -2.29 -2.27 -2.315 -2.173 -2.175 -2.233 -2.203 -2.163 -2.165 -2.21 -2.238 -2.26 -2.233 -2.198 -2.253 -2.163 -2.183 -2.213 -2.218 -2.208 -2.245 -2.233 -2.153 -2.228 -2.138 -2.148 -2.188 -2.208 -2.165 -2.175 -2.2 -2.208 -2.198 -2.22 -2.165 -2.238 -2.218 -2.138 -2.198 -2.205 -2.188 -2.2 -2.278 -2.25 -2.225 -2.285 -2.28 -2.14 -2.21 -2.245 -2.223 -2.225 -2.24 -2.275 -2.285 -2.218 -2.148 -2.163 -2.24 -2.193 -2.25 -2.19 -2.155 -2.11 -2.228 -2.245 -2.173 -2.185 -2.195 -2.18 -2.255 -2.238 -2.18 -2.15 -2.208 -2.16 -2.178 -2.215 -2.153 -2.23 -2.228 -2.175 -2.138 -2.235 -2.158 -2.185 -2.173 -2.165 -2.235 -2.153 -2.223 -2.205 -2.265 -2.193 -2.195 -2.193 -2.188 -2.3 -2.145 -2.153 -2.205 -2.23 -2.203 -2.183 -2.198 -2.21 -2.2 -2.14 -2.188 -2.1 -2.153 -2.198 -2.23 -2.233 -2.143 -2.176 -2.253 -2.166 -2.191 -2.168 -2.253 -2.168 -2.226 -2.241 -2.191 -2.208 -2.158 -2.201 -2.216 -2.141 -2.183 -2.218 -2.206 -2.151 -2.171 -2.158 -2.206 -2.198 -2.211 -2.238 -2.221 -2.136 -2.211 -2.118 -2.178 -2.206 -2.183 -2.181 -2.211 -2.228 -2.171 -2.241 -2.263 -2.226 -2.231 -2.266 -2.171 -2.168 -2.136 -2.186 -2.278 -2.151 -2.181 -2.221 -2.241 -2.236 -2.246 -2.206 -2.203 -2.216 -2.146 -2.253 -2.203 -2.153 -2.186 -2.206 -2.163 -2.223 -2.266 -2.223 -2.143 -2.191 -2.136 -2.223 -2.251 -2.171 -2.146 -2.243 -2.176 -2.048 -2.186 -2.241 -2.156 -2.161 -2.146 -2.106 -2.168 -2.236 -2.136 -2.151 -2.238 -2.096 -2.118 -2.176 -2.298 -2.241 -2.136 -2.146 -2.101 -2.156 -2.206 -2.233 -2.198 -2.218 -2.213 -2.143 -2.161 -2.216 -2.216 -2.251 -2.096 -2.188 -2.191 -2.126 -2.168 -2.171 -2.158 -2.146 -2.186 -2.181 -2.181 -2.166 -2.218 -2.131 -2.151 -2.241 -2.211 -2.103 -2.126 -2.226 -2.196 -2.173 -2.083 -2.226 -2.136 -2.171 -2.163 -2.191 -2.163 -2.153 -2.211 -2.131 -2.196 -2.121 -2.141 -2.171 -2.048 -2.168 -2.186 -2.171 -2.198 -2.126 -2.123 -2.238 -2.156 -2.146 -2.183 -2.171 -2.213 -2.193 -2.148 -2.203 -2.171 -2.133 -2.163 -2.236 -2.158 -2.098 -2.106 -2.156 -2.143 -2.098 -2.181 -2.276 -2.211 -2.111 -2.148 -2.161 -2.141 -2.256 -2.203 -2.153 -2.191 -2.211 -2.166 -2.063 -2.126 -2.161 -2.131 -2.176 -2.208 -2.201 -2.263 -2.258 -2.226 -2.221 -2.221 -2.171 -2.111 -2.181 -2.251 -2.191 -2.181 -2.208
-2.202 -2.277 -2.199 -2.287 -2.332 -2.252 -2.262 -2.222 -2.244 -2.197 -2.244 -2.294 -2.252 -2.197 -2.104 -2.152 -2.139 -2.137 -2.217 -2.189 -2.234 -2.247 -2.222 -2.22 -2.185 -2.197 -2.212 -2.225 -2.257 -2.265 -2.167 -2.14 -2.242 -2.255 -2.215 -2.277 -2.262 -2.297 -2.245 -2.272 -2.212 -2.197 -2.205 -2.175 -2.235 -2.295 -2.252 -2.22 -2.21 -2.255 -2.237 -2.15 -2.165 -2.22 -2.277 -2.187 -2.205 -2.24 -2.19 -2.197 -2.257 -2.19 -2.285 -2.385 -2.237 -2.262 -2.305 -2.22 -2.155 -2.297 -2.295 -2.215 -2.23 -2.275 -2.242 -2.207 -2.18 -2.21 -2.242 -2.212 -2.305 -2.25 -2.257 -2.16 -2.245 -2.272 -2.22 -2.195 -2.255 -2.232 -2.155 -2.185 -2.21 -2.222 -2.237 -2.31 -2.227 -2.235 -2.207 -2.22 -2.172 -2.302 -2.215 -2.215 -2.29 -2.185 -9999 -9999 -9999 -9999 -9999 -2.301 -9999 -9999 -9999 -2.292 -2.25 -2.2 -2.257 -2.172 -2.182 -2.273 -2.275 -9999 -9999 -2.2 -2.225 -2.255 -2.323 -2.238 -2.173 -2.253 -2.265 -2.118 -2.233 -2.255 -2.268 -9999 -9999 -9999 -2.308 -2.328 -2.26 -2.288 -2.328 -2.338 -2.308 -2.345 -2.354 -9999 -9999 -2.243 -2.288 -2.23 -2.233 -2.165 -2.22 -2.21 -2.193 -2.233 -2.18 -2.14 -2.18 -2.208 -2.243 -2.243 -2.24 -2.215 -2.15 -2.23 -2.253 -2.275 -2.148 -2.14 -2.225 -2.183 -2.143 -2.233 -2.21 -2.253 -2.215 -2.15 -9999 -9999 -2.235 -2.168 -2.113 -2.19 -2.268 -2.215 -2.288 -2.25 -2.13 -2.203 -2.16 -2.233 -2.195 -2.148 -2.2 -2.205 -2.238 -2.215 -2.298 -2.248 -2.128 -2.138 -2.198 -2.21 -2.198 -2.263 -2.188 -2.268 -2.258 -2.17 -2.203 -2.17 -2.215 -2.268 -2.155 -2.275 -2.135 -2.21 -2.245 -2.203 -2.108 -2.21 -2.198 -2.21 -2.295 -2.175 -2.18 -2.213 -2.218 -2.208 -2.24 -2.188 -2.295 -2.185 -2.188 -2.218 -2.28 -2.125 -2.21 -2.235 -2.223 -2.238 -2.165 -2.19 -2.165 -2.21 -2.23 -2.213 -2.193 -2.2 -2.238 -2.208 -2.205 -2.155 -2.2 -2.215 -2.158 -2.208 -2.24 -2.158 -2.16 -2.24 -2.24 -2.178 -2.205 -2.248 -2.203 -2.186 -2.153 -2.226 -2.211 -2.208 -2.166 -2.261 -2.148 -2.266 -2.253 -2.198 -2.186 -2.123 -2.216 -2.183 -2.188 -2.138 -2.196 -2.181 -2.173 -2.176 -2.178 -2.206 -2.168 -2.201 -2.253 -2.203 -2.151 -2.223 -2.181 -2.123 -2.208 -2.166 -2.151 -2.188 -2.201 -2.153 -2.231 -2.233 -2.218 -2.208 -2.298 -2.188 -2.173 -2.166 -2.208 -2.223 -2.131 -2.191 -2.231 -2.248 -2.136 -2.268 -2.173 -2.211 -2.138 -2.163 -2.241 -2.161 -2.186 -2.166 -2.216 -2.171 -2.221 -2.246 -2.206 -2.198 -2.231 -2.148 -2.223 -2.216 -2.191 -2.163 -2.233 -2.211 -2.151 -2.213 -2.196 -2.191 -2.098 -2.198 -2.121 -2.203 -2.218 -2.151 -2.143 -2.203 -2.221 -2.153 -2.176 -2.278 -2.236 -2.181 -2.161 -2.158 -2.223 -2.243 -2.201 -2.166 -2.253 -2.216 -2.148 -2.186 -2.283 -2.226 -2.176 -2.136 -2.186 -2.238 -2.141 -2.171 -2.173 -2.116 -2.138 -2.206 -2.176 -2.143 -2.158 -2.226 -2.141 -2.141 -2.298 -2.263 -2.111 -2.116 -2.253 -2.193 -2.171 -2.166 -2.201 -2.251 -2.206 -2.116 -2.161 -2.181 -2.198 -2.218 -2.188 -2.188 -2.153 -2.176 -2.163 -2.226 -2.206 -2.288 -2.221 -2.136 -2.128 -2.173 -2.248 -2.213 -2.166 -2.131 -2.168 -2.213 -2.153 -2.158 -2.271 -2.218 -2.161 -2.166 -2.216 -2.161 -2.168 -2.153 -2.161 -2.138 -2.086 -2.158 -2.328 -2.198 -2.108 -2.141 -2.198 -2.083 -2.223 -2.211 -2.123 -2.181 -2.228 -2.151 -2.101 -2.151 -2.196 -2.161 -2.163 -2.228 -2.196 -2.236 -2.278 -2.231 -2.223 -2.181 -2.238 -2.191 -2.098 -2.143 -2.221 -2.201 -2.248
-2.197 -2.272 -2.187 -2.249 -2.354 -2.227 -2.224 -2.292 -2.319 -2.204 -2.244 -2.307 -2.222 -2.234 -2.154 -2.164 -2.179 -2.204 -2.197 -2.239 -2.294 -2.34 -2.18 -2.207 -2.205 -2.285 -2.23 -2.167 -2.24 -2.262 -2.202 -2.137 -2.222 -2.222 -2.215 -2.28 -2.242 -2.217 -2.277 -2.272 -2.165 -2.255 -2.22 -2.232 -2.235 -2.227 -2.192 -2.177 -2.252 -2.282 -2.227 -2.17 -2.132 -2.22 -2.292 -2.247 -2.26 -2.235 -2.257 -2.227 -2.22 -2.19 -2.31 -2.29 -2.245 -2.215 -2.245 -2.195 -2.16 -2.28 -2.307 -2.315 -2.252 -2.29 -2.227 -2.147 -2.145 -2.17 -2.24 -2.23 -2.255 -2.262 -2.285 -2.232 -2.242 -2.222 -2.187 -2.13 -2.222 -2.29 -2.237 -2.23 -2.25 -2.247 -2.22 -2.32 -2.11 -2.2 -2.217 -2.275 -2.26 -2.227 -2.235 -2.17 -2.197 -9999 -9999 -9999 -9999 -2.287 -2.301 -2.312 -9999 -9999 -9999 -2.344 -2.24 -2.147 -2.205 -2.195 -2.242 -2.215 -2.218 -9999 -9999 -2.314 -9999 -9999 -2.218 -2.213 -2.308 -2.223 -9999 -2.164 -2.283 -2.238 -2.295 -2.254 -9999 -2.193 -2.213 -2.27 -2.285 -2.273 -2.218 -2.225 -2.12 -2.32 -2.295 -2.174 -2.058 -2.225 -2.245 -2.21 -2.15 -2.203 -2.245 -2.195 -2.13 -2.178 -2.188 -2.168 -2.163 -2.185 -2.26 -2.275 -2.26 -2.293 -2.218 -2.173 -2.22 -9999 -2.148 -2.148 -2.233 -2.208 -2.138 -2.155 -2.203 -2.29 -2.23 -2.218 -9999 -9999 -2.21 -2.175 -2.203 -2.248 -2.215 -2.185 -2.233 -2.255 -2.303 -2.263 -2.243 -2.235 -2.158 -2.14 -2.153 -2.178 -2.205 -2.19 -2.26 -2.288 -2.15 -2.203 -2.238 -2.218 -2.15 -2.228 -2.248 -2.225 -2.248 -2.183 -2.285 -2.175 -2.253 -2.23 -2.12 -2.223 -2.145 -2.22 -2.205 -2.23 -2.17 -2.243 -2.2 -2.23 -2.298 -2.173 -2.188 -2.233 -2.22 -2.253 -2.19 -2.15 -2.26 -2.235 -2.233 -2.22 -2.255 -2.135 -2.22 -2.235 -2.205 -2.23 -2.16 -2.17 -2.148 -2.208 -2.235 -2.21 -2.213 -2.188 -2.173 -2.183 -2.203 -2.17 -2.185 -2.253 -2.153 -2.198 -2.205 -2.153 -2.165 -2.26 -2.27 -2.145 -2.185 -2.195 -2.22 -2.151 -2.086 -2.228 -2.228 -2.243 -2.178 -2.168 -2.228 -2.221 -2.271 -2.248 -2.191 -2.121 -2.206 -2.243 -2.171 -2.133 -2.168 -2.201 -2.148 -2.168 -2.211 -2.193 -2.158 -2.236 -2.291 -2.186 -2.226 -2.213 -2.193 -2.198 -2.176 -2.161 -2.103 -2.178 -2.203 -2.226 -2.306 -2.188 -2.198 -2.148 -2.231 -2.188 -2.206 -2.181 -2.158 -2.233 -2.183 -2.191 -2.241 -2.258 -2.213 -2.221 -2.153 -2.226 -2.198 -2.201 -2.251 -2.191 -2.146 -2.198 -2.173 -2.171 -2.243 -2.251 -2.181 -2.183 -2.238 -2.178 -2.231 -2.216 -2.173 -2.153 -2.186 -2.188 -2.201 -2.158 -2.208 -2.156 -2.128 -2.138 -2.098 -2.191 -2.196 -2.161 -2.133 -2.188 -2.216 -2.171 -2.183 -2.213 -2.208 -2.198 -2.111 -2.128 -2.146 -2.138 -2.201 -2.101 -2.211 -2.211 -2.131 -2.141 -2.288 -2.293 -2.146 -2.153 -2.198 -2.236 -2.196 -2.208 -2.188 -2.143 -2.123 -2.151 -2.178 -2.186 -2.191 -2.211 -2.128 -2.161 -2.173 -2.216 -2.143 -2.093 -2.288 -2.221 -2.148 -2.193 -2.208 -2.236 -2.211 -2.191 -2.261 -2.166 -2.156 -2.231 -2.263 -2.126 -2.178 -2.203 -2.201 -2.256 -2.258 -2.193 -2.251 -2.176 -2.208 -2.228 -2.151 -2.181 -2.208 -2.121 -2.153 -2.178 -2.116 -2.173 -2.236 -2.211 -2.216 -2.231 -2.218 -2.153 -2.148 -2.151 -2.161 -2.206 -2.103 -2.141 -2.338 -2.213 -2.133 -2.186 -2.218 -2.161 -2.173 -2.218 -2.153 -2.148 -2.208 -2.151 -2.146 -2.286 -2.181 -2.243 -2.206 -2.188 -2.233 -2.201 -2.226 -2.243 -2.191 -2.198 -2.218 -2.206 -2.133 -2.118 -2.211 -2.208 -2.326
-2.227 -2.287 -2.149 -2.214 -2.339 -2.179 -2.194 -2.269 -2.347 -2.234 -2.312 -2.259 -2.267 -2.174 -2.172 -2.209 -2.159 -2.237 -2.184 -2.199 -2.152 -2.2 -2.192 -2.21 -2.245 -2.28 -2.247 -2.21 -2.2 -2.232 -2.247 -2.237 -2.205 -2.215 -2.2 -2.287 -2.237 -2.245 -2.23 -2.242 -2.252 -2.28 -2.287 -2.175 -2.197 -2.245 -2.187 -2.13 -2.277 -2.305 -2.232 -2.155 -2.137 -2.19 -2.215 -2.215 -2.257 -2.282 -2.22 -2.195 -2.207 -2.165 -2.33 -2.285 -2.19 -2.225 -2.282 -2.245 -2.15 -2.27 -2.327 -2.29 -2.235 -2.28 -2.325 -2.2 -2.16 -2.137 -2.205 -2.19 -2.15 -2.205 -2.235 -2.195 -2.277 -2.287 -2.222 -2.12 -2.195 -2.312 -2.215 -2.18 -2.245 -2.255 -9999 -2.297 -2.225 -2.252 -2.28 -2.225 -2.232 -2.212 -2.215 -2.215 -2.225 -9999 -9999 -9999 -2.307 -2.255 -2.277 -2.295 -9999 -9999 -9999 -2.301 -2.277 -2.17 -2.175 -2.21 -2.305 -2.303 -2.208 -9999 -9999 -2.311 -9999 -9999 -9999 -2.233 -2.178 -9999 -9999 -9999 -2.305 -2.268 -2.298 -2.27 -2.245 -9999 -9999 -2.214 -2.205 -2.203 -2.16 -2.215 -2.218 -2.255 -2.2 -9999 -9999 -2.248 -2.353 -2.22 -2.205 -2.248 -2.19 -2.203 -9999 -2.178 -2.245 -2.21 -2.233 -2.183 -2.228 -2.225 -2.24 -2.225 -2.233 -2.243 -2.288 -9999 -9999 -2.163 -2.26 -2.283 -2.185 -2.148 -2.17 -2.168 -2.23 -2.233 -2.181 -2.123 -2.25 -2.228 -2.27 -2.213 -2.205 -2.158 -2.205 -2.245 -2.293 -2.255 -2.193 -2.278 -2.163 -2.173 -2.188 -2.173 -2.18 -2.153 -2.203 -2.298 -2.108 -2.173 -2.255 -2.203 -2.188 -2.188 -2.203 -2.248 -2.238 -2.248 -2.255 -2.178 -2.203 -2.2 -2.225 -2.233 -2.165 -2.193 -2.198 -2.168 -2.195 -2.228 -2.23 -2.193 -2.283 -2.235 -2.305 -2.22 -2.163 -2.25 -2.218 -2.143 -2.215 -2.208 -2.223 -2.218 -2.275 -2.125 -2.22 -2.278 -2.158 -2.263 -2.208 -2.155 -2.16 -2.185 -2.175 -2.268 -2.195 -2.198 -2.193 -2.143 -2.215 -2.22 -2.185 -2.248 -2.158 -2.195 -2.165 -2.165 -2.158 -2.208 -2.268 -2.183 -2.128 -2.193 -2.185 -2.188 -2.118 -2.161 -2.158 -2.196 -2.183 -2.171 -2.261 -2.231 -2.211 -2.281 -2.191 -2.146 -2.208 -2.253 -2.238 -2.186 -2.171 -2.193 -2.136 -2.141 -2.238 -2.186 -2.123 -2.216 -2.258 -2.156 -2.208 -2.188 -2.166 -2.168 -2.143 -2.198 -2.193 -2.163 -2.188 -2.238 -2.206 -2.201 -2.206 -2.148 -2.193 -2.153 -2.191 -2.186 -2.078 -2.196 -2.188 -2.186 -2.196 -2.216 -2.243 -2.176 -2.168 -2.216 -2.173 -2.191 -2.208 -2.198 -2.146 -2.221 -2.156 -2.206 -2.226 -2.251 -2.186 -2.178 -2.206 -2.168 -2.221 -2.221 -2.178 -2.196 -2.163 -2.158 -2.176 -2.168 -2.213 -2.123 -2.173 -2.166 -2.161 -2.223 -2.201 -2.201 -2.091 -2.198 -2.173 -2.171 -2.163 -2.268 -2.288 -2.223 -2.136 -2.133 -2.121 -2.161 -2.248 -2.136 -2.173 -2.218 -2.096 -2.156 -2.263 -2.253 -2.191 -2.161 -2.163 -2.178 -2.188 -2.208 -2.221 -2.158 -2.123 -2.151 -2.198 -2.181 -2.151 -2.173 -2.173 -2.151 -2.146 -2.241 -2.138 -2.053 -2.236 -2.233 -2.196 -2.196 -2.193 -2.223 -2.201 -2.201 -2.228 -2.183 -2.186 -2.168 -2.256 -2.198 -2.206 -2.181 -2.198 -2.161 -2.206 -2.148 -2.236 -2.178 -2.196 -2.203 -2.158 -2.141 -2.153 -2.106 -2.151 -2.226 -2.103 -2.161 -2.138 -2.221 -2.151 -2.198 -2.173 -2.183 -2.191 -2.183 -2.161 -2.203 -2.186 -2.228 -2.268 -2.216 -2.196 -2.176 -2.238 -2.178 -2.191 -2.171 -2.163 -2.121 -2.171 -2.208 -2.178 -2.138 -2.173 -2.221 -2.271 -2.178 -2.231 -2.203 -2.103 -2.271 -2.208 -2.103 -2.216 -2.158 -2.193 -2.258 -2.163 -2.231 -2.268
-2.254 -2.244 -2.154 -2.189 -2.307 -2.179 -2.197 -2.217 -2.252 -2.309 -2.229 -2.282 -2.307 -2.149 -2.164 -2.247 -2.147 -2.194 -2.214 -2.194 -2.234 -2.242 -2.21 -2.177 -2.215 -2.18 -2.247 -2.215 -2.27 -2.212 -2.232 -2.252 -2.25 -2.225 -2.205 -2.187 -2.277 -2.21 -2.237 -2.297 -2.252 -2.297 -2.26 -2.18 -2.212 -2.282 -2.19 -2.23 -2.287 -2.237 -2.222 -2.25 -2.175 -2.157 -2.225 -2.227 -2.195 -2.195 -2.227 -2.242 -2.242 -2.175 -2.277 -2.3 -2.232 -2.212 -2.372 -2.225 -2.185 -2.22 -2.325 -2.277 -2.325 -2.29 -2.382 -2.215 -2.18 -2.18 -2.202 -2.175 -2.19 -2.23 -2.232 -2.205 -2.255 -2.272 -2.217 -2.222 -2.29 -2.31 -2.245 -2.132 -2.212 -9999 -9999 -2.317 -2.255 -2.207 -2.267 -2.252 -2.23 -2.275 -2.177 -2.207 -2.187 -2.237 -2.242 -2.287 -2.274 -2.19 -2.177 -2.292 -2.274 -9999 -2.207 -2.32 -2.267 -2.205 -2.277 -2.172 -2.247 -2.303 -2.27 -2.16 -2.258 -2.225 -2.361 -2.258 -2.231 -2.248 -2.148 -2.163 -9999 -2.328 -2.25 -2.29 -2.34 -2.255 -9999 -9999 -9999 -2.278 -2.233 -2.165 -2.185 -2.228 -2.29 -2.195 -2.135 -9999 -2.238 -2.243 -2.245 -2.173 -2.118 -2.235 -2.213 -9999 -9999 -2.218 -2.275 -2.19 -2.263 -2.255 -2.235 -2.2 -2.243 -2.18 -2.213 -2.24 -2.218 -9999 -9999 -2.161 -2.145 -2.148 -2.158 -2.17 -2.12 -2.118 -2.288 -2.135 -2.135 -2.113 -2.195 -2.225 -2.285 -2.165 -2.148 -2.16 -2.133 -2.155 -2.233 -2.27 -2.208 -2.18 -2.228 -2.233 -2.203 -2.233 -2.208 -2.205 -2.2 -2.195 -2.175 -2.228 -2.128 -2.16 -2.1 -2.185 -2.228 -2.293 -2.268 -2.215 -2.175 -2.143 -2.175 -2.213 -2.228 -2.258 -2.168 -2.2 -2.255 -2.148 -2.2 -2.205 -2.195 -2.198 -2.248 -2.293 -2.26 -2.213 -2.158 -2.245 -2.225 -2.135 -2.2 -2.18 -2.19 -2.233 -2.205 -2.165 -2.258 -2.235 -2.148 -2.208 -2.193 -2.13 -2.205 -2.238 -2.183 -2.24 -2.25 -2.17 -2.163 -2.198 -2.203 -2.195 -2.198 -2.25 -2.205 -2.143 -2.238 -2.218 -2.155 -2.248 -2.248 -2.193 -2.16 -2.19 -2.215 -2.231 -2.161 -2.106 -2.221 -2.233 -2.156 -2.156 -2.206 -2.211 -2.246 -2.321 -2.201 -2.163 -2.206 -2.203 -2.221 -2.203 -2.121 -2.131 -2.186 -2.158 -2.238 -2.173 -2.198 -2.191 -2.221 -2.166 -2.191 -2.181 -2.161 -2.156 -2.141 -2.161 -2.198 -2.156 -2.131 -2.263 -2.178 -2.146 -2.171 -2.191 -2.196 -2.143 -2.216 -2.213 -2.138 -2.188 -2.191 -2.181 -2.213 -2.191 -2.258 -2.188 -2.181 -2.203 -2.186 -2.216 -2.238 -2.218 -2.181 -2.196 -2.186 -2.181 -2.221 -2.236 -2.183 -2.213 -2.208 -2.123 -2.181 -2.183 -2.171 -2.191 -2.173 -2.186 -2.156 -2.193 -2.173 -2.156 -2.171 -2.138 -2.141 -2.143 -2.241 -2.216 -2.138 -2.161 -2.156 -2.193 -2.148 -2.171 -2.256 -2.196 -2.153 -2.143 -2.126 -2.158 -2.216 -2.086 -2.126 -2.251 -2.161 -2.163 -2.256 -2.241 -2.161 -2.176 -2.208 -2.146 -2.201 -2.176 -2.208 -2.211 -2.158 -2.126 -2.198 -2.133 -2.178 -2.183 -2.146 -2.151 -2.158 -2.183 -2.196 -2.121 -2.178 -2.143 -2.156 -2.156 -2.211 -2.241 -2.168 -2.143 -2.193 -2.138 -2.163 -2.178 -2.181 -2.221 -2.133 -2.181 -2.226 -2.171 -2.193 -2.181 -2.246 -2.153 -2.166 -2.221 -2.241 -2.168 -2.173 -2.183 -2.151 -2.213 -2.123 -2.163 -2.136 -2.203 -2.183 -2.173 -2.206 -2.158 -2.168 -2.151 -2.151 -2.176 -2.158 -2.183 -2.216 -2.191 -2.198 -2.211 -2.246 -2.228 -2.166 -2.098 -2.173 -2.088 -2.161 -2.228 -2.186 -2.123 -2.133 -2.213 -2.243 -2.246 -2.206 -2.201 -2.126 -2.223 -2.181 -2.061 -2.183 -2.163 -2.176 -2.223 -2.178 -2.216 -2.228
-2.282 -2.222 -2.167 -2.212 -2.269 -2.237 -2.222 -2.237 -2.274 -2.262 -2.239 -2.234 -2.392 -2.197 -2.187 -2.202 -2.192 -2.234 -2.199 -2.214 -2.184 -2.17 -2.197 -2.19 -2.21 -2.145 -2.225 -2.265 -2.28 -2.252 -2.275 -2.247 -2.187 -2.227 -2.25 -2.21 -2.267 -2.257 -2.262 -2.322 -2.267 -2.177 -2.26 -2.185 -2.167 -2.25 -2.152 -2.23 -2.28 -2.192 -2.165 -2.192 -2.19 -2.195 -2.3 -2.227 -2.252 -2.225 -2.292 -2.22 -2.19 -2.205 -2.21 -2.23 -2.267 -2.225 -2.345 -2.212 -2.237 -2.22 -2.36 -2.307 -2.33 -2.3 -2.325 -2.24 -2.147 -2.18 -2.152 -2.207 -2.155 -2.207 -2.255 -2.232 -2.262 -2.222 -2.21 -2.277 -2.285 -2.307 -2.275 -2.195 -2.2 -9999 -9999 -9999 -2.195 -2.207 -2.3 -2.257 -2.252 -2.267 -2.277 -2.18 -2.227 -2.267 -2.182 -2.087 -2.257 -2.252 -2.092 -2.237 -2.322 -2.155 -2.255 -2.355 -2.277 -2.28 -2.285 -2.212 -2.272 -2.315 -2.253 -2.22 -2.288 -2.3 -2.305 -2.288 -2.288 -2.258 -2.208 -2.298 -2.283 -2.333 -2.3 -2.263 -2.323 -2.228 -2.171 -9999 -9999 -9999 -2.218 -2.208 -2.27 -2.345 -2.243 -2.128 -2.17 -2.223 -2.235 -2.145 -2.225 -2.195 -2.23 -2.238 -2.225 -2.265 -2.313 -2.198 -2.205 -2.235 -2.21 -2.278 -2.26 -2.2 -2.213 -2.283 -2.18 -2.223 -2.208 -2.231 -2.214 -2.193 -2.2 -2.213 -2.158 -2.208 -2.205 -2.09 -2.265 -2.205 -2.158 -2.143 -2.138 -2.185 -2.248 -2.228 -2.205 -2.255 -2.193 -2.185 -2.178 -2.208 -2.158 -2.233 -2.3 -2.278 -2.278 -2.233 -2.203 -2.18 -2.208 -2.193 -2.168 -2.183 -2.143 -2.2 -2.163 -2.213 -2.223 -2.268 -2.235 -2.163 -2.158 -2.203 -2.175 -2.168 -2.275 -2.233 -2.173 -2.245 -2.235 -2.178 -2.145 -2.245 -2.193 -2.16 -2.18 -2.218 -2.188 -2.145 -2.17 -2.23 -2.213 -2.17 -2.185 -2.238 -2.15 -2.223 -2.183 -2.158 -2.238 -2.215 -2.223 -2.248 -2.248 -2.125 -2.165 -2.203 -2.203 -2.198 -2.265 -2.178 -2.135 -2.138 -2.235 -2.218 -2.173 -2.275 -2.235 -2.15 -2.203 -2.263 -2.195 -2.2 -2.283 -2.268 -2.183 -2.215 -2.208 -2.271 -2.203 -2.188 -2.221 -2.203 -2.181 -2.178 -2.211 -2.158 -2.281 -2.241 -2.193 -2.216 -2.226 -2.178 -2.193 -2.238 -2.171 -2.141 -2.238 -2.161 -2.183 -2.191 -2.213 -2.166 -2.168 -2.186 -2.191 -2.211 -2.188 -2.171 -2.146 -2.176 -2.236 -2.173 -2.081 -2.278 -2.271 -2.098 -2.193 -2.226 -2.206 -2.113 -2.198 -2.218 -2.146 -2.176 -2.141 -2.141 -2.168 -2.176 -2.211 -2.178 -2.156 -2.208 -2.233 -2.223 -2.171 -2.181 -2.193 -2.183 -2.188 -2.193 -2.233 -2.231 -2.148 -2.171 -2.171 -2.146 -2.193 -2.156 -2.181 -2.201 -2.141 -2.166 -2.163 -2.151 -2.196 -2.171 -2.183 -2.138 -2.181 -2.196 -2.258 -2.243 -2.166 -2.183 -2.148 -2.228 -2.146 -2.126 -2.268 -2.171 -2.136 -2.178 -2.151 -2.198 -2.188 -2.103 -2.128 -2.238 -2.198 -2.148 -2.191 -2.193 -2.221 -2.208 -2.221 -2.163 -2.228 -2.213 -2.153 -2.251 -2.201 -2.163 -2.181 -2.158 -2.138 -2.178 -2.163 -2.123 -2.201 -2.211 -2.198 -2.133 -2.183 -2.103 -2.198 -2.226 -2.188 -2.198 -2.198 -2.186 -2.218 -2.218 -2.206 -2.171 -2.126 -2.141 -2.208 -2.178 -2.161 -2.213 -2.241 -2.148 -2.188 -2.201 -2.216 -2.183 -2.221 -2.228 -2.103 -2.181 -2.198 -2.186 -2.156 -2.166 -2.161 -2.236 -2.118 -2.186 -2.213 -2.161 -2.176 -2.263 -2.138 -2.221 -2.176 -2.188 -2.238 -2.211 -2.173 -2.153 -2.181 -2.243 -2.178 -2.076 -2.208 -2.193 -2.131 -2.186 -2.173 -2.123 -2.118 -2.206 -2.226 -2.146 -2.221 -2.248 -2.183 -2.198 -2.136 -2.108 -2.166 -2.141 -2.173 -2.251 -2.166 -2.211 -2.256
-2.289 -2.272 -2.214 -2.247 -2.267 -2.199 -2.182 -2.267 -2.237 -2.159 -2.254 -2.202 -2.264 -2.227 -2.242 -2.234 -2.172 -2.219 -2.219 -2.244 -2.247 -2.215 -2.222 -2.25 -2.19 -2.107 -2.235 -2.342 -2.26 -2.19 -2.262 -2.257 -2.24 -2.237 -2.245 -2.195 -2.237 -2.257 -2.232 -2.26 -2.217 -2.205 -2.277 -2.202 -2.192 -2.235 -2.18 -2.217 -2.237 -2.222 -2.17 -2.262 -2.255 -2.167 -2.215 -2.237 -2.372 -2.242 -2.25 -2.23 -2.24 -2.162 -2.235 -2.205 -2.302 -2.187 -2.227 -2.232 -2.225 -2.187 -2.3 -2.325 -2.242 -2.305 -2.32 -2.282 -2.17 -2.145 -2.235 -2.255 -2.215 -2.222 -2.295 -2.225 -2.172 -2.192 -2.225 -2.257 -2.345 -2.205 -2.3 -2.265 -2.237 -2.241 -9999 -2.352 -2.212 -2.257 -2.277 -2.26 -2.187 -2.125 -2.232 -2.13 -2.132 -2.232 -2.21 -2.112 -2.29 -2.375 -2.17 -2.227 -2.282 -2.202 -2.285 -2.33 -2.282 -2.317 -2.272 -2.26 -2.187 -2.213 -2.263 -2.18 -2.298 -2.355 -2.293 -2.205 -2.238 -2.165 -2.263 -2.253 -2.23 -2.258 -2.288 -2.258 -2.295 -2.218 -2.198 -9999 -9999 -9999 -2.253 -2.283 -2.285 -2.298 -2.245 -2.233 -2.25 -2.233 -2.203 -2.185 -2.29 -2.213 -2.2 -2.203 -2.255 -2.198 -2.278 -2.27 -2.243 -2.238 -2.165 -2.213 -2.205 -2.233 -2.22 -2.32 -2.183 -2.153 -2.198 -2.205 -2.208 -2.19 -2.193 -2.215 -2.205 -2.248 -2.285 -2.2 -2.198 -2.255 -2.265 -2.21 -2.138 -2.11 -2.133 -2.135 -2.203 -2.243 -2.2 -2.233 -2.313 -2.23 -2.13 -2.155 -2.258 -2.263 -2.22 -2.245 -2.208 -2.198 -2.163 -2.225 -2.195 -2.183 -2.238 -2.215 -2.213 -2.24 -2.203 -2.218 -2.215 -2.103 -2.173 -2.173 -2.145 -2.145 -2.213 -2.228 -2.203 -2.208 -2.15 -2.23 -2.198 -2.175 -2.178 -2.243 -2.173 -2.153 -2.218 -2.153 -2.208 -2.245 -2.2 -2.223 -2.123 -2.133 -2.203 -2.275 -2.195 -2.14 -2.23 -2.193 -2.168 -2.228 -2.233 -2.148 -2.19 -2.21 -2.23 -2.205 -2.18 -2.233 -2.175 -2.185 -2.358 -2.223 -2.17 -2.24 -2.233 -2.213 -2.198 -2.253 -2.213 -2.198 -2.213 -2.293 -2.208 -2.175 -2.205 -2.278 -2.218 -2.158 -2.178 -2.151 -2.213 -2.173 -2.268 -2.201 -2.188 -2.171 -2.118 -2.201 -2.216 -2.176 -2.238 -2.248 -2.221 -2.156 -2.191 -2.198 -2.208 -2.183 -2.193 -2.123 -2.198 -2.201 -2.166 -2.216 -2.213 -2.171 -2.151 -2.178 -2.236 -2.223 -2.096 -2.206 -2.246 -2.111 -2.141 -2.223 -2.221 -2.156 -2.221 -2.218 -2.103 -2.211 -2.178 -2.223 -2.146 -2.136 -2.208 -2.226 -2.123 -2.151 -2.243 -2.203 -2.141 -2.156 -2.188 -2.196 -2.168 -2.173 -2.208 -2.263 -2.211 -2.173 -2.198 -2.201 -2.186 -2.163 -2.173 -2.236 -2.146 -2.186 -2.171 -2.138 -2.223 -2.171 -2.171 -2.133 -2.168 -2.176 -2.196 -2.208 -2.131 -2.118 -2.111 -2.261 -2.166 -2.121 -2.246 -2.173 -2.191 -2.246 -2.151 -2.208 -2.221 -2.103 -2.148 -2.216 -2.211 -2.198 -2.176 -2.183 -2.138 -2.286 -2.203 -2.168 -2.206 -2.148 -2.126 -2.221 -2.183 -2.196 -2.181 -2.138 -2.091 -2.188 -2.188 -2.141 -2.193 -2.236 -2.166 -2.161 -2.236 -2.113 -2.148 -2.218 -2.171 -2.243 -2.226 -2.198 -2.211 -2.226 -2.243 -2.161 -2.138 -2.128 -2.218 -2.251 -2.116 -2.218 -2.211 -2.171 -2.233 -2.166 -2.278 -2.143 -2.218 -2.221 -2.136 -2.171 -2.211 -2.128 -2.163 -2.176 -2.181 -2.183 -2.181 -2.088 -2.173 -2.168 -2.136 -2.228 -2.216 -2.203 -2.141 -2.201 -2.186 -2.193 -2.178 -2.186 -2.138 -2.231 -2.273 -2.136 -2.201 -2.241 -2.106 -2.158 -2.201 -2.166 -2.153 -2.196 -2.241 -2.161 -2.181 -2.258 -2.183 -2.163 -2.156 -2.253 -2.153 -2.141 -2.178 -2.246 -2.243 -2.258 -2.233
-2.287 -2.242 -2.199 -2.202 -2.199 -2.247 -2.222 -2.269 -2.239 -2.197 -2.269 -2.262 -2.242 -2.229 -2.244 -2.267 -2.239 -2.254 -2.192 -2.202 -2.239 -2.205 -2.155 -2.235 -2.212 -2.14 -2.262 -2.29 -2.325 -2.247 -2.23 -2.247 -2.237 -2.242 -2.255 -2.207 -2.217 -2.247 -2.2 -2.28 -2.227 -2.227 -2.182 -2.237 -2.202 -2.27 -2.187 -2.237 -2.345 -2.155 -2.22 -2.242 -2.195 -2.167 -2.195 -2.205 -2.267 -2.257 -2.29 -2.252 -2.21 -2.192 -2.227 -2.217 -2.295 -2.222 -2.185 -2.22 -2.237 -2.162 -2.312 -2.342 -2.317 -2.3 -2.272 -2.197 -2.23 -2.152 -2.21 -2.227 -2.21 -2.185 -2.19 -2.347 -2.252 -2.217 -2.222 -2.295 -2.237 -2.23 -2.28 -2.21 -2.277 -2.242 -2.335 -2.34 -2.24 -2.245 -2.255 -2.227 -2.182 -2.172 -2.257 -2.195 -2.207 -2.235 -2.267 -2.17 -2.242 -2.315 -2.167 -2.155 -2.257 -2.222 -2.19 -2.297 -2.26 -2.23 -2.237 -2.28 -2.202 -2.195 -2.27 -2.193 -2.263 -2.273 -2.238 -2.253 -2.2 -2.22 -2.318 -2.328 -2.34 -2.233 -2.265 -2.153 -2.268 -2.258 -2.245 -2.215 -2.233 -2.218 -2.2 -2.228 -2.198 -2.31 -2.268 -2.29 -2.295 -2.283 -2.26 -2.245 -2.2 -2.235 -2.225 -2.233 -2.228 -2.238 -2.25 -9999 -2.231 -2.225 -2.133 -2.123 -2.21 -2.12 -2.138 -2.225 -2.168 -2.155 -2.17 -2.175 -2.225 -2.273 -2.255 -2.21 -2.19 -2.293 -2.235 -2.205 -2.275 -2.213 -2.2 -2.29 -2.218 -2.158 -2.225 -2.148 -2.133 -2.17 -2.19 -2.263 -2.318 -2.24 -2.185 -2.178 -2.173 -2.288 -2.168 -2.163 -2.153 -2.173 -2.183 -2.215 -2.16 -2.148 -2.278 -2.208 -2.123 -2.23 -2.198 -2.135 -2.198 -2.163 -2.165 -2.19 -2.118 -2.17 -2.255 -2.225 -2.168 -2.193 -2.078 -2.18 -2.218 -2.18 -2.22 -2.28 -2.15 -2.138 -2.293 -2.248 -2.168 -2.223 -2.275 -2.2 -2.213 -2.213 -2.148 -2.22 -2.255 -2.213 -2.208 -2.278 -2.178 -2.183 -2.195 -2.145 -2.223 -2.17 -2.193 -2.238 -2.23 -2.228 -2.193 -2.225 -2.26 -2.203 -2.178 -2.178 -2.235 -2.19 -2.148 -2.173 -2.23 -2.218 -2.198 -2.28 -2.35 -2.235 -2.22 -2.218 -2.188 -2.206 -2.176 -2.151 -2.183 -2.206 -2.291 -2.151 -2.228 -2.201 -2.098 -2.176 -2.273 -2.138 -2.178 -2.273 -2.213 -2.058 -2.196 -2.213 -2.196 -2.218 -2.206 -2.143 -2.278 -2.221 -2.183 -2.213 -2.196 -2.148 -2.173 -2.183 -2.178 -2.181 -2.163 -2.143 -2.253 -2.123 -2.133 -2.223 -2.218 -2.198 -2.168 -2.141 -2.146 -2.166 -2.186 -2.216 -2.143 -2.166 -2.228 -2.211 -2.123 -2.143 -2.196 -2.233 -2.133 -2.136 -2.156 -2.208 -2.183 -2.188 -2.193 -2.213 -2.231 -2.166 -2.153 -2.173 -2.208 -2.123 -2.148 -2.196 -2.121 -2.253 -2.171 -2.123 -2.188 -2.193 -2.193 -2.166 -2.178 -2.191 -2.183 -2.206 -2.201 -2.133 -2.116 -2.228 -2.203 -2.116 -2.236 -2.201 -2.166 -2.241 -2.151 -2.163 -2.171 -2.131 -2.196 -2.218 -2.166 -2.156 -2.188 -2.151 -2.163 -2.273 -2.143 -2.183 -2.201 -2.121 -2.166 -2.228 -2.221 -2.203 -2.226 -2.128 -2.148 -2.201 -2.148 -2.128 -2.143 -2.183 -2.163 -2.181 -2.243 -2.123 -2.081 -2.201 -2.163 -2.206 -2.261 -2.211 -2.133 -2.193 -2.301 -2.223 -2.191 -2.136 -2.146 -2.248 -2.081 -2.181 -2.168 -2.153 -2.156 -2.158 -2.236 -2.163 -2.238 -2.228 -2.158 -2.173 -2.223 -2.153 -2.178 -2.186 -2.168 -2.226 -2.226 -2.133 -2.151 -2.228 -2.138 -2.188 -2.268 -2.138 -2.141 -2.218 -2.176 -2.186 -2.143 -2.206 -2.208 -2.171 -2.298 -2.151 -2.413 -2.246 -2.198 -2.238 -2.203 -2.188 -2.128 -2.196 -2.228 -2.158 -2.211 -2.271 -2.258 -2.221 -2.223 -2.311 -2.173 -2.113 -2.281 -2.198 -2.146 -2.213 -2.221
-2.257 -2.169 -2.239 -2.234 -2.222 -2.249 -2.237 -2.254 -2.204 -2.189 -2.272 -2.262 -2.257 -2.229 -2.214 -2.224 -2.174 -2.207 -2.182 -2.224 -2.199 -2.167 -2.175 -2.235 -2.222 -2.135 -2.252 -2.255 -2.28 -2.307 -2.24 -2.23 -2.212 -2.192 -2.26 -2.225 -2.252 -2.295 -2.177 -2.237 -2.312 -2.237 -2.145 -2.165 -2.247 -2.232 -2.145 -2.245 -2.39 -2.3 -2.31 -2.26 -2.195 -2.177 -2.212 -2.215 -2.242 -2.247 -2.297 -2.347 -2.26 -2.195 -2.165 -2.23 -2.285 -2.215 -2.172 -2.222 -2.275 -2.182 -2.245 -2.23 -2.235 -2.265 -2.242 -2.257 -2.247 -2.152 -2.222 -2.21 -2.27 -2.217 -2.207 -2.26 -2.225 -2.22 -2.205 -2.287 -2.247 -2.265 -2.215 -2.18 -2.207 -2.19 -2.335 -2.3 -2.2 -2.225 -2.217 -2.242 -2.165 -2.19 -2.247 -2.207 -2.312 -2.252 -2.22 -2.16 -2.27 -2.265 -2.202 -2.14 -2.257 -2.277 -2.172 -2.237 -2.195 -2.24 -2.275 -2.28 -2.28 -2.208 -2.208 -2.218 -2.228 -2.238 -2.283 -2.315 -2.25 -2.183 -2.253 -2.235 -2.268 -2.3 -2.268 -2.183 -2.27 -2.208 -2.208 -2.238 -2.285 -2.233 -2.178 -2.125 -2.17 -2.233 -2.218 -2.315 -2.213 -2.13 -2.248 -2.25 -2.215 -2.118 -2.195 -2.288 -2.253 -2.218 -9999 -9999 -2.198 -2.2 -2.2 -2.273 -2.208 -2.195 -2.243 -2.183 -2.205 -2.215 -2.245 -2.29 -2.175 -2.35 -2.28 -2.245 -2.24 -2.315 -2.265 -2.17 -2.158 -2.225 -2.29 -2.293 -2.275 -2.213 -2.23 -2.183 -2.188 -2.22 -2.228 -2.213 -2.245 -2.26 -2.195 -2.19 -2.18 -2.24 -2.14 -2.2 -2.205 -2.153 -2.188 -2.225 -2.2 -2.21 -2.23 -2.165 -2.14 -2.22 -2.173 -2.138 -2.2 -2.17 -2.145 -2.208 -2.198 -2.218 -2.17 -2.215 -2.178 -2.198 -2.148 -2.178 -2.253 -2.235 -2.26 -2.185 -2.155 -2.13 -2.15 -2.203 -2.183 -2.14 -2.228 -2.223 -2.218 -2.158 -2.188 -2.245 -2.248 -2.173 -2.193 -2.23 -2.178 -2.188 -2.288 -2.195 -2.173 -2.228 -2.175 -2.248 -2.275 -2.248 -2.215 -2.198 -2.25 -2.183 -2.205 -2.188 -2.22 -2.138 -2.215 -2.158 -2.213 -2.173 -2.225 -2.205 -2.29 -2.193 -2.24 -2.238 -2.168 -2.161 -2.226 -2.163 -2.158 -2.181 -2.196 -2.236 -2.231 -2.168 -2.116 -2.178 -2.258 -2.148 -2.163 -2.226 -2.208 -2.153 -2.206 -2.216 -2.181 -2.201 -2.178 -2.151 -2.218 -2.176 -2.193 -2.158 -2.216 -2.138 -2.166 -2.188 -2.161 -2.173 -2.161 -2.151 -2.241 -2.123 -2.186 -2.186 -2.241 -2.223 -2.191 -2.118 -2.246 -2.211 -2.211 -2.233 -2.146 -2.111 -2.233 -2.238 -2.131 -2.163 -2.238 -2.241 -2.146 -2.121 -2.161 -2.188 -2.188 -2.193 -2.151 -2.193 -2.173 -2.151 -2.151 -2.171 -2.226 -2.183 -2.158 -2.096 -2.196 -2.243 -2.181 -2.156 -2.138 -2.226 -2.203 -2.156 -2.138 -2.218 -2.183 -2.218 -2.223 -2.171 -2.136 -2.233 -2.168 -2.118 -2.263 -2.206 -2.248 -2.251 -2.141 -2.196 -2.193 -2.168 -2.163 -2.151 -2.178 -2.226 -2.183 -2.133 -2.163 -2.236 -2.171 -2.218 -2.253 -2.116 -2.203 -2.206 -2.243 -2.196 -2.196 -2.178 -2.181 -2.178 -2.198 -2.158 -2.146 -2.191 -2.183 -2.193 -2.216 -2.093 -2.126 -2.251 -2.143 -2.166 -2.243 -2.241 -2.161 -2.208 -2.278 -2.208 -2.158 -2.166 -2.178 -2.226 -2.118 -2.128 -2.201 -2.161 -2.121 -2.173 -2.198 -2.183 -2.228 -2.243 -2.166 -2.206 -2.203 -2.168 -2.136 -2.206 -2.198 -2.088 -2.273 -2.153 -2.183 -2.163 -2.201 -2.128 -2.208 -2.163 -2.148 -2.188 -2.158 -2.113 -2.111 -2.223 -2.173 -2.101 -2.201 -2.171 -2.218 -2.191 -2.131 -2.256 -2.213 -2.188 -2.141 -2.248 -2.171 -2.138 -2.191 -2.218 -2.198 -2.221 -2.121 -2.223 -2.191 -2.151 -2.233 -2.196 -2.101 -2.143 -2.231
-2.219 -2.202 -2.207 -2.307 -2.272 -2.309 -2.237 -2.272 -2.229 -2.194 -2.249 -2.232 -2.217 -2.234 -2.237 -2.227 -2.149 -2.239 -2.174 -2.287 -2.207 -2.187 -2.252 -2.25 -2.165 -2.14 -2.197 -2.177 -2.23 -2.26 -2.185 -2.185 -2.182 -2.242 -2.25 -2.25 -2.202 -2.275 -2.185 -2.19 -2.272 -2.262 -2.197 -2.277 -2.292 -2.185 -2.065 -2.147 -2.237 -2.312 -2.215 -2.212 -2.217 -2.157 -2.205 -2.205 -2.142 -2.23 -2.287 -2.265 -2.185 -2.202 -2.167 -2.2 -2.27 -2.245 -2.125 -2.327 -2.355 -2.192 -2.182 -2.297 -2.247 -2.247 -2.255 -2.257 -2.267 -2.25 -2.222 -2.147 -2.205 -2.192 -2.2 -2.222 -2.217 -2.245 -2.325 -2.25 -2.187 -2.24 -2.215 -2.162 -2.187 -2.237 -2.31 -2.262 -2.202 -2.17 -2.187 -2.22 -2.207 -2.22 -2.277 -2.22 -2.222 -2.305 -2.292 -2.187 -2.302 -2.27 -2.27 -2.192 -2.202 -2.337 -2.215 -2.212 -2.235 -2.34 -2.35 -2.297 -2.267 -9999 -9999 -9999 -2.188 -2.213 -2.275 -2.353 -2.243 -2.215 -2.283 -2.285 -2.253 -2.318 -2.255 -2.225 -2.248 -9999 -2.233 -2.145 -2.295 -2.283 -2.215 -2.203 -2.2 -2.135 -2.235 -2.275 -2.248 -2.19 -2.193 -2.223 -2.275 -2.255 -2.323 -2.313 -2.153 -2.168 -9999 -9999 -9999 -2.173 -2.178 -2.243 -2.263 -2.203 -2.215 -2.185 -2.258 -2.108 -9999 -9999 -2.093 -2.255 -2.228 -2.17 -2.195 -2.273 -2.24 -2.198 -2.238 -2.31 -2.29 -2.273 -2.29 -2.173 -2.233 -2.18 -2.195 -2.273 -2.26 -2.255 -2.238 -2.29 -2.258 -2.208 -2.12 -2.218 -2.125 -2.203 -2.318 -2.19 -2.175 -2.24 -2.218 -2.188 -2.283 -2.195 -2.16 -2.215 -2.278 -2.215 -2.183 -2.263 -2.21 -2.263 -2.195 -2.313 -2.248 -2.188 -2.16 -2.168 -2.203 -2.185 -2.195 -2.295 -2.21 -2.2 -2.218 -2.075 -2.188 -2.2 -2.165 -2.178 -2.22 -2.225 -2.16 -2.215 -2.225 -2.203 -2.283 -2.28 -2.18 -2.233 -2.195 -2.195 -2.178 -2.255 -2.268 -2.19 -2.158 -2.225 -2.228 -2.283 -2.25 -2.263 -2.22 -2.16 -2.24 -2.233 -2.16 -2.123 -2.178 -2.17 -2.15 -2.175 -2.223 -2.215 -2.235 -2.178 -2.253 -2.198 -2.193 -2.221 -2.288 -2.203 -2.158 -2.248 -2.268 -2.236 -2.261 -2.231 -2.103 -2.166 -2.268 -2.183 -2.208 -2.226 -2.151 -2.153 -2.183 -2.236 -2.158 -2.223 -2.273 -2.153 -2.231 -2.191 -2.268 -2.196 -2.246 -2.148 -2.198 -2.241 -2.141 -2.151 -2.193 -2.171 -2.203 -2.183 -2.166 -2.168 -2.178 -2.243 -2.196 -2.201 -2.238 -2.196 -2.161 -2.193 -2.191 -2.156 -2.181 -2.213 -2.123 -2.161 -2.221 -2.221 -2.148 -2.183 -2.206 -2.183 -2.241 -2.171 -2.158 -2.223 -2.168 -2.168 -2.191 -2.168 -2.166 -2.168 -2.128 -2.108 -2.168 -2.228 -2.183 -2.201 -2.158 -2.226 -2.323 -2.221 -2.176 -2.236 -2.178 -2.191 -2.213 -2.163 -2.096 -2.246 -2.196 -2.091 -2.198 -2.236 -2.126 -2.216 -2.216 -2.211 -2.213 -2.168 -2.166 -2.166 -2.151 -2.333 -2.158 -2.071 -2.216 -2.233 -2.183 -2.241 -2.193 -2.198 -2.246 -2.176 -2.181 -2.171 -2.173 -2.176 -2.211 -2.153 -2.198 -2.231 -2.166 -2.186 -2.176 -2.176 -2.221 -2.083 -2.118 -2.218 -2.151 -2.146 -2.153 -2.221 -2.118 -2.186 -2.286 -2.251 -2.213 -2.131 -2.216 -2.216 -2.153 -2.156 -2.163 -2.233 -2.148 -2.176 -2.211 -2.173 -2.211 -2.253 -2.233 -2.118 -2.201 -2.186 -2.151 -2.193 -2.188 -2.143 -2.283 -2.153 -2.176 -2.148 -2.173 -2.238 -2.151 -2.146 -2.158 -2.188 -2.196 -2.168 -2.111 -2.188 -2.181 -2.146 -2.153 -2.196 -2.163 -2.216 -2.136 -2.213 -2.271 -2.243 -2.143 -2.253 -2.176 -2.126 -2.171 -2.203 -2.231 -2.196 -2.161 -2.188 -2.183 -2.153 -2.183 -2.238 -2.161 -2.098 -2.156
-2.227 -2.229 -2.239 -2.267 -2.197 -2.252 -2.192 -2.282 -2.184 -2.204 -2.197 -2.269 -2.269 -2.272 -2.264 -2.267 -2.212 -2.137 -2.232 -2.277 -2.217 -2.215 -2.21 -2.23 -2.147 -2.145 -2.23 -2.257 -2.182 -2.26 -2.207 -2.225 -2.217 -2.177 -2.195 -2.162 -2.227 -2.22 -2.255 -2.235 -2.24 -2.297 -2.21 -2.155 -2.307 -2.177 -2.145 -2.245 -2.247 -2.21 -2.185 -2.262 -2.247 -2.22 -2.287 -2.162 -2.155 -2.272 -2.307 -2.245 -2.21 -2.232 -2.14 -2.182 -2.277 -2.255 -2.222 -2.302 -2.322 -2.245 -2.24 -2.255 -2.215 -2.28 -2.177 -2.245 -2.255 -2.247 -2.247 -2.277 -2.257 -2.217 -2.24 -2.27 -2.275 -2.232 -2.24 -2.225 -2.197 -2.197 -2.295 -2.225 -2.227 -2.205 -2.28 -2.275 -2.232 -2.202 -2.262 -2.275 -2.287 -2.312 -2.282 -2.25 -2.24 -2.265 -2.275 -2.237 -2.235 -2.262 -2.292 -2.257 -2.205 -2.265 -2.285 -2.257 -2.275 -2.422 -2.275 -2.247 -2.287 -2.218 -9999 -2.238 -2.281 -2.23 -2.33 -2.408 -2.353 -2.238 -2.253 -2.303 -2.255 -2.21 -2.205 -2.243 -9999 -9999 -2.275 -2.145 -2.218 -2.283 -2.165 -2.195 -9999 -9999 -9999 -2.303 -2.183 -2.208 -2.205 -2.23 -2.275 -2.288 -2.268 -2.295 -2.19 -2.248 -9999 -9999 -9999 -2.243 -2.188 -2.223 -2.283 -2.258 -2.195 -2.163 -2.238 -2.22 -9999 -9999 -2.173 -2.318 -2.19 -2.223 -2.183 -2.208 -2.193 -2.26 -2.258 -2.263 -2.3 -2.275 -2.198 -2.188 -2.25 -2.168 -2.173 -2.15 -2.218 -2.208 -2.205 -2.288 -2.213 -2.14 -2.168 -2.235 -2.153 -2.113 -2.26 -2.183 -2.11 -2.235 -2.215 -2.18 -2.285 -2.333 -2.213 -2.238 -2.228 -2.183 -2.133 -2.185 -2.248 -2.213 -2.17 -2.223 -2.258 -2.22 -2.218 -2.153 -2.21 -2.173 -2.143 -2.168 -2.228 -2.213 -2.21 -2.17 -2.193 -2.19 -2.17 -2.175 -2.148 -2.168 -2.115 -2.165 -2.145 -2.17 -2.215 -2.318 -2.213 -2.263 -2.273 -2.22 -2.255 -2.19 -2.27 -2.168 -2.228 -2.24 -2.213 -2.2 -2.228 -2.21 -2.23 -2.233 -2.24 -2.2 -2.193 -2.153 -2.208 -2.133 -2.173 -2.215 -2.19 -2.198 -2.235 -2.175 -2.255 -2.193 -2.216 -2.158 -2.203 -2.246 -2.161 -2.173 -2.223 -2.276 -2.263 -2.233 -2.216 -2.203 -2.226 -2.166 -2.208 -2.256 -2.183 -2.171 -2.116 -2.183 -2.183 -2.181 -2.253 -2.163 -2.178 -2.181 -2.263 -2.188 -2.221 -2.113 -2.163 -2.278 -2.153 -2.141 -2.226 -2.171 -2.188 -2.201 -2.196 -2.168 -2.183 -2.213 -2.236 -2.146 -2.198 -2.218 -2.173 -2.263 -2.218 -2.128 -2.178 -2.233 -2.178 -2.223 -2.208 -2.183 -2.183 -2.233 -2.126 -2.156 -2.196 -2.161 -2.216 -2.193 -2.158 -2.226 -2.261 -2.136 -2.138 -2.176 -2.193 -2.123 -2.161 -2.261 -2.168 -2.198 -2.158 -2.141 -2.258 -2.193 -2.138 -2.176 -2.196 -2.163 -2.168 -2.218 -2.111 -2.256 -2.171 -2.083 -2.183 -2.243 -2.121 -2.171 -2.211 -2.161 -2.191 -2.193 -2.143 -2.231 -2.161 -2.246 -2.181 -2.116 -2.193 -2.158 -2.208 -2.216 -2.203 -2.171 -2.153 -2.188 -2.191 -2.166 -2.178 -2.221 -2.226 -2.166 -2.206 -2.231 -2.131 -2.161 -2.158 -2.146 -2.241 -2.088 -2.171 -2.256 -2.158 -2.163 -2.186 -2.228 -2.181 -2.201 -2.231 -2.186 -2.208 -2.181 -2.203 -2.213 -2.178 -2.146 -2.126 -2.203 -2.186 -2.201 -2.243 -2.153 -2.161 -2.191 -2.266 -2.178 -2.258 -2.216 -2.138 -2.181 -2.193 -2.153 -2.198 -2.166 -2.181 -2.171 -2.191 -2.236 -2.188 -2.191 -2.223 -2.143 -2.168 -2.178 -2.116 -2.213 -2.133 -2.138 -2.183 -2.218 -2.166 -2.208 -2.158 -2.118 -2.163 -2.208 -2.153 -2.138 -2.161 -2.146 -2.171 -2.161 -2.171 -2.236 -2.186 -2.163 -2.198 -2.131 -2.128 -2.208 -2.168 -2.158 -2.181
-2.159 -2.264 -2.214 -2.232 -2.214 -2.229 -2.312 -2.227 -2.164 -2.204 -2.267 -2.304 -2.327 -2.264 -2.227 -2.209 -2.177 -2.172 -2.247 -2.269 -2.182 -2.192 -2.2 -2.2 -2.212 -2.185 -2.28 -2.292 -2.167 -2.185 -2.3 -2.172 -2.195 -2.225 -2.217 -2.21 -2.197 -2.212 -2.245 -2.257 -2.252 -2.277 -2.26 -2.217 -2.31 -2.21 -2.175 -2.202 -2.18 -2.25 -2.217 -2.272 -2.185 -2.275 -2.29 -2.147 -2.25 -2.252 -2.287 -2.282 -2.24 -2.292 -2.175 -2.137 -2.25 -2.267 -2.207 -2.21 -2.275 -2.237 -2.257 -2.202 -2.225 -2.317 -2.17 -2.14 -2.225 -2.242 -2.245 -2.192 -2.262 -2.217 -2.287 -2.272 -2.217 -2.21 -2.165 -2.207 -2.205 -2.21 -2.287 -2.255 -2.235 -2.252 -2.337 -2.242 -2.287 -2.282 -2.277 -2.252 -2.212 -2.205 -2.23 -2.225 -2.275 -2.197 -2.212 -2.28 -2.275 -2.187 -2.217 -2.242 -2.25 -2.245 -2.29 -2.247 -2.26 -2.24 -2.21 -2.242 -2.207 -2.198 -2.218 -2.265 -2.333 -2.268 -2.23 -2.363 -2.318 -2.26 -2.298 -2.288 -2.263 -2.25 -2.208 -2.233 -9999 -9999 -2.244 -2.195 -2.273 -2.245 -2.19 -2.243 -9999 -9999 -9999 -2.248 -2.29 -2.208 -2.248 -2.195 -2.223 -2.225 -2.163 -2.233 -2.245 -2.24 -2.214 -9999 -9999 -2.288 -2.25 -2.195 -2.203 -2.198 -2.183 -2.148 -2.23 -2.218 -2.158 -2.153 -2.278 -2.275 -2.143 -2.25 -2.198 -2.218 -9999 -9999 -2.173 -2.305 -2.293 -2.323 -2.28 -2.195 -2.238 -2.175 -2.15 -2.178 -2.215 -2.203 -2.235 -2.268 -2.198 -2.138 -2.2 -2.153 -2.163 -2.155 -2.313 -2.195 -2.133 -2.235 -2.273 -2.245 -2.183 -2.243 -2.22 -2.18 -2.218 -2.253 -2.15 -2.17 -2.225 -2.238 -2.09 -2.133 -2.248 -2.253 -2.193 -2.17 -2.195 -2.148 -2.165 -2.185 -2.198 -2.205 -2.2 -2.16 -2.213 -2.22 -2.145 -2.245 -2.255 -2.16 -2.125 -2.185 -2.208 -2.105 -2.188 -2.278 -2.215 -2.193 -2.22 -2.243 -2.25 -2.183 -2.295 -2.198 -2.218 -2.283 -2.203 -2.13 -2.198 -2.25 -2.19 -2.265 -2.243 -2.245 -2.225 -2.185 -2.195 -2.213 -2.19 -2.165 -2.12 -2.188 -2.23 -2.228 -2.178 -2.233 -2.216 -2.198 -2.226 -2.281 -2.206 -2.173 -2.218 -2.268 -2.163 -2.186 -2.243 -2.233 -2.203 -2.181 -2.196 -2.183 -2.226 -2.171 -2.168 -2.233 -2.223 -2.156 -2.196 -2.203 -2.126 -2.176 -2.246 -2.213 -2.281 -2.173 -2.191 -2.246 -2.166 -2.178 -2.246 -2.211 -2.173 -2.223 -2.258 -2.178 -2.186 -2.211 -2.231 -2.148 -2.196 -2.291 -2.221 -2.213 -2.216 -2.136 -2.153 -2.161 -2.156 -2.126 -2.211 -2.176 -2.176 -2.233 -2.141 -2.183 -2.201 -2.158 -2.228 -2.186 -2.153 -2.193 -2.218 -2.226 -2.191 -2.188 -2.156 -2.163 -2.153 -2.243 -2.103 -2.201 -2.198 -2.113 -2.241 -2.201 -2.138 -2.231 -2.146 -2.168 -2.151 -2.163 -2.153 -2.201 -2.183 -2.061 -2.211 -2.206 -2.176 -2.163 -2.228 -2.143 -2.173 -2.213 -2.168 -2.208 -2.166 -2.163 -2.201 -2.136 -2.213 -2.183 -2.191 -2.173 -2.218 -2.153 -2.126 -2.221 -2.231 -2.176 -2.153 -2.133 -2.263 -2.201 -2.163 -2.213 -2.191 -2.181 -2.241 -2.143 -2.178 -2.153 -2.138 -2.201 -2.246 -2.178 -2.201 -2.208 -2.191 -2.188 -2.228 -2.146 -2.183 -2.208 -2.193 -2.206 -2.176 -2.146 -2.136 -2.208 -2.201 -2.183 -2.213 -2.173 -2.156 -2.198 -2.201 -2.133 -2.161 -2.213 -2.103 -2.161 -2.258 -2.206 -2.133 -2.178 -2.153 -2.141 -2.208 -2.243 -2.171 -2.121 -2.151 -2.191 -2.191 -2.208 -2.163 -2.191 -2.216 -2.161 -2.183 -2.243 -2.133 -2.186 -2.181 -2.183 -2.128 -2.118 -2.151 -2.178 -2.186 -2.211 -2.201 -2.258 -2.203 -2.238 -2.178 -2.171 -2.253 -2.098 -2.193 -2.233 -2.208 -2.153 -2.211
-2.132 -2.184 -2.252 -2.232 -2.232 -2.177 -2.189 -2.202 -2.169 -2.254 -2.227 -2.292 -2.297 -2.274 -2.264 -2.222 -2.239 -2.209 -2.239 -2.257 -2.154 -2.217 -2.225 -2.16 -2.155 -2.117 -2.17 -2.242 -2.267 -2.202 -2.267 -2.277 -2.155 -2.215 -2.227 -2.215 -2.222 -2.262 -2.235 -2.235 -2.295 -2.292 -2.215 -2.25 -2.222 -2.265 -2.222 -2.237 -2.2 -2.197 -2.172 -2.212 -2.177 -2.262 -2.252 -2.185 -2.237 -2.205 -2.235 -2.262 -2.24 -2.23 -2.17 -2.175 -2.232 -2.262 -2.19 -2.202 -2.287 -2.212 -2.292 -2.287 -2.325 -2.342 -2.225 -2.172 -2.207 -2.2 -2.225 -2.167 -2.105 -2.195 -2.197 -2.2 -2.222 -2.177 -2.282 -2.315 -2.245 -2.175 -2.212 -2.18 -2.16 -2.215 -2.255 -2.262 -2.317 -2.295 -2.255 -2.227 -2.167 -2.227 -2.19 -2.175 -2.312 -2.287 -2.275 -2.21 -2.28 -2.247 -2.19 -2.177 -2.235 -2.255 -2.27 -2.305 -2.252 -2.24 -2.34 -2.21 -2.24 -2.23 -2.258 -2.305 -2.323 -2.275 -2.205 -2.18 -2.22 -2.243 -2.298 -2.325 -2.33 -2.383 -2.188 -2.23 -2.273 -2.245 -2.15 -2.198 -2.335 -2.265 -2.168 -9999 -2.258 -9999 -9999 -2.19 -2.198 -2.183 -2.285 -2.323 -2.238 -2.213 -2.14 -2.223 -2.173 -2.205 -2.318 -2.208 -2.213 -2.258 -2.25 -2.218 -2.285 -2.298 -2.193 -2.2 -2.28 -2.198 -2.158 -2.175 -2.193 -2.228 -2.14 -2.318 -2.288 -2.308 -2.278 -9999 -2.213 -2.273 -2.285 -2.27 -2.198 -2.14 -2.185 -2.18 -2.29 -2.233 -2.23 -2.253 -2.15 -2.318 -2.273 -2.298 -2.22 -2.203 -2.163 -2.163 -2.22 -2.203 -2.155 -2.128 -2.175 -2.165 -2.163 -2.233 -2.203 -2.183 -2.208 -2.243 -2.185 -2.123 -2.17 -2.268 -2.165 -2.165 -2.233 -2.253 -2.208 -2.193 -2.238 -2.168 -2.233 -2.208 -2.168 -2.16 -2.183 -2.2 -2.138 -2.218 -2.188 -2.208 -2.278 -2.198 -2.168 -2.175 -2.2 -2.105 -2.22 -2.313 -2.243 -2.193 -2.22 -2.19 -2.203 -2.27 -2.295 -2.16 -2.208 -2.195 -2.168 -2.168 -2.215 -2.19 -2.17 -2.24 -2.265 -2.243 -2.275 -2.235 -2.243 -2.223 -2.238 -2.203 -2.115 -2.203 -2.285 -2.255 -2.25 -2.196 -2.191 -2.176 -2.236 -2.216 -2.236 -2.126 -2.226 -2.206 -2.176 -2.178 -2.223 -2.243 -2.181 -2.218 -2.166 -2.228 -2.218 -2.216 -2.136 -2.213 -2.243 -2.128 -2.136 -2.216 -2.211 -2.218 -2.166 -2.171 -2.223 -2.221 -2.183 -2.258 -2.173 -2.146 -2.246 -2.218 -2.153 -2.148 -2.291 -2.193 -2.151 -2.236 -2.236 -2.166 -2.148 -2.253 -2.216 -2.151 -2.196 -2.158 -2.146 -2.191 -2.188 -2.253 -2.201 -2.188 -2.191 -2.241 -2.238 -2.231 -2.178 -2.158 -2.166 -2.188 -2.206 -2.161 -2.231 -2.171 -2.181 -2.148 -2.166 -2.093 -2.166 -2.196 -2.168 -2.191 -2.228 -2.123 -2.218 -2.196 -2.163 -2.206 -2.121 -2.196 -2.188 -2.118 -2.171 -2.146 -2.196 -2.108 -2.228 -2.178 -2.128 -2.158 -2.186 -2.161 -2.143 -2.218 -2.173 -2.146 -2.146 -2.138 -2.128 -2.216 -2.198 -2.231 -2.216 -2.193 -2.131 -2.193 -2.113 -2.156 -2.231 -2.163 -2.156 -2.133 -2.256 -2.186 -2.158 -2.228 -2.163 -2.181 -2.231 -2.121 -2.188 -2.163 -2.143 -2.198 -2.196 -2.163 -2.221 -2.206 -2.253 -2.258 -2.226 -2.193 -2.241 -2.203 -2.118 -2.218 -2.218 -2.101 -2.153 -2.191 -2.156 -2.173 -2.201 -2.181 -2.211 -2.213 -2.271 -2.138 -2.188 -2.213 -2.111 -2.101 -2.258 -2.168 -2.123 -2.203 -2.148 -2.176 -2.176 -2.203 -2.168 -2.196 -2.156 -2.153 -2.173 -2.238 -2.128 -2.166 -2.218 -2.191 -2.181 -2.251 -2.226 -2.196 -2.161 -2.233 -2.238 -2.106 -2.178 -2.208 -2.136 -2.183 -2.211 -2.243 -2.126 -2.171 -2.143 -2.116 -2.173 -2.093 -2.186 -2.201 -2.266 -2.181 -2.206
-2.174 -2.177 -2.199 -2.234 -2.192 -2.207 -2.187 -2.184 -2.154 -2.224 -2.194 -2.277 -2.279 -2.232 -2.332 -2.262 -2.222 -2.249 -2.204 -2.194 -2.147 -2.315 -2.202 -2.23 -2.155 -2.157 -2.202 -2.1 -2.22 -2.17 -2.247 -2.232 -2.2 -2.24 -2.247 -2.245 -2.22 -2.29 -2.237 -2.222 -2.247 -2.275 -2.172 -2.227 -2.25 -2.237 -2.235 -2.232 -2.237 -2.337 -2.302 -2.222 -2.122 -2.177 -2.24 -2.177 -2.217 -2.28 -2.222 -2.285 -2.147 -2.11 -2.235 -2.252 -2.232 -2.275 -2.205 -2.277 -2.32 -2.202 -2.232 -2.31 -2.292 -2.352 -2.212 -2.21 -2.272 -2.235 -2.222 -2.237 -2.14 -2.227 -2.177 -2.19 -2.207 -2.167 -2.275 -2.295 -2.282 -2.182 -2.222 -2.182 -2.16 -2.217 -2.13 -2.255 -2.252 -2.275 -2.302 -2.2 -2.177 -2.257 -2.195 -2.232 -2.3 -2.327 -2.23 -2.175 -2.27 -2.367 -2.36 -2.32 -2.212 -2.2 -2.272 -2.365 -2.305 -2.277 -2.255 -2.272 -2.302 -2.228 -2.27 -2.243 -2.288 -2.283 -2.28 -2.238 -2.218 -2.243 -2.228 -2.21 -2.218 -2.235 -2.208 -2.263 -2.285 -2.158 -2.193 -9999 -9999 -2.285 -9999 -9999 -2.253 -2.215 -2.198 -2.193 -2.273 -2.273 -2.273 -2.363 -2.29 -2.235 -2.213 -2.215 -2.243 -2.22 -2.288 -2.263 -2.243 -2.28 -2.253 -2.275 -2.288 -2.375 -2.208 -2.203 -2.32 -2.275 -2.198 -2.175 -2.133 -2.208 -2.185 -2.283 -2.3 -2.33 -2.305 -2.234 -2.251 -2.253 -2.255 -2.23 -2.18 -2.193 -2.205 -2.205 -2.178 -2.145 -2.21 -2.235 -2.198 -2.28 -2.255 -2.21 -2.185 -2.215 -2.163 -2.168 -2.173 -2.203 -2.203 -2.17 -2.15 -2.173 -2.113 -2.17 -2.228 -2.24 -2.195 -2.27 -2.285 -2.158 -2.153 -2.228 -2.135 -2.163 -2.14 -2.16 -2.115 -2.15 -2.195 -2.198 -2.205 -2.29 -2.185 -2.13 -2.208 -2.22 -2.185 -2.2 -2.15 -2.178 -2.265 -2.195 -2.19 -2.223 -2.25 -2.163 -2.163 -2.29 -2.225 -2.29 -2.273 -2.193 -2.188 -2.143 -2.213 -2.148 -2.185 -2.213 -2.208 -2.198 -2.245 -2.225 -2.185 -2.205 -2.213 -2.23 -2.175 -2.148 -2.203 -2.138 -2.24 -2.21 -2.185 -2.183 -2.255 -2.175 -2.165 -2.156 -2.273 -2.198 -2.196 -2.173 -2.146 -2.161 -2.176 -2.236 -2.191 -2.113 -2.253 -2.231 -2.193 -2.206 -2.141 -2.221 -2.241 -2.201 -2.196 -2.176 -2.216 -2.156 -2.116 -2.213 -2.211 -2.236 -2.148 -2.163 -2.263 -2.196 -2.143 -2.243 -2.218 -2.183 -2.183 -2.223 -2.208 -2.213 -2.271 -2.193 -2.141 -2.226 -2.281 -2.151 -2.146 -2.231 -2.221 -2.188 -2.238 -2.231 -2.193 -2.186 -2.221 -2.223 -2.241 -2.161 -2.198 -2.216 -2.241 -2.168 -2.238 -2.171 -2.163 -2.111 -2.196 -2.116 -2.231 -2.198 -2.156 -2.198 -2.178 -2.161 -2.216 -2.198 -2.156 -2.186 -2.198 -2.146 -2.203 -2.166 -2.183 -2.198 -2.193 -2.173 -2.156 -2.166 -2.191 -2.186 -2.141 -2.168 -2.248 -2.183 -2.181 -2.166 -2.216 -2.213 -2.206 -2.196 -2.158 -2.138 -2.146 -2.166 -2.181 -2.186 -2.213 -2.251 -2.218 -2.138 -2.176 -2.171 -2.173 -2.193 -2.211 -2.153 -2.168 -2.156 -2.186 -2.213 -2.171 -2.218 -2.206 -2.211 -2.238 -2.183 -2.211 -2.133 -2.101 -2.156 -2.188 -2.173 -2.181 -2.163 -2.258 -2.198 -2.203 -2.168 -2.141 -2.198 -2.133 -2.183 -2.258 -2.076 -2.093 -2.253 -2.178 -2.171 -2.218 -2.176 -2.163 -2.223 -2.188 -2.168 -2.123 -2.166 -2.188 -2.146 -2.176 -2.231 -2.178 -2.311 -2.198 -2.186 -2.161 -2.166 -2.121 -2.148 -2.216 -2.118 -2.118 -2.088 -2.156 -2.156 -2.178 -2.198 -2.191 -2.223 -2.208 -2.238 -2.138 -2.176 -2.136 -2.086 -2.186 -2.176 -2.083 -2.128 -2.228 -2.188 -2.201 -2.153 -2.141 -2.211 -2.181 -2.123 -2.238 -2.148 -2.146 -2.211 -2.148
-2.169 -2.187 -2.169 -2.244 -2.159 -2.132 -2.272 -2.222 -2.207 -2.232 -2.177 -2.234 -2.314 -2.229 -2.309 -2.299 -2.217 -2.272 -2.242 -2.234 -2.232 -2.255 -2.18 -2.177 -2.15 -2.192 -2.175 -2.122 -2.2 -2.175 -2.24 -2.31 -2.202 -2.122 -2.272 -2.232 -2.242 -2.202 -2.267 -2.217 -2.215 -2.28 -2.297 -2.277 -2.277 -2.202 -2.262 -2.302 -2.21 -2.322 -2.277 -2.202 -2.2 -2.237 -2.245 -2.205 -2.207 -2.282 -2.192 -2.287 -2.22 -2.235 -2.307 -2.25 -2.227 -2.275 -2.185 -2.232 -2.315 -2.24 -2.202 -2.277 -2.35 -2.232 -2.202 -2.252 -2.192 -2.255 -2.255 -2.185 -2.152 -2.205 -2.14 -2.17 -2.245 -2.217 -2.232 -2.207 -2.242 -2.242 -2.3 -2.2 -2.227 -2.257 -2.24 -2.145 -2.15 -2.222 -2.262 -2.245 -2.24 -2.272 -2.235 -2.282 -2.287 -2.265 -2.295 -2.202 -2.292 -2.282 -2.247 -2.257 -2.212 -2.197 -2.22 -2.292 -2.265 -2.292 -2.237 -2.26 -2.237 -2.275 -2.248 -2.22 -2.26 -2.21 -2.228 -2.263 -9999 -9999 -9999 -2.223 -2.263 -2.303 -2.193 -2.313 -2.295 -2.143 -2.238 -9999 -9999 -2.268 -2.243 -2.183 -2.148 -2.193 -2.215 -2.27 -2.33 -2.315 -2.313 -2.303 -2.223 -2.218 -9999 -9999 -9999 -2.23 -2.26 -2.218 -2.233 -2.295 -2.265 -2.228 -2.255 -2.32 -2.17 -2.175 -2.25 -2.298 -2.2 -2.168 -2.118 -2.218 -2.265 -2.275 -2.253 -2.273 -2.205 -2.233 -2.32 -2.358 -2.3 -2.213 -2.23 -2.188 -2.185 -2.268 -2.278 -2.163 -2.308 -2.243 -2.235 -2.203 -2.23 -2.243 -2.208 -2.245 -9999 -9999 -2.185 -2.265 -2.285 -2.205 -2.163 -2.258 -2.273 -2.245 -2.255 -2.198 -2.228 -2.263 -2.203 -2.203 -2.2 -2.178 -2.195 -2.188 -2.115 -2.1 -2.18 -2.195 -2.218 -2.225 -2.22 -2.305 -2.2 -2.148 -2.223 -2.248 -2.308 -2.233 -2.148 -2.143 -2.233 -2.22 -2.198 -2.268 -2.288 -2.205 -2.198 -2.263 -2.198 -2.158 -2.218 -2.158 -2.128 -2.185 -2.19 -2.133 -2.225 -2.203 -2.15 -2.17 -2.27 -2.223 -2.148 -2.263 -2.233 -2.18 -2.233 -2.208 -2.14 -2.118 -2.16 -2.273 -2.145 -2.163 -2.24 -2.218 -2.183 -2.208 -2.261 -2.236 -2.218 -2.196 -2.166 -2.153 -2.196 -2.216 -2.171 -2.211 -2.236 -2.236 -2.233 -2.248 -2.131 -2.166 -2.241 -2.206 -2.111 -2.118 -2.201 -2.233 -2.183 -2.173 -2.193 -2.196 -2.178 -2.128 -2.196 -2.238 -2.138 -2.208 -2.216 -2.191 -2.216 -2.268 -2.263 -2.136 -2.198 -2.241 -2.241 -2.196 -2.261 -2.163 -2.148 -2.313 -2.281 -2.196 -2.208 -2.226 -2.156 -2.178 -2.223 -2.191 -2.223 -2.168 -2.221 -2.181 -2.156 -2.151 -2.183 -2.241 -2.116 -2.221 -2.251 -2.193 -2.188 -2.198 -2.208 -2.188 -2.123 -2.206 -2.201 -2.126 -2.168 -2.173 -2.211 -2.148 -2.221 -2.198 -2.138 -2.231 -2.178 -2.186 -2.126 -2.223 -2.191 -2.221 -2.161 -2.236 -2.243 -2.181 -2.166 -2.206 -2.183 -2.213 -2.201 -2.221 -2.151 -2.176 -2.163 -2.181 -2.186 -2.168 -2.251 -2.216 -2.246 -2.226 -2.198 -2.163 -2.118 -2.188 -2.181 -2.186 -2.233 -2.178 -2.226 -2.151 -2.153 -2.243 -2.176 -2.186 -2.168 -2.143 -2.223 -2.178 -2.093 -2.108 -2.198 -2.146 -2.196 -2.196 -2.193 -2.233 -2.161 -2.081 -2.143 -2.208 -2.166 -2.188 -2.236 -2.118 -2.161 -2.223 -2.198 -2.168 -2.191 -2.143 -2.178 -2.206 -2.238 -2.213 -2.128 -2.176 -2.196 -2.158 -2.138 -2.188 -2.196 -2.243 -2.188 -2.168 -2.203 -2.151 -2.156 -2.181 -2.216 -2.116 -2.181 -2.156 -2.176 -2.156 -2.176 -2.263 -2.216 -2.323 -2.253 -2.208 -2.126 -2.143 -2.173 -2.063 -2.143 -2.173 -2.176 -2.171 -2.193 -2.208 -2.201 -2.178 -2.183 -2.206 -2.206 -2.136 -2.238 -2.173 -2.198 -2.206 -2.156
-2.169 -2.224 -2.192 -2.242 -2.159 -2.227 -2.257 -2.167 -2.167 -2.199 -2.222 -2.144 -2.149 -2.214 -2.214 -2.267 -2.272 -2.269 -2.259 -2.267 -2.164 -2.235 -2.27 -2.235 -2.16 -2.205 -2.135 -2.12 -2.207 -2.227 -2.2 -2.255 -2.215 -2.15 -2.255 -2.217 -2.267 -2.197 -2.23 -2.257 -2.237 -2.21 -2.21 -2.312 -2.255 -2.197 -2.252 -2.255 -2.167 -2.215 -2.29 -2.185 -2.26 -2.27 -2.205 -2.23 -2.212 -2.207 -2.182 -2.31 -2.325 -2.235 -2.337 -2.3 -2.197 -2.247 -2.222 -2.322 -2.28 -2.235 -2.215 -2.225 -2.295 -2.247 -2.24 -2.207 -2.2 -2.182 -2.185 -2.15 -2.245 -2.257 -2.157 -2.197 -2.172 -2.175 -2.197 -2.255 -2.252 -2.265 -2.16 -2.195 -2.157 -2.215 -2.217 -2.145 -2.212 -2.225 -2.255 -2.282 -2.312 -2.257 -2.28 -2.22 -2.207 -2.277 -2.265 -2.182 -2.22 -2.26 -2.242 -2.21 -2.31 -2.225 -2.245 -2.327 -2.2 -2.255 -2.222 -2.245 -2.235 -2.255 -2.243 -2.295 -2.255 -2.225 -2.253 -9999 -9999 -9999 -9999 -2.208 -2.278 -2.238 -2.28 -2.278 -2.27 -2.168 -2.243 -2.285 -2.248 -2.225 -2.263 -2.218 -2.178 -2.185 -2.173 -2.273 -2.315 -2.285 -2.268 -2.178 -2.215 -2.223 -9999 -9999 -9999 -2.213 -2.278 -2.298 -2.188 -2.173 -2.235 -2.153 -2.27 -2.3 -2.263 -2.208 -2.295 -2.365 -2.183 -2.095 -2.138 -2.22 -2.243 -2.245 -2.223 -2.278 -2.228 -2.213 -2.31 -2.318 -2.25 -2.265 -2.273 -2.175 -2.125 -2.19 -2.225 -2.213 -2.248 -2.298 -2.14 -2.13 -2.208 -2.268 -2.2 -9999 -9999 -2.138 -2.205 -2.253 -2.298 -2.163 -2.233 -2.263 -2.285 -2.285 -2.29 -2.225 -2.195 -2.223 -2.155 -2.183 -2.243 -2.248 -2.178 -2.235 -2.173 -2.21 -2.283 -2.25 -2.23 -2.243 -2.188 -2.225 -2.268 -2.198 -2.188 -2.3 -2.305 -2.185 -2.168 -2.123 -2.185 -2.26 -2.125 -2.183 -2.283 -2.19 -2.2 -2.218 -2.245 -2.283 -2.27 -2.198 -2.135 -2.188 -2.165 -2.073 -2.208 -2.188 -2.163 -2.165 -2.23 -2.213 -2.188 -2.24 -2.255 -2.193 -2.16 -2.263 -2.213 -2.133 -2.2 -2.233 -2.148 -2.153 -2.208 -2.248 -2.203 -2.201 -2.283 -2.241 -2.163 -2.198 -2.173 -2.253 -2.158 -2.221 -2.168 -2.153 -2.178 -2.253 -2.223 -2.221 -2.128 -2.213 -2.243 -2.211 -2.206 -2.231 -2.258 -2.231 -2.216 -2.148 -2.186 -2.206 -2.178 -2.146 -2.173 -2.196 -2.188 -2.188 -2.258 -2.191 -2.173 -2.211 -2.228 -2.181 -2.261 -2.223 -2.228 -2.178 -2.201 -2.168 -2.141 -2.303 -2.313 -2.203 -2.136 -2.203 -2.206 -2.191 -2.181 -2.193 -2.198 -2.198 -2.248 -2.198 -2.153 -2.228 -2.191 -2.203 -2.166 -2.203 -2.223 -2.196 -2.156 -2.206 -2.266 -2.186 -2.136 -2.198 -2.186 -2.136 -2.223 -2.231 -2.168 -2.163 -2.211 -2.286 -2.161 -2.246 -2.256 -2.206 -2.121 -2.168 -2.178 -2.171 -2.148 -2.258 -2.266 -2.158 -2.163 -2.283 -2.148 -2.183 -2.191 -2.186 -2.171 -2.156 -2.166 -2.121 -2.238 -2.146 -2.238 -2.188 -2.153 -2.256 -2.196 -2.166 -2.141 -2.178 -2.198 -2.188 -2.171 -2.186 -2.206 -2.166 -2.173 -2.186 -2.211 -2.193 -2.196 -2.178 -2.151 -2.101 -2.163 -2.123 -2.151 -2.141 -2.096 -2.226 -2.178 -2.203 -2.203 -2.093 -2.176 -2.221 -2.166 -2.151 -2.166 -2.163 -2.223 -2.196 -2.231 -2.138 -2.166 -2.136 -2.191 -2.203 -2.183 -2.193 -2.141 -2.253 -2.171 -2.156 -2.088 -2.176 -2.233 -2.258 -2.171 -2.168 -2.226 -2.206 -2.131 -2.196 -2.171 -2.201 -2.213 -2.128 -2.238 -2.208 -2.133 -2.128 -2.183 -2.223 -2.248 -2.196 -2.176 -2.116 -2.161 -2.078 -2.103 -2.156 -2.238 -2.068 -2.178 -2.231 -2.151 -2.188 -2.183 -2.248 -2.163 -2.151 -2.131 -2.206 -2.193 -2.183 -2.161
-2.194 -2.247 -2.172 -2.222 -2.217 -2.244 -2.284 -2.179 -2.179 -2.197 -2.227 -2.187 -2.242 -2.279 -2.222 -2.274 -2.262 -2.282 -2.229 -2.219 -2.142 -2.18 -2.235 -2.22 -2.2 -2.202 -2.182 -2.152 -2.155 -2.247 -2.21 -2.237 -2.192 -2.197 -2.237 -2.225 -2.195 -2.197 -2.21 -2.272 -2.29 -2.215 -2.21 -2.257 -2.217 -2.17 -2.275 -2.33 -2.222 -2.247 -2.227 -2.227 -2.24 -2.315 -2.235 -2.237 -2.215 -2.18 -2.212 -2.307 -2.305 -2.195 -2.167 -2.23 -2.195 -2.292 -2.245 -2.27 -2.235 -2.147 -2.25 -2.275 -2.282 -2.292 -2.307 -2.215 -2.18 -2.267 -2.192 -2.215 -2.235 -2.27 -2.147 -2.262 -2.255 -2.205 -2.205 -2.23 -2.275 -2.307 -2.205 -2.16 -2.19 -2.187 -2.167 -2.23 -2.312 -2.28 -2.255 -2.297 -2.297 -2.237 -2.245 -2.29 -2.207 -2.235 -2.245 -2.195 -2.185 -2.242 -2.23 -2.172 -2.252 -2.187 -2.212 -2.29 -2.235 -2.27 -2.305 -2.267 -2.22 -2.25 -2.295 -2.283 -2.198 -2.188 -2.27 -2.15 -2.144 -9999 -2.328 -2.27 -2.273 -2.345 -2.333 -2.295 -2.215 -2.133 -2.163 -2.29 -2.208 -2.2 -2.285 -2.238 -2.183 -2.14 -2.193 -2.195 -2.303 -2.31 -2.283 -2.253 -2.278 -2.258 -2.235 -2.24 -2.195 -2.223 -2.298 -2.26 -2.2 -2.148 -2.273 -2.263 -2.278 -2.275 -2.235 -2.253 -2.29 -2.315 -9999 -9999 -2.228 -2.185 -2.218 -2.2 -2.238 -2.268 -2.195 -2.188 -2.23 -2.2 -2.225 -2.27 -2.228 -2.205 -2.213 -2.138 -2.165 -2.19 -2.13 -2.24 -2.195 -2.095 -2.19 -2.288 -2.178 -2.158 -2.268 -2.178 -2.238 -2.19 -2.188 -2.128 -2.134 -2.193 -2.193 -2.2 -2.233 -2.228 -2.27 -2.225 -2.19 -2.188 -2.273 -2.23 -2.225 -2.278 -2.233 -2.258 -2.165 -2.203 -2.178 -2.2 -2.225 -2.245 -2.34 -2.253 -2.18 -2.153 -2.185 -2.223 -2.22 -2.175 -2.228 -2.273 -2.155 -2.175 -2.173 -2.195 -2.27 -2.223 -2.24 -2.388 -2.328 -2.268 -2.188 -2.205 -2.178 -2.118 -2.193 -2.175 -2.17 -2.193 -2.238 -2.203 -2.21 -2.205 -2.26 -2.283 -2.228 -2.218 -2.263 -2.123 -2.2 -2.22 -2.165 -2.17 -2.195 -2.265 -2.24 -2.283 -2.218 -2.208 -2.223 -2.243 -2.191 -2.221 -2.166 -2.243 -2.233 -2.173 -2.181 -2.273 -2.243 -2.258 -2.138 -2.193 -2.248 -2.246 -2.203 -2.273 -2.276 -2.188 -2.201 -2.171 -2.143 -2.226 -2.208 -2.178 -2.181 -2.196 -2.171 -2.183 -2.306 -2.163 -2.156 -2.216 -2.203 -2.191 -2.176 -2.238 -2.231 -2.243 -2.226 -2.221 -2.163 -2.208 -2.266 -2.203 -2.193 -2.146 -2.258 -2.213 -2.188 -2.221 -2.243 -2.158 -2.241 -2.188 -2.101 -2.243 -2.263 -2.173 -2.166 -2.131 -2.188 -2.186 -2.173 -2.216 -2.311 -2.176 -2.116 -2.206 -2.211 -2.136 -2.211 -2.213 -2.141 -2.211 -2.156 -2.243 -2.211 -2.098 -2.256 -2.243 -2.146 -2.146 -2.223 -2.186 -2.123 -2.238 -2.243 -2.181 -2.221 -2.248 -2.161 -2.201 -2.213 -2.191 -2.168 -2.158 -2.146 -2.136 -2.228 -2.198 -2.173 -2.211 -2.171 -2.233 -2.151 -2.146 -2.131 -2.128 -2.233 -2.223 -2.161 -2.176 -2.218 -2.198 -2.193 -2.146 -2.253 -2.218 -2.173 -2.231 -2.193 -2.131 -2.173 -2.176 -2.113 -2.146 -2.176 -2.238 -2.166 -2.166 -2.221 -2.146 -2.171 -2.233 -2.181 -2.138 -2.218 -2.228 -2.261 -2.193 -2.228 -2.168 -2.211 -2.178 -2.246 -2.141 -2.178 -2.198 -2.133 -2.221 -2.171 -2.206 -2.111 -2.218 -2.233 -2.171 -2.221 -2.126 -2.241 -2.198 -2.181 -2.158 -2.163 -2.183 -2.158 -2.093 -2.238 -2.231 -2.151 -2.156 -2.206 -2.141 -2.231 -2.248 -2.201 -2.156 -2.168 -2.081 -2.106 -2.171 -2.218 -2.173 -2.218 -2.213 -2.126 -2.191 -2.216 -2.273 -2.183 -2.146 -2.158 -2.211 -2.186 -2.086 -2.096
-2.227 -2.162 -2.139 -2.244 -2.169 -2.222 -2.297 -2.224 -2.152 -2.249 -2.177 -2.182 -2.257 -2.272 -2.194 -2.264 -2.239 -2.224 -2.202 -2.264 -2.199 -2.25 -2.23 -2.175 -2.26 -2.22 -2.172 -2.167 -2.152 -2.202 -2.215 -2.26 -2.27 -2.175 -2.207 -2.21 -2.235 -2.21 -2.262 -2.242 -2.252 -2.242 -2.275 -2.305 -2.242 -2.17 -2.192 -2.247 -2.165 -2.237 -2.202 -2.212 -2.197 -2.275 -2.3 -2.392 -2.252 -2.22 -2.245 -2.265 -2.255 -2.145 -2.18 -2.312 -2.172 -2.257 -2.192 -2.175 -2.207 -2.122 -2.242 -2.22 -2.23 -2.245 -2.227 -2.277 -2.197 -2.205 -2.212 -2.242 -2.18 -2.172 -2.222 -2.247 -2.22 -2.195 -2.267 -2.25 -2.212 -2.192 -2.172 -2.182 -2.21 -2.22 -2.225 -2.235 -2.33 -2.26 -2.245 -2.245 -2.32 -2.257 -2.267 -2.317 -2.2 -2.2 -2.225 -2.215 -2.187 -2.252 -2.252 -2.202 -2.187 -2.245 -2.22 -2.327 -2.242 -2.195 -2.26 -2.315 -2.242 -2.198 -2.25 -2.315 -2.25 -2.163 -2.265 -2.263 -2.3 -2.283 -2.228 -2.22 -2.27 -2.305 -2.283 -2.295 -2.285 -2.203 -2.2 -2.228 -2.193 -2.235 -2.333 -2.203 -2.163 -2.118 -2.163 -2.198 -2.298 -2.21 -2.258 -2.253 -2.29 -2.255 -2.255 -9999 -9999 -2.238 -2.318 -2.218 -2.198 -2.205 -2.27 -2.223 -2.255 -2.218 -2.25 -2.365 -2.388 -2.278 -9999 -9999 -2.273 -2.27 -2.228 -2.208 -2.233 -2.258 -2.218 -2.24 -2.278 -2.225 -2.215 -2.235 -2.243 -2.3 -2.273 -2.2 -2.223 -2.258 -2.133 -2.328 -2.343 -2.145 -2.198 -2.31 -2.215 -2.093 -2.205 -2.21 -2.198 -2.198 -9999 -9999 -9999 -2.153 -2.19 -2.17 -2.153 -2.263 -2.305 -2.245 -2.21 -2.173 -2.23 -2.183 -2.24 -2.268 -2.218 -2.213 -2.208 -2.198 -2.25 -2.283 -2.25 -2.14 -2.263 -2.21 -2.173 -2.21 -2.175 -2.218 -2.325 -2.265 -2.23 -2.213 -2.1 -2.165 -2.22 -2.175 -2.27 -2.198 -2.2 -2.27 -2.195 -2.268 -2.208 -2.24 -2.248 -2.213 -2.143 -2.18 -2.225 -2.193 -2.215 -2.225 -2.218 -2.253 -2.195 -2.198 -2.218 -2.278 -2.265 -2.223 -2.205 -2.25 -2.19 -2.21 -2.218 -2.218 -2.26 -2.243 -2.226 -2.236 -2.186 -2.248 -2.206 -2.163 -2.171 -2.288 -2.276 -2.208 -2.196 -2.173 -2.246 -2.256 -2.113 -2.171 -2.223 -2.221 -2.181 -2.206 -2.251 -2.223 -2.211 -2.233 -2.196 -2.186 -2.176 -2.233 -2.171 -2.168 -2.176 -2.196 -2.223 -2.158 -2.171 -2.216 -2.193 -2.163 -2.251 -2.223 -2.153 -2.211 -2.241 -2.211 -2.188 -2.246 -2.286 -2.216 -2.238 -2.171 -2.216 -2.206 -2.216 -2.233 -2.226 -2.163 -2.251 -2.283 -2.138 -2.183 -2.273 -2.151 -2.186 -2.208 -2.271 -2.198 -2.251 -2.181 -2.266 -2.181 -2.161 -2.168 -2.248 -2.126 -2.181 -2.183 -2.161 -2.236 -2.206 -2.253 -2.183 -2.126 -2.226 -2.243 -2.233 -2.156 -2.201 -2.193 -2.136 -2.183 -2.258 -2.228 -2.233 -2.208 -2.191 -2.151 -2.211 -2.181 -2.151 -2.176 -2.181 -2.113 -2.253 -2.236 -2.213 -2.196 -2.186 -2.233 -2.186 -2.163 -2.183 -2.091 -2.146 -2.218 -2.131 -2.253 -2.256 -2.176 -2.183 -2.191 -2.268 -2.208 -2.208 -2.233 -2.186 -2.128 -2.151 -2.143 -2.146 -2.173 -2.186 -2.231 -2.133 -2.188 -2.226 -2.136 -2.148 -2.231 -2.123 -2.128 -2.133 -2.161 -2.223 -2.126 -2.211 -2.186 -2.173 -2.218 -2.213 -2.181 -2.158 -2.176 -2.086 -2.181 -2.163 -2.178 -2.061 -2.183 -2.256 -2.196 -2.208 -2.128 -2.263 -2.143 -2.143 -2.143 -2.173 -2.233 -2.188 -2.113 -2.163 -2.256 -2.171 -2.086 -2.186 -2.146 -2.171 -2.241 -2.171 -2.198 -2.233 -2.156 -2.098 -2.108 -2.118 -2.143 -2.193 -2.246 -2.223 -2.178 -2.181 -2.206 -2.218 -2.138 -2.153 -2.226 -2.203 -2.118 -2.081
-2.192 -2.204 -2.159 -2.224 -2.222 -2.227 -2.264 -2.234 -2.147 -2.184 -2.204 -2.112 -2.194 -2.282 -2.194 -2.174 -2.242 -2.154 -2.209 -2.217 -2.247 -2.197 -2.202 -2.202 -2.275 -2.23 -2.135 -2.162 -2.237 -2.217 -2.19 -2.235 -2.207 -2.197 -2.16 -2.2 -2.28 -2.21 -2.307 -2.297 -2.272 -2.217 -2.192 -2.282 -2.2 -2.167 -2.207 -2.225 -2.145 -2.202 -2.187 -2.232 -2.275 -2.272 -2.19 -2.302 -2.25 -2.215 -2.267 -2.27 -2.272 -2.222 -2.187 -2.257 -2.23 -2.212 -2.25 -2.23 -2.217 -2.175 -2.295 -2.297 -2.275 -2.225 -2.2 -2.302 -2.217 -2.187 -2.192 -2.242 -2.16 -2.197 -2.225 -2.26 -2.252 -2.195 -2.3 -2.255 -2.267 -2.23 -2.17 -2.207 -2.265 -2.262 -2.202 -2.195 -2.26 -2.28 -2.272 -2.297 -2.287 -2.237 -2.272 -2.302 -2.18 -2.217 -2.29 -2.247 -2.232 -2.232 -2.235 -2.232 -2.18 -2.22 -2.257 -2.185 -2.182 -2.19 -2.27 -2.377 -2.237 -2.215 -2.253 -2.3 -2.278 -2.198 -2.225 -2.24 -2.248 -2.315 -2.178 -2.178 -2.273 -2.285 -2.27 -2.3 -2.285 -2.245 -2.233 -2.243 -2.24 -2.295 -2.315 -2.223 -2.218 -2.248 -2.21 -2.17 -2.303 -2.34 -2.248 -2.243 -2.273 -2.23 -2.243 -2.223 -2.258 -2.223 -2.318 -2.228 -2.198 -2.238 -2.303 -2.218 -2.318 -2.25 -2.263 -2.275 -2.305 -2.245 -9999 -9999 -9999 -2.253 -2.228 -2.238 -2.233 -2.27 -2.173 -2.25 -2.278 -2.258 -2.215 -2.205 -2.303 -2.283 -9999 -9999 -2.27 -2.258 -2.17 -2.235 -2.273 -2.188 -2.235 -2.248 -2.268 -2.238 -2.195 -9999 -9999 -9999 -2.233 -2.263 -2.27 -2.21 -2.173 -2.175 -2.223 -2.328 -2.273 -2.168 -2.193 -2.205 -2.193 -2.248 -2.3 -2.245 -2.278 -2.253 -2.183 -2.14 -2.245 -2.183 -2.21 -2.175 -2.213 -2.248 -2.135 -2.125 -2.14 -2.168 -2.295 -2.213 -2.13 -2.153 -2.133 -2.183 -2.22 -2.175 -2.168 -2.245 -2.25 -2.185 -2.21 -2.22 -2.185 -2.27 -2.218 -2.288 -2.225 -2.245 -2.123 -2.24 -2.23 -2.193 -2.21 -2.21 -2.235 -2.27 -2.198 -2.27 -2.2 -2.135 -2.13 -2.198 -2.208 -2.163 -2.21 -2.2 -2.143 -2.133 -2.188 -2.201 -2.166 -2.276 -2.223 -2.136 -2.198 -2.236 -2.288 -2.211 -2.238 -2.171 -2.213 -2.211 -2.143 -2.191 -2.266 -2.228 -2.201 -2.208 -2.268 -2.193 -2.186 -2.211 -2.233 -2.223 -2.201 -2.206 -2.206 -2.208 -2.241 -2.201 -2.218 -2.258 -2.146 -2.166 -2.176 -2.143 -2.223 -2.231 -2.118 -2.166 -2.206 -2.181 -2.176 -2.178 -2.251 -2.213 -2.208 -2.213 -2.208 -2.271 -2.256 -2.206 -2.163 -2.111 -2.271 -2.296 -2.146 -2.163 -2.196 -2.158 -2.153 -2.198 -2.228 -2.176 -2.251 -2.176 -2.236 -2.221 -2.161 -2.181 -2.221 -2.158 -2.163 -2.203 -2.178 -2.198 -2.248 -2.216 -2.186 -2.156 -2.206 -2.256 -2.218 -2.176 -2.188 -2.151 -2.156 -2.218 -2.241 -2.181 -2.163 -2.146 -2.201 -2.203 -2.193 -2.203 -2.251 -2.181 -2.206 -2.098 -2.226 -2.266 -2.153 -2.168 -2.216 -2.196 -2.226 -2.201 -2.191 -2.126 -2.168 -2.243 -2.136 -2.231 -2.246 -2.226 -2.151 -2.148 -2.261 -2.166 -2.216 -2.231 -2.181 -2.131 -2.143 -2.118 -2.101 -2.141 -2.201 -2.211 -2.176 -2.186 -2.233 -2.163 -2.183 -2.213 -2.146 -2.121 -2.126 -2.193 -2.203 -2.163 -2.198 -2.143 -2.151 -2.216 -2.221 -2.168 -2.188 -2.221 -2.158 -2.128 -2.176 -2.156 -2.133 -2.168 -2.188 -2.216 -2.216 -2.133 -2.251 -2.211 -2.223 -2.161 -2.163 -2.248 -2.178 -2.076 -2.198 -2.248 -2.198 -2.126 -2.193 -2.246 -2.238 -2.223 -2.178 -2.193 -2.198 -2.161 -2.036 -2.133 -2.191 -2.228 -2.216 -2.138 -2.216 -2.186 -2.193 -2.206 -2.206 -2.181 -2.128 -2.136 -2.173 -2.181 -2.173
-2.127 -2.152 -2.227 -2.249 -2.219 -2.217 -2.264 -2.247 -2.154 -2.274 -2.219 -2.144 -2.159 -2.282 -2.177 -2.192 -2.264 -2.217 -2.262 -2.199 -2.222 -2.25 -2.192 -2.23 -2.262 -2.255 -2.202 -2.252 -2.265 -2.235 -2.19 -2.207 -2.21 -2.21 -2.245 -2.162 -2.132 -2.222 -2.237 -2.252 -2.277 -2.225 -2.207 -2.33 -2.275 -2.3 -2.24 -2.26 -2.177 -2.152 -2.2 -2.197 -2.255 -2.25 -2.247 -2.257 -2.255 -2.187 -2.26 -2.265 -2.292 -2.242 -2.232 -2.29 -2.262 -2.225 -2.29 -2.212 -2.225 -2.215 -2.312 -2.21 -2.217 -2.23 -2.242 -2.255 -2.25 -2.202 -2.222 -2.272 -2.175 -2.18 -2.207 -2.245 -2.225 -2.195 -2.245 -2.207 -2.225 -2.332 -2.255 -2.255 -2.205 -2.2 -2.12 -2.215 -2.305 -2.295 -2.302 -2.305 -2.3 -2.235 -2.262 -2.252 -2.227 -2.252 -2.157 -2.212 -2.222 -2.257 -2.247 -2.285 -2.225 -2.252 -2.16 -2.192 -2.232 -2.292 -2.3 -2.402 -2.232 -2.22 -2.215 -2.215 -2.225 -9999 -9999 -9999 -2.283 -2.308 -2.18 -2.205 -2.135 -2.188 -2.245 -2.233 -2.18 -2.305 -2.205 -2.195 -2.225 -2.285 -2.28 -2.273 -2.245 -2.158 -2.173 -2.208 -2.278 -2.34 -2.335 -2.245 -2.213 -2.235 -2.268 -2.278 -2.185 -2.14 -2.215 -2.32 -2.2 -2.233 -2.243 -2.198 -2.275 -2.26 -2.258 -2.248 -2.298 -9999 -2.271 -2.248 -2.3 -2.173 -2.173 -2.205 -2.21 -2.308 -2.32 -2.273 -2.225 -2.253 -2.18 -2.158 -2.228 -9999 -9999 -2.198 -2.265 -2.193 -2.155 -2.203 -2.19 -2.243 -2.233 -2.205 -2.23 -2.295 -2.25 -2.171 -2.123 -2.175 -2.185 -2.248 -9999 -2.294 -2.24 -2.188 -2.253 -2.293 -2.208 -2.135 -2.15 -2.18 -2.205 -2.228 -2.325 -2.278 -2.275 -2.328 -2.27 -2.23 -2.238 -2.158 -2.168 -2.208 -2.243 -2.235 -2.153 -2.12 -2.145 -2.19 -2.183 -2.208 -2.135 -2.195 -2.155 -2.14 -2.2 -2.275 -2.28 -2.23 -2.268 -2.23 -2.15 -2.218 -2.223 -2.193 -2.23 -2.19 -2.173 -2.188 -2.165 -2.218 -2.188 -2.17 -2.173 -2.193 -2.198 -2.27 -2.168 -2.235 -2.218 -2.17 -2.16 -2.158 -2.158 -2.188 -2.165 -2.215 -2.155 -2.183 -2.161 -2.158 -2.206 -2.246 -2.236 -2.198 -2.241 -2.178 -2.261 -2.211 -2.271 -2.186 -2.261 -2.271 -2.178 -2.138 -2.228 -2.326 -2.233 -2.181 -2.243 -2.223 -2.118 -2.231 -2.251 -2.198 -2.241 -2.228 -2.211 -2.166 -2.231 -2.243 -2.208 -2.158 -2.196 -2.198 -2.203 -2.183 -2.211 -2.263 -2.141 -2.033 -2.193 -2.191 -2.173 -2.151 -2.203 -2.166 -2.211 -2.231 -2.173 -2.251 -2.251 -2.211 -2.233 -2.191 -2.206 -2.256 -2.153 -2.158 -2.173 -2.228 -2.208 -2.181 -2.223 -2.193 -2.266 -2.186 -2.201 -2.266 -2.138 -2.123 -2.248 -2.176 -2.128 -2.213 -2.176 -2.223 -2.181 -2.251 -2.201 -2.188 -2.148 -2.178 -2.221 -2.213 -2.163 -2.113 -2.211 -2.183 -2.231 -2.221 -2.218 -2.126 -2.206 -2.211 -2.173 -2.198 -2.161 -2.223 -2.218 -2.106 -2.203 -2.208 -2.116 -2.226 -2.208 -2.153 -2.211 -2.228 -2.171 -2.133 -2.203 -2.211 -2.166 -2.163 -2.223 -2.238 -2.196 -2.158 -2.248 -2.171 -2.166 -2.266 -2.218 -2.141 -2.208 -2.138 -2.126 -2.183 -2.108 -2.181 -2.196 -2.156 -2.193 -2.181 -2.231 -2.156 -2.158 -2.153 -2.263 -2.218 -2.211 -2.258 -2.163 -2.118 -2.183 -2.258 -2.176 -2.183 -2.216 -2.166 -2.181 -2.126 -2.166 -2.196 -2.098 -2.111 -2.231 -2.221 -2.183 -2.213 -2.218 -2.241 -2.271 -2.156 -2.176 -2.226 -2.208 -2.113 -2.131 -2.196 -2.186 -2.138 -2.151 -2.241 -2.158 -2.238 -2.276 -2.161 -2.208 -2.161 -2.106 -2.196 -2.206 -2.181 -2.186 -2.173 -2.231 -2.183 -2.186 -2.146 -2.186 -2.171 -2.131 -2.143 -2.251 -2.193 -2.191
-2.169 -2.212 -2.194 -2.239 -2.182 -2.239 -2.289 -2.232 -2.149 -2.247 -2.247 -2.214 -2.197 -2.217 -2.204 -2.279 -2.259 -2.229 -2.217 -2.247 -2.164 -2.19 -2.165 -2.197 -2.235 -2.227 -2.17 -2.185 -2.205 -2.137 -2.195 -2.275 -2.202 -2.202 -2.207 -2.2 -2.165 -2.25 -2.185 -2.205 -2.195 -2.235 -2.212 -2.272 -2.322 -2.267 -2.217 -2.247 -2.202 -2.207 -2.245 -2.2 -2.195 -2.21 -2.227 -2.17 -2.207 -2.19 -2.242 -2.31 -2.282 -2.25 -2.227 -2.277 -2.242 -2.167 -2.25 -2.28 -2.205 -2.215 -2.32 -2.202 -2.222 -2.21 -2.265 -2.235 -2.27 -2.235 -2.165 -2.255 -2.225 -2.245 -2.237 -2.232 -2.255 -2.175 -2.195 -2.195 -2.285 -2.247 -2.237 -2.302 -2.217 -2.207 -2.21 -2.242 -2.23 -2.255 -2.275 -2.267 -2.247 -2.242 -2.26 -2.255 -2.227 -2.232 -2.252 -2.245 -2.202 -2.267 -2.197 -2.267 -2.23 -2.152 -2.207 -2.207 -2.257 -2.237 -2.235 -2.305 -2.335 -2.285 -2.235 -2.225 -2.22 -2.228 -9999 -2.258 -2.225 -2.238 -2.178 -2.22 -2.203 -2.19 -2.248 -2.258 -2.298 -2.293 -2.2 -2.198 -2.23 -2.25 -2.235 -2.295 -2.268 -9999 -9999 -2.213 -2.208 -2.303 -2.225 -2.25 -2.198 -2.193 -2.25 -2.273 -2.2 -2.16 -2.173 -2.24 -2.218 -2.305 -2.29 -2.303 -2.363 -2.28 -2.24 -2.208 -2.223 -9999 -2.233 -2.213 -2.24 -2.195 -2.265 -2.27 -9999 -9999 -2.373 -2.278 -2.2 -2.225 -2.198 -2.155 -2.253 -2.213 -2.155 -2.248 -2.31 -2.245 -2.173 -2.213 -2.213 -2.175 -2.123 -2.128 -2.098 -2.205 -2.178 -2.123 -2.148 -2.248 -2.18 -9999 -9999 -2.148 -2.285 -2.198 -2.203 -2.165 -2.195 -2.183 -2.215 -2.218 -2.155 -2.183 -2.318 -2.3 -2.25 -2.228 -2.268 -2.275 -9999 -9999 -9999 -2.23 -2.218 -2.235 -2.153 -2.133 -2.143 -2.18 -2.188 -2.123 -2.208 -2.273 -2.265 -2.288 -2.205 -2.36 -2.3 -2.235 -2.265 -2.225 -2.15 -2.16 -2.198 -2.218 -2.243 -2.198 -2.163 -2.233 -2.258 -2.255 -2.15 -2.19 -2.178 -2.2 -2.22 -2.238 -2.165 -2.243 -2.183 -2.208 -2.263 -2.138 -2.125 -2.233 -2.218 -2.195 -2.208 -2.313 -2.216 -2.113 -2.216 -2.266 -2.193 -2.206 -2.213 -2.238 -2.231 -2.258 -2.253 -2.198 -2.178 -2.196 -2.296 -2.173 -2.146 -2.253 -2.253 -2.181 -2.228 -2.221 -2.173 -2.208 -2.241 -2.201 -2.228 -2.256 -2.258 -2.163 -2.231 -2.208 -2.241 -2.201 -2.108 -2.153 -2.206 -2.223 -2.163 -2.213 -2.176 -2.178 -2.183 -2.208 -2.188 -2.143 -2.178 -2.203 -2.163 -2.173 -2.228 -2.236 -2.223 -2.181 -2.246 -2.163 -2.176 -2.266 -2.181 -2.226 -2.208 -2.243 -2.213 -2.146 -2.206 -2.191 -2.266 -2.258 -2.196 -2.178 -2.138 -2.163 -2.241 -2.211 -2.123 -2.223 -2.201 -2.196 -2.153 -2.198 -2.221 -2.186 -2.141 -2.168 -2.203 -2.213 -2.228 -2.078 -2.173 -2.193 -2.213 -2.181 -2.158 -2.151 -2.186 -2.193 -2.193 -2.171 -2.176 -2.231 -2.218 -2.111 -2.221 -2.166 -2.161 -2.173 -2.241 -2.133 -2.203 -2.206 -2.203 -2.188 -2.288 -2.206 -2.141 -2.248 -2.266 -2.263 -2.173 -2.151 -2.226 -2.168 -2.216 -2.221 -2.208 -2.151 -2.158 -2.121 -2.138 -2.193 -2.161 -2.168 -2.228 -2.183 -2.178 -2.206 -2.246 -2.186 -2.146 -2.166 -2.216 -2.191 -2.168 -2.216 -2.151 -2.161 -2.208 -2.253 -2.223 -2.183 -2.218 -2.193 -2.173 -2.171 -2.196 -2.168 -2.211 -2.098 -2.218 -2.196 -2.103 -2.163 -2.241 -2.251 -2.231 -2.138 -2.191 -2.266 -2.173 -2.208 -2.141 -2.208 -2.223 -2.113 -2.146 -2.246 -2.176 -2.183 -2.253 -2.176 -2.166 -2.153 -2.141 -2.153 -2.128 -2.231 -2.143 -2.216 -2.183 -2.236 -2.193 -2.158 -2.163 -2.198 -2.141 -2.123 -2.183 -2.191 -2.156
-2.164 -2.267 -2.239 -2.194 -2.167 -2.172 -2.272 -2.259 -2.202 -2.307 -2.297 -2.222 -2.199 -2.222 -2.164 -2.267 -2.282 -2.214 -2.189 -2.227 -2.149 -2.17 -2.197 -2.17 -2.232 -2.282 -2.177 -2.137 -2.255 -2.147 -2.215 -2.235 -2.177 -2.192 -2.282 -2.237 -2.192 -2.24 -2.2 -2.21 -2.262 -2.26 -2.172 -2.227 -2.342 -2.26 -2.222 -2.277 -2.245 -2.227 -2.242 -2.26 -2.235 -2.267 -2.207 -2.195 -2.247 -2.255 -2.132 -2.182 -2.322 -2.237 -2.197 -2.222 -2.215 -2.115 -2.197 -2.25 -2.215 -2.142 -2.2 -2.185 -2.187 -2.197 -2.33 -2.282 -2.265 -2.207 -2.26 -2.162 -2.205 -2.217 -2.27 -2.167 -2.225 -2.23 -2.205 -2.197 -2.235 -2.21 -2.242 -2.29 -2.247 -2.257 -2.17 -2.275 -2.25 -2.235 -2.215 -2.327 -2.255 -2.235 -2.252 -2.247 -2.237 -2.232 -2.285 -2.222 -2.272 -2.252 -2.207 -2.237 -2.257 -2.247 -2.217 -2.18 -2.287 -2.285 -2.212 -2.302 -2.265 -2.223 -2.22 -2.203 -2.228 -2.188 -2.22 -2.233 -2.19 -2.233 -2.185 -2.228 -2.223 -2.243 -2.255 -2.298 -2.34 -2.24 -2.253 -2.215 -2.23 -2.253 -2.223 -2.198 -2.318 -9999 -9999 -2.254 -2.313 -2.29 -2.26 -9999 -2.204 -2.188 -2.198 -2.263 -2.213 -2.198 -2.283 -2.235 -2.195 -2.203 -2.245 -2.203 -2.288 -2.255 -2.218 -2.18 -2.238 -2.238 -2.251 -2.17 -2.128 -2.175 -2.235 -2.215 -9999 -9999 -2.308 -2.223 -2.223 -2.245 -2.208 -2.245 -2.265 -2.21 -2.24 -2.258 -2.275 -2.298 -2.32 -2.245 -2.208 -2.165 -2.218 -2.228 -2.153 -2.123 -2.198 -2.18 -2.158 -2.228 -2.173 -2.135 -2.174 -2.24 -2.228 -2.12 -2.158 -2.115 -2.183 -2.17 -2.22 -2.228 -2.17 -2.213 -2.265 -2.263 -2.265 -2.243 -2.233 -2.25 -9999 -9999 -2.298 -2.32 -2.278 -2.265 -2.208 -2.248 -2.233 -2.208 -2.245 -2.205 -2.145 -2.2 -2.238 -2.213 -2.16 -2.193 -2.218 -2.245 -2.308 -2.223 -2.17 -2.225 -2.225 -2.19 -2.29 -2.208 -2.108 -2.135 -2.258 -2.295 -2.21 -2.215 -2.203 -2.153 -2.16 -2.31 -2.265 -2.258 -2.145 -2.17 -2.253 -2.138 -2.21 -2.258 -2.228 -2.215 -2.178 -2.213 -2.191 -2.236 -2.231 -2.203 -2.148 -2.283 -2.238 -2.183 -2.188 -2.256 -2.248 -2.238 -2.198 -2.198 -2.268 -2.168 -2.176 -2.231 -2.243 -2.186 -2.191 -2.248 -2.208 -2.161 -2.208 -2.208 -2.233 -2.246 -2.178 -2.161 -2.251 -2.188 -2.188 -2.233 -2.136 -2.118 -2.236 -2.246 -2.196 -2.201 -2.156 -2.168 -2.228 -2.223 -2.223 -2.161 -2.228 -2.211 -2.198 -2.188 -2.213 -2.168 -2.198 -2.191 -2.243 -2.168 -2.138 -2.253 -2.216 -2.158 -2.146 -2.198 -2.228 -2.226 -2.221 -2.218 -2.238 -2.161 -2.228 -2.193 -2.211 -2.163 -2.211 -2.206 -2.153 -2.171 -2.211 -2.223 -2.201 -2.201 -2.248 -2.216 -2.196 -2.283 -2.228 -2.278 -2.213 -2.166 -2.223 -2.191 -2.193 -2.241 -2.198 -2.138 -2.228 -2.186 -2.231 -2.191 -2.148 -2.201 -2.191 -2.116 -2.201 -2.203 -2.161 -2.198 -2.216 -2.196 -2.238 -2.246 -2.186 -2.163 -2.261 -2.181 -2.138 -2.246 -2.276 -2.213 -2.153 -2.158 -2.236 -2.178 -2.208 -2.253 -2.188 -2.186 -2.168 -2.121 -2.158 -2.258 -2.133 -2.141 -2.233 -2.163 -2.226 -2.198 -2.236 -2.231 -2.153 -2.173 -2.233 -2.218 -2.123 -2.191 -2.146 -2.211 -2.153 -2.226 -2.251 -2.133 -2.211 -2.163 -2.203 -2.143 -2.156 -2.211 -2.223 -2.121 -2.146 -2.193 -2.136 -2.196 -2.226 -2.203 -2.208 -2.141 -2.233 -2.261 -2.131 -2.178 -2.183 -2.221 -2.193 -2.143 -2.111 -2.223 -2.216 -2.173 -2.161 -2.188 -2.156 -2.098 -2.178 -2.153 -2.203 -2.198 -2.148 -2.218 -2.173 -2.173 -2.158 -2.153 -2.211 -2.208 -2.148 -2.141 -2.153 -2.171 -2.173
-2.174 -2.242 -2.227 -2.254 -2.157 -2.202 -2.239 -2.262 -2.217 -2.252 -2.257 -2.252 -2.212 -2.169 -2.219 -2.169 -2.274 -2.289 -2.237 -2.234 -2.232 -2.185 -2.175 -2.165 -2.275 -2.207 -2.182 -2.175 -2.172 -2.215 -2.237 -2.272 -2.21 -2.27 -2.222 -2.292 -2.22 -2.257 -2.24 -2.147 -2.23 -2.262 -2.237 -2.212 -2.267 -2.275 -2.23 -2.297 -2.255 -2.21 -2.292 -2.225 -2.207 -2.217 -2.247 -2.265 -2.315 -2.252 -2.172 -2.157 -2.305 -2.165 -2.2 -2.257 -2.17 -2.21 -2.28 -2.24 -2.282 -2.132 -2.17 -2.227 -2.172 -2.255 -2.39 -2.275 -2.23 -2.16 -2.275 -2.205 -2.197 -2.25 -2.247 -2.165 -2.222 -2.26 -2.192 -2.205 -2.295 -2.267 -2.205 -2.19 -2.207 -2.195 -2.185 -2.265 -2.255 -2.265 -2.2 -2.267 -2.242 -2.265 -2.247 -2.172 -2.252 -2.262 -2.29 -2.167 -2.22 -2.257 -2.237 -2.167 -2.165 -2.262 -2.23 -2.102 -2.267 -2.225 -2.23 -2.325 -2.277 -2.215 -2.203 -2.218 -2.263 -2.193 -2.198 -2.31 -2.208 -2.265 -2.21 -2.258 -2.238 -2.28 -2.27 -2.285 -2.268 -2.253 -2.288 -2.258 -2.283 -2.23 -2.218 -2.223 -2.208 -9999 -2.088 -2.141 -2.28 -2.278 -2.3 -9999 -9999 -2.213 -2.255 -2.238 -2.223 -2.203 -2.26 -2.233 -2.183 -2.188 -2.23 -2.208 -2.178 -2.22 -2.238 -2.19 -2.255 -2.285 -2.313 -2.238 -2.188 -2.213 -2.203 -2.198 -2.238 -2.263 -2.268 -2.208 -2.248 -2.283 -2.218 -2.2 -2.223 -2.153 -2.213 -2.283 -2.29 -2.24 -2.25 -2.25 -2.225 -2.22 -2.24 -2.253 -2.183 -2.065 -2.29 -2.243 -2.085 -2.173 -2.158 -2.128 -2.283 -2.295 -2.223 -2.158 -2.213 -2.27 -2.238 -2.14 -2.215 -9999 -2.113 -2.173 -2.203 -2.23 -2.268 -2.235 -2.218 -2.21 -2.165 -2.213 -2.198 -2.275 -2.293 -2.275 -2.25 -2.195 -2.233 -2.233 -2.253 -2.19 -2.208 -2.218 -2.215 -9999 -9999 -9999 -2.208 -2.315 -2.355 -2.245 -2.155 -2.243 -2.168 -2.108 -2.25 -2.24 -2.113 -2.098 -2.168 -2.225 -2.2 -2.168 -2.188 -2.21 -2.17 -2.178 -2.28 -2.225 -2.253 -2.218 -2.168 -2.138 -2.208 -2.235 -2.193 -2.263 -2.213 -2.168 -2.148 -2.256 -2.191 -2.171 -2.171 -2.221 -2.171 -2.188 -2.183 -2.271 -2.233 -2.238 -2.186 -2.186 -2.293 -2.248 -2.193 -2.178 -2.211 -2.243 -2.221 -2.176 -2.181 -2.221 -2.148 -2.153 -2.168 -2.203 -2.191 -2.196 -2.183 -2.188 -2.261 -2.216 -2.091 -2.193 -2.291 -2.226 -2.171 -2.178 -2.128 -2.143 -2.198 -2.193 -2.251 -2.201 -2.126 -2.231 -2.188 -2.181 -2.173 -2.208 -2.218 -2.176 -2.186 -2.233 -2.158 -2.261 -2.261 -2.166 -2.211 -2.201 -2.168 -2.256 -2.163 -2.196 -2.206 -2.191 -2.261 -2.203 -2.206 -2.163 -2.193 -2.203 -2.221 -2.181 -2.201 -2.211 -2.146 -2.186 -2.231 -2.211 -2.201 -2.213 -2.153 -2.231 -2.168 -2.171 -2.213 -2.226 -2.231 -2.253 -2.221 -2.171 -2.213 -2.183 -2.218 -2.223 -2.178 -2.213 -2.191 -2.183 -2.191 -2.176 -2.201 -2.191 -2.191 -2.256 -2.256 -2.226 -2.206 -2.111 -2.288 -2.218 -2.196 -2.188 -2.263 -2.226 -2.151 -2.181 -2.203 -2.166 -2.221 -2.238 -2.216 -2.241 -2.181 -2.118 -2.143 -2.201 -2.158 -2.193 -2.226 -2.198 -2.153 -2.216 -2.198 -2.276 -2.131 -2.138 -2.193 -2.206 -2.143 -2.208 -2.213 -2.158 -2.193 -2.246 -2.241 -2.168 -2.211 -2.268 -2.201 -2.198 -2.133 -2.173 -2.171 -2.128 -2.188 -2.231 -2.183 -2.186 -2.203 -2.226 -2.188 -2.183 -2.211 -2.233 -2.181 -2.191 -2.213 -2.208 -2.178 -2.143 -2.131 -2.178 -2.266 -2.198 -2.161 -2.188 -2.183 -2.138 -2.118 -2.208 -2.178 -2.213 -2.163 -2.271 -2.203 -2.193 -2.143 -2.198 -2.273 -2.173 -2.183 -2.131 -2.128 -2.173 -2.158
-2.217 -2.239 -2.224 -2.184 -2.122 -2.152 -2.204 -2.294 -2.257 -2.177 -2.289 -2.257 -2.179 -2.192 -2.229 -2.232 -2.314 -2.252 -2.187 -2.214 -2.239 -2.145 -2.235 -2.152 -2.205 -2.202 -2.195 -2.22 -2.21 -2.24 -2.212 -2.272 -2.21 -2.215 -2.24 -2.277 -2.187 -2.227 -2.262 -2.197 -2.205 -2.2 -2.232 -2.16 -2.19 -2.325 -2.257 -2.192 -2.25 -2.205 -2.252 -2.205 -2.237 -2.282 -2.227 -2.235 -2.22 -2.24 -2.23 -2.17 -2.242 -2.187 -2.202 -2.215 -2.13 -2.165 -2.24 -2.257 -2.265 -2.16 -2.135 -2.277 -2.222 -2.215 -2.357 -2.327 -2.247 -2.177 -2.272 -2.225 -2.167 -2.172 -2.195 -2.142 -2.125 -2.24 -2.195 -2.177 -2.205 -2.24 -2.22 -2.24 -2.245 -2.222 -2.282 -2.277 -2.297 -2.242 -2.28 -2.267 -2.245 -2.27 -2.222 -2.232 -2.247 -2.182 -2.195 -2.185 -2.207 -2.245 -2.225 -2.202 -2.21 -2.262 -2.195 -2.227 -2.245 -2.195 -2.165 -2.3 -2.337 -2.27 -2.205 -2.258 -2.248 -2.23 -2.25 -2.285 -2.218 -2.28 -2.303 -2.31 -2.218 -2.278 -2.263 -2.29 -2.318 -2.228 -2.293 -2.265 -2.205 -2.24 -2.253 -2.215 -2.183 -2.18 -2.18 -2.268 -2.24 -2.355 -2.27 -2.195 -2.203 -2.228 -2.2 -2.198 -2.223 -2.31 -2.198 -2.223 -2.19 -2.17 -2.17 -2.25 -2.26 -2.173 -2.19 -2.175 -2.198 -2.205 -2.275 -2.32 -2.29 -2.213 -2.23 -2.258 -2.205 -2.178 -2.158 -2.145 -2.18 -2.235 -2.303 -2.295 -2.213 -2.213 -2.25 -2.213 -2.178 -2.213 -2.193 -2.243 -2.245 -2.24 -2.288 -2.298 -9999 -9999 -2.37 -2.26 -2.098 -2.135 -2.138 -2.155 -2.195 -2.188 -2.218 -2.185 -2.26 -2.248 -2.238 -2.095 -2.203 -9999 -9999 -2.155 -2.193 -2.168 -2.18 -2.218 -2.25 -2.233 -2.285 -2.248 -2.125 -2.28 -2.278 -2.273 -2.163 -2.188 -2.28 -2.25 -2.238 -2.268 -2.243 -2.21 -2.22 -2.183 -2.195 -2.213 -2.23 -2.265 -2.178 -2.173 -2.213 -2.295 -2.233 -2.148 -2.235 -2.298 -2.165 -2.165 -2.18 -2.21 -2.198 -2.245 -2.168 -2.253 -2.178 -2.16 -2.273 -2.22 -2.285 -2.193 -2.203 -2.163 -2.183 -2.198 -2.18 -2.203 -2.258 -2.253 -2.111 -2.251 -2.291 -2.163 -2.126 -2.198 -2.218 -2.171 -2.178 -2.251 -2.263 -2.296 -2.238 -2.141 -2.226 -2.236 -2.263 -2.228 -2.201 -2.226 -2.218 -2.238 -2.151 -2.221 -2.166 -2.126 -2.186 -2.271 -2.203 -2.236 -2.213 -2.188 -2.211 -2.203 -2.276 -2.181 -2.168 -2.243 -2.173 -2.196 -2.221 -2.118 -2.136 -2.171 -2.303 -2.236 -2.131 -2.186 -2.176 -2.153 -2.203 -2.181 -2.203 -2.121 -2.163 -2.193 -2.158 -2.211 -2.188 -2.171 -2.201 -2.181 -2.288 -2.266 -2.133 -2.188 -2.228 -2.196 -2.208 -2.223 -2.201 -2.231 -2.191 -2.213 -2.246 -2.211 -2.246 -2.171 -2.126 -2.233 -2.223 -2.201 -2.163 -2.211 -2.181 -2.133 -2.141 -2.143 -2.186 -2.193 -2.221 -2.168 -2.178 -2.206 -2.156 -2.186 -2.273 -2.231 -2.136 -2.258 -2.171 -2.248 -2.261 -2.138 -2.208 -2.196 -2.166 -2.211 -2.303 -2.186 -2.193 -2.126 -2.171 -2.228 -2.188 -2.158 -2.201 -2.191 -2.216 -2.231 -2.203 -2.178 -2.266 -2.198 -2.191 -2.228 -2.191 -2.173 -2.138 -2.198 -2.108 -2.158 -2.251 -2.226 -2.118 -2.193 -2.186 -2.223 -2.208 -2.098 -2.228 -2.226 -2.193 -2.161 -2.193 -2.151 -2.173 -2.158 -2.218 -2.243 -2.173 -2.251 -2.261 -2.173 -2.168 -2.208 -2.161 -2.128 -2.211 -2.216 -2.141 -2.171 -2.246 -2.226 -2.183 -2.226 -2.173 -2.233 -2.148 -2.168 -2.246 -2.183 -2.146 -2.193 -2.133 -2.136 -2.263 -2.238 -2.141 -2.181 -2.206 -2.193 -2.103 -2.141 -2.188 -2.191 -2.151 -2.173 -2.226 -2.178 -2.191 -2.183 -2.183 -2.161 -2.148 -2.138 -2.143 -2.241 -2.116
-2.197 -2.187 -2.169 -2.212 -2.204 -2.189 -2.192 -2.254 -2.224 -2.192 -2.217 -2.264 -2.179 -2.262 -2.232 -2.212 -2.232 -2.247 -2.272 -2.254 -2.234 -2.242 -2.21 -2.207 -2.175 -2.142 -2.21 -2.272 -2.282 -2.205 -2.215 -2.242 -2.212 -2.18 -2.21 -2.3 -2.237 -2.237 -2.272 -2.202 -2.182 -2.215 -2.245 -2.197 -2.17 -2.297 -2.262 -2.24 -2.192 -2.23 -2.19 -2.197 -2.197 -2.305 -2.192 -2.185 -2.195 -2.282 -2.215 -2.25 -2.265 -2.195 -2.232 -2.222 -2.135 -2.185 -2.265 -2.215 -2.205 -2.18 -2.147 -2.22 -2.255 -2.227 -2.287 -2.365 -2.275 -2.24 -2.237 -2.242 -2.18 -2.142 -2.212 -2.182 -2.222 -2.26 -2.205 -2.17 -2.257 -2.307 -2.252 -2.177 -2.257 -2.185 -2.145 -2.21 -2.165 -2.267 -2.29 -2.225 -2.22 -2.277 -2.205 -2.202 -2.225 -2.27 -2.135 -2.18 -2.24 -2.222 -2.302 -2.315 -2.252 -2.247 -2.197 -2.207 -2.177 -2.215 -2.227 -2.242 -2.245 -2.255 -2.245 -2.208 -2.188 -2.22 -2.285 -2.233 -2.288 -2.283 -2.26 -2.23 -2.175 -2.258 -2.298 -2.263 -2.283 -2.21 -2.28 -2.215 -2.2 -2.315 -2.245 -2.173 -2.165 -2.253 -2.248 -2.225 -2.26 -2.353 -2.308 -2.193 -2.268 -2.29 -2.255 -2.218 -2.223 -2.37 -2.268 -2.308 -2.215 -2.188 -2.13 -2.188 -2.25 -2.195 -2.198 -2.248 -2.205 -2.173 -2.265 -2.228 -2.203 -2.253 -2.25 -2.3 -2.253 -2.255 -2.198 -2.165 -2.155 -2.16 -2.208 -2.26 -2.26 -2.245 -2.215 -2.198 -2.163 -2.173 -9999 -2.193 -2.203 -2.16 -2.175 -9999 -9999 -9999 -2.253 -2.29 -2.138 -2.243 -2.205 -2.273 -2.175 -2.26 -2.248 -2.118 -2.213 -2.173 -2.098 -2.18 -2.393 -2.328 -2.23 -2.16 -2.238 -2.203 -2.195 -2.188 -2.258 -2.175 -2.245 -2.243 -2.165 -2.235 -2.263 -2.265 -2.168 -2.253 -2.293 -2.213 -2.165 -2.27 -2.245 -2.27 -2.215 -2.2 -2.125 -2.173 -2.215 -2.245 -2.173 -2.078 -2.198 -2.278 -2.213 -2.143 -2.238 -2.225 -2.205 -2.173 -2.148 -2.193 -2.23 -2.198 -2.125 -2.228 -2.235 -2.223 -2.208 -2.243 -2.268 -2.258 -2.23 -2.2 -2.17 -2.195 -2.183 -2.173 -2.233 -2.228 -2.103 -2.238 -2.243 -2.191 -2.163 -2.238 -2.251 -2.173 -2.166 -2.228 -2.198 -2.201 -2.208 -2.183 -2.196 -2.253 -2.183 -2.156 -2.143 -2.276 -2.218 -2.256 -2.221 -2.208 -2.233 -2.198 -2.183 -2.208 -2.201 -2.141 -2.228 -2.203 -2.218 -2.203 -2.248 -2.211 -2.171 -2.283 -2.158 -2.218 -2.268 -2.118 -2.133 -2.151 -2.238 -2.168 -2.163 -2.193 -2.201 -2.163 -2.196 -2.188 -2.226 -2.186 -2.191 -2.206 -2.163 -2.226 -2.143 -2.133 -2.153 -2.181 -2.288 -2.203 -2.148 -2.283 -2.253 -2.231 -2.213 -2.238 -2.246 -2.208 -2.203 -2.148 -2.208 -2.251 -2.296 -2.208 -2.138 -2.258 -2.248 -2.238 -2.161 -2.201 -2.216 -2.141 -2.201 -2.176 -2.246 -2.156 -2.181 -2.193 -2.181 -2.273 -2.181 -2.218 -2.248 -2.223 -2.138 -2.201 -2.201 -2.143 -2.266 -2.126 -2.206 -2.256 -2.158 -2.238 -2.313 -2.116 -2.173 -2.176 -2.136 -2.253 -2.213 -2.181 -2.203 -2.213 -2.168 -2.191 -2.171 -2.211 -2.291 -2.223 -2.196 -2.191 -2.198 -2.176 -2.126 -2.156 -2.171 -2.176 -2.271 -2.231 -2.126 -2.148 -2.201 -2.216 -2.186 -2.088 -2.316 -2.261 -2.156 -2.148 -2.176 -2.201 -2.261 -2.196 -2.238 -2.213 -2.213 -2.233 -2.306 -2.206 -2.158 -2.181 -2.163 -2.223 -2.176 -2.238 -2.203 -2.118 -2.213 -2.223 -2.163 -2.166 -2.191 -2.231 -2.153 -2.103 -2.186 -2.233 -2.171 -2.166 -2.198 -2.168 -2.256 -2.231 -2.171 -2.201 -2.266 -2.168 -2.161 -2.113 -2.196 -2.156 -2.148 -2.201 -2.248 -2.161 -2.188 -2.191 -2.121 -2.158 -2.196 -2.136 -2.128 -2.201 -2.163
-2.197 -2.212 -2.167 -2.112 -2.217 -2.159 -2.184 -2.262 -2.162 -2.124 -2.199 -2.292 -2.249 -2.239 -2.222 -2.234 -2.237 -2.247 -2.292 -2.259 -2.217 -2.305 -2.162 -2.177 -2.222 -2.13 -2.155 -2.232 -2.307 -2.155 -2.202 -2.245 -2.18 -2.117 -2.195 -2.285 -2.19 -2.21 -2.205 -2.257 -2.19 -2.26 -2.232 -2.255 -2.2 -2.272 -2.287 -2.23 -2.112 -2.225 -2.277 -2.217 -2.162 -2.267 -2.257 -2.137 -2.202 -2.287 -2.175 -2.237 -2.302 -2.207 -2.237 -2.27 -2.205 -2.205 -2.26 -2.227 -2.247 -2.252 -2.187 -2.217 -2.287 -2.18 -2.285 -2.315 -2.322 -2.3 -2.237 -2.265 -2.27 -2.182 -2.212 -2.177 -2.285 -2.262 -2.252 -2.225 -2.305 -2.302 -2.267 -2.187 -2.22 -2.232 -2.177 -2.257 -2.22 -2.265 -2.305 -2.155 -2.19 -2.302 -2.18 -2.21 -2.25 -2.375 -2.225 -2.197 -2.19 -2.225 -2.272 -2.272 -2.285 -2.222 -2.232 -2.257 -2.205 -2.262 -2.257 -2.285 -2.237 -2.318 -2.23 -2.238 -2.223 -2.208 -2.28 -2.243 -2.263 -2.125 -2.33 -2.28 -2.188 -2.178 -2.265 -2.298 -2.24 -2.278 -2.26 -2.225 -2.233 -2.318 -2.208 -2.215 -2.188 -2.32 -2.228 -2.198 -2.228 -2.23 -2.223 -2.233 -2.25 -2.268 -2.265 -2.188 -2.213 -2.3 -2.268 -2.335 -2.308 -2.18 -2.153 -2.203 -2.243 -2.198 -2.135 -2.218 -2.21 -2.193 -2.258 -2.21 -2.193 -2.278 -2.26 -2.288 -2.21 -2.293 -2.308 -2.243 -2.248 -2.208 -2.27 -2.225 -2.248 -2.27 -2.218 -2.268 -2.228 -2.198 -9999 -9999 -9999 -2.111 -2.118 -9999 -9999 -9999 -2.308 -9999 -9999 -2.258 -2.255 -2.195 -2.168 -2.313 -2.24 -2.15 -2.205 -2.173 -2.14 -2.068 -2.238 -2.22 -2.253 -2.228 -2.255 -2.22 -2.178 -2.225 -2.26 -2.123 -2.178 -2.26 -2.21 -2.158 -2.248 -2.235 -2.223 -2.25 -2.263 -2.205 -2.163 -2.215 -2.315 -2.293 -2.273 -2.255 -2.335 -2.24 -2.21 -2.17 -2.193 -2.073 -2.05 -2.223 -2.138 -2.15 -2.21 -2.195 -2.21 -2.205 -2.193 -2.205 -2.268 -2.265 -2.195 -2.205 -2.19 -2.215 -2.278 -2.24 -2.178 -2.22 -2.275 -2.275 -2.145 -2.22 -2.248 -2.15 -2.233 -2.236 -2.133 -2.183 -2.213 -2.171 -2.183 -2.206 -2.233 -2.206 -2.258 -2.141 -2.191 -2.173 -2.203 -2.248 -2.231 -2.178 -2.208 -2.261 -2.151 -2.181 -2.218 -2.198 -2.238 -2.161 -2.321 -2.248 -2.143 -2.166 -2.158 -2.111 -2.201 -2.226 -2.203 -2.153 -2.181 -2.213 -2.208 -2.291 -2.261 -2.203 -2.256 -2.221 -2.188 -2.151 -2.241 -2.193 -2.161 -2.198 -2.123 -2.166 -2.201 -2.208 -2.243 -2.146 -2.258 -2.216 -2.168 -2.203 -2.176 -2.163 -2.206 -2.168 -2.218 -2.253 -2.203 -2.166 -2.193 -2.228 -2.193 -2.253 -2.243 -2.221 -2.208 -2.171 -2.196 -2.241 -2.261 -2.211 -2.198 -2.251 -2.226 -2.228 -2.183 -2.193 -2.213 -2.148 -2.228 -2.158 -2.211 -2.243 -2.233 -2.181 -2.131 -2.258 -2.198 -2.196 -2.261 -2.256 -2.106 -2.253 -2.186 -2.043 -2.206 -2.186 -2.176 -2.196 -2.178 -2.261 -2.241 -2.168 -2.221 -2.238 -2.173 -2.148 -2.208 -2.226 -2.213 -2.188 -2.158 -2.216 -2.201 -2.236 -2.266 -2.233 -2.241 -2.208 -2.218 -2.166 -2.138 -2.208 -2.188 -2.113 -2.203 -2.291 -2.158 -2.216 -2.116 -2.241 -2.281 -2.123 -2.203 -2.226 -2.136 -2.146 -2.161 -2.151 -2.201 -2.221 -2.161 -2.173 -2.241 -2.231 -2.243 -2.173 -2.211 -2.183 -2.246 -2.156 -2.151 -2.211 -2.226 -2.178 -2.246 -2.256 -2.201 -2.166 -2.151 -2.176 -2.113 -2.123 -2.201 -2.256 -2.153 -2.118 -2.193 -2.163 -2.208 -2.196 -2.216 -2.183 -2.258 -2.181 -2.163 -2.063 -2.146 -2.173 -2.133 -2.156 -2.226 -2.196 -2.198 -2.151 -2.143 -2.223 -2.183 -2.136 -2.181 -2.228 -2.136
-2.189 -2.184 -2.164 -2.137 -2.212 -2.184 -2.197 -2.274 -2.169 -2.162 -2.179 -2.227 -2.224 -2.237 -2.252 -2.302 -2.172 -2.179 -2.202 -2.249 -2.249 -2.292 -2.212 -2.19 -2.245 -2.13 -2.157 -2.262 -2.3 -2.157 -2.26 -2.255 -2.242 -2.087 -2.12 -2.197 -2.222 -2.285 -2.255 -2.222 -2.215 -2.21 -2.15 -2.215 -2.242 -2.24 -2.287 -2.285 -2.175 -2.202 -2.25 -2.24 -2.15 -2.21 -2.247 -2.132 -2.22 -2.26 -2.185 -2.24 -2.245 -2.305 -2.247 -2.29 -2.257 -2.192 -2.217 -2.205 -2.187 -2.3 -2.27 -2.255 -2.225 -2.24 -2.225 -2.295 -2.262 -2.29 -2.24 -2.31 -2.245 -2.215 -2.197 -2.165 -2.24 -2.242 -2.28 -2.21 -2.302 -2.28 -2.222 -2.197 -2.215 -2.192 -2.2 -2.27 -2.252 -2.212 -2.295 -2.217 -2.247 -2.287 -2.222 -2.21 -2.26 -2.307 -2.182 -2.225 -2.192 -2.22 -2.192 -2.242 -2.305 -2.112 -2.195 -2.25 -2.345 -2.28 -2.252 -2.275 -2.247 -2.163 -2.133 -2.205 -2.245 -2.195 -2.245 -2.23 -2.245 -2.275 -2.313 -2.223 -2.23 -2.165 -2.283 -2.283 -2.293 -2.36 -2.255 -2.235 -2.158 -2.218 -2.21 -2.265 -2.225 -2.303 -9999 -2.218 -2.248 -2.303 -2.335 -2.3 -2.23 -2.228 -2.2 -2.165 -2.215 -2.273 -2.208 -2.178 -2.27 -2.323 -2.27 -2.228 -2.263 -2.255 -2.195 -2.26 -2.245 -2.193 -2.213 -2.278 -2.268 -2.235 -2.253 -2.27 -2.218 -2.198 -2.275 -2.283 -2.318 -2.213 -2.193 -2.198 -2.213 -2.283 -2.17 -2.255 -2.31 -2.22 -2.193 -2.198 -9999 -9999 -2.083 -9999 -9999 -9999 -2.254 -9999 -2.303 -2.278 -2.218 -2.248 -2.19 -2.22 -2.288 -2.263 -2.223 -2.23 -9999 -2.178 -2.215 -2.27 -2.228 -2.26 -2.228 -2.28 -2.2 -2.158 -2.278 -2.223 -2.193 -2.215 -2.138 -2.183 -2.19 -2.165 -2.218 -2.193 -2.245 -2.245 -2.153 -2.233 -2.265 -2.25 -2.22 -2.233 -2.225 -2.245 -2.263 -2.23 -2.19 -2.193 -2.165 -2.193 -2.175 -2.168 -2.193 -2.258 -2.198 -2.235 -2.145 -2.27 -2.22 -2.163 -2.183 -2.22 -2.183 -2.193 -2.273 -2.243 -2.148 -2.16 -2.225 -2.238 -2.17 -2.29 -2.245 -2.153 -2.233 -2.236 -2.201 -2.193 -2.246 -2.141 -2.141 -2.198 -2.243 -2.296 -2.293 -2.086 -2.231 -2.241 -2.181 -2.221 -2.238 -2.168 -2.231 -2.188 -2.281 -2.201 -2.238 -2.176 -2.236 -2.253 -2.226 -2.171 -2.183 -2.266 -2.281 -2.193 -2.151 -2.256 -2.231 -2.093 -2.258 -2.166 -2.201 -2.281 -2.191 -2.193 -2.168 -2.231 -2.206 -2.178 -2.193 -2.261 -2.248 -2.168 -2.223 -2.173 -2.221 -2.203 -2.206 -2.198 -2.251 -2.198 -2.181 -2.238 -2.173 -2.163 -2.208 -2.186 -2.181 -2.233 -2.168 -2.133 -2.148 -2.173 -2.168 -2.198 -2.226 -2.221 -2.221 -2.133 -2.193 -2.246 -2.243 -2.231 -2.161 -2.183 -2.226 -2.218 -2.233 -2.173 -2.206 -2.148 -2.208 -2.226 -2.216 -2.236 -2.196 -2.168 -2.043 -2.258 -2.193 -2.193 -2.208 -2.256 -2.193 -2.186 -2.206 -2.146 -2.306 -2.266 -2.173 -2.216 -2.101 -2.273 -2.218 -2.223 -2.213 -2.206 -2.153 -2.193 -2.266 -2.236 -2.171 -2.173 -2.116 -2.253 -2.173 -2.211 -2.208 -2.251 -2.193 -2.198 -2.241 -2.143 -2.148 -2.143 -2.178 -2.096 -2.178 -2.248 -2.221 -2.183 -2.166 -2.161 -2.321 -2.141 -2.156 -2.283 -2.173 -2.231 -2.141 -2.138 -2.221 -2.203 -2.131 -2.231 -2.238 -2.173 -2.243 -2.186 -2.201 -2.131 -2.241 -2.211 -2.123 -2.196 -2.253 -2.163 -2.216 -2.261 -2.191 -2.133 -2.178 -2.203 -2.111 -2.083 -2.231 -2.296 -2.211 -2.088 -2.141 -2.183 -2.206 -2.186 -2.226 -2.126 -2.256 -2.191 -2.148 -2.088 -2.173 -2.176 -2.141 -2.186 -2.241 -2.236 -2.186 -2.201 -2.231 -2.281 -2.196 -2.181 -2.256 -2.216 -2.178
