ncols 459
nrows 32
xllcorner    457052
yllcorner    85592
cellsize     2
NODATA_value -9999
32.67 31.667 31.61 31.562 31.545 31.535 31.48 31.437 31.352 31.295 31.202 31.075 31.002 30.95 30.877 30.785 30.66 30.585 30.47 30.355 30.225 30.107 30.027 29.91 29.805 29.722 29.602 29.512 29.375 29.255 29.117 29.002 28.907 28.797 28.66 28.522 28.442 28.355 28.222 28.095 27.96 27.865 27.735 27.587 27.43 27.275 27.085 26.912 26.722 26.527 26.375 26.2 26.035 25.897 25.757 25.6 25.452 25.297 25.105 24.95 24.802 24.647 24.497 24.362 24.222 24.09 23.922 23.767 23.61 23.435 23.275 23.11 22.912 22.727 22.562 22.332 22.114 21.929 21.747 21.542 21.372 21.164 20.974 20.742 20.569 20.349 20.112 19.894 19.662 19.449 19.199 18.939 18.714 18.442 18.222 17.967 17.724 17.477 17.219 16.962 16.674 16.432 16.189 15.937 15.709 15.507 15.194 14.892 17.907 16.257 16.459 14.142 12.304 11.697 11.742 11.052 10.364 10.307 9.829 9.962 9.342 10.439 7.737 7.159 7.389 5.812 8.334 13.404 5.437 5.599 5.704 5.394 5.344 5.464 5.719 6.219 6.957 8.749 8.519 8.444 5.874 5.389 5.727 6.249 6.257 7.724 12.117 7.977 6.019 11.432 8.407 8.077 11.439 12.717 10.677 9.867 10.299 11.052 12.229 14.432 13.534 13.837 13.944 13.797 13.132 13.257 15.787 13.679 13.174 12.807 12.989 13.099 14.319 13.624 13.094 12.864 13.464 14.209 13.019 12.254 12.369 13.802 13.152 12.154 12.084 12.519 11.747 11.619 11.439 11.229 10.937 10.747 10.677 12.742 12.392 9.579 8.622 8.387 8.329 8.154 7.872 8.872 9.177 7.134 8.664 9.594 8.047 6.727 6.862 6.932 7.012 7.089 7.204 7.287 7.412 7.487 7.747 7.979 8.289 8.717 8.692 8.854 9.262 9.462 9.604 9.876 11.609 15.269 11.709 11.301 13.449 12.616 9.736 8.186 10.571 15.594 16.354 14.139 13.106 5.379 5.069 5.239 5.011 4.849 5.364 5.094 4.511 4.316 4.014 3.884 3.809 3.599 3.306 3.509 3.711 3.314 3.424 3.326 3.281 3.309 3.321 3.341 3.271 3.239 2.941 2.401 2.574 2.791 3.089 3.394 3.249 3.051 2.931 2.879 2.986 3.399 3.451 3.644 3.149 3.161 3.116 3.279 3.224 3.291 3.336 3.331 3.191 3.146 3.129 3.114 3.116 3.104 3.146 2.881 2.606 2.611 2.641 2.694 3.261 4.019 3.356 3.296 3.301 3.469 3.981 4.076 4.224 4.309 4.346 4.029 3.509 3.284 3.352 3.426 3.58 3.796 4.003 4.064 4.383 5.267 5.282 4.435 4.465 4.674 4.766 4.711 4.642 4.621 4.611 4.462 4.436 4.366 4.103 4.067 4.014 4.057 4.219 4.003 3.85 4.096 4.787 4.458 6.461 4.161 5.121 5.333 4.966 7.136 6.999 5.224 4.385 4.574 4.766 5.281 5.765 5.03 4.819 4.51 5.07 5.351 5.206 4.871 4.551 4.486 4.414 4.504 4.636 4.934 5.816 5.956 5.891 5.551 5.504 6.041 8.466 9.816 9.844 9.786 9.781 8.304 5.596 5.696 5.779 5.791 5.764 5.784 5.864 5.884 5.976 6.056 6.106 6.139 6.659 7.579 7.101 6.896 6.281 6.049 5.816 5.656 5.664 5.761 5.784 5.634 5.534 5.499 5.509 5.461 5.459 5.471 5.491 5.509 5.466 5.441 5.399 5.411 5.374 5.359 5.354 5.359 5.359 5.366 5.376 5.384 5.389 5.424 5.489 5.516 5.524 5.536 5.511 5.504 5.514 5.511 5.524 5.571 5.634 5.631 5.649 5.684 5.689 5.726 5.739 5.769 5.811 5.854 5.884 5.896 5.946 5.961 5.941 5.934 5.941 5.881 5.759 5.661 5.599 5.556 5.476
31.675 31.667 31.6 31.595 31.565 31.525 31.462 31.392 31.305 31.22 31.15 31.03 30.96 30.875 30.75 30.645 30.522 30.455 30.317 30.182 30.107 29.972 29.82 29.715 29.625 29.53 29.4 29.315 29.192 29.067 28.91 28.777 28.627 28.507 28.36 28.232 28.137 28.012 27.925 27.822 27.692 27.572 27.45 27.35 27.187 26.97 26.8 26.615 26.425 26.227 26.067 25.92 25.757 25.602 25.445 25.3 25.145 24.97 24.8 24.645 24.49 24.367 24.207 24.095 23.932 23.8 23.655 23.5 23.347 23.165 22.992 22.825 22.64 22.457 22.272 22.064 21.897 21.697 21.532 21.337 21.152 20.964 20.774 20.567 20.374 20.149 19.924 19.689 19.469 19.212 18.967 18.727 18.467 18.217 17.997 17.752 17.507 17.267 17.017 16.744 16.452 16.204 15.964 15.774 15.594 15.372 15.492 15.852 15.799 14.172 16.624 13.389 11.657 11.099 11.249 10.122 9.339 8.897 9.527 8.314 8.154 7.352 6.787 6.104 5.709 5.357 5.289 5.452 5.724 5.734 5.449 5.544 5.409 5.504 5.487 5.987 6.017 6.832 6.854 6.087 5.627 5.624 6.554 7.959 8.514 9.309 11.879 8.704 8.827 13.384 9.562 12.027 14.954 13.149 12.849 10.777 11.317 11.549 12.162 12.417 13.144 17.062 15.644 13.137 13.289 13.349 13.369 17.304 14.329 12.872 12.854 12.907 13.649 15.202 14.352 13.274 12.764 13.169 14.119 13.172 12.247 12.597 14.587 12.919 11.954 11.814 11.559 11.424 11.262 11.069 10.814 10.552 10.312 10.664 11.094 10.562 8.747 8.167 8.117 8.054 7.779 9.304 7.484 6.679 6.752 7.879 7.584 6.912 7.012 7.089 7.179 7.274 7.377 7.517 7.667 7.817 8.012 8.559 9.182 11.177 9.667 9.024 9.342 9.489 9.789 10.399 12.969 15.326 14.926 11.606 10.931 10.746 9.959 9.849 11.601 12.349 11.054 11.741 12.441 7.506 5.629 5.559 5.436 5.099 5.156 5.071 4.681 4.499 4.296 4.199 4.049 3.904 3.486 3.646 3.531 3.479 3.559 3.474 3.444 3.301 3.276 3.299 3.299 3.309 3.121 2.761 2.594 2.374 2.636 2.944 2.796 2.729 3.139 3.104 2.966 3.006 3.271 3.561 3.451 3.426 3.221 3.199 3.099 3.299 3.319 3.171 3.106 3.131 3.169 3.081 3.126 3.039 2.996 2.674 2.691 2.684 2.554 2.709 3.351 3.404 3.371 3.366 3.434 3.669 3.481 3.824 4.146 3.944 3.666 3.511 3.331 3.279 3.298 3.396 3.4 3.602 3.82 3.954 4.145 4.402 4.848 4.289 4.223 4.546 4.725 4.719 4.688 4.543 4.479 4.489 4.4 4.448 3.105 3.836 3.998 3.941 3.938 4.219 4.192 4.315 4.326 4.097 7.469 8.225 11.296 8.176 7.882 10.201 6.33 4.694 4.71 4.871 4.252 4.186 4.835 5.284 5.161 5.247 4.63 4.626 4.969 4.526 4.481 4.416 4.499 4.589 4.656 4.734 4.911 5.129 5.571 6.354 5.544 7.039 9.444 9.526 7.836 9.014 9.261 6.634 5.604 5.639 5.669 5.736 5.749 5.754 5.804 5.851 5.906 6.011 6.071 6.046 6.014 6.534 7.274 6.421 5.974 5.826 5.709 5.664 5.664 5.809 5.704 5.659 5.561 5.494 5.446 5.466 5.434 5.474 5.464 5.431 5.401 5.394 5.371 5.344 5.304 5.306 5.316 5.316 5.306 5.341 5.359 5.356 5.361 5.366 5.386 5.426 5.429 5.464 5.471 5.449 5.459 5.471 5.481 5.519 5.541 5.559 5.571 5.606 5.621 5.639 5.661 5.686 5.696 5.721 5.749 5.784 5.834 5.881 5.871 5.894 5.899 5.841 5.679 5.606 5.574 5.534 5.461
31.66 31.645 31.632 31.655 31.58 31.507 31.46 31.35 31.25 31.192 31.06 30.987 30.912 30.79 30.662 30.542 30.395 30.305 30.18 30.062 29.952 29.835 29.672 29.557 29.447 29.327 29.225 29.095 28.977 28.875 28.692 28.555 28.41 28.232 28.075 27.96 27.87 27.74 27.61 27.495 27.4 27.29 27.147 27.057 26.915 26.73 26.537 26.342 26.175 26.002 25.807 25.647 25.472 25.327 25.152 25.002 24.857 24.695 24.525 24.36 24.21 24.085 23.94 23.815 23.68 23.535 23.375 23.22 23.07 22.907 22.722 22.547 22.37 22.182 22.034 21.837 21.657 21.494 21.304 21.107 20.944 20.794 20.567 20.344 20.142 19.919 19.707 19.464 19.222 19.009 18.742 18.482 18.239 18.027 17.752 17.527 17.284 17.012 16.777 16.507 16.242 16.002 15.784 15.634 15.504 15.104 16.634 17.594 18.479 13.434 12.464 11.992 11.287 10.702 10.202 9.402 8.684 8.067 7.779 8.394 7.317 7.137 6.414 5.789 5.069 5.214 5.912 5.332 5.422 5.737 5.612 5.637 5.484 5.372 5.614 6.762 5.519 5.744 5.287 5.734 7.087 7.002 6.109 8.752 9.997 11.917 12.924 12.062 11.847 11.967 11.769 11.547 15.649 14.437 18.887 11.457 12.057 12.319 12.539 12.709 13.122 15.904 14.022 13.577 13.424 13.362 13.389 13.379 12.952 12.867 12.947 13.294 15.922 17.007 16.417 15.004 13.217 12.719 12.969 13.989 13.652 14.124 15.822 15.377 13.794 12.994 11.449 11.172 11.094 10.959 10.657 10.374 11.807 11.022 12.329 10.969 8.544 7.939 7.854 7.832 7.709 8.889 7.202 7.299 6.687 6.782 7.069 7.184 7.149 7.224 7.329 7.412 7.484 7.604 7.757 7.914 8.709 10.052 11.434 12.492 11.869 9.139 10.029 9.954 10.271 10.791 11.899 15.636 12.809 11.956 11.644 13.691 11.729 11.074 10.849 10.974 11.384 12.671 13.076 9.654 6.759 6.281 7.449 5.634 5.201 5.159 4.834 5.144 4.581 5.029 4.239 3.989 3.901 3.929 3.856 3.701 3.646 3.751 3.469 3.341 3.286 3.221 3.314 3.189 3.256 3.059 2.959 2.704 2.991 3.594 2.954 2.919 3.276 3.436 3.291 3.096 3.099 3.214 3.554 3.959 3.604 3.424 3.281 3.186 3.111 3.049 3.029 3.139 3.174 3.204 3.204 3.099 2.916 2.654 2.766 2.696 2.601 3.289 3.621 3.359 3.254 3.291 3.141 3.226 3.809 3.756 4.029 3.651 3.229 3.176 3.211 3.229 3.236 3.37 3.406 3.449 3.667 3.745 3.963 4.167 4.311 4.152 4.205 4.583 4.638 4.63 4.493 4.436 4.479 4.408 4.296 3.917 3.631 3.573 3.275 2.881 3.86 4.169 4.293 4.406 4.33 4.058 5.943 3.88 8.17 8.785 6.898 11.773 5.684 4.575 4.728 4.69 4.125 4.106 4.087 4.091 4.169 4.672 4.904 5.269 4.581 4.451 4.469 4.361 4.656 5.009 4.889 4.829 4.909 5.136 5.141 5.139 5.304 7.089 8.731 8.596 5.966 5.696 6.406 5.569 5.589 5.601 5.619 5.616 5.674 5.699 5.706 5.786 5.849 5.876 5.894 5.904 5.906 5.899 6.014 5.924 5.699 5.586 5.609 5.689 5.731 5.686 5.654 5.614 5.534 5.441 5.441 5.441 5.431 5.461 5.406 5.371 5.359 5.349 5.319 5.294 5.246 5.244 5.241 5.261 5.291 5.291 5.296 5.319 5.336 5.354 5.374 5.376 5.399 5.389 5.389 5.374 5.384 5.406 5.439 5.491 5.486 5.511 5.506 5.519 5.544 5.574 5.599 5.614 5.641 5.656 5.669 5.714 5.706 5.736 5.749 5.786 5.774 5.701 5.621 5.581 5.564 5.501 5.444
31.675 31.692 31.702 31.675 31.595 31.547 31.447 31.332 31.217 31.13 31.03 30.94 30.837 30.695 30.6 30.467 30.282 30.185 30.04 29.917 29.782 29.672 29.53 29.407 29.297 29.165 29.037 28.9 28.757 28.602 28.452 28.3 28.147 27.99 27.825 27.697 27.597 27.475 27.37 27.257 27.112 27.01 26.877 26.745 26.625 26.495 26.312 26.105 25.922 25.742 25.56 25.392 25.207 25.057 24.892 24.722 24.577 24.405 24.252 24.1 23.957 23.832 23.685 23.555 23.425 23.257 23.125 22.965 22.815 22.652 22.46 22.292 22.14 21.977 21.789 21.632 21.442 21.267 21.119 20.917 20.734 20.532 20.309 20.109 19.917 19.689 19.479 19.224 19.014 18.777 18.524 18.269 18.024 17.787 17.539 17.304 17.042 16.794 16.562 16.267 16.002 15.782 15.634 15.529 15.289 15.962 19.282 20.534 21.909 14.669 12.027 11.909 11.602 10.689 9.922 9.484 8.524 7.997 7.509 7.129 7.242 7.787 7.577 5.579 5.272 5.199 5.049 5.044 5.102 5.334 5.489 5.509 5.184 6.904 5.627 5.482 5.102 5.242 6.224 7.084 8.339 8.187 6.442 9.054 14.352 12.957 9.919 14.332 13.134 12.897 12.342 16.012 18.127 19.882 19.282 12.034 12.477 12.837 12.972 12.874 13.252 14.277 15.537 14.374 13.397 13.412 13.427 13.359 12.977 12.909 14.002 15.029 16.304 16.914 17.132 16.627 15.624 13.224 12.607 12.622 13.504 14.199 15.189 15.272 12.327 11.872 11.284 11.027 10.774 10.769 10.479 10.184 13.252 15.079 9.599 9.819 9.427 7.704 7.649 7.702 8.614 7.422 7.504 6.929 6.717 6.779 6.952 7.077 7.192 7.289 7.427 7.502 7.597 7.672 7.907 9.012 9.999 11.762 12.457 12.762 12.097 10.504 11.082 13.302 11.336 12.006 13.234 12.714 12.049 12.044 12.706 12.854 11.956 11.784 11.691 11.379 12.006 12.411 16.211 13.101 11.201 8.169 8.566 6.594 5.989 5.514 5.364 5.434 4.846 4.691 4.299 3.979 4.031 4.044 3.946 3.781 3.706 3.656 3.531 3.416 3.356 3.354 4.969 4.389 3.384 3.626 3.091 3.186 3.281 2.716 2.924 3.224 3.059 3.091 3.286 3.296 3.216 3.174 3.234 3.504 3.804 3.604 3.681 3.474 3.184 3.071 3.189 3.164 3.251 3.301 3.364 3.199 2.744 2.699 2.711 2.481 2.694 3.511 3.391 3.311 3.214 3.194 3.104 3.219 3.026 3.116 3.376 3.384 3.271 3.179 3.256 3.399 3.361 3.304 3.461 3.385 3.449 3.528 3.82 4.011 4.076 4.04 4.211 4.463 4.554 4.555 4.491 4.389 4.43 4.32 4.212 3.767 3.682 -9999 3.464 3.571 3.767 3.831 4.16 4.403 4.249 4.033 5.44 5.088 5.399 7.821 5.72 9.891 4.629 4.546 4.405 4.419 4.082 4.071 4.025 4.025 4.028 4.156 4.274 4.316 4.366 4.411 4.346 4.349 4.756 4.951 4.989 5.026 5.091 5.139 5.724 6.411 7.621 5.906 5.816 6.656 5.576 5.524 5.769 5.501 5.541 5.531 5.541 5.569 5.656 5.669 5.679 5.706 5.731 5.791 5.826 5.896 5.804 5.829 5.841 5.759 5.644 5.486 5.551 5.614 5.599 5.604 5.569 5.544 5.449 5.371 5.381 5.404 5.391 5.371 5.351 5.319 5.299 5.309 5.281 5.249 5.201 5.211 5.196 5.206 5.221 5.221 5.219 5.266 5.284 5.301 5.334 5.319 5.346 5.374 5.374 5.384 5.381 5.399 5.406 5.441 5.431 5.421 5.459 5.481 5.481 5.526 5.561 5.541 5.571 5.596 5.619 5.639 5.636 5.614 5.649 5.649 5.634 5.621 5.539 5.546 5.521 5.481 5.404
31.725 31.735 31.75 31.672 31.627 31.55 31.427 31.315 31.212 31.135 31.032 30.93 30.782 30.67 30.522 30.377 30.212 30.06 29.91 29.772 29.61 29.532 29.385 29.242 29.13 28.985 28.865 28.712 28.537 28.407 28.24 28.08 27.932 27.765 27.632 27.492 27.332 27.197 27.105 26.985 26.872 26.765 26.605 26.49 26.337 26.182 26.04 25.89 25.695 25.53 25.35 25.157 24.987 24.83 24.642 24.482 24.302 24.152 24.005 23.862 23.717 23.58 23.46 23.337 23.165 23.022 22.862 22.722 22.565 22.407 22.227 22.062 21.885 21.755 21.582 21.412 21.229 21.059 20.904 20.699 20.494 20.304 20.109 19.899 19.687 19.462 19.257 18.999 18.764 18.534 18.257 18.027 17.807 17.562 17.322 17.062 16.807 16.564 16.314 16.044 15.834 15.677 15.529 15.407 15.079 17.982 21.167 18.957 17.937 14.332 11.657 11.574 11.087 10.419 9.964 9.484 8.897 8.329 7.049 6.644 6.474 6.664 6.644 5.867 5.449 5.387 5.287 5.237 5.317 5.167 5.134 5.162 5.897 7.694 7.274 5.427 5.387 5.292 5.714 10.042 9.727 9.779 10.162 10.412 12.999 14.649 11.347 14.884 12.632 15.802 13.449 14.554 15.279 15.967 14.194 12.677 12.917 12.927 12.954 13.049 14.169 13.952 14.247 14.489 14.017 13.484 13.422 13.809 13.247 14.154 15.219 15.879 16.602 16.494 16.587 17.079 15.219 12.852 12.589 12.499 12.467 15.022 15.949 13.512 11.664 12.502 11.084 10.844 10.592 10.372 10.172 11.402 12.669 14.207 10.157 8.939 8.662 7.634 7.359 7.717 8.182 6.824 6.747 7.789 6.794 7.062 7.257 7.352 7.422 7.544 7.682 7.787 7.862 8.754 10.967 9.607 11.237 12.394 12.779 12.117 10.642 9.252 9.772 11.939 12.606 14.294 12.044 12.126 12.159 12.366 12.641 12.394 12.124 11.996 11.914 11.816 11.821 11.144 13.569 13.454 11.994 10.174 8.899 7.744 7.046 6.524 7.741 5.974 5.346 4.854 4.464 4.289 4.311 4.286 4.174 4.096 3.826 3.774 3.731 3.584 3.579 3.629 8.349 7.651 4.064 3.404 3.379 3.434 3.699 3.204 3.091 3.756 3.139 2.844 2.646 2.919 3.151 3.156 3.209 3.254 3.371 3.556 3.771 3.974 3.851 3.259 3.086 3.111 3.256 3.344 3.256 2.956 2.609 2.639 2.496 2.686 3.034 3.444 3.859 3.279 3.161 3.091 3.151 3.226 3.511 3.291 3.919 3.351 3.189 3.139 3.256 3.866 3.729 3.256 3.354 3.421 3.372 3.391 3.622 3.902 3.879 3.994 4.221 4.421 4.463 4.499 4.534 4.45 4.384 4.326 4.212 3.505 3.583 -9999 -9999 3.652 3.72 3.852 4.045 4.459 4.048 4.008 5.177 4.985 5.818 6.96 5.78 4.737 4.207 4.145 4.418 4.13 4.034 4.028 4.127 3.98 3.941 4.084 4.214 4.301 4.294 4.309 4.271 4.371 4.851 4.941 5.081 5.926 5.119 5.024 5.084 7.646 9.441 9.019 8.156 7.234 5.729 5.554 6.564 5.586 5.449 5.441 5.479 5.519 5.576 5.601 5.669 5.691 5.714 5.761 5.901 5.896 5.899 5.874 5.756 5.651 5.509 5.396 5.534 5.539 5.534 5.511 5.499 5.441 5.384 5.349 5.354 5.376 5.366 5.301 5.281 5.269 5.244 5.256 5.226 5.196 5.161 5.156 5.126 5.146 5.161 5.164 5.179 5.194 5.226 5.251 5.281 5.284 5.309 5.319 5.339 5.344 5.381 5.351 5.351 5.384 5.386 5.384 5.414 5.419 5.404 5.446 5.476 5.491 5.524 5.516 5.534 5.566 5.574 5.544 5.559 5.544 5.534 5.494 5.521 5.494 5.481 5.419 5.306
31.825 31.78 31.742 31.655 31.62 31.53 31.45 31.325 31.22 31.105 30.975 30.91 30.77 30.627 30.45 30.247 30.075 29.932 29.787 29.662 29.515 29.385 29.247 29.115 28.977 28.822 28.672 28.512 28.367 28.202 28.027 27.855 27.717 27.562 27.427 27.275 27.14 27.015 26.88 26.752 26.635 26.47 26.33 26.222 26.077 25.91 25.775 25.647 25.5 25.33 25.125 24.945 24.752 24.59 24.435 24.265 24.092 23.942 23.79 23.65 23.522 23.39 23.227 23.092 22.952 22.797 22.617 22.49 22.327 22.157 22.015 21.857 21.685 21.52 21.374 21.179 20.999 20.817 20.624 20.424 20.247 20.057 19.842 19.637 19.462 19.237 19.009 18.777 18.539 18.289 18.049 17.787 17.547 17.337 17.089 16.862 16.612 16.349 16.077 15.832 15.679 15.557 15.432 15.202 15.329 19.967 18.172 14.962 17.607 13.289 11.429 11.024 10.372 9.702 9.412 9.044 8.779 8.354 7.162 6.154 5.714 5.557 5.737 5.857 5.379 5.362 5.194 6.079 6.407 5.412 5.149 5.499 6.072 6.147 6.979 6.317 5.372 5.447 5.969 9.157 12.992 9.244 12.374 13.607 13.392 14.517 11.602 11.862 16.757 16.722 15.264 15.314 15.139 13.747 13.407 13.049 13.044 13.237 13.524 14.289 14.774 14.152 13.832 13.994 15.617 14.084 13.437 13.257 13.439 15.174 15.647 16.427 16.539 16.067 15.784 16.259 13.074 12.664 12.539 12.439 12.427 14.982 17.562 16.509 15.032 12.069 10.939 10.672 10.422 10.099 9.824 9.652 9.487 9.154 8.799 8.477 8.207 7.582 7.154 7.722 7.899 6.769 7.924 10.714 7.227 7.262 7.432 7.517 7.584 7.689 7.837 7.932 8.937 11.952 12.319 11.767 12.389 12.732 12.127 11.167 9.269 9.912 10.564 11.482 13.881 12.681 12.196 12.334 15.156 14.184 12.474 12.316 12.254 12.119 12.199 14.019 15.274 13.026 11.869 12.406 12.016 11.966 11.951 9.164 8.309 7.704 9.281 8.539 11.299 7.734 4.896 4.871 5.886 5.624 4.509 4.999 4.276 4.006 3.954 3.709 3.559 4.114 6.849 5.199 4.339 3.366 3.271 3.331 3.381 3.609 3.801 3.854 2.789 2.976 2.939 2.771 2.836 2.659 2.854 3.174 3.279 3.306 3.466 3.834 4.444 4.001 3.336 2.926 3.061 3.244 3.231 2.711 2.614 2.696 2.766 2.946 3.339 3.534 3.506 3.359 3.196 3.089 3.021 2.954 3.226 3.336 3.286 3.106 3.254 3.219 3.446 3.869 3.851 3.434 3.329 3.294 3.241 3.296 3.486 3.667 3.596 3.95 4.15 4.29 4.295 4.407 4.55 4.329 4.492 4.306 4.159 3.924 3.829 -9999 -9999 3.673 3.723 3.732 4.057 4.332 4.055 4.007 5.544 4.509 6.594 7.027 5.578 4.217 4.126 4.361 4.528 4.586 4.917 4.716 4.961 4.783 3.885 4.251 4.519 5.581 4.291 4.244 4.209 5.201 5.001 4.964 4.999 5.021 5.019 5.024 7.071 10.874 10.534 10.114 9.714 7.981 5.176 5.276 5.396 5.486 6.799 5.714 5.459 5.439 5.486 5.566 5.616 5.696 5.696 5.746 5.924 5.921 5.934 5.906 5.769 5.521 5.369 5.341 5.489 5.484 5.444 5.434 5.396 5.371 5.331 5.319 5.369 5.344 5.351 5.309 5.244 5.231 5.209 5.191 5.186 5.151 5.091 5.081 5.076 5.076 5.114 5.096 5.129 5.149 5.166 5.184 5.229 5.256 5.261 5.311 5.286 5.294 5.316 5.326 5.321 5.361 5.361 5.366 5.389 5.389 5.386 5.404 5.426 5.439 5.464 5.466 5.461 5.491 5.524 5.516 5.516 5.499 5.441 5.414 5.409 5.374 5.379 5.331 5.244
31.872 31.785 31.732 31.682 31.597 31.522 31.445 31.342 31.237 31.107 30.985 30.837 30.695 30.56 30.38 30.177 30 29.857 29.702 29.547 29.395 29.242 29.107 28.947 28.827 28.682 28.502 28.345 28.17 28.015 27.817 27.662 27.502 27.377 27.222 27.115 26.95 26.81 26.68 26.537 26.415 26.247 26.09 25.965 25.82 25.685 25.527 25.37 25.275 25.13 24.955 24.762 24.585 24.417 24.24 24.065 23.907 23.747 23.58 23.447 23.322 23.197 23.042 22.885 22.745 22.587 22.387 22.252 22.092 21.967 21.787 21.602 21.45 21.292 21.137 20.959 20.759 20.592 20.409 20.209 20.004 19.812 19.617 19.394 19.212 18.989 18.767 18.552 18.324 18.104 17.809 17.557 17.317 17.114 16.852 16.629 16.384 16.114 15.877 15.672 15.569 15.412 15.234 15.357 15.547 19.297 14.539 15.172 11.797 11.422 10.909 10.417 9.979 9.457 9.047 8.487 8.334 7.624 6.577 5.909 5.619 5.409 5.452 5.459 5.484 5.419 5.179 7.474 6.484 5.992 6.174 6.434 5.764 5.247 5.317 5.467 5.522 5.727 6.244 9.902 10.969 13.842 12.767 12.642 15.432 14.829 12.357 11.707 14.439 19.804 18.467 15.752 14.444 13.224 13.187 13.247 14.357 15.577 13.804 14.314 14.742 14.554 15.437 15.362 17.357 15.397 14.184 13.912 13.172 14.379 16.299 16.619 16.174 15.667 13.569 13.127 12.694 12.619 12.482 12.392 12.342 14.312 13.987 16.097 15.942 14.349 11.664 10.499 10.267 9.964 9.614 9.282 9.152 8.952 8.519 8.104 7.972 7.314 6.889 6.872 6.837 7.439 10.469 11.572 8.084 7.389 7.959 7.762 7.739 7.854 8.032 8.194 10.747 12.142 12.752 12.554 12.757 12.134 11.342 10.332 9.514 12.232 11.462 11.959 12.549 12.326 12.579 13.264 15.844 12.819 12.829 12.951 12.451 12.411 12.309 14.416 14.321 13.154 13.124 12.451 13.324 13.911 11.849 11.386 9.969 10.049 10.064 10.636 11.709 12.701 5.811 10.659 12.021 8.759 5.996 4.831 4.814 4.259 3.979 4.661 4.256 5.019 4.246 3.176 3.291 3.344 3.691 3.196 3.231 3.841 3.739 3.486 3.844 3.706 5.079 3.526 3.924 4.194 2.644 2.571 3.089 3.251 3.281 3.349 3.611 4.014 4.014 3.601 3.119 2.866 2.834 2.641 2.611 4.029 3.086 4.544 3.701 3.504 3.454 3.311 3.256 3.169 3.076 3.284 5.466 3.164 3.989 3.369 3.236 3.229 3.199 4.134 4.181 3.894 3.289 3.254 3.209 3.232 3.403 3.481 3.523 4.777 3.918 4.093 4.122 4.3 4.101 4.081 4.398 4.225 4.333 4.024 -9999 -9999 3.679 3.679 3.639 3.685 4.033 4.456 3.926 4.225 7.049 4.385 6.739 8.15 6.714 5.47 6.135 7.179 7.549 8.35 8.691 8.149 4.606 3.753 4.206 5.634 4.341 5.971 4.341 4.199 4.131 5.369 5.224 5.119 4.994 4.971 4.981 5.014 10.601 12.029 11.619 11.184 10.779 6.434 5.166 5.239 5.281 5.331 5.359 5.434 5.919 5.929 5.751 5.771 6.164 5.786 5.676 5.846 5.891 5.889 5.914 5.849 5.621 5.324 5.244 5.314 5.411 5.389 5.334 5.334 5.316 5.309 5.311 5.354 5.334 5.324 5.281 5.244 5.229 5.201 5.186 5.166 5.114 5.091 5.029 5.006 5.034 5.064 5.081 5.069 5.094 5.091 5.144 5.146 5.159 5.201 5.211 5.239 5.244 5.271 5.269 5.299 5.309 5.314 5.309 5.294 5.314 5.356 5.341 5.371 5.389 5.371 5.371 5.401 5.411 5.429 5.434 5.454 5.459 5.444 5.389 5.346 5.364 5.341 5.304 5.256 5.164
31.89 31.847 31.76 31.712 31.637 31.55 31.432 31.337 31.235 31.09 30.952 30.76 30.64 30.48 30.32 30.13 29.927 29.762 29.625 29.46 29.295 29.15 28.987 28.85 28.695 28.51 28.347 28.16 28.007 27.827 27.675 27.487 27.317 27.19 27.057 26.912 26.77 26.657 26.492 26.362 26.23 26.047 25.895 25.747 25.597 25.465 25.32 25.155 25.05 24.897 24.772 24.58 24.395 24.245 24.065 23.92 23.742 23.597 23.437 23.29 23.147 23.017 22.84 22.677 22.527 22.367 22.23 22.057 21.917 21.75 21.59 21.397 21.227 21.085 20.904 20.737 20.554 20.374 20.179 19.997 19.804 19.579 19.374 19.164 18.959 18.764 18.542 18.309 18.102 17.877 17.617 17.367 17.102 16.872 16.632 16.397 16.157 15.884 15.699 15.564 15.429 15.274 15.472 15.387 16.459 16.819 13.077 12.077 12.299 11.412 10.557 12.187 10.639 9.224 9.212 8.029 7.382 6.954 6.152 5.777 5.619 5.529 5.472 5.597 5.554 5.369 5.224 5.372 6.199 7.907 7.769 6.932 5.494 5.407 5.502 7.179 7.054 6.174 6.582 8.424 10.772 13.672 13.989 13.094 16.289 13.947 13.079 12.874 15.302 18.639 19.104 16.917 15.362 13.579 13.774 13.954 20.494 15.874 14.027 14.642 17.152 16.959 15.947 15.039 14.714 14.119 14.149 15.789 14.612 13.319 14.809 16.002 15.997 13.877 12.919 12.884 12.657 12.594 12.469 12.377 12.289 13.754 13.589 12.559 15.479 15.957 14.142 11.147 10.202 9.857 9.487 9.052 8.734 8.519 8.197 7.889 8.299 7.292 6.834 6.739 6.682 7.324 11.479 11.464 11.619 10.267 11.494 11.779 10.522 9.407 8.727 8.419 8.774 10.484 12.177 12.814 12.447 11.012 10.529 9.742 10.604 11.422 15.819 12.357 12.556 12.779 14.714 14.671 16.449 12.949 13.814 13.431 12.624 12.631 12.794 15.054 14.344 13.844 12.504 12.376 13.409 14.461 13.351 12.921 12.141 13.379 15.769 13.531 12.706 10.844 6.899 9.549 10.626 10.116 5.459 4.771 4.774 4.364 4.124 4.759 4.676 3.959 3.289 3.564 3.816 3.726 3.551 4.099 4.096 3.426 3.546 3.454 4.049 3.964 3.901 3.566 3.566 2.986 2.429 2.274 2.531 2.979 3.281 3.339 3.316 3.411 3.609 3.864 3.521 3.051 2.774 2.826 2.771 3.594 4.991 3.664 3.799 2.924 3.256 3.324 3.311 3.311 3.254 3.404 8.009 9.176 7.604 7.934 3.131 3.166 3.189 3.556 4.084 3.494 3.234 3.186 3.211 3.29 3.333 3.144 3.376 5.365 4.231 4.034 3.922 4.318 7.191 3.687 4.786 4.713 4.329 4.59 -9999 -9999 -9999 3.687 3.677 3.731 4.243 4.528 3.975 4.585 5.119 7.368 7.07 11.146 8.028 6.751 8.418 9.88 10.254 10.228 10.301 9.841 5.266 3.836 4.271 5.054 4.236 5.126 4.139 4.149 4.066 4.279 4.739 4.876 5.216 5.301 5.044 6.656 11.431 11.891 12.154 12.141 11.539 5.209 5.181 5.224 5.231 5.219 5.264 5.346 5.369 5.419 6.266 7.439 7.524 6.341 5.994 5.834 5.869 5.896 5.879 5.729 5.509 5.211 5.114 5.291 5.366 5.319 5.276 5.296 5.296 5.266 5.296 5.284 5.279 5.254 5.214 5.211 5.199 5.171 5.154 5.096 5.059 5.021 4.969 4.966 4.984 5.006 5.019 5.009 5.019 5.081 5.116 5.126 5.121 5.159 5.181 5.199 5.204 5.234 5.216 5.229 5.239 5.269 5.289 5.259 5.266 5.306 5.316 5.336 5.319 5.321 5.311 5.354 5.344 5.371 5.364 5.381 5.401 5.386 5.326 5.301 5.296 5.254 5.211 5.159 5.091
31.875 31.837 31.83 31.727 31.642 31.562 31.457 31.36 31.24 31.127 30.967 30.77 30.56 30.44 30.242 30.057 29.855 29.715 29.557 29.375 29.227 29.04 28.892 28.715 28.53 28.342 28.19 28 27.845 27.66 27.47 27.34 27.157 27.025 26.89 26.74 26.66 26.505 26.37 26.215 26.057 25.89 25.74 25.577 25.427 25.275 25.117 25 24.847 24.7 24.572 24.445 24.277 24.117 23.945 23.775 23.625 23.46 23.305 23.172 22.997 22.827 22.67 22.495 22.337 22.197 22.052 21.88 21.7 21.552 21.365 21.187 21.002 20.867 20.694 20.507 20.302 20.137 19.959 19.779 19.574 19.354 19.134 18.917 18.714 18.502 18.294 18.049 17.854 17.597 17.344 17.132 16.887 16.652 16.404 16.154 15.919 15.692 15.559 15.467 15.282 15.819 14.929 14.294 14.539 13.072 12.587 11.812 11.489 11.059 11.162 13.449 10.129 10.244 10.252 7.914 7.047 6.464 5.854 5.679 5.709 5.639 5.619 5.704 5.644 5.492 5.702 5.269 5.212 6.312 5.684 5.717 6.272 5.599 5.879 8.207 8.569 10.677 8.627 10.327 11.252 11.484 11.714 13.387 19.487 18.679 17.884 16.217 16.257 25.432 15.229 16.247 13.564 16.442 15.257 14.364 16.879 17.204 15.374 14.874 17.317 17.317 16.469 14.787 14.297 14.052 14.572 16.637 16.302 13.419 12.942 14.292 13.529 12.857 12.812 12.727 12.677 12.604 12.414 12.357 12.204 12.529 12.339 11.442 13.974 14.604 13.582 14.269 12.349 10.059 9.302 8.877 8.537 8.224 7.907 7.712 8.219 7.329 6.919 6.819 6.714 7.567 9.009 9.564 10.649 11.404 12.037 13.544 12.942 12.637 10.912 9.369 8.569 8.937 10.797 12.187 12.502 8.914 9.437 10.412 11.447 12.074 12.764 12.737 12.736 14.131 23.696 17.451 13.479 12.976 12.986 12.859 12.819 12.794 13.116 13.741 14.871 13.284 12.481 12.926 14.739 14.101 14.614 12.334 15.776 17.031 18.086 14.849 12.044 11.121 9.021 8.254 8.596 9.786 6.929 7.259 5.511 4.711 4.439 4.481 4.336 3.981 4.141 3.706 3.641 3.956 3.511 5.044 3.904 3.536 3.211 3.199 3.281 3.409 3.681 3.494 3.259 3.119 3.051 2.776 2.466 2.451 3.009 3.406 3.381 3.326 3.369 3.459 3.589 3.696 3.454 2.974 2.829 3.121 4.351 3.084 2.471 2.459 2.849 3.199 3.359 3.274 3.351 3.604 12.444 10.954 12.534 10.051 3.236 3.196 3.224 3.226 3.254 3.176 3.336 3.256 3.154 3.277 3.401 3.862 3.489 5.319 5.086 3.678 3.719 4.87 10.611 4.118 3.867 5.831 4.292 4.78 -9999 -9999 -9999 3.739 3.675 3.783 4.215 4.446 3.861 5.448 4.867 5.153 6.975 10.671 8.809 4.516 7.988 9.079 9.834 9.841 8.922 8.494 5.03 3.781 4.109 5.291 5.406 4.241 4.126 4.099 4.031 4.289 4.594 4.916 7.149 6.134 5.544 5.586 7.461 10.751 11.236 11.651 8.789 5.131 5.154 5.166 5.186 5.226 5.229 5.276 5.321 5.346 5.476 6.619 5.619 5.731 6.301 6.349 5.886 5.891 5.951 5.724 6.566 5.579 5.074 5.221 5.279 5.266 5.234 5.246 5.289 5.269 5.244 5.191 5.186 5.191 5.114 5.144 5.106 5.069 5.049 5.029 4.994 4.951 4.914 4.924 4.909 4.944 4.929 4.979 4.999 5.046 5.064 5.094 5.089 5.099 5.114 5.146 5.164 5.186 5.184 5.194 5.184 5.194 5.221 5.224 5.254 5.286 5.264 5.291 5.284 5.296 5.281 5.289 5.299 5.316 5.326 5.319 5.319 5.324 5.269 5.274 5.259 5.241 5.146 5.049 4.971
31.917 31.855 31.817 31.785 31.702 31.587 31.49 31.37 31.23 31.062 30.922 30.752 30.55 30.367 30.182 30.005 29.825 29.625 29.467 29.305 29.125 28.95 28.755 28.57 28.38 28.202 28.027 27.84 27.695 27.53 27.357 27.192 27.05 26.88 26.727 26.602 26.485 26.362 26.24 26.095 25.917 25.737 25.595 25.445 25.285 25.137 24.977 24.84 24.712 24.555 24.412 24.265 24.135 24.017 23.835 23.652 23.487 23.345 23.165 23.035 22.847 22.682 22.495 22.35 22.202 22.055 21.865 21.7 21.515 21.31 21.155 20.975 20.822 20.642 20.452 20.269 20.074 19.892 19.729 19.547 19.347 19.132 18.914 18.689 18.434 18.262 18.009 17.792 17.572 17.357 17.119 16.872 16.642 16.417 16.164 15.919 15.712 15.544 15.454 15.312 15.047 15.809 13.907 13.252 12.762 12.267 12.812 11.829 10.757 12.284 13.184 11.809 9.499 8.762 8.154 7.587 6.589 6.079 5.634 5.572 5.677 5.764 5.722 5.684 5.797 5.494 5.664 5.752 5.744 5.387 6.812 8.042 8.844 6.924 6.129 7.494 9.262 13.112 14.409 13.627 10.997 10.989 11.564 16.322 18.902 19.202 20.092 17.027 17.459 18.559 13.849 13.714 14.172 17.242 16.709 19.224 17.359 14.794 14.442 15.009 16.257 16.359 15.372 14.157 14.069 13.984 14.077 17.392 16.447 16.497 15.079 17.034 16.254 14.477 12.792 12.719 12.767 12.824 12.394 12.307 12.182 11.984 11.447 11.262 11.089 11.362 12.192 13.919 14.239 12.827 10.262 8.794 8.407 8.049 7.759 7.542 7.932 7.212 6.964 6.889 6.784 6.844 7.049 8.269 8.387 8.342 9.222 10.547 12.132 13.162 17.107 15.449 9.122 9.062 9.274 10.279 9.744 9.417 10.559 11.074 11.912 12.462 14.874 13.832 18.779 18.446 20.799 14.281 13.261 13.599 13.464 13.286 13.136 13.344 13.119 13.101 13.476 12.864 12.649 14.761 15.394 15.169 13.639 12.596 16.041 19.589 18.586 16.741 15.929 15.794 12.826 11.451 10.321 11.559 7.926 10.421 8.841 4.794 4.564 4.911 4.864 4.174 4.781 3.911 3.711 3.649 3.819 4.199 4.869 4.319 3.424 3.221 3.254 3.436 3.556 3.269 3.246 3.229 3.201 3.024 2.696 2.344 2.539 3.311 3.446 3.366 3.314 3.346 3.359 3.479 3.629 3.826 3.321 3.481 3.424 2.716 2.734 2.551 2.851 2.514 3.196 3.254 3.256 7.819 11.901 13.804 15.621 12.496 3.251 4.154 3.509 3.206 3.274 3.234 3.156 3.221 3.346 3.37 3.492 3.864 3.766 5.17 3.613 4.792 3.402 9.257 4.444 4.649 3.774 4.668 4.772 4.623 4.151 -9999 3.256 3.603 3.72 3.767 4.228 4.358 3.76 5.381 4.937 4.328 7.516 10.94 8.275 4.301 4.655 4.523 8.525 8.867 7.584 6.677 5.391 3.844 4.341 7.379 8.116 6.119 4.091 4.049 4.026 4.454 4.969 6.024 8.281 8.324 8.416 10.086 10.464 8.759 7.426 8.821 6.229 5.214 5.121 5.134 5.161 5.201 5.234 5.281 5.309 5.316 5.386 5.449 5.506 5.569 5.614 5.714 5.974 6.996 7.704 6.276 6.266 5.266 5.066 5.221 5.224 5.206 5.206 5.261 5.316 5.294 5.231 5.169 5.106 5.116 5.089 5.086 5.046 4.996 4.979 4.951 4.924 4.901 4.866 4.884 4.894 4.874 4.891 4.916 4.961 4.989 5.019 5.026 5.044 5.044 5.061 5.109 5.136 5.114 5.146 5.149 5.156 5.149 5.154 5.179 5.199 5.211 5.221 5.251 5.266 5.254 5.254 5.249 5.264 5.269 5.289 5.274 5.269 5.229 5.224 5.226 5.214 5.204 5.106 4.909 4.789
32.2 31.87 31.812 31.755 31.717 31.63 31.487 31.325 31.19 31.052 30.837 30.7 30.5 30.307 30.11 29.96 29.777 29.615 29.412 29.235 29.037 28.86 28.635 28.462 28.257 28.082 27.917 27.72 27.547 27.41 27.23 27.062 26.907 26.802 26.642 26.512 26.382 26.24 26.092 25.947 25.772 25.62 25.47 25.337 25.167 25.04 24.86 24.71 24.56 24.415 24.277 24.11 23.985 23.842 23.735 23.592 23.397 23.205 23.052 22.885 22.727 22.562 22.367 22.232 22.04 21.86 21.662 21.47 21.297 21.135 20.957 20.785 20.6 20.41 20.239 20.052 19.864 19.679 19.489 19.294 19.114 18.869 18.672 18.434 18.212 18.014 17.789 17.559 17.334 17.079 16.867 16.657 16.374 16.179 15.929 15.707 15.514 15.412 15.312 15.492 17.684 18.134 14.517 12.854 12.569 12.129 11.407 11.232 11.882 13.564 13.164 9.392 8.699 8.102 7.607 6.592 6.004 5.772 5.557 5.584 5.624 5.899 5.759 5.542 5.452 5.479 5.304 5.529 5.492 5.354 5.629 9.072 8.739 8.859 7.239 12.977 8.962 13.237 15.137 13.737 11.982 11.592 11.954 12.932 13.954 14.212 15.629 13.847 13.939 13.997 14.017 14.604 15.337 17.637 18.092 19.047 17.009 14.864 14.857 14.727 14.892 15.552 14.774 14.522 14.602 15.434 14.344 13.892 14.094 14.412 16.122 20.027 19.659 17.519 13.062 12.689 14.814 15.897 12.334 12.274 13.167 11.789 11.577 11.339 11.154 11.049 10.692 11.449 15.977 14.169 11.994 9.532 9.472 8.474 8.522 7.412 7.322 7.149 7.029 6.957 6.869 6.967 8.389 8.357 7.854 7.932 8.522 8.814 9.029 11.612 19.777 16.689 10.492 10.134 10.927 9.302 9.314 10.054 11.222 12.149 12.269 12.714 15.502 14.242 17.634 14.171 17.164 13.526 13.421 13.696 13.576 13.841 14.511 13.349 13.234 13.174 13.159 12.954 12.869 14.084 15.046 15.439 14.856 14.096 14.589 21.581 19.376 20.544 21.484 14.916 15.156 15.734 10.266 9.466 13.426 14.909 15.811 7.031 7.604 4.626 4.374 4.974 5.189 3.696 3.796 5.166 6.351 6.824 5.436 4.946 3.816 3.794 4.111 3.749 3.729 3.274 3.314 3.121 3.109 3.066 2.921 3.104 3.194 2.904 3.354 3.489 3.434 3.374 3.306 3.291 3.426 3.626 3.854 3.489 3.089 2.801 2.801 2.679 2.971 3.019 3.284 2.579 2.799 6.766 12.064 9.844 11.711 13.081 5.549 6.854 4.899 3.306 3.284 3.279 3.254 3.221 3.124 3.203 3.585 3.965 3.377 3.685 4.139 3.697 3.436 3.975 5.392 3.665 3.577 4.165 4.258 4.763 3.521 2.925 2.847 3.16 3.693 3.764 4.148 4.154 3.819 4.858 4.658 3.875 4.948 5.774 4.813 3.588 3.29 3.257 7.036 7.972 6.549 4.714 4.364 3.559 4.406 7.864 8.524 6.659 4.066 4.034 4.436 4.844 5.191 5.631 6.391 6.876 7.249 13.716 13.771 13.374 10.436 11.936 10.569 7.271 5.109 5.074 5.109 5.164 5.184 5.274 5.331 5.354 5.384 5.421 5.501 5.571 5.609 5.649 5.709 5.681 5.674 5.656 6.184 4.974 5.056 5.171 5.136 5.186 5.226 5.276 5.264 5.274 5.181 5.136 5.091 5.074 5.026 4.976 4.956 4.934 4.929 4.874 4.861 4.836 4.816 4.804 4.831 4.831 4.821 4.859 4.889 4.921 4.966 4.944 4.981 5.001 5.056 5.071 5.069 5.041 5.064 5.064 5.091 5.091 5.114 5.116 5.134 5.161 5.161 5.191 5.231 5.199 5.224 5.189 5.226 5.236 5.239 5.201 5.201 5.181 5.174 5.154 5.139 5.116 5.021 4.819 4.634
33.027 31.827 31.805 31.755 31.675 31.612 31.492 31.347 31.185 31.007 30.825 30.64 30.422 30.25 30.092 29.907 29.725 29.527 29.32 29.157 28.965 28.78 28.57 28.36 28.16 27.975 27.8 27.587 27.43 27.28 27.112 26.982 26.825 26.692 26.545 26.402 26.27 26.12 25.992 25.83 25.672 25.507 25.37 25.215 25.065 24.905 24.737 24.585 24.417 24.28 24.125 23.99 23.86 23.692 23.585 23.472 23.305 23.12 22.927 22.76 22.602 22.442 22.267 22.092 21.892 21.695 21.497 21.27 21.097 20.93 20.75 20.557 20.382 20.21 20.027 19.827 19.659 19.462 19.259 19.027 18.844 18.624 18.392 18.197 17.957 17.734 17.532 17.274 17.077 16.847 16.612 16.369 16.129 15.909 15.707 15.494 15.397 15.287 15.124 16.484 18.264 13.512 12.889 12.302 12.194 12.072 11.349 11.302 11.089 11.744 10.697 8.857 8.077 7.484 7.049 6.137 5.729 5.627 5.537 5.614 5.634 5.782 5.717 5.562 5.494 5.322 5.577 5.544 5.422 5.559 5.782 11.742 9.962 11.597 12.224 15.292 13.787 14.592 15.182 15.364 14.514 13.964 12.602 13.022 13.479 13.997 15.732 13.879 13.992 14.982 14.469 15.142 15.257 19.957 20.757 21.109 18.382 15.064 15.067 15.037 16.232 18.504 17.652 15.589 14.854 15.177 14.749 14.954 17.104 14.594 15.624 19.572 19.609 17.834 14.734 12.999 12.572 13.902 12.282 12.212 12.692 11.772 11.837 11.524 11.329 10.807 10.499 11.799 17.162 12.084 13.172 12.652 11.094 9.627 7.732 7.319 7.247 7.199 7.079 7.014 7.002 7.327 9.369 8.594 7.752 8.647 8.732 8.429 8.454 9.144 14.504 13.199 11.614 12.034 13.609 12.114 11.647 11.619 11.887 12.279 12.667 13.012 14.832 14.897 15.581 13.794 13.746 13.684 13.599 13.586 13.631 13.616 14.064 13.916 13.396 13.381 13.384 13.174 13.094 13.056 13.899 14.274 14.024 16.531 15.034 18.656 17.639 23.051 21.161 15.556 12.999 14.491 12.884 11.821 14.384 16.369 12.631 9.284 6.514 4.794 4.506 5.341 4.064 3.916 4.784 5.194 5.354 4.616 3.926 3.514 3.804 3.279 4.316 4.464 3.619 3.276 3.341 3.299 3.681 3.119 3.071 2.859 3.736 3.536 3.281 3.664 3.586 3.784 3.451 3.311 3.276 3.371 3.506 3.671 3.641 3.436 3.161 2.909 2.866 2.811 2.894 2.589 4.616 5.806 9.906 7.954 9.524 9.566 7.394 10.196 6.526 3.449 3.414 3.419 3.371 3.186 3.092 3.141 3.463 3.546 3.447 3.937 3.497 3.311 3.383 3.549 4.188 3.435 3.447 4.417 5.082 3.411 2.759 2.687 2.834 2.562 3.646 3.864 4.094 3.922 3.67 4.414 5.109 4.398 3.944 3.633 3.599 3.849 3.604 3.56 3.602 3.624 3.571 3.431 3.546 3.649 4.064 7.859 8.491 5.721 4.036 3.984 7.059 7.001 5.639 5.251 4.886 5.891 5.294 12.321 13.981 13.811 11.626 12.531 14.034 12.306 8.126 6.716 5.571 5.171 5.219 5.259 5.316 5.399 5.409 5.431 5.501 5.544 5.551 5.576 5.586 5.556 5.581 6.134 5.056 5.004 5.066 5.144 5.136 5.206 5.251 5.251 5.221 5.171 5.164 5.136 5.086 5.024 5.011 4.956 4.879 4.866 4.849 4.829 4.774 4.751 4.769 4.769 4.769 4.739 4.739 4.826 4.831 4.851 4.899 4.891 4.936 4.956 4.971 5.011 5.014 5.019 5.021 5.014 5.014 5.046 5.049 5.071 5.086 5.094 5.116 5.134 5.144 5.156 5.186 5.149 5.164 5.179 5.204 5.174 5.124 5.126 5.114 5.079 5.026 4.999 4.916 4.689 4.489
33.927 32.56 32.072 31.717 31.682 31.577 31.487 31.35 31.132 30.942 30.775 30.605 30.385 30.182 30.04 29.86 29.65 29.457 29.25 29.057 28.867 28.692 28.457 28.232 28.062 27.875 27.69 27.485 27.322 27.18 27.022 26.902 26.747 26.622 26.49 26.332 26.177 26.01 25.877 25.737 25.562 25.422 25.265 25.142 25.005 24.815 24.647 24.487 24.31 24.185 24.022 23.907 23.75 23.587 23.442 23.297 23.167 23.045 22.855 22.647 22.462 22.322 22.12 21.927 21.72 21.522 21.317 21.11 20.9 20.732 20.565 20.375 20.175 19.98 19.804 19.614 19.414 19.222 19.004 18.804 18.572 18.354 18.157 17.944 17.724 17.497 17.254 17.032 16.799 16.562 16.347 16.109 15.897 15.674 15.497 15.379 15.247 15.084 15.192 16.177 15.307 12.939 12.299 11.917 11.877 12.437 12.792 11.919 12.622 9.982 8.784 8.709 7.979 6.992 6.349 5.974 5.724 5.809 5.522 5.557 5.612 5.609 5.752 5.594 5.842 5.554 5.602 5.829 5.637 5.869 5.914 7.959 7.562 11.879 11.727 14.549 18.234 15.987 15.299 15.909 15.874 13.982 13.129 13.487 13.854 14.217 13.992 14.097 14.914 16.967 15.299 15.982 15.522 15.854 16.539 18.344 15.342 15.299 15.219 15.187 17.597 19.739 19.324 18.569 17.762 15.432 14.699 14.679 14.079 14.137 14.912 18.364 17.829 17.259 16.699 13.917 12.514 12.347 12.272 12.094 11.959 12.242 12.064 11.522 11.124 10.864 10.699 10.199 10.134 9.917 10.584 12.494 11.437 9.419 8.322 8.112 8.599 7.267 7.172 7.129 7.137 7.422 8.087 7.862 7.939 8.092 8.277 8.467 8.579 8.659 9.664 11.887 12.282 11.852 12.999 11.944 12.117 12.382 12.412 12.679 13.017 14.579 15.077 15.199 13.876 13.861 13.911 13.884 13.999 14.426 13.719 14.096 13.884 13.779 13.729 13.611 13.559 13.531 13.401 13.331 13.666 13.969 13.974 14.066 13.379 15.414 16.504 20.064 19.209 17.649 16.481 16.336 15.184 14.341 12.731 15.456 9.311 11.141 7.841 5.504 5.141 4.506 4.191 4.401 4.031 3.844 3.979 4.391 4.144 3.476 3.406 3.726 4.139 4.966 3.721 3.724 3.334 3.339 3.164 3.119 3.134 3.026 2.396 2.461 2.804 3.539 3.701 3.619 3.704 3.634 3.394 3.271 3.249 3.366 3.589 3.756 3.811 3.571 3.069 3.066 2.926 2.674 2.789 2.584 3.019 4.066 3.746 3.474 4.421 9.331 6.479 3.464 3.571 3.554 3.424 3.254 3.059 3.199 3.32 3.39 3.437 3.59 3.539 3.385 3.241 3.364 3.308 3.422 3.692 3.784 4.299 4.058 2.605 2.508 2.891 3.009 3.684 3.898 4.031 3.816 3.662 3.79 3.908 4.78 4.703 5.088 5.632 4.319 3.957 4.356 3.269 3.254 3.529 3.806 4.074 3.651 3.874 7.716 8.396 5.881 4.011 3.941 6.044 9.569 9.821 7.609 6.629 6.674 5.386 5.754 9.559 9.081 4.856 6.444 10.009 10.246 7.109 6.601 6.919 6.619 7.114 6.779 6.161 6.174 5.701 5.431 5.444 5.466 5.481 5.501 5.476 5.454 5.521 5.991 4.906 5.001 5.039 5.041 5.096 5.174 5.194 5.184 5.151 5.119 5.079 5.049 5.039 4.996 4.979 4.939 4.891 4.841 4.774 4.696 4.669 4.661 4.684 4.691 4.689 4.669 4.731 4.791 4.799 4.816 4.824 4.876 4.861 4.929 4.946 4.969 4.944 4.974 4.964 4.994 4.974 4.976 4.996 5.014 5.031 5.049 5.074 5.064 5.111 5.089 5.131 5.109 5.116 5.124 5.131 5.129 5.064 5.049 5.049 5.016 4.971 4.911 4.834 4.629 4.446
32.272 32.39 32.345 31.84 31.64 31.565 31.435 31.265 31.122 30.945 30.757 30.537 30.307 30.127 29.95 29.767 29.562 29.372 29.195 29 28.792 28.572 28.355 28.162 27.96 27.795 27.6 27.402 27.232 27.057 26.935 26.792 26.66 26.517 26.395 26.267 26.09 25.967 25.797 25.622 25.492 25.327 25.215 25.047 24.897 24.732 24.56 24.39 24.217 24.085 23.94 23.787 23.607 23.455 23.3 23.13 22.982 22.875 22.732 22.57 22.36 22.165 21.977 21.76 21.59 21.377 21.137 20.94 20.745 20.52 20.35 20.172 19.965 19.782 19.599 19.407 19.214 18.999 18.782 18.559 18.347 18.104 17.904 17.684 17.449 17.242 17.009 16.787 16.557 16.342 16.107 15.894 15.664 15.489 15.369 15.264 15.104 14.952 15.744 15.824 14.842 13.439 12.314 12.952 12.012 11.462 11.384 10.577 10.269 9.389 9.537 8.407 7.754 7.122 6.139 5.739 5.689 5.607 5.547 5.537 5.664 5.707 5.839 5.952 6.312 5.804 5.584 5.697 5.617 5.729 6.212 9.377 9.079 9.477 9.829 12.647 16.552 16.544 17.424 18.319 18.182 13.204 13.699 13.939 13.957 14.032 14.347 15.824 17.172 16.764 15.734 16.357 15.694 15.777 15.877 15.709 15.489 15.519 15.432 16.079 19.597 19.984 20.094 19.919 19.469 16.134 14.654 14.399 14.149 13.919 13.537 13.679 13.459 15.434 16.752 15.032 12.364 12.372 12.519 12.182 12.339 12.379 11.904 11.324 11.054 10.607 10.632 10.024 9.689 9.452 9.169 9.767 9.287 9.764 16.254 17.572 14.534 7.904 7.352 7.249 7.244 7.379 7.612 7.872 8.079 8.247 8.317 9.419 10.844 9.752 9.787 11.327 12.067 12.054 11.012 11.474 12.387 12.389 13.194 13.239 13.507 15.674 15.704 14.354 13.971 13.994 14.014 14.029 15.586 15.589 14.301 14.409 14.244 14.121 14.031 13.876 13.856 13.839 13.676 14.144 16.184 17.241 17.199 14.249 13.234 15.889 21.576 20.031 19.884 17.244 16.821 16.754 14.441 11.419 13.544 13.259 9.449 8.161 6.711 8.504 6.044 4.771 4.324 4.124 4.024 3.936 4.029 4.511 3.814 3.466 3.331 5.726 6.154 4.529 3.391 3.226 3.339 3.991 4.164 3.349 3.129 3.099 2.749 2.546 3.106 3.584 3.689 3.844 3.921 3.971 3.689 4.144 3.441 3.254 3.301 3.479 3.676 3.856 3.614 3.459 3.229 2.906 2.681 2.676 3.084 2.624 2.569 2.649 3.371 3.811 3.444 3.561 3.676 3.624 3.396 3.114 3.008 3.279 3.431 3.456 3.429 3.345 3.427 3.65 3.509 3.426 3.366 3.554 3.753 5.995 5.732 5.947 4 3.477 3.459 3.532 3.831 3.813 3.985 3.856 3.589 3.683 3.836 3.509 4.008 4.478 5.008 4.309 4.257 4.883 3.701 3.544 3.484 3.829 3.924 3.594 3.779 6.781 7.046 4.996 3.959 3.944 6.911 10.416 10.566 9.921 10.071 9.706 7.901 4.859 5.016 5.099 4.874 5.006 4.909 5.601 4.836 5.111 6.394 6.409 6.521 7.404 7.101 7.614 6.439 5.974 5.499 5.571 5.474 5.466 5.426 5.424 5.366 5.041 4.901 4.996 5.009 5.041 5.099 5.129 5.154 5.126 5.096 5.086 5.034 5.011 4.954 4.941 4.874 4.884 4.864 4.816 4.756 4.641 4.604 4.591 4.616 4.646 4.659 4.621 4.721 4.729 4.766 4.776 4.776 4.801 4.849 4.899 4.901 4.911 4.904 4.929 4.951 4.939 4.936 4.951 4.951 4.981 5.016 5.026 5.026 5.034 5.046 5.061 5.049 5.086 5.081 5.074 5.091 5.069 5.014 4.991 4.976 4.974 4.929 4.851 4.719 4.519 4.411
32.082 31.992 31.96 33.02 31.625 31.485 31.405 31.25 31.097 30.89 30.685 30.45 30.242 30.037 29.862 29.672 29.49 29.33 29.112 28.915 28.697 28.46 28.252 28.05 27.887 27.675 27.487 27.32 27.155 26.975 26.85 26.71 26.575 26.445 26.305 26.132 26.01 25.88 25.727 25.577 25.432 25.275 25.12 24.962 24.82 24.66 24.49 24.31 24.157 24.002 23.847 23.692 23.522 23.31 23.147 22.997 22.862 22.682 22.545 22.412 22.252 22.022 21.815 21.627 21.49 21.192 20.987 20.752 20.56 20.35 20.18 19.977 19.782 19.592 19.397 19.207 18.974 18.762 18.539 18.319 18.119 17.869 17.654 17.454 17.239 16.984 16.792 16.567 16.324 16.097 15.889 15.684 15.472 15.374 15.252 15.127 16.244 17.959 15.957 15.232 14.339 13.984 12.549 12.544 11.262 11.249 11.004 11.949 9.012 9.697 9.014 7.739 7.232 6.452 5.727 5.724 5.637 5.577 5.649 5.639 5.627 5.682 6.394 6.049 5.964 6.134 5.714 5.582 5.699 7.187 6.984 11.164 13.509 13.059 12.639 13.482 14.442 17.514 17.814 16.317 15.674 13.719 14.012 14.457 14.447 14.459 15.902 18.154 18.457 16.997 17.299 17.949 16.177 15.937 15.939 16.152 15.779 15.647 15.612 16.234 19.132 19.632 19.527 19.759 19.294 15.089 14.697 14.459 14.254 14.009 13.752 13.369 13.062 12.932 12.987 12.389 12.267 12.377 12.622 12.564 12.659 12.277 11.699 11.114 10.779 15.447 13.929 10.707 9.969 9.442 9.434 9.017 9.229 13.622 19.177 16.104 14.162 7.569 8.894 7.449 7.427 7.639 7.984 8.039 8.204 8.384 8.882 11.069 11.972 11.679 10.857 8.714 9.382 10.427 11.162 12.357 12.407 12.562 12.974 13.399 13.932 15.797 16.299 15.557 14.201 14.146 14.199 14.294 14.731 14.641 14.519 14.524 14.594 14.569 14.334 14.209 14.114 13.989 14.566 15.834 16.726 17.189 16.236 13.989 14.259 20.029 26.519 25.816 21.611 17.441 20.934 26.039 22.611 16.866 16.759 16.561 13.071 8.206 7.454 6.996 5.351 4.796 4.571 4.474 4.314 4.021 3.741 3.931 3.549 3.809 3.901 4.631 4.039 3.666 3.681 4.269 3.301 3.449 4.091 3.521 3.104 3.244 3.001 4.466 5.659 3.176 3.556 3.554 3.839 4.916 3.791 4.519 4.301 3.491 3.371 3.281 3.334 3.471 3.679 3.924 4.071 4.316 3.866 3.199 3.049 2.599 2.454 2.604 2.559 2.636 2.849 3.151 3.354 3.919 3.351 3.169 3.06 3.314 3.412 3.489 3.428 3.349 3.379 3.488 3.523 3.508 3.469 3.462 3.624 5.907 5.868 6.975 5.825 4.332 3.527 3.831 4.343 4.14 4.396 4.866 4.333 4.306 4.957 4.559 4.768 5.081 3.859 3.63 3.624 3.424 3.996 3.886 3.439 3.511 3.521 3.556 4.109 6.716 7.566 5.739 3.931 4.446 7.184 10.666 10.529 10.004 10.634 10.476 9.331 6.281 5.401 4.854 4.771 4.859 4.839 4.711 4.721 4.739 4.751 4.851 5.196 5.354 5.364 5.141 5.236 6.114 5.394 5.541 5.579 5.646 5.794 5.451 5.249 4.844 4.901 4.989 5.029 5.029 5.054 5.086 5.096 5.039 5.019 5.006 4.974 4.921 4.841 4.826 4.789 4.769 4.759 4.744 4.704 4.569 4.524 4.521 4.526 4.561 4.551 4.579 4.664 4.689 4.706 4.696 4.719 4.746 4.791 4.824 4.826 4.869 4.901 4.886 4.884 4.904 4.926 4.929 4.939 4.939 4.949 4.959 4.976 4.984 4.979 5.004 5.019 4.994 5.019 5.044 5.046 4.996 4.959 4.921 4.944 4.924 4.869 4.781 4.666 4.484 4.316
31.97 31.897 31.817 31.927 31.887 31.877 31.412 31.18 31.005 30.802 30.617 30.417 30.205 29.987 29.79 29.577 29.41 29.207 29.02 28.805 28.582 28.367 28.145 27.942 27.767 27.597 27.407 27.22 27.107 26.94 26.79 26.647 26.5 26.367 26.197 26.072 25.952 25.8 25.667 25.495 25.377 25.21 25.085 24.882 24.725 24.572 24.392 24.242 24.11 23.94 23.727 23.587 23.357 23.182 23.037 22.86 22.695 22.517 22.37 22.195 22.07 21.875 21.675 21.465 21.302 21.047 20.805 20.61 20.425 20.202 20.012 19.785 19.58 19.397 19.212 19.009 18.784 18.544 18.317 18.099 17.877 17.674 17.407 17.214 16.984 16.777 16.534 16.324 16.104 15.897 15.697 15.472 15.352 15.277 15.102 15.209 17.654 18.832 16.677 13.994 13.564 13.532 11.887 11.184 10.439 10.314 9.637 9.574 8.824 8.134 7.662 7.139 6.207 5.937 5.849 5.697 5.647 5.617 5.639 5.817 5.742 5.602 5.869 5.942 5.799 5.774 5.607 5.839 7.284 11.017 10.659 13.009 14.799 14.294 14.184 14.202 13.462 14.427 15.017 15.229 15.524 13.999 14.212 15.002 14.997 15.067 15.272 17.649 20.227 18.132 16.917 16.534 16.297 16.259 16.222 16.339 16.027 16.157 17.517 18.257 19.484 19.429 18.914 18.774 17.157 15.049 14.779 14.517 14.274 14.007 13.829 13.477 13.074 12.784 12.537 12.369 12.194 12.147 12.619 12.557 12.252 11.947 11.409 10.937 10.642 17.604 17.869 10.557 9.852 9.487 9.199 9.062 8.659 12.524 15.109 13.114 13.694 9.042 16.317 7.557 7.617 8.174 8.347 8.344 8.457 8.557 10.394 12.739 12.634 12.349 10.997 8.742 9.607 10.757 11.804 12.439 12.434 12.817 13.207 13.544 14.379 16.152 16.257 15.024 14.354 14.459 14.454 15.224 14.869 14.681 15.521 14.711 14.669 14.619 14.611 14.769 15.246 14.584 16.884 16.209 16.291 15.516 16.649 14.419 14.436 16.869 24.136 24.701 19.729 18.979 22.959 27.259 22.461 20.539 17.419 17.389 11.724 9.366 9.784 7.969 5.934 4.914 4.714 4.516 4.366 4.019 3.491 3.734 4.514 4.109 3.544 4.006 3.551 3.374 4.114 3.716 3.499 3.506 3.374 3.229 3.154 3.109 3.014 4.006 3.671 3.916 4.384 3.094 3.931 3.899 4.191 4.769 3.904 3.669 3.571 3.404 3.281 3.274 3.376 3.696 4.019 4.476 4.384 4.326 3.564 2.686 2.476 2.469 2.514 2.451 2.496 2.594 2.744 3.026 3.269 3.049 3.051 3.185 3.303 3.339 3.336 3.658 3.382 3.565 3.589 3.601 3.471 3.374 4.009 4.002 4.67 4.995 5.034 2.026 1.861 3.949 4.015 4.014 4.383 4.579 4.022 3.874 3.606 3.641 3.909 3.694 2.781 6.229 7.236 5.541 4.421 3.971 3.404 3.429 3.484 3.561 4.754 8.264 8.936 6.636 3.889 4.184 5.969 8.859 8.649 6.904 7.896 9.186 8.579 5.956 5.629 4.829 4.709 4.649 4.609 4.646 4.644 4.651 4.671 4.746 4.786 5.084 5.919 5.014 5.054 5.096 5.124 5.244 5.304 5.271 5.346 5.864 5.039 4.764 4.894 4.944 4.946 4.976 4.964 4.954 4.949 4.944 4.939 4.944 4.891 4.851 4.806 4.736 4.714 4.704 4.721 4.724 4.634 4.524 4.484 4.484 4.471 4.479 4.464 4.524 4.586 4.604 4.609 4.636 4.669 4.684 4.699 4.739 4.761 4.791 4.829 4.844 4.841 4.854 4.871 4.864 4.866 4.879 4.894 4.886 4.894 4.914 4.911 4.946 4.954 4.971 4.966 5.014 5.004 4.959 4.904 4.881 4.869 4.864 4.806 4.744 4.596 4.431 4.249
31.87 31.82 31.755 31.647 31.595 32.077 32.625 31.842 31.137 30.697 30.535 30.352 30.147 29.947 29.725 29.49 29.292 29.102 28.887 28.677 28.475 28.307 28.067 27.885 27.702 27.522 27.355 27.162 27.04 26.897 26.732 26.577 26.45 26.285 26.137 26.002 25.885 25.755 25.587 25.465 25.307 25.17 25.01 24.84 24.662 24.477 24.325 24.175 24.015 23.835 23.647 23.46 23.245 23.065 22.92 22.73 22.55 22.38 22.2 21.995 21.832 21.652 21.51 21.3 21.077 20.845 20.592 20.425 20.277 20.04 19.84 19.632 19.422 19.205 18.992 18.772 18.549 18.327 18.102 17.869 17.647 17.437 17.177 16.999 16.857 16.549 16.309 16.104 15.902 15.717 15.497 15.309 15.227 15.122 14.917 15.044 16.419 15.164 14.499 12.917 12.517 12.204 11.487 10.822 10.307 9.924 9.312 8.809 8.384 8.014 7.352 7.272 5.989 5.774 5.882 5.684 5.727 5.819 5.597 5.849 5.702 5.629 5.779 5.949 5.654 5.664 5.657 5.784 6.037 7.749 12.452 14.409 17.069 18.497 16.114 16.707 14.609 12.992 13.497 14.244 14.367 16.342 14.992 15.289 15.507 15.619 15.744 16.724 19.739 17.232 16.507 16.454 16.632 16.532 16.584 16.442 15.887 17.859 18.627 18.932 19.604 19.254 18.664 15.924 15.377 15.097 14.842 14.564 14.259 13.939 13.642 13.399 13.087 12.752 12.534 12.359 12.179 12.192 12.729 12.657 12.197 11.829 11.357 11.042 10.742 11.469 12.107 10.077 9.522 9.409 9.132 8.814 8.579 8.682 8.762 8.754 10.507 12.502 17.374 10.697 7.779 8.174 8.759 8.599 8.687 9.449 13.289 13.587 13.297 12.947 9.567 8.722 10.209 11.237 12.332 12.469 12.647 13.274 13.472 14.189 15.384 16.412 15.129 14.489 14.906 15.101 14.866 15.024 14.924 15.531 15.064 14.891 15.021 14.994 15.121 14.984 15.766 18.026 16.646 16.336 16.329 17.091 18.259 15.169 15.756 16.096 23.776 22.694 15.521 17.651 19.596 26.589 21.734 18.261 19.816 14.609 12.304 10.931 9.706 11.694 9.479 6.479 5.061 4.794 4.354 4.426 3.614 4.729 3.694 3.859 5.441 6.236 3.784 3.716 3.511 3.941 5.324 3.401 3.324 3.354 3.109 2.989 3.071 2.994 3.279 3.321 4.831 3.751 6.526 4.256 3.831 5.109 3.586 3.619 3.796 3.686 3.484 3.421 3.316 3.316 3.449 3.709 4.014 4.336 4.416 3.891 3.221 2.826 2.596 2.356 2.369 2.394 2.396 2.469 2.626 2.601 2.912 3.242 3.515 3.553 4.159 4.702 4.425 3.486 3.653 3.611 3.434 3.456 3.387 3.812 4.111 4.626 4.398 4.037 3.805 4.336 4.405 4.638 4.517 4.631 4.444 4.506 4.419 4.053 3.848 3.72 3.46 8.533 9.438 8.651 7.334 5.696 3.876 3.429 3.506 3.556 4.136 8.174 8.934 7.016 4.101 4.741 6.091 6.299 4.814 5.199 4.854 4.881 4.774 4.981 5.206 6.579 8.219 5.666 4.634 5.246 5.114 5.544 4.641 4.661 4.714 4.804 4.931 4.936 4.946 4.971 5.131 5.211 5.269 5.186 6.504 9.084 4.814 4.741 4.879 4.936 4.921 4.854 4.846 4.851 4.841 4.854 4.856 4.841 4.791 4.744 4.716 4.676 4.666 4.674 4.694 4.664 4.564 4.479 4.459 4.461 4.451 4.419 4.381 4.424 4.476 4.514 4.524 4.569 4.614 4.639 4.649 4.706 4.719 4.754 4.776 4.809 4.796 4.774 4.804 4.816 4.799 4.844 4.839 4.831 4.821 4.829 4.849 4.854 4.899 4.901 4.926 4.956 4.934 4.894 4.859 4.864 4.824 4.779 4.734 4.649 4.499 4.356 4.159
31.792 31.67 31.605 31.567 31.41 31.31 31.345 31.8 33.747 31.857 30.46 30.227 30.057 29.875 29.622 29.422 29.205 28.965 28.74 28.567 28.375 28.195 28.005 27.81 27.595 27.44 27.272 27.112 26.985 26.84 26.707 26.537 26.382 26.247 26.062 25.907 25.795 25.662 25.537 25.41 25.272 25.125 24.917 24.757 24.617 24.415 24.257 24.1 23.902 23.712 23.542 23.352 23.165 22.975 22.777 22.582 22.407 22.2 21.995 21.815 21.657 21.445 21.27 21.095 20.965 20.697 20.472 20.272 20.11 19.887 19.687 19.442 19.23 19.01 18.792 18.554 18.329 18.094 17.859 17.644 17.404 17.187 16.969 16.759 16.544 16.334 16.114 15.902 15.697 15.514 15.327 15.209 15.124 14.967 15.039 15.739 15.969 14.199 13.162 12.829 11.904 11.634 10.954 10.317 9.752 9.317 9.014 8.624 8.222 7.544 6.727 6.404 5.944 5.777 5.969 5.807 5.707 5.729 6.129 5.637 5.592 6.027 5.974 5.679 5.634 5.644 5.772 5.972 7.287 7.677 13.397 14.439 15.422 17.762 18.007 16.342 17.829 14.707 13.859 13.999 14.689 16.012 18.702 17.924 17.497 18.564 16.707 17.007 17.074 16.777 16.762 16.937 17.014 16.899 17.297 16.719 15.919 16.977 17.974 19.334 19.594 19.017 17.082 15.592 15.379 15.134 14.897 14.679 14.249 13.909 13.584 13.472 13.109 12.782 12.534 12.332 12.124 12.079 12.514 12.679 12.009 11.679 11.339 11.014 10.732 12.427 12.719 9.867 9.502 9.329 9.122 9.102 9.029 8.997 10.784 8.617 9.324 12.172 16.947 11.992 9.664 8.592 9.142 8.839 9.124 11.907 14.132 14.139 13.979 13.449 9.549 9.637 10.674 11.957 12.379 13.274 13.214 13.264 13.897 14.672 15.632 16.069 14.942 15.634 15.196 15.439 15.241 15.184 15.426 15.461 15.129 15.031 15.044 15.066 14.874 14.996 17.654 19.339 15.399 16.319 15.981 16.871 18.069 16.056 15.931 16.769 19.469 16.459 14.319 13.729 16.719 21.146 18.146 19.196 17.324 17.141 17.911 14.261 11.956 11.614 9.271 14.231 9.776 4.526 5.231 4.196 3.946 3.734 3.496 3.856 5.806 6.574 4.151 3.519 3.514 4.146 3.346 3.246 3.176 3.166 3.199 3.271 3.304 3.241 4.084 3.809 4.311 5.681 9.179 6.016 6.944 3.456 3.034 3.179 3.379 3.466 3.494 3.514 3.421 3.306 3.299 3.329 3.511 3.739 4.249 4.699 3.826 3.164 2.709 2.439 2.414 2.376 2.371 2.411 2.476 2.499 2.957 3.42 3.652 3.712 5.958 6.923 4.985 3.8 3.913 3.627 3.462 3.457 3.412 3.855 3.956 3.678 2.146 3.036 3.302 4.725 5.996 4.859 5.377 5.549 4.543 5.051 5.876 5.615 4.099 3.617 5.387 8.819 9.527 9.954 9.534 6.399 5.044 5.436 4.084 3.539 3.676 7.904 9.006 7.246 4.306 4.314 5.226 5.261 4.856 5.984 5.616 6.156 6.321 6.756 6.159 11.591 11.941 6.401 4.569 7.336 9.686 10.009 5.934 4.889 5.121 4.684 4.786 5.199 4.791 4.809 6.729 5.601 5.174 5.076 5.056 6.651 4.684 4.759 4.906 4.891 4.834 4.774 4.764 4.771 4.754 4.751 4.781 4.751 4.701 4.671 4.664 4.631 4.619 4.636 4.621 4.521 4.424 4.391 4.384 4.409 4.404 4.359 4.351 4.384 4.416 4.414 4.474 4.526 4.541 4.601 4.609 4.626 4.664 4.686 4.711 4.729 4.741 4.731 4.726 4.736 4.756 4.781 4.774 4.789 4.774 4.779 4.791 4.826 4.831 4.844 4.876 4.884 4.884 4.839 4.809 4.789 4.751 4.701 4.666 4.614 4.476 4.296 4.111
31.722 31.6 31.465 31.357 31.24 31.08 30.972 30.915 30.982 33.165 30.88 30.177 29.925 29.745 29.535 29.312 29.13 28.907 28.642 28.445 28.252 28.06 27.905 27.702 27.54 27.38 27.237 27.067 26.907 26.775 26.632 26.482 26.315 26.182 26.027 25.865 25.737 25.627 25.475 25.342 25.2 25.055 24.85 24.7 24.517 24.352 24.17 23.987 23.807 23.617 23.442 23.245 23.042 22.832 22.622 22.435 22.235 22.02 21.83 21.622 21.467 21.255 21.075 20.897 20.78 20.532 20.367 20.11 19.932 19.757 19.502 19.257 19.062 18.835 18.592 18.349 18.107 17.874 17.654 17.412 17.209 16.982 16.774 16.539 16.332 16.117 15.894 15.697 15.499 15.322 15.212 15.127 14.949 15.414 16.657 16.102 13.972 13.517 13.077 12.309 11.254 11.024 10.674 10.117 9.289 9.122 8.687 8.414 7.729 6.662 6.177 5.834 5.767 5.732 5.934 5.744 5.564 5.662 6.494 5.687 5.847 6.012 5.772 5.739 5.727 5.639 5.852 6.037 6.892 9.709 13.554 13.142 13.637 17.369 19.594 19.569 20.284 16.692 15.382 15.204 17.642 16.462 18.322 21.474 20.394 21.522 17.659 20.662 18.309 17.322 17.417 17.309 17.289 18.164 18.217 17.447 16.622 16.219 16.014 16.544 17.942 18.354 15.932 15.614 15.427 15.197 14.904 14.562 14.264 14.042 14.309 13.819 13.127 12.712 12.467 12.279 12.119 11.932 12.314 12.127 11.817 11.549 11.252 11.734 16.464 19.629 17.432 10.547 9.832 9.612 9.389 9.544 9.207 9.304 12.202 13.329 12.904 9.199 9.709 16.992 11.674 8.924 8.862 9.247 10.107 12.492 13.377 13.754 14.064 13.777 12.129 10.867 11.189 12.302 13.834 15.407 14.187 14.169 14.449 14.302 14.432 14.914 16.812 18.054 16.529 15.791 15.664 15.734 15.624 15.346 15.596 15.391 15.271 15.191 15.156 16.309 18.549 16.969 14.976 14.991 15.091 16.014 18.104 18.339 17.824 16.221 18.041 15.444 14.849 13.961 13.949 14.784 16.689 15.314 17.741 21.366 22.554 20.061 15.999 10.299 9.184 11.881 8.924 5.114 4.499 4.371 4.036 3.954 3.811 4.744 4.909 3.966 3.321 3.869 4.231 4.724 3.574 3.216 3.169 3.194 3.344 3.446 3.496 3.444 3.311 3.636 6.459 7.636 4.751 6.409 7.491 5.034 3.381 2.591 2.604 2.751 2.841 2.816 2.756 3.029 3.176 3.261 3.281 3.336 3.441 3.719 3.831 3.844 3.464 2.926 2.449 2.379 2.351 2.389 2.416 2.574 3.129 3.56 3.683 3.805 7.177 5.801 4.483 3.982 3.966 3.952 3.607 3.544 3.636 4.205 3.721 3.098 2.431 2.66 2.609 3.682 4.355 7.221 7.137 7.635 6.556 6.005 5.35 4.397 3.994 3.656 5.654 6.896 7.728 8.869 9.386 7.429 5.324 5.861 5.101 3.601 3.679 5.426 5.881 5.291 3.801 3.789 4.259 4.661 4.784 4.951 5.639 6.701 7.106 7.549 8.721 12.914 11.754 7.509 10.894 11.189 9.889 9.911 6.651 7.296 9.071 6.701 7.296 8.796 5.494 4.649 4.599 4.714 4.876 4.819 5.086 5.124 4.626 4.821 4.926 4.896 4.851 4.811 4.756 4.736 4.729 4.699 4.704 4.686 4.694 4.604 4.614 4.579 4.604 4.586 4.516 4.431 4.349 4.324 4.324 4.306 4.276 4.294 4.326 4.394 4.389 4.409 4.431 4.481 4.491 4.536 4.579 4.611 4.616 4.616 4.636 4.669 4.691 4.649 4.659 4.656 4.676 4.664 4.694 4.716 4.739 4.761 4.761 4.769 4.794 4.806 4.816 4.826 4.789 4.776 4.761 4.739 4.689 4.654 4.609 4.534 4.401 4.249 4.046
31.622 31.517 31.357 31.227 31.08 30.922 30.785 30.652 30.502 30.687 30.497 30.345 29.862 29.602 29.407 29.215 29.017 28.797 28.592 28.352 28.125 27.922 27.762 27.597 27.427 27.317 27.14 27.005 26.862 26.742 26.537 26.39 26.242 26.112 25.962 25.837 25.71 25.545 25.392 25.277 25.105 24.95 24.765 24.6 24.432 24.26 24.072 23.9 23.72 23.54 23.352 23.135 22.94 22.7 22.512 22.295 22.062 21.852 21.662 21.452 21.257 21.05 20.875 20.72 20.52 20.31 20.147 19.985 19.79 19.562 19.322 19.112 18.895 18.655 18.417 18.169 17.947 17.672 17.457 17.212 17.004 16.804 16.567 16.344 16.142 15.937 15.702 15.514 15.342 15.242 15.149 15.009 14.904 16.559 17.087 14.342 13.364 12.987 12.657 11.967 11.214 10.347 10.237 9.754 8.892 8.627 8.229 7.899 7.194 6.339 5.927 5.772 5.699 5.884 5.862 5.802 5.619 5.902 6.634 6.759 7.392 6.042 6.264 5.659 5.704 5.852 6.057 7.967 12.592 9.222 13.244 17.684 16.272 18.444 19.262 16.154 16.937 17.589 17.109 17.929 17.787 18.104 20.689 21.279 20.717 19.777 16.944 17.942 17.387 17.789 17.767 18.102 17.807 18.477 17.722 17.739 17.539 17.259 16.737 16.099 15.824 15.994 15.749 15.659 15.757 15.914 18.897 16.422 16.194 13.992 13.822 14.189 13.079 12.662 12.462 12.254 12.097 11.907 11.772 11.914 11.859 11.602 11.252 15.747 21.427 24.292 20.234 14.097 9.749 9.592 9.404 9.347 9.264 9.189 10.712 17.322 13.979 8.707 8.454 12.222 9.962 10.197 9.917 10.724 11.632 11.317 11.297 12.704 13.272 13.134 11.989 10.547 11.904 12.559 15.094 15.864 15.557 14.464 14.882 14.947 14.764 15.864 19.139 18.904 18.564 16.631 15.716 15.681 15.381 15.596 15.629 15.636 15.569 15.444 16.211 19.474 18.341 15.391 15.629 15.599 15.284 15.501 18.064 18.926 20.066 19.309 19.331 17.894 16.274 14.311 14.031 14.876 14.846 15.276 19.106 23.096 20.991 17.286 14.939 14.151 8.394 7.849 8.051 4.974 4.484 4.389 4.074 3.921 4.189 3.841 3.351 3.214 3.111 3.084 3.539 3.764 4.686 4.524 3.296 3.411 3.341 3.321 3.371 3.274 3.349 3.616 3.534 3.784 3.311 3.346 3.549 4.241 3.811 2.586 2.356 2.479 2.454 2.379 2.209 2.339 2.661 2.881 3.174 3.269 3.286 3.294 3.449 3.639 3.766 3.641 3.206 2.829 2.484 2.386 2.401 2.764 3.16 3.451 3.542 3.531 5.073 4.383 4.2 4.033 4.124 4.177 3.809 3.595 3.428 3.132 3.298 -9999 -9999 2.428 2.51 3.056 4.603 6.662 7.834 7.988 8.222 6.277 5.114 3.962 4.073 4.222 6.472 7.242 6.785 6.494 7.271 7.059 4.611 3.751 4.044 4.034 3.726 3.859 3.841 3.801 3.776 3.779 4.089 4.579 4.664 4.624 4.529 6.186 8.581 8.324 7.851 8.521 11.046 14.029 11.381 13.194 13.659 9.529 7.026 8.459 10.381 7.846 9.564 9.871 7.576 4.916 4.524 4.499 4.501 4.604 5.429 4.656 4.731 4.851 4.871 4.849 4.826 4.814 4.781 4.751 4.706 4.691 4.681 4.691 4.656 4.584 4.556 4.524 4.541 4.496 4.434 4.366 4.266 4.231 4.234 4.226 4.224 4.249 4.274 4.361 4.381 4.391 4.396 4.436 4.489 4.486 4.549 4.571 4.564 4.571 4.584 4.571 4.576 4.599 4.599 4.629 4.606 4.611 4.619 4.634 4.671 4.696 4.701 4.716 4.731 4.749 4.776 4.766 4.719 4.734 4.726 4.704 4.651 4.616 4.519 4.454 4.324 4.169 3.986
31.502 31.415 31.272 31.122 30.952 30.8 30.647 30.49 30.335 30.175 30.067 29.997 29.832 29.437 29.247 29.092 28.897 28.695 28.482 28.287 28.077 27.85 27.66 27.522 27.36 27.247 27.092 26.95 26.785 26.645 26.505 26.35 26.197 26.055 25.902 25.785 25.657 25.507 25.3 25.172 25.007 24.842 24.637 24.47 24.3 24.15 23.985 23.81 23.64 23.46 23.242 23.03 22.795 22.587 22.395 22.147 21.905 21.707 21.497 21.282 21.072 20.892 20.702 20.52 20.33 20.152 19.95 19.797 19.602 19.38 19.155 18.925 18.712 18.477 18.242 17.997 17.764 17.504 17.267 17.029 16.827 16.589 16.369 16.157 15.939 15.727 15.512 15.347 15.237 15.167 15.079 15.262 16.547 16.564 15.819 13.662 12.674 12.222 11.669 10.972 10.327 10.789 10.709 9.592 8.564 8.164 7.737 7.389 6.994 6.009 5.819 5.902 5.904 5.887 5.822 6.022 6.044 6.082 6.067 6.374 5.864 5.687 7.424 7.662 5.817 6.024 7.374 12.442 13.032 14.457 18.089 20.507 17.602 16.294 18.709 16.817 13.994 18.377 18.684 19.614 19.314 19.699 21.992 22.849 21.167 19.369 17.344 17.347 17.604 18.582 18.442 19.649 18.167 18.412 18.222 18.034 18.007 18.389 18.004 17.234 16.334 15.934 15.867 15.797 17.479 17.877 19.502 16.867 15.344 13.892 13.402 13.484 12.877 12.659 12.462 12.247 12.054 11.842 11.649 11.547 11.622 11.537 11.342 23.407 22.182 20.532 16.347 12.002 9.772 9.727 9.649 9.474 9.537 9.787 9.599 10.279 11.357 8.932 8.684 9.889 9.004 10.784 10.027 10.552 10.852 12.164 12.242 10.914 10.752 10.159 10.809 11.167 12.424 12.657 13.939 15.044 14.527 15.404 17.724 17.109 17.429 20.352 19.882 19.309 18.499 15.684 15.829 15.829 15.916 15.764 16.109 15.789 15.791 16.351 18.644 19.736 16.841 15.956 16.371 16.346 15.836 15.481 17.149 18.184 20.844 20.741 20.094 19.511 17.991 15.791 17.776 17.229 14.289 14.121 16.969 21.539 22.836 18.099 15.729 15.491 11.331 10.531 6.599 5.199 4.631 4.441 4.136 4.101 4.079 3.861 3.416 3.226 3.106 3.126 3.154 3.264 5.004 4.769 3.254 3.351 3.446 3.314 3.406 3.251 3.266 3.684 3.379 4.551 3.591 3.471 4.811 4.316 3.566 3.401 3.281 3.269 3.134 3.111 3.221 3.404 3.244 2.644 2.859 3.746 3.181 3.261 3.251 3.234 3.439 3.654 3.801 3.696 3.331 2.886 2.526 2.685 2.89 3.546 3.609 3.791 4.201 4.471 4.014 4.043 4.298 4.212 3.897 3.535 3.378 2.984 3.134 -9999 -9999 2.182 2.138 2.775 4.147 6.113 6.047 6.795 5.168 4.899 4.28 3.173 3.212 3.617 4.463 5.528 7.015 7.379 7.214 6.589 4.114 3.701 3.749 3.929 6.129 5.699 3.734 3.671 3.689 3.711 3.941 4.436 4.581 4.529 4.429 5.769 8.694 8.954 7.351 5.179 10.644 12.241 8.686 11.759 13.564 9.031 6.396 6.384 7.721 4.691 6.694 8.319 8.666 6.264 5.479 4.909 4.906 4.646 5.254 4.694 4.796 4.789 4.781 4.784 4.799 4.826 4.749 4.724 4.714 4.689 4.679 4.651 4.641 4.596 4.546 4.486 4.474 4.406 4.336 4.286 4.199 4.141 4.131 4.129 4.171 4.181 4.219 4.306 4.339 4.359 4.379 4.436 4.479 4.489 4.556 4.566 4.574 4.551 4.531 4.551 4.581 4.579 4.576 4.569 4.589 4.564 4.559 4.586 4.611 4.651 4.674 4.684 4.704 4.714 4.724 4.709 4.681 4.706 4.689 4.629 4.586 4.536 4.459 4.384 4.276 4.116 3.956
31.422 31.292 31.16 30.99 30.865 30.672 30.502 30.32 30.18 30.015 29.847 29.692 29.535 29.38 29.215 29.05 28.837 28.605 28.425 28.212 28.027 27.83 27.635 27.467 27.325 27.18 27.03 26.9 26.74 26.577 26.45 26.292 26.147 26.017 25.877 25.72 25.58 25.417 25.282 25.09 24.92 24.732 24.55 24.362 24.22 24.052 23.892 23.737 23.54 23.35 23.115 22.902 22.657 22.447 22.222 22.012 21.775 21.56 21.35 21.137 20.902 20.752 20.517 20.317 20.122 19.945 19.757 19.572 19.395 19.22 18.98 18.757 18.54 18.302 18.049 17.809 17.572 17.322 17.054 16.859 16.649 16.394 16.187 15.974 15.729 15.549 15.357 15.237 15.182 15.109 15.247 16.119 16.967 15.039 13.657 13.197 12.417 12.047 12.334 11.124 10.119 9.969 9.714 9.067 8.234 7.809 7.292 6.639 6.049 5.762 5.734 5.932 5.797 5.704 5.989 5.992 6.074 6.307 6.379 6.057 5.977 5.704 6.069 6.042 6.074 6.354 7.259 9.382 11.119 15.384 14.067 16.749 17.299 18.257 20.119 14.862 16.692 20.652 22.097 19.982 18.109 19.169 22.074 28.304 23.669 17.649 19.184 17.727 17.862 18.282 18.684 18.564 18.227 18.362 18.677 18.252 18.277 18.524 18.132 17.642 16.924 16.329 16.249 17.179 16.964 16.269 16.834 15.117 14.542 13.742 13.362 13.159 12.847 12.592 12.424 12.244 12.044 11.842 11.667 11.504 11.422 11.519 11.412 15.962 16.142 15.297 10.292 12.324 11.042 9.874 10.477 13.509 11.382 9.767 9.634 9.554 9.569 9.102 8.984 8.947 9.019 9.452 10.252 11.004 10.537 12.812 13.752 13.189 12.112 14.762 14.397 13.554 13.309 14.942 16.317 16.427 14.544 18.049 18.372 18.574 21.667 22.369 21.237 20.049 17.529 16.154 17.921 20.209 17.584 16.276 16.264 15.966 16.409 19.189 19.939 17.396 16.159 16.456 16.504 16.571 16.344 15.821 15.976 18.324 19.756 20.386 19.819 19.266 15.171 15.051 18.154 17.276 14.499 14.259 14.414 19.456 22.314 19.151 15.834 16.336 11.649 10.194 6.969 6.314 5.921 4.296 4.146 4.199 4.189 3.834 3.431 3.479 3.401 3.456 3.571 3.384 4.384 3.536 3.361 3.416 3.349 3.346 3.561 3.336 3.324 3.306 3.359 5.031 4.986 4.454 3.869 3.549 3.649 3.774 3.616 3.554 3.501 3.624 3.914 4.291 4.014 3.914 3.731 3.666 3.236 2.926 3.126 3.236 3.186 3.259 3.471 3.729 3.849 3.661 3.341 3.056 3.421 4.692 3.572 3.773 5.036 3.775 3.765 3.952 4.225 5.376 4.041 3.643 3.261 2.551 2.838 -9999 2.176 2.165 2.137 2.675 3.614 3.505 4.141 3.563 3.674 3.505 3.444 3.093 3.276 4.191 4.102 4.271 5.491 5.359 6.721 5.041 4.034 4.214 3.714 3.781 3.944 4.761 4.339 3.679 3.664 3.684 3.821 4.321 4.494 4.449 4.351 4.981 6.356 6.504 5.109 6.501 8.281 9.919 10.634 9.654 6.169 4.576 5.721 5.011 4.681 4.549 4.631 5.169 4.944 4.656 5.644 5.071 5.281 5.356 4.761 4.826 4.829 4.709 4.701 4.709 4.746 4.739 4.714 4.704 4.666 4.631 4.619 4.599 4.599 4.601 4.509 4.436 4.401 4.351 4.259 4.154 4.074 4.049 4.066 4.076 4.096 4.099 4.176 4.236 4.246 4.304 4.359 4.386 4.384 4.456 4.489 4.496 4.541 4.486 4.539 4.519 4.541 4.521 4.506 4.534 4.541 4.526 4.526 4.551 4.546 4.574 4.631 4.636 4.671 4.671 4.674 4.656 4.659 4.649 4.606 4.569 4.529 4.479 4.379 4.306 4.196 4.046 3.921
31.337 31.205 31.025 30.87 30.715 30.535 30.362 30.185 30.047 29.855 29.667 29.485 29.31 29.115 29.095 29.045 28.785 28.49 28.337 28.162 27.937 27.747 27.582 27.407 27.242 27.135 26.997 26.837 26.667 26.507 26.402 26.257 26.09 25.96 25.817 25.665 25.517 25.377 25.21 25.015 24.832 24.657 24.455 24.282 24.127 23.972 23.795 23.617 23.427 23.227 22.997 22.775 22.525 22.297 22.047 21.862 21.637 21.402 21.232 20.985 20.785 20.58 20.38 20.15 19.927 19.75 19.537 19.355 19.17 19.015 18.827 18.592 18.357 18.107 17.892 17.637 17.387 17.134 16.894 16.684 16.467 16.214 16.017 15.779 15.587 15.397 15.249 15.182 15.127 15.012 17.122 16.962 15.067 14.042 12.999 12.369 11.757 11.704 12.394 10.077 9.702 9.264 8.819 8.592 8.044 7.329 6.794 5.989 5.762 5.647 5.774 5.714 5.679 5.714 6.487 6.262 8.254 6.794 7.187 7.534 6.064 5.747 5.859 5.987 6.567 7.294 7.809 8.794 10.837 15.419 14.274 15.299 15.482 15.234 17.542 18.727 18.892 21.169 21.799 18.937 19.049 20.532 21.677 26.287 22.914 17.712 19.212 22.297 21.007 18.569 19.484 18.667 18.642 18.812 18.812 19.067 18.704 18.582 18.209 17.534 17.164 17.387 17.554 18.179 17.564 15.464 15.647 15.072 14.644 14.117 13.589 13.149 12.784 12.599 12.472 12.342 12.127 11.924 11.654 11.519 11.404 11.299 11.387 11.672 11.077 11.524 12.297 19.174 16.549 10.102 13.189 21.694 17.372 13.477 9.904 9.952 9.699 9.347 9.252 9.239 9.364 9.669 10.169 10.362 11.862 13.419 13.639 12.344 13.134 16.329 18.444 17.524 14.152 15.529 16.724 15.449 15.019 17.762 18.212 18.899 20.837 22.087 22.454 21.422 20.906 20.509 21.704 21.846 21.399 16.296 16.229 16.346 19.156 20.429 18.371 16.286 16.479 16.559 16.609 16.616 16.574 16.316 16.196 18.499 19.401 20.074 19.094 17.944 15.396 17.106 18.621 16.944 16.146 14.736 14.419 15.086 15.979 14.314 13.731 16.241 12.304 10.486 7.006 5.336 4.671 5.266 4.211 4.081 4.009 3.754 4.536 4.441 4.234 3.649 4.014 3.361 3.266 3.301 3.366 3.379 3.376 3.376 3.361 3.339 3.259 3.326 3.719 4.014 3.491 3.264 3.414 3.361 3.361 3.459 3.621 3.486 3.431 3.481 3.971 3.986 4.111 4.281 3.771 3.576 4.009 2.361 2.859 2.711 3.129 3.126 3.166 3.304 3.544 3.774 3.829 3.741 3.993 3.67 3.404 4.359 5.007 3.974 3.748 3.911 4.531 4.502 3.768 3.541 3.105 2.609 2.796 -9999 2.219 2.13 2.319 2.757 4.151 3.642 3.414 3.492 3.646 3.989 3.628 3.568 4.277 4.904 3.774 3.866 3.886 3.719 3.624 3.506 3.571 3.619 3.686 4.059 4.936 5.989 5.669 3.884 3.636 3.644 3.719 4.116 4.679 4.299 4.199 4.116 4.156 4.171 4.171 6.781 9.184 10.281 10.474 9.234 4.169 4.306 4.579 4.549 4.564 4.614 4.626 4.606 4.596 4.581 4.584 4.529 4.856 5.119 4.796 4.799 4.774 4.681 4.649 4.671 4.651 4.659 4.651 4.641 4.569 4.559 4.534 4.529 4.541 4.496 4.426 4.366 4.301 4.284 4.201 4.079 4.016 3.989 4.009 4.004 4.041 4.049 4.121 4.176 4.211 4.226 4.291 4.341 4.356 4.396 4.426 4.449 4.489 4.446 4.466 4.476 4.476 4.464 4.461 4.474 4.449 4.461 4.489 4.524 4.509 4.544 4.569 4.596 4.631 4.656 4.654 4.634 4.649 4.619 4.559 4.521 4.469 4.424 4.336 4.284 4.166 3.994 3.864
31.22 31.07 30.895 30.727 30.545 30.41 30.247 30.067 29.905 29.695 29.515 29.335 29.137 28.967 28.815 28.75 28.76 28.632 28.297 28.092 27.96 27.837 27.57 27.37 27.182 27.047 26.877 26.75 26.59 26.435 26.312 26.197 26.06 25.915 25.755 25.615 25.45 25.302 25.122 24.945 24.757 24.56 24.365 24.21 24.04 23.857 23.675 23.502 23.305 23.07 22.84 22.63 22.402 22.177 21.922 21.707 21.5 21.275 21.052 20.882 20.655 20.425 20.177 19.997 19.77 19.562 19.357 19.175 18.967 18.765 18.605 18.422 18.21 17.947 17.672 17.442 17.212 16.972 16.742 16.512 16.274 16.052 15.834 15.659 15.447 15.272 15.227 15.129 14.949 15.872 17.494 16.189 14.254 13.564 12.794 12.567 11.474 11.624 10.747 9.767 9.509 9.082 8.614 8.407 7.834 6.974 6.387 5.827 5.922 5.917 5.679 5.594 5.619 5.572 5.852 6.254 6.757 7.219 8.102 7.507 5.959 5.807 6.277 7.657 9.044 9.787 9.042 10.599 13.212 14.734 13.934 15.712 18.272 19.209 20.012 19.979 20.027 17.912 17.989 16.767 17.862 19.424 23.312 26.282 22.929 18.774 23.422 26.082 24.507 19.829 19.014 18.909 18.964 19.187 19.622 19.412 18.967 18.787 18.672 17.762 17.682 17.484 18.392 18.132 16.749 17.492 19.622 17.074 14.964 14.572 14.099 13.534 13.267 13.242 12.699 12.622 12.622 12.082 11.827 11.549 11.397 11.297 11.242 11.339 11.302 11.162 14.914 21.404 15.437 10.809 17.042 18.009 23.227 19.917 11.989 10.309 10.122 9.992 9.584 9.634 9.764 10.032 10.214 12.744 15.314 14.887 13.194 11.339 10.667 14.082 15.934 15.834 14.804 14.909 15.159 14.724 14.309 14.749 17.569 16.559 18.387 20.809 22.082 22.462 22.054 21.886 21.879 21.856 19.904 16.424 16.074 19.099 20.566 18.394 16.419 16.539 16.569 16.569 16.541 16.536 16.596 16.516 16.316 17.076 18.796 19.689 16.521 15.946 15.611 19.691 18.866 16.291 15.299 14.876 14.824 14.679 14.941 16.514 17.169 15.544 12.416 11.936 8.796 5.529 4.706 4.666 4.244 4.299 4.071 3.814 4.369 3.564 3.521 3.416 3.679 3.359 3.369 3.361 3.231 3.274 3.296 3.384 3.379 3.314 3.311 3.264 3.251 3.314 3.311 3.344 3.314 3.301 3.289 3.284 3.449 3.449 3.491 3.604 3.769 3.756 4.009 4.546 3.981 3.764 3.869 2.754 3.554 2.936 2.999 2.839 3.036 3.174 3.214 3.316 3.556 3.727 4.138 3.774 3.703 3.222 5.218 3.941 3.655 4.915 4.925 3.891 3.834 3.42 3.328 2.567 3.02 -9999 2.348 2.314 2.534 3.297 4.372 3.699 3.7 3.477 4.868 4.733 4.762 4.879 6.084 5.661 5.708 5.691 4.53 3.866 3.756 3.626 3.564 3.616 3.889 4.689 4.466 5.469 5.701 4.136 3.609 3.609 3.629 3.789 4.036 4.141 4.021 4.059 4.114 4.146 4.624 7.239 9.296 10.506 10.401 7.969 4.164 4.304 4.451 4.489 4.526 4.596 4.619 4.609 4.611 4.554 4.566 4.559 4.629 4.894 4.739 4.729 4.696 4.651 4.621 4.611 4.571 4.551 4.534 4.549 4.511 4.489 4.466 4.474 4.481 4.456 4.374 4.309 4.276 4.181 4.101 4.016 3.969 3.919 3.926 3.959 3.996 3.996 4.069 4.146 4.149 4.179 4.201 4.241 4.269 4.314 4.364 4.366 4.386 4.404 4.434 4.444 4.414 4.389 4.421 4.411 4.419 4.464 4.464 4.464 4.471 4.476 4.494 4.526 4.571 4.606 4.599 4.594 4.614 4.579 4.504 4.461 4.416 4.371 4.299 4.259 4.161 3.984 3.844
31.135 30.96 30.777 30.607 30.452 30.267 30.095 29.915 29.755 29.565 29.36 29.172 28.972 28.787 28.642 28.482 28.367 28.425 28.667 28.702 28.217 28.197 27.627 27.277 27.12 26.997 26.81 26.665 26.517 26.375 26.257 26.125 26 25.847 25.697 25.547 25.39 25.195 25.022 24.845 24.657 24.48 24.32 24.155 23.932 23.735 23.565 23.345 23.137 22.915 22.715 22.485 22.247 22.01 21.77 21.555 21.332 21.107 20.915 20.69 20.497 20.272 20.022 19.807 19.595 19.387 19.197 18.97 18.767 18.565 18.367 18.2 18.015 17.787 17.527 17.269 17.032 16.822 16.579 16.342 16.134 15.909 15.697 15.512 15.337 15.272 15.194 15.337 15.827 16.277 17.077 15.019 13.707 12.999 12.577 11.762 11.112 10.574 10.034 9.717 9.249 8.774 8.562 7.814 7.104 6.537 5.989 6.124 6.029 5.709 5.697 5.642 5.637 5.664 5.567 6.067 5.757 5.944 6.174 8.612 6.022 6.892 9.252 11.402 10.459 8.714 9.679 12.242 18.277 15.027 15.722 14.284 15.614 17.517 18.562 18.842 19.474 17.067 16.744 17.277 17.954 18.499 20.002 25.562 18.562 19.772 22.319 23.539 26.099 19.304 20.229 19.989 19.422 19.607 19.897 19.569 19.432 19.257 18.827 18.389 18.107 18.854 17.494 17.147 17.769 21.437 21.277 20.587 18.077 15.607 14.554 13.949 14.977 15.327 14.144 14.769 14.709 13.367 12.167 11.687 11.447 11.322 11.244 11.217 11.332 11.347 12.067 15.149 12.799 11.389 10.842 15.322 22.014 14.557 10.629 10.702 10.742 14.422 10.444 10.034 10.077 10.199 10.924 15.969 16.904 16.742 14.462 10.367 10.562 11.234 12.264 16.077 16.672 16.129 13.854 14.707 14.347 14.367 14.869 15.652 15.969 18.837 21.072 21.929 22.551 22.109 21.899 20.459 16.221 16.594 18.129 20.766 19.489 16.536 16.561 16.566 16.571 16.524 16.429 16.566 16.554 16.539 16.464 16.109 18.019 19.301 19.259 19.391 17.626 21.276 21.529 17.069 16.596 15.089 14.769 14.581 14.949 16.469 15.916 16.696 10.286 8.876 7.731 7.911 4.979 4.974 4.219 4.471 4.866 4.364 4.201 4.571 3.386 3.411 4.149 3.666 3.619 3.421 3.321 3.334 3.269 3.321 3.344 3.376 3.314 3.316 3.316 3.294 3.304 3.309 3.351 3.281 3.301 3.284 3.326 3.394 3.501 3.499 3.526 3.564 3.544 3.754 4.171 3.734 3.726 3.926 3.011 2.831 2.556 3.524 2.311 2.709 3.094 3.274 3.269 3.337 3.54 3.637 3.66 4.232 5.844 4.913 4.514 5.038 5.074 5.356 3.915 3.777 3.722 3.759 3.924 -9999 2.549 2.456 2.59 3.124 4.536 4.282 3.919 4.101 3.773 4.499 3.631 5.009 8.466 6.592 6.437 6.276 4.417 4.761 4.424 4.004 4.604 4.084 4.014 4.126 5.014 5.816 5.836 4.036 3.601 3.604 3.601 4.204 4.114 3.859 3.936 4.004 4.051 4.101 4.949 7.894 9.644 10.659 10.064 7.414 4.189 4.349 4.524 4.521 4.574 4.656 4.599 4.584 4.551 4.591 4.571 4.581 4.764 4.784 4.671 4.636 4.594 4.589 4.544 4.526 4.491 4.489 4.496 4.461 4.469 4.434 4.431 4.454 4.444 4.376 4.306 4.276 4.219 4.111 3.989 3.926 3.924 3.891 3.896 3.921 3.926 3.941 4.029 4.079 4.081 4.091 4.119 4.159 4.229 4.286 4.284 4.341 4.369 4.384 4.421 4.424 4.426 4.386 4.391 4.371 4.399 4.429 4.431 4.419 4.449 4.471 4.499 4.506 4.549 4.571 4.556 4.534 4.561 4.486 4.461 4.434 4.401 4.371 4.264 4.224 4.134 3.959 3.846
31.032 30.85 30.657 30.477 30.31 30.127 29.927 29.77 29.602 29.41 29.202 28.997 28.775 28.625 28.47 28.302 28.15 28.032 27.962 28.402 29.117 28.422 27.885 27.235 27.165 26.907 26.812 26.617 26.462 26.322 26.18 26.065 25.925 25.805 25.65 25.47 25.305 25.11 24.91 24.717 24.587 24.42 24.267 24.042 23.84 23.602 23.407 23.222 23.025 22.767 22.53 22.305 22.092 21.872 21.622 21.407 21.162 20.932 20.73 20.537 20.3 20.1 19.875 19.645 19.42 19.22 19.005 18.78 18.57 18.37 18.187 17.97 17.767 17.59 17.367 17.137 16.872 16.662 16.422 16.217 15.992 15.779 15.609 15.424 15.299 15.217 15.252 18.222 18.317 16.242 15.339 14.034 13.239 12.779 12.052 11.539 10.867 10.277 9.774 9.289 8.897 8.309 7.944 7.509 6.754 6.214 5.902 5.919 6.002 5.789 5.724 5.657 5.782 5.619 5.809 6.007 5.687 5.634 6.519 9.547 7.099 9.039 13.339 11.114 13.364 11.674 10.557 13.924 16.279 14.247 13.142 16.699 14.937 15.559 15.599 16.127 17.477 17.949 17.679 17.587 17.877 19.754 21.437 20.829 19.177 19.542 24.192 22.502 22.674 19.304 20.192 21.672 21.419 20.132 20.007 20.027 22.669 19.627 19.712 19.509 19.167 19.577 18.739 17.354 20.352 21.384 21.752 21.417 20.837 18.877 16.437 15.022 15.712 15.717 15.917 15.349 13.527 14.229 13.039 12.134 11.627 11.419 11.297 11.229 11.237 11.394 11.629 11.469 11.254 11.147 12.544 11.584 19.582 13.869 17.334 12.522 10.787 14.252 10.374 10.397 10.507 10.464 13.282 16.429 17.049 16.389 12.649 10.392 10.672 11.539 13.459 15.964 15.879 14.107 14.009 14.397 14.354 15.159 15.189 17.484 16.549 16.459 19.499 20.969 21.759 22.524 21.286 16.941 16.371 16.939 20.686 19.834 16.879 16.644 16.551 16.561 16.526 16.544 16.621 16.719 16.916 16.514 16.451 16.089 18.781 18.404 19.456 19.586 23.651 22.016 20.681 18.061 17.389 17.469 16.904 15.014 14.499 14.561 15.269 13.569 10.496 10.759 9.754 9.229 5.924 4.509 4.391 4.314 5.241 4.234 4.281 3.854 3.449 3.339 3.384 3.759 3.519 3.649 3.439 3.364 3.356 3.351 3.339 3.324 3.341 3.309 3.306 3.294 3.276 3.309 3.279 3.264 3.299 3.331 3.409 3.351 3.406 3.346 3.419 3.451 3.349 3.376 3.516 3.581 3.439 3.721 3.954 3.361 3.176 3.114 2.591 2.214 2.319 2.906 3.304 3.368 3.365 3.357 3.414 3.7 4.671 4.837 4.4 4.261 4.305 5.975 5.38 5.865 7.785 7.413 6.329 3.911 3.111 3.348 3.061 3.179 2.602 3.247 3.863 4.695 4.407 3.812 3.341 5.087 6.057 5.957 5.604 5.577 5.649 5.066 4.791 5.366 5.106 5.034 5.226 5.384 5.199 5.981 4.741 3.601 3.606 3.564 4.079 6.184 6.146 4.381 3.906 3.936 4.011 4.039 5.109 7.941 9.626 10.611 9.976 6.714 4.176 4.376 4.499 4.504 4.519 4.521 4.516 4.551 4.566 4.594 4.641 4.614 4.886 4.591 4.609 4.556 4.499 4.516 4.494 4.461 4.434 4.421 4.436 4.409 4.391 4.394 4.381 4.371 4.379 4.326 4.304 4.246 4.139 4.016 3.931 3.876 3.834 3.846 3.869 3.871 3.911 3.909 3.959 4.016 4.016 4.046 4.104 4.146 4.191 4.241 4.271 4.304 4.354 4.374 4.401 4.406 4.389 4.386 4.371 4.364 4.379 4.399 4.391 4.391 4.449 4.476 4.464 4.449 4.481 4.501 4.521 4.479 4.486 4.446 4.404 4.379 4.374 4.296 4.221 4.201 4.116 3.951 3.851
30.915 30.735 30.542 30.332 30.175 30.005 29.807 29.617 29.422 29.235 29.055 28.857 28.66 28.437 28.285 28.135 28.002 27.85 27.697 27.612 27.73 28.54 28.985 29.415 28.605 26.842 26.662 26.565 26.422 26.28 26.137 26.002 25.882 25.732 25.56 25.402 25.232 25.005 24.812 24.66 24.515 24.33 24.155 23.93 23.737 23.47 23.232 23.057 22.87 22.617 22.38 22.162 21.912 21.707 21.477 21.252 20.992 20.777 20.592 20.365 20.122 19.917 19.712 19.507 19.28 19.045 18.827 18.607 18.385 18.18 17.982 17.772 17.565 17.372 17.149 16.962 16.749 16.514 16.287 16.069 15.847 15.654 15.462 15.337 15.284 15.134 17.609 19.044 18.689 14.937 13.662 13.349 12.792 12.319 11.587 11.787 10.984 10.309 9.819 9.112 8.687 8.009 7.504 7.019 6.539 6.002 5.947 6.037 5.909 5.797 5.662 5.717 5.699 5.799 8.179 8.724 7.149 8.909 7.437 7.212 6.562 9.199 11.287 11.149 14.432 13.454 12.004 14.732 13.964 13.797 13.209 14.092 14.947 15.462 16.204 17.229 17.922 21.607 18.877 17.884 18.662 21.507 25.074 22.164 19.247 19.287 20.077 22.542 19.864 19.854 22.282 21.924 22.042 21.577 20.632 21.517 22.397 20.084 20.029 20.202 20.472 19.787 19.057 18.047 20.077 20.644 21.252 21.659 21.587 18.662 16.992 15.524 15.044 15.199 16.082 15.007 13.674 13.627 12.759 12.699 12.159 11.624 11.432 11.369 11.322 11.314 11.502 11.697 11.599 11.432 11.334 13.289 21.999 18.764 22.519 16.634 11.544 12.084 10.772 10.882 11.002 12.079 16.007 16.732 16.854 15.764 11.207 10.562 11.144 13.004 14.177 15.164 14.034 13.667 14.009 14.339 14.479 14.832 16.794 18.524 16.134 15.914 18.764 18.957 20.606 21.359 17.611 17.106 18.569 20.151 20.256 17.316 18.501 17.496 16.604 16.566 16.566 16.566 16.621 16.651 16.614 16.466 16.346 16.084 20.294 19.304 17.639 19.434 19.974 20.521 17.771 16.494 17.784 18.994 17.376 16.594 14.634 14.439 15.386 14.004 10.901 9.851 7.936 9.639 8.151 5.214 4.769 4.421 4.336 4.256 3.896 3.654 3.956 3.361 3.496 3.541 3.481 3.664 3.586 3.466 3.319 3.364 3.314 3.366 3.366 3.301 3.274 3.209 3.246 3.256 3.276 3.274 3.259 3.276 3.341 3.379 3.286 3.366 3.319 3.359 3.281 3.386 3.356 3.456 3.724 3.599 4.314 3.609 3.506 3.371 3.239 2.894 2.326 2.221 3.186 3.509 3.525 3.43 3.33 3.345 3.529 4.541 4.051 3.867 4.089 4.62 3.897 6.233 7.75 8.09 6.437 4.082 3.614 4.09 4.038 3.607 3.562 2.706 3.81 5.548 5.738 4.071 3.392 3.454 4.708 4.803 3.955 4.023 4.246 4.954 3.544 4.101 4.389 3.681 5.171 4.929 4.924 4.619 3.794 3.571 3.564 3.589 4.569 4.941 5.769 4.424 4.101 3.991 3.969 4.006 4.844 6.681 4.374 6.129 6.986 4.981 4.199 4.429 4.506 4.516 4.501 4.504 4.516 4.529 4.524 4.549 4.566 4.601 4.949 4.569 4.551 4.501 4.466 4.436 4.434 4.391 4.349 4.366 4.369 4.359 4.356 4.354 4.366 4.379 4.356 4.279 4.246 4.169 4.056 3.939 3.859 3.814 3.766 3.806 3.814 3.839 3.884 3.876 3.909 3.964 3.981 4.019 4.066 4.121 4.166 4.174 4.201 4.231 4.306 4.331 4.381 4.371 4.374 4.369 4.359 4.354 4.339 4.341 4.369 4.401 4.411 4.421 4.446 4.431 4.419 4.476 4.476 4.471 4.461 4.451 4.434 4.384 4.314 4.259 4.206 4.179 4.096 3.969 3.919
30.792 30.605 30.412 30.235 30.037 29.855 29.667 29.482 29.267 29.06 28.88 28.687 28.5 28.3 28.13 27.955 27.835 27.707 27.55 27.43 27.32 27.362 27.85 29.625 27.87 26.737 26.577 26.482 26.375 26.232 26.117 25.957 25.8 25.652 25.477 25.305 25.115 24.947 24.777 24.612 24.427 24.285 24.045 23.822 23.637 23.385 23.145 22.932 22.712 22.465 22.205 21.98 21.742 21.535 21.31 21.082 20.852 20.612 20.405 20.215 19.99 19.735 19.537 19.362 19.122 18.89 18.665 18.45 18.237 18 17.795 17.592 17.367 17.185 16.959 16.779 16.572 16.379 16.147 15.909 15.712 15.517 15.357 15.279 15.217 15.187 17.494 18.947 15.732 13.592 13.079 12.997 13.239 11.944 11.939 12.282 10.699 10.014 9.349 8.904 8.404 7.669 7.144 6.457 6.124 5.949 6.002 6.014 5.789 5.722 5.672 5.712 5.704 6.532 9.744 10.069 7.952 10.627 8.584 5.857 6.237 7.727 11.669 14.049 12.854 14.362 12.044 12.709 12.674 13.109 13.864 14.624 15.419 16.122 16.742 17.272 18.477 24.034 21.719 18.884 18.784 19.577 20.104 20.287 19.492 19.534 19.887 19.927 20.097 20.304 20.389 20.657 20.697 21.697 22.299 21.087 20.494 22.597 22.852 22.212 21.667 19.442 18.569 17.282 17.499 19.342 20.514 21.069 20.719 17.522 16.472 15.469 15.634 16.054 16.157 15.964 16.189 17.897 14.282 13.759 13.202 12.209 11.742 11.562 11.437 11.432 11.464 11.562 11.717 11.734 11.704 13.952 16.184 21.537 20.319 14.914 11.237 11.127 11.254 11.372 11.432 14.079 16.019 16.399 16.397 15.334 11.944 11.354 11.907 14.919 13.939 13.454 13.552 13.792 14.257 14.304 14.572 16.157 17.109 16.552 15.952 15.949 16.099 16.152 17.606 17.906 17.311 19.411 20.089 19.649 17.166 16.826 18.019 18.351 16.686 16.621 16.536 16.571 16.584 16.746 16.504 16.421 16.326 18.986 17.539 18.801 16.356 16.351 17.111 16.946 16.131 15.989 16.371 17.884 18.304 16.221 14.689 13.806 12.806 11.324 10.656 9.171 7.619 7.994 6.386 5.181 4.286 4.246 4.829 4.791 3.964 4.714 4.409 3.609 3.644 3.349 3.359 3.474 3.531 3.616 3.316 3.261 3.304 3.361 3.341 3.344 3.236 3.216 3.286 3.326 3.319 3.326 3.374 3.306 3.311 3.346 3.311 3.271 3.316 3.376 3.461 3.314 3.341 3.346 3.829 3.601 3.509 3.659 3.496 3.306 3.266 3.194 3.019 3.156 3.821 3.386 3.185 3.623 3.636 3.482 3.405 3.349 3.503 3.503 3.533 3.291 3.711 6.819 7.158 6.934 6.214 3.392 4.165 4.644 4.286 3.993 3.877 3.812 4.644 6.55 4.548 4.503 4.063 3.702 4.235 4.062 3.337 3.329 3.439 3.431 3.449 3.819 5.616 4.996 5.376 4.761 3.829 3.709 3.656 3.574 3.554 3.509 5.424 4.424 3.771 4.111 3.939 4.291 5.604 5.516 4.494 4.649 4.384 4.129 4.141 4.184 4.236 4.409 4.471 4.519 4.534 4.706 5.446 4.504 4.531 4.604 4.594 4.511 4.474 4.486 4.444 4.441 4.464 4.431 4.391 4.364 4.344 4.334 4.319 4.291 4.274 4.291 4.326 4.371 4.316 4.216 4.164 4.096 3.989 3.849 3.769 3.716 3.721 3.761 3.806 3.846 3.851 3.864 3.861 3.939 3.936 3.961 3.989 4.051 4.096 4.144 4.151 4.189 4.219 4.251 4.319 4.321 4.344 4.329 4.311 4.336 4.311 4.334 4.371 4.374 4.379 4.361 4.389 4.424 4.396 4.419 4.446 4.431 4.409 4.391 4.359 4.316 4.311 4.226 4.166 4.156 4.076 3.981 3.944
30.655 30.482 30.305 30.112 29.91 29.727 29.522 29.337 29.137 28.887 28.69 28.507 28.317 28.11 27.972 27.805 27.675 27.53 27.402 27.302 27.177 27.067 27.007 27.402 27.91 26.847 27.127 27.705 26.26 26.215 26.087 25.942 25.74 25.572 25.382 25.195 25.055 24.912 24.725 24.552 24.365 24.137 23.92 23.68 23.487 23.272 23.04 22.777 22.545 22.27 22.037 21.79 21.547 21.345 21.112 20.905 20.69 20.462 20.237 20.067 19.837 19.572 19.372 19.172 18.985 18.767 18.517 18.28 18.072 17.86 17.647 17.395 17.182 16.992 16.767 16.569 16.372 16.199 15.972 15.764 15.577 15.417 15.342 15.234 15.969 15.784 16.559 16.082 14.149 13.057 12.762 12.449 13.072 12.072 11.712 10.854 9.917 9.349 9.004 8.677 8.134 7.717 6.672 6.244 6.014 5.869 5.949 5.867 5.812 6.052 8.939 5.729 6.159 6.377 8.052 9.212 6.372 7.162 6.629 6.182 6.994 8.244 9.534 12.637 13.734 11.907 12.152 12.422 12.972 13.687 14.434 15.267 15.997 16.742 17.229 19.514 25.054 24.422 23.299 19.549 19.087 19.462 19.552 19.617 19.654 19.817 20.319 20.354 20.562 20.762 20.814 21.097 21.114 21.117 21.504 23.199 21.864 23.249 25.867 21.547 20.957 19.977 19.107 18.657 17.567 17.159 19.539 20.367 20.459 17.799 16.717 16.719 16.059 16.082 16.197 15.859 15.427 16.427 14.337 13.639 13.124 12.624 12.232 11.902 11.689 11.579 11.597 11.597 11.629 11.737 11.872 13.842 15.927 20.119 13.877 12.519 11.567 11.564 11.942 12.534 12.344 14.564 15.219 15.537 15.892 14.239 11.584 11.884 13.459 13.767 13.559 13.654 13.882 16.527 15.147 14.397 15.692 15.792 15.887 15.457 16.069 16.007 16.414 16.194 16.379 17.419 19.844 20.664 19.524 17.619 16.801 16.816 16.836 16.839 16.741 16.766 16.901 17.001 16.879 17.054 16.774 16.524 16.489 16.486 19.621 19.514 18.856 20.216 16.079 15.991 15.909 15.921 17.786 18.309 17.576 16.094 14.904 13.981 12.681 11.674 11.191 9.364 8.154 7.071 5.931 4.881 4.274 4.269 4.434 4.639 3.929 4.106 4.114 3.974 3.686 3.371 3.399 3.496 3.499 3.366 3.346 3.241 3.274 3.316 3.326 3.336 3.244 3.286 3.251 3.289 3.286 3.274 3.319 3.284 3.291 3.306 3.261 3.274 3.279 3.334 3.324 3.264 3.324 3.306 3.274 3.381 3.501 3.761 3.484 3.339 3.421 3.274 3.186 3.206 3.106 2.443 2.518 3.253 3.644 3.783 3.663 3.725 3.517 3.399 3.424 3.391 3.349 4.55 5.625 4.801 3.477 3.75 5.648 8.142 4.144 4.226 4.483 4.862 4.83 5.453 3.751 4.321 3.387 3.733 3.411 4.102 3.354 3.344 3.379 3.424 3.904 5.479 6.259 6.271 6.054 4.239 4.644 3.894 3.601 3.544 3.526 3.639 5.546 4.661 3.701 3.879 5.789 5.449 5.469 6.351 6.311 5.651 4.961 4.296 4.241 4.244 4.319 4.386 4.469 4.504 4.594 5.566 6.059 4.501 4.534 4.574 4.584 4.664 4.439 4.421 4.381 4.401 4.451 4.414 4.364 4.336 4.301 4.309 4.314 4.284 4.269 4.304 4.279 4.281 4.214 4.181 4.134 4.009 3.876 3.764 3.741 3.676 3.681 3.696 3.741 3.824 3.831 3.831 3.841 3.879 3.909 3.911 3.931 3.976 4.061 4.116 4.129 4.159 4.169 4.211 4.204 4.236 4.286 4.271 4.274 4.296 4.331 4.321 4.341 4.359 4.354 4.361 4.359 4.401 4.401 4.394 4.404 4.391 4.366 4.354 4.314 4.266 4.246 4.194 4.154 4.141 4.039 3.989 3.989
30.51 30.33 30.18 29.99 29.795 29.612 29.39 29.17 28.982 28.73 28.545 28.325 28.137 27.97 27.812 27.675 27.525 27.38 27.245 27.15 27.042 26.92 26.837 26.747 26.877 29.372 27.99 26.795 26.24 26.167 26.045 25.865 25.675 25.52 25.322 25.145 25.005 24.85 24.685 24.487 24.262 24.062 23.817 23.582 23.347 23.13 22.86 22.617 22.365 22.112 21.837 21.61 21.382 21.13 20.932 20.73 20.5 20.267 20.025 19.865 19.647 19.412 19.205 19.007 18.795 18.585 18.377 18.142 17.907 17.692 17.455 17.26 17.01 16.8 16.592 16.402 16.202 15.982 15.804 15.607 15.452 15.347 16.842 16.592 19.447 17.567 17.464 15.854 14.007 13.164 12.779 12.332 13.004 12.407 11.927 10.812 9.507 9.174 8.797 8.344 7.972 7.179 6.444 6.094 5.959 5.989 5.979 5.767 5.809 6.089 6.542 9.009 7.342 6.042 5.954 5.959 5.694 5.899 6.122 6.537 9.017 12.404 11.534 14.732 16.884 12.854 12.199 12.797 13.509 14.299 15.179 16.279 16.642 17.802 19.419 25.184 26.407 23.284 19.449 19.054 19.494 19.639 19.709 19.804 20.027 20.269 20.592 20.762 20.959 21.142 21.234 21.364 21.519 21.659 21.692 22.007 23.569 24.932 27.289 20.939 20.404 19.962 19.469 18.809 18.222 17.392 17.079 18.869 19.159 16.894 18.194 17.659 17.534 17.509 16.492 15.709 15.499 15.327 15.107 14.587 13.437 12.944 14.647 14.237 12.469 11.747 11.669 11.749 11.657 11.704 12.104 14.912 13.607 13.309 11.877 11.902 11.924 11.924 12.427 13.712 12.814 12.349 12.952 13.959 14.712 11.827 11.562 13.609 14.999 13.574 13.322 14.534 14.672 14.242 14.599 14.787 15.492 15.322 15.339 15.902 16.047 15.949 16.162 16.307 16.484 18.681 22.561 21.854 18.996 18.359 17.446 16.809 16.841 16.819 16.841 17.474 19.061 19.551 16.969 16.879 16.816 16.716 16.656 16.569 17.609 16.931 23.586 16.864 16.104 16.056 15.999 16.064 17.741 18.159 17.344 16.194 14.894 13.996 14.146 13.504 10.739 9.599 8.511 7.489 5.941 5.379 5.999 4.389 4.569 4.146 4.541 3.561 3.474 3.381 3.449 3.506 3.429 3.401 3.436 3.381 3.636 3.304 3.366 3.341 3.316 3.306 3.231 3.306 3.289 3.269 3.271 3.331 3.351 3.581 3.331 3.229 3.241 3.266 3.279 3.229 3.256 3.376 3.346 3.244 3.204 3.281 3.661 3.726 3.319 3.289 3.359 3.516 3.289 3.296 3.376 2.903 2.254 2.646 3.318 3.607 3.893 3.986 3.81 3.673 3.631 3.517 3.5 3.877 3.873 3.813 3.674 3.958 4.994 4.606 4.067 4.426 5.895 7.282 6.056 5.241 4.529 3.873 3.489 3.643 3.783 3.728 3.421 3.339 3.351 3.411 4.004 5.984 6.801 8.154 7.694 5.249 3.989 4.159 3.649 3.524 3.546 3.684 5.766 4.339 3.619 4.224 6.954 7.679 6.954 6.231 5.249 4.309 4.246 4.566 4.606 5.154 5.151 6.776 4.491 4.979 9.589 11.566 10.416 6.924 5.179 4.829 4.544 4.531 4.294 4.279 4.279 4.311 4.361 4.354 4.344 4.319 4.274 4.264 4.261 4.216 4.259 4.286 4.266 4.194 4.134 4.131 4.014 3.911 3.811 3.724 3.694 3.641 3.616 3.646 3.719 3.741 3.781 3.791 3.794 3.804 3.851 3.864 3.896 3.986 4.044 4.099 4.159 4.154 4.179 4.184 4.189 4.201 4.221 4.206 4.224 4.254 4.261 4.269 4.329 4.299 4.296 4.324 4.324 4.341 4.366 4.349 4.349 4.351 4.319 4.311 4.284 4.224 4.201 4.131 4.116 4.099 4.041 4.011 3.914
30.362 30.19 30.017 29.857 29.65 29.44 29.227 29.012 28.8 28.575 28.36 28.165 27.99 27.8 27.62 27.472 27.355 27.22 27.087 27.005 26.907 26.795 26.682 26.59 26.55 26.627 26.905 26.582 27.18 26.062 25.935 25.835 25.657 25.457 25.262 25.075 24.927 24.75 24.58 24.382 24.157 23.935 23.72 23.457 23.217 22.955 22.692 22.477 22.217 21.94 21.702 21.452 21.2 20.97 20.74 20.525 20.3 20.077 19.825 19.735 19.562 19.282 19.057 18.852 18.632 18.397 18.185 17.992 17.777 17.537 17.317 17.09 16.867 16.642 16.437 16.257 16.042 15.842 15.629 15.464 15.372 16.589 20.717 21.322 19.629 16.792 16.307 15.227 14.114 13.204 12.774 12.592 12.587 11.844 10.529 9.767 9.357 9.172 8.814 8.199 7.759 6.867 6.249 6.049 6.077 6.084 5.884 5.877 5.982 5.802 5.864 7.544 9.734 6.009 5.892 5.762 5.924 6.544 8.554 7.782 8.727 11.407 13.382 15.577 17.252 15.457 13.889 13.552 14.247 14.972 15.892 16.609 17.307 19.079 23.152 24.907 22.334 20.834 19.002 19.334 19.607 19.829 19.972 21.047 21.207 21.749 23.507 21.312 21.392 21.594 21.674 21.897 22.209 22.047 21.942 22.014 23.032 25.232 27.749 21.204 20.777 24.092 23.527 19.587 18.657 17.854 17.387 17.584 18.829 17.559 18.104 17.062 18.377 18.977 19.949 17.927 16.469 15.462 15.362 15.167 14.352 13.342 15.062 14.419 13.472 12.454 12.002 12.352 13.044 12.317 11.952 11.924 11.992 12.042 12.062 12.117 12.209 12.304 12.492 13.319 14.599 13.317 12.459 12.314 12.219 12.854 12.584 13.839 13.269 13.282 13.659 14.674 16.559 15.872 14.652 15.104 15.837 15.582 15.837 15.817 16.267 16.097 16.312 19.057 20.024 21.074 22.616 19.661 18.304 18.119 16.919 16.824 16.864 16.876 17.019 20.954 22.626 21.881 19.499 18.019 17.069 16.851 16.746 16.669 16.984 17.864 21.896 16.291 16.211 16.129 16.056 16.366 18.214 19.279 19.221 19.056 15.306 14.404 13.369 13.511 14.686 10.334 8.906 7.739 8.084 10.151 8.746 4.254 4.269 4.146 4.284 3.509 3.424 3.471 3.406 3.346 3.384 3.481 3.441 3.414 3.354 3.344 3.436 3.371 3.304 3.391 3.369 3.334 3.269 3.251 3.279 3.406 3.459 3.389 3.259 3.274 3.274 3.254 3.229 3.206 3.231 3.249 3.346 3.209 3.279 3.401 3.609 3.609 3.444 3.361 3.264 3.469 3.346 3.269 3.186 3.195 2.666 2.16 2.461 3.001 3.173 3.634 3.644 3.674 3.736 3.768 3.804 3.651 3.65 3.614 3.607 3.664 3.727 3.763 3.807 4.593 6.562 7.242 6.222 4.145 4.71 4.141 3.871 4.025 4.035 3.411 3.786 3.961 3.486 3.459 4.739 6.056 7.381 9.039 9.094 7.371 4.114 3.941 6.509 4.756 3.494 4.151 5.291 3.666 3.664 4.676 7.341 7.994 8.131 7.949 7.154 5.946 4.776 4.276 4.384 4.466 5.084 6.229 4.769 6.761 12.981 15.306 14.739 11.651 9.131 6.104 4.769 4.419 4.234 4.189 4.194 4.181 4.229 4.294 4.294 4.294 4.291 4.266 4.184 4.191 4.189 4.161 4.126 4.116 4.086 4.026 3.921 3.809 3.744 3.691 3.679 3.634 3.611 3.624 3.701 3.726 3.721 3.726 3.741 3.784 3.779 3.816 3.886 3.971 4.021 4.066 4.109 4.141 4.156 4.179 4.211 4.226 4.216 4.211 4.236 4.236 4.251 4.266 4.276 4.306 4.334 4.321 4.319 4.314 4.329 4.329 4.326 4.306 4.274 4.289 4.266 4.224 4.161 4.099 4.069 4.071 3.989 3.986 3.956
30.235 30.06 29.892 29.712 29.502 29.295 29.072 28.842 28.62 28.425 28.217 28.01 27.817 27.635 27.477 27.305 27.175 27.057 26.962 26.85 26.747 26.672 26.552 26.457 26.37 26.315 26.267 26.355 26.29 25.957 25.837 25.675 25.515 25.422 25.242 25.052 24.875 24.657 24.48 24.272 24.07 23.842 23.597 23.345 23.102 22.827 22.575 22.292 22.032 21.782 21.537 21.287 21.027 20.79 20.582 20.332 20.112 19.895 19.66 19.505 19.347 19.11 18.892 18.69 18.477 18.257 18.05 17.827 17.622 17.397 17.192 16.942 16.72 16.492 16.294 16.104 15.894 15.694 15.517 15.414 17.409 19.732 23.917 24.474 22.237 17.367 14.667 14.317 13.479 13.344 13.732 13.212 12.374 11.429 10.014 9.527 9.072 8.792 8.427 7.807 7.124 6.552 6.134 6.204 6.214 6.029 6.507 6.139 5.884 5.799 5.947 7.084 6.277 6.012 6.127 5.912 7.457 9.749 12.369 10.599 11.042 12.017 11.332 14.122 18.419 18.674 14.584 14.057 14.892 15.679 16.534 17.132 17.599 19.157 22.837 20.112 21.784 19.119 19.354 19.632 20.087 20.134 20.934 25.477 23.622 21.342 24.444 21.677 21.782 22.137 22.504 22.152 22.177 22.084 22.099 22.099 22.112 24.399 24.509 22.517 22.402 27.977 22.837 20.179 19.502 18.974 17.699 17.784 18.629 18.289 18.794 17.332 17.512 19.502 21.959 21.477 19.944 16.342 15.542 15.532 14.189 13.759 13.822 14.757 17.439 17.554 13.179 13.079 12.982 12.492 12.559 12.119 12.257 12.429 12.274 12.342 12.444 12.554 12.682 12.899 13.987 14.957 13.627 13.482 13.027 14.822 15.184 14.554 13.337 13.404 14.402 16.159 16.859 15.557 15.422 17.229 22.539 19.777 15.904 15.949 19.417 18.589 22.787 24.067 23.279 23.766 21.236 19.116 18.644 17.509 17.721 17.021 16.931 17.244 19.751 22.821 23.589 22.401 22.709 22.089 19.131 17.676 16.816 16.779 16.649 16.481 16.396 16.346 16.249 16.196 16.136 16.561 18.104 18.274 18.349 17.999 15.411 14.809 13.171 12.266 11.476 10.514 9.954 8.521 8.764 11.531 9.001 4.336 4.264 3.991 3.736 3.516 3.509 3.386 3.381 3.366 3.399 3.509 3.394 3.409 3.359 3.364 3.316 3.359 3.321 3.371 3.461 3.301 3.404 3.306 3.261 3.304 3.294 3.219 3.341 3.366 3.286 3.251 3.236 3.249 3.184 3.234 3.344 3.229 3.506 3.681 3.806 3.964 3.474 3.446 3.321 3.584 3.486 3.251 3.341 3.344 3.277 2.858 2.214 1.992 2.254 2.46 2.863 2.926 3.318 3.677 3.476 3.472 3.566 3.664 3.584 3.593 3.587 3.582 3.627 4.678 6.853 6.874 5.071 5.994 4.508 5.279 4.478 4.139 3.668 3.779 3.949 4.139 3.501 3.446 5.071 6.109 8.146 9.236 9.039 6.194 3.711 3.541 5.166 3.686 3.466 3.986 5.294 3.631 3.721 3.829 4.276 6.276 7.626 8.044 6.931 6.176 5.086 5.639 4.604 4.564 4.396 4.304 4.644 6.161 12.244 14.486 13.399 7.384 7.721 4.616 4.556 4.296 4.181 4.179 4.169 4.171 4.199 4.209 4.206 4.261 4.269 4.194 4.156 4.186 4.141 4.091 4.066 4.049 4.061 3.989 3.849 3.736 3.671 3.646 3.641 3.599 3.601 3.619 3.669 3.706 3.714 3.709 3.699 3.716 3.736 3.779 3.819 3.926 3.951 4.024 4.091 4.134 4.146 4.186 4.199 4.196 4.214 4.204 4.194 4.209 4.224 4.254 4.264 4.286 4.299 4.349 4.331 4.331 4.294 4.279 4.266 4.284 4.276 4.251 4.204 4.154 4.116 4.071 4.026 4.049 3.991 3.971 3.886
