ncols 440
nrows 32
xllcorner    458072
yllcorner    93926
cellsize     2
NODATA_value -9999
-2.184 -2.131 -2.201 -2.161 -2.166 -2.104 -2.099 -2.239 -2.169 -2.211 -2.219 -2.184 -2.169 -2.166 -2.186 -2.236 -2.206 -2.163 -2.148 -2.176 -2.156 -2.226 -2.171 -2.243 -2.251 -2.216 -2.171 -2.208 -2.221 -2.181 -2.118 -2.166 -2.188 -2.236 -2.196 -2.126 -2.206 -2.218 -2.193 -2.181 -2.188 -2.141 -2.171 -2.193 -2.218 -2.173 -2.218 -2.208 -2.171 -2.126 -2.186 -2.128 -2.128 -2.176 -2.161 -2.226 -2.196 -2.153 -2.178 -2.218 -2.153 -2.168 -2.213 -2.233 -2.208 -2.293 -2.153 -2.171 -2.223 -2.208 -2.151 -2.191 -2.236 -2.226 -2.133 -2.273 -2.176 -2.228 -2.163 -2.228 -2.201 -2.173 -2.248 -2.186 -2.233 -2.273 -2.248 -2.203 -2.271 -2.246 -2.256 -2.201 -2.186 -2.148 -2.251 -2.193 -2.138 -2.151 -2.248 -2.173 -2.176 -2.218 -2.246 -2.141 -2.133 -2.278 -2.258 -2.196 -9999 -9999 -2.188 -2.202 -2.231 -9999 -2.168 -2.098 -2.148 -9999 -9999 -9999 -9999 -2.3 -2.163 -9999 -9999 -2.221 -9999 -9999 -9999 -9999 -9999 -2.133 -2.17 -2.213 -9999 -9999 -9999 -2.193 -9999 -9999 -9999 -9999 -9999 -9999 -9999 -9999 -9999 -9999 -9999 -9999 -9999 -9999 -9999 -9999 -9999 -9999 -9999 -9999 -9999 -9999 -2.218 -9999 -9999 -9999 -9999 -9999 -9999 -9999 -9999 -9999 -9999 -9999 -9999 -9999 -9999 -9999 -9999 -9999 -9999 -9999 -9999 -9999 -9999 -9999 -9999 -9999 -1.883 -9999 -9999 -9999 -9999 -9999 -9999 -9999 -9999 -9999 -9999 -9999 -1.843 -9999 -9999 -2.013 -9999 -9999 -9999 -9999 -9999 -9999 -9999 -9999 -9999 -9999 -9999 -1.928 -9999 -1.858 -9999 -9999 -9999 -9999 -9999 -1.979 -9999 -9999 -9999 -9999 -9999 -9999 -9999 -9999 -9999 -9999 -9999 -9999 -9999 -9999 -9999 -9999 -9999 -9999 -9999 -9999 -9999 -9999 -9999 -9999 -9999 -9999 -9999 -9999 -9999 -9999 -9999 -9999 -9999 -9999 -9999 -9999 -9999 -9999 -9999 -9999 -9999 -9999 -9999 -9999 -9999 -9999 -9999 -9999 -9999 -9999 -9999 -9999 -9999 -9999 -9999 -9999 -9999 -9999 -9999 -9999 -9999 -9999 -9999 -9999 -9999 -9999 -9999 -9999 -9999 -9999 -9999 -9999 -9999 -9999 -9999 -9999 -9999 -9999 -9999 -9999 -9999 -9999 -9999 -9999 -9999 -9999 -9999 -9999 -9999 -9999 -9999 -9999 -9999 -9999 -9999 -9999 -9999 -9999 -9999 -9999 -9999 -9999 -9999 -9999 -9999 -9999 -9999 -9999 -9999 -9999 -9999 -9999 -9999 -9999 -9999 -9999 -9999 -9999 -9999 -9999 -9999 -9999 -9999 -9999 -9999 -9999 -9999 -2.03 -2.15 -1.995 -2.095 -2.072 -2.082 -2.032 -2.162 -2.117 -2.192 -2.03 -1.965 -2.017 -2.085 -2.125 -1.979 -2.112 -1.969 -2.057 -2.024 -2.209 -1.962 -2.057 -2.154 -1.984 -2.167 -2.082 -2.094 -2.114 -2.152 -2.074 -2.059 -2.072 -2.044 -2.074 -2.049 -2.152 -2.104 -2.134 -2.174 -2.002 -1.969 -2.099 -2.177 -2.147 -2.069 -1.984 -2.012 -2.157 -2.057 -2.199 -2.144 -1.982 -2.092 -2.119 -2.072 -2.024 -9999 -2.104 -2.137 -2.107 -2.097 -9999 -2.048 -2.134 -1.997 -2.117 -2.107 -2.099 -2.072 -2.069 -1.979 -2.064 -2.049 -2.137 -2.08 -2.159 -2.034 -2.047 -2.079 -2.064 -2.007 -2.087 -2.067 -2.007 -2.057 -2.207 -2.139 -2.002 -2.159 -1.949
-2.169 -2.136 -2.209 -2.106 -2.176 -2.116 -2.126 -2.251 -2.179 -2.204 -2.221 -2.204 -2.201 -2.231 -2.243 -2.176 -2.151 -2.146 -2.158 -2.166 -2.178 -2.248 -2.143 -2.246 -2.256 -2.163 -2.181 -2.153 -2.208 -2.213 -2.196 -2.106 -2.171 -2.193 -2.218 -2.111 -2.168 -2.186 -2.281 -2.198 -2.208 -2.148 -2.176 -2.181 -2.221 -2.153 -2.158 -2.181 -2.196 -2.133 -2.136 -2.193 -2.213 -2.226 -2.153 -2.196 -2.241 -2.193 -2.218 -2.291 -2.153 -2.128 -2.226 -2.258 -2.176 -2.231 -2.191 -2.206 -2.258 -2.153 -2.086 -2.151 -2.081 -2.143 -2.218 -2.216 -2.161 -2.081 -2.096 -2.186 -2.263 -2.256 -2.253 -2.203 -2.206 -2.253 -2.166 -2.281 -2.258 -2.178 -2.251 -2.223 -2.296 -2.203 -2.168 -2.171 -2.061 -2.148 -2.226 -2.198 -2.166 -2.198 -2.178 -2.133 -2.236 -2.201 -2.296 -2.231 -2.152 -2.173 -2.222 -2.206 -2.206 -2.213 -2.173 -2.173 -2.193 -9999 -9999 -9999 -2.305 -2.35 -2.263 -2.201 -2.258 -9999 -9999 -9999 -9999 -9999 -9999 -2.143 -2.143 -2.195 -2.213 -9999 -2.208 -2.181 -9999 -9999 -9999 -9999 -9999 -9999 -9999 -9999 -9999 -9999 -9999 -9999 -9999 -9999 -9999 -9999 -9999 -9999 -9999 -9999 -9999 -9999 -2.273 -9999 -9999 -9999 -9999 -9999 -9999 -9999 -9999 -9999 -2.188 -9999 -9999 -9999 -9999 -9999 -9999 -9999 -9999 -9999 -9999 -9999 -9999 -9999 -9999 -9999 -9999 -9999 -1.975 -1.984 -9999 -9999 -9999 -9999 -9999 -9999 -9999 -9999 -9999 -9999 -9999 -1.943 -1.958 -1.903 -2.034 -9999 -9999 -9999 -9999 -9999 -9999 -9999 -9999 -9999 -9999 -1.861 -9999 -9999 -1.918 -9999 -9999 -9999 -9999 -9999 -9999 -9999 -9999 -9999 -9999 -9999 -9999 -9999 -9999 -9999 -9999 -9999 -9999 -9999 -9999 -9999 -9999 -9999 -9999 -9999 -9999 -9999 -9999 -9999 -9999 -9999 -9999 -9999 -9999 -9999 -9999 -9999 -9999 -9999 -9999 -9999 -9999 -9999 -9999 -9999 -9999 -9999 -9999 -9999 -9999 -9999 -9999 -9999 -9999 -9999 -9999 -9999 -9999 -9999 -9999 -9999 -9999 -9999 -9999 -9999 -9999 -9999 -9999 -9999 -9999 -9999 -9999 -9999 -9999 -9999 -9999 -9999 -9999 -9999 -9999 -9999 -9999 -9999 -9999 -9999 -9999 -9999 -9999 -9999 -9999 -9999 -9999 -9999 -9999 -9999 -9999 -9999 -9999 -9999 -9999 -9999 -9999 -9999 -9999 -9999 -9999 -9999 -9999 -9999 -9999 -9999 -9999 -9999 -9999 -9999 -9999 -9999 -9999 -9999 -9999 -9999 -2.054 -9999 -9999 -9999 -9999 -9999 -9999 -9999 -1.997 -1.977 -1.992 -2.085 -2.107 -2.062 -2.057 -2.094 -2.077 -2.107 -2.107 -2.107 -1.947 -1.987 -2.1 -2.092 -2.064 -2.067 -2.014 -2.059 -2.069 -1.962 -2.069 -2.029 -2.037 -2.127 -2.087 -2.089 -2.179 -2.114 -1.937 -2.137 -2.077 -2.067 -2.262 -1.965 -2.084 -2.134 -2.057 -2.067 -2.147 -2.069 -1.992 -2.102 -2.134 -2.094 -2.037 -2.089 -2.114 -2.189 -2.037 -2.144 -2.072 -1.982 -2.069 -2.217 -2.164 -1.994 -2.09 -2.089 -2.219 -2.037 -2.117 -2.092 -2.234 -2.087 -2.154 -2.102 -2.019 -2.074 -2.162 -2.072 -1.919 -2.054 -2.124 -2.159 -2.052 -2.147 -2.044 -2.157 -1.927 -2.074 -2.202 -2.024 -2.082 -2.064 -2.217 -1.979 -2.187 -2.027 -2.089 -1.909
-2.189 -2.171 -2.201 -2.139 -2.191 -2.094 -2.084 -2.164 -2.154 -2.134 -2.179 -2.221 -2.214 -2.204 -2.181 -2.183 -2.158 -2.156 -2.146 -2.108 -2.141 -2.203 -2.151 -2.216 -2.211 -2.231 -2.248 -2.166 -2.156 -2.196 -2.211 -2.171 -2.153 -2.231 -2.241 -2.153 -2.136 -2.198 -2.223 -2.246 -2.208 -2.196 -2.186 -2.153 -2.088 -2.181 -2.163 -2.186 -2.168 -2.133 -2.156 -2.173 -2.211 -2.181 -2.133 -2.158 -2.203 -2.188 -2.243 -2.218 -2.176 -2.083 -2.196 -2.241 -2.096 -2.173 -2.163 -2.223 -2.223 -2.176 -2.168 -2.213 -2.156 -2.168 -2.208 -2.141 -2.136 -2.118 -2.186 -2.238 -2.298 -2.261 -2.233 -2.173 -2.176 -2.206 -2.176 -2.203 -2.183 -2.168 -2.281 -2.208 -2.258 -2.226 -2.228 -2.151 -2.166 -2.208 -2.236 -2.263 -2.191 -2.198 -2.156 -2.136 -2.201 -2.148 -2.263 -9999 -2.111 -2.143 -2.258 -2.218 -2.186 -2.166 -2.188 -2.12 -2.17 -2.155 -9999 -9999 -9999 -9999 -2.268 -9999 -9999 -9999 -9999 -9999 -9999 -9999 -9999 -2.138 -9999 -9999 -2.181 -2.188 -2.178 -2.158 -9999 -9999 -9999 -9999 -9999 -9999 -9999 -9999 -9999 -9999 -9999 -9999 -9999 -2.145 -9999 -9999 -9999 -9999 -9999 -9999 -9999 -9999 -9999 -9999 -9999 -9999 -9999 -9999 -9999 -9999 -9999 -9999 -9999 -9999 -9999 -9999 -9999 -9999 -9999 -9999 -9999 -9999 -9999 -9999 -9999 -9999 -9999 -9999 -9999 -9999 -9999 -9999 -9999 -9999 -9999 -9999 -9999 -9999 -9999 -9999 -9999 -9999 -9999 -1.748 -9999 -9999 -9999 -9999 -9999 -9999 -9999 -9999 -9999 -9999 -9999 -9999 -9999 -9999 -9999 -9999 -1.883 -9999 -9999 -9999 -9999 -9999 -9999 -2.003 -9999 -9999 -9999 -9999 -9999 -9999 -9999 -9999 -9999 -9999 -9999 -9999 -9999 -9999 -9999 -9999 -9999 -9999 -9999 -9999 -9999 -9999 -9999 -9999 -9999 -9999 -9999 -9999 -9999 -9999 -9999 -9999 -9999 -9999 -9999 -9999 -9999 -9999 -9999 -9999 -9999 -9999 -9999 -9999 -9999 -9999 -9999 -9999 -9999 -9999 -9999 -9999 -9999 -9999 -9999 -9999 -9999 -9999 -9999 -9999 -9999 -9999 -9999 -9999 -9999 -9999 -9999 -9999 -9999 -9999 -9999 -9999 -9999 -9999 -9999 -9999 -9999 -9999 -9999 -9999 -9999 -9999 -9999 -9999 -9999 -9999 -9999 -9999 -9999 -9999 -9999 -9999 -9999 -9999 -9999 -9999 -9999 -9999 -9999 -9999 -9999 -9999 -9999 -9999 -9999 -9999 -9999 -9999 -9999 -9999 -9999 -9999 -9999 -9999 -1.982 -9999 -9999 -9999 -2.042 -2.107 -2.115 -2.097 -2.12 -2.125 -2.115 -2.065 -2.097 -2.182 -1.987 -2.055 -2.085 -2.15 -2.217 -1.97 -2.017 -1.945 -2.13 -2.077 -2.015 -2.089 -2.022 -2.037 -2.167 -2.132 -2.052 -2.019 -2.154 -2.064 -2.047 -2.212 -2.044 -2.154 -2.072 -2.264 -2.079 -2.072 -2.062 -2.067 -2.044 -2.082 -2.107 -1.949 -2.079 -2.132 -2.129 -2.149 -2.047 -2.112 -2.002 -1.999 -2.079 -2.077 -1.984 -1.975 -1.962 -2.219 -2.147 -2.119 -2.077 -1.975 -2.027 -1.907 -2.102 -2.052 -2.064 -2.209 -2.157 -2.007 -2.084 -2.082 -2.014 -2.049 -2.104 -1.879 -2.119 -2.019 -1.919 -2.164 -2.032 -2.117 -2.124 -2.062 -2.067 -2.157 -2.112 -2.009 -2.067 -2.087 -2.197 -2.137 -2.154 -2.142 -2.139 -9999
-2.231 -2.126 -2.171 -2.149 -2.151 -2.096 -2.154 -2.186 -2.179 -2.176 -2.134 -2.246 -2.141 -2.179 -2.173 -2.216 -2.166 -2.161 -2.106 -2.108 -2.141 -2.113 -2.158 -2.216 -2.206 -2.221 -2.273 -2.171 -2.146 -2.216 -2.163 -2.153 -2.121 -2.128 -2.221 -2.178 -2.128 -2.156 -2.213 -2.231 -2.211 -2.213 -2.183 -2.201 -2.161 -2.233 -2.178 -2.163 -2.163 -2.121 -2.141 -2.166 -2.198 -2.208 -2.211 -2.191 -2.186 -2.138 -2.176 -2.188 -2.141 -2.111 -2.161 -2.188 -2.108 -2.158 -2.231 -2.188 -2.208 -2.233 -2.253 -2.313 -2.211 -2.156 -2.148 -2.153 -2.198 -2.286 -2.231 -2.166 -2.273 -2.216 -2.196 -2.221 -2.136 -2.168 -2.168 -2.166 -2.151 -2.146 -2.131 -2.176 -2.203 -2.248 -2.258 -2.176 -2.266 -2.231 -2.233 -2.273 -2.233 -2.166 -2.091 -2.133 -2.156 -2.223 -9999 -9999 -2.091 -2.098 -2.236 -2.208 -2.201 -2.266 -9999 -2.171 -2.16 -2.23 -9999 -9999 -9999 -9999 -2.323 -9999 -9999 -9999 -2.183 -2.2 -2.161 -2.123 -2.213 -2.115 -9999 -9999 -2.163 -2.173 -2.203 -2.165 -2.18 -2.191 -9999 -9999 -9999 -9999 -9999 -9999 -9999 -9999 -2.218 -9999 -9999 -9999 -9999 -2.238 -9999 -9999 -9999 -9999 -9999 -9999 -9999 -9999 -9999 -9999 -2.208 -9999 -9999 -9999 -9999 -9999 -9999 -9999 -9999 -9999 -9999 -2.228 -9999 -9999 -9999 -9999 -9999 -9999 -9999 -9999 -9999 -9999 -9999 -9999 -9999 -9999 -9999 -9999 -9999 -9999 -9999 -9999 -9999 -9999 -9999 -9999 -9999 -9999 -9999 -9999 -9999 -9999 -9999 -1.823 -9999 -9999 -9999 -9999 -9999 -9999 -9999 -9999 -9999 -9999 -9999 -9999 -9999 -9999 -9999 -9999 -9999 -9999 -9999 -9999 -9999 -9999 -9999 -9999 -9999 -9999 -9999 -9999 -9999 -9999 -9999 -9999 -9999 -9999 -9999 -9999 -9999 -9999 -9999 -9999 -9999 -9999 -9999 -9999 -9999 -9999 -9999 -9999 -9999 -9999 -9999 -9999 -9999 -9999 -9999 -9999 -9999 -9999 -9999 -9999 -9999 -9999 -9999 -9999 -9999 -9999 -9999 -9999 -9999 -9999 -9999 -9999 -9999 -9999 -9999 -9999 -9999 -9999 -9999 -9999 -9999 -9999 -9999 -9999 -9999 -9999 -9999 -9999 -9999 -9999 -9999 -9999 -9999 -9999 -9999 -9999 -9999 -9999 -9999 -9999 -9999 -9999 -9999 -9999 -9999 -9999 -9999 -9999 -9999 -9999 -9999 -9999 -9999 -9999 -9999 -9999 -9999 -9999 -9999 -9999 -9999 -9999 -9999 -9999 -9999 -9999 -9999 -9999 -9999 -9999 -9999 -9999 -2.037 -2.082 -2.002 -2.092 -2.13 -2.165 -2.157 -2.09 -2.012 -2.182 -2.085 -2.122 -2.13 -2.167 -1.9 -2.077 -2.072 -2.055 -2.012 -2.102 -1.975 -2.147 -2.132 -2.125 -2.124 -2.102 -2.139 -2.104 -2.147 -2.022 -1.969 -2.112 -2.107 -2.037 -2.167 -2.084 -2.084 -1.877 -1.952 -9999 -2.074 -2.057 -2.102 -2.104 -2.059 -2.074 -2.044 -2.01 -2.099 -2.102 -2.049 -2.042 -2.182 -2.099 -2.037 -1.987 -2.045 -2.132 -2.072 -2.074 -2.072 -1.915 -2.037 -2.207 -2.177 -2.087 -1.994 -2.077 -2.234 -2.007 -9999 -2.079 -2.099 -2.077 -1.994 -2.057 -1.997 -2.027 -2.027 -2.084 -1.944 -2.062 -9999 -2.038 -2.054 -2.052 -2.124 -2.054 -2.042 -1.967 -2.039 -2.087 -2.072 -2.139 -1.982 -2.084 -2.077 -2.002 -2.077 -2.087
-2.226 -2.204 -2.171 -2.184 -2.171 -2.089 -2.151 -2.206 -2.181 -2.169 -2.146 -2.214 -2.209 -2.169 -2.206 -2.221 -2.223 -2.186 -2.101 -2.181 -2.186 -2.146 -2.183 -2.218 -2.168 -2.193 -2.283 -2.153 -2.103 -2.211 -2.211 -2.158 -2.143 -2.098 -2.116 -2.151 -2.151 -2.208 -2.163 -2.163 -2.168 -2.213 -2.248 -2.211 -2.146 -2.146 -2.176 -2.191 -2.213 -2.211 -2.156 -2.258 -2.243 -2.271 -2.188 -2.176 -2.193 -2.243 -2.188 -2.203 -2.163 -2.133 -2.141 -2.248 -2.191 -2.158 -2.223 -2.228 -2.151 -2.198 -2.218 -2.238 -2.213 -2.211 -2.161 -2.206 -2.181 -2.146 -2.223 -2.138 -2.236 -2.228 -2.203 -2.236 -2.288 -2.181 -2.156 -2.186 -2.191 -2.178 -2.218 -2.241 -2.176 -2.236 -2.201 -2.098 -2.283 -2.151 -2.243 -2.283 -2.208 -2.208 -2.151 -2.101 -2.138 -2.163 -2.191 -2.088 -9999 -9999 -2.126 -2.171 -2.253 -2.301 -9999 -9999 -2.208 -2.188 -2.19 -9999 -9999 -9999 -2.3 -2.195 -9999 -2.203 -2.19 -2.183 -2.19 -2.118 -2.17 -2.19 -2.085 -2.123 -9999 -9999 -2.25 -2.15 -2.178 -2.233 -2.268 -2.243 -2.198 -9999 -2.203 -9999 -9999 -9999 -9999 -2.153 -9999 -9999 -9999 -2.293 -9999 -9999 -9999 -9999 -9999 -9999 -9999 -9999 -9999 -9999 -9999 -9999 -9999 -9999 -9999 -9999 -9999 -9999 -9999 -9999 -9999 -2.253 -2.168 -9999 -9999 -9999 -9999 -9999 -9999 -9999 -9999 -9999 -9999 -9999 -9999 -9999 -9999 -9999 -9999 -9999 -9999 -9999 -9999 -9999 -9999 -9999 -9999 -9999 -9999 -9999 -9999 -9999 -9999 -9999 -9999 -9999 -9999 -9999 -9999 -9999 -9999 -9999 -9999 -9999 -9999 -9999 -9999 -9999 -9999 -9999 -9999 -9999 -9999 -9999 -9999 -9999 -9999 -9999 -9999 -9999 -9999 -9999 -9999 -9999 -9999 -9999 -9999 -9999 -9999 -9999 -9999 -9999 -9999 -9999 -9999 -9999 -9999 -9999 -9999 -9999 -9999 -9999 -9999 -9999 -9999 -9999 -9999 -9999 -9999 -9999 -9999 -9999 -9999 -9999 -9999 -9999 -9999 -9999 -9999 -9999 -9999 -9999 -9999 -9999 -9999 -9999 -9999 -9999 -9999 -9999 -9999 -9999 -9999 -9999 -9999 -9999 -9999 -9999 -9999 -9999 -9999 -9999 -9999 -9999 -9999 -9999 -9999 -9999 -9999 -9999 -9999 -9999 -9999 -9999 -9999 -9999 -9999 -9999 -9999 -9999 -9999 -9999 -9999 -9999 -9999 -9999 -9999 -9999 -9999 -9999 -9999 -9999 -9999 -9999 -9999 -9999 -9999 -9999 -9999 -9999 -9999 -9999 -9999 -9999 -9999 -9999 -2.065 -2.007 -9999 -2.057 -2.21 -2.075 -2.067 -2.012 -1.93 -2.082 -1.962 -2.055 -2.125 -2.085 -2.012 -1.985 -2.055 -2.03 -1.992 -2.057 -2.05 -2.07 -2.187 -2.07 -2.044 -2.122 -9999 -2.052 -2.217 -2.102 -2.004 -2.099 -2.022 -2.089 -2.107 -2.022 -2.112 -2.034 -2.072 -1.977 -2.097 -2.067 -2.092 -2.054 -2.152 -2.142 -2.127 -1.977 -2.079 -2.009 -2.014 -2.137 -2.177 -2.044 -2.039 -2.064 -2.119 -2.022 -2.164 -2.092 -2.107 -2.057 -2.084 -2.067 -2.035 -2.027 -1.992 -2.122 -2.209 -2.087 -2.229 -2.162 -1.987 -2.062 -2.082 -2.089 -2.087 -2.059 -2.172 -2.164 -1.997 -2.104 -2.112 -2.104 -2.102 -2.019 -2.039 -2.054 -2.094 -2.054 -1.977 -2.039 -2.047 -1.909 -2.249 -2.189 -2.054 -2.107 -2.047 -2.022
-2.259 -2.154 -2.211 -2.314 -2.199 -2.121 -2.129 -2.209 -2.149 -2.136 -2.191 -2.219 -2.159 -2.181 -2.168 -2.208 -2.193 -2.226 -2.086 -2.136 -2.168 -2.133 -2.188 -2.233 -2.141 -2.171 -2.236 -2.191 -2.116 -2.128 -2.188 -2.151 -2.218 -2.148 -2.138 -2.148 -2.168 -2.163 -2.211 -2.141 -2.133 -2.263 -2.231 -2.178 -2.191 -2.158 -2.253 -2.146 -2.158 -2.201 -2.126 -2.186 -2.208 -2.188 -2.223 -2.246 -2.138 -2.228 -2.216 -2.146 -2.176 -2.133 -2.181 -2.301 -2.211 -2.113 -2.243 -2.226 -2.133 -2.223 -2.161 -2.168 -2.226 -2.186 -2.191 -2.226 -2.161 -2.073 -2.171 -2.131 -2.186 -2.213 -2.186 -2.166 -2.166 -2.203 -2.198 -2.156 -2.211 -2.181 -2.208 -2.308 -2.131 -2.151 -2.218 -2.171 -2.231 -2.181 -2.293 -2.271 -2.191 -2.196 -2.251 -2.178 -2.143 -2.183 -2.201 -2.086 -2.175 -9999 -2.192 -2.216 -9999 -9999 -2.223 -2.218 -9999 -9999 -2.288 -2.188 -2.118 -2.245 -2.16 -2.21 -2.18 -2.158 -2.18 -2.213 -2.173 -2.143 -2.16 -2.158 -2.065 -2.198 -9999 -9999 -2.243 -2.138 -2.145 -2.195 -2.183 -2.16 -9999 -9999 -2.203 -2.165 -9999 -9999 -9999 -2.138 -9999 -9999 -9999 -2.283 -2.175 -2.188 -9999 -9999 -9999 -9999 -2.168 -9999 -9999 -9999 -9999 -9999 -9999 -9999 -9999 -9999 -9999 -9999 -9999 -9999 -9999 -9999 -9999 -9999 -9999 -9999 -9999 -9999 -9999 -9999 -9999 -9999 -9999 -9999 -9999 -9999 -9999 -9999 -9999 -9999 -9999 -9999 -9999 -9999 -9999 -9999 -9999 -9999 -9999 -9999 -9999 -9999 -9999 -9999 -9999 -9999 -1.898 -9999 -9999 -9999 -9999 -1.968 -9999 -9999 -9999 -9999 -9999 -9999 -9999 -9999 -9999 -9999 -9999 -9999 -1.903 -9999 -9999 -9999 -9999 -9999 -9999 -9999 -9999 -9999 -9999 -9999 -9999 -9999 -9999 -9999 -9999 -9999 -9999 -9999 -9999 -9999 -9999 -9999 -9999 -9999 -9999 -9999 -9999 -9999 -9999 -9999 -9999 -9999 -9999 -9999 -9999 -9999 -9999 -9999 -9999 -9999 -9999 -9999 -9999 -9999 -9999 -9999 -9999 -9999 -9999 -9999 -9999 -9999 -9999 -9999 -9999 -9999 -9999 -9999 -9999 -9999 -9999 -9999 -9999 -9999 -9999 -9999 -9999 -9999 -9999 -9999 -9999 -9999 -9999 -9999 -9999 -9999 -9999 -9999 -9999 -9999 -9999 -9999 -9999 -9999 -9999 -9999 -9999 -9999 -9999 -9999 -9999 -9999 -9999 -9999 -9999 -9999 -9999 -9999 -9999 -9999 -9999 -9999 -9999 -9999 -9999 -9999 -9999 -9999 -9999 -2.027 -2.197 -9999 -2.097 -1.995 -2.135 -2.077 -2.16 -2.207 -1.92 -1.942 -1.922 -2.025 -2.08 -1.96 -2.007 -2.067 -1.935 -2.112 -2.112 -1.977 -2.015 -2.102 -2.182 -2.087 -2.117 -2.079 -2.027 -2.2 -2.095 -2.132 -2.114 -2.079 -2.017 -2.017 -2.062 -2.092 -2.02 -2.159 -2.025 -1.925 -2.177 -2.104 -2.139 -2.129 -2.062 -2.062 -2.129 -2.029 -2.017 -2.097 -2.042 -2.059 -2.257 -2.055 -2.034 -2.03 -1.97 -2.097 -2.099 -2.042 -2.257 -2.182 -2.209 -2.012 -2.114 -2.07 -2 -2.057 -2.144 -2.049 -2.069 -2.069 -2.139 -2.074 -2.064 -2.074 -2.047 -2.044 -2.102 -2.102 -2.132 -2.149 -2.024 -2.097 -2.064 -2.079 -2.107 -2.089 -9999 -2.157 -2.037 -1.974 -1.964 -2.069 -2.094 -1.972 -2.124 -1.992 -2.014 -9999
-2.259 -2.136 -2.221 -2.216 -2.219 -2.176 -2.154 -2.171 -2.169 -2.161 -2.189 -2.251 -2.164 -2.166 -2.143 -2.178 -2.158 -2.226 -2.146 -2.136 -2.206 -2.166 -2.213 -2.243 -2.121 -2.201 -2.178 -2.236 -2.103 -2.101 -2.188 -2.193 -2.191 -2.196 -2.183 -2.186 -2.208 -2.206 -2.201 -2.191 -2.156 -2.218 -2.291 -2.161 -2.108 -2.198 -2.213 -2.183 -2.183 -2.203 -2.146 -2.143 -2.198 -2.123 -2.146 -2.183 -2.093 -2.203 -2.236 -2.146 -2.141 -2.163 -2.131 -2.213 -2.193 -2.166 -2.186 -2.236 -2.126 -2.198 -2.223 -2.093 -2.193 -2.168 -2.178 -2.151 -2.181 -2.143 -2.153 -2.158 -2.143 -2.208 -2.228 -2.181 -2.148 -2.203 -2.166 -2.166 -2.228 -2.193 -2.263 -2.346 -2.063 -2.048 -2.166 -2.231 -2.278 -2.241 -2.251 -2.288 -2.208 -2.196 -2.203 -2.198 -2.176 -2.138 -2.188 -2.126 -2.151 -2.163 -2.211 -2.233 -9999 -9999 -9999 -2.185 -2.188 -9999 -9999 -2.285 -2.143 -2.158 -2.18 -2.29 -2.175 -9999 -2.143 -2.223 -2.195 -2.18 -2.105 -2.135 -2.155 -2.228 -2.155 -9999 -2.248 -2.228 -2.185 -2.153 -2.13 -9999 -9999 -9999 -9999 -9999 -9999 -9999 -9999 -9999 -2.131 -9999 -9999 -9999 -2.23 -2.233 -2.208 -2.288 -9999 -9999 -2.185 -9999 -9999 -9999 -9999 -9999 -9999 -9999 -9999 -9999 -9999 -9999 -9999 -9999 -9999 -9999 -9999 -9999 -2.308 -2.278 -9999 -9999 -9999 -9999 -9999 -9999 -9999 -9999 -9999 -9999 -9999 -9999 -9999 -9999 -9999 -1.908 -9999 -9999 -9999 -9999 -9999 -9999 -9999 -9999 -9999 -9999 -9999 -9999 -9999 -9999 -9999 -9999 -9999 -9999 -9999 -9999 -9999 -9999 -9999 -9999 -9999 -9999 -9999 -9999 -9999 -9999 -9999 -9999 -9999 -9999 -9999 -9999 -9999 -9999 -9999 -9999 -9999 -9999 -9999 -9999 -9999 -9999 -9999 -9999 -9999 -9999 -9999 -1.878 -9999 -9999 -9999 -9999 -9999 -9999 -9999 -9999 -9999 -9999 -9999 -9999 -9999 -9999 -9999 -9999 -9999 -9999 -9999 -9999 -9999 -9999 -9999 -9999 -9999 -9999 -9999 -9999 -9999 -9999 -9999 -9999 -9999 -9999 -9999 -9999 -9999 -9999 -9999 -9999 -9999 -9999 -9999 -9999 -9999 -9999 -9999 -9999 -9999 -9999 -9999 -9999 -9999 -9999 -9999 -9999 -9999 -9999 -9999 -9999 -9999 -9999 -9999 -9999 -9999 -9999 -9999 -9999 -9999 -9999 -9999 -9999 -9999 -9999 -9999 -9999 -9999 -9999 -9999 -9999 -9999 -9999 -9999 -9999 -9999 -9999 -9999 -9999 -9999 -9999 -9999 -9999 -2.11 -2.114 -2.08 -2.115 -2.06 -1.937 -2.077 -2.122 -2.107 -2.01 -1.94 -2.042 -1.995 -1.955 -2.067 -2.022 -2.022 -1.937 -2.025 -2.022 -1.955 -2.215 -2.067 -1.982 -2.124 -2.064 -2.129 -2.054 -2.142 -2.032 -2.025 -2.089 -2.084 -2.112 -2.097 -2.134 -2.114 -2.077 -2.102 -2.272 -2.125 -2.109 -2.237 -2.107 -2.052 -2.172 -2.169 -2.107 -2.064 -2.007 -2.057 -2.059 -2.102 -2.035 -2.047 -2.034 -2.102 -1.977 -2.122 -2.112 -2.099 -2.117 -1.975 -2.102 -2.079 -1.977 -1.97 -2.042 -2.132 -2.112 -2.047 -2.149 -2.137 -2.177 -1.994 -2.097 -2.052 -2.072 -2.039 -2.144 -2.047 -2.064 -2.039 -2.039 -2.137 -2.032 -2.032 -2.072 -2.099 -2.177 -2.017 -2.009 -1.979 -9999 -2.097 -2.109 -2.084 -2.057 -2.072 -2.059
-2.284 -2.164 -2.224 -2.261 -2.211 -2.156 -2.156 -2.226 -2.159 -2.144 -2.131 -2.226 -2.149 -2.131 -2.148 -2.221 -2.146 -2.206 -2.236 -2.183 -2.103 -2.201 -2.188 -2.201 -2.196 -2.176 -2.148 -2.216 -2.158 -2.163 -2.248 -2.241 -2.223 -2.178 -2.113 -2.228 -2.228 -2.206 -2.216 -2.163 -2.131 -2.163 -2.243 -2.213 -2.181 -2.153 -2.186 -2.231 -2.246 -2.256 -2.171 -2.138 -2.166 -2.168 -2.173 -2.156 -2.108 -2.168 -2.206 -2.131 -2.126 -2.198 -2.111 -2.088 -2.183 -2.196 -2.121 -2.236 -2.148 -2.166 -2.208 -2.171 -2.221 -2.168 -2.183 -2.226 -2.151 -2.138 -2.153 -2.141 -2.166 -2.168 -2.228 -2.111 -2.148 -2.206 -2.116 -2.208 -2.303 -2.128 -2.193 -2.238 -2.051 -2.031 -2.121 -2.191 -2.238 -2.203 -2.201 -2.256 -2.181 -2.171 -2.231 -2.201 -2.196 -2.171 -9999 -2.153 -2.196 -2.176 -2.228 -2.256 -2.212 -9999 -9999 -2.273 -2.22 -2.171 -2.288 -2.268 -2.195 -2.14 -2.278 -2.323 -9999 -9999 -2.198 -2.243 -2.198 -2.153 -2.145 -2.19 -2.193 -2.145 -2.15 -2.21 -2.253 -2.253 -2.13 -2.148 -2.175 -2.163 -2.168 -2.128 -2.133 -2.168 -2.185 -9999 -9999 -9999 -2.198 -9999 -9999 -9999 -9999 -9999 -9999 -9999 -9999 -9999 -2.22 -2.27 -9999 -9999 -9999 -9999 -9999 -9999 -9999 -2.148 -2.138 -2.158 -9999 -9999 -9999 -9999 -9999 -9999 -2.213 -9999 -9999 -9999 -9999 -9999 -9999 -9999 -9999 -9999 -9999 -9999 -9999 -9999 -9999 -9999 -9999 -9999 -9999 -9999 -9999 -9999 -9999 -9999 -9999 -9999 -9999 -9999 -9999 -9999 -9999 -9999 -9999 -9999 -9999 -9999 -9999 -9999 -9999 -9999 -9999 -9999 -9999 -9999 -9999 -9999 -9999 -9999 -9999 -9999 -9999 -9999 -9999 -9999 -9999 -9999 -9999 -9999 -9999 -9999 -9999 -9999 -9999 -9999 -9999 -9999 -9999 -9999 -9999 -9999 -9999 -9999 -9999 -9999 -9999 -9999 -9999 -9999 -9999 -9999 -9999 -9999 -9999 -9999 -9999 -9999 -9999 -9999 -9999 -9999 -9999 -9999 -9999 -9999 -9999 -9999 -9999 -9999 -9999 -9999 -9999 -9999 -9999 -9999 -9999 -9999 -9999 -9999 -9999 -9999 -9999 -9999 -9999 -9999 -9999 -9999 -9999 -9999 -9999 -9999 -9999 -9999 -9999 -9999 -9999 -9999 -9999 -9999 -9999 -9999 -9999 -9999 -9999 -9999 -9999 -9999 -9999 -9999 -9999 -9999 -9999 -9999 -9999 -9999 -9999 -9999 -9999 -9999 -9999 -9999 -9999 -9999 -9999 -9999 -9999 -9999 -9999 -9999 -9999 -2.047 -2.217 -2.07 -2.152 -2.105 -2.185 -2.09 -2.08 -2.137 -2.16 -2.21 -2.145 -2.052 -1.997 -2.007 -2.05 -2.117 -2.087 -2.037 -2.11 -2.045 -2.112 -1.94 -1.945 -2.065 -1.995 -2.102 -2.015 -2.104 -2.037 -1.955 -2.059 -2.092 -2.057 -1.93 -2.159 -2.132 -2.064 -2.154 -2.064 -2.037 -2.124 -2.127 -2.107 -2.127 -2.164 -2.132 -2.08 -2.067 -2.119 -2.124 -1.98 -2.079 -1.99 -2.087 -2.089 -2.057 -2.072 -2.074 -1.99 -2.037 -2.035 -2.035 -2.102 -2.052 -2.117 -2.112 -2.117 -1.942 -2.089 -2.119 -2.097 -2.182 -2.199 -2.079 -2.08 -2.099 -2.094 -2.104 -2.079 -2.024 -2.037 -2.009 -2.004 -2.182 -2.087 -2.019 -1.937 -2.047 -2.037 -2.024 -2.034 -2.054 -2.127 -2.104 -2.104 -2.092 -2.159 -2.064 -2.074 -1.979 -9999 -2.143
-2.224 -2.201 -2.211 -2.226 -2.211 -2.091 -2.144 -2.174 -2.211 -2.156 -2.116 -2.211 -2.216 -2.084 -2.136 -2.263 -2.131 -2.156 -2.246 -2.233 -2.143 -2.161 -2.236 -2.176 -2.183 -2.153 -2.126 -2.233 -2.126 -2.151 -2.176 -2.236 -2.186 -2.136 -2.141 -2.193 -2.168 -2.128 -2.208 -2.211 -2.158 -2.191 -2.198 -2.198 -2.153 -2.091 -2.116 -2.206 -2.196 -2.198 -2.193 -2.146 -2.161 -2.196 -2.288 -2.193 -2.158 -2.148 -2.236 -2.153 -2.193 -2.168 -2.126 -2.063 -2.123 -2.233 -2.201 -2.213 -2.193 -2.181 -2.211 -2.203 -2.178 -2.183 -2.166 -2.233 -2.123 -2.146 -2.193 -2.161 -2.198 -2.153 -2.218 -2.173 -2.171 -2.143 -2.156 -2.111 -2.243 -2.171 -2.231 -2.243 -2.138 -2.121 -2.158 -2.151 -2.176 -2.193 -2.236 -2.213 -2.153 -2.188 -2.266 -2.278 -2.148 -9999 -9999 -2.193 -2.253 -2.183 -2.248 -2.291 -2.176 -2.242 -2.308 -2.258 -2.21 -2.195 -2.198 -2.135 -2.14 -2.103 -2.258 -2.295 -9999 -9999 -2.258 -2.183 -2.203 -2.16 -2.185 -9999 -2.268 -2.18 -2.198 -2.193 -2.223 -2.238 -2.165 -2.143 -2.16 -9999 -2.17 -2.155 -2.155 -2.128 -2.11 -9999 -9999 -9999 -2.238 -2.155 -2.175 -2.253 -9999 -9999 -9999 -2.273 -2.268 -9999 -9999 -2.193 -2.25 -9999 -9999 -9999 -9999 -9999 -9999 -9999 -9999 -9999 -9999 -9999 -9999 -9999 -9999 -2.254 -9999 -9999 -9999 -9999 -9999 -9999 -1.875 -9999 -9999 -9999 -9999 -9999 -9999 -9999 -9999 -9999 -9999 -9999 -9999 -9999 -9999 -9999 -9999 -9999 -9999 -9999 -9999 -9999 -9999 -9999 -9999 -9999 -9999 -9999 -9999 -9999 -9999 -9999 -9999 -9999 -9999 -9999 -9999 -9999 -9999 -9999 -9999 -9999 -9999 -9999 -9999 -9999 -9999 -9999 -9999 -9999 -9999 -9999 -9999 -9999 -9999 -9999 -9999 -9999 -9999 -9999 -9999 -9999 -9999 -9999 -9999 -9999 -9999 -9999 -9999 -9999 -9999 -9999 -9999 -9999 -9999 -9999 -9999 -9999 -9999 -9999 -9999 -9999 -9999 -9999 -9999 -9999 -9999 -9999 -9999 -9999 -9999 -9999 -9999 -9999 -9999 -9999 -9999 -9999 -9999 -9999 -9999 -9999 -9999 -9999 -9999 -9999 -9999 -9999 -9999 -9999 -9999 -9999 -9999 -9999 -9999 -9999 -9999 -9999 -9999 -9999 -9999 -9999 -9999 -9999 -9999 -9999 -9999 -9999 -9999 -9999 -9999 -9999 -9999 -9999 -9999 -9999 -9999 -9999 -9999 -9999 -9999 -9999 -9999 -9999 -9999 -9999 -9999 -9999 -9999 -9999 -9999 -9999 -1.997 -2.047 -2.137 -2.102 -2.11 -2.087 -2.195 -2.075 -2.214 -2.05 -2.175 -2.26 -2.15 -2.112 -2.01 -2.012 -2.102 -1.98 -2.112 -2.042 -2.057 -2 -2.085 -2.145 -2.022 -2.1 -2.07 -2.117 -2.159 -2.084 -2.072 -2.062 -2.162 -2.057 -2.044 -2.044 -2.119 -2.157 -2.067 -2.084 -2.119 -1.922 -2.109 -2.129 -2.015 -2.092 -2.017 -2.034 -2.169 -2.097 -2.127 -2.074 -2.054 -2.032 -2.122 -2.052 -2.192 -2.017 -2.132 -2.139 -2.127 -2.037 -2.057 -2.01 -2.149 -2.127 -2.177 -2.109 -2.099 -2.104 -2.114 -2.047 -2.055 -1.962 -2.027 -2.06 -2.087 -2.092 -2.042 -2.127 -2.004 -2.079 -2.102 -2.032 -2.019 -2.112 -2.164 -2.039 -2.024 -2.037 -2.052 -2.042 -2.074 -2.042 -2.052 -2.022 -1.977 -2.084 -2.082 -2.124 -2.117 -2.144 -2.267 -2.094
-2.231 -2.189 -2.201 -2.224 -2.189 -2.129 -2.171 -2.151 -2.231 -2.184 -2.136 -2.234 -2.236 -2.069 -2.133 -2.283 -2.171 -2.208 -2.201 -2.221 -2.141 -2.146 -2.196 -2.213 -2.173 -2.128 -2.133 -2.223 -2.106 -2.128 -2.141 -2.143 -2.231 -2.166 -2.191 -2.158 -2.206 -2.131 -2.161 -2.138 -2.143 -2.266 -2.251 -2.196 -2.191 -2.108 -2.126 -2.173 -2.196 -2.171 -2.173 -2.176 -2.163 -2.158 -2.158 -2.126 -2.196 -2.173 -2.238 -2.213 -2.151 -2.173 -2.223 -2.161 -2.131 -2.188 -2.201 -2.201 -2.133 -2.151 -2.208 -2.221 -2.181 -2.176 -2.116 -2.221 -2.128 -2.141 -2.218 -2.188 -2.096 -2.173 -2.183 -2.213 -2.218 -2.176 -2.161 -2.206 -2.171 -2.198 -2.248 -2.246 -2.246 -2.158 -2.173 -2.158 -2.166 -2.198 -2.156 -2.176 -2.288 -2.208 -9999 -9999 -2.195 -2.106 -2.141 -2.218 -2.258 -2.188 -2.216 -2.278 -2.166 -2.216 -2.298 -2.295 -2.24 -2.14 -2.145 -2.19 -2.195 -2.128 -2.158 -2.22 -9999 -9999 -2.178 -2.14 -2.188 -2.16 -9999 -9999 -2.321 -2.233 -2.21 -2.225 -2.153 -2.13 -2.133 -2.093 -2.14 -9999 -9999 -2.138 -2.153 -2.198 -9999 -9999 -9999 -9999 -2.233 -2.198 -2.158 -2.213 -9999 -9999 -9999 -2.178 -2.168 -9999 -9999 -2.243 -2.26 -2.195 -9999 -9999 -9999 -9999 -9999 -9999 -9999 -9999 -9999 -9999 -2.163 -2.22 -2.22 -9999 -9999 -9999 -9999 -9999 -9999 -9999 -9999 -9999 -9999 -9999 -2.143 -2.178 -9999 -9999 -9999 -9999 -9999 -9999 -9999 -9999 -9999 -9999 -9999 -9999 -9999 -9999 -9999 -9999 -9999 -9999 -9999 -9999 -9999 -9999 -9999 -9999 -9999 -9999 -9999 -9999 -9999 -9999 -9999 -9999 -9999 -9999 -9999 -9999 -9999 -9999 -9999 -9999 -9999 -9999 -9999 -9999 -9999 -9999 -9999 -9999 -9999 -9999 -9999 -9999 -9999 -9999 -9999 -9999 -9999 -9999 -9999 -9999 -9999 -9999 -9999 -9999 -9999 -9999 -9999 -9999 -9999 -9999 -9999 -9999 -9999 -9999 -9999 -9999 -9999 -9999 -9999 -9999 -9999 -9999 -9999 -9999 -9999 -9999 -9999 -9999 -9999 -9999 -9999 -9999 -9999 -9999 -9999 -9999 -9999 -9999 -9999 -9999 -9999 -9999 -9999 -9999 -9999 -9999 -9999 -9999 -9999 -9999 -9999 -9999 -9999 -9999 -9999 -9999 -9999 -9999 -9999 -9999 -9999 -9999 -9999 -9999 -9999 -9999 -9999 -9999 -9999 -9999 -9999 -9999 -9999 -9999 -9999 -9999 -9999 -9999 -9999 -9999 -9999 -9999 -9999 -9999 -9999 -9999 -9999 -2.185 -1.962 -9999 -1.861 -2.105 -1.99 -2.125 -2.025 -2.022 -2.165 -2.127 -2.087 -2.11 -2.065 -2.097 -2 -2.047 -2.087 -2.135 -2.005 -2.127 -2.172 -2.04 -2.047 -2.175 -2.027 -2.165 -2.147 -2.042 -2.117 -2.099 -2.05 -2.124 -2.077 -1.992 -1.99 -2.104 -2.087 -2.117 -2.052 -1.997 -2.027 -2.124 -2.184 -1.977 -2.002 -2.01 -2.104 -1.997 -2.082 -2.045 -1.947 -2.079 -2.024 -2.029 -2.102 -2.112 -2.097 -2.112 -2.149 -2.117 -2.072 -2.104 -2.112 -2.234 -2.129 -2.115 -2.139 -2.015 -2.182 -2.07 -2.007 -2.022 -2.094 -2.085 -2.132 -2.077 -2.029 -2.049 -2.127 -2.067 -2.079 -2.009 -2.042 -2.139 -2.087 -2.027 -1.867 -1.922 -2.029 -2.032 -2.114 -2.054 -2.107 -2.122 -2.044 -2.042 -2.072 -2.024 -2.057 -2.092 -2.187 -2.092
-2.236 -2.199 -2.139 -2.206 -2.159 -2.146 -2.184 -2.184 -2.224 -2.156 -2.151 -2.214 -2.206 -2.179 -2.168 -2.171 -2.148 -2.133 -2.231 -2.221 -2.191 -2.128 -2.208 -2.256 -2.163 -2.141 -2.153 -2.226 -2.208 -2.161 -2.226 -2.226 -2.311 -2.163 -2.161 -2.138 -2.223 -2.163 -2.248 -2.201 -2.151 -2.123 -2.233 -2.133 -2.206 -2.206 -2.156 -2.168 -2.218 -2.243 -2.226 -2.203 -2.143 -2.181 -2.148 -2.118 -2.196 -2.181 -2.201 -2.216 -2.163 -2.121 -2.178 -2.221 -2.128 -2.156 -2.233 -2.311 -2.198 -2.131 -2.093 -2.153 -2.223 -2.166 -2.101 -2.156 -2.218 -2.136 -2.078 -2.136 -2.083 -2.213 -2.121 -2.171 -2.213 -2.198 -2.176 -2.178 -2.223 -2.213 -2.178 -2.193 -2.203 -2.198 -2.238 -2.171 -2.163 -2.141 -2.193 -2.163 -2.186 -2.238 -9999 -9999 -2.183 -2.181 -2.133 -2.196 -2.273 -2.171 -2.108 -2.201 -2.141 -2.181 -2.273 -2.245 -2.205 -2.138 -2.113 -2.165 -2.178 -2.133 -2.178 -2.198 -9999 -9999 -2.078 -2.105 -2.148 -2.12 -2.161 -2.238 -2.235 -2.19 -2.19 -2.18 -2.108 -2.138 -2.185 -2.188 -2.17 -9999 -9999 -2.203 -2.253 -2.233 -9999 -9999 -9999 -9999 -2.2 -2.22 -9999 -9999 -9999 -9999 -9999 -2.115 -2.103 -2.1 -9999 -9999 -2.27 -9999 -9999 -9999 -9999 -9999 -9999 -2.168 -9999 -9999 -9999 -2.104 -2.178 -9999 -9999 -9999 -9999 -9999 -9999 -9999 -9999 -9999 -2.288 -9999 -9999 -9999 -2.193 -2.223 -9999 -9999 -9999 -9999 -9999 -9999 -9999 -9999 -9999 -9999 -9999 -9999 -9999 -9999 -9999 -9999 -9999 -9999 -9999 -9999 -9999 -9999 -9999 -9999 -9999 -9999 -9999 -9999 -9999 -9999 -9999 -9999 -9999 -9999 -9999 -9999 -9999 -9999 -9999 -9999 -9999 -9999 -9999 -9999 -9999 -9999 -9999 -9999 -9999 -9999 -9999 -9999 -9999 -9999 -9999 -9999 -9999 -9999 -9999 -9999 -9999 -9999 -9999 -9999 -9999 -9999 -9999 -9999 -9999 -9999 -9999 -9999 -9999 -9999 -9999 -9999 -9999 -9999 -9999 -9999 -9999 -9999 -9999 -9999 -9999 -9999 -9999 -9999 -9999 -9999 -9999 -9999 -9999 -9999 -9999 -9999 -9999 -9999 -9999 -9999 -9999 -9999 -9999 -9999 -9999 -9999 -9999 -9999 -9999 -9999 -9999 -9999 -9999 -9999 -9999 -9999 -9999 -9999 -9999 -9999 -9999 -9999 -9999 -9999 -9999 -9999 -9999 -9999 -9999 -9999 -9999 -9999 -9999 -9999 -9999 -9999 -9999 -9999 -9999 -9999 -9999 -9999 -9999 -9999 -9999 -9999 -9999 -2.132 -2.057 -9999 -1.887 -2.035 -2.057 -2.127 -1.972 -2 -1.987 -2.065 -2.14 -2.127 -2.045 -2.075 -2.005 -2.04 -2.05 -2.102 -2.16 -2.075 -2.04 -2.107 -2.11 -1.98 -2.03 -2.249 -2.085 -2.047 -2.009 -2.107 -2.07 -2.102 -2.065 -2.035 -2.119 -2.035 -1.997 -2.087 -2.114 -2.107 -2.102 -2.117 -2.125 -2.052 -2.104 -2.012 -2.044 -2.017 -2.107 -2.127 -2.012 -2.197 -2.142 -2.017 -2.052 -2.06 -2.129 -2.107 -2.159 -2.109 -2.184 -2.055 -2.094 -2.125 -2.13 -2.132 -2.039 -2.12 -1.997 -2.217 -2.114 -1.987 -2.077 -2.097 -2.014 -2.114 -2.077 -2.129 -2.022 -2.062 -2.094 -2.077 -2.059 -2.052 -2.117 -2.034 -2.007 -2.122 -2.199 -2.082 -2.024 -2.059 -1.992 -2.009 -2.037 -2.079 -2.072 -2.187 -2.017 -2.107 -2.049 -2.004
-2.209 -2.204 -2.166 -2.216 -2.159 -2.149 -2.191 -2.204 -2.109 -2.154 -2.161 -2.246 -2.189 -2.181 -2.178 -2.203 -2.208 -2.206 -2.161 -2.211 -2.178 -2.108 -2.111 -2.231 -2.171 -2.211 -2.183 -2.196 -2.223 -2.238 -2.171 -2.193 -2.236 -2.166 -2.118 -2.176 -2.158 -2.181 -2.138 -2.136 -2.196 -2.171 -2.238 -2.186 -2.213 -2.181 -2.181 -2.248 -2.218 -2.226 -2.161 -2.186 -2.163 -2.133 -2.178 -2.203 -2.181 -2.153 -2.151 -2.186 -2.203 -2.151 -2.213 -2.166 -2.131 -2.211 -2.203 -2.196 -2.231 -2.156 -2.046 -2.166 -2.241 -2.198 -2.163 -2.181 -2.228 -2.226 -2.068 -2.091 -2.143 -2.213 -2.168 -2.231 -2.218 -2.143 -2.198 -2.203 -2.241 -2.133 -2.068 -2.166 -2.158 -2.158 -2.173 -2.148 -2.153 -2.156 -2.221 -2.228 -2.138 -2.241 -2.205 -2.193 -2.156 -2.216 -2.163 -2.138 -2.221 -9999 -2.043 -2.221 -2.176 -2.181 -2.2 -2.148 -2.195 -2.198 -2.098 -2.193 -2.203 -2.14 -2.158 -9999 -9999 -9999 -2.263 -2.228 -2.13 -2.12 -2.208 -2.17 -2.195 -2.183 -2.168 -9999 -9999 -2.128 -2.178 -2.21 -2.213 -2.195 -2.251 -2.241 -2.235 -2.228 -9999 -9999 -9999 -9999 -9999 -9999 -2.255 -9999 -9999 -9999 -2.198 -2.15 -2.128 -9999 -9999 -9999 -2.198 -9999 -9999 -9999 -9999 -9999 -2.134 -2.11 -9999 -9999 -9999 -2.113 -9999 -9999 -9999 -9999 -9999 -9999 -9999 -2.241 -2.208 -9999 -2.218 -9999 -9999 -9999 -9999 -9999 -9999 -9999 -9999 -9999 -9999 -9999 -9999 -9999 -9999 -9999 -9999 -9999 -9999 -9999 -9999 -9999 -9999 -9999 -9999 -9999 -9999 -9999 -9999 -9999 -9999 -9999 -9999 -9999 -9999 -9999 -9999 -9999 -9999 -9999 -9999 -9999 -9999 -9999 -9999 -9999 -9999 -9999 -9999 -9999 -9999 -9999 -9999 -9999 -9999 -9999 -9999 -9999 -9999 -9999 -9999 -9999 -9999 -9999 -9999 -9999 -9999 -9999 -9999 -9999 -9999 -9999 -9999 -9999 -9999 -9999 -9999 -9999 -9999 -9999 -9999 -9999 -9999 -9999 -9999 -9999 -9999 -9999 -9999 -9999 -9999 -9999 -9999 -9999 -9999 -9999 -9999 -9999 -9999 -9999 -9999 -9999 -9999 -9999 -9999 -9999 -9999 -9999 -9999 -9999 -9999 -9999 -9999 -9999 -9999 -9999 -9999 -9999 -9999 -9999 -9999 -9999 -9999 -9999 -9999 -9999 -9999 -9999 -9999 -9999 -9999 -9999 -9999 -9999 -9999 -9999 -9999 -9999 -9999 -9999 -9999 -9999 -9999 -9999 -9999 -9999 -9999 -9999 -9999 -9999 -9999 -9999 -9999 -2.141 -1.97 -2.044 -2.032 -2.052 -1.985 -2.092 -2.057 -2.045 -2.017 -2.02 -2.082 -2.159 -1.957 -2.062 -9999 -2.032 -2.04 -2.017 -1.995 -2.052 -2.107 -2.075 -1.977 -1.91 -2.042 -2.12 -2.094 -2.029 -1.997 -2.042 -2.144 -2.102 -2.115 -2.045 -2.045 -2.017 -2.032 -2.094 -2.015 -2.037 -2.042 -2.062 -2.127 -1.994 -1.965 -2.012 -2.065 -2.072 -2.047 -1.927 -2.074 -2.15 -2.037 -2.042 -2.067 -2.01 -1.97 -2.234 -2.015 -2.032 -2.054 -2.154 -2.119 -2.102 -1.985 -2.049 -2.027 -2.057 -2.169 -2.082 -2.102 -2.129 -2.062 -2.05 -2.082 -2.122 -2.159 -2.099 -2.127 -2.027 -2.007 -1.932 -2.109 -2.067 -2.102 -1.999 -2.124 -2.062 -2.107 -2.002 -2.092 -1.999 -2.054 -2.129 -2.047 -2.064 -2.112 -2.032 -2.002 -1.817 -2.124 -2.034
-2.171 -2.186 -2.169 -2.209 -2.171 -2.169 -2.126 -2.276 -2.156 -2.131 -2.176 -2.261 -2.111 -2.214 -2.211 -2.248 -2.211 -2.161 -2.158 -2.196 -2.213 -2.163 -2.143 -2.176 -2.118 -2.163 -2.183 -2.176 -2.251 -2.223 -2.221 -2.206 -2.261 -2.206 -2.166 -2.231 -2.151 -2.168 -2.103 -2.143 -2.181 -2.171 -2.196 -2.126 -2.188 -2.201 -2.171 -2.211 -2.198 -2.153 -2.136 -2.193 -2.158 -2.096 -2.163 -2.226 -2.251 -2.143 -2.223 -2.183 -2.208 -2.221 -2.223 -2.166 -2.151 -2.168 -2.226 -2.156 -2.188 -2.166 -2.068 -2.146 -2.188 -2.233 -2.176 -2.158 -2.236 -2.218 -2.133 -2.148 -2.191 -2.241 -2.146 -2.108 -2.171 -2.141 -2.146 -2.213 -2.186 -2.098 -2.173 -2.211 -2.193 -2.193 -2.153 -2.148 -2.128 -2.168 -2.248 -2.233 -2.148 -2.291 -2.183 -2.171 -2.193 -2.153 -2.176 -2.146 -9999 -9999 -2.112 -2.146 -2.156 -2.158 -2.188 -2.13 -2.213 -2.29 -2.145 -2.203 -2.198 -2.193 -2.055 -2.213 -9999 -9999 -9999 -2.265 -2.28 -2.208 -2.15 -2.163 -2.195 -2.205 -2.225 -2.188 -2.138 -2.128 -2.153 -2.188 -2.193 -2.138 -2.208 -2.183 -2.21 -2.218 -2.228 -9999 -9999 -9999 -9999 -9999 -9999 -9999 -9999 -9999 -2.218 -2.195 -2.175 -9999 -9999 -9999 -2.135 -9999 -9999 -9999 -9999 -9999 -9999 -2.148 -9999 -9999 -9999 -2.205 -9999 -9999 -9999 -9999 -9999 -9999 -9999 -9999 -9999 -2.168 -9999 -9999 -9999 -9999 -9999 -9999 -9999 -9999 -9999 -9999 -9999 -9999 -9999 -9999 -9999 -9999 -9999 -9999 -9999 -9999 -9999 -9999 -9999 -9999 -9999 -9999 -9999 -9999 -9999 -9999 -9999 -9999 -9999 -9999 -9999 -9999 -9999 -9999 -9999 -9999 -9999 -9999 -9999 -9999 -9999 -9999 -9999 -9999 -9999 -9999 -9999 -9999 -9999 -9999 -9999 -9999 -9999 -9999 -9999 -9999 -9999 -9999 -9999 -9999 -9999 -9999 -9999 -9999 -9999 -9999 -9999 -9999 -9999 -9999 -9999 -9999 -9999 -9999 -9999 -9999 -9999 -9999 -9999 -9999 -9999 -9999 -9999 -9999 -9999 -9999 -9999 -9999 -9999 -9999 -9999 -9999 -9999 -9999 -9999 -9999 -9999 -9999 -9999 -9999 -9999 -9999 -9999 -9999 -9999 -9999 -9999 -9999 -9999 -9999 -9999 -9999 -9999 -9999 -9999 -9999 -9999 -9999 -9999 -9999 -9999 -9999 -9999 -9999 -9999 -9999 -9999 -9999 -9999 -9999 -9999 -9999 -9999 -9999 -9999 -9999 -9999 -9999 -9999 -9999 -9999 -9999 -9999 -9999 -9999 -9999 -9999 -9999 -9999 -9999 -2 -9999 -9999 -9999 -1.934 -2.057 -2.244 -2.112 -2.02 -2.05 -2.115 -9999 -2.192 -1.99 -9999 -9999 -9999 -1.95 -2.025 -2.03 -2.164 -2.145 -2.137 -2.137 -2.047 -1.9 -2.039 -2.082 -2.044 -2.152 -2.239 -2.127 -2.032 -2.027 -2.127 -1.987 -2.025 -2.092 -2.05 -2.015 -2.137 -2.102 -2.059 -2.049 -2.102 -1.955 -2.07 -1.977 -1.95 -2.002 -2.094 -2.157 -2.144 -2.142 -2.107 -2.064 -2.102 -2.127 -2.067 -2.049 -1.95 -2.08 -2.099 -2.007 -2.117 -2.047 -2.174 -2.149 -1.98 -2.139 -2.139 -2.149 -2.07 -2.045 -2.187 -2.102 -1.982 -2.112 -2.072 -2.059 -2.089 -2.114 -2.074 -2.147 -2.022 -2.112 -2.142 -2.124 -2.007 -2.139 -2.099 -1.954 -2.062 -2.047 -2.109 -2.022 -2.062 -2.072 -2.079 -2.107 -2.104 -2.104
-2.146 -2.176 -2.271 -2.241 -2.214 -2.186 -2.114 -2.219 -2.179 -2.199 -2.181 -2.199 -2.156 -2.241 -2.183 -2.256 -2.258 -2.183 -2.178 -2.198 -2.211 -2.168 -2.168 -2.166 -2.158 -2.161 -2.236 -2.088 -2.166 -2.281 -2.163 -2.136 -2.198 -2.246 -2.176 -2.101 -2.103 -2.176 -2.081 -2.118 -2.166 -2.261 -2.228 -2.151 -2.186 -2.253 -2.141 -2.226 -2.218 -2.108 -2.143 -2.231 -2.166 -2.096 -2.203 -2.198 -2.266 -2.201 -2.163 -2.196 -2.191 -2.188 -2.196 -2.176 -2.126 -2.191 -2.163 -2.168 -2.133 -2.266 -2.173 -2.151 -2.173 -2.218 -2.218 -2.093 -2.196 -2.206 -2.141 -2.208 -2.188 -2.241 -2.196 -2.216 -2.203 -2.123 -2.148 -2.183 -2.193 -2.186 -2.168 -2.223 -2.186 -2.201 -2.093 -2.171 -2.143 -2.186 -2.198 -2.181 -2.211 -2.193 -2.263 -2.256 -2.231 -2.178 -2.186 -2.171 -2.153 -2.218 -2.238 -2.208 -2.216 -2.211 -2.183 -2.168 -2.235 -2.323 -2.18 -2.183 -2.185 -2.178 -2.128 -2.255 -9999 -9999 -9999 -2.245 -9999 -2.213 -2.175 -2.22 -2.105 -2.113 -2.175 -2.188 -2.133 -9999 -9999 -2.153 -2.17 -2.188 -2.225 -2.13 -2.093 -9999 -9999 -9999 -9999 -9999 -9999 -9999 -9999 -2.205 -2.263 -2.258 -2.248 -2.22 -2.223 -9999 -9999 -2.265 -2.27 -9999 -9999 -9999 -9999 -9999 -9999 -2.153 -2.044 -9999 -2.158 -9999 -9999 -2.178 -9999 -2.098 -9999 -9999 -9999 -9999 -9999 -9999 -9999 -9999 -9999 -9999 -9999 -9999 -9999 -9999 -9999 -9999 -2.278 -2.203 -9999 -9999 -9999 -9999 -9999 -9999 -9999 -9999 -9999 -9999 -9999 -9999 -9999 -9999 -1.893 -9999 -9999 -9999 -9999 -9999 -9999 -9999 -9999 -9999 -9999 -9999 -9999 -9999 -9999 -9999 -9999 -9999 -9999 -9999 -9999 -9999 -9999 -9999 -9999 -9999 -9999 -9999 -9999 -9999 -9999 -9999 -9999 -9999 -9999 -9999 -9999 -9999 -9999 -9999 -9999 -9999 -9999 -9999 -9999 -9999 -9999 -9999 -9999 -9999 -9999 -9999 -9999 -9999 -9999 -9999 -9999 -9999 -9999 -9999 -9999 -9999 -9999 -9999 -9999 -9999 -9999 -9999 -9999 -9999 -9999 -9999 -9999 -9999 -9999 -9999 -9999 -9999 -9999 -9999 -9999 -9999 -9999 -9999 -9999 -9999 -9999 -9999 -9999 -9999 -9999 -9999 -9999 -9999 -9999 -9999 -9999 -9999 -9999 -9999 -9999 -9999 -9999 -9999 -9999 -9999 -9999 -9999 -9999 -9999 -9999 -9999 -9999 -9999 -9999 -9999 -9999 -9999 -9999 -9999 -9999 -9999 -9999 -9999 -9999 -9999 -9999 -9999 -9999 -9999 -2.012 -9999 -9999 -9999 -9999 -2.217 -2.075 -2.112 -9999 -9999 -2.1 -2.152 -2.035 -2.037 -2.162 -2.025 -2.042 -2.055 -2.037 -2.01 -2.052 -2.11 -9999 -9999 -2.052 -2.107 -2.062 -2.197 -2.137 -2.302 -1.962 -1.982 -9999 -2.144 -1.97 -2.144 -1.972 -2.104 -2.072 -2.159 -2.017 -2.087 -2.172 -2.087 -2.035 -2.145 -2.01 -1.992 -2.152 -2.177 -2.114 -2.122 -2.202 -2.089 -2.197 -2.08 -2.062 -1.985 -1.992 -1.992 -2.054 -2.009 -1.962 -2.189 -2.139 -2.079 -2.052 -2.122 -2.04 -2.197 -1.997 -2.045 -2.032 -2.047 -2.064 -2.149 -2.032 -2.007 -2.029 -2.149 -2.049 -2.099 -2.151 -2.107 -2.072 -2.039 -1.977 -2.014 -2.104 -2.092 -2.134 -2.082 -2.109 -1.944 -2.032 -2.199 -2.004 -2.186 -2.052 -2.114
-2.221 -2.124 -2.209 -2.299 -2.191 -2.184 -2.219 -2.224 -2.159 -2.171 -2.209 -2.184 -2.094 -2.171 -2.121 -2.201 -2.233 -2.243 -2.161 -2.241 -2.183 -2.126 -2.181 -2.161 -2.126 -2.183 -2.253 -2.103 -2.118 -2.231 -2.158 -2.226 -2.173 -2.248 -2.191 -2.136 -2.036 -2.191 -2.118 -2.148 -2.138 -2.218 -2.173 -2.171 -2.206 -2.221 -2.113 -2.213 -2.276 -2.118 -2.213 -2.208 -2.148 -2.071 -2.166 -2.098 -2.146 -2.191 -2.181 -2.221 -2.231 -2.201 -2.236 -2.228 -2.151 -2.183 -2.126 -2.156 -2.206 -2.293 -2.168 -2.183 -2.181 -2.193 -2.243 -2.208 -2.183 -2.253 -2.173 -2.111 -2.126 -2.218 -2.203 -2.291 -2.233 -2.221 -2.168 -2.188 -2.188 -2.171 -2.228 -2.206 -2.181 -2.221 -2.176 -2.173 -2.188 -2.248 -2.218 -2.241 -2.193 -2.138 -2.176 -2.233 -2.211 -2.171 -2.201 -2.193 -2.238 -2.281 -2.271 -2.216 -2.188 -2.233 -2.198 -2.22 -2.265 -2.185 -2.233 -2.16 -2.088 -2.205 -2.2 -2.175 -9999 -9999 -9999 -9999 -9999 -9999 -2.183 -2.218 -2.19 -2.09 -2.113 -2.198 -9999 -9999 -9999 -9999 -2.188 -2.213 -2.235 -2.155 -2.085 -9999 -9999 -9999 -9999 -9999 -9999 -9999 -2.131 -2.19 -2.175 -2.223 -9999 -9999 -2.173 -9999 -9999 -9999 -2.281 -2.18 -2.178 -9999 -9999 -9999 -2.168 -9999 -9999 -9999 -9999 -9999 -9999 -2.158 -9999 -9999 -9999 -9999 -9999 -9999 -9999 -9999 -9999 -9999 -9999 -9999 -9999 -9999 -9999 -9999 -9999 -9999 -9999 -2.184 -9999 -9999 -9999 -9999 -2.163 -9999 -9999 -9999 -9999 -9999 -9999 -9999 -9999 -9999 -9999 -9999 -9999 -9999 -9999 -9999 -9999 -9999 -9999 -9999 -9999 -9999 -9999 -9999 -9999 -9999 -9999 -9999 -9999 -9999 -9999 -9999 -9999 -9999 -9999 -9999 -9999 -9999 -9999 -9999 -9999 -9999 -9999 -9999 -9999 -9999 -9999 -9999 -9999 -9999 -9999 -9999 -9999 -9999 -9999 -9999 -9999 -9999 -9999 -9999 -9999 -9999 -9999 -9999 -9999 -9999 -9999 -9999 -9999 -9999 -9999 -9999 -9999 -9999 -9999 -9999 -9999 -9999 -9999 -9999 -9999 -9999 -9999 -9999 -9999 -9999 -9999 -9999 -9999 -9999 -9999 -9999 -9999 -9999 -9999 -9999 -9999 -9999 -9999 -9999 -9999 -9999 -9999 -9999 -9999 -9999 -9999 -9999 -9999 -9999 -9999 -9999 -9999 -9999 -9999 -9999 -9999 -9999 -9999 -9999 -9999 -9999 -9999 -9999 -9999 -9999 -9999 -9999 -9999 -9999 -9999 -9999 -9999 -9999 -9999 -9999 -9999 -9999 -9999 -9999 -2.072 -9999 -2.077 -2.116 -2.022 -1.917 -2.055 -9999 -2.197 -2.122 -2.015 -9999 -2.032 -2.047 -2.052 -2.015 -2.047 -2.157 -1.987 -1.937 -2.007 -1.97 -2.048 -9999 -2.112 -2.002 -2.012 -2.007 -2.137 -2.005 -2.035 -2.107 -2.232 -2.099 -2.112 -2 -2.154 -2.099 -2.129 -2.012 -2.109 -2.079 -2.109 -1.95 -2.092 -2.117 -2.065 -2.094 -2.197 -2.109 -2.1 -1.96 -2.139 -2.157 -2.052 -2.002 -2.002 -2.019 -2.032 -2.062 -2.102 -2.027 -2.03 -2.107 -2.05 -2.042 -1.987 -1.99 -1.987 -2.132 -2.157 -2.112 -2.177 -2.097 -2.039 -2.037 -2.107 -2.067 -2.107 -2.132 -2.094 -1.945 -2.002 -2.072 -2.057 -2.022 -2.069 -2.174 -2.102 -2.024 -2.074 -2.104 -2.164 -2.057 -1.999 -2.129 -2.037 -2.044 -2.137 -2.044
-2.236 -2.149 -2.214 -2.311 -2.171 -2.186 -2.234 -2.156 -2.139 -2.164 -2.214 -2.134 -2.189 -2.211 -2.128 -2.201 -2.258 -2.246 -2.203 -2.106 -2.166 -2.148 -2.181 -2.156 -2.116 -2.126 -2.158 -2.113 -2.158 -2.203 -2.283 -2.171 -2.181 -2.266 -2.146 -2.176 -2.178 -2.176 -2.218 -2.093 -2.093 -2.258 -2.168 -2.133 -2.238 -2.201 -2.131 -2.248 -2.308 -2.153 -2.178 -2.211 -2.143 -2.136 -2.163 -2.161 -2.228 -2.178 -2.221 -2.248 -2.221 -2.221 -2.266 -2.198 -2.181 -2.208 -2.161 -2.151 -2.226 -2.196 -2.211 -2.178 -2.168 -2.186 -2.288 -2.178 -2.158 -2.233 -2.293 -2.156 -2.118 -2.183 -2.128 -2.188 -2.231 -2.243 -2.183 -2.173 -2.138 -2.106 -2.258 -2.193 -2.181 -2.233 -2.196 -2.148 -2.191 -2.231 -2.156 -2.168 -2.216 -2.188 -2.136 -2.181 -2.221 -2.266 -2.246 -2.191 -2.193 -2.216 -2.253 -2.236 -2.176 -2.176 -2.225 -2.268 -2.28 -9999 -9999 -9999 -2.125 -2.268 -2.258 -2.155 -2.165 -2.193 -2.248 -2.158 -9999 -2.148 -2.168 -2.198 -2.188 -9999 -2.095 -2.15 -9999 -9999 -9999 -9999 -9999 -2.185 -2.195 -2.173 -2.113 -9999 -9999 -9999 -9999 -9999 -9999 -9999 -2.185 -2.235 -2.285 -9999 -9999 -9999 -2.128 -2.093 -9999 -9999 -2.281 -2.188 -2.195 -9999 -9999 -9999 -2.168 -9999 -9999 -9999 -2.18 -2.113 -9999 -9999 -9999 -9999 -9999 -9999 -9999 -9999 -9999 -9999 -9999 -9999 -9999 -9999 -9999 -9999 -9999 -9999 -9999 -9999 -9999 -9999 -9999 -9999 -9999 -9999 -9999 -9999 -9999 -9999 -9999 -9999 -9999 -9999 -9999 -9999 -9999 -9999 -9999 -9999 -9999 -9999 -9999 -9999 -9999 -9999 -9999 -9999 -9999 -9999 -9999 -9999 -9999 -9999 -9999 -9999 -9999 -9999 -9999 -9999 -9999 -9999 -9999 -9999 -9999 -9999 -9999 -9999 -9999 -9999 -9999 -9999 -9999 -9999 -9999 -9999 -9999 -9999 -9999 -9999 -9999 -9999 -9999 -9999 -9999 -9999 -9999 -9999 -9999 -9999 -9999 -9999 -9999 -9999 -9999 -9999 -9999 -9999 -9999 -9999 -9999 -9999 -9999 -9999 -9999 -9999 -9999 -9999 -9999 -9999 -9999 -9999 -9999 -9999 -9999 -9999 -9999 -9999 -9999 -9999 -9999 -9999 -9999 -9999 -9999 -9999 -9999 -9999 -9999 -9999 -9999 -9999 -9999 -9999 -9999 -9999 -9999 -9999 -9999 -9999 -9999 -9999 -9999 -9999 -9999 -9999 -9999 -9999 -9999 -9999 -9999 -9999 -9999 -9999 -9999 -9999 -9999 -9999 -9999 -9999 -9999 -9999 -9999 -9999 -9999 -9999 -9999 -2.074 -9999 -2.117 -2.085 -9999 -2.021 -2.075 -2.202 -2.017 -9999 -2.174 -9999 -9999 -9999 -2.139 -2.087 -1.96 -9999 -1.901 -2.072 -2.062 -2.135 -2.262 -2.06 -2.089 -2.042 -2.152 -1.997 -2.002 -2.075 -2.122 -2.134 -2.067 -2.039 -2.064 -2.052 -2.087 -2.132 -2.014 -1.997 -2.005 -1.997 -2.062 -2.015 -2.024 -2.087 -2.064 -2.107 -2.184 -2.097 -2.179 -2.027 -2.092 -2.042 -2.002 -1.984 -1.87 -2.124 -2.127 -2.027 -2.137 -2.092 -2.032 -2.085 -2.149 -2.137 -2.077 -2.149 -2.052 -2.042 -2.107 -2.137 -2.124 -2.064 -2.004 -2.054 -2.019 -2.194 -1.957 -2.124 -2.037 -2.092 -2.062 -2.037 -2.003 -2.157 -2.189 -2.057 -2.131 -2.099 -2.179 -2.114 -1.995 -2.009 -2.164 -2.052 -2.077 -2.082 -1.997
-2.199 -2.134 -2.194 -2.266 -2.161 -2.176 -2.194 -2.194 -2.149 -2.131 -2.219 -2.129 -2.221 -2.146 -2.136 -2.161 -2.238 -2.221 -2.223 -2.101 -2.163 -2.231 -2.206 -2.156 -2.113 -2.131 -2.141 -2.121 -2.211 -2.161 -2.213 -2.178 -2.181 -2.243 -2.206 -2.198 -2.173 -2.181 -2.218 -2.126 -2.076 -2.166 -2.161 -2.183 -2.238 -2.163 -2.123 -2.203 -2.208 -2.181 -2.271 -2.218 -2.166 -2.208 -2.148 -2.198 -2.248 -2.126 -2.223 -2.273 -2.203 -2.176 -2.208 -2.153 -2.188 -2.223 -2.143 -2.133 -2.158 -2.173 -2.186 -2.068 -2.198 -2.208 -2.253 -2.236 -2.231 -2.161 -2.191 -2.196 -2.183 -2.196 -2.146 -2.143 -2.146 -2.161 -2.118 -2.166 -2.171 -2.093 -2.203 -2.243 -2.178 -2.308 -2.153 -2.136 -2.158 -2.161 -2.123 -2.156 -2.191 -2.223 -2.161 -2.183 -2.193 -2.236 -2.263 -2.231 -2.216 -2.238 -2.176 -2.248 -2.211 -2.118 -2.22 -2.248 -2.228 -9999 -2.258 -2.235 -2.14 -2.293 -2.203 -2.203 -2.21 -2.17 -2.215 -2.163 -2.125 -2.155 -2.168 -2.205 -9999 -9999 -2.123 -2.178 -2.23 -2.175 -9999 -9999 -9999 -9999 -2.158 -9999 -9999 -9999 -9999 -9999 -9999 -2.148 -9999 -2.223 -2.245 -2.26 -2.248 -2.188 -9999 -9999 -9999 -2.111 -2.168 -2.185 -2.243 -2.225 -2.228 -9999 -9999 -9999 -9999 -9999 -9999 -9999 -2.155 -2.118 -2.155 -9999 -9999 -9999 -9999 -9999 -2.203 -9999 -9999 -9999 -9999 -9999 -9999 -9999 -9999 -2.183 -9999 -9999 -9999 -9999 -9999 -9999 -9999 -9999 -9999 -9999 -9999 -9999 -9999 -9999 -9999 -9999 -9999 -9999 -9999 -9999 -9999 -9999 -9999 -9999 -9999 -9999 -9999 -9999 -9999 -9999 -9999 -9999 -9999 -9999 -9999 -9999 -9999 -9999 -9999 -9999 -9999 -9999 -9999 -9999 -9999 -9999 -9999 -9999 -9999 -9999 -9999 -9999 -9999 -9999 -9999 -9999 -9999 -9999 -9999 -9999 -9999 -9999 -9999 -9999 -9999 -9999 -9999 -9999 -9999 -9999 -9999 -9999 -9999 -9999 -9999 -9999 -9999 -9999 -9999 -9999 -9999 -9999 -9999 -9999 -9999 -9999 -9999 -9999 -9999 -9999 -9999 -9999 -9999 -9999 -9999 -9999 -9999 -9999 -9999 -9999 -9999 -9999 -9999 -9999 -9999 -9999 -9999 -9999 -9999 -9999 -9999 -9999 -9999 -9999 -9999 -9999 -9999 -9999 -9999 -9999 -9999 -9999 -9999 -9999 -9999 -9999 -9999 -9999 -9999 -9999 -9999 -9999 -9999 -9999 -9999 -9999 -9999 -9999 -9999 -9999 -9999 -9999 -9999 -9999 -9999 -9999 -9999 -9999 -9999 -9999 -9999 -9999 -2.001 -2.145 -2.115 -1.982 -2.165 -9999 -2.164 -2.027 -1.98 -2.132 -2.032 -2.107 -9999 -2.007 -2.03 -1.975 -2.115 -2.02 -2.112 -2.167 -2.142 -2.239 -2.139 -2.08 -2.037 -2.082 -2.067 -2.137 -1.97 -2.167 -2.092 -2.017 -1.994 -2.089 -2.027 -2.057 -2.097 -1.997 -2.092 -2.007 -2.015 -1.97 -1.96 -2.092 -2.212 -2.159 -2.075 -2.04 -2.025 -2.064 -1.91 -2.1 -2.199 -2.087 -2.077 -2 -2.162 -2.139 -2.084 -2.147 -2.109 -2.157 -2.114 -2.045 -2.047 -2.244 -2.087 -2.025 -2.015 -2.124 -2.157 -2.092 -2.032 -2.017 -2.129 -2.029 -2.069 -2.087 -2.137 -2.069 -2.032 -1.984 -2.072 -2.067 -2.052 -2.087 -2.219 -2.03 -2.042 -2.162 -2.134 -2.052 -2.002 -2.102 -2.191 -2.087 -2.137 -2.017
-2.176 -2.146 -2.154 -2.254 -2.214 -2.201 -2.199 -2.116 -2.151 -2.131 -2.206 -2.159 -2.199 -2.146 -2.136 -2.086 -2.188 -2.211 -2.253 -2.148 -2.123 -2.238 -2.146 -2.228 -2.193 -2.143 -2.083 -2.173 -2.203 -2.138 -2.211 -2.156 -2.163 -2.201 -2.146 -2.211 -2.188 -2.218 -2.211 -2.183 -2.156 -2.183 -2.101 -2.168 -2.168 -2.171 -2.096 -2.218 -2.128 -2.158 -2.251 -2.206 -2.161 -2.213 -2.158 -2.148 -2.133 -2.128 -2.261 -2.296 -2.213 -2.153 -2.198 -2.193 -2.178 -2.248 -2.163 -2.163 -2.173 -2.113 -2.166 -2.158 -2.121 -2.181 -2.176 -2.233 -2.213 -2.168 -2.213 -2.188 -2.141 -2.181 -2.216 -2.156 -2.148 -2.133 -2.163 -2.193 -2.193 -2.163 -2.208 -2.213 -2.143 -2.238 -2.158 -2.168 -2.143 -2.123 -2.156 -2.196 -2.121 -2.208 -2.196 -2.161 -2.171 -2.213 -2.211 -2.178 -2.211 -2.241 -2.163 -2.213 -2.296 -2.201 -2.193 -2.243 -2.26 -2.188 -2.265 -2.273 -2.34 -2.238 -2.098 -2.23 -2.18 -9999 -9999 -2.195 -2.25 -2.22 -2.16 -2.303 -2.173 -2.135 -2.161 -2.185 -2.2 -2.243 -9999 -9999 -9999 -9999 -2.143 -9999 -9999 -2.178 -9999 -9999 -9999 -2.163 -2.148 -2.153 -9999 -9999 -9999 -9999 -9999 -9999 -9999 -9999 -9999 -2.183 -9999 -9999 -9999 -9999 -9999 -9999 -2.098 -2.2 -9999 -9999 -9999 -9999 -2.193 -9999 -9999 -2.208 -9999 -9999 -9999 -9999 -2.228 -2.203 -2.188 -9999 -9999 -9999 -9999 -2.163 -2.138 -9999 -9999 -9999 -9999 -9999 -9999 -9999 -9999 -9999 -9999 -9999 -9999 -9999 -9999 -9999 -9999 -9999 -9999 -9999 -9999 -9999 -9999 -9999 -9999 -9999 -9999 -9999 -9999 -9999 -9999 -9999 -9999 -9999 -9999 -9999 -9999 -9999 -9999 -9999 -9999 -9999 -9999 -9999 -9999 -9999 -9999 -9999 -9999 -9999 -9999 -9999 -9999 -9999 -9999 -9999 -9999 -9999 -9999 -9999 -9999 -9999 -9999 -9999 -9999 -9999 -9999 -9999 -9999 -9999 -9999 -9999 -9999 -9999 -9999 -9999 -9999 -9999 -9999 -9999 -9999 -9999 -9999 -9999 -9999 -9999 -9999 -9999 -9999 -9999 -9999 -9999 -9999 -9999 -9999 -9999 -9999 -9999 -9999 -9999 -9999 -9999 -9999 -9999 -9999 -9999 -9999 -9999 -9999 -9999 -9999 -9999 -9999 -9999 -9999 -9999 -9999 -9999 -9999 -9999 -9999 -9999 -9999 -9999 -9999 -9999 -9999 -9999 -9999 -9999 -9999 -9999 -9999 -9999 -9999 -9999 -9999 -9999 -9999 -9999 -9999 -9999 -9999 -9999 -9999 -9999 -9999 -9999 -9999 -9999 -9999 -9999 -9999 -2.091 -2.014 -1.925 -2.055 -2.097 -2.102 -9999 -2.082 -1.945 -2.187 -2.13 -2.081 -2.122 -1.967 -2.139 -2.02 -2.05 -2.059 -1.955 -2.082 -2.097 -1.982 -2.062 -2.124 -2.147 -2.082 -2.064 -1.855 -2.114 -2.052 -2.05 -1.995 -2.094 -2.162 -2.144 -2.057 -2.042 -1.925 -2.047 -2.042 -1.982 -2.037 -2.064 -2.05 -2.089 -2.062 -2.094 -2.007 -2.072 -2.107 -2.087 -2.032 -1.918 -2.139 -2.039 -2.147 -2.107 -2.042 -2.03 -2.142 -2.296 -2.189 -2.06 -2.052 -2.074 -2.057 -2.039 -2.002 -1.997 -2.092 -2.107 -2.139 -2.029 -2.169 -2.039 -2.074 -2.099 -2.134 -2.047 -2.086 -2.029 -2.184 -2.089 -2.109 -2.072 -2.099 -2.174 -2.077 -2.084 -2.009 -2.104 -2.012 -2.099 -2.097 -2.034 -2.022 -2.025
-2.229 -2.161 -2.174 -2.271 -2.209 -2.164 -2.231 -2.186 -2.219 -2.174 -2.136 -2.186 -2.166 -2.136 -2.143 -2.148 -2.128 -2.221 -2.268 -2.166 -2.173 -2.298 -2.168 -2.198 -2.283 -2.118 -2.186 -2.173 -2.181 -2.128 -2.161 -2.136 -2.186 -2.126 -2.171 -2.223 -2.178 -2.181 -2.196 -2.141 -2.138 -2.136 -2.136 -2.166 -2.171 -2.126 -2.061 -2.118 -2.121 -2.198 -2.226 -2.213 -2.143 -2.173 -2.066 -2.151 -2.163 -2.108 -2.206 -2.253 -2.176 -2.208 -2.171 -2.151 -2.158 -2.216 -2.166 -2.133 -2.236 -2.206 -2.168 -2.178 -2.143 -2.211 -2.106 -2.171 -2.251 -2.188 -2.206 -2.253 -2.116 -2.201 -2.196 -2.138 -2.156 -2.143 -2.178 -2.243 -2.291 -2.223 -2.273 -2.278 -2.171 -2.211 -2.143 -2.143 -2.161 -2.078 -2.121 -2.221 -2.133 -2.121 -2.206 -2.118 -2.138 -2.136 -2.111 -2.123 -2.166 -2.181 -2.128 -2.198 -2.221 -2.196 -2.205 -2.158 -2.205 -2.2 -2.148 -2.195 -2.255 -2.145 -2.143 -2.273 -2.215 -9999 -9999 -2.185 -2.25 -2.228 -2.093 -2.238 -2.155 -2.123 -2.185 -2.135 -2.233 -2.268 -2.158 -9999 -9999 -9999 -9999 -9999 -9999 -9999 -2.148 -9999 -9999 -2.208 -2.148 -2.153 -9999 -9999 -9999 -9999 -9999 -9999 -9999 -9999 -2.208 -2.25 -9999 -9999 -9999 -9999 -2.058 -2.063 -9999 -2.211 -9999 -9999 -9999 -9999 -9999 -9999 -9999 -9999 -9999 -9999 -9999 -9999 -9999 -2.17 -2.243 -2.228 -2.184 -2.228 -2.233 -9999 -9999 -9999 -9999 -9999 -9999 -9999 -9999 -9999 -9999 -2.263 -9999 -9999 -9999 -9999 -9999 -9999 -9999 -9999 -9999 -9999 -9999 -9999 -9999 -9999 -9999 -9999 -9999 -9999 -9999 -9999 -9999 -1.898 -9999 -9999 -9999 -9999 -9999 -9999 -9999 -9999 -9999 -9999 -9999 -9999 -9999 -9999 -9999 -9999 -9999 -9999 -9999 -9999 -9999 -9999 -9999 -9999 -9999 -9999 -9999 -9999 -9999 -9999 -9999 -9999 -9999 -9999 -9999 -9999 -9999 -9999 -9999 -9999 -9999 -9999 -9999 -9999 -9999 -9999 -9999 -9999 -9999 -9999 -9999 -9999 -9999 -9999 -9999 -9999 -9999 -9999 -9999 -9999 -9999 -9999 -9999 -9999 -9999 -9999 -9999 -9999 -9999 -9999 -9999 -9999 -9999 -9999 -9999 -9999 -9999 -9999 -9999 -9999 -9999 -9999 -9999 -9999 -9999 -9999 -9999 -9999 -9999 -9999 -9999 -9999 -9999 -9999 -9999 -9999 -9999 -9999 -9999 -9999 -9999 -9999 -9999 -9999 -9999 -9999 -9999 -9999 -9999 -9999 -9999 -9999 -9999 -9999 -9999 -9999 -9999 -9999 -9999 -9999 -9999 -9999 -9999 -9999 -2.137 -9999 -9999 -2.057 -9999 -2.037 -2.012 -2.04 -2.009 -9999 -9999 -1.99 -2.022 -1.965 -1.875 -1.982 -2.05 -2.057 -2.045 -2.057 -2.112 -2.089 -2.027 -2.06 -2.015 -2.167 -2.214 -2.04 -1.992 -2.032 -2.07 -2.212 -2.06 -2.069 -2.067 -2.137 -2.137 -2.117 -1.969 -2.025 -2.216 -2.157 -2.032 -1.995 -1.99 -2.094 -2.097 -2.067 -2.062 -2.064 -2.149 -2.114 -1.997 -1.925 -2.027 -2.047 -2.074 -2.094 -2.182 -2.057 -2.152 -2.09 -2.059 -1.987 -1.927 -2.027 -2.052 -2.102 -2.039 -2.034 -2.039 -2.134 -2.074 -2.204 -1.997 -2.104 -2.034 -2.114 -2.221 -2.052 -2.024 -2.104 -2.132 -2.117 -2.087 -2.067 -2.084 -2.047 -2.094 -2.082 -2.156 -2.057 -2.014 -2.05
-2.171 -2.216 -2.166 -2.191 -2.246 -2.159 -2.199 -2.201 -2.231 -2.156 -2.124 -2.226 -2.161 -2.164 -2.126 -2.161 -2.151 -2.128 -2.176 -2.176 -2.163 -2.186 -2.163 -2.201 -2.278 -2.126 -2.218 -2.121 -2.208 -2.143 -2.111 -2.151 -2.183 -2.133 -2.188 -2.193 -2.148 -2.198 -2.183 -2.098 -2.163 -2.151 -2.176 -2.163 -2.158 -2.163 -2.201 -2.146 -2.231 -2.251 -2.241 -2.151 -2.238 -2.201 -2.118 -2.146 -2.238 -2.178 -2.108 -2.156 -2.118 -2.203 -2.188 -2.131 -2.186 -2.231 -2.116 -2.158 -2.208 -2.226 -2.221 -2.156 -2.151 -2.241 -2.046 -2.183 -2.213 -2.243 -2.138 -2.378 -2.133 -2.206 -2.193 -2.176 -2.143 -2.221 -2.236 -2.183 -2.253 -2.168 -2.168 -2.143 -2.196 -2.241 -2.231 -2.103 -2.231 -2.131 -2.093 -2.181 -2.161 -2.156 -2.153 -2.168 -2.221 -2.161 -2.161 -2.191 -2.248 -2.153 -2.151 -2.191 -2.186 -9999 -2.21 -2.245 -2.185 -2.228 -2.125 -2.133 -2.173 -2.178 -2.183 -2.125 -2.175 -2.168 -2.173 -2.158 -2.29 -2.225 -2.138 -2.21 -2.158 -2.24 -2.223 -2.2 -2.193 -9999 -9999 -2.158 -9999 -2.128 -2.12 -9999 -9999 -9999 -2.191 -9999 -2.283 -2.32 -2.238 -9999 -9999 -9999 -9999 -9999 -2.188 -2.218 -9999 -2.188 -9999 -9999 -9999 -9999 -9999 -9999 -2.093 -9999 -9999 -9999 -2.238 -2.198 -2.153 -2.165 -9999 -9999 -9999 -9999 -9999 -9999 -9999 -9999 -9999 -9999 -2.27 -2.305 -2.228 -2.22 -2.213 -9999 -9999 -2.188 -2.198 -9999 -9999 -9999 -9999 -9999 -2.26 -9999 -9999 -9999 -9999 -9999 -9999 -9999 -9999 -9999 -9999 -9999 -9999 -9999 -9999 -9999 -9999 -9999 -9999 -9999 -9999 -9999 -9999 -9999 -9999 -9999 -9999 -9999 -9999 -9999 -9999 -9999 -9999 -9999 -9999 -9999 -9999 -9999 -9999 -9999 -9999 -9999 -9999 -9999 -9999 -9999 -9999 -9999 -9999 -9999 -9999 -9999 -9999 -9999 -9999 -9999 -9999 -9999 -9999 -9999 -9999 -9999 -9999 -9999 -9999 -9999 -9999 -9999 -9999 -9999 -9999 -9999 -9999 -9999 -9999 -9999 -9999 -1.877 -9999 -9999 -9999 -9999 -9999 -9999 -9999 -9999 -9999 -9999 -9999 -9999 -9999 -9999 -9999 -9999 -9999 -9999 -9999 -9999 -9999 -9999 -9999 -9999 -9999 -9999 -9999 -9999 -9999 -9999 -9999 -9999 -9999 -9999 -9999 -9999 -9999 -9999 -9999 -9999 -9999 -9999 -9999 -9999 -9999 -9999 -9999 -9999 -9999 -9999 -9999 -9999 -9999 -9999 -9999 -9999 -9999 -9999 -9999 -9999 -9999 -9999 -9999 -9999 -9999 -2.117 -9999 -9999 -9999 -9999 -9999 -9999 -2.027 -2.131 -9999 -9999 -9999 -2.15 -1.995 -2.074 -2.022 -9999 -2.112 -2.102 -2.035 -2.085 -2.11 -2.122 -2.007 -2.102 -1.967 -1.937 -1.997 -2.082 -2.045 -2.055 -2.184 -2.085 -2.092 -2.124 -2.02 -2.137 -2.089 -2.08 -2.035 -2.125 -1.95 -2.102 -2.077 -2.022 -2.099 -2.157 -2.025 -1.885 -2.027 -2.012 -2.099 -2.112 -2.02 -1.985 -1.982 -2.077 -2.097 -2.09 -2.005 -2.035 -2.087 -2.064 -2.052 -2.177 -2.01 -1.985 -2.077 -2.044 -2.086 -1.987 -2.035 -2.08 -2.104 -2.079 -2.109 -2.206 -2.097 -2.097 -2.087 -2.129 -2.097 -2.009 -2.114 -2.109 -2.194 -2.025 -2.111 -2.106 -2.017 -2.092 -2.057 -2.079 -2.124 -2.137 -2.089 -2.149 -2.109 -2.214
-2.159 -2.219 -2.131 -2.144 -2.299 -2.161 -2.209 -2.244 -2.259 -2.176 -2.151 -2.289 -2.196 -2.114 -2.133 -2.116 -2.121 -2.143 -2.158 -2.193 -2.211 -2.181 -2.128 -2.151 -2.218 -2.198 -2.238 -2.166 -2.183 -2.143 -2.103 -2.146 -2.236 -2.118 -2.196 -2.248 -2.158 -2.176 -2.206 -2.168 -2.216 -2.228 -2.178 -2.166 -2.118 -2.161 -2.213 -2.146 -2.073 -2.283 -2.181 -2.161 -2.211 -2.236 -2.171 -2.163 -2.201 -2.143 -2.226 -2.233 -2.151 -2.273 -2.246 -2.156 -2.196 -2.186 -2.151 -2.181 -2.186 -2.183 -2.226 -2.218 -2.186 -2.208 -2.146 -2.196 -2.211 -2.223 -2.156 -2.296 -2.176 -2.153 -2.193 -2.223 -2.193 -2.156 -2.186 -2.196 -2.196 -2.123 -2.163 -2.103 -2.173 -2.221 -2.181 -2.198 -2.241 -2.178 -2.108 -2.148 -2.196 -2.231 -2.118 -2.186 -2.278 -2.138 -2.126 -2.166 -2.258 -2.201 -2.191 -2.248 -9999 -2.218 -2.185 -2.225 -2.243 -2.213 -2.18 -2.145 -2.193 -2.278 -2.13 -2.155 -2.248 -2.233 -2.233 -2.175 -2.18 -2.208 -2.22 -2.215 -2.145 -2.193 -2.235 -2.2 -2.183 -9999 -9999 -2.123 -2.148 -2.148 -2.125 -2.163 -2.153 -2.118 -2.16 -2.2 -2.285 -9999 -9999 -2.185 -9999 -9999 -9999 -9999 -2.245 -2.185 -2.155 -2.11 -9999 -9999 -2.205 -9999 -9999 -2.088 -2.108 -9999 -9999 -9999 -2.223 -2.173 -2.17 -2.198 -9999 -9999 -9999 -9999 -9999 -9999 -9999 -9999 -9999 -9999 -2.233 -2.248 -9999 -2.221 -2.188 -9999 -9999 -2.248 -9999 -9999 -9999 -9999 -9999 -9999 -9999 -9999 -9999 -9999 -9999 -9999 -9999 -9999 -9999 -9999 -9999 -9999 -9999 -9999 -9999 -9999 -9999 -9999 -9999 -9999 -9999 -9999 -9999 -9999 -9999 -9999 -9999 -9999 -9999 -9999 -9999 -9999 -9999 -9999 -9999 -9999 -9999 -9999 -9999 -9999 -9999 -9999 -9999 -9999 -9999 -9999 -9999 -9999 -9999 -9999 -9999 -9999 -9999 -9999 -9999 -9999 -9999 -9999 -9999 -9999 -9999 -9999 -9999 -9999 -9999 -9999 -9999 -9999 -9999 -9999 -9999 -9999 -9999 -9999 -9999 -9999 -9999 -9999 -9999 -9999 -9999 -9999 -9999 -9999 -9999 -9999 -9999 -9999 -9999 -9999 -9999 -9999 -9999 -9999 -9999 -9999 -9999 -9999 -9999 -9999 -9999 -9999 -9999 -9999 -9999 -9999 -9999 -9999 -9999 -9999 -9999 -9999 -9999 -9999 -9999 -9999 -9999 -9999 -9999 -9999 -9999 -9999 -9999 -9999 -9999 -9999 -9999 -9999 -9999 -9999 -9999 -9999 -9999 -9999 -9999 -9999 -9999 -9999 -9999 -9999 -9999 -9999 -9999 -2.007 -9999 -9999 -9999 -9999 -9999 -9999 -9999 -9999 -2.024 -9999 -9999 -9999 -9999 -9999 -2.207 -2.237 -9999 -9999 -1.965 -2.092 -2.04 -2.09 -2.144 -2.077 -9999 -1.999 -2.012 -2.067 -2.112 -2.147 -2.124 -1.883 -2.075 -2.112 -2.107 -2.072 -2.05 -2.084 -2.08 -2.015 -2.187 -2.095 -2.02 -2.094 -2.062 -2.127 -2.06 -2.067 -2.094 -2.099 -2.09 -2.134 -2.142 -2.057 -1.987 -2.017 -2.03 -2.017 -2.082 -2.109 -2.054 -1.94 -2.052 -2.049 -2.014 -2.047 -2.035 -2.072 -1.989 -2.009 -2.04 -2.154 -2.077 -2.204 -2.124 -2.147 -2.097 -2.139 -2.014 -2.112 -2.141 -2.139 -2.042 -2.087 -2.129 -2.129 -2.037 -2.069 -2.149 -2.112 -1.977 -2.097 -2.005 -1.99 -2.044 -2.084 -2.151 -2.037
-2.139 -2.171 -2.136 -2.084 -2.189 -2.181 -2.149 -2.281 -2.266 -2.156 -2.189 -2.189 -2.226 -2.141 -2.141 -2.166 -2.083 -2.176 -2.123 -2.241 -2.223 -2.191 -2.191 -2.161 -2.128 -2.193 -2.173 -2.153 -2.206 -2.086 -2.123 -2.168 -2.178 -2.151 -2.228 -2.146 -2.171 -2.223 -2.273 -2.183 -2.141 -2.166 -2.123 -2.198 -2.191 -2.188 -2.218 -2.173 -2.098 -2.241 -2.213 -2.171 -2.153 -2.246 -2.201 -2.128 -2.188 -2.163 -2.201 -2.251 -2.191 -2.143 -2.101 -2.168 -2.201 -2.223 -2.201 -2.201 -2.098 -2.208 -2.211 -2.163 -2.146 -2.183 -2.198 -2.286 -2.156 -2.231 -2.251 -2.218 -2.153 -2.128 -2.206 -2.121 -2.241 -2.218 -2.198 -2.236 -2.116 -2.136 -2.148 -2.208 -2.201 -2.291 -2.186 -2.168 -2.241 -2.166 -2.106 -2.156 -2.203 -2.353 -2.178 -2.173 -2.233 -2.128 -2.126 -2.113 -2.196 -2.243 -2.136 -2.196 -2.248 -2.196 -2.203 -2.233 -2.263 -2.275 -2.143 -2.165 -2.178 -2.158 -2.153 -2.185 -2.16 -2.288 -2.125 -2.163 -2.2 -2.14 -2.218 -2.265 -2.205 -2.173 -2.16 -2.108 -2.12 -2.17 -2.143 -2.088 -2.11 -2.145 -2.195 -2.233 -2.19 -2.15 -2.205 -2.265 -2.243 -2.218 -9999 -2.163 -2.185 -9999 -9999 -2.208 -2.268 -2.23 -2.12 -2.083 -9999 -2.268 -2.271 -9999 -2.184 -2.16 -2.143 -9999 -9999 -9999 -2.151 -9999 -9999 -2.271 -2.218 -2.218 -9999 -9999 -9999 -9999 -9999 -9999 -9999 -2.208 -2.108 -9999 -9999 -9999 -9999 -2.138 -2.138 -2.268 -9999 -9999 -9999 -9999 -9999 -9999 -9999 -9999 -9999 -9999 -9999 -9999 -9999 -9999 -9999 -9999 -9999 -9999 -9999 -9999 -9999 -9999 -9999 -9999 -9999 -9999 -9999 -9999 -9999 -9999 -9999 -9999 -9999 -9999 -9999 -9999 -9999 -9999 -9999 -9999 -9999 -9999 -9999 -9999 -9999 -9999 -9999 -9999 -9999 -9999 -9999 -9999 -9999 -9999 -9999 -9999 -9999 -9999 -9999 -9999 -9999 -9999 -9999 -9999 -9999 -9999 -9999 -9999 -9999 -9999 -9999 -9999 -9999 -9999 -9999 -9999 -9999 -9999 -9999 -9999 -9999 -9999 -9999 -9999 -9999 -9999 -9999 -9999 -9999 -9999 -9999 -9999 -9999 -9999 -9999 -9999 -9999 -9999 -9999 -9999 -9999 -9999 -9999 -9999 -9999 -9999 -9999 -9999 -9999 -9999 -9999 -9999 -9999 -9999 -9999 -9999 -9999 -9999 -9999 -9999 -9999 -9999 -9999 -9999 -9999 -9999 -9999 -9999 -9999 -9999 -9999 -9999 -9999 -9999 -9999 -9999 -9999 -9999 -9999 -9999 -9999 -9999 -9999 -9999 -9999 -9999 -9999 -9999 -9999 -9999 -9999 -9999 -9999 -9999 -9999 -9999 -9999 -9999 -2.117 -2.062 -2.067 -2.123 -2.13 -2.182 -2.102 -2.125 -2.113 -2.21 -2.142 -2.12 -1.995 -2.027 -2.11 -2.067 -2.1 -2.012 -2.127 -2.033 -2.196 -2.142 -2.142 -2.02 -2.025 -2.025 -2.082 -2.024 -1.965 -2.002 -2.082 -2.042 -2.05 -2.015 -2.035 -2.087 -1.928 -2.037 -2.017 -2.037 -2.057 -2.226 -2.05 -2.094 -2.127 -2.015 -2.152 -2.169 -2.084 -2.022 -2.037 -2.119 -2.092 -2.074 -2.112 -2.02 -2.012 -1.947 -2.049 -2.186 -1.882 -2.049 -2.022 -2.03 -2.087 -2.134 -2.119 -2.109 -2.147 -2.114 -2.042 -1.933 -2.084 -2.239 -2.162 -1.997 -2.054 -2.097 -2.049 -2.067 -2.097 -2.06 -2.027 -1.987 -2.03 -2.002 -2.074 -2.102 -2.025 -2.109
-2.151 -2.156 -2.156 -2.174 -2.229 -2.201 -2.191 -2.244 -2.226 -2.186 -2.189 -2.184 -2.164 -2.179 -2.188 -2.191 -2.098 -2.146 -2.121 -2.221 -2.168 -2.206 -2.238 -2.173 -2.121 -2.248 -2.186 -2.173 -2.281 -2.101 -2.153 -2.203 -2.146 -2.131 -2.188 -2.141 -2.188 -2.171 -2.211 -2.133 -2.146 -2.201 -2.118 -2.146 -2.151 -2.153 -2.238 -2.223 -2.148 -2.131 -2.188 -2.168 -2.178 -2.251 -2.178 -2.096 -2.173 -2.191 -2.153 -2.168 -2.233 -2.168 -2.173 -2.213 -2.226 -2.146 -2.153 -2.218 -2.098 -2.136 -2.196 -2.156 -2.243 -2.191 -2.186 -2.248 -2.188 -2.106 -2.213 -2.186 -2.128 -2.221 -2.228 -2.166 -2.211 -2.148 -2.191 -2.263 -2.178 -2.153 -2.156 -2.223 -2.203 -2.341 -2.243 -2.206 -2.228 -2.211 -2.146 -2.216 -2.313 -2.351 -2.166 -2.096 -2.173 -2.121 -2.203 -2.188 -2.128 -2.253 -2.133 -2.158 -2.228 -2.166 -2.24 -2.168 -9999 -2.278 -2.175 -2.2 -2.22 -2.18 -2.188 -2.218 -2.09 -2.108 -2.075 -2.173 -2.2 -2.22 -2.24 -2.215 -2.203 -2.11 -2.123 -2.098 -2.14 -2.168 -2.138 -2.14 -2.188 -9999 -9999 -2.295 -2.25 -2.195 -2.225 -2.285 -2.15 -2.15 -2.153 -9999 -2.178 -2.21 -2.21 -2.248 -2.248 -2.243 -9999 -9999 -2.168 -2.185 -9999 -9999 -9999 -2.173 -2.165 -2.188 -2.198 -2.148 -9999 -9999 -9999 -2.251 -2.178 -2.178 -9999 -9999 -9999 -9999 -2.158 -9999 -9999 -2.148 -9999 -9999 -9999 -9999 -9999 -9999 -2.154 -2.283 -9999 -9999 -9999 -9999 -9999 -9999 -9999 -9999 -9999 -9999 -9999 -2.178 -2.138 -9999 -9999 -9999 -9999 -9999 -9999 -9999 -9999 -9999 -9999 -9999 -9999 -9999 -9999 -9999 -9999 -9999 -9999 -9999 -9999 -9999 -9999 -9999 -9999 -9999 -9999 -9999 -9999 -9999 -9999 -9999 -9999 -9999 -9999 -9999 -9999 -9999 -9999 -9999 -9999 -9999 -9999 -9999 -9999 -9999 -9999 -9999 -9999 -9999 -9999 -9999 -9999 -9999 -9999 -9999 -9999 -9999 -9999 -9999 -9999 -9999 -9999 -9999 -9999 -9999 -9999 -9999 -9999 -9999 -9999 -9999 -9999 -9999 -9999 -9999 -9999 -9999 -9999 -9999 -9999 -9999 -9999 -9999 -9999 -9999 -9999 -9999 -9999 -9999 -9999 -9999 -9999 -9999 -9999 -9999 -9999 -9999 -9999 -9999 -9999 -9999 -9999 -9999 -9999 -9999 -9999 -9999 -9999 -9999 -9999 -9999 -9999 -9999 -9999 -9999 -9999 -9999 -9999 -9999 -9999 -9999 -9999 -9999 -9999 -9999 -9999 -9999 -9999 -9999 -9999 -9999 -9999 -9999 -9999 -9999 -9999 -9999 -9999 -9999 -9999 -9999 -9999 -9999 -9999 -9999 -2.205 -2.115 -2.102 -2.037 -1.995 -2.052 -2.015 -2.075 -2.082 -2.005 -2.145 -2.102 -2.055 -1.94 -2.254 -2.117 -2.042 -2.052 -2.072 -2.227 -2.192 -2.069 -1.94 -1.92 -2.109 -2.077 -2.047 -2.052 -1.977 -2.082 -2.074 -2.079 -2.069 -2.032 -2.054 -2.096 -1.99 -2.114 -2.097 -2.107 -2.067 -2.062 -2.075 -2.092 -2.097 -1.963 -2.012 -2.077 -2.132 -1.97 -2.01 -2.112 -2.141 -2.124 -2.129 -2.157 -2.022 -2.084 -2.084 -2.1 -2.027 -2.075 -2.074 -2.201 -1.987 -2.064 -2.059 -2.127 -2.112 -2.044 -2.027 -2.047 -2.151 -2.024 -2.189 -1.955 -2.01 -2.097 -2.062 -2.114 -2.089 -2.124 -2.079 -1.985 -2.122 -2.039 -2.047 -2.009 -2.081 -2.124
-2.146 -2.181 -2.196 -2.119 -2.186 -2.219 -2.199 -2.231 -2.249 -2.214 -2.181 -2.206 -2.199 -2.171 -2.141 -2.106 -2.133 -2.163 -2.173 -2.198 -2.196 -2.213 -2.256 -2.148 -2.098 -2.226 -2.206 -2.093 -2.213 -2.133 -2.173 -2.211 -2.168 -2.146 -2.191 -2.203 -2.131 -2.163 -2.196 -2.196 -2.188 -2.136 -2.156 -2.133 -2.143 -2.173 -2.203 -2.203 -2.156 -2.126 -2.211 -2.171 -2.143 -2.253 -2.188 -2.116 -2.091 -2.208 -2.146 -2.141 -2.186 -2.246 -2.138 -2.198 -2.201 -2.176 -2.183 -2.241 -2.153 -2.111 -2.181 -2.156 -2.201 -2.178 -2.121 -2.243 -2.223 -2.071 -2.196 -2.221 -2.168 -2.273 -2.193 -2.133 -2.113 -2.206 -2.163 -2.196 -2.216 -2.176 -2.138 -2.113 -2.158 -2.278 -2.203 -2.236 -2.256 -2.223 -2.216 -2.208 -2.243 -2.256 -2.266 -2.146 -2.138 -2.156 -2.171 -2.186 -2.141 -2.291 -2.223 -2.216 -2.193 -2.151 -2.2 -2.155 -9999 -9999 -2.165 -2.128 -2.195 -2.205 -2.183 -2.175 -2.18 -2.173 -2.135 -2.165 -2.175 -2.18 -2.248 -2.17 -2.13 -2.163 -9999 -2.15 -2.175 -2.21 -2.158 -2.138 -2.265 -9999 -9999 -2.183 -2.165 -2.18 -2.203 -2.205 -2.158 -2.243 -9999 -9999 -9999 -2.243 -2.295 -2.288 -2.19 -2.185 -9999 -9999 -9999 -9999 -9999 -9999 -2.268 -9999 -9999 -9999 -9999 -2.131 -2.103 -2.178 -2.248 -2.248 -2.205 -2.143 -2.073 -9999 -9999 -2.188 -2.178 -9999 -9999 -9999 -2.143 -9999 -9999 -9999 -9999 -9999 -9999 -9999 -9999 -9999 -9999 -9999 -9999 -9999 -9999 -9999 -9999 -9999 -2.211 -9999 -9999 -9999 -9999 -9999 -9999 -9999 -9999 -9999 -9999 -9999 -2.161 -9999 -9999 -9999 -9999 -9999 -9999 -9999 -9999 -9999 -9999 -9999 -9999 -9999 -9999 -9999 -9999 -9999 -9999 -9999 -9999 -9999 -9999 -9999 -9999 -9999 -9999 -9999 -9999 -9999 -9999 -9999 -9999 -9999 -9999 -9999 -9999 -9999 -9999 -9999 -9999 -9999 -9999 -9999 -9999 -9999 -9999 -9999 -9999 -9999 -1.897 -9999 -9999 -9999 -9999 -9999 -9999 -9999 -9999 -9999 -9999 -9999 -9999 -9999 -9999 -9999 -9999 -9999 -9999 -9999 -9999 -9999 -9999 -9999 -9999 -9999 -9999 -9999 -9999 -9999 -9999 -9999 -9999 -9999 -9999 -9999 -9999 -9999 -9999 -9999 -9999 -9999 -9999 -9999 -9999 -9999 -9999 -9999 -9999 -9999 -9999 -9999 -9999 -9999 -9999 -9999 -9999 -9999 -9999 -9999 -9999 -9999 -9999 -9999 -9999 -9999 -9999 -9999 -9999 -9999 -9999 -9999 -9999 -9999 -9999 -9999 -9999 -9999 -9999 -9999 -9999 -9999 -9999 -9999 -9999 -2.082 -9999 -2.108 -2.074 -1.968 -2.035 -2.152 -2.022 -1.93 -1.99 -2.134 -2.127 -2.122 -1.968 -1.923 -2.171 -2.119 -2.052 -2.045 -2.156 -2.172 -2.212 -2.132 -1.939 -2.114 -2.203 -2.089 -2.017 -2.072 -2.077 -2.079 -2.072 -2.042 -2.029 -2.02 -2.044 -2.027 -1.912 -2.075 -2.025 -2.025 -2.111 -2.024 -1.99 -2.149 -2.015 -2.079 -2.027 -2.06 -2.067 -2.102 -2 -2.032 -2.062 -2.007 -2.005 -2.124 -2.197 -2.157 -2.072 -2.032 -2.052 -2.109 -2.124 -1.95 -2.054 -2.127 -1.99 -2.062 -2.072 -2.102 -2.072 -2.074 -2.087 -2.077 -2.089 -2.069 -2.127 -2.182 -2.074 -2.037 -2.005 -2.159 -2.204 -2.01 -2.201 -1.972 -2.106 -2.104 -2.111 -2.062
-2.096 -2.196 -2.169 -2.139 -2.131 -2.254 -2.174 -2.191 -2.256 -2.224 -2.174 -2.239 -2.241 -2.159 -2.181 -2.148 -2.186 -2.173 -2.161 -2.166 -2.121 -2.188 -2.246 -2.171 -2.158 -2.166 -2.163 -2.166 -2.241 -2.143 -2.103 -2.198 -2.183 -2.121 -2.251 -2.196 -2.123 -2.191 -2.171 -2.226 -2.176 -2.171 -2.153 -2.196 -2.218 -2.088 -2.186 -2.213 -2.173 -2.191 -2.228 -2.123 -2.163 -2.236 -2.183 -2.116 -2.168 -2.188 -2.141 -2.118 -2.186 -2.198 -2.171 -2.243 -2.218 -2.156 -2.241 -2.221 -2.201 -2.196 -2.248 -2.171 -2.221 -2.188 -2.091 -2.196 -2.211 -2.153 -2.256 -2.233 -2.211 -2.218 -2.196 -2.108 -2.048 -2.201 -2.158 -2.146 -2.201 -2.141 -2.143 -2.181 -2.153 -2.191 -2.138 -2.221 -2.283 -2.251 -2.211 -2.161 -2.143 -2.176 -2.196 -2.216 -2.248 -2.113 -2.108 -2.226 -2.196 -2.241 -2.186 -2.256 -2.171 -2.071 -2.15 -2.218 -2.16 -2.223 -2.2 -2.2 -2.185 -2.213 -2.2 -2.153 -2.148 -2.195 -2.16 -2.175 -2.16 -2.158 -2.175 -2.148 -9999 -9999 -9999 -2.2 -2.198 -2.18 -2.203 -2.195 -2.245 -2.278 -2.18 -2.1 -2.128 -2.195 -2.238 -2.133 -2.098 -2.193 -2.22 -2.203 -2.233 -2.25 -2.268 -2.263 -2.218 -2.218 -9999 -9999 -9999 -9999 -9999 -9999 -9999 -9999 -9999 -9999 -9999 -9999 -9999 -2.203 -2.248 -2.16 -2.205 -2.175 -9999 -9999 -9999 -9999 -2.27 -2.231 -9999 -9999 -2.195 -2.143 -2.188 -2.198 -9999 -9999 -9999 -9999 -9999 -9999 -9999 -9999 -9999 -9999 -9999 -9999 -9999 -9999 -2.21 -9999 -9999 -9999 -9999 -9999 -9999 -9999 -9999 -9999 -9999 -9999 -9999 -9999 -9999 -9999 -9999 -9999 -9999 -9999 -9999 -9999 -9999 -9999 -9999 -9999 -2.148 -9999 -9999 -9999 -9999 -9999 -9999 -9999 -9999 -9999 -9999 -9999 -9999 -9999 -9999 -9999 -9999 -9999 -9999 -9999 -9999 -9999 -9999 -9999 -9999 -9999 -9999 -9999 -9999 -9999 -9999 -9999 -9999 -9999 -9999 -9999 -9999 -9999 -9999 -9999 -9999 -9999 -9999 -9999 -9999 -9999 -9999 -9999 -9999 -9999 -9999 -9999 -9999 -9999 -9999 -9999 -9999 -9999 -9999 -9999 -9999 -9999 -9999 -9999 -9999 -9999 -9999 -9999 -9999 -9999 -9999 -9999 -9999 -9999 -9999 -9999 -9999 -9999 -9999 -9999 -9999 -9999 -9999 -9999 -9999 -9999 -9999 -9999 -9999 -9999 -9999 -9999 -9999 -9999 -9999 -9999 -9999 -9999 -9999 -9999 -9999 -9999 -9999 -9999 -9999 -9999 -9999 -9999 -9999 -9999 -9999 -9999 -9999 -9999 -9999 -9999 -9999 -9999 -9999 -9999 -9999 -2.057 -9999 -9999 -9999 -1.977 -2.109 -2.164 -2.015 -1.883 -9999 -9999 -2.008 -2.07 -1.985 -2.027 -2.184 -2.11 -2.05 -2.052 -2.057 -2.239 -2.234 -2.092 -2.047 -2.089 -2.057 -2.057 -2.097 -1.98 -2.097 -2.042 -2.035 -2.017 -2.152 -1.88 -2.089 -2.201 -2.01 -2.09 -2.012 -1.963 -2.002 -2.072 -2.116 -2.057 -2.137 -2.1 -2.037 -1.977 -2.012 -2.114 -2.174 -2.005 -2.037 -2.059 -2.067 -2.147 -2.219 -2.147 -2.065 -2.04 -2.106 -2.07 -2.077 -2.015 -2 -2.154 -2.119 -2 -2.101 -2.094 -2.159 -2.137 -2.099 -2.077 -2.044 -2.022 -2 -2.081 -2.129 -2.047 -2.112 -2.137 -2.107 -2.022 -2.069 -2.094 -2.059 -2.061 -2.166 -2.061
-2.121 -2.159 -2.186 -2.129 -2.131 -2.211 -2.214 -2.114 -2.231 -2.216 -2.146 -2.211 -2.244 -2.181 -2.196 -2.221 -2.156 -2.158 -2.168 -2.178 -2.151 -2.161 -2.198 -2.198 -2.176 -2.146 -2.238 -2.163 -2.228 -2.188 -2.156 -2.206 -2.233 -2.143 -2.186 -2.246 -2.206 -2.196 -2.151 -2.206 -2.226 -2.186 -2.176 -2.188 -2.198 -2.071 -2.103 -2.176 -2.198 -2.253 -2.176 -2.106 -2.156 -2.251 -2.171 -2.138 -2.206 -2.163 -2.151 -2.188 -2.151 -2.173 -2.203 -2.198 -2.193 -2.226 -2.298 -2.208 -2.183 -2.216 -2.208 -2.176 -2.188 -2.148 -2.111 -2.221 -2.183 -2.183 -2.213 -2.216 -2.283 -2.241 -2.191 -2.178 -2.181 -2.246 -2.136 -2.141 -2.186 -2.153 -2.176 -2.173 -2.213 -2.261 -2.148 -2.161 -2.256 -2.243 -2.233 -2.178 -2.106 -2.143 -2.141 -2.191 -2.246 -2.151 -2.166 -2.218 -2.173 -2.208 -2.213 -2.123 -2.201 -2.113 -2.215 -2.27 -2.165 -2.228 -2.213 -2.22 -2.18 -2.213 -2.19 -2.193 -2.16 -2.158 -2.173 -2.165 -2.14 -2.148 -2.25 -2.23 -2.165 -9999 -9999 -2.285 -2.3 -2.165 -2.203 -2.21 -2.205 -2.288 -2.293 -2.198 -2.185 -2.218 -9999 -2.178 -2.135 -2.198 -2.24 -2.223 -2.213 -2.168 -2.235 -2.235 -2.185 -2.213 -2.215 -2.223 -2.213 -2.121 -9999 -9999 -9999 -9999 -9999 -9999 -9999 -9999 -9999 -9999 -2.161 -2.118 -2.155 -2.155 -2.154 -9999 -9999 -9999 -2.258 -9999 -9999 -9999 -9999 -9999 -9999 -9999 -9999 -9999 -9999 -2.228 -9999 -9999 -9999 -9999 -9999 -9999 -9999 -9999 -9999 -9999 -9999 -2.153 -9999 -9999 -9999 -9999 -9999 -9999 -9999 -9999 -9999 -9999 -9999 -9999 -9999 -9999 -9999 -9999 -9999 -9999 -1.888 -9999 -9999 -9999 -9999 -9999 -2.133 -9999 -9999 -9999 -9999 -9999 -9999 -9999 -9999 -9999 -9999 -9999 -9999 -9999 -9999 -9999 -9999 -9999 -9999 -9999 -9999 -9999 -9999 -9999 -9999 -9999 -9999 -9999 -9999 -9999 -9999 -9999 -9999 -9999 -9999 -9999 -9999 -9999 -9999 -9999 -9999 -9999 -9999 -9999 -9999 -9999 -9999 -9999 -9999 -9999 -9999 -9999 -9999 -9999 -9999 -9999 -9999 -9999 -9999 -9999 -9999 -9999 -9999 -9999 -9999 -9999 -9999 -9999 -9999 -9999 -9999 -9999 -9999 -9999 -9999 -9999 -9999 -9999 -9999 -9999 -9999 -9999 -9999 -9999 -9999 -9999 -9999 -9999 -9999 -9999 -9999 -9999 -9999 -9999 -9999 -9999 -9999 -9999 -9999 -9999 -9999 -9999 -9999 -9999 -9999 -9999 -9999 -9999 -9999 -9999 -9999 -9999 -9999 -9999 -9999 -9999 -9999 -9999 -9999 -9999 -9999 -1.99 -1.972 -2.052 -9999 -9999 -2.037 -2.045 -9999 -9999 -9999 -9999 -1.972 -2.017 -1.982 -1.99 -2.089 -2.095 -1.998 -2.115 -2.017 -2.037 -2.147 -2.084 -1.967 -2.159 -2.069 -2.037 -2.104 -2.094 -2.196 -2.174 -2.136 -2.115 -1.997 -2.005 -1.947 -2.084 -2.072 -2.059 -2.127 -2.182 -1.985 -1.982 -1.992 -2.072 -2.134 -2.099 -1.953 -2.057 -2.037 -1.925 -2.094 -2.164 -2.111 -1.985 -2.057 -2.04 -2.099 -2.107 -2.037 -2.079 -2.122 -2.072 -2.03 -2.042 -2.079 -2.147 -2.156 -2.084 -2.089 -2.074 -2.092 -2.025 -2.127 -2.144 -1.935 -1.987 -2.047 -2.104 -2.099 -2.107 -2.107 -2.115 -2.1 -2.129 -2.228 -2.099 -2.121 -2.032 -2.121 -2.074
-2.189 -2.119 -2.194 -2.121 -2.129 -2.184 -2.189 -2.144 -2.186 -2.271 -2.166 -2.196 -2.206 -2.211 -2.231 -2.221 -2.181 -2.223 -2.141 -2.186 -2.166 -2.163 -2.188 -2.241 -2.186 -2.158 -2.151 -2.196 -2.221 -2.146 -2.163 -2.208 -2.208 -2.133 -2.123 -2.221 -2.203 -2.211 -2.141 -2.161 -2.211 -2.148 -2.173 -2.153 -2.166 -2.118 -2.146 -2.148 -2.201 -2.256 -2.186 -2.108 -2.168 -2.286 -2.198 -2.198 -2.136 -2.131 -2.161 -2.171 -2.131 -2.156 -2.183 -2.223 -2.203 -2.218 -2.276 -2.201 -2.146 -2.211 -2.236 -2.168 -2.156 -2.181 -2.116 -2.178 -2.181 -2.251 -2.148 -2.198 -2.293 -2.303 -2.191 -2.251 -2.223 -2.231 -2.191 -2.103 -2.153 -2.198 -2.173 -2.141 -2.201 -2.256 -2.183 -2.181 -2.186 -2.186 -2.126 -2.133 -2.136 -2.153 -2.173 -2.196 -2.236 -2.223 -2.133 -2.233 -2.241 -2.201 -2.231 -2.191 -2.198 -2.101 -2.17 -2.2 -2.175 -2.168 -2.198 -2.215 -2.193 -2.18 -2.108 -2.198 -2.183 -2.238 -2.243 -2.12 -2.165 -2.168 -2.163 -2.138 -2.108 -2.135 -2.188 -2.24 -2.205 -2.163 -2.255 -2.263 -2.185 -2.233 -2.208 -2.198 -2.175 -2.18 -9999 -9999 -2.158 -2.243 -2.305 -2.238 -9999 -2.141 -2.178 -2.165 -2.165 -2.18 -2.233 -2.19 -2.18 -2.193 -2.188 -2.133 -2.143 -2.253 -2.171 -9999 -9999 -9999 -9999 -9999 -9999 -2.141 -9999 -2.131 -2.13 -9999 -9999 -9999 -9999 -9999 -9999 -9999 -9999 -9999 -9999 -9999 -9999 -9999 -9999 -2.213 -2.224 -9999 -9999 -9999 -9999 -2.238 -2.27 -9999 -9999 -9999 -9999 -2.243 -9999 -2.208 -2.173 -9999 -9999 -9999 -9999 -9999 -9999 -9999 -9999 -9999 -9999 -9999 -9999 -9999 -9999 -9999 -9999 -9999 -9999 -9999 -9999 -9999 -9999 -9999 -9999 -9999 -9999 -9999 -9999 -9999 -9999 -9999 -9999 -9999 -9999 -9999 -9999 -9999 -9999 -9999 -9999 -9999 -9999 -9999 -9999 -9999 -9999 -9999 -9999 -9999 -9999 -9999 -9999 -9999 -9999 -9999 -9999 -9999 -9999 -9999 -9999 -9999 -9999 -9999 -9999 -9999 -9999 -9999 -9999 -9999 -9999 -9999 -9999 -9999 -9999 -9999 -9999 -9999 -9999 -9999 -9999 -9999 -9999 -9999 -9999 -9999 -9999 -9999 -9999 -9999 -9999 -9999 -9999 -9999 -9999 -9999 -9999 -9999 -9999 -9999 -9999 -9999 -9999 -9999 -9999 -9999 -9999 -9999 -9999 -9999 -9999 -9999 -9999 -9999 -9999 -9999 -9999 -9999 -9999 -9999 -9999 -9999 -9999 -9999 -9999 -9999 -9999 -9999 -9999 -9999 -2.162 -9999 -9999 -9999 -9999 -9999 -9999 -9999 -9999 -9999 -9999 -9999 -9999 -9999 -9999 -9999 -2.049 -2.094 -9999 -2.174 -2.047 -9999 -9999 -9999 -9999 -9999 -9999 -9999 -2.057 -2.07 -2.107 -2.121 -2.154 -2.112 -2.017 -1.997 -1.97 -1.915 -1.965 -2.146 -2.129 -2.085 -2.057 -2.085 -2.152 -2.099 -2.209 -2.149 -2.179 -2.085 -2.11 -2.124 -2.174 -2.144 -2.105 -2.126 -2.106 -2.069 -1.923 -2.032 -2.111 -2 -2.157 -2.047 -2.139 -2.057 -2.236 -2.003 -2.063 -2.102 -1.985 -2.042 -2.047 -2.119 -2.065 -2.025 -1.99 -1.973 -2.157 -2.127 -2.161 -2.092 -2.099 -2.129 -2.025 -2.032 -2.111 -2.139 -2.109 -1.983 -2.114 -2.032 -2.174 -2.166 -2.077 -2.01 -2.164 -2.07 -2.042 -2.072 -2.136 -1.955 -1.997 -2.074
-2.159 -2.161 -2.139 -2.131 -2.216 -2.279 -2.166 -2.164 -2.131 -2.304 -2.194 -2.181 -2.194 -2.216 -2.228 -2.256 -2.176 -2.241 -2.136 -2.166 -2.153 -2.156 -2.173 -2.241 -2.198 -2.141 -2.126 -2.101 -2.208 -2.188 -2.076 -2.153 -2.186 -2.148 -2.173 -2.241 -2.191 -2.141 -2.158 -2.171 -2.156 -2.108 -2.178 -2.126 -2.178 -2.128 -2.146 -2.161 -2.196 -2.121 -2.246 -2.166 -2.253 -2.281 -2.218 -2.221 -2.168 -2.203 -2.198 -2.163 -2.131 -2.081 -2.146 -2.146 -2.171 -2.153 -2.256 -2.156 -2.093 -2.146 -2.221 -2.183 -2.168 -2.236 -2.238 -2.136 -2.213 -2.201 -2.248 -2.143 -2.223 -2.256 -2.153 -2.176 -2.181 -2.253 -2.206 -2.163 -2.188 -2.211 -2.141 -2.153 -2.098 -2.248 -2.218 -2.196 -2.181 -2.236 -2.201 -2.133 -2.156 -2.178 -2.126 -2.186 -2.176 -2.241 -2.216 -2.261 -2.208 -2.153 -2.213 -2.236 -2.161 -2.168 -2.165 -2.178 -2.25 -2.173 -2.14 -2.175 -2.248 -2.24 -2.165 -2.193 -2.208 -2.208 -2.14 -2.088 -2.193 -2.168 -9999 -2.223 -2.18 -2.145 -2.143 -2.21 -2.178 -2.155 -2.243 -2.278 -2.23 -2.233 -2.288 -2.215 -2.183 -2.173 -2.138 -2.138 -2.131 -2.21 -2.273 -2.215 -9999 -9999 -2.06 -2.17 -2.168 -2.2 -2.248 -2.155 -9999 -9999 -2.215 -2.183 -2.148 -2.158 -2.19 -2.171 -2.181 -2.188 -9999 -9999 -9999 -9999 -9999 -2.173 -2.168 -2.144 -9999 -9999 -9999 -9999 -9999 -9999 -9999 -9999 -9999 -9999 -9999 -9999 -9999 -2.158 -2.19 -2.203 -2.138 -9999 -9999 -9999 -9999 -9999 -2.213 -9999 -9999 -2.178 -2.215 -2.243 -2.188 -9999 -9999 -9999 -2.191 -9999 -9999 -2.218 -9999 -9999 -9999 -9999 -9999 -9999 -9999 -9999 -9999 -9999 -9999 -9999 -9999 -9999 -9999 -9999 -9999 -9999 -9999 -9999 -9999 -9999 -9999 -9999 -9999 -9999 -9999 -9999 -9999 -9999 -9999 -9999 -9999 -9999 -9999 -9999 -9999 -9999 -9999 -9999 -9999 -9999 -9999 -9999 -9999 -9999 -9999 -9999 -9999 -9999 -9999 -9999 -9999 -9999 -9999 -9999 -9999 -9999 -9999 -9999 -9999 -9999 -9999 -9999 -9999 -9999 -9999 -9999 -9999 -9999 -9999 -9999 -9999 -9999 -9999 -9999 -9999 -9999 -9999 -9999 -9999 -9999 -9999 -9999 -9999 -9999 -9999 -9999 -9999 -9999 -9999 -9999 -9999 -9999 -9999 -9999 -9999 -9999 -9999 -9999 -9999 -9999 -9999 -9999 -9999 -9999 -9999 -9999 -9999 -9999 -9999 -9999 -9999 -9999 -9999 -9999 -9999 -9999 -9999 -9999 -9999 -9999 -9999 -9999 -9999 -9999 -9999 -9999 -9999 -9999 -9999 -9999 -9999 -9999 -9999 -9999 -9999 -9999 -2.162 -2.087 -2.027 -2.112 -2.137 -2.117 -9999 -9999 -2.067 -2.008 -9999 -9999 -2.124 -1.995 -1.987 -1.985 -2.092 -2.082 -2.131 -2.057 -2.064 -2.042 -1.972 -2.131 -2.027 -2.099 -1.97 -2.074 -2.154 -2.144 -2.05 -2.177 -2.11 -2.112 -2.035 -2.023 -2.02 -2.035 -2.03 -2.062 -2.072 -2.171 -2.044 -2.044 -2.055 -2.246 -2.087 -2.092 -1.99 -1.975 -2.21 -2.064 -2.186 -2.159 -2.032 -2.092 -2.039 -2.002 -2.092 -2.159 -2.107 -2.061 -2.027 -2.055 -2.099 -2.201 -2.174 -2.067 -2 -2.104 -2.061 -2.094 -2.179 -1.975 -2.018 -1.992 -2.035 -2.097 -2.009 -1.995 -2.127 -2.117 -2.094 -2.132 -2.077 -2.027 -2.064 -2.109
-2.191 -2.174 -2.149 -2.104 -2.204 -2.226 -2.131 -2.176 -2.174 -2.261 -2.236 -2.126 -2.199 -2.236 -2.218 -2.196 -2.193 -2.271 -2.126 -2.196 -2.176 -2.186 -2.153 -2.211 -2.156 -2.181 -2.178 -2.123 -2.251 -2.196 -2.146 -2.138 -2.138 -2.206 -2.126 -2.211 -2.258 -2.168 -2.191 -2.188 -2.223 -2.193 -2.138 -2.141 -2.178 -2.216 -2.121 -2.148 -2.163 -2.148 -2.216 -2.123 -2.166 -2.183 -2.193 -2.186 -2.196 -2.218 -2.183 -2.168 -2.123 -2.148 -2.196 -2.176 -2.188 -2.148 -2.158 -2.243 -2.128 -2.188 -2.191 -2.111 -2.201 -2.188 -2.186 -2.151 -2.151 -2.268 -2.191 -2.161 -2.206 -2.181 -2.176 -2.198 -2.141 -2.216 -2.208 -2.171 -2.138 -2.201 -2.166 -2.216 -2.136 -2.221 -2.223 -2.241 -2.163 -2.161 -2.198 -2.183 -2.243 -2.163 -2.086 -2.161 -2.258 -2.213 -2.228 -2.218 -2.201 -2.123 -2.216 -2.198 -2.201 -2.188 -2.138 -2.203 -2.273 -2.208 -2.115 -2.175 -2.21 -2.18 -2.203 -2.165 -2.185 -2.168 -2.2 -2.155 -2.178 -2.155 -9999 -9999 -2.228 -2.173 -2.163 -2.178 -2.198 -2.155 -2.115 -2.215 -2.153 -2.185 -2.198 -2.213 -2.185 -2.168 -2.138 -2.198 -2.203 -2.145 -2.168 -2.198 -2.223 -2.193 -2.221 -2.298 -2.215 -2.23 -2.313 -2.175 -9999 -9999 -2.183 -2.24 -2.2 -2.178 -2.165 -2.13 -9999 -9999 -9999 -2.175 -9999 -2.143 -9999 -2.148 -2.25 -2.188 -2.198 -2.238 -2.228 -9999 -9999 -9999 -9999 -9999 -9999 -9999 -2.171 -9999 -9999 -2.093 -2.17 -2.248 -2.198 -9999 -9999 -9999 -9999 -9999 -2.123 -2.204 -2.088 -2.093 -2.12 -2.208 -2.18 -9999 -2.163 -2.108 -2.163 -9999 -2.118 -9999 -9999 -9999 -9999 -9999 -9999 -9999 -9999 -1.973 -9999 -9999 -9999 -2.185 -9999 -9999 -9999 -9999 -9999 -9999 -9999 -9999 -9999 -9999 -9999 -9999 -9999 -9999 -9999 -9999 -9999 -9999 -9999 -9999 -9999 -9999 -9999 -9999 -9999 -9999 -9999 -9999 -9999 -9999 -9999 -9999 -9999 -9999 -9999 -9999 -9999 -9999 -9999 -9999 -9999 -9999 -9999 -9999 -9999 -9999 -9999 -9999 -9999 -9999 -9999 -9999 -9999 -9999 -9999 -9999 -9999 -9999 -9999 -9999 -9999 -9999 -9999 -9999 -9999 -9999 -9999 -9999 -9999 -9999 -9999 -9999 -9999 -9999 -9999 -9999 -9999 -9999 -9999 -9999 -9999 -9999 -9999 -9999 -9999 -9999 -9999 -9999 -9999 -9999 -9999 -9999 -9999 -9999 -9999 -9999 -9999 -9999 -9999 -9999 -9999 -9999 -9999 -9999 -9999 -9999 -9999 -9999 -9999 -9999 -9999 -9999 -2.04 -9999 -1.977 -9999 -9999 -9999 -9999 -9999 -9999 -9999 -9999 -9999 -9999 -9999 -2.165 -2.08 -2.11 -2.149 -2.078 -2.264 -9999 -2.257 -1.948 -2.07 -2.051 -2.173 -2.146 -1.97 -2.071 -2.047 -2.095 -2.087 -2.154 -2.049 -2.087 -9999 -2.067 -2.022 -2.049 -2.114 -2.012 -1.948 -2.102 -2.005 -9999 -2.098 -2.041 -2.055 -2 -2.181 -2.087 -2.079 -2.044 -2.05 -2.129 -2.151 -1.963 -2.032 -2.087 -2.022 -2.187 -2.167 -2.137 -2.151 -2.125 -2.035 -2.055 -2.085 -2.117 -2.074 -2.163 -2.086 -2.081 -2.079 -2.019 -2.109 -2.071 -2.025 -2.027 -2.032 -2.081 -2.076 -2.104 -2.131 -1.99 -2.119 -2.017 -2.194 -2.044 -2.131 -2.092 -2.003 -1.997 -2.114 -1.99 -2.132 -2.084 -2.077 -2.079 -2.037 -2.084 -2.074
-2.224 -2.236 -2.189 -2.139 -2.159 -2.186 -2.126 -2.114 -2.146 -2.221 -2.226 -2.099 -2.179 -2.279 -2.253 -2.166 -2.181 -2.243 -2.113 -2.188 -2.216 -2.196 -2.156 -2.273 -2.196 -2.208 -2.123 -2.116 -2.218 -2.176 -2.141 -2.186 -2.188 -2.186 -2.148 -2.198 -2.166 -2.178 -2.163 -2.228 -2.201 -2.196 -2.176 -2.166 -2.218 -2.191 -2.166 -2.141 -2.183 -2.191 -2.191 -2.138 -2.128 -2.186 -2.141 -2.216 -2.188 -2.233 -2.221 -2.176 -2.153 -2.216 -2.211 -2.188 -2.243 -2.196 -2.188 -2.161 -2.246 -2.148 -2.166 -2.196 -2.178 -2.188 -2.221 -2.141 -2.181 -2.168 -2.166 -2.196 -2.166 -2.076 -2.123 -2.166 -2.131 -2.208 -2.183 -2.233 -2.138 -2.183 -2.228 -2.206 -2.156 -2.146 -2.128 -2.251 -2.211 -2.196 -2.198 -2.266 -2.243 -2.183 -2.116 -2.186 -2.143 -2.198 -2.228 -2.131 -2.213 -2.193 -2.218 -2.151 -2.193 -2.221 -2.228 -2.188 -2.208 -2.2 -2.17 -2.155 -2.175 -2.238 -2.205 -2.168 -2.175 -2.173 -2.173 -2.163 -2.173 -2.108 -2.185 -2.268 -2.235 -2.215 -2.295 -2.27 -2.175 -2.133 -2.033 -2.11 -2.13 -2.148 -2.12 -2.19 -2.215 -2.183 -2.043 -2.225 -2.23 -2.13 -2.128 -2.143 -2.135 -2.195 -2.213 -2.245 -2.183 -2.178 -2.255 -2.263 -9999 -2.203 -2.173 -9999 -9999 -9999 -2.158 -2.11 -2.101 -2.213 -2.368 -9999 -9999 -9999 -2.121 -2.138 -2.205 -2.173 -2.163 -2.14 -9999 -9999 -2.183 -2.168 -2.183 -2.188 -2.178 -9999 -9999 -2.138 -2.153 -9999 -9999 -9999 -2.261 -9999 -9999 -9999 -9999 -9999 -2.131 -2.14 -2.085 -2.095 -2.108 -2.14 -9999 -9999 -9999 -2.16 -9999 -9999 -9999 -9999 -9999 -9999 -9999 -9999 -2.248 -9999 -9999 -9999 -9999 -9999 -9999 -9999 -9999 -9999 -9999 -9999 -9999 -9999 -9999 -9999 -9999 -9999 -9999 -9999 -9999 -9999 -9999 -9999 -9999 -9999 -9999 -9999 -9999 -9999 -9999 -9999 -9999 -9999 -9999 -9999 -9999 -9999 -9999 -9999 -9999 -9999 -9999 -9999 -9999 -9999 -9999 -9999 -9999 -9999 -9999 -9999 -9999 -9999 -9999 -9999 -9999 -9999 -9999 -9999 -9999 -9999 -9999 -9999 -9999 -9999 -9999 -9999 -9999 -9999 -9999 -9999 -9999 -9999 -9999 -9999 -9999 -9999 -9999 -9999 -9999 -9999 -9999 -9999 -9999 -9999 -9999 -9999 -9999 -9999 -9999 -9999 -9999 -9999 -9999 -9999 -9999 -9999 -9999 -9999 -9999 -9999 -9999 -9999 -9999 -9999 -9999 -9999 -9999 -9999 -9999 -9999 -9999 -9999 -9999 -9999 -9999 -9999 -9999 -9999 -9999 -9999 -9999 -1.888 -2.099 -9999 -9999 -9999 -9999 -9999 -9999 -9999 -9999 -9999 -9999 -9999 -2.136 -1.975 -2 -1.98 -2.17 -2.18 -2.117 -2.054 -2.047 -2.16 -2.122 -2.025 -2.072 -2.081 -2.06 -2.072 -2.029 -2.007 -2.073 -2.189 -2.082 -2.131 -2.096 -1.925 -2.035 -2.005 -2.124 -2.141 -2.134 -2.062 -2.039 -1.913 -2.01 -1.98 -2.109 -2.126 -1.997 -1.984 -2.009 -2.134 -2.092 -2.112 -2.08 -2.007 -2.107 -2.082 -2.067 -2.129 -2.05 -2.218 -2.007 -2.114 -1.985 -2.099 -2.114 -2.142 -2.079 -2.025 -2.061 -2.173 -2.034 -2.05 -2.153 -1.987 -2.002 -1.982 -2.024 -2.075 -2.22 -2.114 -1.988 -2.079 -2.022 -2.057 -2.002 -2.005 -2.133 -2.027 -2.069 -2.045 -2.181 -2.112 -2.104 -2.112 -2.049 -2.055
-2.221 -2.221 -2.239 -2.124 -2.151 -2.194 -2.171 -2.101 -2.101 -2.259 -2.229 -2.141 -2.151 -2.264 -2.241 -2.198 -2.208 -2.253 -2.178 -2.206 -2.181 -2.198 -2.161 -2.151 -2.213 -2.206 -2.143 -2.188 -2.221 -2.203 -2.171 -2.173 -2.178 -2.116 -2.093 -2.213 -2.133 -2.176 -2.176 -2.188 -2.151 -2.221 -2.238 -2.181 -2.201 -2.283 -2.181 -2.168 -2.191 -2.156 -2.208 -2.156 -2.131 -2.196 -2.251 -2.208 -2.231 -2.201 -2.203 -2.203 -2.181 -2.218 -2.153 -2.098 -2.151 -2.166 -2.178 -2.111 -2.148 -2.118 -2.171 -2.198 -2.211 -2.183 -2.221 -2.176 -2.173 -2.203 -2.136 -2.213 -2.183 -2.113 -2.173 -2.218 -2.121 -2.171 -2.188 -2.266 -2.126 -2.208 -2.273 -2.148 -2.171 -2.168 -2.121 -2.246 -2.153 -2.163 -2.198 -2.276 -2.246 -2.198 -2.243 -2.236 -2.098 -2.158 -2.216 -2.088 -2.148 -2.241 -2.113 -2.113 -2.278 -2.193 -2.23 -2.22 -2.12 -2.168 -2.19 -2.275 -2.185 -2.203 -2.225 -2.175 -2.2 -2.138 -2.178 -2.178 -2.198 -2.115 -2.15 -2.198 -2.12 -2.218 -2.248 -2.325 -2.228 -2.15 -9999 -9999 -2.163 -2.115 -2.238 -2.27 -2.225 -2.185 -2.155 -2.138 -2.165 -2.105 -2.08 -2.153 -2.08 -2.16 -2.195 -2.233 -2.228 -2.22 -9999 -9999 -9999 -2.188 -9999 -9999 -9999 -9999 -2.138 -2.108 -2.168 -2.235 -2.135 -2.158 -9999 -9999 -9999 -2.263 -2.26 -2.265 -2.165 -2.123 -9999 -9999 -9999 -2.218 -2.228 -2.178 -2.168 -9999 -9999 -2.188 -2.218 -9999 -9999 -9999 -2.171 -9999 -9999 -9999 -9999 -9999 -2.188 -2.19 -2.103 -2.15 -2.115 -2.188 -9999 -9999 -9999 -9999 -9999 -9999 -9999 -9999 -9999 -9999 -2.198 -2.188 -2.23 -2.23 -2.298 -9999 -9999 -9999 -9999 -9999 -9999 -9999 -9999 -9999 -9999 -9999 -9999 -9999 -9999 -9999 -9999 -9999 -9999 -9999 -9999 -9999 -9999 -9999 -9999 -9999 -9999 -9999 -9999 -9999 -9999 -9999 -9999 -9999 -9999 -9999 -9999 -9999 -9999 -9999 -9999 -9999 -9999 -9999 -9999 -9999 -9999 -9999 -9999 -9999 -9999 -9999 -9999 -9999 -9999 -9999 -9999 -9999 -9999 -9999 -9999 -9999 -9999 -9999 -9999 -9999 -9999 -9999 -9999 -9999 -9999 -9999 -9999 -9999 -9999 -9999 -9999 -9999 -9999 -9999 -9999 -9999 -9999 -9999 -9999 -9999 -9999 -9999 -9999 -9999 -9999 -9999 -9999 -9999 -9999 -9999 -9999 -9999 -9999 -9999 -9999 -9999 -9999 -9999 -9999 -9999 -9999 -9999 -9999 -9999 -9999 -9999 -9999 -9999 -9999 -9999 -9999 -2.037 -2.196 -2.069 -9999 -9999 -9999 -9999 -9999 -9999 -9999 -9999 -9999 -9999 -9999 -9999 -9999 -9999 -9999 -1.977 -1.925 -2.007 -2.256 -2.199 -9999 -2.078 -1.851 -2 -1.973 -2.146 -1.975 -2.012 -2 -2.087 -1.952 -9999 -2.154 -2.152 -2.149 -2.109 -2.124 -2.022 -2.144 -2.01 -2.075 -2.022 -2.194 -9999 -9999 -2.062 -2.045 -2.029 -2.107 -2.097 -2.079 -2.023 -2.067 -2.014 -2.109 -2.07 -2.154 -2.127 -2.126 -2.027 -1.98 -2.032 -2.198 -2.09 -2.11 -2.029 -2.012 -1.995 -2.037 -2.112 -2.112 -2.104 -2.032 -2.012 -2.146 -2.106 -2.089 -2.102 -1.99 -1.972 -2.039 -2.069 -2.139 -2.181 -2.064 -2.087 -2.033 -2.086 -2.057 -2.109 -1.977 -2.092 -2.087 -2.022 -2.129 -2.136 -2.137 -2.08 -2.015 -2.115
-2.161 -2.186 -2.204 -2.119 -2.111 -2.241 -2.191 -2.149 -2.119 -2.179 -2.226 -2.176 -2.074 -2.264 -2.231 -2.248 -2.231 -2.261 -2.203 -2.183 -2.181 -2.208 -2.161 -2.166 -2.193 -2.201 -2.208 -2.151 -2.181 -2.181 -2.176 -2.148 -2.193 -2.146 -2.148 -2.163 -2.166 -2.136 -2.143 -2.256 -2.176 -2.208 -2.276 -2.226 -2.168 -2.253 -2.236 -2.203 -2.161 -2.096 -2.173 -2.178 -2.158 -2.146 -2.163 -2.178 -2.273 -2.171 -2.233 -2.236 -2.193 -2.188 -2.221 -2.108 -2.096 -2.161 -2.191 -2.151 -2.148 -2.146 -2.243 -2.171 -2.168 -2.191 -2.136 -2.178 -2.203 -2.191 -2.153 -2.263 -2.211 -2.096 -2.188 -2.226 -2.206 -2.176 -2.181 -2.271 -2.161 -2.156 -2.236 -2.241 -2.248 -2.201 -2.216 -2.208 -2.181 -2.166 -2.161 -2.251 -2.246 -2.231 -2.238 -2.213 -2.166 -2.106 -2.116 -2.168 -2.136 -2.201 -2.128 -2.116 -2.203 -2.153 -2.175 -2.213 -2.24 -2.163 -2.173 -2.22 -2.12 -2.163 -2.205 -2.16 -2.21 -2.22 -2.188 -2.215 -2.255 -2.103 -2.113 -2.183 -2.193 -2.188 -2.165 -2.208 -2.185 -2.17 -9999 -9999 -2.213 -2.15 -2.258 -2.175 -2.2 -2.26 -2.165 -2.118 -2.155 -2.135 -2.103 -2.155 -2.16 -2.128 -2.21 -2.243 -2.233 -2.213 -9999 -9999 -9999 -2.203 -9999 -9999 -2.138 -2.171 -2.233 -2.163 -9999 -9999 -9999 -2.188 -9999 -9999 -9999 -9999 -2.258 -2.255 -9999 -9999 -9999 -9999 -9999 -9999 -2.12 -2.063 -9999 -9999 -9999 -2.193 -2.213 -2.27 -2.278 -2.298 -2.268 -9999 -9999 -9999 -9999 -9999 -2.163 -2.118 -2.105 -9999 -9999 -2.183 -9999 -9999 -9999 -9999 -9999 -9999 -9999 -9999 -9999 -9999 -2.215 -2.23 -2.255 -2.188 -2.24 -9999 -9999 -9999 -9999 -9999 -9999 -9999 -9999 -9999 -9999 -9999 -9999 -9999 -9999 -9999 -9999 -9999 -9999 -9999 -9999 -9999 -9999 -9999 -9999 -9999 -9999 -9999 -9999 -9999 -9999 -9999 -9999 -9999 -9999 -9999 -9999 -9999 -9999 -9999 -9999 -9999 -9999 -9999 -9999 -9999 -9999 -9999 -9999 -9999 -9999 -9999 -9999 -9999 -9999 -9999 -9999 -9999 -9999 -9999 -9999 -9999 -9999 -9999 -9999 -9999 -9999 -9999 -9999 -9999 -9999 -9999 -9999 -9999 -9999 -9999 -9999 -9999 -9999 -9999 -9999 -9999 -9999 -9999 -9999 -9999 -9999 -9999 -9999 -9999 -9999 -9999 -9999 -9999 -9999 -9999 -9999 -9999 -9999 -9999 -9999 -9999 -9999 -9999 -9999 -9999 -9999 -9999 -9999 -9999 -9999 -9999 -9999 -9999 -9999 -9999 -9999 -9999 -2.08 -9999 -9999 -9999 -9999 -9999 -9999 -9999 -9999 -9999 -9999 -9999 -9999 -9999 -9999 -2.209 -9999 -9999 -9999 -9999 -1.923 -2.087 -2.107 -2.117 -9999 -9999 -2.022 -2.114 -2.013 -2.201 -1.957 -2.045 -2.081 -2.107 -2.097 -2.137 -2.162 -2.042 -2.189 -2.099 -2.057 -2.151 -2.137 -2.144 -2.16 -9999 -1.957 -2.037 -1.997 -9999 -9999 -1.942 -2.067 -1.945 -2.104 -2.057 -2.079 -2.027 -1.95 -2.146 -2.082 -2.02 -1.999 -2.009 -2.005 -2.119 -2.115 -1.998 -1.931 -2.131 -2.077 -2.149 -2.126 -1.98 -2.151 -2.077 -2.141 -2.201 -2.096 -2.055 -2.109 -2.062 -2.124 -2.087 -2.092 -2.045 -2.094 -2.102 -1.988 -2.126 -2.126 -2.002 -2.017 -2.179 -2.151 -2.027 -2 -2.181 -2.077 -2.115 -2.117 -2.114
