ncols 431
nrows 31
xllcorner    458020
yllcorner    92070
cellsize     2
NODATA_value -9999
32.874 33.354 33.514 33.757 34.154 34.157 34.344 34.099 34.314 35.397 36.387 40.877 42.524 42.019 39.597 35.884 36.217 37.089 38.137 39.752 39.197 37.639 37.167 37.329 37.542 38.704 39.924 40.262 39.457 39.629 39.717 39.314 39.837 39.194 39.334 39.354 39.459 39.579 39.662 39.797 41.397 41.629 40.532 40.404 40.664 41.704 41.372 40.842 41.082 42.372 45.192 47.112 47.899 48.059 48.142 48.322 47.434 44.524 43.304 42.522 42.919 43.547 42.634 42.449 42.324 42.374 42.489 42.497 42.509 42.607 42.922 43.392 42.627 42.684 42.707 42.712 42.772 42.822 42.932 42.952 42.952 45.684 49.162 49.012 44.627 45.294 43.312 42.982 42.899 42.957 42.954 42.972 42.987 43.499 44.597 46.002 42.899 42.894 42.904 42.894 42.874 42.919 42.989 43.034 43.027 42.902 44.309 45.844 45.884 45.899 45.859 45.999 46.237 46.464 46.917 46.954 47.022 47.049 47.102 47.134 47.217 43.689 42.139 42.172 41.969 41.917 41.867 41.794 41.659 41.429 40.839 40.414 40.322 40.264 40.252 40.269 40.299 40.334 40.319 40.274 40.302 40.344 40.332 40.329 40.329 40.349 40.319 40.322 40.344 40.329 40.329 40.329 40.324 40.327 40.344 40.339 40.317 40.309 40.289 40.299 40.287 40.319 40.327 40.364 40.387 40.379 40.414 40.404 41.864 49.214 49.804 51.299 53.129 54.157 49.699 50.429 46.672 44.674 49.194 42.667 43.854 42.157 42.264 42.429 42.672 42.722 43.139 43.527 43.829 44.654 45.096 44.826 45.179 45.374 44.779 43.944 43.984 43.899 43.884 43.961 43.986 44.431 46.491 45.466 45.126 46.096 47.334 46.511 45.596 46.679 46.824 45.291 45.336 44.891 45.069 45.016 44.926 44.994 45.011 45.036 45.194 45.626 46.321 46.971 45.711 45.809 45.594 47.336 46.941 46.229 46.686 47.199 45.969 45.389 45.414 45.459 45.504 45.564 45.619 45.521 46.941 51.099 53.991 53.819 54.044 52.386 48.464 48.706 48.486 47.481 47.076 48.466 46.376 45.286 45.351 45.256 45.396 45.659 45.604 49.434 52.586 52.356 52.469 49.911 46.679 48.864 48.909 47.311 46.421 45.451 45.401 45.421 46.591 45.689 45.964 45.551 49.289 51.889 52.129 52.009 48.204 45.954 50.214 51.184 51.501 51.544 49.226 44.886 47.731 51.346 51.351 46.784 46.716 50.281 46.624 48.149 44.411 45.701 44.801 44.254 44.549 44.289 44.346 44.371 44.164 44.304 44.321 44.564 45.241 44.369 44.566 44.696 44.256 44.221 44.294 44.629 44.506 44.044 44.144 44.171 44.224 44.346 44.281 44.521 45.024 45.171 45.841 45.869 45.166 46.121 46.239 45.196 45.561 45.934 45.274 45.541 46.131 46.166 45.869 46.284 46.254 46.011 48.181 47.801 46.021 46.091 46.189 46.266 46.381 46.456 46.604 46.714 46.824 46.934 47.024 47.224 47.174 47.396 47.574 47.629 47.704 47.749 47.961 47.854 47.781 47.854 47.979 48.284 48.514 48.419 49.211 49.101 48.739 49.121 49.424 48.874 49.196 49.574 48.861 48.961 49.016 49.056 49.114 49.229 49.261 49.376 50.006 50.124 49.814 50.046 49.774 50.489 50.596 49.824 49.896 49.956 49.866 49.919 49.921 49.986 50.034 50.084 50.076 50.119 50.169 50.171 50.246 50.431 50.326 50.319 50.336 50.596 50.664 50.599 50.756 50.881 50.559 50.474 50.474 50.541 51.061 51.279 51.089 51.336 50.891 51.054 50.961 50.806 52.211 52.336 50.774
33.497 33.492 33.679 33.884 34.147 34.487 35.129 34.239 34.852 35.469 35.202 38.117 39.034 40.259 39.249 36.212 37.164 38.247 39.702 38.327 37.587 37.314 37.264 37.444 38.289 38.417 39.017 39.389 38.617 39.284 39.554 38.977 39.139 39.734 40.037 39.529 40.457 40.304 39.879 40.194 41.669 41.884 41.332 40.617 40.569 41.294 41.044 40.829 40.994 43.227 47.097 48.009 47.789 46.352 47.054 47.009 45.427 42.832 43.579 42.469 42.227 42.467 42.309 43.887 44.594 44.464 42.522 42.609 42.632 42.687 42.889 43.379 42.742 42.759 42.764 42.852 43.579 42.964 43.012 43.019 43.007 47.764 49.947 50.542 49.482 44.392 43.124 43.077 43.172 43.057 43.014 43.072 43.069 43.389 43.934 43.787 42.939 42.942 42.934 42.902 42.912 42.972 43.057 43.082 43.007 42.939 43.324 45.702 45.874 45.884 45.887 45.814 45.067 45.549 47.157 47.212 47.249 47.312 47.332 47.342 47.069 44.582 42.082 42.092 41.972 41.994 41.959 41.792 41.722 41.527 40.909 40.429 40.327 40.279 40.277 40.297 40.289 40.322 40.359 40.337 40.357 40.394 40.389 40.399 40.397 40.372 40.362 40.354 40.354 40.337 40.349 40.364 40.349 40.349 40.352 40.364 40.357 40.314 40.324 40.347 40.337 40.344 40.359 40.372 40.412 40.439 40.457 40.477 42.002 50.097 50.879 50.719 53.284 53.979 53.207 49.177 44.567 41.754 42.102 42.307 42.242 42.314 42.352 44.032 44.519 43.527 43.427 44.349 45.972 45.349 48.119 49.369 47.206 43.704 43.954 43.824 44.681 44.006 43.959 43.964 44.006 44.129 44.736 45.149 45.874 47.484 48.224 47.471 46.891 47.249 47.156 48.376 46.461 44.859 45.751 44.876 44.909 44.954 45.026 45.084 46.614 47.139 45.691 45.451 45.734 47.284 47.644 47.744 47.651 47.779 47.799 47.454 46.946 47.946 47.596 45.464 45.496 45.576 45.599 45.544 45.886 50.399 53.619 54.046 53.694 53.179 50.056 47.851 45.834 45.499 48.286 48.704 46.596 45.284 45.316 45.346 45.334 45.486 45.561 47.389 50.271 49.009 47.606 47.384 47.829 48.986 49.019 46.494 45.484 45.436 45.941 46.276 47.546 45.799 46.711 46.069 48.766 51.579 51.474 51.446 51.184 46.079 49.421 51.461 51.946 51.489 50.731 44.901 45.699 48.836 48.994 45.146 44.711 45.529 44.936 44.826 44.514 45.091 45.066 44.766 44.856 44.794 45.791 45.314 44.356 45.031 44.611 44.114 44.119 44.016 44.011 44.024 44.004 43.999 44.131 44.336 44.101 44.059 44.104 44.134 44.421 45.044 44.876 44.494 44.621 44.774 44.966 45.136 45.111 45.544 46.251 46.181 45.751 45.344 45.504 45.341 45.409 45.471 45.459 46.909 46.149 46.094 48.211 47.254 46.236 47.166 46.244 46.331 46.421 47.016 46.994 47.056 47.169 47.134 47.174 47.446 47.419 47.936 47.471 47.749 48.014 48.606 48.696 48.411 48.199 48.004 48.534 48.724 48.556 48.506 48.774 48.666 49.891 49.964 49.214 49.364 48.969 49.279 48.949 49.101 49.041 49.074 49.189 49.224 49.279 49.404 49.671 49.966 49.804 50.104 50.079 51.391 51.341 49.981 49.961 50.494 49.881 49.881 49.926 49.961 50.014 50.064 50.659 50.829 50.231 50.571 50.544 50.534 50.629 50.576 50.644 50.489 50.359 50.429 50.506 50.454 50.519 50.519 50.526 50.581 50.589 50.606 50.601 50.629 50.654 50.661 50.681 50.689 50.699 50.809 50.726
33.332 33.542 33.787 34.042 34.954 34.632 35.152 34.299 34.712 35.532 35.392 36.142 36.399 37.587 37.467 37.224 38.709 39.889 43.087 41.234 38.177 37.387 37.364 38.932 39.019 38.284 38.432 40.097 40.137 38.929 38.899 38.967 39.087 39.284 39.519 39.719 40.759 40.547 39.999 40.389 41.797 41.287 40.692 40.537 40.634 40.712 40.864 40.897 40.979 41.289 44.602 47.114 45.887 43.049 43.619 44.269 42.089 42.082 42.949 43.032 42.347 42.674 44.302 46.937 48.474 46.537 42.982 42.607 42.702 42.714 42.817 42.794 42.787 42.829 42.797 42.877 42.922 43.024 43.112 43.202 45.592 49.214 50.397 50.242 48.182 43.174 43.187 43.197 43.157 43.427 43.197 43.482 43.297 43.602 44.174 43.209 43.022 42.992 42.979 42.957 42.999 43.012 43.032 42.999 43.012 42.932 42.842 45.734 45.862 45.874 45.869 45.832 45.077 45.579 47.377 47.332 47.289 47.254 47.244 47.189 47.109 46.094 42.122 42.062 41.997 41.912 41.892 41.792 41.772 41.594 40.954 40.447 40.342 40.327 40.304 40.304 40.347 40.369 40.392 40.387 40.377 40.417 40.409 40.434 40.469 40.447 40.422 40.402 40.402 40.357 40.377 40.389 40.387 40.392 40.362 40.374 40.347 40.337 40.329 40.364 40.374 40.367 40.379 40.387 40.404 40.462 40.504 40.529 40.837 48.044 50.874 51.184 52.364 52.427 51.839 51.474 47.149 41.757 41.824 41.929 42.249 44.194 43.679 43.799 44.504 45.139 44.737 44.967 44.374 45.569 49.406 49.784 48.721 44.341 43.699 43.749 44.351 44.151 43.976 43.954 43.999 44.949 48.036 46.209 46.049 45.679 46.136 47.346 49.141 50.154 50.929 51.299 49.309 44.771 44.824 44.866 44.906 44.981 45.051 45.044 45.714 46.176 47.344 47.784 47.969 48.141 47.736 46.781 48.029 48.976 48.251 48.159 47.239 49.216 49.236 46.266 45.519 46.464 46.966 47.804 50.041 53.149 53.939 54.141 53.746 50.481 49.161 48.231 45.696 45.476 45.486 45.714 46.049 45.574 45.319 45.401 45.331 45.429 45.549 45.659 46.594 47.076 47.559 49.631 50.766 47.446 46.931 45.851 45.549 45.486 46.774 48.156 48.341 47.189 47.021 46.001 48.414 51.414 52.101 52.441 51.326 46.654 47.084 50.334 48.884 47.954 46.639 44.936 44.996 45.466 45.304 44.946 44.781 44.846 45.084 44.794 45.244 45.161 44.799 45.256 44.866 44.646 44.629 44.456 44.219 44.226 44.124 44.146 44.109 44.239 44.546 44.259 44.854 44.584 44.539 45.051 44.411 44.069 44.089 44.074 44.161 44.299 44.401 44.396 44.446 44.594 44.681 44.676 45.981 47.241 46.709 45.824 46.221 48.679 48.844 47.766 47.774 45.381 45.404 46.541 46.389 50.406 51.564 47.834 46.561 47.399 46.386 46.339 46.424 46.711 49.581 50.521 51.179 49.974 50.066 49.304 51.244 51.461 51.459 49.149 48.416 52.169 51.924 51.341 51.064 49.371 49.854 51.199 49.619 48.626 49.294 49.584 50.859 50.111 49.506 49.661 49.106 49.036 49.141 49.496 49.136 49.189 49.281 49.224 49.256 49.796 49.784 49.684 49.856 50.149 50.119 49.814 49.986 50.036 49.831 49.889 49.929 49.954 49.956 49.964 50.051 50.071 50.419 50.411 50.224 50.569 50.476 50.606 50.746 50.956 51.431 50.894 50.586 51.464 50.946 50.481 50.424 50.431 51.221 51.594 50.614 51.186 50.899 50.906 50.786 50.701 50.751 50.654 50.841 50.821 50.731
33.419 33.637 33.924 34.094 34.382 34.349 34.472 34.419 34.984 35.564 35.279 35.517 36.407 37.119 36.984 36.759 39.037 43.172 44.207 43.379 39.897 38.047 38.234 39.259 38.344 38.219 39.292 41.597 40.877 39.037 38.892 38.989 39.139 39.362 39.454 40.632 41.454 40.804 40.409 40.822 40.804 41.334 41.464 40.579 40.684 40.757 40.999 41.094 41.039 41.189 41.944 44.939 42.417 41.919 41.827 42.139 42.069 42.049 42.677 43.932 43.824 45.672 48.682 49.482 49.482 48.064 44.639 42.682 43.052 42.799 42.879 42.904 42.862 42.869 42.849 42.944 43.052 43.109 43.164 44.257 48.182 49.819 50.514 49.684 45.992 43.317 43.249 43.242 43.239 43.212 43.209 43.352 43.277 44.214 43.722 43.047 43.074 43.042 43.024 43.007 42.972 43.004 42.912 42.889 42.914 43.034 42.639 44.849 45.849 45.877 45.879 45.792 45.429 44.932 46.804 47.124 47.114 47.004 46.999 46.934 46.862 46.682 42.772 42.089 42.229 42.194 42.647 43.132 41.802 41.664 41.112 40.534 40.362 40.344 40.332 40.329 40.359 40.399 40.394 40.387 40.407 40.424 40.452 40.469 40.477 40.462 40.494 40.452 40.434 40.412 40.409 40.399 40.407 40.414 40.412 40.399 40.382 40.364 40.344 40.379 40.417 40.414 40.444 40.429 40.474 40.492 40.549 40.594 40.597 46.074 50.439 45.972 45.049 51.742 53.309 43.542 44.572 41.684 41.747 42.509 43.582 44.824 44.922 44.252 44.949 45.152 45.594 47.099 47.324 45.619 48.996 50.066 49.239 45.696 44.264 45.901 46.214 45.066 43.994 43.946 44.021 44.346 45.626 44.254 44.469 44.349 44.839 48.271 51.091 51.779 52.016 52.281 50.801 45.576 44.809 44.859 44.931 45.156 45.821 46.399 46.884 47.479 47.416 46.786 46.004 46.074 46.866 46.769 49.429 49.984 47.436 47.869 46.981 47.179 48.219 47.699 47.806 47.804 47.551 46.864 46.719 50.439 53.899 53.791 53.614 50.499 46.854 45.909 45.574 46.026 47.019 46.706 47.904 47.386 45.356 45.454 45.391 45.641 46.201 46.664 47.014 50.936 52.789 53.279 53.531 50.676 49.944 46.364 45.569 45.576 46.014 47.781 48.324 48.341 47.289 46.071 45.924 50.554 51.521 49.796 48.866 46.114 45.361 45.204 45.166 45.254 45.089 45.061 44.941 44.891 44.814 44.799 44.761 44.931 45.329 44.844 44.849 44.536 44.516 44.439 44.376 44.304 44.276 44.246 44.231 44.451 44.991 44.671 44.204 44.436 44.519 44.299 44.194 44.001 43.999 44.096 44.144 44.279 44.441 44.194 44.316 45.806 44.611 45.119 47.216 47.969 45.011 48.584 49.686 50.466 50.164 46.334 46.239 51.554 51.851 51.894 51.729 48.081 45.701 46.239 46.901 51.971 52.246 47.991 47.586 48.094 46.801 46.379 46.464 46.806 51.964 53.271 53.349 53.296 50.906 51.936 53.984 54.209 53.546 49.481 49.856 54.166 54.744 54.776 54.396 50.616 53.861 54.431 52.551 49.816 53.296 54.334 54.209 53.516 51.479 48.919 52.171 53.561 51.829 49.484 52.871 53.424 52.231 51.401 50.161 49.659 50.721 51.371 51.534 51.206 50.341 50.244 49.959 50.649 51.244 51.161 50.189 50.939 50.926 50.729 50.886 50.534 50.419 50.741 50.564 50.506 50.331 50.674 50.649 50.731 50.511 50.669 50.964 50.784 50.656 50.671 50.386 50.446 50.686 51.044 50.571 50.886 50.844 51.321 50.924 50.589 50.869 50.674 51.294 51.584 50.781
38.889 35.907 35.454 34.359 34.684 34.609 34.517 34.499 34.757 35.747 35.512 35.579 35.809 36.637 36.367 36.304 37.379 42.079 43.839 44.299 43.127 42.617 41.579 40.447 39.397 38.512 38.954 39.182 38.672 38.832 38.919 39.224 39.277 39.684 39.737 40.027 40.324 40.037 41.137 43.434 43.907 42.007 41.922 41.772 40.779 40.829 40.939 41.182 41.429 41.234 41.409 43.167 42.799 41.742 41.894 42.022 42.084 42.087 42.512 43.969 44.774 44.582 48.472 49.667 49.344 48.257 44.529 43.494 43.129 42.919 42.902 42.954 42.969 42.932 42.937 43.047 43.144 43.197 43.189 45.764 49.042 50.337 50.289 49.069 46.787 45.757 43.707 43.304 43.342 43.277 43.232 43.207 43.227 44.902 44.012 43.124 43.117 43.102 43.089 43.052 42.989 42.949 42.919 42.894 43.002 43.219 42.892 44.649 45.849 45.847 45.912 45.872 45.552 44.902 46.602 46.864 46.809 46.759 46.699 46.652 46.652 46.602 45.599 45.257 46.229 46.037 44.974 45.994 44.199 45.072 41.237 40.657 40.412 40.372 40.392 40.382 40.409 40.419 40.447 40.467 40.477 40.489 40.484 40.489 40.487 40.507 40.497 40.479 40.489 40.464 40.424 40.422 40.424 40.407 40.377 40.399 40.399 40.409 40.419 40.407 40.434 40.437 40.484 40.474 40.497 40.504 40.574 40.629 40.642 41.334 44.049 49.147 45.717 42.742 43.449 41.802 41.599 42.527 48.147 52.897 51.669 48.817 44.302 44.229 43.984 43.259 43.432 46.999 46.469 44.554 47.936 49.649 49.616 48.014 46.051 47.684 47.151 45.264 44.111 43.991 43.999 44.026 44.081 44.294 45.556 44.431 44.494 45.561 50.761 51.261 50.864 51.506 50.974 46.641 45.296 45.359 46.254 47.404 47.401 46.484 45.841 45.521 45.286 45.374 45.379 45.436 46.471 47.311 49.089 52.964 52.079 48.429 47.654 47.889 47.896 47.839 46.901 46.114 45.629 45.589 45.824 48.246 53.074 51.179 50.229 47.961 46.281 46.294 47.904 47.059 46.909 46.286 48.249 47.561 45.446 45.446 45.501 45.444 46.006 45.774 48.399 53.679 53.671 53.186 53.824 52.871 51.474 47.826 46.331 45.571 45.521 45.624 47.999 48.389 47.911 45.856 45.961 47.599 47.816 45.654 45.299 45.276 45.379 45.224 45.214 45.209 45.616 45.866 44.979 44.944 44.931 44.834 44.819 44.794 44.744 44.699 44.614 44.594 44.856 44.891 45.146 45.256 44.294 44.216 44.149 44.229 44.606 44.369 44.251 44.064 43.996 44.026 44.299 44.404 44.054 45.041 48.311 45.646 45.521 44.271 47.261 50.941 50.264 49.226 50.761 49.861 44.636 49.344 51.466 51.746 51.266 47.601 46.644 51.646 52.496 52.066 51.759 50.334 48.611 47.986 48.906 52.119 52.364 47.796 49.226 49.496 47.409 46.991 46.554 46.721 50.674 52.291 52.729 53.336 51.046 52.924 53.701 53.596 53.409 48.231 48.386 53.841 54.309 54.374 54.106 52.486 54.029 54.399 52.251 52.231 54.476 54.709 54.896 54.684 53.596 49.409 53.796 54.894 50.269 49.876 54.589 56.051 56.001 55.426 50.736 50.699 55.649 55.656 55.719 54.884 50.474 54.979 54.864 55.459 54.051 52.889 51.506 55.059 54.219 53.791 53.386 50.344 51.321 52.966 51.441 50.559 51.004 50.779 51.106 51.066 50.681 50.411 51.471 51.264 51.294 50.709 50.796 50.794 50.941 52.014 52.779 52.654 51.104 50.911 51.276 50.849 50.859 50.646 50.649 50.666 50.701
40.122 39.119 37.152 34.937 34.849 35.012 34.619 34.577 34.814 35.354 36.104 35.844 36.722 36.314 36.164 36.352 36.514 39.652 42.782 44.049 44.252 44.252 43.379 41.057 39.222 40.582 43.039 42.044 39.049 38.927 39.632 40.827 40.444 39.527 39.607 39.749 39.904 40.394 41.107 43.322 44.779 43.749 42.389 44.952 42.454 41.437 41.029 41.304 42.769 42.122 41.594 42.572 42.297 41.924 42.012 42.007 42.127 42.129 42.449 43.694 44.594 43.459 45.769 49.259 49.702 47.354 44.142 44.514 44.774 43.199 42.929 42.959 43.002 42.987 43.037 43.114 43.207 43.209 43.499 47.397 49.594 50.559 49.874 48.234 46.289 46.219 43.624 43.374 43.292 43.264 43.249 43.252 43.564 44.252 43.374 43.197 43.197 43.164 43.139 43.082 43.009 43.012 42.997 42.947 42.929 43.082 42.884 43.249 45.754 45.879 45.897 45.877 45.659 44.767 45.639 46.659 46.599 46.519 46.484 46.527 46.399 46.344 46.319 46.294 46.232 46.154 46.154 44.359 44.184 45.419 41.887 40.777 40.489 40.404 40.424 40.414 40.419 40.474 40.477 40.487 40.502 40.532 40.512 40.522 40.539 40.524 40.502 40.492 40.454 40.454 40.427 40.409 40.444 40.447 40.434 40.439 40.409 40.404 40.444 40.457 40.449 40.499 40.474 40.509 40.529 40.559 40.607 40.662 40.692 40.722 41.289 42.087 42.439 41.419 44.079 44.609 48.964 51.867 54.057 54.644 55.069 53.259 44.324 42.567 42.664 42.792 42.969 43.942 43.694 43.342 45.236 46.716 46.771 45.896 45.969 45.756 45.846 45.019 44.629 44.049 44.874 44.121 44.089 44.241 45.321 44.639 45.394 45.196 47.849 46.941 48.261 48.481 46.429 47.239 47.166 47.131 46.459 45.899 45.266 45.126 45.139 45.226 45.289 45.461 46.476 45.589 47.861 49.276 52.521 53.671 53.204 49.204 47.916 46.771 45.736 45.641 45.791 45.831 45.619 45.979 46.409 46.476 47.621 48.004 48.261 49.329 50.166 47.544 47.251 46.096 45.829 45.861 46.556 47.896 45.669 45.479 45.539 45.504 45.734 45.851 48.104 52.851 53.709 53.281 53.669 53.164 51.764 50.744 47.149 45.634 45.514 45.504 46.731 48.301 47.244 45.649 46.436 46.056 45.841 45.554 45.321 45.506 45.436 45.234 45.174 45.309 45.679 45.576 45.111 45.069 44.931 44.869 44.834 45.049 45.106 44.681 44.619 44.799 45.229 44.766 44.571 44.509 44.544 44.259 45.219 45.786 45.494 45.221 44.441 44.446 46.366 47.421 47.634 49.059 45.991 47.404 50.984 49.764 45.109 44.341 47.784 51.504 51.244 47.559 50.681 51.001 47.259 49.674 50.914 50.969 50.904 49.061 46.869 51.346 52.176 52.139 51.916 48.346 48.654 48.469 48.511 51.854 51.469 47.964 49.786 48.141 46.526 46.921 46.751 47.024 49.159 49.664 51.246 53.176 52.699 52.241 53.886 54.176 53.599 49.026 49.054 54.234 54.799 54.789 54.139 53.439 54.134 54.119 51.469 51.881 54.474 54.584 54.594 54.431 53.709 51.594 54.504 54.894 49.799 51.804 54.814 56.079 55.836 55.501 51.406 51.049 55.721 56.384 56.051 54.736 51.849 55.771 56.586 56.959 56.294 51.549 52.739 56.324 57.009 56.769 54.571 50.314 54.086 56.401 56.141 56.116 55.754 55.311 55.774 55.076 54.519 54.829 54.291 55.281 55.251 52.594 51.361 53.781 52.644 54.186 53.634 53.736 53.574 53.714 52.484 51.781 51.771 51.626 51.109 50.991 51.014
39.887 39.294 36.807 34.877 34.714 34.829 34.679 34.657 34.837 35.177 36.114 36.514 35.827 36.032 36.212 36.387 36.992 38.747 41.422 43.697 44.709 44.889 43.964 41.809 39.054 43.819 45.407 44.944 41.227 39.027 39.147 39.627 39.512 39.822 39.704 40.397 41.424 40.289 40.172 41.057 43.919 44.692 46.202 45.372 43.927 44.137 42.502 41.624 42.094 42.387 41.629 41.957 42.699 42.404 42.074 42.044 42.144 42.149 42.199 43.204 43.384 42.649 44.537 48.504 49.744 49.089 45.182 42.924 43.972 43.249 42.974 43.029 43.064 43.039 43.144 43.209 43.267 43.179 44.162 48.397 50.242 50.429 49.304 45.804 44.029 44.572 43.332 43.312 43.332 43.344 43.302 43.327 44.302 44.022 43.227 43.214 43.214 43.209 43.207 43.159 43.089 43.044 42.974 42.999 42.984 42.992 42.649 43.184 44.472 44.264 43.959 44.962 45.552 46.067 46.267 46.472 46.379 46.289 46.274 46.284 46.227 46.104 46.072 46.049 45.984 45.929 46.419 44.567 44.269 43.094 41.549 40.922 40.537 40.454 40.424 40.444 40.474 40.482 40.504 40.519 40.554 40.552 40.554 40.549 40.547 40.512 40.509 40.502 40.477 40.474 40.434 40.449 40.452 40.484 40.484 40.459 40.447 40.459 40.437 40.449 40.474 40.514 40.524 40.554 40.549 40.597 40.627 40.662 40.717 40.772 40.812 40.929 41.849 48.429 52.569 53.464 54.174 54.867 55.117 54.987 54.867 53.492 44.167 42.739 43.089 42.932 42.922 43.019 43.074 43.197 44.961 46.764 46.084 46.171 47.111 47.401 45.059 44.004 44.639 44.196 44.786 44.301 44.094 44.189 44.786 45.449 45.086 44.926 46.881 46.126 46.136 46.089 46.289 46.571 45.836 45.341 44.896 44.946 45.104 45.144 45.164 45.211 45.259 45.611 45.591 45.416 45.736 46.326 51.424 53.326 53.806 48.869 46.946 46.136 45.656 45.631 45.681 45.744 45.639 45.731 46.281 47.271 47.419 49.174 50.721 52.019 52.339 50.771 46.754 46.249 45.849 45.861 45.851 46.131 45.951 45.514 45.566 45.614 45.606 46.439 45.839 47.709 53.146 53.756 53.649 53.619 51.351 50.629 47.951 45.669 45.561 45.969 46.664 47.701 45.831 45.769 45.639 45.551 45.824 45.359 45.339 46.366 45.611 45.299 45.259 45.211 45.184 45.281 45.404 45.071 45.201 45.881 45.586 46.004 45.224 44.666 44.614 44.864 44.684 44.521 44.874 44.454 44.416 44.324 45.204 46.489 48.019 48.359 47.141 44.791 49.549 50.556 50.904 50.819 47.436 46.746 50.869 50.006 47.131 44.504 47.724 51.244 51.366 47.899 50.096 50.976 47.699 48.931 51.361 52.126 51.426 47.666 45.739 51.324 52.009 51.834 51.366 48.059 48.334 48.514 48.369 51.851 52.369 48.554 49.261 47.811 46.594 46.621 46.589 46.616 47.146 49.001 50.451 52.426 51.744 52.136 53.079 53.171 53.016 49.976 49.601 53.799 54.286 54.421 54.076 53.124 54.089 53.759 50.619 49.401 53.591 53.841 54.491 54.469 51.429 50.106 55.179 54.879 51.749 51.994 55.044 55.889 55.579 55.464 52.099 51.259 55.666 55.836 55.781 54.736 51.541 55.254 56.019 55.999 56.011 51.306 52.329 56.039 56.204 56.269 53.611 52.269 54.349 56.731 57.249 57.041 56.884 56.846 56.839 56.779 56.726 56.629 56.591 56.566 56.106 51.344 53.306 56.514 57.009 56.981 56.974 57.064 57.194 55.229 52.316 55.839 56.934 56.244 56.401 54.419 51.446
39.652 38.602 35.714 34.599 34.912 35.529 34.774 34.717 34.824 35.212 35.459 36.902 36.199 36.084 36.332 36.732 39.047 39.279 38.289 42.949 44.367 43.809 41.042 39.584 38.532 44.149 45.464 45.874 44.157 41.224 39.959 39.477 40.349 40.917 41.292 41.547 41.927 40.124 40.284 40.907 42.652 46.139 45.502 44.792 41.407 44.082 44.914 44.639 44.199 42.527 41.839 41.984 42.367 42.312 42.247 42.104 42.247 42.214 42.277 42.947 43.302 42.659 42.679 47.124 49.414 49.322 47.634 43.772 43.064 43.192 43.002 43.087 43.107 43.122 43.179 43.262 43.277 43.269 43.979 45.989 49.367 50.044 48.632 43.929 43.399 43.402 43.409 43.399 43.344 43.377 43.344 44.087 45.187 43.272 43.284 43.299 43.287 43.279 43.264 43.192 43.137 43.092 43.072 43.037 43.004 43.004 42.774 42.322 42.452 46.014 46.422 46.384 46.377 46.319 46.202 46.177 46.164 46.092 46.047 46.062 45.967 45.849 45.787 45.784 45.732 45.654 45.589 45.127 43.809 43.432 41.657 41.039 40.617 40.494 40.464 40.477 40.497 40.509 40.512 40.557 40.559 40.554 40.564 40.562 40.562 40.557 40.542 40.509 40.487 40.472 40.457 40.452 40.472 40.517 40.497 40.474 40.454 40.497 40.519 40.517 40.494 40.537 40.567 40.592 40.607 40.627 40.664 40.714 40.744 40.799 40.837 41.197 47.652 52.617 54.554 54.699 54.524 54.499 54.409 54.227 54.014 53.069 45.067 42.914 43.527 42.984 42.942 43.234 43.084 43.447 45.716 45.816 46.111 48.671 50.179 49.671 45.466 43.856 44.289 44.434 46.884 44.841 44.104 44.159 44.301 45.246 44.884 46.169 47.064 47.126 46.794 47.746 47.564 46.399 46.066 47.126 45.221 44.879 45.041 45.134 45.179 45.229 45.269 45.519 45.516 45.401 45.744 45.909 47.219 52.216 53.926 52.786 48.141 46.609 46.224 46.339 45.654 45.901 46.541 46.499 46.304 46.046 46.606 51.341 52.764 53.051 52.816 48.024 45.984 45.866 45.924 46.384 46.786 46.201 46.589 45.664 45.659 45.621 45.604 46.136 45.891 46.029 51.724 53.076 52.891 52.749 47.701 46.344 46.264 46.381 47.866 47.941 47.801 47.021 45.646 45.464 47.091 47.789 46.829 45.486 45.431 45.396 45.316 45.291 45.239 45.189 45.746 46.924 46.866 45.049 45.101 45.566 45.014 44.934 45.171 44.916 44.826 44.976 45.119 46.671 46.094 46.241 45.784 44.459 46.919 50.529 51.136 50.996 49.404 44.241 48.346 50.606 50.959 50.471 48.384 46.146 50.654 50.669 48.171 44.914 45.924 51.041 51.594 48.144 49.796 51.171 49.609 48.796 50.594 50.569 50.304 45.629 45.656 47.951 50.934 50.901 49.269 46.124 48.419 48.686 48.339 51.506 52.261 46.619 47.271 46.701 47.339 47.431 46.431 46.586 46.934 48.621 50.184 51.859 50.074 50.136 52.221 52.759 50.184 49.139 49.316 50.891 53.821 53.699 52.151 52.506 53.221 52.759 50.991 51.429 53.354 51.264 52.854 53.634 50.704 50.171 53.839 54.319 51.891 50.236 55.236 55.651 55.756 55.274 50.336 52.236 55.701 55.946 55.954 55.184 50.276 55.274 57.006 57.279 56.224 51.199 52.489 56.401 56.676 56.646 55.634 50.694 54.309 56.744 57.546 57.236 57.281 57.229 57.301 57.349 57.289 57.291 57.361 57.234 55.051 51.431 54.279 56.541 57.209 57.189 57.381 57.424 57.079 52.289 52.304 57.071 58.794 59.251 58.371 54.944 51.829
36.924 36.854 34.397 34.672 34.812 35.592 34.742 34.767 34.894 35.172 35.524 36.012 36.832 36.179 37.389 38.757 38.404 37.732 38.084 37.739 42.212 39.594 37.924 38.147 38.272 39.659 44.607 45.789 45.624 45.049 43.822 39.979 40.742 41.627 41.617 43.037 40.677 40.962 43.672 43.982 43.159 42.897 43.262 42.017 41.517 42.912 43.174 43.417 45.107 43.562 43.497 43.309 42.482 42.329 42.322 42.212 42.267 42.309 42.349 42.704 43.964 42.804 42.659 44.787 48.589 47.584 46.914 43.074 43.729 43.052 43.092 43.114 43.127 43.197 43.229 43.284 43.864 46.282 45.799 44.269 45.329 46.784 45.824 43.677 44.024 43.482 43.414 43.489 43.409 43.419 43.664 44.852 44.319 43.327 43.292 43.314 43.299 43.297 43.269 43.209 43.214 43.184 43.149 43.112 43.044 43.022 42.919 42.329 42.404 45.187 46.199 46.149 46.079 46.032 45.982 45.927 45.917 45.844 45.797 45.714 45.664 45.599 45.637 45.544 45.484 45.447 44.659 43.512 44.274 42.329 41.694 41.139 40.707 40.519 40.502 40.514 40.547 40.547 40.569 40.599 40.564 40.564 40.574 40.552 40.539 40.547 40.529 40.502 40.527 40.492 40.497 40.487 40.474 40.499 40.532 40.527 40.509 40.532 40.584 40.584 40.559 40.569 40.609 40.634 40.659 40.667 40.689 40.739 40.774 40.807 40.869 42.367 49.444 53.169 54.144 55.309 53.709 53.949 53.929 51.649 52.162 48.497 43.204 43.142 45.187 44.892 43.897 43.084 42.932 43.079 43.371 43.846 45.639 49.551 50.666 50.349 48.549 43.844 44.024 45.434 46.844 45.059 44.124 44.154 44.274 44.929 46.046 46.104 45.414 48.506 50.659 51.036 51.144 48.961 47.309 47.421 45.764 44.819 44.991 45.156 45.224 45.476 45.636 45.884 46.719 46.714 45.964 45.734 45.556 48.101 53.416 53.121 49.809 46.174 47.536 47.366 46.246 46.689 47.229 46.284 45.849 45.844 45.919 49.946 52.116 52.124 53.031 51.521 47.346 47.706 49.999 50.386 47.049 47.709 48.034 46.004 45.621 45.689 45.669 45.829 46.211 46.034 46.011 46.556 47.024 46.624 46.006 46.314 47.604 47.439 46.999 46.564 46.511 46.044 45.566 45.606 46.086 46.039 45.516 45.476 45.479 45.746 45.659 45.289 45.199 45.146 45.289 45.706 45.444 45.136 45.071 46.221 45.456 45.044 45.441 46.041 47.471 45.059 46.731 51.014 51.454 50.961 50.061 44.999 46.601 50.446 51.004 50.484 49.609 44.359 47.681 50.491 51.111 51.029 49.869 45.319 50.081 50.736 48.164 44.804 45.184 50.386 51.444 48.781 46.404 50.334 48.204 47.559 48.621 49.691 48.916 44.901 44.996 45.631 48.721 49.149 48.206 47.301 47.651 46.936 47.826 49.516 50.151 48.674 50.871 50.881 51.761 51.154 46.396 47.006 48.194 47.679 47.126 47.276 48.316 49.191 49.959 50.506 49.389 49.001 48.876 50.916 52.441 52.646 50.061 51.186 52.599 50.776 50.494 50.771 51.451 50.584 50.499 52.496 51.981 51.826 53.509 52.406 51.084 49.531 54.776 54.969 54.894 54.376 49.799 50.126 54.451 55.249 54.981 53.199 50.949 54.116 55.731 55.956 55.574 52.376 53.619 56.189 56.289 56.184 53.866 51.126 55.009 56.141 56.271 56.254 56.344 56.356 56.459 56.439 56.516 56.599 56.734 56.649 54.634 51.679 54.399 56.699 57.474 57.304 57.276 57.274 56.899 54.781 54.719 57.279 59.209 60.101 58.649 55.794 52.616
33.909 34.094 34.477 34.807 34.859 34.862 34.797 34.824 34.994 35.177 35.502 35.834 36.932 37.464 38.844 37.567 37.009 37.362 37.244 37.352 37.632 37.847 38.037 38.347 38.334 38.652 42.682 45.127 45.997 46.137 45.644 43.112 40.394 43.292 46.172 46.057 42.849 42.434 44.624 45.044 43.929 41.139 41.357 41.422 42.699 42.217 42.102 41.834 43.162 44.707 45.107 44.799 45.434 44.687 43.417 44.734 42.952 42.434 42.429 42.514 43.359 43.437 43.279 43.204 45.017 44.579 43.397 43.062 43.104 43.134 43.149 43.177 43.212 43.262 43.282 43.324 45.649 49.322 49.802 48.139 45.644 44.419 44.724 44.782 45.407 44.142 43.444 43.404 43.429 43.464 44.714 44.499 43.504 43.357 43.344 43.354 43.339 43.309 43.327 43.299 43.267 43.187 43.184 43.179 43.154 43.027 42.919 42.497 42.199 44.167 45.902 45.929 45.867 45.792 45.714 45.712 45.677 45.567 45.637 45.497 45.542 45.394 45.364 45.394 45.377 45.394 45.437 45.467 44.922 42.317 41.789 41.224 40.712 40.537 40.534 40.542 40.552 40.562 40.619 40.632 40.609 40.592 40.607 40.582 40.562 40.569 40.554 40.532 40.534 40.502 40.529 40.524 40.507 40.544 40.549 40.559 40.554 40.562 40.574 40.632 40.644 40.662 40.652 40.667 40.674 40.707 40.747 40.759 40.804 40.829 40.852 41.197 45.942 51.532 53.024 53.352 53.167 52.369 51.129 46.229 45.327 46.307 45.502 45.827 45.647 44.859 43.819 42.932 42.994 43.077 43.164 43.619 45.961 48.901 50.294 50.749 49.046 44.001 44.684 47.091 44.576 44.166 44.209 44.171 44.671 44.721 44.806 44.464 44.714 48.826 51.251 51.899 51.389 50.434 47.439 46.806 46.234 44.861 45.026 45.381 45.591 46.056 46.084 45.564 45.594 45.604 45.661 45.801 45.631 46.281 51.381 52.924 50.271 46.569 46.149 45.846 45.826 45.841 45.834 45.821 45.854 45.851 45.914 48.271 52.139 53.194 52.799 52.221 50.239 48.491 52.621 52.969 49.524 48.596 48.734 46.639 45.694 45.726 45.801 45.711 46.361 48.164 46.086 46.896 46.644 45.931 46.186 46.126 46.936 47.621 46.734 45.714 45.839 45.736 45.641 45.619 45.636 45.646 45.821 46.399 46.131 46.141 45.801 45.279 45.259 45.264 45.414 45.826 45.709 45.639 45.634 45.184 45.404 49.034 50.111 51.526 51.149 45.201 46.014 50.741 50.984 50.921 50.559 44.484 46.684 50.359 50.831 51.079 50.609 45.331 45.901 50.471 50.741 50.584 49.444 46.344 49.724 50.276 47.971 44.571 44.261 48.344 50.819 49.374 45.099 49.021 49.454 46.844 47.716 48.341 46.294 44.781 45.616 45.694 47.709 47.369 47.316 46.974 46.896 46.596 46.481 46.031 47.514 49.199 52.316 52.571 52.519 50.659 46.341 46.456 48.809 49.289 47.854 47.171 48.461 47.359 47.454 48.561 47.571 48.446 48.384 49.364 50.164 50.741 48.781 49.766 50.481 50.204 49.424 48.506 48.529 49.731 48.839 49.361 50.814 51.631 52.376 50.931 50.036 49.801 54.049 54.681 54.709 53.616 49.744 50.619 54.226 54.789 54.486 50.856 50.096 52.629 55.511 55.546 53.769 51.186 52.484 55.326 55.564 55.156 51.791 52.691 54.419 55.254 55.324 54.209 54.024 55.456 55.536 54.491 53.111 55.356 55.786 55.806 55.421 52.809 53.581 56.509 56.666 56.734 56.904 56.954 56.784 55.756 54.141 57.321 58.414 59.281 58.249 54.726 52.404
33.954 34.272 34.724 34.879 34.889 34.862 34.857 34.914 35.084 35.239 35.497 35.839 36.214 37.262 37.479 36.852 37.407 37.854 37.294 37.679 37.759 38.007 38.659 38.962 38.404 38.562 39.219 43.884 45.869 45.797 44.194 41.532 39.782 45.527 46.682 47.072 45.492 43.167 44.599 42.177 42.034 40.967 41.159 41.237 41.392 41.389 41.409 41.477 42.057 43.527 44.032 44.109 44.342 44.907 44.597 44.789 42.697 42.502 42.529 42.569 43.624 44.022 42.907 42.987 44.254 43.489 43.104 43.227 43.107 43.159 43.187 43.707 43.312 43.282 43.339 43.534 47.527 49.984 50.664 49.549 45.512 43.769 45.452 45.572 45.287 44.104 43.597 43.459 43.464 43.637 44.519 43.789 43.472 43.484 43.427 43.407 43.362 43.347 43.309 43.299 43.287 43.262 43.284 43.239 43.197 42.974 42.734 42.507 42.262 43.379 45.597 45.652 45.677 45.552 45.512 45.472 45.409 45.354 45.329 45.329 45.409 45.457 45.479 45.477 45.572 45.604 45.674 45.699 45.342 42.562 41.829 41.342 40.797 40.599 40.549 40.562 40.577 40.609 40.667 40.667 40.649 40.604 40.609 40.632 40.587 40.627 40.614 40.577 40.582 40.549 40.514 40.529 40.552 40.587 40.592 40.589 40.559 40.582 40.619 40.647 40.669 40.669 40.714 40.727 40.732 40.749 40.769 40.822 40.834 40.884 40.922 40.964 41.979 47.394 51.684 52.394 49.249 49.249 48.854 46.302 43.312 44.409 44.532 44.834 43.099 43.092 42.809 42.902 42.997 43.074 43.171 43.316 44.726 47.314 49.711 50.376 49.496 46.451 45.469 48.696 48.494 46.271 44.209 44.191 44.186 44.329 44.469 44.516 44.546 45.724 50.586 50.676 49.844 47.579 45.176 45.051 45.139 45.581 45.594 45.609 45.794 46.656 46.174 45.531 45.571 45.599 45.634 45.696 46.076 46.211 48.474 49.514 48.744 47.094 45.899 45.871 45.841 45.846 45.836 45.851 45.891 45.889 45.986 46.546 50.914 51.226 49.081 47.366 46.961 49.119 51.546 49.219 46.799 47.419 47.891 46.429 45.736 45.751 45.799 45.761 45.826 46.156 46.151 46.061 45.929 46.109 46.779 46.619 46.241 46.351 45.909 45.734 45.774 46.039 46.349 46.089 46.464 46.546 45.681 46.124 45.806 45.964 45.499 45.701 45.566 45.669 46.296 48.264 48.779 50.519 50.654 45.254 45.326 49.959 51.944 52.159 51.234 47.349 45.126 50.384 50.836 51.051 50.906 45.836 44.639 50.064 50.551 50.546 49.359 46.029 45.429 48.256 49.874 49.896 47.786 46.731 48.554 50.271 46.541 44.741 45.001 47.289 50.166 49.459 44.924 46.876 47.639 44.926 46.341 47.001 45.276 44.761 46.154 45.529 46.159 45.789 45.776 45.311 45.326 46.021 47.816 47.571 47.659 49.099 52.074 52.114 52.126 50.576 46.814 46.461 46.664 48.549 49.111 48.774 49.311 47.571 47.319 47.546 48.969 48.769 48.136 48.824 49.204 49.576 48.464 50.589 50.919 49.906 49.399 48.649 48.559 48.989 48.729 49.104 49.751 49.006 49.426 49.976 49.646 49.751 52.749 52.636 54.294 54.351 51.266 50.124 52.789 52.326 50.596 49.719 50.469 52.279 53.451 54.326 52.311 50.981 52.109 54.094 53.956 53.909 52.061 52.859 53.249 53.926 53.966 52.369 51.744 54.214 54.056 53.104 51.236 53.736 54.759 54.906 53.536 51.639 52.904 56.066 52.626 53.664 56.464 56.211 54.811 54.229 52.726 56.591 57.566 58.241 57.024 54.424 52.996
34.007 34.884 34.707 35.007 34.929 34.907 34.907 34.994 35.142 35.339 35.567 35.869 36.117 36.379 36.607 36.797 37.804 38.349 37.977 37.684 37.894 38.032 38.349 38.329 38.537 38.702 38.844 39.457 44.607 43.647 41.542 41.239 39.754 41.532 45.952 47.037 46.817 46.112 45.327 41.819 41.742 41.077 41.367 41.417 41.462 41.427 41.364 41.572 43.042 43.774 42.584 42.967 42.364 42.252 42.642 43.049 43.329 43.657 42.812 42.694 44.449 43.919 43.027 44.824 44.367 43.349 43.547 43.454 43.174 43.189 43.344 43.737 43.317 43.299 43.342 44.469 48.879 50.727 50.479 48.364 43.842 43.464 43.954 45.334 45.252 44.112 44.369 43.692 43.617 44.122 44.804 43.507 43.504 43.797 43.687 43.507 43.414 43.384 43.332 43.329 43.324 43.297 43.294 43.267 43.207 43.059 42.839 42.584 42.334 42.332 44.812 45.399 45.387 45.374 45.377 45.389 45.454 45.482 45.537 45.604 45.642 45.664 45.767 45.827 45.802 45.812 45.894 45.954 46.052 44.139 42.017 41.447 40.884 40.669 40.614 40.604 40.627 40.639 40.672 40.692 40.704 40.687 40.677 40.664 40.629 40.659 40.642 40.632 40.622 40.579 40.549 40.559 40.567 40.567 40.599 40.634 40.619 40.609 40.622 40.662 40.702 40.722 40.752 40.792 40.792 40.789 40.807 40.857 40.877 40.889 40.929 40.972 41.299 47.944 51.552 52.584 49.992 51.092 47.474 43.972 42.619 43.597 44.869 43.942 42.562 42.697 42.794 42.867 42.977 43.044 43.169 43.186 43.771 46.226 48.219 48.716 47.694 46.064 46.254 48.051 48.614 46.096 44.239 44.256 44.221 44.336 44.424 44.521 44.569 45.241 49.499 49.809 49.701 46.281 45.479 45.694 45.514 45.316 45.309 46.414 46.744 45.864 45.524 45.549 45.596 45.599 45.596 45.791 46.656 46.131 46.911 47.226 48.121 47.626 46.544 45.876 45.914 45.839 45.831 45.864 45.966 46.379 45.901 45.951 46.904 46.621 46.929 48.216 50.876 52.069 52.016 52.484 50.156 46.549 46.544 46.046 45.864 45.794 45.839 45.829 45.874 45.886 45.886 45.869 45.914 45.926 45.879 45.884 45.836 45.881 46.181 46.156 47.186 47.166 46.619 46.046 45.874 45.894 46.344 45.679 45.819 48.306 47.856 49.736 49.106 46.566 46.596 51.126 51.889 52.249 51.489 46.379 46.371 49.996 51.219 51.304 51.424 48.204 45.349 49.441 50.911 50.814 50.539 46.536 44.569 48.236 49.636 50.344 48.674 44.629 44.844 45.014 49.091 49.739 48.179 46.636 46.949 47.701 46.299 47.264 47.189 46.654 47.369 47.244 45.214 45.411 46.994 45.194 44.811 45.171 44.896 45.171 45.646 46.384 45.099 45.169 45.494 45.244 45.336 46.076 48.986 48.611 47.294 48.871 52.344 52.561 52.499 51.154 46.321 46.424 46.624 47.354 49.136 49.201 49.006 47.261 47.301 47.516 48.021 48.194 47.981 48.001 48.639 48.139 48.094 49.811 50.576 50.699 50.429 48.909 48.779 49.116 48.646 48.711 49.094 48.884 49.046 50.071 49.606 49.246 49.209 49.956 51.359 52.064 50.424 49.639 50.574 51.729 51.224 50.349 50.669 50.174 50.786 53.306 51.486 50.599 50.529 52.346 52.844 52.896 52.541 52.894 53.209 53.204 51.366 51.129 51.551 52.609 52.704 52.639 51.339 52.479 53.234 53.411 52.926 51.206 51.626 55.496 53.254 54.339 56.234 55.944 53.611 52.799 53.529 53.811 57.524 58.086 56.221 53.044 51.431
34.229 35.349 34.999 34.899 35.359 35.119 35.002 35.059 35.212 35.417 35.639 35.884 36.159 36.412 36.612 36.802 37.004 37.259 37.784 38.104 37.869 38.049 38.464 39.027 38.664 38.817 39.117 38.974 39.139 41.712 41.472 40.942 39.722 39.979 43.799 46.297 47.252 47.379 47.174 44.394 41.524 41.152 41.532 41.459 41.582 41.494 41.542 41.707 46.347 45.952 43.394 42.197 42.134 42.257 42.369 42.487 42.627 44.654 45.132 44.564 44.644 44.557 43.119 43.982 43.734 43.082 43.117 43.192 43.219 43.194 43.217 43.314 43.342 43.347 43.574 47.017 49.774 50.804 49.834 47.412 44.664 43.607 43.504 43.582 43.582 43.652 44.007 43.892 44.019 45.249 44.539 43.537 43.537 43.614 43.929 43.977 43.722 43.604 43.434 43.392 43.334 43.319 43.304 43.304 43.332 43.229 43.044 42.759 42.402 42.617 44.909 45.444 45.457 45.522 45.569 45.647 45.672 45.864 45.799 45.849 45.914 45.882 45.942 46.014 46.049 46.152 46.167 46.194 46.247 44.704 42.087 41.609 41.012 40.704 40.654 40.644 40.667 40.662 40.692 40.724 40.707 40.674 40.697 40.714 40.697 40.652 40.649 40.624 40.659 40.634 40.599 40.597 40.597 40.567 40.597 40.607 40.642 40.649 40.669 40.687 40.709 40.739 40.804 40.842 40.909 41.354 40.862 40.879 40.932 40.939 40.994 41.032 41.994 49.614 51.802 52.322 51.244 51.382 48.954 44.157 44.549 44.909 44.307 42.472 42.559 42.639 42.734 42.877 42.984 43.072 43.146 43.219 43.864 45.211 47.166 46.996 46.334 46.421 46.569 45.314 46.704 45.291 44.279 44.259 44.289 44.281 44.386 44.454 45.059 45.391 47.779 48.084 47.054 45.709 45.201 45.121 45.334 45.316 45.454 48.139 48.531 45.799 45.514 45.536 45.619 45.614 45.611 45.624 45.759 45.691 45.926 47.316 48.114 46.906 46.199 49.046 47.531 45.856 45.871 45.899 46.651 48.101 46.646 47.304 47.111 47.746 48.381 49.719 52.649 52.849 52.844 53.371 53.551 51.469 46.249 45.991 45.931 45.791 45.881 45.876 45.939 45.911 45.921 45.919 45.939 45.941 45.904 45.879 45.846 46.531 46.271 46.466 50.886 45.781 45.854 45.819 45.636 46.396 47.274 45.801 47.294 51.281 51.861 51.859 51.064 46.689 47.321 50.934 51.419 51.334 51.396 47.666 45.579 47.609 51.521 51.616 51.261 49.531 45.144 47.231 49.721 50.436 49.731 46.176 44.714 46.111 49.151 50.294 49.416 45.384 44.996 44.521 44.851 46.224 46.986 45.664 46.339 47.794 46.619 47.374 47.569 46.379 46.696 46.701 45.474 44.724 44.891 45.176 44.796 44.899 45.566 44.786 45.661 46.579 45.146 45.141 45.534 45.969 50.124 49.631 50.511 46.436 47.681 47.809 48.534 49.859 48.134 48.284 46.421 46.391 46.609 47.024 49.141 49.251 49.209 47.219 47.711 47.541 47.861 48.119 47.929 48.131 48.444 48.111 48.094 48.846 49.224 49.659 50.521 48.634 48.716 48.991 48.966 49.656 49.479 48.874 49.324 50.936 49.644 49.211 49.559 50.426 49.584 49.879 50.324 49.644 49.829 51.916 50.589 51.771 50.334 50.231 50.769 52.626 52.346 51.144 51.246 51.686 52.576 52.356 51.849 50.834 51.106 51.566 51.019 51.481 50.591 50.834 51.269 50.829 51.441 52.446 52.504 52.389 52.236 51.109 50.771 50.936 51.004 51.286 53.906 53.844 52.776 52.706 53.246 53.914 55.109 56.784 55.599 52.739 51.426
35.304 35.659 35.052 34.997 35.667 35.487 35.074 35.142 35.277 35.577 35.942 36.189 36.367 36.529 36.679 36.874 37.047 37.252 37.422 37.622 37.797 38.179 39.237 38.664 38.882 39.527 39.157 39.107 39.904 41.269 40.927 39.979 39.774 40.049 40.479 44.939 47.377 47.682 46.859 44.982 41.614 41.164 41.262 41.384 41.552 41.762 41.637 41.692 45.794 46.174 44.834 43.189 42.372 42.434 42.787 43.449 43.892 45.604 46.462 46.807 45.534 45.449 43.962 43.137 43.264 43.469 43.202 43.214 43.237 43.222 43.274 43.347 43.349 43.377 43.849 48.057 50.349 50.544 48.479 47.154 46.382 44.462 44.424 43.994 43.674 43.924 43.687 43.649 44.082 45.754 43.964 43.584 43.609 43.604 43.567 43.632 43.652 43.517 43.464 43.454 43.424 43.397 43.647 43.992 43.777 43.949 43.517 42.912 42.477 42.337 44.314 45.669 45.707 45.754 45.834 45.837 45.897 45.962 46.022 46.037 46.117 46.164 46.217 46.252 46.274 46.337 46.397 46.434 46.454 45.457 42.159 41.722 41.139 40.774 40.692 40.667 40.689 40.722 40.737 40.772 40.767 40.739 40.724 40.739 40.709 40.704 40.704 40.687 40.662 40.659 40.624 40.627 40.632 40.627 40.627 40.649 40.677 40.694 40.727 40.739 40.759 40.792 40.834 40.854 40.874 40.914 40.949 40.959 40.982 41.002 41.042 41.924 42.754 48.144 51.272 52.239 50.562 50.087 48.082 44.312 45.307 44.652 42.927 42.487 42.577 42.669 42.752 42.882 42.962 43.069 43.179 44.319 46.004 46.819 47.114 46.276 46.439 46.661 47.079 45.811 44.276 44.636 44.374 44.296 44.311 44.304 44.376 44.536 44.809 45.136 45.739 45.894 45.179 47.826 49.029 45.279 45.359 45.274 45.289 46.016 46.919 45.639 46.379 45.531 45.611 45.629 45.644 45.659 45.716 46.701 47.871 47.364 47.734 47.024 46.356 49.501 49.611 46.606 47.511 47.921 47.956 47.624 47.171 47.649 47.809 48.551 48.744 49.166 53.094 53.829 54.136 54.429 54.249 53.239 46.636 46.769 46.101 45.931 45.866 45.959 45.959 45.994 45.956 45.866 45.899 45.881 45.836 45.886 46.031 46.739 46.529 47.759 50.304 46.156 46.429 47.239 47.511 46.571 47.764 46.606 48.029 51.474 52.239 52.261 51.566 49.609 46.634 49.749 51.706 51.951 51.791 48.954 46.104 46.679 50.259 50.904 50.561 46.274 45.881 45.174 48.849 50.266 49.904 46.614 44.866 45.791 45.556 46.109 46.509 44.874 44.839 44.431 44.444 45.276 45.171 45.524 44.651 47.246 46.319 46.809 47.604 45.609 44.929 45.286 47.746 45.476 45.164 46.506 46.106 44.981 46.356 45.766 45.426 46.406 45.106 45.151 45.274 47.344 52.326 53.169 52.561 46.679 47.374 48.146 46.191 46.281 46.351 46.661 46.371 46.369 46.544 47.031 49.029 49.259 49.161 47.311 47.611 48.304 48.396 47.976 47.931 48.114 48.254 48.141 48.114 48.776 49.794 49.616 49.694 48.646 49.089 49.644 48.854 49.559 50.019 48.866 51.499 53.214 51.189 49.186 49.546 49.851 49.611 50.011 50.276 49.651 49.876 51.619 50.669 50.431 50.196 50.549 50.264 50.156 50.764 50.789 50.199 50.326 50.854 50.814 50.609 50.509 50.519 50.539 50.494 51.159 50.694 50.644 50.794 50.756 50.951 50.824 51.199 50.824 51.194 50.849 50.869 50.836 50.909 51.606 53.399 53.404 52.164 53.221 52.926 51.799 52.366 53.254 53.224 52.286 51.401
35.282 35.232 34.927 35.022 35.254 35.204 35.167 35.242 35.469 35.909 36.194 37.287 37.392 37.047 36.839 36.972 37.112 37.332 37.469 37.639 37.814 37.992 38.357 38.477 38.724 38.897 39.204 39.847 41.307 42.639 40.579 39.852 39.947 40.042 40.152 42.139 45.442 46.202 44.147 41.524 41.047 41.169 41.189 41.482 41.819 41.687 41.684 41.787 43.224 44.379 43.157 43.927 44.304 43.907 42.897 43.062 44.089 46.157 47.879 49.034 48.672 45.462 43.819 43.717 43.732 43.592 43.199 43.217 43.202 43.252 43.344 43.372 43.689 43.832 44.792 49.177 50.857 49.992 45.609 44.409 45.117 43.632 43.837 44.084 44.682 44.242 43.767 43.844 44.494 45.302 43.652 43.637 43.619 43.624 43.564 43.582 43.557 43.524 43.467 43.419 43.612 43.922 43.562 43.747 43.304 43.269 43.327 43.529 42.599 42.329 44.154 45.932 45.964 46.012 46.064 46.114 46.154 46.262 46.334 46.304 46.339 46.347 46.377 46.479 46.437 46.457 46.409 46.342 46.339 45.429 42.034 41.822 41.282 40.832 40.734 40.709 40.694 40.679 40.742 40.777 40.782 40.744 40.752 40.757 40.747 40.742 40.729 40.732 40.707 40.684 40.649 40.647 40.677 40.699 40.679 40.679 40.714 40.724 40.744 40.782 40.777 40.799 40.842 40.872 40.909 40.934 40.982 41.034 41.004 41.002 41.052 41.022 41.009 46.004 50.887 51.777 49.687 50.129 47.502 44.107 45.157 45.292 44.767 42.517 42.619 42.682 42.754 45.202 43.747 43.027 44.256 45.906 45.469 45.231 46.316 44.836 45.831 48.414 49.671 47.904 44.354 46.511 46.164 44.524 44.351 44.369 44.394 44.524 44.701 44.694 44.971 46.881 49.566 51.544 51.401 47.321 45.461 45.276 45.296 45.349 45.604 47.334 47.056 45.636 45.626 45.606 45.779 45.916 46.231 47.826 47.931 47.869 46.636 46.986 47.149 47.681 47.969 47.891 47.879 48.676 46.871 46.689 46.789 47.919 48.884 48.896 48.841 48.701 52.146 54.839 55.399 55.444 54.849 53.714 47.396 46.504 46.636 45.964 45.881 45.994 45.986 46.004 45.956 45.924 45.959 46.021 46.419 46.461 47.376 46.894 47.221 46.721 46.629 47.679 48.344 48.571 48.601 48.926 49.249 47.716 48.389 51.216 51.539 51.634 51.749 50.146 47.146 47.624 51.239 51.079 50.706 46.931 46.681 47.549 48.324 50.546 50.754 48.206 46.104 45.419 45.869 47.514 48.004 46.659 45.084 47.114 45.454 44.851 45.069 44.524 44.569 44.641 44.416 44.416 44.696 44.926 44.594 45.699 44.956 45.981 47.701 47.284 44.906 44.829 46.366 45.001 46.029 47.016 46.509 45.564 46.704 46.169 46.486 46.044 45.459 46.264 46.721 49.649 52.801 53.541 52.361 45.861 46.626 48.139 46.791 46.509 47.906 46.946 46.291 46.311 46.484 46.999 48.911 49.244 48.999 47.194 47.556 48.711 48.889 48.279 47.926 48.179 48.389 48.136 48.386 48.821 49.991 49.714 49.059 49.274 50.131 50.644 49.066 49.699 50.759 50.191 52.549 53.429 52.146 50.421 51.086 51.401 50.019 50.394 51.029 49.716 49.909 52.494 51.146 50.121 50.181 50.266 50.406 50.174 50.791 50.459 50.171 50.241 50.571 50.234 50.756 50.476 50.454 50.676 50.479 50.566 50.821 51.641 51.011 50.756 50.796 50.789 50.889 50.866 51.239 50.924 50.846 50.841 51.074 52.049 53.476 52.099 52.034 52.989 51.909 51.509 52.986 51.721 51.416 51.399 51.446
39.117 35.854 35.037 35.044 35.279 35.312 35.212 35.359 35.784 36.074 36.612 36.844 36.782 36.912 36.982 37.284 37.649 37.437 37.564 37.732 37.877 38.037 38.192 38.322 38.562 38.787 39.227 39.812 40.239 42.097 39.472 39.494 39.904 40.072 40.187 40.279 40.949 42.444 40.794 40.942 41.307 41.902 41.192 41.417 41.639 41.682 41.762 42.452 43.372 43.437 42.142 42.412 42.964 43.512 43.249 43.472 43.932 46.189 48.587 49.239 48.752 46.939 43.672 43.777 43.522 43.327 43.237 43.269 43.532 43.879 43.367 43.412 43.439 43.982 48.174 50.097 50.687 49.054 43.902 43.689 45.022 44.219 43.759 43.764 43.749 44.069 44.504 44.529 45.372 44.474 43.694 43.689 43.649 43.814 43.632 43.942 43.544 43.484 43.457 43.432 43.392 43.384 43.359 43.352 43.314 43.292 43.274 43.827 42.699 42.369 43.624 45.939 46.229 46.209 46.324 46.334 46.382 46.332 46.467 46.074 45.814 45.767 44.339 46.167 46.272 46.229 46.197 46.147 46.089 46.032 43.507 41.917 41.422 40.932 40.789 40.754 40.737 40.709 40.732 40.784 40.777 40.787 40.779 40.777 40.772 40.769 40.779 40.767 40.744 40.717 40.704 40.707 40.704 40.702 40.722 40.717 40.737 40.737 40.772 40.799 40.812 40.799 40.864 40.884 40.919 40.952 40.982 41.007 41.064 41.022 41.057 41.004 41.057 40.987 45.704 49.829 49.997 48.334 47.652 45.157 44.617 45.464 43.372 42.509 42.569 43.604 49.939 54.997 54.144 52.977 46.556 44.664 44.476 44.256 44.791 46.756 49.506 50.844 51.219 49.566 47.226 45.559 48.219 44.571 44.391 44.401 44.394 44.499 44.649 44.809 44.819 45.091 50.026 52.139 52.089 50.631 46.594 46.134 45.289 45.339 46.209 48.246 48.461 46.224 46.079 46.186 45.891 45.734 45.851 45.996 46.789 48.189 46.499 47.386 47.729 48.301 48.519 47.696 47.026 47.036 46.611 46.669 46.791 48.124 48.991 48.364 48.901 48.659 50.996 53.919 55.076 55.661 55.186 54.141 51.254 46.804 47.364 46.196 45.921 45.951 46.001 45.999 45.986 46.294 46.571 46.591 48.119 50.549 52.989 53.111 49.926 48.309 46.374 48.264 48.526 49.224 49.601 49.876 49.726 48.579 47.619 50.914 51.949 52.074 51.866 51.004 47.596 46.289 47.606 50.449 50.259 47.794 45.771 47.461 48.059 49.199 48.089 46.291 47.394 46.749 44.799 45.314 47.486 47.634 45.729 47.591 46.474 44.634 45.911 45.494 44.541 44.866 44.444 44.604 46.014 47.014 45.616 47.411 47.241 46.961 49.239 48.244 45.491 45.696 46.976 46.116 46.254 46.744 46.854 47.459 47.724 47.366 47.534 47.801 47.766 47.621 48.156 49.341 52.466 52.951 52.149 46.906 47.741 48.239 46.751 46.524 47.831 47.014 46.201 46.264 46.486 46.729 48.136 49.229 49.311 48.379 48.759 48.879 49.364 49.504 48.046 48.036 48.166 49.416 49.349 49.979 50.576 50.581 49.981 49.436 54.811 54.634 50.554 50.399 51.089 50.196 49.536 51.791 49.876 49.321 51.451 51.704 51.016 50.276 50.054 49.706 51.191 52.006 50.719 50.321 50.574 50.586 50.531 50.181 50.249 50.569 50.206 50.291 50.236 50.246 50.526 50.471 50.509 51.299 50.494 50.866 50.916 51.664 50.716 50.914 50.886 50.779 51.049 50.909 51.044 50.986 50.849 50.891 51.511 52.889 52.081 51.104 51.949 52.714 51.564 52.354 52.726 51.456 51.511 51.629 51.409
41.219 38.502 35.277 35.119 35.544 35.312 35.279 35.547 35.954 36.217 36.534 36.657 36.812 36.964 37.057 37.292 37.747 37.622 37.714 37.872 37.927 38.087 38.249 38.409 38.572 38.732 38.897 39.089 39.254 39.299 39.359 39.454 39.727 40.097 40.139 40.234 40.472 40.664 40.797 40.892 41.572 41.404 41.359 41.552 41.672 41.694 41.927 43.484 43.932 43.177 42.179 42.299 42.459 42.689 42.777 42.814 42.907 46.532 48.897 49.184 47.359 43.747 43.047 43.092 43.222 43.269 43.302 43.307 43.932 43.954 43.604 43.622 43.547 43.709 48.172 50.137 50.154 46.819 43.874 43.987 44.887 45.374 44.004 43.802 43.797 43.842 43.854 44.027 44.329 43.804 44.257 43.714 43.694 43.979 43.617 43.539 43.529 43.494 43.487 43.467 43.424 43.424 43.387 43.334 43.342 43.307 43.302 43.859 42.864 42.427 43.497 46.294 46.474 46.504 46.477 46.452 46.399 45.499 45.464 45.534 45.572 45.667 44.947 45.539 46.057 46.039 45.909 45.889 45.842 45.782 44.017 42.097 41.532 41.022 40.822 40.789 40.749 40.784 40.809 40.802 40.784 40.789 40.784 40.817 40.854 40.807 40.829 40.817 40.792 40.772 40.754 40.737 40.747 40.764 40.764 40.752 40.774 40.787 40.794 40.819 40.839 40.807 40.877 40.937 40.954 40.994 41.027 41.054 41.032 41.052 41.049 41.069 41.034 41.047 41.064 42.159 43.224 46.697 45.202 45.062 43.739 44.402 43.062 42.547 43.397 45.609 53.302 54.164 54.457 50.802 45.994 44.422 44.072 44.117 45.459 50.404 50.839 52.072 51.907 50.949 50.172 44.557 44.909 44.479 44.419 44.397 44.467 44.527 44.667 44.922 44.852 44.884 48.517 51.332 52.012 51.217 48.512 47.459 45.552 45.904 45.837 46.944 46.802 45.757 45.982 45.689 45.607 45.634 45.637 45.694 45.907 46.042 45.922 47.049 48.067 48.349 49.562 49.492 47.297 47.457 47.226 47.901 46.744 47.204 48.071 46.544 48.561 48.724 50.221 53.516 54.746 55.181 54.846 54.424 53.296 47.574 46.739 46.714 46.004 45.969 45.991 45.951 46.041 46.656 46.341 49.571 53.449 53.744 53.846 54.094 52.759 51.094 47.524 48.246 48.334 49.646 49.354 49.059 48.824 48.696 47.376 49.856 51.264 51.161 50.851 47.389 45.971 46.429 47.466 48.736 48.021 47.304 45.611 47.004 46.321 46.139 45.979 45.314 47.204 47.239 45.231 45.299 46.796 46.389 47.171 47.296 47.146 44.646 46.144 45.606 45.176 47.451 45.809 46.604 51.514 53.121 52.124 51.746 50.831 48.056 49.636 48.441 47.784 47.776 47.654 47.564 47.501 47.584 47.814 47.876 47.954 47.806 47.706 48.436 48.969 48.569 47.546 46.859 49.159 50.659 46.339 46.836 48.704 48.844 46.229 47.061 46.814 46.576 46.201 46.286 46.484 46.704 46.971 46.811 47.981 48.266 48.221 49.876 49.974 49.659 49.851 50.046 50.511 50.301 50.349 49.619 50.394 50.231 50.146 50.941 56.019 55.991 53.954 50.776 51.176 49.449 49.666 50.899 51.549 51.451 51.509 51.529 51.621 51.066 50.039 50.579 52.249 51.584 52.011 51.704 52.194 51.019 50.429 50.131 50.381 50.931 50.894 50.676 50.441 50.444 50.616 50.756 51.189 51.521 50.861 51.679 50.744 51.496 51.936 51.024 50.906 50.764 51.031 50.954 50.964 50.939 50.829 50.829 51.464 52.231 51.716 51.209 52.581 52.841 51.651 52.761 52.411 51.609 51.344 51.939 51.444
41.157 38.369 34.924 35.107 35.992 35.434 35.357 35.759 36.247 36.267 36.417 36.602 36.862 36.987 37.262 37.362 38.062 37.867 37.789 38.059 38.369 38.229 38.767 38.459 38.619 38.779 38.929 39.067 39.199 39.322 39.437 39.597 39.769 40.087 40.232 40.339 40.527 40.659 40.754 40.867 40.999 41.214 41.417 41.587 41.652 41.727 41.827 42.419 43.489 43.194 42.297 42.342 42.497 44.822 45.499 44.419 43.549 47.639 49.339 48.892 45.287 43.057 43.077 43.182 43.264 43.307 43.322 43.474 44.052 43.452 43.924 44.659 44.734 44.127 45.632 48.087 48.732 45.232 44.094 43.837 43.872 44.077 43.852 43.894 43.937 43.922 43.932 44.027 43.914 43.797 43.759 43.722 43.707 43.667 43.637 43.607 43.587 43.524 43.517 43.492 43.464 43.437 43.417 43.362 43.337 43.284 43.292 43.262 42.952 42.499 42.557 46.224 46.404 46.354 46.292 46.247 46.212 45.912 45.837 45.884 45.939 45.954 44.762 44.234 45.822 45.764 45.687 45.654 45.587 45.534 44.849 42.537 41.639 41.099 40.887 41.377 40.832 40.817 40.829 40.832 40.832 40.812 40.837 40.864 40.867 40.857 40.864 40.839 40.842 40.804 40.799 40.804 40.772 40.812 40.809 40.824 40.787 40.802 40.824 40.864 40.872 40.862 40.929 40.952 40.977 41.002 41.014 41.062 41.009 41.062 41.049 41.107 41.062 41.092 41.099 41.319 42.004 44.279 44.574 44.399 46.832 48.039 46.327 44.479 45.097 47.767 52.754 53.922 53.042 53.347 48.419 43.474 43.957 44.249 44.969 49.049 50.044 51.179 50.847 49.342 47.032 45.187 44.792 44.509 44.482 44.472 44.477 44.529 44.677 45.304 45.072 44.949 45.372 48.212 51.577 51.374 49.847 47.729 46.967 47.154 45.879 47.764 47.169 45.542 45.554 45.584 45.614 45.639 45.687 45.692 45.727 45.932 45.867 46.674 48.834 48.699 49.817 50.334 50.122 48.669 47.854 47.901 46.881 46.446 46.381 46.531 46.836 46.809 48.339 53.446 54.209 53.046 52.681 53.516 51.226 46.311 46.964 47.261 46.234 45.959 46.031 46.034 46.026 46.449 46.571 48.546 53.684 54.206 53.566 54.324 53.364 51.376 49.041 47.034 47.504 48.324 48.549 48.546 48.731 48.796 47.729 46.511 49.289 50.849 50.656 47.829 45.984 46.269 47.901 48.064 47.169 45.476 45.566 46.116 47.536 46.971 45.751 45.434 46.329 46.666 45.596 45.349 45.914 45.451 45.886 46.199 47.356 45.206 46.259 45.539 46.106 48.689 47.149 49.731 52.944 54.509 55.366 54.776 50.909 47.554 48.216 48.144 47.624 46.036 47.584 47.669 47.566 47.076 47.351 46.144 46.206 45.619 46.729 47.481 46.621 47.399 46.971 47.454 47.481 47.581 47.466 47.879 48.539 48.906 46.091 46.574 46.326 46.149 46.164 46.309 46.449 46.826 47.981 47.479 47.814 47.169 47.219 49.744 50.719 50.809 50.706 51.066 51.196 51.229 51.261 51.526 51.081 50.504 50.544 52.499 55.701 55.491 53.279 51.639 51.864 50.446 50.011 51.284 52.251 52.079 51.841 52.056 52.731 51.786 52.031 51.874 51.891 51.759 51.941 51.784 52.314 52.019 50.414 50.414 50.586 50.556 50.484 52.056 52.526 50.734 50.841 51.219 51.146 51.931 51.826 51.996 51.971 52.146 52.691 51.544 51.196 51.189 51.744 51.456 51.311 50.894 50.841 50.816 51.099 51.476 51.539 51.611 53.106 52.656 52.449 52.556 52.654 52.281 51.996 53.071 53.149
41.112 36.847 35.069 35.209 35.444 35.387 35.477 35.872 36.212 36.264 36.432 36.589 36.872 36.904 37.349 37.742 37.757 37.712 38.234 37.932 38.624 38.387 39.134 38.744 38.714 38.862 38.997 39.107 39.257 39.397 39.552 39.709 39.857 40.017 40.147 40.299 40.502 41.389 41.894 45.427 44.597 41.864 41.942 41.404 41.587 41.734 41.929 42.539 42.984 43.847 43.737 42.959 42.709 45.044 45.662 45.694 47.789 48.762 49.202 48.552 43.769 43.272 43.192 43.289 43.332 43.344 43.312 43.752 44.669 43.494 43.714 43.597 44.277 44.667 44.809 45.754 46.337 44.587 45.574 44.032 43.889 43.877 43.897 43.934 43.977 44.019 44.399 44.192 43.959 43.884 44.547 43.744 43.722 43.659 43.634 43.624 43.589 43.582 43.592 43.554 43.474 43.454 43.437 43.397 43.352 43.332 43.282 43.562 43.482 42.594 42.399 45.012 46.142 46.092 46.022 45.962 45.944 45.594 45.714 45.869 45.872 45.747 45.584 44.379 45.597 45.557 45.454 45.349 45.357 44.837 43.257 42.299 41.769 41.262 40.922 41.207 41.054 40.877 40.912 40.889 40.884 40.869 40.887 40.857 40.874 40.874 40.889 40.894 40.899 40.862 40.857 40.832 40.807 40.834 40.829 40.842 40.842 40.859 40.837 40.844 40.889 40.932 40.942 40.972 40.994 41.017 41.047 41.087 41.047 41.039 41.044 41.089 41.092 41.192 41.282 41.534 41.852 42.127 44.792 50.962 51.754 51.009 50.214 48.054 45.169 44.512 45.699 48.122 46.032 45.969 43.229 43.239 43.517 45.619 46.994 46.984 49.094 48.492 46.717 44.799 44.654 45.279 44.894 44.884 44.537 44.522 44.557 44.552 44.674 44.914 45.239 47.182 46.869 45.857 50.402 48.939 48.702 47.914 47.959 46.087 45.529 45.877 45.787 45.589 45.612 45.637 45.669 45.722 46.044 46.199 46.092 48.679 46.904 46.459 48.534 48.374 48.764 48.197 48.964 49.574 49.699 49.619 49.201 46.689 46.624 46.594 46.464 46.401 46.906 50.589 51.291 48.291 47.779 48.356 48.294 46.651 47.591 46.719 46.254 46.001 46.064 46.099 46.051 46.329 46.654 46.866 52.479 54.299 53.709 54.214 54.271 52.379 49.931 46.546 47.121 46.816 48.481 48.794 48.769 48.754 48.269 46.804 48.321 49.071 48.109 47.581 45.896 45.924 46.121 45.911 46.124 46.041 45.526 46.271 47.306 47.429 45.524 45.924 45.544 45.936 45.596 45.701 45.979 45.989 45.411 45.431 46.646 46.879 46.891 47.329 47.406 47.936 48.579 50.659 53.564 54.686 54.789 55.521 54.509 47.926 46.839 45.816 45.156 45.694 45.424 44.761 44.616 44.814 44.636 44.684 44.756 44.854 46.121 47.569 47.299 48.434 48.419 49.221 49.169 47.141 46.214 46.479 46.319 46.824 46.056 46.931 46.156 46.044 46.131 46.341 46.519 49.791 52.244 52.226 52.401 49.949 47.599 48.701 48.021 47.991 48.594 48.981 50.091 50.431 49.541 50.176 50.314 49.986 50.589 50.661 51.434 51.976 50.984 50.536 50.011 49.934 52.106 52.306 52.331 52.264 51.961 52.171 52.581 52.464 52.691 52.476 52.346 52.106 52.184 52.741 52.799 53.761 53.264 52.946 52.661 53.364 53.964 54.864 54.169 52.354 52.496 52.586 52.076 52.581 52.269 53.114 54.584 54.551 54.279 53.024 52.811 52.664 53.324 51.796 51.559 51.161 50.951 51.046 52.271 52.894 52.704 52.479 53.191 54.046 54.159 53.481 53.259 52.011 51.624 52.051 52.084
41.029 37.362 35.129 35.252 35.427 35.434 35.527 35.867 36.217 36.292 36.399 36.914 36.737 36.847 37.137 37.597 37.604 37.767 38.697 38.034 39.107 39.172 38.892 38.632 38.774 38.899 39.087 39.184 39.269 39.469 39.629 39.794 40.014 40.157 40.222 40.369 40.489 44.072 47.204 49.524 49.762 48.984 47.302 41.217 41.604 41.687 41.927 42.044 42.074 42.552 42.422 42.547 43.717 44.129 43.209 44.432 48.279 49.037 48.999 46.859 43.064 43.477 43.337 43.507 43.447 43.354 43.354 43.477 43.749 43.692 43.907 43.607 43.602 43.657 43.907 44.804 45.314 44.579 44.774 43.842 43.922 43.952 43.977 44.014 44.029 46.219 47.262 44.734 43.987 43.959 43.999 43.794 43.742 43.689 43.647 43.619 43.629 43.612 43.597 43.552 43.534 43.497 43.474 43.429 43.412 43.384 43.337 43.264 44.209 42.694 42.427 44.052 45.807 45.859 45.802 45.759 45.717 45.599 45.489 45.522 45.447 45.457 45.154 43.054 45.142 44.417 44.172 43.429 42.654 42.309 42.037 41.974 41.794 41.364 40.964 40.884 40.867 40.874 40.909 40.917 40.929 40.887 40.902 40.904 40.892 40.902 40.922 40.909 40.877 40.899 40.897 40.857 40.849 40.864 40.837 40.852 40.852 40.874 40.874 40.897 40.899 40.932 40.979 41.012 41.024 41.034 41.049 41.094 41.122 41.102 41.114 41.199 41.264 41.357 41.499 41.692 41.887 42.009 44.707 51.354 52.327 51.827 48.992 45.877 45.374 42.947 43.094 43.584 43.054 43.134 43.242 43.319 43.442 44.487 46.969 46.947 47.144 44.962 44.227 44.514 45.257 45.737 45.174 45.802 44.904 44.587 44.602 44.627 44.644 44.772 45.017 45.024 46.852 45.444 46.082 45.804 47.627 47.942 47.299 45.859 45.507 45.512 45.584 45.649 45.709 45.754 45.752 45.729 45.834 46.082 46.359 48.537 47.817 47.629 49.499 48.237 47.797 49.984 50.057 49.734 50.051 50.836 49.261 47.161 46.531 46.601 46.906 47.024 47.319 47.771 48.579 48.869 48.784 49.961 51.059 51.946 50.426 46.881 46.581 46.161 46.079 46.131 46.096 46.151 46.524 46.449 51.149 54.241 54.259 54.064 53.414 51.259 47.336 46.241 46.554 46.801 47.739 48.721 48.659 48.616 48.369 46.099 46.274 46.401 47.179 46.954 45.911 45.929 46.316 45.726 45.834 46.271 45.916 45.644 46.821 47.844 46.356 45.911 45.429 45.386 45.639 45.881 45.949 48.319 48.116 45.876 46.874 47.606 47.964 47.631 47.794 47.666 47.941 50.304 53.731 54.606 53.926 54.914 51.936 48.396 44.626 45.776 47.941 50.529 47.899 44.664 44.696 44.701 44.699 44.766 45.161 45.106 45.436 47.949 47.559 46.936 47.209 46.741 46.216 45.624 45.641 46.196 46.456 45.829 45.884 46.611 45.999 46.044 46.181 46.424 46.686 50.499 52.916 53.509 53.034 50.029 48.349 48.246 47.514 47.541 47.564 47.639 47.721 47.851 48.079 47.919 47.984 48.101 48.246 48.176 48.219 48.314 48.459 48.559 48.561 48.601 49.289 50.066 50.114 49.736 51.311 51.586 51.411 51.886 51.884 51.744 51.591 50.731 51.096 51.214 51.526 52.951 53.051 53.064 53.351 54.674 54.956 54.676 54.124 54.359 54.766 53.446 53.499 53.406 52.971 53.719 55.734 56.944 56.771 55.929 54.436 53.271 53.351 53.306 53.121 53.281 53.306 52.119 52.794 53.089 52.904 53.124 53.286 54.861 54.221 53.676 53.351 52.981 52.691 51.999 51.791
41.012 38.452 34.984 35.289 36.284 35.509 35.569 35.912 36.249 37.224 40.354 40.522 38.424 38.197 40.987 41.504 38.759 38.574 37.967 37.947 38.907 39.409 39.092 38.597 38.707 38.889 39.084 39.227 39.342 39.527 39.744 39.859 40.112 40.204 40.299 40.412 42.787 48.819 50.197 50.609 50.619 50.122 47.637 41.302 41.704 42.097 42.217 42.029 42.087 42.204 42.579 42.979 46.067 45.679 44.994 43.287 43.442 46.112 47.602 44.907 43.127 43.192 43.329 43.549 43.424 43.367 43.439 43.524 43.442 43.869 43.812 43.787 43.759 43.707 43.737 45.594 46.134 45.432 45.772 45.292 44.239 44.412 44.014 44.029 44.677 47.964 46.519 44.132 43.997 44.012 44.354 43.899 43.782 43.734 43.669 43.672 43.644 43.624 43.614 43.589 43.567 43.492 43.474 43.464 43.427 43.414 43.357 43.357 43.719 42.779 42.369 43.167 45.507 45.562 45.549 45.512 45.452 45.354 45.099 44.789 44.109 43.214 43.252 42.924 45.322 44.134 43.999 44.049 45.244 44.809 42.067 42.022 41.879 41.409 41.007 40.909 40.902 40.902 40.939 40.942 40.917 40.912 40.954 40.934 40.932 40.937 40.954 40.952 40.929 40.939 40.927 40.879 40.877 40.899 40.882 40.887 40.892 40.902 40.909 40.914 40.964 40.999 41.012 41.049 41.044 41.059 41.089 41.112 41.144 41.214 41.239 41.322 41.427 41.542 41.654 41.802 41.954 42.009 46.372 50.937 51.604 44.079 43.219 43.457 43.449 42.962 42.967 43.214 43.152 43.144 43.257 43.319 43.437 43.949 46.339 46.289 45.399 44.297 45.694 46.917 47.272 46.954 44.694 44.582 44.609 44.644 44.692 44.694 44.664 44.792 44.867 45.124 45.992 45.962 45.812 45.442 47.577 48.462 47.672 45.502 45.499 45.519 45.584 45.682 45.744 45.769 45.797 45.882 46.224 46.584 47.339 48.339 48.262 47.422 49.177 47.904 48.282 50.442 49.872 49.047 50.511 50.184 48.704 47.199 47.411 49.989 49.664 48.526 48.921 48.954 48.946 49.274 51.686 52.896 53.399 53.701 53.531 47.851 46.401 46.446 46.116 46.169 46.179 46.124 46.499 46.559 49.104 53.586 53.636 52.074 48.274 46.399 46.321 46.281 46.626 46.841 47.236 46.741 48.016 48.594 48.321 47.566 46.376 46.121 46.291 46.399 45.936 45.981 46.309 45.999 45.789 46.356 46.059 45.766 46.266 47.989 47.606 47.744 46.844 47.539 47.536 48.561 48.504 50.194 50.034 48.204 47.886 48.034 47.529 46.986 46.346 49.026 47.626 47.796 52.559 53.901 54.484 53.766 52.209 45.596 44.651 45.266 49.714 52.001 51.686 45.749 44.714 44.731 44.751 44.834 45.251 45.111 45.414 48.299 48.164 45.896 45.766 45.709 45.606 45.551 45.581 45.901 46.124 45.746 45.831 45.899 45.996 46.046 46.201 46.431 46.626 50.554 52.951 53.601 52.986 51.041 48.254 47.874 47.476 47.441 47.509 47.719 47.756 47.801 47.931 47.969 48.031 48.074 48.114 48.139 48.216 48.269 48.339 48.364 48.414 48.476 48.569 48.631 48.706 49.061 49.529 49.619 49.109 49.494 51.149 51.291 49.744 49.346 49.396 49.451 49.501 50.324 51.399 50.356 52.044 53.604 53.919 53.071 52.526 52.441 54.066 53.491 52.039 52.036 52.056 53.559 55.891 57.026 56.796 55.899 53.919 51.826 51.839 52.281 53.351 53.824 53.391 52.514 52.576 52.161 51.381 51.721 52.539 53.689 53.706 52.356 52.654 53.344 53.579 53.679 53.764
40.979 37.584 34.984 35.269 35.907 35.484 35.607 35.959 37.542 42.184 43.642 42.584 42.349 42.802 43.034 43.314 40.332 38.699 37.917 37.922 38.884 39.417 38.467 38.569 38.712 38.907 39.049 39.237 39.322 39.829 40.502 39.904 40.099 40.229 40.389 41.232 46.959 50.229 51.222 51.399 50.817 49.912 44.207 41.549 41.764 42.539 42.244 42.472 43.657 44.422 42.797 43.802 45.844 46.164 46.587 47.449 45.802 43.667 43.812 43.312 43.694 43.407 43.379 43.479 43.397 43.372 43.729 43.849 43.684 44.647 43.902 43.762 43.874 43.824 43.867 48.054 49.862 49.729 47.482 45.379 45.204 45.527 44.717 44.067 45.739 47.682 44.997 44.027 44.007 44.014 43.977 43.837 43.784 43.767 43.737 43.699 43.672 43.652 43.634 43.602 43.584 43.557 43.494 43.497 43.467 43.437 43.422 43.402 44.034 43.204 42.389 43.297 45.149 45.372 45.362 45.409 45.354 45.427 44.494 42.284 42.814 44.342 45.037 44.724 45.757 45.779 45.844 45.897 45.967 45.984 43.129 42.117 41.977 41.572 41.119 40.989 40.922 40.952 40.969 40.962 40.954 40.917 40.967 40.977 41.002 40.974 40.984 40.974 40.972 40.939 40.919 40.909 40.894 40.914 40.917 40.907 40.917 40.934 40.979 40.964 41.002 41.017 41.072 41.047 41.044 41.072 41.132 41.152 41.192 41.267 41.319 41.402 41.534 41.639 41.692 41.814 41.947 42.042 42.094 44.289 46.394 46.174 43.544 42.719 42.884 42.904 43.019 43.102 43.139 43.147 43.267 43.479 43.457 43.642 44.932 44.614 44.782 45.327 44.582 46.287 46.539 48.514 49.037 44.824 45.044 44.929 44.732 44.719 44.747 44.729 44.887 45.012 45.162 45.214 45.294 45.359 48.372 51.052 51.329 46.142 45.492 45.537 45.642 45.777 45.837 46.364 46.664 47.099 47.232 46.744 47.974 48.789 48.249 47.112 48.004 47.939 50.169 51.107 49.447 50.247 48.951 49.766 50.289 50.354 49.031 50.691 50.734 48.524 48.504 48.946 49.456 50.296 52.156 53.234 53.511 53.286 53.401 47.286 47.974 49.909 46.766 46.186 46.231 46.176 46.379 46.634 46.809 47.206 48.634 48.601 47.849 46.331 46.339 46.539 47.224 47.106 47.564 46.771 47.551 46.781 46.529 46.999 46.856 46.159 46.176 46.406 46.026 45.996 46.086 46.279 45.834 45.891 46.496 45.876 47.606 48.609 48.936 48.641 48.379 49.456 50.691 49.701 48.091 48.634 49.326 47.961 47.714 47.419 45.204 44.774 46.419 51.421 51.709 48.916 48.306 51.864 51.516 50.241 46.484 44.719 44.724 44.956 45.676 49.644 46.351 44.939 44.781 44.841 44.864 44.824 44.899 44.891 44.864 48.114 48.424 46.186 45.699 45.644 45.596 45.564 45.581 45.614 45.666 45.699 45.761 45.886 46.004 46.046 46.101 46.356 46.524 50.521 52.949 53.549 52.994 50.514 47.534 47.989 47.464 47.459 47.484 47.691 47.936 47.904 47.936 48.041 48.079 48.679 49.691 49.186 48.364 48.336 48.706 48.384 48.489 48.681 49.749 49.281 48.774 48.726 48.839 48.936 49.061 49.124 49.291 49.451 49.439 49.354 49.356 49.419 49.461 52.021 49.596 49.574 49.736 51.139 50.919 51.421 51.061 50.919 50.606 50.089 49.914 49.929 49.931 51.266 55.166 56.456 56.264 55.076 52.786 50.159 50.371 50.264 51.021 51.826 52.229 51.971 52.076 51.009 50.916 51.789 51.189 52.794 54.131 51.976 50.819 52.674 52.809 53.121 53.121
38.527 36.094 35.179 35.322 36.099 35.662 35.667 36.014 37.484 41.879 43.482 43.617 43.502 43.562 43.362 42.987 39.367 38.569 38.289 37.989 39.382 39.439 38.402 38.807 38.992 38.924 39.079 39.257 39.414 39.659 40.017 39.884 40.047 40.169 40.449 41.174 48.907 50.884 51.132 51.339 50.444 49.584 41.404 41.722 42.062 43.299 42.712 42.144 44.969 45.562 44.119 44.952 45.484 45.509 47.274 48.512 49.167 48.409 45.807 43.179 43.189 43.549 43.379 43.394 43.389 43.417 43.824 43.519 43.724 44.239 43.757 43.784 43.859 43.837 44.742 49.462 50.054 49.787 48.694 44.547 44.152 44.562 45.062 45.424 46.859 46.967 44.172 44.087 44.087 44.084 44.069 44.727 43.832 43.762 43.764 43.764 43.712 43.674 43.649 43.622 43.624 43.597 43.557 43.519 43.459 43.459 43.472 43.399 43.674 43.159 42.522 42.337 44.517 45.492 45.529 45.542 45.594 45.644 43.442 42.259 44.784 45.852 45.899 45.952 45.979 46.019 46.119 46.209 46.232 46.284 43.107 42.174 42.074 41.689 41.257 41.039 40.999 40.987 40.994 41.009 40.984 40.987 40.997 40.999 41.009 41.037 41.037 41.004 40.964 40.934 40.929 40.899 40.927 40.942 40.952 40.979 40.977 40.962 40.984 40.982 40.984 41.052 41.089 41.139 41.129 41.099 41.162 41.204 41.247 41.304 41.397 41.502 41.592 41.662 41.744 41.812 41.922 42.012 42.164 42.522 45.799 45.877 44.299 42.964 42.837 43.012 43.237 43.789 44.734 44.639 44.124 43.669 44.232 44.824 44.429 44.182 44.319 45.027 46.979 48.982 50.942 51.534 51.239 46.524 45.029 45.289 44.787 44.742 44.754 44.782 44.864 45.309 45.214 45.217 46.789 50.782 52.072 52.402 51.942 47.694 45.529 45.554 46.174 46.507 47.109 46.722 47.167 46.717 46.012 46.024 46.137 46.862 46.849 48.279 47.549 48.684 48.699 51.159 51.062 50.099 47.769 49.676 50.574 49.734 47.861 49.116 48.791 47.024 46.584 49.701 52.311 52.901 52.836 52.854 53.636 53.046 53.626 51.724 47.959 48.766 47.714 47.376 46.526 46.249 46.266 46.501 46.921 46.726 47.201 46.991 47.284 47.081 47.731 46.834 46.426 46.504 47.194 47.351 47.424 47.194 46.296 46.256 46.816 46.286 46.196 46.539 46.139 46.141 46.061 46.786 45.996 47.291 46.834 47.519 49.269 49.706 48.931 48.704 49.176 49.904 49.146 51.004 50.191 50.976 50.116 46.394 45.234 45.061 44.849 44.904 48.654 50.449 51.339 46.166 46.069 51.499 51.904 45.496 44.781 44.769 44.784 44.811 44.854 44.896 44.849 44.821 44.934 44.914 44.856 45.314 45.271 44.934 44.921 47.476 48.709 46.164 45.741 45.706 45.701 45.656 45.631 45.671 45.704 45.746 45.796 45.914 45.991 46.041 46.179 46.886 47.001 48.896 49.801 50.849 50.626 48.889 47.809 48.161 47.464 47.461 47.504 47.599 47.739 47.839 47.941 48.036 48.424 50.406 50.969 50.426 48.804 48.321 48.431 48.434 48.456 48.551 49.019 48.769 48.779 48.754 48.849 49.224 49.146 49.106 49.206 49.181 49.786 49.364 49.344 49.371 51.864 56.776 53.029 49.621 49.626 49.741 49.664 49.674 49.759 49.766 49.811 49.909 49.809 49.824 49.821 49.826 51.436 52.059 52.954 52.064 50.034 49.784 49.794 49.814 50.099 51.109 49.921 50.246 50.701 50.014 50.766 50.846 49.741 51.964 53.654 51.711 50.824 52.366 52.594 52.561 52.109
34.872 34.874 35.309 35.392 36.669 35.672 35.687 36.022 36.339 39.699 43.147 43.302 42.497 41.609 41.357 40.924 38.772 37.989 38.034 38.319 39.334 41.639 41.669 42.509 41.482 38.944 39.112 39.319 39.504 39.719 39.979 40.019 40.454 40.222 40.379 42.794 49.679 50.769 51.357 51.072 50.177 47.024 41.569 41.777 43.024 43.869 42.124 42.024 42.474 42.407 44.802 45.262 45.304 45.832 47.942 48.862 49.139 48.504 46.092 43.564 43.227 43.334 43.409 43.419 43.399 43.412 43.452 43.499 43.589 43.652 43.874 43.837 43.754 43.932 46.869 49.794 50.052 49.447 47.294 44.094 44.009 44.037 44.097 44.824 45.942 45.912 44.244 44.202 44.187 44.167 44.069 44.079 43.857 43.857 43.819 43.752 43.744 43.744 43.697 43.672 43.652 43.612 43.567 43.534 43.514 43.489 43.444 43.462 43.502 43.762 42.634 42.574 45.004 45.717 45.752 45.799 45.834 45.877 45.019 42.569 44.609 46.129 46.149 46.177 46.252 46.317 46.367 46.437 46.444 46.394 44.102 42.249 42.129 41.812 41.352 41.074 41.057 41.032 41.052 41.044 40.999 41.004 41.014 41.019 41.012 41.047 41.037 41.024 41.007 40.987 40.964 40.914 40.962 40.949 40.942 40.944 40.954 40.944 40.964 40.977 40.962 41.012 41.097 41.129 41.152 41.184 41.179 41.229 41.322 41.399 41.487 41.584 41.617 41.674 41.759 41.829 41.937 42.009 42.154 42.327 43.299 45.017 44.402 43.372 43.207 44.114 44.782 44.764 44.122 44.572 44.619 44.247 43.832 43.697 43.754 44.144 45.067 47.109 49.224 50.984 52.032 51.979 51.349 48.364 44.872 45.602 44.834 44.802 44.794 44.849 44.917 45.104 45.397 45.254 45.979 51.224 52.459 53.262 52.527 47.924 47.652 47.169 46.294 46.002 45.822 46.012 45.829 46.424 48.197 48.184 47.229 47.954 49.119 50.592 50.609 51.284 51.174 50.464 48.182 46.699 46.554 46.754 47.346 47.571 46.836 49.681 50.514 49.111 47.256 50.349 53.126 53.989 53.921 52.666 53.629 53.116 53.531 53.579 50.479 47.076 46.726 47.729 46.879 46.284 46.281 46.386 46.721 47.774 47.244 46.949 48.169 49.394 48.721 46.529 46.504 46.401 46.621 47.651 46.521 47.389 46.574 46.536 47.464 46.251 46.181 46.271 47.009 46.101 46.244 46.684 48.076 48.136 47.006 48.669 51.084 50.916 48.566 48.391 48.566 48.824 47.364 46.589 47.794 49.299 46.444 44.974 44.936 44.874 44.914 44.879 44.844 46.014 45.544 44.846 44.829 47.474 48.376 44.859 44.846 44.861 44.799 44.949 44.899 44.949 44.926 44.896 44.934 44.976 44.921 49.649 49.296 44.999 44.959 47.606 49.664 47.136 46.111 45.829 45.821 45.806 45.989 45.981 45.839 45.809 45.801 45.946 46.011 46.079 46.164 46.329 46.554 46.851 47.306 47.521 47.489 48.041 48.479 47.741 47.446 47.516 47.516 47.571 47.696 47.766 47.896 48.041 48.071 48.989 49.984 49.736 48.216 48.271 48.391 48.456 48.469 48.559 48.639 48.726 48.804 48.799 48.871 48.904 49.019 49.161 49.129 49.174 49.354 49.321 49.301 49.351 53.591 56.351 52.989 49.799 49.584 49.599 49.679 49.709 50.489 50.671 49.846 49.789 49.749 49.876 49.921 49.786 49.856 49.936 49.901 50.124 49.871 49.904 51.021 51.086 49.996 49.456 49.481 50.721 51.549 50.179 49.284 49.216 49.146 49.254 49.556 49.289 49.719 50.336 50.514 50.174 50.404
34.834 34.974 35.164 35.314 35.867 35.547 35.694 36.087 36.389 38.742 40.837 41.317 39.109 37.539 37.524 37.179 37.792 39.579 40.869 42.964 43.847 44.422 45.382 45.437 42.307 38.962 39.144 39.909 40.147 39.669 40.954 40.597 41.047 40.689 40.397 41.514 48.117 50.124 51.142 50.712 49.804 44.467 41.727 41.992 43.912 43.314 42.042 42.022 42.729 42.212 43.869 44.214 42.974 44.097 48.379 49.294 49.012 48.187 43.957 43.284 43.317 43.409 43.402 43.372 43.389 43.432 43.494 43.552 43.639 43.684 43.699 43.762 44.562 46.047 49.337 50.129 49.807 47.622 45.149 44.029 44.004 44.039 44.487 45.574 44.974 44.444 44.327 44.327 44.249 44.187 44.112 44.457 43.919 43.857 43.832 43.767 43.789 43.777 43.737 43.697 43.674 43.642 43.619 43.554 43.537 43.479 43.514 43.482 43.474 43.592 42.804 42.384 43.619 45.927 46.007 46.037 46.099 46.167 45.614 42.367 44.402 46.379 46.432 46.444 46.489 46.539 46.624 46.624 46.692 46.727 45.514 42.257 42.152 41.942 41.477 41.159 41.094 41.044 41.069 41.069 41.034 41.002 41.029 41.034 41.029 41.019 41.022 41.002 40.992 40.984 40.954 40.969 40.957 40.969 40.939 40.909 40.899 40.882 40.927 40.934 40.929 40.964 41.054 41.082 41.137 41.184 41.257 41.294 41.374 41.454 41.534 41.609 41.662 41.699 41.757 41.837 41.947 42.002 42.132 42.279 43.244 45.092 46.242 45.054 42.999 43.897 43.879 45.602 45.172 43.899 43.559 43.577 43.634 43.707 44.032 43.839 44.444 46.779 45.564 49.782 50.977 50.277 50.697 47.117 45.864 46.259 44.899 44.897 45.859 44.992 44.914 45.059 45.382 45.289 45.602 49.037 52.289 53.272 52.957 51.404 48.889 47.982 46.554 46.049 46.732 46.964 46.052 45.809 47.924 48.694 49.552 49.919 50.414 50.782 50.777 51.557 51.472 50.797 49.787 46.837 47.114 47.666 49.124 48.819 49.514 50.766 51.741 50.801 48.131 50.409 52.684 53.406 53.074 52.516 53.139 53.179 52.374 51.139 47.974 49.174 49.531 46.961 46.781 46.344 46.279 46.419 47.046 46.596 48.066 50.241 52.001 51.169 49.561 46.801 46.449 46.369 46.339 47.414 47.306 48.324 48.684 48.141 48.349 47.561 46.224 46.431 47.341 46.879 48.041 47.409 47.281 46.394 46.201 46.654 48.854 48.141 47.169 47.211 46.294 46.689 45.454 45.391 45.259 45.309 45.139 45.049 44.999 44.964 44.991 44.894 44.914 44.964 44.926 44.826 44.861 44.829 44.849 44.859 44.869 44.884 44.886 44.896 44.921 45.006 45.011 44.956 44.974 44.989 44.984 49.241 51.801 45.184 44.971 46.549 50.421 48.861 47.336 46.446 47.499 46.981 46.066 46.944 46.311 46.234 45.924 45.921 46.029 46.104 46.151 46.264 46.459 46.566 47.364 47.786 48.789 49.084 49.274 47.639 47.446 47.496 47.519 47.644 47.716 47.716 47.839 47.979 48.026 48.059 48.371 48.329 48.239 48.316 48.349 48.421 48.501 48.584 48.661 48.744 48.826 48.864 48.901 48.919 48.871 48.926 49.076 49.144 49.199 49.281 49.351 49.394 50.771 51.904 50.379 49.574 49.551 49.571 49.591 49.604 49.731 50.129 49.826 49.731 49.739 49.864 49.844 49.751 52.374 51.331 51.024 49.619 50.194 51.516 53.209 53.839 50.781 49.339 49.156 51.661 51.976 51.391 49.046 48.856 48.814 48.929 49.329 49.259 49.189 49.054 48.931 48.851 48.991
34.852 34.934 35.144 35.397 36.079 35.587 35.724 36.079 36.372 37.157 37.694 38.917 37.894 37.829 37.714 37.559 37.962 40.559 44.349 45.137 45.362 45.392 45.582 46.084 44.157 39.697 39.332 40.097 40.012 39.949 40.514 40.244 40.327 40.577 40.439 40.879 46.369 49.907 50.422 50.327 49.477 41.857 42.597 42.969 42.769 42.362 41.999 41.999 42.207 42.249 42.387 42.664 42.994 45.602 48.702 49.287 48.707 46.152 43.144 43.569 43.394 43.484 43.432 43.402 43.369 43.459 43.512 43.607 43.644 43.764 43.842 43.884 46.077 48.287 49.697 50.134 48.364 46.022 44.632 44.249 44.084 44.089 45.234 46.159 45.297 44.364 44.377 44.342 44.302 44.214 44.134 44.152 43.922 43.879 43.842 43.812 43.834 43.749 43.732 43.712 43.694 43.669 43.612 43.624 43.557 43.554 43.527 43.532 43.462 43.937 43.049 42.427 43.879 46.229 46.259 46.297 46.339 46.389 46.079 42.727 42.777 45.114 44.634 44.029 45.074 46.692 46.852 46.892 46.902 46.947 46.367 42.642 42.192 42.022 41.662 41.259 41.197 41.162 41.147 41.112 41.069 41.049 41.032 41.049 41.032 41.034 41.052 41.054 41.019 41.012 41.004 40.964 40.944 40.914 40.869 40.847 40.854 40.862 40.887 40.914 40.922 40.952 41.014 41.072 41.149 41.204 41.302 41.342 41.407 41.529 41.599 41.642 41.709 41.749 41.799 41.839 41.942 42.014 42.097 42.249 42.432 43.429 46.417 46.422 45.367 45.139 46.262 47.697 45.109 43.454 43.399 43.474 43.642 43.682 44.017 44.099 44.062 44.552 44.862 47.452 47.277 46.084 46.614 47.934 47.432 46.099 45.012 44.939 45.947 45.179 44.984 45.119 45.494 46.634 45.902 49.892 51.692 52.899 52.989 51.889 49.567 48.712 47.687 46.157 46.819 47.299 47.944 50.387 52.512 50.342 49.354 50.042 50.257 50.112 50.119 50.054 51.389 51.952 50.997 47.957 48.534 48.074 49.486 48.509 49.014 50.474 51.294 50.089 49.179 48.859 51.501 51.671 50.036 48.569 49.929 47.809 48.146 47.889 47.591 48.671 48.509 47.436 46.309 46.369 46.339 46.401 46.554 46.486 48.001 51.094 52.061 51.719 50.069 47.091 46.366 46.349 46.349 47.419 48.094 48.211 48.406 47.836 48.761 49.039 46.544 46.646 47.581 46.916 46.629 46.564 46.589 46.941 47.286 47.066 46.489 46.059 45.539 45.511 45.384 45.639 47.579 48.211 45.914 45.214 45.171 45.674 46.739 46.191 45.064 45.049 45.061 45.074 45.851 45.491 44.904 44.919 44.949 44.906 44.929 44.906 44.904 44.934 44.964 45.009 45.061 45.056 45.009 44.999 45.334 46.521 46.746 45.089 45.076 46.491 49.236 48.656 47.546 45.859 46.571 48.926 48.211 46.634 46.141 46.084 45.921 45.986 46.084 46.149 46.214 46.281 46.666 47.489 46.651 46.804 48.676 49.074 49.294 47.446 47.409 47.414 47.476 47.594 47.679 47.704 47.804 47.931 47.989 48.086 48.119 48.174 48.226 48.324 48.416 48.456 48.484 48.566 48.604 48.731 48.866 48.881 48.929 48.929 48.961 48.981 49.496 49.186 49.166 49.241 49.369 49.359 49.346 49.416 49.466 49.501 49.551 49.586 49.576 49.561 49.601 49.721 49.749 49.759 49.761 49.741 51.871 55.389 56.231 56.926 55.331 52.679 49.541 51.289 50.829 55.421 50.901 48.626 49.396 50.466 50.424 49.189 48.406 48.366 48.391 48.354 48.714 48.529 48.559 48.679 48.669 48.654 49.961
37.962 34.942 35.167 35.547 37.007 35.849 35.757 36.062 36.272 36.392 36.679 37.252 36.864 37.487 37.914 37.729 37.837 39.444 44.184 44.842 44.559 43.569 45.002 45.532 44.527 40.877 39.392 39.787 40.187 41.354 42.639 43.622 42.464 40.374 40.414 40.519 41.869 47.502 49.512 49.727 45.809 41.529 45.379 46.664 44.072 41.914 41.987 42.114 42.222 42.304 42.417 42.607 43.967 48.092 49.082 49.177 47.799 44.167 43.169 43.254 43.372 43.469 43.459 43.424 43.419 43.514 43.577 43.622 43.679 43.754 43.802 44.049 44.634 48.357 49.689 49.964 46.427 44.184 45.074 44.887 44.462 44.582 45.942 45.992 44.779 44.349 44.394 44.362 44.334 44.212 44.152 44.102 43.949 43.907 43.907 43.869 43.824 43.804 43.762 43.752 43.704 43.699 43.667 43.619 43.594 43.569 43.574 43.577 43.557 43.552 43.109 42.514 42.734 46.109 46.199 46.427 46.322 45.664 43.259 42.279 42.269 42.452 42.447 42.309 42.442 45.569 46.932 46.917 46.857 46.832 46.787 43.044 42.244 42.069 41.757 41.417 41.264 41.227 41.209 41.219 41.184 41.129 41.082 41.107 41.079 41.054 41.012 41.009 41.019 41.014 40.979 40.957 40.922 40.887 40.842 40.802 40.822 40.792 40.852 40.929 40.929 40.947 41.039 41.117 41.182 41.269 41.359 41.407 41.457 41.537 41.639 41.699 41.722 41.779 41.837 41.872 41.974 42.054 42.142 42.257 42.402 43.029 46.092 45.407 44.847 45.352 47.547 45.154 44.432 43.374 43.422 43.519 44.492 47.014 47.554 48.964 48.002 45.464 45.594 44.879 45.252 47.952 50.367 51.172 49.424 45.667 44.974 45.089 45.107 45.094 45.024 45.099 45.794 47.499 45.919 48.977 51.334 52.292 52.104 51.374 49.799 47.697 47.302 47.427 49.324 50.114 50.219 51.174 51.142 46.709 49.677 49.629 49.967 49.112 47.522 48.577 51.242 51.162 50.412 49.167 48.514 47.109 46.789 46.911 48.456 50.209 49.969 49.149 49.029 50.236 49.081 47.201 47.224 48.581 47.974 47.371 47.484 47.491 49.309 46.614 47.154 46.561 46.301 46.409 46.391 46.401 46.536 46.511 46.881 49.874 51.941 52.049 50.549 48.594 46.406 46.336 46.391 47.064 47.591 48.616 49.121 47.486 48.726 48.546 46.471 46.511 46.721 47.254 47.256 47.444 46.846 46.339 45.874 45.766 45.651 45.626 45.639 45.656 45.526 46.231 48.319 48.226 45.531 45.351 45.324 45.519 46.736 45.849 45.111 45.099 45.086 45.051 47.261 46.656 45.019 44.986 45.029 45.056 44.971 45.556 45.094 45.131 44.959 45.046 45.146 45.149 45.039 45.004 46.399 51.944 50.056 45.094 45.124 45.646 48.869 48.671 46.821 47.264 48.914 49.781 49.719 48.584 46.304 46.029 46.021 46.076 46.166 47.641 47.439 46.294 47.451 49.469 47.846 47.139 48.856 49.041 49.256 47.759 47.441 47.441 47.469 47.574 47.669 47.711 47.911 48.326 48.249 48.076 48.119 48.164 48.199 48.369 48.396 48.374 48.449 48.564 48.651 48.701 48.876 48.881 48.906 48.934 48.974 49.011 49.014 49.091 49.134 49.251 49.311 49.354 49.301 49.306 49.546 49.499 49.526 49.614 49.624 49.626 49.601 49.624 49.686 49.734 49.721 51.846 57.804 59.319 61.921 62.969 57.214 57.741 51.911 49.544 50.034 53.776 49.761 48.554 49.759 49.699 48.254 48.121 48.206 48.201 48.201 48.201 48.176 48.314 48.329 48.416 48.399 48.629 50.809
38.134 34.917 35.097 35.414 36.422 35.614 35.717 36.059 36.242 36.849 36.824 36.774 36.847 37.654 37.867 37.757 37.609 39.187 41.694 42.819 41.429 39.319 43.602 43.932 42.457 40.549 41.352 43.597 45.067 45.494 46.244 46.609 44.759 40.442 40.544 40.479 40.579 41.082 43.002 45.722 43.817 41.457 44.177 47.382 45.977 43.322 42.794 42.212 42.392 42.494 42.617 42.759 43.934 47.927 49.327 48.859 47.374 43.084 43.299 43.309 43.417 43.509 43.407 43.367 43.472 43.754 44.607 44.064 43.747 43.807 43.812 44.282 46.002 45.747 47.499 48.199 45.194 44.247 44.872 44.494 44.182 44.717 45.094 45.342 44.569 44.439 44.462 44.392 44.359 44.279 44.204 44.107 44.009 43.944 43.917 43.884 43.822 43.837 43.782 43.767 43.719 43.709 43.699 43.649 43.624 43.634 43.622 43.574 43.537 43.824 43.244 42.659 42.272 43.219 43.284 42.999 43.732 42.807 42.432 42.487 42.667 42.859 42.714 42.327 43.194 46.194 46.752 46.677 46.644 46.557 46.289 43.344 42.264 42.112 41.889 41.554 41.379 41.304 41.289 41.284 41.257 41.202 41.159 41.114 41.092 41.069 41.039 41.054 41.052 41.042 40.979 40.934 40.889 40.807 40.792 40.802 40.792 40.769 40.857 42.114 42.169 41.004 41.097 41.174 41.237 41.302 41.382 41.452 41.507 41.594 41.649 41.722 41.779 41.819 41.867 41.927 41.982 42.079 42.212 42.314 42.434 42.567 43.709 44.044 46.772 46.132 48.239 45.374 43.489 43.342 43.429 43.554 46.094 48.212 48.689 49.087 49.102 47.852 44.447 45.842 50.119 51.399 51.964 52.172 51.567 47.807 44.929 45.197 45.047 45.034 45.087 45.132 45.574 47.739 46.737 46.904 49.942 51.277 49.799 48.334 47.569 48.899 47.632 47.292 47.254 47.619 46.214 49.094 48.029 46.827 46.254 47.924 49.297 47.114 46.867 48.307 49.247 49.734 49.907 49.512 47.451 48.159 47.031 46.866 48.409 49.414 48.776 48.144 49.089 51.236 50.846 47.536 47.584 49.111 50.099 51.596 53.086 53.226 53.076 48.036 47.001 46.624 46.516 47.001 46.451 46.441 46.536 46.694 46.619 49.159 51.309 52.061 50.886 47.814 46.606 48.239 48.124 48.351 47.814 48.591 48.559 48.361 48.436 48.541 48.281 47.559 47.131 46.764 46.389 45.996 45.864 45.879 45.834 45.794 45.694 45.761 45.784 45.769 45.586 45.594 46.636 46.864 45.379 45.399 45.439 45.284 45.239 45.206 45.274 45.216 45.089 45.101 46.486 46.506 45.034 45.099 45.111 45.191 45.659 47.316 46.546 45.264 45.121 45.131 45.284 45.226 45.036 45.011 44.991 48.441 49.054 45.449 45.149 45.759 48.891 48.584 47.084 48.706 50.004 50.576 50.639 47.286 46.061 46.061 46.036 46.189 46.294 47.251 46.834 47.701 49.749 50.334 49.689 47.589 48.026 48.211 47.764 47.506 47.466 47.421 47.446 47.686 48.206 47.876 48.341 49.959 49.544 48.141 48.101 48.156 48.261 48.711 48.739 48.379 48.426 48.546 48.639 48.756 48.956 48.879 49.051 48.936 48.954 48.986 49.129 49.134 49.091 49.219 49.284 49.339 49.366 49.361 49.429 49.509 49.536 49.626 49.614 50.201 50.039 49.634 49.776 49.734 49.956 54.236 58.846 62.039 63.991 65.064 63.344 61.124 60.341 53.499 48.959 50.831 48.711 48.694 49.544 49.364 47.951 47.951 47.961 48.034 48.036 48.034 48.071 48.161 48.199 48.264 48.551 51.634 53.441
37.219 34.954 35.149 35.399 35.589 35.612 35.729 36.012 36.327 36.442 36.694 36.747 36.882 37.249 37.539 37.549 37.702 39.202 40.234 40.669 38.967 38.394 39.889 41.927 41.294 39.059 45.464 46.414 46.652 46.759 46.854 47.619 45.922 40.697 41.432 40.489 40.597 40.804 40.924 41.094 41.294 42.187 45.439 47.359 45.194 42.049 42.152 42.074 42.349 43.347 43.637 43.184 43.817 44.037 46.222 47.517 43.957 43.292 43.397 43.447 43.459 43.504 43.374 43.369 43.519 44.424 45.217 45.427 44.744 43.869 44.249 47.767 47.839 46.154 45.232 44.829 44.567 45.069 44.512 44.299 44.224 44.539 44.709 44.717 44.507 44.584 44.539 44.492 44.424 44.344 44.262 44.142 44.229 43.954 43.924 43.904 43.844 43.832 43.814 43.827 43.782 43.779 43.734 43.727 43.687 43.679 43.629 43.572 43.572 43.547 43.494 42.994 42.349 42.257 42.319 42.377 42.462 42.789 42.872 43.912 44.132 44.244 45.939 45.584 46.532 46.504 46.477 46.469 46.409 46.372 46.314 44.799 42.272 42.152 41.949 41.727 41.544 41.437 41.412 41.387 41.324 41.247 41.182 41.124 41.129 41.084 41.082 41.059 41.057 41.052 41.019 40.939 41.577 41.152 40.814 40.834 40.822 40.767 40.887 41.267 41.182 41.039 41.142 41.209 41.292 41.357 41.437 41.477 41.539 41.639 41.712 41.727 41.817 41.879 41.932 42.014 42.094 42.182 42.297 42.387 42.459 42.582 42.982 43.544 44.459 46.542 46.122 43.659 43.894 43.949 43.834 43.497 44.959 48.519 49.022 48.944 48.899 45.324 44.617 47.047 50.397 51.874 52.472 51.987 51.439 47.097 45.599 45.607 45.099 45.114 45.142 45.174 45.224 45.622 45.604 46.492 46.957 48.267 49.092 49.352 50.144 49.582 48.779 48.837 47.522 48.277 48.487 47.052 47.212 46.197 46.299 47.789 47.352 46.622 46.834 48.319 49.167 49.007 49.347 49.852 50.366 50.771 50.146 47.889 47.869 48.786 48.746 49.206 49.161 47.444 48.421 51.176 53.326 53.561 53.706 53.744 54.161 54.324 53.986 52.106 47.246 46.846 46.664 47.531 46.579 46.484 46.474 46.624 46.551 47.901 49.651 49.784 48.919 46.956 47.519 48.236 48.444 47.714 48.339 48.566 48.549 48.561 48.099 47.546 47.609 46.194 46.011 45.971 46.014 45.986 46.066 45.899 45.879 45.811 45.786 45.846 45.924 45.821 45.674 45.699 45.636 45.506 45.454 45.531 45.494 45.444 45.314 45.299 45.354 45.311 45.244 45.229 45.281 45.216 45.149 45.134 45.146 45.101 45.734 47.691 47.134 45.696 45.146 45.246 45.309 45.244 45.094 45.044 44.996 44.954 45.009 45.079 45.131 45.129 48.606 48.456 46.576 48.994 49.984 51.721 51.801 49.729 46.074 46.139 46.136 46.276 46.989 46.314 46.306 47.641 51.239 51.106 50.636 49.499 47.191 46.869 47.376 47.446 47.471 47.431 47.499 47.659 47.724 47.859 48.336 49.759 48.641 48.111 48.121 48.181 48.279 48.489 48.474 48.461 48.521 48.621 48.626 48.729 48.816 48.866 48.871 49.239 50.619 49.186 49.516 49.251 49.094 49.209 49.291 49.359 49.361 49.379 49.806 50.401 49.724 49.546 49.559 50.296 49.899 49.651 49.741 49.694 51.201 53.679 58.906 62.059 64.329 65.264 64.564 63.426 59.139 54.524 51.379 49.141 48.109 47.981 48.221 47.999 47.924 47.894 47.864 48.011 47.979 47.996 48.014 48.079 48.129 48.181 49.044 53.284 55.344
39.692 36.042 35.192 35.332 35.542 35.607 35.697 35.974 36.317 36.437 36.712 36.774 36.902 37.759 38.272 37.942 38.812 39.674 39.024 38.639 38.432 39.077 39.424 39.737 38.934 39.852 45.177 46.239 46.142 45.557 46.157 46.909 46.042 43.469 41.899 40.482 40.539 40.902 40.967 41.134 41.399 42.474 45.527 46.642 43.989 42.064 41.967 42.152 42.189 42.382 42.752 42.857 45.762 45.279 44.789 43.202 43.322 43.137 43.292 43.504 43.434 43.407 43.382 43.459 43.587 44.504 44.074 44.777 45.004 44.244 47.669 49.494 50.182 48.369 44.939 44.842 46.634 46.729 46.517 46.069 44.407 44.707 44.907 44.544 44.599 44.684 44.657 44.632 44.552 44.472 44.359 44.224 44.089 44.009 43.974 43.924 43.889 43.892 43.849 43.827 43.814 43.812 43.754 43.734 43.712 43.652 43.672 43.779 44.612 44.212 43.522 43.254 42.784 42.572 43.149 43.277 44.214 45.534 46.072 46.499 46.777 46.754 46.729 46.432 46.307 46.287 46.244 46.199 46.132 46.087 46.032 44.317 42.289 42.184 42.017 41.844 41.734 41.647 41.584 41.517 41.429 41.304 41.219 41.489 41.752 41.129 41.099 41.092 41.114 41.082 41.034 40.937 41.197 42.157 40.857 40.852 40.829 41.124 42.947 43.387 42.164 41.984 41.454 41.204 45.687 41.377 41.477 41.534 41.597 41.687 41.754 41.842 41.857 41.942 42.032 42.082 42.177 42.264 42.359 42.442 42.487 42.537 42.699 43.667 45.087 45.657 44.862 44.039 44.437 46.827 47.687 44.829 45.694 47.762 45.304 46.159 44.987 44.244 44.397 46.494 47.737 51.179 51.242 48.504 45.734 45.257 45.784 45.277 45.177 45.842 45.307 45.207 45.212 45.289 46.267 48.499 48.687 49.379 49.789 49.522 49.717 49.127 49.229 50.169 49.539 51.319 53.312 54.059 46.424 46.347 47.397 48.374 47.002 46.624 46.892 47.199 48.652 48.664 49.172 50.227 50.079 50.661 51.054 47.089 46.884 48.079 47.874 47.396 47.346 46.996 48.494 51.824 53.374 52.624 50.839 52.569 54.189 54.329 54.119 53.879 47.839 47.091 46.794 46.786 46.551 46.544 46.489 46.559 46.669 47.259 48.941 48.734 48.379 46.859 48.339 48.346 48.551 48.579 48.614 48.096 47.919 47.571 46.161 46.161 46.114 46.041 46.441 46.034 46.071 46.076 46.096 46.014 45.989 45.909 45.866 45.876 45.934 45.849 45.754 45.666 45.616 45.594 45.494 45.521 45.514 45.569 45.436 45.416 45.389 45.329 45.251 45.196 45.211 45.204 45.186 45.181 45.611 46.339 45.196 45.481 45.369 45.141 45.246 45.311 45.346 45.296 45.139 45.079 45.026 44.964 44.999 45.099 45.156 45.119 48.189 49.209 46.031 47.689 51.799 52.804 52.389 51.791 49.279 46.271 46.201 46.206 46.766 46.469 46.771 49.439 52.479 52.324 50.791 50.071 49.261 47.386 47.449 47.486 47.544 47.434 47.461 47.626 47.711 47.799 48.169 47.886 48.181 48.064 48.144 48.304 48.261 48.351 48.364 48.416 48.496 48.541 48.611 48.729 48.736 48.809 48.884 50.941 53.411 49.769 49.124 49.111 49.119 49.226 49.359 49.439 49.394 49.444 51.041 51.981 50.854 49.511 49.494 49.561 49.614 49.681 49.699 49.694 51.199 54.866 59.436 61.299 63.176 63.841 63.081 62.454 59.391 54.599 51.644 48.994 48.111 47.979 48.264 47.949 47.839 47.826 47.869 47.939 47.974 48.026 48.061 48.021 48.099 48.264 48.716 52.869 55.246
39.404 35.434 35.079 35.282 35.527 35.589 35.644 36.017 36.307 36.452 37.277 37.379 37.602 38.492 37.967 38.112 38.104 39.099 39.869 39.732 38.472 38.599 39.509 38.769 38.822 39.504 42.729 43.304 41.962 41.434 44.557 45.212 44.647 42.897 40.894 40.912 40.527 40.857 41.039 41.149 41.412 41.887 43.617 46.262 45.052 41.902 41.967 42.089 42.234 42.349 42.724 44.797 47.899 49.117 48.367 45.547 42.954 43.107 43.324 43.419 43.379 43.424 43.432 43.499 43.922 44.399 43.742 43.842 44.402 47.362 49.749 50.084 49.914 48.677 44.364 44.232 46.074 46.127 48.222 49.074 46.759 45.739 45.119 44.572 44.724 44.777 44.762 44.754 44.719 44.624 44.469 44.294 44.382 44.342 44.024 43.999 43.967 43.894 43.847 43.899 43.894 43.834 43.799 44.319 44.289 44.187 43.684 43.684 43.647 43.642 43.602 43.464 43.112 43.437 46.812 46.757 46.764 46.694 46.689 46.647 46.607 46.532 46.529 46.349 46.117 46.059 45.992 45.954 45.867 45.839 45.779 45.579 42.717 42.262 42.137 41.974 41.842 41.794 41.712 41.589 41.454 42.632 42.349 45.432 42.982 43.824 42.309 41.112 41.104 41.104 41.059 41.109 41.754 41.242 41.632 40.852 40.867 40.887 40.999 42.207 41.054 42.662 41.559 44.479 41.967 41.387 41.494 41.584 41.669 41.777 41.852 41.924 41.954 42.002 42.099 42.149 42.229 42.302 42.367 42.404 42.419 42.447 42.589 43.119 46.457 46.484 46.377 45.252 45.147 47.537 48.387 46.434 43.664 43.754 43.899 44.059 44.112 44.247 44.374 44.482 45.494 48.464 45.922 46.054 48.344 50.924 48.374 45.332 46.212 48.532 45.649 45.264 45.284 46.817 49.079 49.864 49.087 49.484 49.549 49.492 49.247 49.542 50.572 50.692 49.922 48.794 49.537 47.104 46.294 46.867 48.592 48.179 47.052 46.924 47.929 47.787 48.587 48.769 48.842 49.299 48.011 47.051 47.401 46.869 46.886 46.876 46.886 46.849 47.391 47.689 49.476 51.271 49.554 49.151 50.316 52.139 53.226 53.596 54.136 48.904 47.041 46.879 46.891 46.831 47.106 46.604 46.521 47.236 48.274 49.061 49.299 47.884 49.954 49.176 48.421 48.501 48.449 48.251 46.971 46.779 46.451 46.331 46.249 46.396 46.259 46.156 46.069 46.151 46.119 46.106 46.119 46.096 46.056 45.986 45.901 45.919 45.926 45.901 45.771 45.741 45.776 45.766 45.586 45.594 45.609 46.796 46.539 45.481 45.461 45.364 45.274 45.249 45.284 45.261 45.239 45.181 45.904 47.191 45.349 45.259 45.294 45.206 45.251 45.309 45.379 45.344 45.244 45.079 45.489 45.421 45.081 45.206 45.176 45.144 47.654 48.981 45.989 47.919 51.876 52.474 52.839 52.351 51.791 47.939 46.104 46.244 46.276 46.871 50.664 52.476 53.061 53.369 52.216 49.544 46.841 46.886 47.454 47.419 47.464 47.406 47.451 47.584 47.679 47.904 48.254 47.951 49.991 48.044 48.064 48.114 48.234 48.354 48.376 48.414 48.454 48.499 48.591 48.909 48.776 48.834 48.874 49.121 49.296 48.956 49.024 49.116 49.094 49.216 49.344 49.391 49.304 49.549 49.609 49.766 49.504 50.049 50.519 49.456 49.531 49.639 49.674 49.664 51.791 53.376 57.114 59.289 61.436 62.606 61.984 60.116 55.419 51.861 50.031 48.361 48.219 47.981 47.954 47.886 47.824 47.836 47.879 47.934 48.004 48.039 48.114 48.071 48.099 48.391 48.409 50.829 52.616
