ncols 477
nrows 30
xllcorner    458030
yllcorner    85650
cellsize     2
NODATA_value -9999
8.309 7.856 7.434 7.766 7.859 7.906 7.454 7.371 7.324 7.279 7.319 7.474 7.911 7.409 7.334 7.381 7.394 7.481 7.526 7.459 7.431 7.701 9.736 11.859 11.974 12.129 12.229 10.119 7.549 7.501 7.899 7.786 7.356 7.296 7.164 6.949 6.699 6.519 6.409 6.304 6.041 5.786 5.596 5.361 5.186 5.044 4.871 4.684 4.481 4.249 3.966 3.704 3.489 3.289 3.146 3.081 2.984 2.891 2.764 2.666 2.499 2.436 3.914 4.419 2.346 2.254 2.199 2.234 2.251 2.309 2.334 2.296 2.271 2.234 2.311 2.369 2.379 2.354 2.364 2.414 2.421 2.389 2.376 2.341 2.334 2.311 2.376 2.404 2.361 2.416 2.421 2.401 2.354 2.316 2.319 2.259 2.186 2.291 2.261 2.271 2.236 2.276 2.356 2.564 2.721 2.636 2.429 3.256 4.619 3.104 2.481 2.506 2.461 2.404 2.216 2.156 2.309 2.311 2.369 2.476 2.371 2.039 2.349 2.371 2.139 2.059 2.286 2.389 2.521 2.389 2.441 2.534 2.716 2.541 2.421 2.396 2.324 2.299 2.239 2.371 2.896 2.526 2.249 2.274 2.269 2.319 2.356 2.474 2.786 3.254 3.291 3.326 3.841 3.966 4.011 4.059 4.461 4.561 5.019 4.531 4.721 3.586 3.961 4.454 5.066 5.729 6.516 7.291 7.966 10.131 10.321 10.766 10.959 11.346 11.439 12.064 14.181 18.746 17.441 18.339 19.046 20.026 21.331 22.219 23.536 24.457 24.714 25.159 25.989 26.322 26.434 26.574 26.567 26.512 26.397 26.189 25.932 25.619 25.267 24.884 24.489 24.079 23.654 23.247 22.807 22.359 21.877 21.379 20.862 20.319 19.739 19.102 18.514 17.934 17.344 16.729 16.142 15.544 15.012 14.484 14.034 13.622 13.244 12.974 12.752 12.562 12.414 12.324 12.234 12.177 12.239 12.292 12.444 12.612 12.797 12.967 13.157 13.449 13.779 14.182 14.604 15.027 15.549 16.102 16.667 17.234 17.847 18.502 19.167 19.797 20.432 21.077 21.734 22.367 22.937 23.429 23.894 24.292 24.562 24.799 24.967 25.069 25.119 25.179 25.212 25.254 25.284 25.242 25.164 25.114 25.032 24.962 24.862 24.742 24.657 24.507 24.342 24.177 23.969 23.772 23.509 23.249 22.942 22.599 22.259 21.955 21.61 21.217 20.815 20.412 19.985 19.595 19.197 18.812 18.495 18.415 18.76 17.437 17.137 17.47 17.87 18.432 18.967 19.555 20.172 20.827 21.5 22.19 22.857 23.515 24.212 24.885 25.5 26.06 26.692 27.155 27.642 28.162 28.622 29.437 32.055 32.76 31.677 31.495 31.455 31.547 31.632 31.715 31.802 31.892 31.917 31.912 31.895 31.865 31.867 31.992 31.735 31.622 31.522 31.35 31.207 31.055 30.902 30.792 30.595 30.467 30.28 30.11 29.98 29.775 29.595 29.46 29.287 29.112 28.94 28.77 28.577 28.39 28.187 27.962 27.72 27.435 27.352 27.64 26.777 26.545 26.315 26.095 25.857 25.622 25.385 25.162 24.987 24.747 24.565 24.29 24.07 23.945 23.665 23.452 23.282 23.092 22.9 22.705 22.51 22.36 22.33 22.082 21.957 21.885 21.712 21.602 21.477 21.362 21.285 21.2 21.087 21.087 20.947 20.93 20.862 20.8 20.792 20.752 20.715 20.777 20.667 20.782 20.775 20.697 20.742 20.712 20.765 20.79 20.84 20.905 20.955 20.972 21.042 21.147 21.185 21.252 21.385 21.612 21.467 21.64 21.6 21.692 21.74 21.825 22.037 22.055 22.007 22.082 22.397 22.5 23.243 23.703 22.52 22.423 22.418 22.38 22.283 22.205 22.093 21.99 21.953 21.903 21.868 21.718 21.643 21.505 21.42 21.38 21.353 21.025 20.865 20.773 20.643 20.515 20.383 20.243 20.093 19.955 19.818 19.723 19.643 19.803 19.425 19.22 19.098 18.985 18.885 18.765 18.69 18.623 18.52
11.726 11.491 10.019 10.311 9.771 9.779 9.131 9.269 7.256 7.196 7.214 7.234 7.279 7.299 7.486 7.604 7.364 7.369 7.419 7.389 7.306 7.446 11.191 11.909 12.064 12.214 12.324 8.894 7.376 7.364 7.424 7.349 7.219 7.091 6.944 6.754 6.534 6.356 6.206 6.014 5.821 5.671 5.426 5.194 5.041 4.821 4.611 4.514 4.284 4.136 3.841 3.554 3.341 3.166 3.044 2.929 2.816 2.726 2.569 2.429 2.546 2.606 2.119 2.331 2.271 2.184 2.159 2.166 2.219 2.241 2.286 2.279 2.246 2.254 2.294 2.294 2.366 2.371 2.326 2.331 2.351 2.364 2.351 2.309 2.306 2.294 2.374 2.356 2.346 2.366 2.384 2.329 2.331 2.304 2.234 2.161 2.261 2.304 2.221 2.226 2.221 2.231 2.261 2.199 2.294 2.506 2.509 2.444 5.184 5.426 2.366 2.494 2.424 2.469 2.389 2.206 2.286 2.399 2.411 2.616 2.251 2.499 2.911 2.559 2.246 2.381 2.374 2.256 2.391 2.444 2.519 2.594 2.691 2.659 2.451 2.389 2.391 2.366 2.386 2.429 2.516 2.819 2.414 2.241 2.199 2.289 2.404 2.369 2.629 2.826 2.894 3.029 3.519 3.576 3.491 3.696 4.881 4.751 4.614 3.986 5.281 3.459 3.666 3.994 4.559 5.216 5.949 6.741 7.414 8.121 9.346 10.381 10.936 11.309 11.389 11.644 13.636 15.441 16.996 17.951 18.821 19.744 20.864 21.916 22.684 23.544 24.042 24.754 25.664 26.127 26.284 26.387 26.387 26.329 26.217 25.974 25.719 25.407 25.067 24.672 24.257 23.854 23.442 23.054 22.632 22.137 21.682 21.202 20.674 20.157 19.557 18.977 18.397 17.797 17.177 16.572 15.992 15.439 14.842 14.329 13.884 13.472 13.114 12.817 12.597 12.387 12.272 12.149 12.044 12.034 12.047 12.137 12.259 12.427 12.587 12.764 12.929 13.209 13.534 13.932 14.329 14.774 15.297 15.829 16.357 16.949 17.567 18.204 18.849 19.494 20.112 20.772 21.427 22.024 22.564 23.079 23.539 23.902 24.189 24.379 24.532 24.622 24.674 24.739 24.782 24.844 24.827 24.762 24.707 24.662 24.607 24.489 24.394 24.274 24.157 24.024 23.887 23.699 23.514 23.262 23.014 22.707 22.402 22.092 21.749 21.427 21.095 20.755 20.377 19.96 19.575 19.225 18.81 18.475 18.257 18.415 17.702 17.015 17.095 17.44 17.912 18.492 19.042 19.62 20.272 20.942 21.595 22.277 22.945 23.615 24.297 24.937 25.567 26.16 26.742 27.237 27.76 28.26 28.692 29.687 31.54 32.492 32.83 31.395 31.407 31.442 31.562 31.627 31.705 31.765 31.807 31.797 31.78 31.742 31.705 32.07 31.602 31.452 31.365 31.205 31.095 30.925 30.725 30.642 30.465 30.315 30.122 29.957 29.842 29.625 29.447 29.29 29.125 28.977 28.815 28.622 28.442 28.28 28.047 27.782 27.55 27.307 27.167 27.367 26.655 26.425 26.202 25.95 25.735 25.505 25.265 25.047 24.825 24.64 24.43 24.207 23.987 23.777 23.532 23.357 23.172 22.99 22.82 22.607 22.43 22.285 22.27 22.015 21.875 21.832 21.692 21.505 21.417 21.3 21.205 21.155 20.995 20.945 20.847 20.767 20.775 20.687 20.697 20.7 20.597 20.97 20.537 20.552 20.557 20.525 20.547 20.557 20.592 20.612 20.665 20.747 20.805 20.835 20.982 21 21.042 21.105 21.222 21.622 21.357 21.465 21.497 21.575 21.667 21.735 21.96 21.922 21.917 21.93 22.162 22.31 23.2 23.208 22.51 22.313 22.305 22.25 22.183 22.085 22.01 21.898 21.808 21.825 21.725 21.588 21.525 21.438 21.328 21.22 21.095 20.95 20.745 20.66 20.565 20.418 20.268 20.165 20.453 19.885 19.745 19.62 19.503 19.57 19.3 19.145 19.043 18.91 18.793 18.688 18.615 18.515 18.453
12.219 12.554 12.896 12.536 12.646 11.786 12.101 9.919 7.181 7.226 7.094 7.229 7.261 7.341 7.739 7.376 7.469 7.404 7.436 7.321 7.159 9.601 11.859 11.936 12.064 12.219 10.874 7.814 7.319 7.266 7.331 7.214 7.099 6.941 6.744 6.591 6.384 6.181 6.024 5.814 5.621 5.484 5.266 5.059 4.906 4.744 6.406 4.236 4.126 3.954 3.674 3.419 3.179 3.034 2.911 2.759 2.586 2.509 2.444 2.609 2.309 2.989 2.324 2.266 2.176 2.136 2.144 2.201 2.254 2.254 2.254 2.261 2.251 2.346 2.364 2.309 2.329 2.344 2.319 2.316 2.321 2.321 2.316 2.316 2.316 2.331 2.334 2.311 2.294 2.321 2.324 2.301 2.296 2.271 2.199 2.184 2.319 2.231 2.216 2.231 2.224 2.186 2.199 2.126 2.116 2.304 3.104 2.736 2.351 2.699 2.299 2.324 2.504 4.189 2.216 2.241 2.274 2.319 2.324 2.564 2.166 2.606 3.266 2.834 2.356 2.609 2.649 2.544 2.616 2.411 2.506 2.586 2.619 2.654 2.539 2.454 2.514 2.539 2.431 2.476 2.534 2.771 2.421 2.281 2.299 2.299 2.369 2.434 2.384 2.624 2.466 2.581 2.839 3.219 3.279 3.474 4.109 3.549 3.484 3.201 3.329 3.654 3.676 3.859 4.199 4.786 5.509 6.209 6.966 7.549 8.329 9.766 10.674 11.276 11.396 11.479 12.656 14.776 16.361 17.419 18.469 19.374 20.411 21.274 22.171 23.039 23.842 24.524 25.437 25.957 26.149 26.217 26.229 26.134 25.969 25.777 25.497 25.194 24.857 24.467 24.049 23.654 23.232 22.859 22.444 21.964 21.487 21.004 20.509 19.994 19.444 18.834 18.232 17.664 17.064 16.464 15.859 15.274 14.712 14.204 13.747 13.329 12.959 12.697 12.442 12.224 12.092 11.982 11.884 11.897 11.889 11.952 12.064 12.204 12.377 12.554 12.709 12.989 13.282 13.677 14.082 14.569 15.039 15.549 16.094 16.689 17.299 17.909 18.552 19.199 19.839 20.492 21.107 21.707 22.267 22.759 23.204 23.524 23.782 23.959 24.104 24.212 24.272 24.299 24.352 24.392 24.347 24.304 24.244 24.187 24.134 24.042 23.922 23.794 23.692 23.554 23.392 23.194 22.984 22.729 22.459 22.182 21.859 21.562 21.244 20.937 20.592 20.32 19.92 19.552 19.172 18.79 18.432 18.157 18.08 18.02 17.085 16.865 17.08 17.482 17.962 18.557 19.155 19.72 20.432 21.085 21.762 22.415 23.092 23.75 24.437 25.08 25.687 26.272 26.865 27.32 27.875 28.367 28.805 29.662 31.297 32.522 31.515 31.357 31.342 31.395 31.49 31.555 31.61 31.667 31.667 31.652 31.647 31.565 31.545 31.932 31.542 31.33 31.212 31.012 30.872 30.745 30.572 30.462 30.285 30.135 29.965 29.765 29.702 29.462 29.285 29.105 28.98 28.8 28.632 28.48 28.31 28.155 27.905 27.645 27.417 27.18 26.992 27.13 26.547 26.28 26.07 25.802 25.612 25.397 25.165 24.945 24.752 24.52 24.325 24.135 23.895 23.69 23.467 23.242 23.072 22.94 22.787 22.54 22.34 22.22 22.102 21.932 21.77 21.717 21.752 21.4 21.295 21.175 21.085 21.012 20.885 20.772 20.742 20.652 20.62 20.55 20.54 20.562 20.457 20.45 20.36 20.4 20.392 20.332 20.327 20.385 20.427 20.492 20.497 20.575 20.635 20.665 20.805 20.847 20.932 20.992 21.092 21.612 21.25 21.355 21.407 21.475 21.58 21.617 21.757 21.847 21.835 21.79 22.087 22.075 25.618 23.55 22.565 22.17 22.213 22.145 22.063 21.988 21.915 21.87 21.708 21.918 21.648 21.505 21.395 21.258 21.193 21.11 20.988 20.825 20.72 20.593 20.445 20.328 20.225 20.128 19.985 19.793 19.645 19.553 19.413 19.29 19.175 19.05 18.955 18.843 18.72 18.603 18.52 18.428 18.375
12.246 12.589 12.949 13.116 12.791 12.444 12.121 11.001 7.799 7.421 7.114 7.206 7.266 7.441 7.196 7.074 7.089 7.256 7.394 7.311 7.519 10.546 11.864 12.036 12.134 12.009 8.421 7.279 7.201 7.246 7.221 7.091 6.981 6.756 6.584 6.396 6.214 5.959 5.781 5.609 5.521 5.309 5.071 4.926 5.441 7.361 7.479 5.154 3.844 3.684 3.381 3.171 2.976 2.876 2.781 2.601 2.449 2.556 2.726 2.209 1.746 2.274 2.274 2.191 2.111 2.131 2.151 2.221 2.274 2.331 2.304 2.311 2.266 2.344 2.376 2.321 2.326 2.306 2.326 2.316 2.284 2.286 2.289 2.309 2.339 2.336 2.319 2.284 2.296 2.299 2.326 2.301 2.264 2.214 2.186 2.286 2.244 2.204 2.201 2.211 2.209 2.201 2.176 2.014 2.101 2.221 2.704 2.924 3.876 3.429 2.356 2.796 2.311 2.359 2.171 2.339 2.316 2.169 2.909 2.436 2.131 2.404 2.431 2.336 2.346 2.406 2.531 2.921 2.774 2.559 2.601 2.599 2.586 2.611 2.536 2.546 2.786 2.559 2.604 2.574 2.521 2.731 2.849 2.866 2.299 2.419 2.349 2.349 2.286 2.371 2.369 2.379 2.581 3.451 3.371 3.176 3.459 2.844 3.049 3.361 3.494 3.594 3.914 3.919 4.114 4.444 5.231 5.879 6.436 7.276 8.299 9.439 10.506 11.219 11.459 11.511 11.916 14.064 15.661 17.229 18.311 19.321 19.899 20.904 22.361 22.864 23.677 24.397 25.282 25.819 26.009 26.049 26.039 25.919 25.737 25.529 25.294 24.982 24.647 24.227 23.822 23.417 23.052 22.662 22.209 21.769 21.299 20.829 20.342 19.824 19.264 18.687 18.099 17.499 16.912 16.327 15.732 15.139 14.574 14.074 13.587 13.182 12.814 12.522 12.282 12.107 11.952 11.809 11.714 11.697 11.729 11.829 11.877 12.009 12.172 12.364 12.502 12.749 13.057 13.437 13.842 14.319 14.797 15.289 15.832 16.414 17.034 17.644 18.262 18.889 19.532 20.152 20.782 21.384 21.962 22.429 22.822 23.144 23.399 23.579 23.729 23.822 23.839 23.844 23.902 23.924 23.887 23.819 23.777 23.709 23.642 23.529 23.434 23.304 23.177 23.024 22.862 22.662 22.427 22.192 21.894 21.619 21.302 20.989 20.702 20.44 20.11 19.797 19.502 19.125 18.757 18.402 18.085 17.835 17.83 17.355 16.79 16.81 17.092 17.522 18.072 18.652 19.285 19.862 20.552 21.185 21.867 22.522 23.217 23.86 24.547 25.177 25.77 26.37 26.932 27.407 27.955 28.465 28.887 30.382 30.95 31.667 32.932 31.795 31.225 31.312 31.382 31.477 31.505 31.537 31.557 31.532 31.49 31.452 31.427 31.667 31.405 31.167 31.047 30.86 30.68 30.552 30.402 30.26 30.125 29.97 29.837 29.592 29.487 29.302 29.095 28.955 28.797 28.66 28.48 28.337 28.135 27.975 27.795 27.525 27.29 27.022 26.83 26.812 26.49 26.135 25.917 25.685 25.48 25.26 25.06 24.827 24.64 24.432 24.232 24.032 23.772 23.6 23.39 23.172 23.007 22.84 22.71 22.442 22.27 22.145 22.012 21.89 21.665 21.537 21.45 21.27 21.157 21.057 20.912 20.842 20.732 20.657 20.63 20.485 20.44 20.405 20.322 20.322 20.262 20.245 20.212 20.212 20.185 20.17 20.19 20.215 20.26 20.345 20.392 20.465 20.572 20.577 20.687 20.75 20.822 20.905 21.012 21.547 21.572 21.25 21.31 21.39 21.485 21.547 21.602 21.71 21.717 21.697 22.042 21.945 23.138 22.933 22.498 22.063 22.088 21.955 21.843 21.8 21.77 21.855 22.025 21.565 21.485 21.408 21.288 21.168 21.128 20.983 20.875 20.725 20.595 20.49 20.348 20.248 20.12 19.998 19.855 19.695 19.57 19.45 19.32 19.22 19.098 18.97 18.87 18.775 18.66 18.57 18.455 18.365 18.308
12.244 12.621 12.936 13.144 12.791 12.444 12.094 11.249 7.951 7.369 7.121 7.071 7.164 7.511 7.319 7.059 7.046 7.101 7.164 7.231 9.806 11.844 11.951 12.089 12.206 11.089 7.406 7.199 7.164 7.181 7.119 7.011 6.789 6.586 6.404 6.211 5.999 5.766 5.576 5.436 5.331 5.146 4.944 4.789 5.346 9.831 8.214 3.826 3.616 3.384 3.169 2.976 2.819 2.684 2.519 2.429 2.351 2.674 2.171 1.746 2.229 2.236 2.181 2.111 2.071 2.109 2.156 2.261 2.291 2.324 2.299 2.296 2.336 2.364 2.321 2.286 2.301 2.324 2.304 2.304 2.286 2.314 2.344 2.311 2.306 2.299 2.309 2.304 2.279 2.274 2.286 2.314 2.284 2.186 2.246 2.266 2.206 2.191 2.211 2.171 2.179 2.196 2.176 2.094 2.161 2.169 2.181 2.196 2.379 2.441 2.606 2.551 2.444 2.321 2.289 2.481 2.241 2.186 2.389 2.254 2.586 2.439 2.404 2.326 2.434 2.609 2.656 2.934 3.006 2.646 2.504 2.451 2.526 2.499 2.586 3.201 2.601 2.616 2.704 2.519 2.626 2.564 2.409 2.314 2.324 2.306 2.264 2.254 2.251 2.221 2.319 2.326 2.579 3.296 3.404 3.106 2.871 2.994 3.211 3.324 3.501 3.656 4.089 3.931 4.194 4.174 4.679 5.439 6.256 7.011 7.709 8.354 12.681 12.149 11.474 11.491 11.741 14.284 15.099 16.906 17.999 19.074 19.836 20.679 22.259 22.702 23.557 24.349 25.157 25.714 25.842 25.889 25.864 25.832 25.484 25.294 25.039 24.709 24.382 23.979 23.594 23.214 22.869 22.449 22.019 21.559 21.089 20.622 20.144 19.644 19.114 18.532 17.937 17.379 16.784 16.194 15.599 15.017 14.494 13.924 13.444 13.029 12.694 12.384 12.169 11.934 11.784 11.667 11.574 11.517 11.542 11.609 11.669 11.799 11.972 12.147 12.309 12.532 12.847 13.224 13.654 14.074 14.509 15.002 15.584 16.139 16.742 17.367 17.987 18.602 19.237 19.862 20.482 21.062 21.622 22.062 22.459 22.764 22.999 23.179 23.304 23.379 23.417 23.454 23.502 23.449 23.404 23.367 23.304 23.237 23.147 23.057 22.934 22.769 22.632 22.459 22.302 22.062 21.829 21.582 21.339 21.079 20.769 20.464 20.202 19.897 19.625 19.265 18.995 18.685 18.337 18.022 17.77 17.547 17.932 17.112 16.635 16.787 17.102 17.607 18.177 18.762 19.402 20.007 20.692 21.335 21.997 22.675 23.322 24.02 24.672 25.292 25.867 26.467 27.007 27.487 28.05 28.567 28.965 29.765 31.167 31.117 31.69 31.792 31.15 31.255 31.29 31.38 31.395 31.402 31.452 31.36 31.36 31.325 31.262 31.37 31.287 31.022 30.875 30.705 30.522 30.38 30.217 30.115 29.977 29.815 29.697 29.487 29.375 29.137 28.942 28.797 28.632 28.537 28.322 28.162 27.99 27.815 27.645 27.392 27.14 26.9 26.695 26.97 26.322 26.03 25.892 25.587 25.432 25.197 24.952 24.77 24.557 24.36 24.165 23.92 23.685 23.497 23.297 23.092 22.867 22.687 22.495 22.31 22.137 22 21.867 21.775 21.522 21.39 21.337 21.117 21.017 20.88 20.73 20.662 20.562 20.462 20.437 20.325 20.272 20.267 20.187 20.142 20.115 20.102 20.08 20.057 20.065 20.06 20.082 20.115 20.135 20.23 20.302 20.397 20.527 20.527 20.58 20.685 20.757 20.842 20.912 21.105 21.467 21.147 21.275 21.315 21.402 21.442 21.465 21.552 21.61 21.58 21.797 21.868 22.365 22.62 22.363 21.948 21.895 21.813 22.173 22.598 22.733 22.093 21.733 21.423 21.353 21.275 21.198 21.09 21.08 20.945 20.773 20.643 20.52 20.38 20.255 20.155 20.025 19.885 19.73 19.548 19.443 19.38 19.325 19.3 19.05 18.943 18.828 18.67 18.575 18.455 18.318 18.245 18.153
12.269 12.634 12.951 13.126 12.764 12.464 12.089 11.476 7.926 7.134 7.111 7.111 7.101 7.419 8.749 8.336 7.284 7.119 7.144 7.131 8.046 9.064 11.436 12.169 12.304 9.391 7.254 7.179 7.151 7.071 6.991 6.854 6.636 6.411 6.204 5.996 5.771 5.576 5.399 5.274 5.244 5.121 4.796 4.811 5.674 7.091 4.931 3.581 3.409 3.289 3.019 2.814 2.639 2.461 2.419 3.254 2.611 2.161 1.594 2.159 2.224 2.166 2.139 2.076 2.081 2.141 2.194 2.249 2.264 2.286 2.254 2.291 2.249 2.281 2.321 2.289 2.281 2.284 2.291 2.281 2.279 2.284 2.296 2.289 2.281 2.249 2.281 2.336 2.321 2.289 2.249 2.264 2.184 2.166 2.244 2.224 2.194 2.181 2.189 2.176 2.159 2.191 2.184 2.191 2.149 2.126 2.126 2.139 2.661 2.304 2.501 2.509 2.431 2.444 2.331 2.366 2.434 2.426 2.436 2.319 2.224 2.339 2.314 2.354 2.511 2.731 2.884 3.196 2.946 2.689 2.664 2.426 2.401 2.449 2.524 2.574 2.537 2.489 2.497 2.492 2.469 2.412 2.404 2.447 2.332 2.217 2.202 2.172 2.299 2.269 2.222 2.362 2.459 2.622 3.104 2.772 2.622 2.829 3.172 3.292 3.652 4.034 4.309 3.972 3.937 4.139 4.429 4.884 5.862 7.302 7.922 9.132 11.694 15.474 11.772 11.527 11.652 12.459 14.804 16.907 18.207 19.104 19.822 20.717 21.742 22.654 23.752 24.642 25.182 25.774 25.694 25.674 25.602 25.459 25.244 25.022 24.772 24.474 24.097 23.712 23.377 22.999 22.632 22.212 21.799 21.354 20.909 20.457 19.979 19.489 18.964 18.392 17.799 17.224 16.657 16.069 15.479 14.889 14.342 13.784 13.349 12.942 12.567 12.239 11.994 11.792 11.642 11.512 11.404 11.312 11.342 11.404 11.464 11.572 11.762 11.944 12.087 12.307 12.637 12.979 13.419 13.837 14.287 14.792 15.352 15.887 16.497 17.139 17.744 18.349 18.989 19.569 20.159 20.724 21.252 21.697 22.052 22.354 22.607 22.777 22.889 22.977 22.987 23.012 22.994 22.977 22.944 22.892 22.854 22.739 22.639 22.539 22.374 22.199 22.062 21.887 21.717 21.502 21.252 20.999 20.752 20.539 20.237 19.939 19.672 19.405 19.12 18.79 18.497 18.195 17.922 17.657 17.467 17.242 17.92 16.892 16.585 16.79 17.202 17.712 18.302 18.905 19.537 20.155 20.817 21.485 22.157 22.805 23.495 24.165 24.832 25.445 26.03 26.592 27.075 27.595 28.112 28.62 29.012 30.357 31.632 32.005 31.452 31.207 31.14 31.155 31.2 31.267 31.277 31.297 31.3 31.205 31.202 31.212 31.102 31.11 31.135 30.887 30.712 30.552 30.357 30.237 30.07 29.917 29.825 29.64 29.517 29.312 29.142 29.02 28.765 28.632 28.46 28.322 28.17 28.005 27.852 27.692 27.49 27.202 26.965 26.722 26.552 26.475 26.362 25.925 25.69 25.5 25.34 25.147 24.872 24.675 24.445 24.245 24.032 23.85 23.537 23.37 23.15 22.93 22.727 22.555 22.362 22.162 21.975 21.845 21.698 21.575 21.363 21.238 21.195 20.978 20.825 20.733 20.6 20.493 20.415 20.315 20.505 20.238 20.125 20.183 20.043 20.033 20.01 19.963 20.018 19.925 19.968 19.965 19.955 20.02 20.038 20.108 20.193 20.258 20.375 20.458 20.523 20.595 20.678 20.795 20.838 21.103 21.305 21.073 21.23 21.228 21.3 21.37 21.375 21.428 21.478 21.495 21.69 21.9 22.623 22.65 22.108 21.825 21.725 21.683 22.243 22.66 22.535 22.123 21.458 21.32 21.24 21.208 21.123 21.02 20.925 20.805 20.683 20.545 20.398 20.278 20.143 20.043 19.923 19.793 19.62 19.49 19.415 19.348 19.18 19.085 18.95 18.845 18.703 18.573 18.485 18.375 18.248 18.193 18.143
12.301 12.661 12.989 13.116 12.746 12.399 12.074 10.996 7.059 7.196 7.161 7.154 7.031 7.299 8.556 8.171 7.254 7.101 7.131 7.099 7.091 7.111 7.699 9.754 10.341 7.359 7.156 7.119 7.076 6.936 6.816 6.649 6.464 6.236 6.001 5.769 5.556 5.344 5.226 5.124 5.064 4.904 4.699 4.859 6.134 5.111 3.669 3.454 3.279 3.109 2.911 2.716 2.521 2.351 2.271 4.699 2.429 1.724 2.149 2.206 2.131 2.136 2.106 2.084 2.114 2.151 2.244 2.251 2.259 2.266 2.259 2.299 2.254 2.239 2.259 2.264 2.276 2.269 2.301 2.309 2.309 2.366 2.294 2.284 2.269 2.256 2.276 2.236 2.244 2.266 2.256 2.206 2.229 2.244 2.219 2.164 2.179 2.161 2.169 2.149 2.174 2.179 2.169 2.164 2.139 2.146 2.126 2.119 2.126 2.136 2.214 2.406 2.334 2.206 2.326 2.449 2.511 2.616 2.689 2.911 1.991 2.201 2.299 2.376 2.659 2.981 3.206 3.264 2.939 2.704 2.581 2.734 2.646 2.429 2.346 2.482 2.487 2.519 2.547 2.599 2.792 2.514 2.374 2.439 2.502 2.269 2.189 2.109 2.227 2.214 2.204 2.224 2.339 2.444 2.799 2.677 2.584 2.679 3.117 3.339 3.739 4.707 4.222 4.169 3.947 4.197 4.217 4.664 5.504 9.084 9.369 12.629 11.837 18.452 12.632 11.607 11.644 11.982 14.552 17.037 18.284 19.082 19.879 20.757 21.849 22.752 23.972 24.887 25.279 25.504 25.512 25.449 25.344 25.187 24.974 24.754 24.504 24.172 23.832 23.494 23.137 22.764 22.377 21.977 21.564 21.129 20.689 20.259 19.809 19.327 18.797 18.244 17.654 17.114 16.514 15.914 15.342 14.759 14.207 13.692 13.192 12.779 12.447 12.109 11.877 11.677 11.504 11.374 11.262 11.162 11.177 11.217 11.259 11.384 11.577 11.724 11.904 12.144 12.449 12.797 13.172 13.614 14.067 14.567 15.107 15.674 16.289 16.894 17.479 18.072 18.687 19.289 19.849 20.377 20.899 21.309 21.672 21.989 22.217 22.382 22.484 22.534 22.547 22.582 22.539 22.509 22.474 22.412 22.332 22.227 22.104 21.982 21.814 21.627 21.439 21.297 21.122 20.919 20.659 20.409 20.104 19.849 19.654 19.364 19.084 18.857 18.592 18.277 17.985 17.747 17.555 17.342 17.08 16.68 16.605 16.317 16.49 16.825 17.292 17.832 18.412 19.037 19.722 20.332 21.02 21.677 22.332 23.01 23.68 24.347 24.98 25.565 26.175 26.72 27.167 27.665 28.2 28.685 29.03 31.182 32.7 32.947 31.372 31.095 31.022 31.057 31.11 31.175 31.175 31.162 31.185 31.112 31.08 31.007 30.935 30.92 30.952 30.727 30.56 30.4 30.235 30.082 29.937 29.765 29.722 29.487 29.335 29.172 28.975 28.812 28.602 28.5 28.342 28.217 28.092 27.855 27.687 27.53 27.302 27.055 26.795 26.585 26.412 26.282 26.237 25.795 25.58 25.402 25.147 24.95 24.695 24.487 24.267 24.087 23.845 23.682 23.405 23.21 23.007 22.752 22.612 22.377 22.17 22 21.827 21.688 21.52 21.425 21.225 21.103 21.018 20.908 20.708 20.61 20.49 20.395 20.39 20.233 20.143 20.07 19.993 20.008 19.945 19.885 19.908 19.845 20.013 19.808 19.835 19.875 19.845 19.893 19.903 19.985 20.088 20.118 20.213 20.36 20.398 20.525 20.565 20.61 20.708 20.873 21.635 20.998 21.15 21.14 21.178 21.248 21.215 21.593 21.41 21.328 21.43 22.328 22.185 22.6 22.13 21.728 21.68 21.653 21.895 22.208 21.76 21.62 21.44 21.363 21.925 21.6 21.033 20.9 20.785 20.688 20.58 20.455 20.363 20.21 20.128 20.053 19.928 19.72 19.58 19.473 19.34 19.213 19.095 18.978 18.893 18.773 18.648 18.568 18.475 18.388 18.37 18.425 18.598
12.334 12.671 13.024 13.079 12.739 12.399 12.061 10.854 6.974 7.054 7.214 7.159 7.356 7.446 7.426 7.219 7.009 7.021 7.051 7.096 7.089 7.079 7.086 7.119 8.104 7.179 7.081 7.211 7.379 6.834 6.576 6.404 6.209 6.011 5.791 5.551 5.384 5.164 5.019 4.896 4.784 5.034 7.199 4.609 3.981 3.751 3.566 3.394 3.196 2.994 2.786 2.666 2.434 2.286 2.314 1.991 1.686 2.101 2.194 2.139 2.134 2.109 2.091 2.099 2.134 2.216 2.244 2.224 2.216 2.234 2.294 2.329 2.309 2.291 2.299 2.256 2.256 2.266 2.264 2.279 2.296 2.301 2.256 2.291 2.279 2.274 2.251 2.224 2.209 2.211 2.229 2.194 2.239 2.221 2.156 2.141 2.131 2.151 2.151 2.129 2.139 2.126 2.179 2.141 2.139 2.111 2.106 2.106 2.109 2.126 2.151 2.219 2.281 2.251 2.404 2.376 2.439 2.371 2.156 1.876 2.146 2.139 2.231 2.456 2.819 2.926 2.911 2.786 2.724 2.696 3.196 3.294 2.901 2.596 2.484 2.347 2.422 2.587 2.507 2.407 2.567 2.537 2.409 2.397 2.617 2.484 2.224 2.174 2.934 2.292 2.454 3.277 2.384 2.629 2.437 2.524 2.489 2.452 3.134 3.357 3.814 4.287 4.907 4.917 4.042 4.112 4.149 4.462 5.054 6.962 8.084 12.049 13.082 18.952 12.324 11.639 11.687 11.794 16.667 16.377 17.597 19.147 20.457 20.957 22.024 23.027 24.654 24.967 25.244 25.344 25.299 25.204 25.079 24.924 24.709 24.437 24.174 23.862 23.549 23.202 22.837 22.494 22.132 21.724 21.349 20.924 20.502 20.059 19.622 19.154 18.649 18.104 17.487 16.929 16.347 15.787 15.219 14.649 14.082 13.567 13.092 12.667 12.324 11.999 11.732 11.529 11.344 11.232 11.099 11.029 11.047 11.054 11.107 11.234 11.402 11.572 11.762 11.994 12.279 12.587 12.932 13.384 13.864 14.379 14.897 15.474 16.047 16.607 17.217 17.819 18.429 18.994 19.549 20.059 20.529 20.929 21.289 21.607 21.807 21.964 22.054 22.097 22.114 22.107 22.077 22.034 21.979 21.904 21.829 21.717 21.567 21.397 21.252 21.029 20.842 20.684 20.507 20.299 20.042 19.757 19.507 19.237 19.014 18.757 18.534 18.297 18.022 17.757 17.545 17.367 17.235 17.05 16.537 16.312 16.077 16.187 16.465 16.892 17.402 17.982 18.575 19.237 19.912 20.555 21.275 22.022 22.56 23.237 23.87 24.535 25.162 25.755 26.307 26.827 27.29 27.79 28.312 28.732 29.042 30.46 30.907 31.302 32.032 31.05 30.97 30.947 30.99 31.052 31.08 31.085 31.067 31.09 30.927 30.847 30.797 30.747 30.8 30.775 30.38 30.237 30.045 29.91 29.782 29.592 29.512 29.372 29.177 29.042 28.83 28.67 28.48 28.362 28.195 28.01 27.892 27.717 27.542 27.365 27.142 26.927 26.622 26.427 26.252 26.067 26.172 25.63 25.395 25.185 24.935 24.755 24.525 24.282 24.062 23.84 23.657 23.47 23.232 23.012 22.842 22.587 22.477 22.23 22.027 21.877 21.705 21.545 21.38 21.275 21.113 20.98 20.958 20.918 20.593 20.468 20.373 20.3 20.23 20.13 20.083 19.998 19.898 19.87 19.848 19.795 19.848 19.763 19.93 19.655 19.69 19.755 19.72 19.795 19.825 19.84 19.92 19.978 20.078 20.213 20.26 20.335 20.4 20.47 20.54 20.628 21.005 21.003 20.905 20.963 21.015 21.083 21.11 21.158 21.375 21.19 21.203 21.598 22.155 22.278 22.375 21.625 21.588 21.613 22.783 23.673 21.83 21.52 21.373 21.155 21.368 21.26 20.953 20.833 20.705 20.628 20.543 20.413 20.278 20.128 20.02 19.933 19.79 19.658 19.52 19.39 19.285 19.198 19.088 18.985 18.91 18.83 18.883 19.433 19.638 19.51 19.223 19.81 18.968
12.349 12.684 13.006 13.046 12.696 12.356 12.036 9.661 6.904 7.104 7.241 7.341 7.841 7.934 7.401 7.276 6.999 7.051 7.009 7.054 7.049 7.051 7.046 7.011 7.021 6.996 6.986 6.976 6.801 6.459 6.309 6.264 5.951 5.756 5.551 5.376 5.204 5.014 4.839 4.631 4.514 5.116 5.739 5.011 3.741 3.586 3.456 3.289 3.059 2.834 2.701 2.584 2.574 2.354 1.676 1.624 1.999 2.146 2.146 2.139 2.111 2.094 2.091 2.101 2.154 2.194 2.224 2.259 2.269 2.309 2.261 2.321 2.321 2.294 2.254 2.241 2.256 2.241 2.266 2.316 2.389 2.271 2.269 2.291 2.264 2.246 2.226 2.204 2.211 2.196 2.181 2.229 2.231 2.161 2.144 2.139 2.134 2.144 2.156 2.154 2.134 2.129 2.149 2.121 2.156 2.111 2.111 2.116 2.094 2.126 2.129 2.194 2.196 2.214 2.654 2.421 2.176 2.201 1.944 1.889 2.294 2.209 2.221 2.356 2.614 2.626 2.536 2.489 2.506 2.524 2.789 2.789 3.106 2.561 2.609 2.527 2.219 2.532 2.437 2.269 2.382 2.419 2.569 2.477 2.457 2.362 2.262 2.229 2.339 2.397 6.029 3.727 2.242 2.277 2.362 2.469 2.937 2.374 3.119 3.277 3.597 4.164 4.072 4.512 4.419 4.134 4.187 4.614 4.849 5.699 6.289 8.529 7.817 11.657 13.062 11.644 11.754 11.762 13.707 15.914 17.324 19.212 20.279 22.624 22.249 23.117 24.087 24.804 25.104 25.124 25.059 25.077 24.814 24.632 24.409 24.162 23.859 23.552 23.244 22.914 22.549 22.214 21.847 21.487 21.117 20.702 20.304 19.862 19.414 18.974 18.454 17.904 17.344 16.794 16.219 15.639 15.084 14.514 13.954 13.434 12.959 12.542 12.184 11.859 11.579 11.347 11.167 11.024 10.957 10.874 10.852 10.879 10.939 11.067 11.229 11.409 11.579 11.807 12.079 12.399 12.769 13.187 13.652 14.157 14.722 15.242 15.807 16.389 16.984 17.549 18.137 18.719 19.262 19.719 20.202 20.602 20.922 21.217 21.389 21.552 21.652 21.687 21.699 21.667 21.609 21.544 21.467 21.374 21.262 21.154 20.964 20.797 20.634 20.452 20.264 20.034 19.869 19.644 19.414 19.152 18.902 18.639 18.392 18.179 17.999 17.755 17.505 17.332 17.157 16.967 16.927 16.545 16.1 15.977 15.975 16.162 16.537 17.012 17.562 18.11 18.76 19.537 20.345 22.03 22.91 23.477 23.505 23.84 24.13 24.665 25.292 25.867 26.445 26.952 27.407 27.88 28.397 28.79 29.067 29.702 31.16 31.545 31.82 31.03 30.895 30.872 30.935 30.97 30.947 30.972 30.957 30.897 30.81 30.722 30.677 30.575 30.69 30.837 30.215 30.065 29.897 29.772 29.665 29.447 29.327 29.185 29.02 28.882 28.687 28.512 28.29 28.197 28.025 27.875 27.71 27.545 27.377 27.212 26.972 26.76 26.462 26.247 26.095 25.87 25.777 25.467 25.207 24.972 24.747 24.592 24.325 24.107 23.915 23.705 23.515 23.322 23.122 22.857 22.715 22.445 22.272 22.075 21.9 21.715 21.57 21.433 21.298 21.183 21.02 20.855 20.768 20.785 20.498 20.373 20.293 20.185 20.148 20.028 19.948 19.87 19.81 19.798 19.753 19.688 19.763 19.615 19.765 19.613 19.565 19.598 19.58 19.663 19.683 19.695 19.778 19.825 19.903 20.028 20.11 20.168 20.235 20.323 20.393 20.488 20.678 20.69 20.743 20.845 20.863 20.94 20.96 21.055 21.223 21.023 21.045 21.278 22.01 23.218 23.343 21.523 21.47 21.508 22.09 22.608 21.558 21.323 21.263 21.055 20.948 21.105 21.085 20.95 20.655 20.51 20.415 20.295 20.193 20.068 19.958 19.825 19.735 19.635 19.51 19.638 19.708 19.695 19.51 19.398 20.743 20.135 19.318 21.163 20.238 19.285 19.283 19.325 19.208
12.354 12.706 13.029 13.016 12.676 12.331 12.011 9.264 6.881 6.909 7.031 7.254 9.769 8.304 7.086 7.049 6.904 6.961 6.989 6.879 6.879 6.931 6.946 6.894 6.889 6.816 6.791 6.634 6.476 6.261 6.194 6.514 5.724 5.504 5.349 5.179 4.999 4.799 4.629 4.414 4.256 4.124 3.986 3.801 3.634 3.426 3.291 3.149 2.941 2.731 2.619 2.836 2.731 1.664 1.654 2.136 2.144 2.146 2.119 2.111 2.206 2.081 2.094 2.146 2.144 2.179 2.224 2.246 2.279 2.319 2.299 2.289 2.266 2.241 2.244 2.266 2.254 2.264 2.291 2.379 2.316 2.264 2.271 2.254 2.231 2.236 2.221 2.199 2.199 2.184 2.204 2.194 2.191 2.154 2.134 2.096 2.119 2.141 2.159 2.144 2.116 2.114 2.154 2.109 2.116 2.121 2.141 2.124 2.119 2.136 2.119 2.156 2.149 2.456 2.396 2.544 2.679 1.981 2.364 1.961 2.284 2.159 2.221 2.401 2.486 2.416 2.381 2.531 4.209 4.384 2.409 2.544 2.586 2.576 2.536 2.712 2.642 2.464 2.954 2.522 2.714 2.454 2.542 2.492 2.387 2.352 2.314 2.412 2.307 2.204 8.272 4.859 2.514 2.219 2.304 2.389 2.339 2.279 3.007 3.114 3.519 4.429 4.634 5.464 4.599 4.049 4.154 4.802 5.414 5.709 6.074 8.544 7.329 8.897 11.234 11.684 11.844 11.832 12.819 15.142 16.807 18.644 20.154 21.992 22.812 23.314 24.109 24.779 24.759 24.837 24.782 24.747 24.542 24.319 24.099 23.832 23.552 23.249 22.914 22.594 22.279 21.947 21.589 21.227 20.857 20.482 20.079 19.659 19.227 18.777 18.277 17.759 17.202 16.632 16.089 15.514 14.969 14.374 13.829 13.317 12.847 12.432 12.067 11.709 11.427 11.209 11.027 10.874 10.797 10.737 10.679 10.697 10.762 10.877 11.062 11.209 11.412 11.619 11.899 12.209 12.572 12.992 13.482 13.972 14.507 15.047 15.607 16.182 16.757 17.327 17.902 18.414 18.954 19.434 19.862 20.194 20.532 20.792 20.972 21.147 21.222 21.239 21.237 21.199 21.129 21.009 20.904 20.767 20.677 20.514 20.329 20.192 20.024 19.839 19.644 19.417 19.204 18.989 18.764 18.537 18.272 18.019 17.809 17.604 17.412 17.212 17.052 16.945 17.432 16.557 17.477 17.495 15.807 15.717 15.935 16.205 16.652 17.177 17.737 18.297 19.127 20.517 22.205 23.517 23.69 23.882 24.39 24.805 24.937 24.942 25.415 26.005 26.537 27.035 27.467 27.965 28.445 28.81 29.082 29.617 30.975 31.237 31.19 30.997 30.81 30.822 30.847 30.872 30.832 30.86 30.802 30.757 30.67 30.637 30.742 30.425 30.412 30.985 30.052 29.89 29.725 29.602 29.48 29.27 29.115 29.027 28.815 28.715 28.54 28.337 28.172 28.035 27.87 27.687 27.6 27.377 27.207 27.035 26.805 26.535 26.285 26.07 25.895 25.672 25.66 25.282 25.015 24.792 24.577 24.38 24.205 23.967 23.767 23.555 23.375 23.19 22.972 22.732 22.527 22.345 22.165 21.965 21.777 21.627 21.502 21.355 21.213 21.103 21.02 20.78 20.668 20.66 20.423 20.268 20.18 20.073 20.023 19.92 19.84 19.79 19.685 19.628 19.623 19.545 19.58 19.448 19.465 19.45 19.415 19.495 19.43 19.51 19.513 19.505 19.615 19.683 19.735 19.868 19.9 20.025 20.105 20.133 20.195 20.288 20.563 20.46 20.565 20.695 20.655 20.71 20.768 20.82 21.053 20.898 20.878 21.058 21.518 22.925 24.253 21.46 21.358 21.385 21.458 21.45 21.313 21.165 21.258 21.05 20.808 20.768 20.75 20.61 20.548 20.45 20.365 20.255 20.185 20.103 20.2 21.45 21.31 21.095 20.91 21.29 20.86 20.398 19.593 19.968 20.195 19.475 18.44 18.58 18.548 18.1 17.968 17.863 17.763
12.391 12.736 13.054 12.994 12.676 12.321 11.966 9.851 6.796 6.874 6.761 7.616 9.324 7.739 6.901 7.141 6.764 6.646 7.016 8.559 7.554 6.761 6.716 6.726 6.729 6.646 6.509 6.351 6.179 5.974 5.794 5.629 5.424 5.264 5.101 4.931 4.796 4.604 4.426 4.266 4.076 3.921 3.834 3.579 3.394 3.204 3.041 2.921 2.814 2.671 2.619 2.579 2.009 1.886 2.261 2.216 2.144 2.136 2.119 2.126 2.131 2.116 2.139 2.154 2.159 2.169 2.211 2.244 2.244 2.309 2.259 2.266 2.256 2.259 2.274 2.271 2.259 2.281 2.296 2.326 2.276 2.259 2.261 2.254 2.229 2.234 2.236 2.216 2.194 2.184 2.191 2.194 2.149 2.131 2.136 2.121 2.119 2.111 2.146 2.126 2.114 2.161 2.139 2.099 2.141 2.134 2.116 2.119 2.139 2.131 2.131 2.161 2.321 2.291 2.291 2.556 2.294 2.011 1.466 2.044 2.184 2.174 2.234 2.276 2.294 2.324 2.374 3.679 6.161 6.289 3.399 2.474 3.214 2.506 2.479 2.532 2.589 2.499 2.407 2.479 2.532 2.407 2.489 2.449 3.032 2.534 2.367 2.399 2.232 2.167 2.629 2.484 2.244 2.367 2.247 2.334 2.277 2.202 3.059 3.029 3.109 3.474 4.017 4.194 4.604 4.589 4.959 4.989 6.572 5.604 5.682 6.517 7.312 8.567 11.717 11.767 13.632 12.029 12.299 14.529 16.154 18.237 20.419 21.029 22.192 23.054 23.914 24.312 24.409 24.484 24.432 24.379 24.202 24.002 23.782 23.512 23.224 22.929 22.617 22.324 22.029 21.717 21.354 20.994 20.637 20.229 19.817 19.427 19.024 18.559 18.104 17.597 17.032 16.474 15.934 15.369 14.804 14.252 13.719 13.207 12.722 12.287 11.922 11.604 11.297 11.029 10.877 10.744 10.644 10.587 10.524 10.544 10.602 10.709 10.867 11.054 11.244 11.484 11.724 12.024 12.399 12.837 13.317 13.827 14.349 14.889 15.444 15.992 16.547 17.079 17.617 18.164 18.657 19.099 19.482 19.819 20.094 20.329 20.529 20.704 20.794 20.787 20.754 20.669 20.582 20.452 20.317 20.172 20.039 19.872 19.732 19.572 19.414 19.212 18.977 18.772 18.549 18.344 18.132 17.927 17.669 17.439 17.267 17.064 16.882 16.707 16.57 16.437 17.115 16.1 16.965 16.182 15.432 15.657 15.977 16.365 16.867 17.377 17.92 18.527 19.725 21.562 22.755 24.09 24.007 23.937 24.46 25.397 25.647 25.37 25.632 26.142 26.64 27.13 27.55 28.047 28.507 28.835 29.05 29.552 31.095 31.95 31.212 30.982 30.712 30.732 30.745 30.765 30.725 30.727 30.662 30.625 30.532 30.432 30.39 30.295 30.212 30.895 29.922 29.742 29.577 29.402 29.302 29.112 28.952 28.835 28.647 28.495 28.342 28.157 27.975 27.845 27.707 27.52 27.37 27.212 27.017 26.842 26.63 26.38 26.09 25.88 25.702 25.497 25.352 25.102 24.85 24.617 24.45 24.245 24.042 23.81 23.612 23.39 23.242 23.057 22.84 22.635 22.425 22.245 22.052 21.895 21.707 21.54 21.407 21.255 21.11 20.968 20.89 20.698 20.545 21.103 20.79 20.155 20.06 19.958 19.898 19.88 19.7 19.625 19.54 19.493 19.48 19.385 19.325 19.328 19.263 19.325 19.22 19.225 19.27 19.263 19.363 19.338 19.395 19.465 19.535 19.63 19.718 19.763 19.868 19.95 19.99 20.118 20.303 20.423 20.378 20.453 20.49 20.545 20.61 20.628 20.795 20.733 20.73 20.778 22.223 21.083 23.258 21.578 21.33 21.275 21.278 21.205 21.103 21.043 20.98 20.898 20.808 20.763 20.683 20.613 20.633 20.76 21.285 21.678 21.735 21.345 21.14 22.4 21.058 21.068 20.318 19.61 19.69 19.018 18.723 18.605 18.475 18.378 18.265 18.16 18.068 17.988 17.855 17.758 17.678
12.411 12.744 13.104 12.999 12.646 12.299 11.959 9.839 6.709 6.781 7.369 10.119 8.144 7.201 7.114 6.639 6.576 6.629 6.649 7.679 7.831 6.564 6.509 6.471 6.486 6.384 6.549 6.241 5.896 5.701 5.486 5.324 5.179 5.064 4.876 4.694 4.564 4.434 4.239 4.071 3.916 3.699 3.546 3.364 3.174 3.036 2.884 2.759 2.736 2.921 2.914 1.691 1.899 2.264 2.259 2.216 2.159 2.141 2.151 2.139 2.146 2.124 2.136 2.156 2.164 2.161 2.216 2.246 2.251 2.329 2.261 2.276 2.254 2.251 2.276 2.249 2.266 2.261 2.276 2.261 2.276 2.266 2.261 2.239 2.246 2.236 2.221 2.206 2.186 2.169 2.184 2.189 2.176 2.139 2.111 2.121 2.134 2.129 2.119 2.129 2.176 2.136 2.119 2.114 2.114 2.126 2.111 2.109 2.119 2.159 2.141 2.131 2.134 2.131 2.091 2.101 2.206 2.029 1.646 2.071 2.084 2.031 2.194 2.194 2.311 2.376 2.439 2.456 3.846 2.444 2.469 2.389 2.776 2.569 2.551 2.572 2.599 2.467 2.397 2.762 2.569 2.347 2.452 2.424 2.712 3.024 2.464 3.194 2.352 2.342 2.224 4.169 4.812 2.414 2.279 2.397 2.352 2.717 6.897 5.524 2.982 3.424 3.857 4.642 5.447 4.844 4.284 4.589 4.897 4.987 5.437 6.369 7.182 8.539 10.374 12.024 13.967 12.527 12.194 13.737 15.769 18.097 19.754 20.527 21.504 22.639 23.564 24.164 24.102 24.192 24.112 24.044 23.884 23.782 23.447 23.162 22.889 22.584 22.304 22.024 21.744 21.422 21.099 20.724 20.334 19.957 19.589 19.189 18.787 18.364 17.909 17.407 16.857 16.294 15.772 15.242 14.667 14.112 13.604 13.057 12.599 12.152 11.777 11.447 11.149 10.899 10.722 10.564 10.464 10.409 10.352 10.389 10.457 10.542 10.702 10.884 11.069 11.304 11.544 11.892 12.244 12.737 13.189 13.687 14.189 14.742 15.284 15.802 16.364 16.887 17.377 17.902 18.342 18.729 19.059 19.422 19.714 19.909 20.087 20.232 20.304 20.312 20.222 20.107 20.017 19.864 19.707 19.584 19.414 19.224 19.057 18.907 18.742 18.557 18.307 18.099 17.909 17.707 17.499 17.302 17.082 16.899 16.732 16.542 16.339 16.235 16.125 16.02 15.747 15.492 15.222 15.2 15.412 15.73 16.062 16.552 17.065 17.57 18.127 18.992 20.112 21.752 22.757 23.197 24.155 24.315 24.657 25.892 26.062 25.765 26.717 26.252 26.735 27.255 27.642 28.137 28.572 28.865 29.09 29.522 30.602 31.277 30.9 30.862 30.652 30.64 30.66 30.655 30.625 30.592 30.545 30.457 30.367 30.26 30.472 30.102 30.022 30.882 29.915 29.557 29.402 29.237 29.11 28.97 28.757 28.63 28.445 28.29 28.147 27.94 27.765 27.665 27.52 27.322 27.16 27.002 26.845 26.677 26.457 26.187 25.93 25.705 25.55 25.34 25.137 24.95 24.725 24.467 24.297 24.09 23.93 23.7 23.48 23.277 23.275 22.995 22.735 22.515 22.34 22.137 21.942 21.802 21.59 21.44 21.315 21.143 21.008 20.868 20.73 20.56 20.415 20.563 20.285 20.02 19.928 19.84 19.71 19.65 19.54 19.465 19.383 19.3 19.308 19.17 19.11 19.088 19.053 19.108 19.033 19.083 19.108 19.073 19.125 19.143 19.2 19.258 19.338 19.423 19.52 19.585 19.685 19.76 19.82 19.948 20.038 20.133 20.21 20.253 20.363 20.415 20.468 20.48 20.69 20.613 20.595 20.56 21.575 21.413 22.353 21.983 21.115 21.138 21.178 21.1 21.063 21.023 21.123 21.513 21.313 21.693 21.628 21.938 22.053 22.155 21.028 20.618 20.618 19.928 19.553 19.438 19.263 19.163 19.02 18.918 18.793 18.695 18.605 18.478 18.365 18.288 18.18 18.083 17.965 17.855 17.773 17.673 17.573
12.436 12.776 13.114 12.956 12.619 12.256 11.944 8.519 6.661 6.806 9.901 8.036 6.801 6.771 6.824 6.526 6.546 6.586 6.504 6.506 6.449 6.634 6.391 6.294 6.249 6.174 6.126 5.991 5.551 5.374 5.244 5.109 4.926 4.771 4.611 4.501 4.371 4.204 4.019 3.919 3.756 3.584 3.334 3.124 2.969 2.849 2.704 2.649 2.914 2.384 1.611 1.736 2.241 2.271 2.219 2.226 2.184 2.151 2.161 2.154 2.151 2.141 2.139 2.144 2.164 2.169 2.179 2.279 2.269 2.309 2.294 2.266 2.256 2.266 2.266 2.281 2.259 2.291 2.266 2.264 2.279 2.274 2.249 2.244 2.241 2.231 2.209 2.201 2.206 2.196 2.161 2.164 2.146 2.129 2.126 2.106 2.119 2.121 2.149 2.109 2.124 2.139 2.126 2.126 2.119 2.106 2.124 2.134 2.131 2.159 2.146 2.119 2.141 2.111 2.044 2.026 2.171 2.119 1.906 2.099 2.096 1.899 1.906 2.169 2.231 2.226 2.381 2.459 2.411 2.434 2.419 2.431 2.501 2.434 2.464 2.669 2.527 2.594 2.442 2.554 2.879 2.514 2.489 2.639 2.654 2.522 2.354 2.407 2.372 2.387 2.152 2.897 3.807 2.229 2.204 2.289 2.472 4.372 8.214 8.429 8.354 2.959 3.229 5.032 5.122 3.777 3.782 4.114 4.499 4.817 5.222 6.289 7.024 11.402 10.887 17.124 17.334 14.437 12.097 13.154 15.142 17.172 19.129 19.899 20.899 22.142 23.414 23.734 23.857 23.857 23.744 23.692 23.514 23.307 23.102 22.814 22.522 22.274 21.979 21.699 21.437 21.107 20.777 20.464 20.077 19.702 19.357 18.967 18.574 18.149 17.709 17.217 16.682 16.137 15.609 15.072 14.514 13.974 13.459 12.929 12.459 12.024 11.637 11.299 10.999 10.749 10.564 10.402 10.279 10.239 10.242 10.237 10.277 10.372 10.527 10.704 10.892 11.119 11.399 11.724 12.134 12.622 13.072 13.567 14.087 14.612 15.129 15.667 16.212 16.694 17.144 17.574 17.999 18.359 18.699 19.007 19.267 19.472 19.612 19.737 19.794 19.744 19.672 19.542 19.439 19.274 19.117 18.947 18.772 18.587 18.417 18.254 18.042 17.807 17.627 17.432 17.244 17.069 16.879 16.717 16.542 16.354 16.184 16.002 15.874 15.802 15.747 15.637 15.355 14.892 14.952 15.192 15.49 15.807 16.247 16.747 17.212 17.745 18.967 19.5 20.862 22.182 22.895 23.445 24.94 26.37 26.01 26.7 25.97 26.09 26.727 26.397 26.822 27.322 27.75 28.225 28.64 28.935 29.21 29.587 30.275 30.74 30.875 31.8 30.515 30.537 30.555 30.532 30.515 30.455 30.4 30.295 30.202 30.092 30.102 29.94 29.827 30.135 29.907 29.347 29.255 29.045 28.897 28.747 28.555 28.447 28.252 28.06 27.94 27.775 27.585 27.442 27.302 27.14 26.962 26.82 26.64 26.47 26.275 26.015 25.762 25.552 25.395 25.207 24.985 24.93 24.597 24.367 24.162 23.97 23.815 23.637 23.4 23.197 23.025 22.867 22.615 22.397 22.187 22.017 21.83 21.665 21.487 21.312 21.197 21.033 20.875 20.708 20.648 20.458 20.258 20.308 20.568 19.888 19.743 19.663 19.555 19.523 19.363 19.29 19.208 19.113 19.118 19.015 18.933 18.938 18.88 18.895 18.875 18.86 18.945 18.893 18.943 18.973 19.035 19.148 19.188 19.248 19.378 19.438 19.553 19.6 19.665 19.79 19.895 20.188 20.1 20.163 20.245 20.273 20.348 20.345 20.375 20.435 20.443 20.42 21.06 22.11 21.178 21.545 20.898 21.005 21.99 21.483 21.915 22.435 22.398 21.893 21.503 20.77 20.913 20.473 20.335 19.935 19.833 19.7 19.585 19.488 19.345 19.213 19.14 19.03 18.925 18.833 18.735 18.628 18.5 18.368 18.26 18.168 18.09 17.968 17.865 17.768 17.65 17.538 17.45
9.009 9.714 10.039 10.179 9.786 10.846 10.641 8.251 6.804 6.634 9.749 7.941 6.534 6.484 6.486 6.399 6.484 6.451 6.424 6.431 6.599 6.711 6.209 6.136 6.084 5.934 5.751 5.491 5.289 5.104 4.999 4.859 4.666 4.526 4.366 4.274 4.139 3.976 3.836 3.709 3.559 3.356 3.146 2.969 2.771 2.626 2.504 2.384 2.454 1.651 1.779 2.091 2.151 2.156 2.174 2.209 2.179 2.186 2.151 2.164 2.171 2.174 2.169 2.179 2.184 2.204 2.226 2.229 2.259 2.289 2.289 2.284 2.276 2.256 2.274 2.264 2.271 2.236 2.266 2.264 2.284 2.269 2.219 2.244 2.214 2.251 2.244 2.214 2.174 2.199 2.181 2.151 2.149 2.159 2.139 2.104 2.106 2.119 2.134 2.129 2.141 2.124 2.111 2.124 2.114 2.114 2.124 2.131 2.146 2.141 2.131 2.126 2.119 2.104 2.056 2.061 2.134 2.009 2.096 2.096 2.151 2.164 2.054 1.979 2.176 2.229 2.354 2.341 2.399 2.436 2.351 2.661 2.701 2.494 2.501 2.557 2.549 2.502 2.514 2.752 3.459 2.702 2.549 3.514 4.672 2.454 2.434 3.259 2.377 2.257 2.167 2.187 2.504 2.287 3.152 2.624 2.542 2.624 7.727 3.559 2.862 2.922 3.102 4.464 3.434 3.497 3.662 3.987 4.664 5.199 5.037 5.932 7.864 12.537 15.487 20.777 23.642 24.267 16.467 12.597 14.567 16.787 18.732 19.979 20.992 21.997 23.369 23.607 23.539 23.457 23.369 23.304 23.137 22.929 22.722 22.424 22.162 21.929 21.672 21.392 21.107 20.802 20.509 20.187 19.819 19.467 19.122 18.767 18.367 17.932 17.494 17.009 16.499 15.949 15.414 14.887 14.379 13.837 13.302 12.792 12.309 11.889 11.494 11.157 10.854 10.594 10.392 10.229 10.144 10.039 10.062 10.052 10.109 10.229 10.369 10.534 10.742 10.974 11.262 11.582 11.992 12.444 12.949 13.462 13.954 14.502 15.019 15.574 16.029 16.492 16.942 17.342 17.697 18.022 18.327 18.629 18.812 19.012 19.137 19.224 19.209 19.144 19.054 18.949 18.834 18.682 18.504 18.304 18.079 17.904 17.762 17.574 17.409 17.209 16.984 16.824 16.627 16.494 16.294 16.147 16.017 15.859 15.672 15.544 15.479 15.412 15.212 14.917 14.612 14.7 14.98 15.252 15.577 15.97 16.462 16.912 17.412 18.177 20.535 20.457 21.137 22.212 23.492 24.352 26.035 26.417 25.56 27.29 26.657 25.895 26.152 26.412 26.88 27.425 27.922 28.325 28.757 29.082 29.39 29.785 30.532 30.795 30.675 31.06 30.462 30.425 30.432 30.4 30.377 30.29 30.222 30.12 30.042 29.925 29.935 29.807 29.632 29.75 29.84 29.185 29.03 28.835 28.692 28.552 28.33 28.217 28.107 27.857 27.722 27.547 27.385 27.245 27.127 26.947 26.775 26.6 26.43 26.29 26.11 25.847 25.602 25.375 25.237 25.06 24.835 24.732 24.462 24.242 24.032 23.86 23.712 23.532 23.312 23.12 22.927 22.715 22.505 22.28 22.077 21.875 21.705 21.547 21.35 21.192 21.055 20.878 20.705 20.548 20.433 20.313 20.09 19.998 20.698 19.803 19.575 19.523 19.385 19.41 19.263 19.138 19.043 18.948 18.915 18.975 18.76 18.768 18.693 18.903 18.728 18.7 18.718 18.748 18.775 18.853 18.89 18.963 19.03 19.138 19.245 19.308 19.388 19.448 19.515 19.638 19.748 20.24 19.975 19.975 20.163 20.123 20.175 20.18 20.265 20.48 20.278 20.283 20.513 21.693 21.893 22.055 20.768 20.893 22.053 22 20.958 20.9 20.635 20.393 20.278 20.185 20.075 20 19.893 19.78 19.685 19.59 19.488 19.373 19.25 19.153 19.04 18.948 18.805 18.72 18.59 18.5 18.373 18.225 18.123 18.045 17.95 17.84 17.758 17.683 17.528 17.44 17.353
6.414 7.019 8.804 6.729 8.526 6.659 7.779 7.089 7.746 7.426 7.401 7.109 6.354 6.346 6.319 6.321 6.424 6.361 6.346 6.329 6.309 6.396 6.511 6.906 5.884 5.666 5.469 5.234 5.036 4.889 4.721 4.514 4.376 4.211 4.074 4.029 3.924 3.761 3.651 3.481 3.336 3.124 2.929 2.731 2.626 2.461 2.526 2.319 1.544 1.861 2.244 2.141 2.109 2.101 2.106 2.176 2.191 2.169 2.169 2.199 2.191 2.191 2.189 2.244 2.209 2.201 2.224 2.259 2.251 2.256 2.236 2.266 2.281 2.281 2.284 2.279 2.281 2.271 2.259 2.269 2.276 2.264 2.241 2.234 2.211 2.209 2.199 2.234 2.229 2.199 2.169 2.159 2.136 2.154 2.151 2.136 2.129 2.111 2.119 2.149 2.151 2.139 2.159 2.131 2.116 2.114 2.116 2.144 2.134 2.151 2.141 2.136 2.116 2.081 2.069 2.119 2.344 1.871 2.059 2.081 2.121 2.189 2.191 2.171 2.141 2.131 2.186 2.356 2.326 2.344 2.446 2.466 2.491 2.549 2.449 2.547 2.577 2.572 2.642 3.032 2.864 2.709 2.877 3.659 4.222 3.004 2.767 3.504 4.034 2.394 2.342 2.252 2.187 2.227 2.499 2.674 2.654 5.149 4.937 2.514 2.764 2.959 3.019 3.142 3.369 3.619 3.722 4.044 4.589 4.842 4.984 5.702 6.562 13.857 16.852 18.187 17.787 16.667 14.372 12.332 13.912 16.259 18.387 19.689 20.664 21.752 22.974 23.342 23.247 23.114 23.014 22.932 22.747 22.517 22.304 22.054 21.787 21.554 21.302 21.052 20.787 20.484 20.194 19.874 19.557 19.227 18.909 18.552 18.157 17.734 17.269 16.804 16.332 15.779 15.259 14.724 14.227 13.674 13.147 12.644 12.184 11.752 11.344 11.024 10.742 10.447 10.249 10.074 9.964 9.887 9.934 9.922 9.992 10.097 10.214 10.384 10.592 10.822 11.107 11.479 11.884 12.344 12.847 13.354 13.864 14.397 14.914 15.419 15.872 16.309 16.709 17.069 17.409 17.709 17.954 18.204 18.387 18.547 18.612 18.629 18.619 18.537 18.469 18.329 18.177 18.044 17.857 17.667 17.467 17.289 17.094 16.914 16.764 16.582 16.402 16.202 16.047 15.904 15.749 15.589 15.472 15.339 15.207 15.169 15.067 14.925 14.842 14.442 14.495 14.727 15.027 15.352 15.77 16.19 16.605 17.1 17.655 18.995 21.037 20.875 21.44 22.165 22.755 25.005 25.767 25.412 26.692 26.242 25.7 25.595 26.08 26.56 27.14 27.622 28.07 29.757 28.915 29.202 29.66 29.945 30.612 31.247 31.102 30.53 30.322 30.295 30.257 30.245 30.202 30.13 30.067 29.942 29.837 29.745 29.647 29.632 29.39 29.302 29.63 28.985 28.792 28.63 28.49 28.352 28.13 27.99 27.852 27.655 27.532 27.345 27.177 27.025 26.915 26.745 26.562 26.402 26.227 26.095 25.94 25.667 25.38 25.207 25.077 24.902 24.685 24.572 24.317 24.13 23.9 23.71 23.515 23.37 23.155 22.935 22.762 22.577 22.337 22.12 21.892 21.752 21.555 21.387 21.19 21.037 20.862 20.695 20.54 20.388 20.253 20.145 19.94 19.82 20.295 19.565 19.433 19.37 19.215 19.153 19.08 18.963 18.928 18.795 18.82 18.725 18.588 18.595 18.558 18.583 18.57 18.565 18.638 18.595 18.655 18.713 18.748 18.798 18.89 18.973 19.1 19.178 19.22 19.25 19.343 19.41 19.498 19.725 19.84 19.808 19.983 19.98 20.023 20.058 20.018 20.115 20.085 20.125 20.25 21.353 21.263 22.383 20.668 20.593 20.68 20.483 20.343 20.315 20.258 20.195 20.135 20.06 19.953 19.858 19.793 19.683 19.58 19.488 19.388 19.27 19.153 19.04 18.93 18.825 18.673 18.56 18.448 18.315 18.178 18.1 18.008 17.925 17.818 17.725 17.618 17.563 17.448 17.343 17.263
6.326 6.539 6.884 6.789 6.524 6.529 6.771 7.334 7.831 7.766 6.461 6.444 6.439 6.251 6.221 6.274 6.291 6.251 6.391 6.426 6.041 6.051 6.794 5.961 5.659 5.449 5.269 5.309 5.161 4.689 4.559 4.211 4.081 3.946 3.829 3.736 3.619 3.491 3.371 3.241 3.069 2.916 2.761 2.596 2.549 2.854 2.274 1.501 1.806 2.136 2.069 2.044 2.066 2.071 2.071 2.201 2.219 2.234 2.216 2.226 2.236 2.224 2.229 2.246 2.214 2.216 2.254 2.284 2.229 2.239 2.271 2.271 2.294 2.256 2.271 2.289 2.299 2.249 2.269 2.251 2.264 2.289 2.266 2.256 2.201 2.181 2.171 2.206 2.229 2.196 2.201 2.204 2.204 2.171 2.174 2.134 2.136 2.166 2.096 2.139 2.181 2.176 2.149 2.156 2.141 2.129 2.129 2.139 2.146 2.131 2.106 2.109 2.086 2.079 2.086 2.241 1.814 1.869 2.049 2.056 2.074 2.126 2.216 2.236 2.204 2.074 2.031 2.261 2.379 2.411 2.531 2.601 2.514 2.584 2.594 2.782 2.777 2.632 3.659 3.682 2.869 2.847 2.672 2.669 3.364 2.579 3.604 4.229 5.304 2.677 2.379 2.299 2.347 2.269 2.297 2.317 2.437 2.459 2.287 2.354 3.142 3.329 3.242 3.309 3.682 3.642 3.807 3.897 4.232 4.609 4.752 5.429 8.032 11.754 11.852 15.472 12.532 12.329 17.804 12.222 13.507 15.642 18.037 19.427 20.362 21.474 23.097 23.047 22.877 22.727 22.627 22.509 22.329 22.117 21.927 21.692 21.417 21.189 20.924 20.694 20.464 20.164 19.894 19.592 19.299 18.972 18.649 18.284 17.899 17.474 17.049 16.597 16.129 15.604 15.057 14.552 14.014 13.512 12.994 12.494 12.057 11.619 11.237 10.892 10.599 10.327 10.094 9.907 9.809 9.754 9.757 9.794 9.837 9.937 10.054 10.237 10.457 10.682 10.962 11.357 11.764 12.234 12.724 13.209 13.747 14.239 14.734 15.232 15.679 16.104 16.482 16.789 17.097 17.364 17.574 17.754 17.889 18.037 18.057 18.064 18.002 17.904 17.822 17.702 17.522 17.394 17.242 17.044 16.847 16.659 16.487 16.287 16.122 15.949 15.802 15.659 15.499 15.369 15.262 15.147 15.002 14.894 14.844 14.679 14.704 14.52 14.182 14.28 14.527 14.83 15.15 15.535 15.94 16.325 16.82 17.345 17.85 19.105 21.205 22.102 21.637 22.7 24.25 24.927 24.57 25.91 26.607 27.18 25.822 26.667 26.31 26.842 27.502 28.14 28.475 29.715 29.497 29.43 29.805 30.127 30.5 30.817 30.935 30.352 30.175 30.127 30.105 30.065 30.04 29.952 29.887 29.762 29.64 29.515 29.447 29.38 29.202 29.132 29.592 28.787 28.58 28.427 28.247 28.1 27.93 27.767 27.642 27.445 27.325 27.127 26.965 26.83 26.725 26.582 26.36 26.26 26.072 25.927 25.755 25.477 25.212 25.03 24.91 24.722 24.5 24.41 24.19 23.952 23.71 23.497 23.342 23.19 22.955 22.772 22.54 22.42 22.17 21.957 21.757 21.577 21.432 21.212 21.072 20.842 20.725 20.553 20.38 20.248 20.073 19.948 19.775 19.673 20.248 19.528 19.27 19.22 19.083 18.993 18.945 18.828 18.79 18.665 18.615 18.57 18.463 18.505 18.48 18.443 18.388 18.395 18.45 18.465 18.505 18.535 18.58 18.64 18.703 18.788 18.943 18.963 19.025 19.113 19.163 19.213 19.3 19.56 19.868 19.628 19.808 19.83 19.88 19.928 19.898 20.24 20.04 19.95 20.01 21.208 20.73 21.675 20.708 20.435 20.478 20.443 20.27 20.198 20.135 20.083 20 19.938 19.85 19.758 19.665 19.593 19.46 19.358 19.273 19.17 19.02 18.9 18.768 18.605 18.485 18.383 18.273 18.183 18.065 17.993 17.908 17.818 17.738 17.638 17.54 17.443 17.343 17.243 17.15
6.704 7.034 6.684 6.839 6.834 6.556 6.429 6.476 6.696 6.891 6.311 6.291 6.251 6.294 6.196 6.239 6.189 6.099 6.031 6.004 5.754 6.061 5.964 5.564 5.424 5.251 5.086 4.911 4.931 4.516 4.231 3.981 3.821 3.706 3.541 3.441 3.369 3.251 3.111 2.994 2.849 2.731 2.591 2.551 3.269 2.421 1.446 1.579 1.956 1.954 1.976 2.024 2.071 2.114 2.219 2.301 2.251 2.249 2.211 2.229 2.244 2.254 2.256 2.271 2.249 2.254 2.306 2.306 2.279 2.279 2.276 2.269 2.279 2.264 2.239 2.231 2.269 2.279 2.286 2.261 2.291 2.304 2.266 2.264 2.236 2.194 2.161 2.151 2.186 2.201 2.214 2.226 2.199 2.194 2.206 2.184 2.176 2.196 2.171 2.186 2.201 2.141 2.179 2.171 2.139 2.136 2.134 2.141 2.134 2.094 2.114 2.109 2.066 2.051 2.051 2.079 1.559 1.969 2.031 2.051 2.041 2.134 2.104 2.124 2.161 2.201 2.131 2.169 2.716 3.036 3.146 2.661 2.961 2.849 2.771 2.984 2.709 2.594 3.204 2.879 2.754 2.837 2.947 3.012 2.862 2.677 5.264 6.362 3.632 2.289 2.297 2.349 2.379 2.297 2.242 2.377 2.437 2.459 2.487 2.197 2.939 3.624 3.612 3.549 4.587 4.589 4.172 3.992 4.234 4.824 4.632 5.347 10.467 6.999 14.244 10.654 11.929 12.122 12.222 12.222 12.947 15.192 17.472 18.949 20.219 21.657 22.384 22.724 22.434 22.287 22.237 22.089 21.889 21.722 21.537 21.314 21.067 20.847 20.564 20.337 20.117 19.869 19.607 19.332 19.032 18.697 18.357 18.017 17.654 17.259 16.837 16.382 15.919 15.392 14.862 14.362 13.842 13.329 12.844 12.377 11.934 11.479 11.097 10.782 10.434 10.162 9.942 9.787 9.677 9.544 9.594 9.619 9.684 9.779 9.899 10.104 10.312 10.544 10.869 11.229 11.652 12.084 12.584 13.102 13.627 14.107 14.614 15.049 15.514 15.862 16.194 16.537 16.774 16.984 17.149 17.299 17.424 17.504 17.504 17.472 17.409 17.302 17.202 17.084 16.909 16.742 16.579 16.417 16.234 16.024 15.844 15.659 15.502 15.347 15.219 15.087 14.979 14.857 14.744 14.647 14.562 14.512 14.399 14.247 13.964 13.872 14.05 14.317 14.622 14.965 15.325 15.71 16.122 16.58 17.082 17.522 18.04 19.372 21.065 22.587 22.922 22.532 23.445 24.307 24.445 24.45 25.745 26.805 27.16 26.172 26.597 28.46 28.92 29.12 29.182 29.912 30.147 30.317 32.085 32.65 30.63 30.242 30.272 30.16 30.025 29.962 29.922 29.902 29.87 29.77 29.692 29.587 29.427 29.33 29.242 29.155 29.015 28.935 29.942 28.62 28.4 28.215 28.06 27.922 27.745 27.58 27.44 27.27 27.115 26.94 26.757 26.647 26.53 26.367 26.162 26.012 25.9 25.732 25.57 25.282 25.047 24.882 24.735 24.527 24.33 24.167 24.022 23.752 23.505 23.31 23.152 23 22.775 22.575 22.372 22.217 22.017 21.782 21.582 21.41 21.25 21.065 20.897 20.675 20.567 20.41 20.23 20.098 19.93 19.803 19.673 19.523 19.533 19.428 19.168 19.06 18.96 18.853 18.835 18.7 18.768 18.555 18.448 18.418 18.343 18.323 18.345 18.248 18.265 18.235 18.255 18.275 18.305 18.363 18.388 18.458 18.545 18.59 18.655 18.763 18.853 18.968 19.015 19.063 19.205 19.37 19.773 19.498 19.605 19.655 19.708 19.763 19.765 19.813 19.83 19.788 19.815 20.9 20.798 20.908 20.678 20.325 20.305 20.375 20.193 20.103 20.048 20.005 19.888 19.81 19.71 19.633 19.548 19.438 19.32 19.243 19.09 18.953 18.803 18.715 18.583 18.488 18.383 18.263 18.173 18.085 17.96 17.895 17.825 17.725 17.635 17.53 17.445 17.338 17.23 17.098 16.993
6.569 6.696 6.464 6.899 7.109 6.724 6.789 6.561 6.231 6.286 6.384 6.381 6.349 6.451 6.254 6.094 6.074 5.911 5.981 5.694 5.694 6.381 5.636 5.389 5.156 4.999 4.841 4.606 4.496 4.296 3.959 3.749 3.556 3.461 3.294 3.151 3.104 3.014 2.851 2.766 2.719 2.616 2.639 3.749 3.379 1.781 1.671 1.906 1.901 1.881 1.929 2.041 2.146 2.184 2.231 2.294 2.251 2.206 2.206 2.229 2.234 2.271 2.251 2.279 2.281 2.241 2.234 2.256 2.274 2.269 2.249 2.266 2.279 2.286 2.261 2.251 2.269 2.276 2.269 2.259 2.291 2.284 2.274 2.266 2.239 2.231 2.209 2.199 2.184 2.146 2.176 2.211 2.224 2.244 2.214 2.194 2.176 2.161 2.134 2.179 2.179 2.161 2.149 2.144 2.156 2.154 2.139 2.126 2.136 2.106 2.109 2.096 2.041 2.046 2.056 1.956 1.549 1.994 2.051 2.064 2.094 2.109 2.151 2.119 2.114 2.111 2.186 2.436 3.024 2.466 3.361 3.139 3.526 3.534 2.941 2.649 2.887 2.679 2.832 2.812 2.767 2.724 2.907 2.914 2.627 2.857 2.872 2.767 2.619 2.554 2.267 2.287 2.362 2.289 2.349 2.392 2.459 2.684 2.524 2.269 2.669 3.699 3.487 4.012 4.164 4.169 3.802 4.139 4.227 4.759 4.704 5.094 6.979 12.917 8.457 10.117 11.862 12.147 12.182 12.239 12.622 14.764 16.814 19.034 19.987 20.897 22.007 23.077 21.982 21.867 21.794 21.687 21.482 21.294 21.124 20.939 20.742 20.494 20.202 19.972 19.762 19.537 19.322 19.042 18.729 18.419 18.097 17.749 17.394 16.992 16.597 16.157 15.677 15.174 14.677 14.147 13.659 13.179 12.682 12.217 11.792 11.364 10.977 10.627 10.324 10.059 9.792 9.619 9.494 9.422 9.447 9.469 9.547 9.659 9.764 9.937 10.149 10.384 10.714 11.057 11.494 11.972 12.477 12.977 13.462 13.947 14.384 14.847 15.249 15.604 15.942 16.219 16.422 16.574 16.702 16.824 16.894 16.942 16.897 16.879 16.784 16.659 16.534 16.407 16.277 16.119 15.964 15.789 15.607 15.439 15.239 15.064 14.907 14.774 14.692 14.552 14.414 14.299 14.224 14.227 14.174 13.999 14.344 14.084 13.672 13.847 14.11 14.432 14.755 15.137 15.547 15.97 16.392 16.825 17.262 17.74 18.317 20.002 21.385 22.522 22.78 22.547 23.697 25.152 24.102 24.392 25.112 25.957 25.877 26.827 27.787 29.077 31.652 30.697 30.582 29.767 30.05 30.207 30.485 30.887 30.26 30.102 30.495 32.545 29.94 29.825 29.78 29.75 29.72 29.615 29.502 29.405 29.255 29.227 29.06 28.967 28.827 28.697 29.312 28.777 28.225 28.035 27.852 27.725 27.552 27.365 27.285 27.117 26.912 26.765 26.595 26.467 26.33 26.18 25.987 25.832 25.74 25.57 25.395 25.12 24.882 24.732 24.57 24.355 24.162 23.942 23.835 23.585 23.33 23.132 22.99 22.817 22.585 22.407 22.212 22.067 21.877 21.622 21.4 21.25 21.107 20.917 20.732 20.535 20.4 20.318 20.095 19.935 19.813 19.643 19.518 19.368 19.318 19.21 18.995 18.928 18.84 18.73 18.74 18.613 18.463 18.445 18.285 18.273 18.248 18.183 18.265 18.083 18.155 18.075 18.07 18.083 18.125 18.178 18.243 18.273 18.368 18.425 18.57 18.685 18.715 18.863 18.888 18.92 19.065 19.17 19.3 19.358 19.43 19.508 19.573 19.613 19.623 19.663 19.675 19.643 19.673 20.2 20.478 21.33 20.593 20.353 20.143 20.208 20.095 20 19.935 19.858 19.778 19.68 19.583 19.473 19.37 19.238 19.133 19.048 18.903 18.77 18.663 18.578 18.465 18.355 18.243 18.153 18.06 17.965 17.893 17.79 17.7 17.618 17.488 17.395 17.28 17.178 17.088 16.998 16.895
6.689 6.714 6.466 6.684 6.574 7.011 6.749 6.784 6.216 6.211 6.189 6.201 6.291 6.471 6.744 6.279 5.801 5.754 5.754 5.591 5.514 5.409 5.264 5.116 4.976 4.759 4.606 4.541 4.334 4.421 3.774 3.494 3.349 3.194 3.036 2.926 2.854 2.759 2.676 2.601 2.579 2.471 2.724 3.019 2.429 1.899 1.989 1.894 1.889 1.869 1.836 1.979 2.131 2.189 2.224 2.301 2.214 2.194 2.191 2.219 2.226 2.264 2.261 2.286 2.244 2.259 2.286 2.274 2.264 2.254 2.239 2.289 2.271 2.271 2.279 2.261 2.274 2.244 2.259 2.256 2.281 2.271 2.289 2.274 2.271 2.244 2.251 2.236 2.256 2.201 2.139 2.141 2.186 2.214 2.229 2.211 2.206 2.106 2.161 2.174 2.179 2.161 2.161 2.136 2.156 2.126 2.109 2.114 2.129 2.121 2.131 2.069 2.026 2.046 2.059 1.889 1.651 1.974 2.021 2.049 2.104 2.136 2.126 2.106 2.124 2.131 2.084 2.809 3.531 2.311 2.394 2.696 2.576 2.814 3.101 2.772 2.837 3.087 2.734 2.679 2.752 2.607 2.762 2.764 2.754 2.754 2.662 2.734 2.827 2.647 2.629 2.307 2.324 2.314 2.329 2.269 2.547 2.764 2.677 2.802 2.472 4.189 3.879 4.584 3.972 3.777 3.944 4.042 4.242 4.454 4.807 4.907 6.379 7.699 7.889 9.852 11.249 12.109 12.262 12.334 12.377 14.227 16.972 18.987 19.429 20.799 21.737 21.624 21.472 21.409 21.364 21.239 21.027 20.889 20.744 20.572 20.362 20.117 19.884 19.649 19.447 19.249 18.992 18.739 18.447 18.127 17.817 17.504 17.144 16.787 16.344 15.902 15.444 14.992 14.479 13.962 13.469 12.989 12.524 12.089 11.619 11.204 10.844 10.504 10.177 9.894 9.672 9.479 9.354 9.289 9.299 9.319 9.407 9.502 9.612 9.779 9.982 10.227 10.552 10.934 11.342 11.832 12.344 12.814 13.272 13.757 14.179 14.652 15.024 15.364 15.647 15.869 16.007 16.119 16.219 16.324 16.337 16.367 16.299 16.219 16.137 16.009 15.894 15.744 15.599 15.497 15.349 15.159 14.994 14.814 14.629 14.487 14.349 14.259 14.152 14.019 13.902 13.837 13.847 13.847 14.217 13.754 13.412 13.514 13.699 13.927 14.207 14.59 14.922 15.365 15.8 16.227 16.642 17.015 17.515 18.11 18.82 20.662 21.427 22.482 22.477 22.607 23.855 24.79 24.222 24.65 25.567 26.32 27.517 30.305 30.375 28.807 30.015 29.502 29.27 29.357 29.632 29.457 29.46 29.655 29.712 30.035 30.517 30.032 29.755 29.68 29.622 29.585 29.53 29.46 29.355 29.267 29.107 28.96 28.9 28.807 28.725 28.51 28.817 28.937 28.04 27.842 27.672 27.512 27.375 27.167 27.032 26.902 26.742 26.562 26.417 26.297 26.137 25.992 25.86 25.657 25.54 25.372 25.205 24.967 24.695 24.53 24.407 24.182 23.965 23.75 23.647 23.417 23.185 22.972 22.795 22.622 22.442 22.275 22.067 21.877 21.702 21.475 21.27 21.117 20.987 20.795 20.652 20.467 20.292 20.11 19.958 19.8 19.648 19.508 19.38 19.233 19.115 19.04 18.823 18.773 18.7 18.565 18.488 18.428 18.298 18.275 18.165 18.165 18.093 18.05 18.043 17.938 17.968 17.938 17.92 18.028 17.985 18.04 18.095 18.153 18.24 18.31 18.36 18.49 18.565 18.705 18.775 18.813 18.928 19.003 19.5 19.298 19.218 19.318 19.378 19.518 19.458 19.49 19.708 19.505 19.5 19.75 20.538 20.545 21.423 21.225 20.038 20.05 19.995 19.853 19.79 19.705 19.59 19.478 19.363 19.268 19.15 19.038 18.945 18.84 18.725 18.618 18.54 18.423 18.303 18.223 18.123 18.015 17.933 17.838 17.743 17.65 17.533 17.438 17.373 17.283 17.198 17.115 17.033 16.955 16.853
7.959 7.194 6.336 6.334 6.629 6.484 6.309 6.701 6.579 6.616 6.526 6.219 6.086 6.136 6.654 6.231 5.811 5.736 5.589 5.436 5.364 5.296 5.144 4.871 4.674 4.486 4.339 4.541 4.479 3.894 3.456 3.291 3.104 2.954 2.786 2.701 2.676 2.606 2.499 2.521 2.461 2.796 2.434 1.791 1.764 2.081 1.971 1.921 1.936 1.919 2.004 1.979 2.009 2.094 2.136 2.226 2.204 2.216 2.236 2.234 2.229 2.269 2.264 2.279 2.214 2.226 2.244 2.251 2.251 2.246 2.261 2.244 2.271 2.266 2.264 2.276 2.256 2.244 2.244 2.259 2.269 2.274 2.271 2.251 2.261 2.264 2.254 2.236 2.229 2.191 2.186 2.196 2.136 2.161 2.204 2.249 2.184 2.129 2.186 2.176 2.156 2.166 2.154 2.149 2.146 2.131 2.116 2.091 2.086 2.089 2.081 2.056 2.019 1.991 2.139 1.686 1.974 2.041 1.981 2.016 2.061 2.106 2.101 2.111 2.111 2.129 2.211 2.721 2.859 2.526 2.574 2.949 2.421 2.584 3.006 3.344 2.872 2.904 2.854 2.792 2.592 2.669 2.707 2.784 2.789 2.837 2.897 2.927 2.637 2.777 2.632 2.519 3.087 3.282 2.437 3.329 2.597 2.594 2.534 2.987 2.437 2.497 3.037 5.294 3.377 3.544 3.762 4.002 4.197 4.309 5.134 4.879 5.474 6.109 7.449 9.462 14.122 13.484 12.299 12.364 12.334 13.489 15.799 17.757 19.227 21.209 21.332 21.187 21.017 20.959 20.927 20.804 20.599 20.482 20.322 20.134 19.937 19.737 19.519 19.312 19.089 18.852 18.604 18.367 18.092 17.829 17.537 17.207 16.879 16.517 16.122 15.699 15.239 14.752 14.249 13.752 13.279 12.827 12.367 11.937 11.492 11.077 10.697 10.337 10.042 9.754 9.504 9.299 9.189 9.074 9.119 9.162 9.274 9.359 9.477 9.654 9.837 10.077 10.399 10.782 11.179 11.644 12.147 12.624 13.077 13.502 13.909 14.357 14.772 15.042 15.292 15.462 15.569 15.672 15.742 15.779 15.774 15.767 15.714 15.639 15.524 15.372 15.214 15.107 14.957 14.849 14.754 14.564 14.387 14.224 14.074 13.982 13.862 13.739 13.614 13.557 13.537 13.512 13.407 13.979 13.539 13.267 13.437 13.584 13.804 14.057 14.34 14.77 15.187 15.602 16.055 16.457 16.845 17.332 17.91 18.505 19.622 20.885 21.68 22.66 22.667 23.672 24.282 24.915 24.965 25.455 25.687 28.627 30.06 30.965 28.922 29.297 29.567 29.072 29.092 29.097 29.297 29.44 29.945 29.607 29.617 31.73 31.095 29.91 29.58 29.505 29.495 29.45 29.365 29.287 29.18 29.12 28.975 28.85 28.73 28.697 28.505 28.322 28.262 29.072 27.847 27.657 27.49 27.322 27.162 27.007 26.862 26.72 26.562 26.407 26.182 26.15 25.982 25.792 25.67 25.482 25.34 25.2 25.007 24.8 24.54 24.395 24.222 24.007 23.802 23.582 23.46 23.27 23.015 22.82 22.617 22.445 22.287 22.11 21.92 21.74 21.572 21.357 21.165 20.962 20.83 20.66 20.485 20.285 20.157 19.995 19.81 19.675 19.515 19.365 19.323 19.078 18.933 18.758 18.61 18.593 18.515 18.413 18.365 18.408 18.183 18.15 18.048 18.01 18.12 17.928 17.948 17.825 17.82 17.818 17.815 17.893 17.875 17.923 18.043 18.015 18.083 18.163 18.205 18.315 18.408 18.53 18.605 18.663 18.745 18.85 19.155 19.133 19.045 19.215 19.185 19.26 19.303 19.335 19.43 19.378 19.333 19.443 20.828 20.385 21.328 20.178 19.93 19.853 19.86 19.678 19.583 19.483 19.395 19.293 19.203 19.068 18.983 18.878 18.758 18.658 18.558 18.453 18.355 18.258 18.153 18.055 17.975 17.875 17.773 17.693 17.625 17.515 17.46 17.398 17.303 17.238 17.12 17.055 16.955 16.855 16.733
8.376 6.906 6.266 6.299 6.529 6.584 6.384 6.371 6.256 6.314 6.709 6.319 5.991 6.019 5.791 5.669 5.589 5.479 5.421 5.309 5.289 5.186 5.226 4.826 4.476 4.241 4.019 3.866 3.831 3.441 3.224 3.074 2.924 2.744 2.591 2.524 2.524 2.474 2.424 2.434 2.409 2.169 1.719 1.811 2.191 2.074 2.056 2.031 2.046 2.054 2.059 2.071 2.109 2.119 2.131 2.186 2.144 2.229 2.246 2.234 2.251 2.279 2.296 2.256 2.196 2.196 2.256 2.254 2.251 2.234 2.249 2.274 2.269 2.261 2.246 2.271 2.251 2.261 2.266 2.276 2.251 2.256 2.254 2.241 2.241 2.256 2.239 2.219 2.231 2.191 2.219 2.246 2.271 2.229 2.174 2.141 2.114 2.171 2.186 2.156 2.151 2.141 2.139 2.134 2.141 2.121 2.106 2.109 2.081 2.096 2.061 2.039 2.039 2.029 2.044 1.569 1.959 1.986 1.991 2.031 2.079 2.079 2.106 2.131 2.154 2.096 2.234 2.761 2.616 2.826 2.784 2.866 2.814 2.911 2.921 2.577 2.617 2.759 2.972 2.744 2.729 2.774 2.829 2.684 2.692 2.869 2.629 2.719 2.779 2.782 2.622 2.762 2.717 2.839 2.432 2.492 2.477 2.599 2.532 2.687 2.524 1.937 2.812 3.212 3.309 3.469 3.959 3.914 4.237 4.292 4.502 4.774 5.304 5.904 6.982 8.684 11.314 11.984 12.347 12.382 12.422 12.989 15.212 17.389 18.927 20.442 21.642 21.217 20.534 20.479 20.447 20.364 20.187 20.009 19.884 19.737 19.554 19.377 19.172 18.959 18.724 18.462 18.262 18.047 17.829 17.544 17.259 16.932 16.619 16.274 15.889 15.444 14.997 14.539 14.062 13.552 13.104 12.657 12.227 11.777 11.312 10.904 10.537 10.194 9.894 9.607 9.352 9.157 9.024 8.952 9.004 9.054 9.112 9.239 9.357 9.497 9.662 9.919 10.264 10.637 11.039 11.444 11.939 12.424 12.812 13.254 13.684 14.077 14.399 14.674 14.874 15.049 15.082 15.152 15.194 15.214 15.202 15.174 15.109 14.994 14.909 14.769 14.584 14.459 14.332 14.247 14.132 13.994 13.814 13.692 13.577 13.464 13.377 13.279 13.229 13.234 13.222 13.212 13.172 13.204 13.122 13.294 13.457 13.637 13.877 14.18 14.577 15.042 15.44 15.837 16.262 16.702 17.245 17.805 18.742 19.777 20.647 20.905 22.672 23.717 23.647 24.242 24.995 26.14 24.887 25.345 27.257 27.795 28.66 28.487 29.042 29.08 29.977 29.087 29.575 29.475 29.142 29.362 30.342 29.412 29.46 30.16 31.23 29.727 29.497 29.382 29.34 29.29 29.207 29.145 29.042 28.967 28.825 28.67 28.582 28.427 28.345 28.14 28.027 29.117 27.692 27.467 27.295 27.155 26.982 26.815 26.657 26.712 26.367 26.16 26 25.947 25.805 25.607 25.465 25.302 25.155 25.03 24.832 24.642 24.36 24.192 24.057 23.852 23.632 23.407 23.272 23.087 22.855 22.66 22.462 22.307 22.135 21.92 21.75 21.605 21.45 21.22 20.99 20.815 20.672 20.49 20.307 20.13 19.947 19.778 19.64 19.46 19.345 19.213 19.103 18.938 18.788 18.708 18.535 18.463 18.405 18.275 18.205 18.178 18.048 18.038 17.948 17.873 17.85 17.788 17.765 17.71 17.705 17.795 17.68 17.71 17.743 17.793 17.885 17.878 17.938 18.015 18.07 18.123 18.263 18.395 18.453 18.495 18.575 18.665 18.793 19.06 18.895 19.008 19.068 19.128 19.168 19.185 19.293 19.288 19.208 19.263 20.46 19.408 19.865 20.585 19.758 19.568 19.64 19.48 19.365 19.31 19.208 19.13 19.018 18.91 18.785 18.688 18.568 18.498 18.4 18.293 18.193 18.105 17.995 17.908 17.808 17.735 17.678 17.618 17.555 17.45 17.385 17.328 17.218 17.115 16.995 16.92 16.825 16.743 16.66
8.284 6.544 6.169 6.464 6.501 6.869 6.524 6.516 6.084 5.989 6.089 5.996 5.994 5.969 5.699 5.551 5.481 5.381 5.286 5.236 5.166 5.024 5.119 4.839 4.294 3.999 3.744 3.494 3.284 3.126 3.021 2.891 2.756 2.594 2.506 2.431 2.384 2.351 2.361 2.416 2.511 1.869 1.801 2.139 2.184 2.081 2.091 2.104 2.124 2.114 2.116 2.101 2.131 2.119 2.111 2.184 2.201 2.209 2.181 2.169 2.221 2.276 2.299 2.241 2.231 2.216 2.254 2.264 2.231 2.246 2.266 2.281 2.264 2.261 2.259 2.264 2.281 2.251 2.284 2.269 2.236 2.236 2.234 2.216 2.226 2.226 2.211 2.209 2.214 2.186 2.196 2.189 2.251 2.294 2.279 2.194 2.121 2.159 2.151 2.109 2.151 2.139 2.126 2.124 2.159 2.134 2.121 2.086 2.066 2.079 2.049 2.026 2.056 2.101 1.876 1.684 1.944 1.949 1.961 2.034 2.059 2.129 2.141 2.089 2.206 2.169 2.349 2.434 2.669 2.541 2.576 2.911 2.849 2.581 2.439 2.319 2.537 2.632 2.719 2.752 2.717 2.774 2.759 2.822 2.707 3.599 3.454 2.574 2.754 2.827 2.559 2.477 2.589 2.437 2.809 2.709 2.334 2.639 2.947 4.574 2.512 2.212 2.189 2.919 3.397 4.442 11.459 3.874 4.162 4.379 4.487 4.659 5.097 5.717 6.879 8.292 9.939 11.254 12.312 12.474 12.502 12.764 14.399 16.689 18.597 20.172 21.222 20.099 20.089 19.979 19.999 19.897 19.732 19.607 19.477 19.342 19.179 19.014 18.799 18.589 18.382 18.192 17.942 17.734 17.527 17.234 16.992 16.669 16.357 16.017 15.632 15.217 14.782 14.324 13.857 13.372 12.912 12.469 12.022 11.579 11.154 10.732 10.364 10.044 9.729 9.457 9.209 9.037 8.929 8.824 8.884 8.902 8.957 9.077 9.199 9.314 9.489 9.782 10.144 10.484 10.864 11.314 11.787 12.169 12.582 12.997 13.402 13.752 14.052 14.289 14.479 14.609 14.622 14.649 14.662 14.647 14.624 14.542 14.499 14.404 14.262 14.182 14.037 13.882 13.757 13.657 13.534 13.399 13.309 13.174 13.064 12.949 12.899 12.884 12.914 12.914 12.917 13.107 12.794 12.924 13.067 13.244 13.472 13.677 13.984 14.382 14.817 15.267 15.65 16.022 16.462 17.047 17.63 18.625 20 20.502 21.025 21.65 23.265 24.557 24.577 25.355 26.535 26.56 26.115 28.46 27.552 28.42 28.347 28.82 29.567 28.577 28.522 28.597 29.067 29.152 29.012 29.107 31.825 29.86 29.922 29.587 34.125 30.312 29.375 29.22 29.142 29.122 29.055 28.98 28.897 28.795 28.645 28.495 28.37 28.252 28.165 27.977 27.835 28.775 27.535 27.272 27.097 26.94 26.765 26.642 26.487 26.367 26.155 25.977 25.827 25.727 25.58 25.405 25.25 25.127 24.972 24.867 24.677 24.46 24.197 24.005 23.875 23.685 23.485 23.265 23.095 23.057 22.72 22.51 22.325 22.132 21.952 21.747 21.587 21.425 21.292 21.065 20.825 20.657 20.49 20.307 20.082 19.922 19.777 19.668 19.605 19.4 19.253 19.125 19.038 18.9 18.713 18.668 18.615 18.358 18.31 18.2 18.1 18.025 17.9 17.873 17.845 17.75 17.71 17.643 17.635 17.593 17.543 17.578 17.535 17.565 17.635 17.663 17.713 17.74 17.808 17.843 17.908 18 18.133 18.233 18.303 18.37 18.428 18.53 18.728 18.883 18.755 18.863 18.933 18.988 19.118 19.088 19.16 19.143 19.07 19.06 20.193 20.44 20.143 20.783 19.483 19.278 19.325 19.285 19.175 19.123 19.045 18.94 18.855 18.73 18.628 18.523 18.405 18.32 18.22 18.123 18.033 17.94 17.87 17.805 17.743 17.66 17.558 17.493 17.428 17.338 17.26 17.175 17.1 17.013 16.933 16.833 16.74 16.665 16.603
7.956 6.286 6.364 6.719 6.394 6.544 6.669 6.286 5.944 6.604 7.636 7.044 6.289 5.956 5.731 5.534 5.391 5.271 5.174 5.134 5.024 4.829 4.601 4.336 4.071 3.774 3.476 3.259 3.096 2.926 2.821 2.704 2.611 2.501 2.406 2.331 2.334 2.326 2.311 2.861 2.524 1.596 2.024 2.186 2.116 2.139 2.131 2.174 2.179 2.144 2.154 2.149 2.179 2.186 2.196 2.229 2.299 2.299 2.271 2.221 2.216 2.224 2.216 2.234 2.291 2.226 2.211 2.239 2.246 2.244 2.269 2.271 2.264 2.259 2.246 2.251 2.256 2.254 2.229 2.241 2.244 2.261 2.236 2.201 2.224 2.214 2.209 2.211 2.201 2.194 2.191 2.186 2.206 2.269 2.271 2.221 2.161 2.164 2.146 2.126 2.136 2.131 2.126 2.109 2.119 2.089 2.106 2.079 2.061 2.056 2.036 2.031 2.049 2.206 1.601 1.851 1.916 2.039 2.071 2.109 2.091 2.114 2.196 2.099 2.324 2.384 2.251 2.536 2.321 2.531 2.721 2.826 2.824 2.561 2.481 2.387 2.364 2.519 2.797 2.967 2.852 3.114 2.844 2.787 2.804 2.954 3.009 3.472 3.652 2.654 3.769 3.864 2.642 2.489 2.557 2.412 2.464 2.649 2.702 4.269 2.562 2.554 3.674 2.582 4.552 4.952 11.039 7.274 4.049 4.317 4.437 4.559 4.962 5.684 6.972 8.049 9.582 10.999 12.189 12.552 12.582 12.604 13.824 16.797 18.599 19.299 20.322 23.997 20.409 19.519 19.562 19.462 19.324 19.209 19.059 18.942 18.779 18.612 18.434 18.207 18.037 17.849 17.627 17.434 17.204 16.974 16.704 16.424 16.124 15.774 15.369 14.972 14.542 14.114 13.659 13.182 12.704 12.254 11.829 11.404 10.964 10.557 10.202 9.879 9.567 9.292 9.079 8.919 8.794 8.709 8.742 8.752 8.822 8.919 9.019 9.104 9.327 9.597 9.979 10.344 10.752 11.149 11.529 11.939 12.349 12.722 13.064 13.402 13.657 13.879 14.039 14.107 14.147 14.119 14.129 14.122 14.089 14.017 13.902 13.767 13.724 13.547 13.494 13.344 13.192 13.082 12.947 12.892 12.774 12.649 12.584 12.502 12.539 12.622 12.997 12.867 12.507 12.579 12.732 12.882 13.064 13.264 13.517 13.797 14.192 14.615 15.075 15.467 15.862 16.302 16.84 17.475 18.055 19.835 21.232 21.47 22.052 22.96 23.602 24.275 25.73 25.07 25.557 25.45 26.777 28.22 27.927 29.05 29.055 28.647 29.135 28.542 29.39 28.78 28.847 28.807 28.957 29.11 29.135 29.927 32.31 30.122 31.762 29.44 29.187 29.047 29.057 28.98 28.9 28.86 28.73 28.617 28.457 28.335 28.22 28.057 27.982 27.777 27.637 28.12 27.575 27.082 26.907 26.792 26.562 26.44 26.317 26.147 25.967 25.782 25.675 25.542 25.39 25.23 25.092 24.932 24.807 24.695 24.492 24.29 24.027 23.837 23.732 23.522 23.325 23.095 22.92 22.812 22.59 22.362 22.17 21.952 21.777 21.57 21.44 21.26 21.097 20.877 20.655 20.477 20.305 20.172 20.022 19.877 19.657 19.59 19.5 19.293 19.15 19.023 18.87 18.773 18.608 18.543 18.53 18.268 18.175 18.085 17.978 18.023 17.813 17.748 17.715 17.628 17.583 17.53 17.5 17.6 17.443 17.48 17.455 17.458 17.52 17.533 17.668 17.65 17.675 17.728 17.783 17.868 17.978 18.108 18.175 18.26 18.34 18.428 18.538 19.053 18.758 18.755 18.828 18.86 18.913 18.955 18.945 18.943 18.913 18.873 19.468 19.915 19.548 20.928 19.36 19.053 18.968 19.06 19 18.943 18.88 18.768 18.675 18.588 18.445 18.318 18.248 18.135 18.053 17.97 17.89 17.82 17.735 17.668 17.558 17.503 17.398 17.333 17.285 17.195 17.14 17.08 17.018 16.945 16.873 16.788 16.723 16.643 16.55
6.869 6.274 7.006 6.789 6.201 6.174 6.486 6.836 6.104 7.474 8.621 8.656 8.289 7.749 6.921 5.401 5.231 5.139 5.071 4.964 4.814 4.604 4.351 4.071 3.821 3.551 3.271 3.056 2.901 2.771 2.659 2.554 2.469 2.399 2.361 2.299 2.261 2.261 2.466 2.874 1.959 1.656 2.229 2.176 2.126 2.126 2.149 2.251 2.271 2.219 2.144 2.176 2.211 2.244 2.256 2.301 2.311 2.324 2.366 2.331 2.254 2.216 2.229 2.276 2.276 2.239 2.206 2.216 2.241 2.239 2.269 2.256 2.266 2.246 2.241 2.244 2.249 2.226 2.201 2.224 2.224 2.216 2.246 2.219 2.206 2.181 2.179 2.169 2.186 2.179 2.199 2.171 2.169 2.181 2.189 2.124 2.136 2.156 2.146 2.106 2.114 2.114 2.126 2.121 2.096 2.094 2.091 2.064 2.041 2.044 2.001 2.016 2.034 2.066 1.536 1.851 1.909 1.999 2.101 2.066 2.076 2.054 2.099 2.171 2.144 2.224 2.324 2.429 2.594 3.691 2.379 2.846 2.709 2.411 2.479 2.532 2.504 2.402 2.372 2.794 2.987 2.932 2.849 2.729 2.904 3.002 3.062 2.929 2.872 2.737 3.434 5.714 2.844 2.994 2.757 2.419 2.514 2.474 2.514 2.712 2.602 2.517 7.367 3.462 2.737 4.612 6.267 4.999 3.957 4.232 4.384 4.539 4.892 5.609 6.879 7.689 12.137 15.544 13.194 14.587 12.627 12.647 13.189 15.429 18.454 18.799 21.089 20.169 19.142 19.137 19.127 19.077 18.939 18.784 18.652 18.552 18.407 18.219 18.032 17.899 17.749 17.569 17.349 17.119 16.909 16.692 16.439 16.157 15.849 15.494 15.137 14.742 14.327 13.899 13.444 12.949 12.487 12.039 11.599 11.174 10.792 10.402 10.032 9.712 9.427 9.159 8.937 8.749 8.634 8.549 8.562 8.582 8.682 8.742 8.852 8.952 9.154 9.474 9.814 10.189 10.564 10.922 11.294 11.739 12.142 12.472 12.754 13.044 13.292 13.489 13.602 13.647 13.622 13.602 13.584 13.574 13.544 13.462 13.362 13.184 13.092 12.994 12.872 12.757 12.634 12.529 12.427 12.354 12.229 12.174 12.174 12.164 12.182 12.627 13.112 12.339 12.382 12.494 12.704 12.889 13.024 13.289 13.637 14.007 14.419 14.885 15.277 15.655 16.14 16.707 17.512 18.427 18.51 20.84 21.502 23.127 22.24 23.527 23.835 23.315 24.472 24.845 24.797 26.27 27.912 27.682 28.957 28.905 29.695 28.345 28.412 28.34 29.335 28.54 28.61 28.745 28.955 29.04 29.12 31.115 30.935 30.385 30.085 29.627 29.065 28.93 28.905 28.83 28.742 28.662 28.547 28.415 28.292 28.14 28.28 27.887 27.747 27.622 27.437 27.572 27.457 26.935 26.705 26.642 26.445 26.247 26.115 25.942 25.832 25.635 25.475 25.362 25.222 25.07 24.91 24.79 24.635 24.545 24.335 24.11 23.865 23.677 23.56 23.352 23.177 22.955 22.74 22.642 22.412 22.162 21.985 21.78 21.627 21.452 21.275 21.132 20.947 20.765 20.602 20.465 20.227 20.112 19.91 19.775 19.607 19.475 19.34 19.175 19.02 18.923 18.775 18.653 18.495 18.433 18.543 18.16 18.083 18.008 17.865 17.808 17.703 17.63 17.59 17.503 17.453 17.443 17.385 17.45 17.313 17.368 17.363 17.353 17.405 17.423 17.48 17.52 17.588 17.675 17.72 17.785 17.883 17.973 18.113 18.158 18.25 18.33 18.385 18.505 18.603 18.62 18.718 18.705 18.758 18.778 18.798 18.83 18.73 18.67 19.1 19.343 18.9 20.218 19.238 18.888 18.745 18.838 18.795 18.745 18.728 18.608 18.485 18.36 18.243 18.138 18.048 17.983 17.898 17.83 17.73 17.64 17.558 17.51 17.418 17.35 17.288 17.243 17.2 17.155 17.088 17.043 16.973 16.875 16.813 16.713 16.613 16.518 16.435
6.299 6.244 6.476 6.844 6.506 6.144 6.596 6.346 6.181 8.191 8.506 8.531 8.184 7.856 5.951 5.209 5.086 5.011 4.926 4.821 4.659 4.446 4.189 3.824 3.516 3.316 3.114 2.926 2.794 2.679 2.579 2.491 2.426 2.366 2.329 2.304 2.274 2.224 2.656 2.386 1.696 2.219 2.236 2.161 2.149 2.174 2.244 2.294 2.279 2.239 2.199 2.214 2.244 2.279 2.294 2.326 2.359 2.386 2.406 2.426 2.379 2.329 2.264 2.241 2.246 2.241 2.221 2.229 2.234 2.226 2.259 2.266 2.254 2.244 2.254 2.219 2.231 2.231 2.211 2.224 2.229 2.209 2.194 2.194 2.169 2.179 2.184 2.179 2.159 2.171 2.161 2.154 2.144 2.134 2.094 2.094 2.144 2.149 2.151 2.131 2.144 2.121 2.126 2.106 2.066 2.091 2.069 2.069 2.071 2.056 2.001 1.981 2.076 1.906 1.539 1.899 1.914 2.009 1.974 2.076 2.076 2.069 2.111 2.221 2.346 2.276 2.374 2.374 2.436 2.364 2.309 7.296 8.024 2.831 2.409 2.444 2.494 2.462 2.362 2.442 2.709 3.024 2.737 2.894 2.867 2.654 2.707 2.812 2.694 2.852 2.717 2.874 2.722 2.922 2.919 2.374 2.429 2.464 2.517 2.622 2.744 3.977 4.452 2.069 2.674 2.999 5.024 3.584 3.967 4.147 4.294 4.514 4.839 5.614 6.562 7.607 11.577 13.629 13.187 13.927 14.247 15.444 12.937 14.682 16.967 18.439 21.494 18.937 18.732 18.712 18.734 18.679 18.517 18.389 18.297 18.204 18.067 17.884 17.722 17.607 17.467 17.277 17.059 16.844 16.634 16.434 16.197 15.929 15.632 15.294 14.902 14.512 14.087 13.674 13.204 12.729 12.277 11.814 11.389 10.982 10.562 10.199 9.872 9.552 9.237 8.979 8.782 8.587 8.462 8.384 8.427 8.454 8.527 8.572 8.667 8.782 8.997 9.317 9.669 10.027 10.352 10.687 11.129 11.524 11.849 12.172 12.437 12.699 12.929 13.104 13.144 13.127 13.097 13.077 13.064 13.014 12.982 12.879 12.757 12.607 12.527 12.437 12.342 12.237 12.134 12.027 11.869 11.804 11.794 11.842 11.787 11.779 11.954 11.839 11.892 12.094 12.294 12.457 12.644 12.817 13.064 13.414 13.797 14.227 14.689 15.117 15.517 15.982 16.53 17.185 18.607 19.382 19.53 20.49 22.007 22.462 22.635 24.302 23.39 23.66 24.287 24.5 25.765 27.327 28.202 27.662 27.965 27.897 27.867 28.497 28.255 28.452 29.23 28.6 28.605 28.93 28.875 29.757 29.142 29.382 29.542 29.437 29.582 29.315 28.885 28.737 28.707 28.647 28.57 28.485 28.357 28.225 28.122 27.947 27.815 27.707 27.565 27.415 27.23 27.195 28.262 26.962 26.562 26.45 26.262 26.095 25.942 25.8 25.652 25.477 25.315 25.175 25.055 24.91 24.752 24.645 24.495 24.372 24.195 23.957 23.75 23.525 23.37 23.19 23.017 22.782 22.57 22.42 22.292 22.052 21.865 21.677 21.537 21.382 21.2 21.015 20.88 20.695 20.5 20.307 20.15 19.982 19.77 19.652 19.505 19.34 19.208 19.07 18.925 18.793 18.655 18.575 18.398 18.283 18.283 18.113 17.973 17.923 17.78 17.713 17.638 17.558 17.488 17.405 17.34 17.308 17.253 17.408 17.295 17.263 17.28 17.278 17.305 17.35 17.4 17.428 17.485 17.565 17.603 17.658 17.775 17.888 18.018 18.035 18.113 18.208 18.228 18.32 18.378 18.44 18.483 18.5 18.543 18.58 18.61 18.658 18.55 18.515 18.65 19.515 18.928 19.098 19.04 18.783 18.563 18.605 18.605 18.535 18.513 18.393 18.26 18.163 18.11 17.998 17.885 17.793 17.743 17.665 17.588 17.505 17.475 17.403 17.338 17.298 17.253 17.203 17.163 17.095 17.018 16.943 16.875 16.773 16.693 16.6 16.51 16.425 16.345
6.309 6.246 6.431 6.649 6.476 6.091 6.051 6.601 6.549 7.916 8.069 7.979 6.729 5.664 5.149 5.141 5.024 4.936 5.146 4.726 4.581 4.489 4.124 3.661 3.369 3.139 3.019 2.851 2.724 2.619 2.516 2.429 2.401 2.359 2.291 2.274 2.229 2.151 2.381 2.066 1.904 2.314 2.211 2.194 2.164 2.219 2.326 2.346 2.281 2.249 2.256 2.261 2.271 2.309 2.326 2.361 2.411 2.424 2.451 2.429 2.384 2.334 2.271 2.229 2.241 2.234 2.246 2.249 2.251 2.246 2.229 2.234 2.251 2.231 2.249 2.251 2.234 2.206 2.224 2.259 2.221 2.231 2.204 2.179 2.181 2.179 2.169 2.159 2.129 2.139 2.114 2.121 2.129 2.109 2.069 2.104 2.144 2.141 2.134 2.146 2.126 2.129 2.099 2.069 2.066 2.071 2.086 2.069 2.081 2.036 2.039 1.976 2.199 1.689 1.669 1.919 1.909 1.921 2.014 2.044 2.059 2.074 2.101 2.214 2.279 2.411 2.521 2.371 2.276 2.189 2.259 4.371 3.201 2.389 2.426 2.474 2.552 2.534 2.444 2.389 2.317 2.532 2.659 3.202 3.462 2.717 2.779 2.797 2.739 2.822 2.814 2.737 2.699 2.909 2.599 2.367 2.609 2.667 2.664 2.744 2.844 3.032 10.242 6.414 3.179 3.047 3.044 3.484 3.782 4.009 4.167 4.477 4.739 5.449 6.369 7.467 9.454 12.189 16.382 12.844 13.637 17.837 15.162 13.777 16.049 19.097 19.554 18.527 18.349 18.337 18.342 18.297 18.154 17.992 17.912 17.827 17.697 17.569 17.427 17.274 17.134 16.974 16.732 16.522 16.339 16.142 15.952 15.702 15.374 15.047 14.642 14.279 13.847 13.414 12.957 12.509 12.044 11.592 11.202 10.794 10.389 10.017 9.694 9.397 9.089 8.819 8.624 8.444 8.317 8.214 8.257 8.267 8.352 8.392 8.462 8.619 8.844 9.184 9.514 9.834 10.137 10.529 10.914 11.247 11.607 11.857 12.114 12.329 12.512 12.624 12.637 12.624 12.594 12.582 12.554 12.502 12.402 12.309 12.227 12.079 11.994 11.919 11.827 11.737 11.617 11.477 11.422 11.434 11.469 11.367 11.417 11.442 11.507 11.642 11.824 12.044 12.254 12.447 12.639 12.899 13.254 13.617 14.057 14.507 14.917 15.327 15.825 16.342 17.062 18.412 19.512 20.072 20.44 20.975 22.1 23.072 24.002 23.265 23.287 23.89 24.312 25.057 26.225 27.202 27.345 27.53 27.587 28.067 28.315 28.04 28.282 28.35 30.042 28.77 28.592 28.745 28.89 28.965 28.952 29.07 29.005 29.157 29.542 29.47 28.807 28.587 28.527 28.452 28.387 28.307 28.182 28.035 27.922 27.787 27.702 27.56 27.38 27.215 27.067 26.967 27.802 26.86 26.4 26.33 26.112 25.925 25.792 25.63 25.535 25.33 25.177 25.08 24.937 24.772 24.642 24.517 24.367 24.225 24.087 23.807 23.605 23.385 23.225 23.037 22.827 22.632 22.43 22.287 22.142 21.947 21.772 21.57 21.41 21.215 21.05 20.887 20.71 20.565 20.36 20.18 20.03 19.845 19.66 19.502 19.38 19.238 19.115 18.98 18.813 18.68 18.555 18.463 18.285 18.17 18.188 18.09 17.855 17.778 17.673 17.613 17.628 17.45 17.418 17.368 17.258 17.235 17.18 17.21 17.2 17.193 17.23 17.205 17.215 17.285 17.3 17.348 17.363 17.433 17.495 17.543 17.628 17.75 17.848 17.895 17.925 17.983 18.033 18.125 18.483 18.213 18.305 18.325 18.358 18.385 18.413 18.675 18.473 18.328 18.358 19.565 18.828 18.985 19.018 19.003 18.455 18.383 18.433 18.32 18.283 18.218 18.143 18.03 17.92 17.823 17.748 17.67 17.598 17.57 17.498 17.453 17.393 17.325 17.27 17.225 17.128 17.075 17.033 16.968 16.883 16.82 16.768 16.695 16.62 16.508 16.408 16.325 16.215
7.029 6.574 6.439 6.339 6.206 6.056 6.029 6.006 5.984 6.454 6.299 5.819 5.306 5.171 5.236 5.626 4.949 5.134 5.571 4.529 4.404 4.601 4.081 3.511 3.171 3.006 2.859 2.699 2.609 2.511 2.429 2.336 2.316 2.266 2.214 2.184 2.109 2.096 2.169 1.639 2.139 2.281 2.214 2.206 2.204 2.214 2.319 2.319 2.261 2.256 2.256 2.291 2.319 2.376 2.361 2.394 2.426 2.446 2.459 2.439 2.399 2.306 2.211 2.239 2.229 2.246 2.254 2.246 2.266 2.256 2.236 2.239 2.229 2.239 2.236 2.254 2.214 2.211 2.219 2.231 2.211 2.219 2.174 2.159 2.149 2.156 2.151 2.131 2.129 2.081 2.089 2.094 2.096 2.069 2.044 2.089 2.096 2.119 2.116 2.139 2.104 2.111 2.116 2.076 2.069 2.061 2.089 2.061 2.041 2.021 2.051 1.994 2.089 1.481 1.886 1.956 1.944 1.864 1.921 1.974 2.026 2.104 2.256 2.196 2.234 2.369 2.394 2.414 2.286 2.294 2.364 4.726 4.316 2.409 2.436 2.497 2.754 3.512 2.627 2.477 2.389 2.312 2.434 2.799 2.914 2.707 3.122 2.597 2.767 2.504 2.709 2.869 2.939 2.782 2.527 2.577 2.667 2.652 2.732 2.952 2.712 8.052 7.519 5.982 7.674 3.472 3.064 3.412 3.549 3.884 4.027 4.364 4.767 5.064 5.924 6.879 7.954 10.539 12.844 14.274 17.252 16.397 19.554 13.229 15.307 18.532 18.582 18.059 17.999 17.959 17.927 17.872 17.754 17.619 17.532 17.452 17.362 17.224 17.097 16.959 16.817 16.632 16.427 16.244 16.072 15.872 15.687 15.437 15.109 14.772 14.402 14.012 13.587 13.172 12.734 12.269 11.804 11.374 10.994 10.609 10.234 9.874 9.549 9.234 8.942 8.689 8.494 8.324 8.184 8.087 8.112 8.112 8.144 8.217 8.284 8.444 8.674 8.979 9.319 9.629 9.957 10.327 10.672 11.009 11.347 11.537 11.762 11.942 12.074 12.137 12.152 12.142 12.099 12.064 12.034 11.987 11.922 11.839 11.704 11.582 11.504 11.464 11.377 11.242 11.109 11.047 11.092 11.047 11.089 11.097 11.037 11.137 11.339 11.567 11.832 12.044 12.279 12.502 12.744 13.074 13.439 13.892 14.374 14.762 15.174 15.657 16.175 16.73 17.482 18.972 19.885 20.845 21.08 21.877 22.287 22.92 22.99 23.692 24.01 24.012 29.007 26.227 26.767 27.24 27.535 27.957 27.705 28.022 28.215 28.115 28.237 28.35 28.495 28.637 28.57 28.685 28.76 28.797 28.777 28.872 28.857 29.032 29.525 30.17 28.825 28.405 28.352 28.267 28.185 28.122 28.005 27.842 27.71 27.57 27.447 27.362 27.207 27.07 26.912 26.822 27.152 26.687 26.227 26.132 25.98 25.805 25.665 25.487 25.407 25.2 25.055 24.935 24.792 24.645 24.51 24.44 24.217 24.07 23.902 23.627 23.407 23.24 23.087 22.93 22.705 22.517 22.305 22.157 22.072 21.792 21.612 21.46 21.265 21.085 20.917 20.775 20.592 20.452 20.247 20.09 19.927 19.737 19.585 19.397 19.272 19.15 19.035 18.895 18.728 18.573 18.445 18.323 18.19 18.08 18.043 17.973 17.758 17.705 17.595 17.52 17.478 17.388 17.348 17.298 17.21 17.163 17.108 17.085 17.103 17.07 17.113 17.11 17.135 17.173 17.183 17.228 17.233 17.29 17.328 17.388 17.475 17.575 17.65 17.715 17.743 17.833 17.858 17.923 18.39 18.035 18.12 18.155 18.163 18.21 18.208 18.233 18.253 18.155 18.125 19.008 19.15 18.61 18.903 18.93 18.415 18.155 18.218 18.135 18.108 18.063 17.958 17.898 17.805 17.72 17.648 17.58 17.528 17.485 17.398 17.33 17.253 17.198 17.138 17.083 17.015 16.993 16.933 16.868 16.79 16.765 16.683 16.58 16.503 16.383 16.283 16.15 16.068
6.944 7.009 6.896 6.694 6.326 6.131 6.449 6.509 6.086 6.054 6.139 5.921 5.876 5.599 5.404 5.406 5.621 5.129 4.669 4.514 4.324 4.106 3.674 3.359 3.066 2.894 2.736 2.614 2.479 2.371 2.331 2.294 2.204 2.176 2.184 2.139 2.031 2.291 1.906 1.576 2.239 2.254 2.214 2.194 2.241 2.261 2.276 2.261 2.289 2.279 2.291 2.326 2.369 2.386 2.401 2.411 2.449 2.484 2.451 2.414 2.354 2.271 2.239 2.276 2.246 2.231 2.266 2.244 2.246 2.261 2.266 2.234 2.241 2.234 2.241 2.216 2.206 2.199 2.179 2.199 2.169 2.166 2.181 2.139 2.126 2.149 2.151 2.154 2.106 2.094 2.061 2.079 2.059 2.041 2.046 2.071 2.074 2.096 2.091 2.134 2.106 2.101 2.114 2.096 2.074 2.054 2.066 2.046 2.031 2.051 2.046 2.091 1.854 1.506 1.899 1.956 1.991 1.991 1.924 1.886 1.954 2.151 2.161 2.239 2.189 2.326 2.274 2.241 2.126 2.146 2.236 2.271 2.331 2.364 2.396 3.042 2.544 2.589 2.607 2.482 2.482 2.424 2.312 2.344 2.867 2.809 3.439 2.809 3.147 2.932 2.834 3.067 2.994 2.757 2.679 2.842 2.774 3.274 2.932 2.887 2.609 2.619 6.547 2.364 1.874 2.554 3.049 3.229 3.452 3.692 3.917 4.157 4.702 4.987 5.554 6.477 7.802 9.224 14.767 20.847 16.379 14.674 13.654 12.997 14.169 16.697 17.932 17.654 17.612 17.609 17.569 17.499 17.379 17.274 17.192 17.097 17.027 16.894 16.779 16.642 16.492 16.312 16.142 15.967 15.789 15.617 15.417 15.157 14.857 14.509 14.144 13.769 13.342 12.912 12.479 12.047 11.579 11.174 10.777 10.417 10.037 9.689 9.362 9.072 8.792 8.532 8.309 8.152 8.054 7.949 7.922 7.904 7.909 8.019 8.129 8.292 8.524 8.812 9.134 9.434 9.729 10.034 10.377 10.672 10.964 11.179 11.404 11.559 11.644 11.672 11.677 11.662 11.617 11.587 11.527 11.504 11.427 11.347 11.247 11.134 11.064 11.007 10.889 10.792 10.779 10.767 10.692 10.677 10.769 10.682 10.807 11.064 11.327 11.589 11.834 12.069 12.402 12.707 12.947 13.299 13.749 14.189 14.599 15.027 15.484 15.987 16.55 17.075 17.8 18.885 20.102 21.707 21.732 22.912 23.445 22.727 23.655 31.685 26.67 24.86 27.225 26.732 27.187 27.287 27.492 27.615 27.81 27.982 28.022 28.175 28.245 28.405 28.467 28.542 28.572 28.575 28.66 28.767 28.977 28.952 30.08 28.652 29.297 29.102 28.467 28.277 28.18 28.105 28.015 27.905 27.79 27.66 27.537 27.39 27.275 27.162 27.032 26.92 26.82 26.68 26.842 27.14 26.097 25.96 25.837 25.68 25.562 25.38 25.247 25.07 24.897 24.81 24.647 24.527 24.367 24.202 24.06 23.92 23.777 23.537 23.32 23.14 22.96 22.775 22.575 22.375 22.162 22.01 21.955 21.68 21.52 21.35 21.162 21.005 20.802 20.682 20.495 20.357 20.157 19.99 19.855 19.642 19.457 19.287 19.17 19.055 18.91 18.823 18.643 18.573 18.363 18.23 18.073 17.985 17.92 18.053 17.693 17.628 17.533 17.463 17.383 17.303 17.26 17.228 17.118 17.05 17.035 16.965 16.975 16.948 16.985 16.985 16.983 17.023 17.04 17.075 17.083 17.138 17.18 17.218 17.3 17.365 17.445 17.528 17.575 17.655 17.748 17.74 17.908 17.905 17.933 17.943 17.983 18.033 18.038 18.045 18.118 18.018 17.96 18.405 19.683 18.285 18.978 19.358 18.383 17.95 18.005 17.975 17.955 17.943 17.875 17.808 17.733 17.638 17.543 17.458 17.38 17.315 17.248 17.205 17.135 17.063 17.02 16.98 16.923 16.86 16.793 16.758 16.688 16.623 16.525 16.443 16.335 16.228 16.115 16.005 15.91
6.326 6.534 6.561 6.669 7.166 6.721 6.184 6.229 6.326 6.016 5.631 5.501 5.609 5.064 4.966 4.966 4.906 4.851 4.591 4.226 4.034 3.771 3.451 3.164 2.949 2.756 2.651 2.556 2.439 2.369 2.276 2.246 2.184 2.151 2.144 2.119 2.006 2.426 1.871 1.754 2.206 2.236 2.259 2.209 2.279 2.324 2.324 2.304 2.331 2.324 2.356 2.384 2.426 2.396 2.434 2.434 2.461 2.476 2.481 2.421 2.301 2.249 2.241 2.244 2.234 2.216 2.216 2.246 2.216 2.269 2.264 2.241 2.244 2.224 2.231 2.189 2.194 2.194 2.164 2.161 2.166 2.124 2.131 2.121 2.101 2.119 2.119 2.101 2.049 2.084 2.051 2.074 2.061 2.036 2.049 2.051 2.034 2.051 2.071 2.109 2.124 2.099 2.089 2.084 2.054 2.094 2.066 2.031 2.021 2.041 2.031 2.154 1.509 1.626 1.939 1.896 2.014 2.076 2.066 2.051 1.974 1.996 2.191 2.139 2.291 2.349 2.184 5.194 3.571 2.161 2.444 3.319 4.344 2.376 2.421 3.457 2.882 2.582 2.482 2.534 2.519 2.499 2.437 2.432 2.459 2.817 3.157 3.039 2.967 3.202 3.224 2.914 2.817 2.929 2.547 2.864 2.757 2.887 3.044 2.897 2.732 2.642 2.577 5.812 2.059 4.412 3.024 3.234 3.447 3.619 3.922 4.089 4.507 5.109 5.324 8.209 7.674 9.012 11.957 14.714 18.872 13.487 12.997 12.997 13.322 15.199 16.909 17.209 17.304 17.304 17.212 17.134 17.022 16.924 16.819 16.739 16.684 16.594 16.472 16.337 16.187 15.989 15.849 15.692 15.514 15.337 15.129 14.897 14.594 14.274 13.899 13.514 13.087 12.659 12.232 11.824 11.382 10.964 10.577 10.227 9.834 9.489 9.194 8.872 8.617 8.354 8.137 7.977 7.874 7.754 7.707 7.792 7.829 7.942 7.959 8.164 8.402 8.654 8.924 9.202 9.494 9.797 10.069 10.327 10.574 10.787 10.994 11.137 11.187 11.199 11.179 11.154 11.139 11.124 11.057 10.994 10.914 10.879 10.802 10.662 10.584 10.517 10.494 10.517 10.542 10.399 10.417 10.512 10.554 10.594 10.797 11.082 11.367 11.644 11.922 12.249 12.657 12.907 13.244 13.687 14.137 14.544 14.937 15.319 15.774 16.277 16.835 17.735 19.577 19.977 20.62 21.565 23.215 23.31 23.31 22.572 23.017 28.81 29.147 27.467 26.947 27.07 27.412 27.4 27.525 27.667 28.955 28.737 27.97 28.212 28.33 28.387 28.435 28.46 29.087 28.542 28.557 28.627 28.63 28.695 28.937 28.545 29.402 29.59 28.31 28.13 28.042 27.96 27.852 27.722 27.615 27.497 27.37 27.225 27.105 27.067 26.877 26.735 26.615 26.52 26.82 26.992 25.975 25.835 25.712 25.52 25.392 25.237 25.092 24.902 24.765 24.675 24.527 24.427 24.26 24.115 23.992 23.825 23.69 23.422 23.187 22.982 22.815 22.637 22.452 22.272 22.057 21.88 21.802 21.605 21.377 21.16 21.04 20.87 20.697 20.535 20.395 20.257 20.075 19.882 19.732 19.56 19.385 19.197 19.097 18.995 18.843 18.88 18.575 18.44 18.298 18.17 18.21 17.89 17.813 17.88 17.585 17.523 17.403 17.343 17.325 17.25 17.113 17.068 16.99 16.945 16.905 16.81 16.825 16.775 16.848 16.935 16.848 16.898 16.888 16.923 16.953 16.975 17.048 17.078 17.178 17.23 17.3 17.385 17.4 17.465 17.56 17.603 17.765 17.748 17.788 17.813 17.825 17.865 17.878 17.89 18.17 17.868 17.815 17.973 19.39 18.24 19.075 19.278 18.56 17.888 17.788 17.853 17.818 17.823 17.75 17.663 17.585 17.485 17.373 17.29 17.223 17.175 17.133 17.083 17.02 16.948 16.898 16.858 16.79 16.725 16.665 16.6 16.548 16.44 16.325 16.243 16.145 16.04 15.918 15.838 15.76
6.049 6.311 6.131 6.161 6.171 6.434 7.326 7.489 5.906 5.701 5.499 5.371 5.064 4.921 4.844 4.896 6.156 6.616 5.086 4.051 3.741 3.469 3.231 2.976 2.754 2.629 2.556 2.476 2.384 2.279 2.229 2.176 2.181 2.149 2.124 2.081 2.099 2.001 1.416 2.026 2.234 2.241 2.249 2.271 2.301 2.331 2.316 2.326 2.359 2.349 2.399 2.409 2.434 2.446 2.436 2.436 2.434 2.449 2.449 2.424 2.259 2.201 2.221 2.269 2.259 2.251 2.251 2.234 2.219 2.246 2.229 2.236 2.216 2.201 2.179 2.161 2.159 2.156 2.096 2.101 2.106 2.099 2.101 2.084 2.089 2.086 2.089 2.069 2.061 2.056 2.034 2.024 2.016 2.004 2.024 2.021 1.984 2.014 2.026 2.084 2.084 2.126 2.096 2.071 2.026 2.054 2.039 2.029 2.006 2.026 2.041 2.089 1.399 1.829 1.894 1.889 1.961 2.031 2.079 2.071 2.059 2.001 2.201 2.066 2.206 2.151 2.174 4.361 3.556 2.224 3.016 2.641 3.986 2.984 2.611 3.242 2.639 2.534 2.544 2.549 2.522 2.527 3.369 2.619 3.232 2.404 2.654 2.859 3.022 3.587 3.052 2.989 2.834 2.769 2.737 2.707 2.939 3.099 3.242 2.827 2.739 2.682 2.644 5.164 7.854 5.929 9.222 3.189 3.424 3.647 3.989 4.222 4.374 4.802 5.337 5.864 9.604 9.212 10.527 11.584 13.202 14.982 13.862 13.067 13.039 13.869 15.439 16.627 16.944 17.027 16.894 16.817 16.702 16.597 16.474 16.422 16.372 16.272 16.169 16.014 15.872 15.699 15.559 15.394 15.219 15.052 14.864 14.632 14.339 14.002 13.649 13.234 12.832 12.449 12.019 11.602 11.179 10.744 10.367 10.014 9.657 9.334 9.017 8.702 8.432 8.182 7.914 7.772 7.682 7.612 7.642 8.097 8.184 8.154 7.852 8.017 8.227 8.467 8.724 9.007 9.272 9.514 9.749 9.972 10.209 10.362 10.557 10.717 10.737 10.739 10.704 10.687 10.662 10.624 10.567 10.534 10.484 10.384 10.279 10.184 10.157 10.184 10.229 10.369 10.864 10.522 10.309 10.467 10.524 10.569 10.904 11.149 11.457 11.792 12.097 12.524 12.882 13.229 13.672 14.034 14.409 14.942 15.277 15.679 16.049 16.58 17.202 19.002 20.292 21.962 21.465 21.475 22.817 22.882 22.355 22.865 23.517 24.352 26.745 29.297 26.94 27.142 27.382 27.572 27.472 27.582 27.707 27.76 27.857 28.072 28.317 28.405 28.45 28.415 30.517 29.547 28.59 28.605 28.735 28.63 28.452 29.092 30.672 29.922 28.197 27.987 27.857 27.75 27.657 27.557 27.482 27.327 27.2 27.06 26.94 26.845 26.72 26.587 26.52 26.35 26.247 26.09 25.82 25.665 25.555 25.425 25.222 25.087 24.97 24.83 24.667 24.575 24.42 24.287 24.125 23.965 23.89 23.685 23.705 23.385 23.027 22.817 22.675 22.515 22.327 22.137 21.94 21.75 21.612 21.475 21.252 21.097 20.947 20.772 20.617 20.44 20.302 20.177 19.947 19.755 19.605 19.445 19.27 19.122 18.997 18.918 18.783 18.64 18.468 18.32 18.233 18.058 17.908 17.775 17.693 17.76 17.515 17.363 17.333 17.195 17.125 17.085 16.985 16.975 16.85 16.78 16.763 16.688 16.678 16.663 16.67 16.715 16.688 16.743 16.765 16.76 16.873 16.86 16.908 16.918 16.983 17.095 17.148 17.213 17.275 17.315 17.415 17.458 17.513 17.635 17.59 17.613 17.66 17.685 17.71 17.743 17.785 17.705 17.65 17.683 19.268 18.325 18.288 18.655 18.348 17.868 17.59 17.658 17.638 17.665 17.623 17.558 17.46 17.365 17.275 17.153 17.108 17.068 17.005 16.94 16.885 16.81 16.768 16.695 16.63 16.573 16.498 16.403 16.318 16.243 16.163 16.083 16 15.91 15.825 15.74 15.68
