ncols 439
nrows 31
xllcorner    458014
yllcorner    90796
cellsize     2
NODATA_value -9999
54.303 54.486 54.596 54.703 55.703 55.296 55.688 55.473 56.071 56.133 58.038 59.826 61.816 61.878 61.891 61.778 61.818 61.903 61.933 61.988 62.046 56.093 60.951 63.581 63.541 63.583 63.563 63.426 63.381 63.443 63.381 60.701 57.416 63.173 63.511 63.533 63.561 63.673 63.656 63.588 63.666 63.703 60.448 57.775 58.778 64.858 64.76 64.528 64.073 64.003 60.643 59.213 58.33 58.24 56.855 55.963 55.925 55.858 58.44 62.485 63.625 63.328 62.07 56.458 55.638 55.525 55.418 54.743 54.695 54.608 54.885 55.4 55.713 54.275 54.203 54.138 53.953 53.763 53.628 53.535 53.428 53.2 53.02 52.838 52.648 52.458 52.333 52.145 51.918 51.765 51.568 51.33 51.105 50.89 50.663 50.433 50.208 49.97 49.67 49.423 49.233 49.015 48.76 48.53 48.355 48.208 47.973 47.653 47.313 47.04 46.823 46.563 46.258 46.005 45.815 45.598 45.265 44.905 44.613 44.243 43.698 43.358 43.173 42.92 42.753 42.655 42.538 42.395 42.208 41.97 41.68 41.33 40.98 40.688 40.545 40.498 40.383 40.158 39.865 39.648 39.43 39.203 38.858 38.575 38.338 38.085 37.92 37.703 37.475 37.31 37.135 36.96 36.778 36.618 36.47 36.348 36.218 36.085 35.985 35.923 35.77 35.625 35.608 36.558 35.74 36.325 38.088 38.033 35.958 38.403 34.6 36.033 35.848 34.985 36.925 34.228 34.13 34.008 33.9 33.815 33.69 33.59 33.445 33.283 33.123 32.985 32.848 32.728 32.608 32.485 32.343 32.243 32.12 32.065 31.985 31.925 31.818 31.708 31.615 31.533 31.458 31.343 31.208 31.148 31.055 30.965 30.895 30.823 30.733 30.635 30.558 30.495 30.425 30.395 30.318 30.208 30.125 30.055 29.998 30.165 30.438 30.443 30.37 30.255 29.805 29.74 29.795 29.52 30.22 30.978 30.028 29.445 29.15 29.005 28.915 28.828 28.755 28.66 28.605 28.528 28.485 28.413 28.328 28.29 28.205 28.155 28.12 28.105 28.09 28.032 27.997 27.97 27.902 27.867 27.802 27.762 27.737 27.68 27.64 27.58 27.547 27.485 27.455 27.422 27.332 27.247 27.19 27.122 27.04 26.96 26.905 26.84 26.785 26.71 26.63 26.555 26.497 26.432 26.352 26.29 26.212 26.137 26.07 25.992 25.94 25.87 25.807 25.685 25.607 25.515 25.407 25.34 25.277 25.175 25.075 24.957 24.857 24.767 24.667 24.605 24.512 24.39 24.28 24.147 24.005 23.89 23.792 23.715 23.615 23.525 23.422 23.345 23.235 23.135 23.04 22.965 22.857 22.782 22.71 22.61 22.565 22.49 22.452 22.407 22.607 22.617 22.342 22.27 22.515 23.37 24.612 23.655 22.555 22.135 21.68 21.467 21.435 21.295 21.227 21.155 21.1 21.015 20.985 20.914 20.844 20.799 20.772 20.689 20.572 20.519 20.469 20.444 20.427 20.407 20.377 20.307 20.262 20.222 20.194 20.159 20.134 20.127 20.119 20.094 20.087 20.077 20.112 20.087 20.089 20.084 20.089 20.102 20.132 20.082 20.092 20.107 20.077 20.049 20.007 20.007 19.972 19.977 19.922 19.902 19.839 19.792 19.774 19.727 19.674 19.632 19.582 19.577 19.529 19.504 19.462 19.434 19.369 19.282 19.217 19.187 19.144 19.097 19.044 18.984 18.947 18.909 18.844 18.789 18.774 18.687 18.589 18.542 18.532 18.477 18.417 18.389 18.332 18.282 18.244 18.157 18.114 18.042 17.977 17.949 17.887 17.844 17.797 17.744 17.687 17.597 17.534 17.477 17.432 17.397 17.354 17.274 17.184 17.114 17.029
55.158 54.648 54.611 55.643 57.443 55.928 56.096 55.678 56.131 56.553 56.081 57.736 56.146 55.926 57.148 59.261 59.011 59.861 59.606 57.411 57.006 56.186 60.421 63.031 63.083 63.113 63.136 63.178 63.246 63.291 63.346 60.033 57.213 62.248 62.551 62.298 62.433 62.483 62.581 62.598 62.651 62.696 60.071 58.375 58.625 64.248 64.308 64.575 64.67 64.73 63.71 62.803 62.713 62.608 58.2 55.988 55.928 55.885 57.99 62.785 63.77 62.753 59.183 55.795 55.683 55.853 55.5 54.748 54.675 54.613 54.793 54.95 54.55 54.245 54.19 54.168 54.01 53.808 53.653 53.56 53.443 53.155 52.983 52.795 52.603 52.408 52.195 52 51.865 51.718 51.538 51.308 51.108 50.888 50.63 50.383 50.145 49.898 49.643 49.378 49.14 48.878 48.613 48.435 48.23 48.065 47.82 47.553 47.258 46.908 46.673 46.485 46.215 45.888 45.718 45.463 45.143 44.813 44.41 43.868 43.485 43.283 43.095 42.883 42.733 42.668 42.593 42.43 42.218 41.933 41.59 41.323 40.998 40.673 40.505 40.43 40.365 40.168 39.8 39.535 39.308 39.095 38.835 38.59 38.403 38.13 37.893 37.675 37.448 37.283 37.065 36.87 36.738 36.578 36.475 36.345 36.245 36.133 36.048 36.033 35.903 36.31 37.828 37.82 36.538 36.055 36.01 36.763 35.98 36.37 35.388 35.575 35.26 34.705 34.638 34.438 34.31 34.175 34.1 33.975 33.843 33.723 33.605 33.463 33.318 33.108 32.96 32.828 32.73 32.583 32.435 32.318 32.18 32.113 32.013 31.923 31.84 31.728 31.658 31.578 31.503 31.415 31.298 31.19 31.115 31.013 30.953 30.885 30.773 30.693 30.663 30.61 30.543 30.493 30.39 30.253 30.188 30.168 30.29 30.475 30.433 30.363 30.068 29.795 29.973 30.798 30.245 31.193 30.945 32.503 32.643 30.408 29.208 29.073 29.11 29.163 28.91 28.838 28.718 28.64 28.593 28.51 28.468 28.437 28.37 28.302 28.265 28.25 28.23 28.172 28.15 28.09 28.037 27.982 27.95 27.907 27.855 27.797 27.767 27.732 27.692 27.67 27.63 27.552 27.46 27.397 27.322 27.265 27.197 27.117 27.052 26.967 26.912 26.81 26.745 26.677 26.6 26.527 26.44 26.372 26.282 26.235 26.142 26.1 26.042 25.945 25.895 25.777 25.695 25.612 25.527 25.47 25.342 25.242 25.117 25.032 24.935 24.85 24.76 24.685 24.557 24.45 24.315 24.18 24.077 23.985 23.877 23.772 23.685 23.59 23.495 23.407 23.305 23.2 23.095 22.99 22.897 22.83 22.745 22.677 22.627 22.595 22.57 22.665 22.615 22.497 22.442 22.68 23.557 22.545 23.382 23.122 22.16 21.787 21.522 21.492 21.385 21.31 21.255 21.227 21.1 21.03 20.962 20.909 20.859 20.779 20.754 20.662 20.587 20.534 20.504 20.469 20.447 20.407 20.332 20.319 20.319 20.264 20.247 20.227 20.204 20.189 20.154 20.144 20.147 20.152 20.172 20.159 20.157 20.137 20.177 20.194 20.202 20.187 20.179 20.192 20.184 20.139 20.099 20.057 20.047 20.044 20.002 19.937 19.907 19.874 19.807 19.754 19.734 19.662 19.632 19.577 19.567 19.509 19.462 19.434 19.379 19.327 19.254 19.199 19.142 19.109 19.084 19.062 18.984 18.877 18.812 18.757 18.722 18.687 18.634 18.594 18.542 18.472 18.444 18.364 18.297 18.257 18.242 18.157 18.114 18.057 18.007 17.954 17.897 17.854 17.804 17.737 17.669 17.614 17.562 17.524 17.464 17.399 17.334 17.257 17.217 17.157 17.069
55.336 54.896 55.158 56.743 57.093 55.653 55.326 55.418 55.481 55.733 55.621 56.291 55.708 55.736 56.523 57.596 57.298 56.871 57.756 56.481 56.146 56.851 59.591 61.273 61.061 60.341 61.878 61.678 60.403 61.236 62.213 58.886 56.971 59.593 60.661 58.991 59.613 60.428 60.316 57.911 57.606 59.286 58.156 57.325 57.875 61.848 62.453 63.343 63.42 63.483 63.43 63.278 63.308 63.383 57.643 56.073 56.01 56.668 61.208 62.728 63.89 63.463 58.44 55.72 55.673 55.705 55.353 54.763 54.683 54.668 54.615 54.605 54.988 54.463 54.253 54.165 54.04 53.858 53.685 53.573 53.475 53.205 52.993 52.813 52.598 52.408 52.23 52.048 51.845 51.67 51.49 51.273 51.058 50.83 50.6 50.35 50.123 49.878 49.603 49.353 49.068 48.785 48.483 48.255 48.055 47.865 47.668 47.46 47.095 46.79 46.578 46.385 46.15 45.838 45.615 45.38 45.135 44.803 44.25 43.693 43.39 43.19 43.01 42.818 42.71 42.69 42.625 42.43 42.223 41.855 41.52 41.338 41.053 40.715 40.45 40.3 40.205 40.025 39.703 39.37 39.153 38.99 38.788 38.583 38.428 38.228 37.948 37.708 37.443 37.223 37.04 36.873 36.733 36.623 36.508 36.445 36.365 36.208 36.083 38.358 36.288 36.68 36.568 36.373 38.533 37.643 35.908 36.925 36.858 35.608 35.413 35.09 34.928 34.805 34.695 34.553 34.443 34.31 34.165 34.06 33.935 33.833 33.763 33.64 33.498 33.285 33.083 32.948 32.883 32.68 32.535 32.4 32.285 32.175 32.063 31.975 31.878 31.768 31.685 31.615 31.548 31.453 31.335 31.263 31.165 31.108 31.04 30.955 30.853 30.785 30.735 30.685 30.635 30.545 30.415 30.288 30.32 30.513 30.888 30.558 30.428 30.798 30.243 30.145 29.828 30.578 30.48 30.27 31.795 33.26 33.005 30.6 31.31 29.958 29.538 29.838 29.14 28.965 28.86 28.798 28.705 28.683 28.603 28.54 28.49 28.437 28.435 28.43 28.387 28.317 28.262 28.237 28.197 28.135 28.08 28.047 27.975 27.942 27.912 27.877 27.857 27.795 27.742 27.662 27.597 27.53 27.48 27.407 27.31 27.255 27.182 27.105 26.997 26.947 26.86 26.772 26.707 26.63 26.532 26.43 26.392 26.322 26.252 26.205 26.127 26.03 25.945 25.86 25.795 25.707 25.635 25.525 25.397 25.305 25.21 25.13 25.05 24.982 24.885 24.772 24.635 24.49 24.37 24.247 24.152 24.06 23.95 23.842 23.74 23.652 23.562 23.45 23.35 23.252 23.142 23.055 22.98 22.895 22.835 22.767 22.687 22.912 22.985 22.71 22.622 22.525 22.937 24.207 23.192 23.212 23.257 23.23 22.162 21.582 21.602 21.53 21.395 21.307 21.242 21.19 21.095 21.06 20.987 20.947 20.902 20.799 20.719 20.664 20.602 20.554 20.544 20.519 20.492 20.462 20.429 20.414 20.382 20.332 20.332 20.319 20.244 20.249 20.227 20.219 20.229 20.232 20.229 20.232 20.222 20.232 20.254 20.272 20.264 20.254 20.279 20.272 20.239 20.189 20.159 20.119 20.134 20.097 20.032 19.977 19.934 19.877 19.819 19.769 19.749 19.702 19.657 19.627 19.614 19.557 19.529 19.449 19.419 19.339 19.282 19.247 19.199 19.149 19.107 19.059 18.992 18.922 18.884 18.839 18.772 18.717 18.642 18.579 18.542 18.474 18.444 18.354 18.304 18.279 18.204 18.129 18.072 18.019 17.977 17.912 17.869 17.844 17.812 17.749 17.677 17.619 17.564 17.484 17.437 17.409 17.357 17.299 17.257 17.182 17.114
55.248 55.351 56.293 56.531 56.111 55.316 55.283 55.401 55.471 55.346 55.533 55.973 55.671 55.713 55.923 55.911 55.938 56.083 56.176 56.136 56.276 56.393 58.121 59.348 59.336 57.286 57.548 59.178 57.073 56.883 57.093 57.091 56.856 56.788 56.818 57.333 58.323 57.751 57.511 57.893 57.056 56.921 56.908 57.015 56.96 56.983 56.88 59.165 59.603 59.428 59.095 59.805 59.655 60.22 57.048 56.865 56.515 56.333 60.045 63.358 63.888 62.82 60.223 55.808 55.76 55.695 55.328 54.798 54.7 54.668 54.598 54.718 56.585 55.855 54.28 54.205 54.07 53.91 53.728 53.61 53.5 53.293 53.02 52.813 52.623 52.443 52.223 52.033 51.823 51.635 51.478 51.263 51.055 50.825 50.568 50.358 50.085 49.848 49.55 49.315 49.033 48.735 48.44 48.178 47.938 47.72 47.518 47.34 46.998 46.753 46.555 46.32 46.08 45.778 45.53 45.39 45.125 44.73 44.19 43.705 43.348 43.105 42.908 42.768 42.7 42.708 42.593 42.39 42.123 41.795 41.5 41.275 41.033 40.708 40.45 40.248 40.093 39.93 39.645 39.323 39.073 38.908 38.775 38.59 38.398 38.255 38.113 37.71 37.453 37.225 37.07 36.92 36.788 36.678 36.55 36.41 36.285 36.15 36.155 38.683 37.86 36.363 35.828 36.765 36.353 35.59 35.635 35.558 35.438 35.358 35.27 35.153 35.07 34.97 34.81 34.665 34.528 34.433 34.293 34.188 34.073 33.883 33.79 33.748 33.648 33.44 33.273 33.105 33.015 32.808 32.673 32.53 32.41 32.283 32.145 32.03 31.928 31.835 31.753 31.663 31.58 31.493 31.42 31.333 31.24 31.173 31.113 31.025 30.938 30.908 30.85 30.78 30.733 31.348 31.995 31.128 30.318 30.598 30.445 30.44 30.778 30.113 30.043 30.383 30.008 30.005 30.313 30.128 31.563 30.863 30.233 33.06 34.925 33.163 30.003 30.073 29.333 29.065 29.02 28.953 28.898 28.815 28.735 28.725 28.677 28.615 28.572 28.527 28.48 28.417 28.36 28.332 28.282 28.26 28.202 28.16 28.135 28.09 28.047 28.022 27.99 27.912 27.87 27.762 27.695 27.637 27.605 27.525 27.465 27.395 27.31 27.22 27.142 27.085 26.985 26.892 26.812 26.727 26.65 26.555 26.502 26.43 26.365 26.28 26.19 26.122 26.035 25.99 25.897 25.792 25.667 25.572 25.47 25.397 25.332 25.252 25.167 25.072 24.957 24.82 24.685 24.562 24.462 24.352 24.24 24.142 24.042 23.932 23.827 23.727 23.622 23.517 23.385 23.315 23.222 23.135 23.067 23.015 22.935 22.915 23.375 23.432 22.872 22.742 22.62 22.757 24.157 22.872 23.18 23.62 24.415 23.032 21.757 21.67 21.647 21.54 21.422 21.342 21.265 21.2 21.127 21.085 21.057 21.007 20.967 20.889 20.852 20.742 20.664 20.609 20.604 20.559 20.542 20.534 20.494 20.439 20.414 20.397 20.372 20.369 20.337 20.304 20.294 20.309 20.312 20.327 20.344 20.349 20.322 20.359 20.344 20.342 20.342 20.334 20.317 20.337 20.309 20.247 20.234 20.187 20.164 20.129 20.049 19.992 19.959 19.912 19.852 19.824 19.784 19.712 19.654 19.692 19.617 19.592 19.559 19.507 19.457 19.384 19.327 19.262 19.247 19.189 19.124 19.104 19.017 18.982 18.917 18.827 18.774 18.702 18.629 18.549 18.519 18.452 18.434 18.392 18.344 18.294 18.207 18.152 18.059 18.017 17.979 17.929 17.867 17.837 17.797 17.732 17.682 17.619 17.552 17.487 17.452 17.419 17.364 17.309 17.267 17.222 17.147
54.703 54.958 56.143 57.641 59.983 56.536 55.256 55.203 55.508 55.521 55.458 56.476 56.008 55.756 56.016 56.046 55.971 56.098 56.156 56.233 56.258 56.531 57.381 58.001 58.181 57.326 56.813 57.188 57.301 56.661 56.726 57.406 57.758 56.881 56.878 57.246 57.806 56.908 57.141 57.101 56.991 57.053 56.968 57.155 56.995 56.91 56.873 56.788 56.708 57.05 56.848 56.485 56.388 56.338 56.293 56.748 56.58 56.075 55.96 57.32 61.815 61.845 57.14 55.863 55.798 55.62 55.455 54.903 54.713 54.698 54.678 54.738 56.423 56.485 54.28 54.245 54.09 53.945 53.79 53.643 53.535 53.308 53.068 52.823 52.66 52.458 52.213 52.023 51.848 51.645 51.463 51.23 51.025 50.793 50.543 50.33 50.083 49.813 49.555 49.295 49.013 48.725 48.408 48.12 47.913 47.695 47.455 47.31 46.96 46.698 46.483 46.228 45.98 45.72 45.52 45.38 45.143 44.73 44.148 43.67 43.325 43.01 42.84 42.73 42.65 42.653 42.558 42.333 41.945 41.673 41.438 41.248 40.96 40.683 40.418 40.23 40.073 39.903 39.575 39.288 39.088 38.905 38.778 38.588 38.395 38.288 38.11 37.728 37.46 37.283 37.108 36.998 36.72 36.348 36.188 36.07 35.948 36.265 36.535 37.19 37.315 37.823 37.385 36.413 35.918 35.808 35.753 35.698 35.603 35.545 35.435 35.328 35.23 35.133 35.008 34.855 34.71 34.593 34.438 34.323 34.2 34.045 33.925 33.808 33.728 33.61 33.41 33.245 33.1 32.913 32.8 32.66 32.523 32.378 32.22 32.125 32.015 31.91 31.818 31.71 31.645 31.55 31.503 31.398 31.298 31.233 31.195 31.14 31.09 31.03 31.508 32.513 30.773 32.988 34.913 30.778 30.975 30.463 30.348 30.228 30.39 30.248 30.02 30.055 30.288 30.08 30.02 30.62 31.27 31.433 30.915 30.608 31.843 33.305 30.935 29.48 29.148 29.125 29.205 29.285 29.02 28.978 28.935 28.89 28.855 28.777 28.7 28.647 28.6 28.535 28.485 28.475 28.427 28.38 28.332 28.28 28.252 28.21 28.152 28.11 28.062 27.98 27.917 27.86 27.805 27.752 27.695 27.625 27.54 27.482 27.445 27.34 27.277 27.19 27.095 26.995 26.915 26.837 26.74 26.677 26.625 26.55 26.465 26.38 26.287 26.222 26.142 26.05 25.96 25.85 25.732 25.645 25.577 25.505 25.447 25.37 25.267 25.122 25.005 24.867 24.75 24.64 24.525 24.432 24.317 24.237 24.122 24.027 23.925 23.815 23.682 23.592 23.47 23.395 23.31 23.242 23.182 23.097 23.225 24.065 23.752 23.047 22.857 22.772 22.645 22.645 23.245 23.022 23.187 22.725 22.47 22.1 21.742 21.747 21.627 21.535 21.497 21.397 21.36 21.282 21.255 21.177 21.14 21.092 21.032 20.977 20.902 20.814 20.724 20.669 20.629 20.624 20.584 20.554 20.489 20.474 20.459 20.444 20.417 20.422 20.399 20.397 20.379 20.389 20.389 20.389 20.397 20.407 20.409 20.412 20.412 20.392 20.404 20.384 20.374 20.382 20.362 20.332 20.259 20.254 20.209 20.172 20.134 20.084 20.014 19.969 19.897 19.837 19.802 19.742 19.697 19.722 19.687 19.642 19.607 19.539 19.499 19.424 19.344 19.272 19.277 19.229 19.132 19.084 19.022 18.952 18.902 18.827 18.772 18.722 18.629 18.557 18.507 18.447 18.417 18.367 18.297 18.262 18.212 18.139 18.062 18.027 17.969 17.917 17.877 17.844 17.812 17.734 17.679 17.629 17.579 17.524 17.474 17.439 17.377 17.302 17.264 17.214 17.154
53.523 53.678 54.258 56.021 60.368 55.741 54.881 55.271 55.326 55.491 55.453 55.883 56.568 56.256 56.483 55.973 55.988 56.141 56.318 56.606 56.773 56.673 56.731 56.611 56.861 56.911 56.626 56.631 56.736 56.666 56.716 58.198 58.223 56.938 56.976 57.471 57.826 57.061 57.086 57.128 57.176 57.541 57.061 57.198 57.008 56.96 57.053 57.043 56.743 56.88 56.75 56.503 56.425 56.34 56.513 57.343 57.455 56.243 55.963 55.913 56.34 58.5 55.935 55.84 55.775 55.575 55.265 54.85 54.74 54.728 54.678 54.79 55.685 56.938 54.278 54.225 54.115 53.99 53.86 53.698 53.495 53.31 53.038 52.805 52.625 52.393 52.18 51.99 51.84 51.613 51.41 51.208 50.99 50.755 50.51 50.283 50.05 49.798 49.523 49.285 48.995 48.715 48.398 48.11 47.893 47.673 47.475 47.303 46.905 46.6 46.418 46.135 45.905 45.703 45.55 45.343 45.078 44.695 44.1 43.623 43.285 42.98 42.778 42.66 42.58 42.568 42.438 42.168 41.803 41.555 41.385 41.23 40.938 40.668 40.415 40.215 40.058 39.863 39.548 39.298 39.1 38.973 38.835 38.613 38.408 38.258 37.998 37.723 37.468 37.285 37.1 36.778 36.305 36.208 36.563 36.74 37.063 37.765 37.555 36.87 36.543 37.125 36.703 36.155 36.108 36.048 35.983 35.925 35.828 35.788 35.673 35.58 35.478 35.305 35.203 35.045 34.93 34.768 34.6 34.448 34.268 34.128 34.02 33.908 33.733 33.628 33.483 33.36 33.205 33.02 32.895 32.765 32.63 32.455 32.31 32.21 32.12 31.993 31.9 31.838 31.763 31.65 31.56 31.44 31.353 31.348 31.298 31.27 31.218 31.175 31.65 33.09 32.19 32.025 32.71 31.165 31.895 30.563 30.338 30.285 30.213 30.115 30.158 30.028 30.005 29.993 30.255 30.68 31.155 31.168 30.355 29.793 30.125 31.298 30.398 29.373 29.508 29.495 29.453 29.478 29.205 29.13 29.105 29.08 29.032 28.955 28.93 28.855 28.79 28.73 28.662 28.6 28.55 28.522 28.475 28.457 28.432 28.352 28.287 28.222 28.16 28.092 28.032 27.975 27.927 27.872 27.797 27.715 27.68 27.61 27.557 27.47 27.432 27.312 27.217 27.115 27.055 26.98 26.905 26.827 26.75 26.632 26.535 26.462 26.407 26.327 26.195 26.085 25.995 25.895 25.815 25.755 25.692 25.635 25.51 25.397 25.28 25.182 25.052 24.937 24.847 24.715 24.585 24.5 24.39 24.3 24.202 24.132 24 23.887 23.745 23.652 23.552 23.48 23.42 23.342 23.267 23.435 24.19 23.745 23.15 23.055 22.97 22.807 23.097 24.182 24.802 22.382 23.387 25.992 22.177 21.872 21.867 21.76 21.68 21.575 21.51 21.485 21.37 21.325 21.317 21.26 21.217 21.147 21.079 21.002 20.874 20.762 20.772 20.739 20.689 20.674 20.629 20.584 20.569 20.547 20.552 20.549 20.509 20.512 20.447 20.437 20.432 20.459 20.482 20.479 20.477 20.487 20.502 20.489 20.462 20.444 20.444 20.432 20.404 20.389 20.374 20.344 20.312 20.274 20.252 20.227 20.167 20.092 20.049 19.992 19.912 19.882 19.844 19.784 19.714 19.709 19.674 19.644 19.594 19.529 19.467 19.399 19.327 19.294 19.269 19.257 19.152 19.109 19.019 18.982 18.899 18.857 18.809 18.744 18.659 18.604 18.544 18.507 18.462 18.397 18.352 18.314 18.252 18.189 18.129 18.049 18.002 17.967 17.922 17.854 17.822 17.764 17.714 17.637 17.574 17.519 17.482 17.454 17.372 17.294 17.269 17.227 17.194
53.553 53.933 58.911 59.263 54.823 54.191 54.331 54.486 54.623 54.881 55.181 55.256 55.391 56.103 55.891 55.871 55.976 56.196 56.456 56.473 57.781 56.648 57.053 56.748 56.961 57.061 56.671 56.676 57.126 57.096 56.786 57.151 58.241 57.256 57.341 57.643 57.628 57.546 57.171 57.238 57.171 57.116 57.068 57.135 57.135 57.02 57.048 57.538 56.955 57.165 57.025 56.495 56.398 56.353 56.528 56.693 57.195 56.195 56.128 56.065 56.17 56.065 56.125 56.388 56.168 55.633 55.198 54.923 54.745 54.76 54.665 54.83 55.073 57.078 54.313 54.255 54.163 54.043 53.89 53.695 53.513 53.313 53.095 52.813 52.605 52.338 52.135 51.97 51.793 51.603 51.383 51.183 50.953 50.69 50.448 50.185 49.963 49.71 49.473 49.24 48.975 48.685 48.39 48.103 47.893 47.683 47.423 47.258 46.89 46.555 46.338 46.118 45.895 45.693 45.465 45.268 45.008 44.603 44.03 43.538 43.275 43.028 42.755 42.56 42.465 42.418 42.29 42.04 41.75 41.545 41.38 41.218 40.91 40.603 40.38 40.24 40.08 39.863 39.528 39.273 39.113 38.99 38.845 38.545 38.33 38.115 37.913 37.695 37.423 37.185 36.758 36.383 36.53 36.598 38.28 37.555 36.9 36.483 36.61 36.65 36.488 36.43 36.46 36.405 36.378 36.318 36.245 36.198 36.055 35.985 35.88 35.825 35.695 35.495 35.353 35.183 35.048 34.903 34.74 34.603 34.453 34.278 34.098 34.013 33.85 33.633 33.533 33.455 33.333 33.165 33.003 32.868 32.72 32.568 32.443 32.33 32.253 32.13 32.018 31.945 31.885 31.713 31.595 31.513 31.458 31.435 31.408 31.32 31.508 31.74 30.945 31.025 32.39 31.003 30.848 30.73 30.623 30.49 30.423 30.298 30.265 30.2 30.323 30.03 30.115 30.038 30.398 30.743 30.603 30.37 29.913 30.078 31.735 31.873 30.378 29.693 29.468 29.275 29.263 29.345 29.448 29.893 29.248 29.2 29.142 29.072 29.01 28.967 28.947 28.902 28.832 28.762 28.705 28.667 28.65 28.612 28.557 28.47 28.415 28.327 28.242 28.135 28.045 28.037 28 27.917 27.822 27.772 27.71 27.625 27.557 27.517 27.427 27.342 27.247 27.19 27.127 27.055 26.97 26.862 26.745 26.642 26.555 26.487 26.432 26.34 26.217 26.097 25.99 25.892 25.822 25.795 25.755 25.645 25.517 25.365 25.24 25.18 25.087 24.96 24.83 24.69 24.582 24.495 24.457 24.407 24.287 24.18 24.062 23.912 23.795 23.72 23.667 23.587 23.487 23.427 23.625 23.93 23.507 23.232 23.182 23.257 23.35 23.37 23.82 23.83 23.805 23.287 25.267 24.5 22.092 22 21.94 21.815 21.74 21.642 21.585 21.522 21.42 21.357 21.312 21.21 21.197 21.154 21.107 21.004 20.917 20.844 20.849 20.807 20.772 20.767 20.724 20.672 20.664 20.624 20.612 20.612 20.614 20.564 20.529 20.494 20.529 20.517 20.539 20.547 20.579 20.584 20.572 20.569 20.559 20.539 20.507 20.474 20.439 20.462 20.449 20.404 20.372 20.329 20.279 20.229 20.189 20.119 20.052 19.987 19.937 19.869 19.819 19.824 19.782 19.734 19.742 19.672 19.589 19.514 19.454 19.382 19.344 19.327 19.262 19.192 19.137 19.109 19.059 18.984 18.919 18.872 18.799 18.739 18.662 18.642 18.589 18.532 18.482 18.434 18.392 18.347 18.289 18.212 18.132 18.069 18.002 17.937 17.899 17.857 17.802 17.764 17.699 17.659 17.589 17.532 17.464 17.449 17.394 17.332 17.299 17.264 17.204
54.056 55.643 62.578 59.523 58.868 56.943 54.843 55.468 55.516 57.753 58.028 55.598 57.028 55.378 55.478 55.581 55.738 55.856 55.963 56.101 56.346 56.371 56.646 56.648 56.788 56.976 56.813 56.763 57.513 57.891 57.778 57.573 57.658 57.621 57.493 57.378 57.028 57.021 57.058 57.028 57.016 57.021 56.973 56.965 56.833 56.768 56.673 56.643 56.545 56.505 56.39 56.285 56.19 56.095 56.048 55.955 55.92 55.893 55.87 55.79 55.7 55.743 55.823 55.513 55.313 55.07 54.93 54.843 54.763 54.81 54.72 54.793 54.935 56.64 54.53 54.265 54.233 54.083 53.893 53.68 53.478 53.275 53.065 52.833 52.638 52.395 52.18 52.005 51.823 51.59 51.368 51.165 50.933 50.665 50.425 50.188 49.958 49.683 49.448 49.208 48.958 48.643 48.385 48.13 47.88 47.665 47.398 47.163 46.835 46.525 46.308 46.045 45.815 45.56 45.33 45.08 44.803 44.42 43.94 43.5 43.255 43.065 42.775 42.525 42.39 42.323 42.195 41.985 41.775 41.585 41.405 41.183 40.893 40.595 40.333 40.193 40.01 39.878 39.53 39.203 38.993 38.885 38.798 38.468 38.185 38.005 37.838 37.633 37.665 37.315 36.79 36.725 37.823 36.805 36.76 37.058 36.868 36.725 36.718 36.748 36.713 36.663 36.67 36.608 36.653 36.61 36.578 36.458 36.363 36.238 36.12 36.095 35.985 35.778 35.585 35.403 35.205 35.023 34.883 34.738 34.615 34.45 34.26 34.1 33.918 33.785 33.583 33.51 34.16 33.24 33.158 33.008 32.835 32.698 32.573 32.435 32.31 32.218 32.14 32.038 31.953 31.778 31.663 31.613 31.568 31.563 31.495 31.213 31.058 31.193 31.205 31.178 31.173 30.98 30.828 30.975 30.835 30.718 30.59 30.538 30.34 30.233 30.205 30.175 30.175 30.258 30.45 30.445 30.373 30.265 30.048 30.01 30.445 30.698 30.523 29.99 30.318 29.565 29.523 29.478 29.463 29.895 29.435 29.232 29.117 29.042 28.972 28.972 28.922 28.935 28.887 28.8 28.755 28.742 28.687 28.597 28.57 28.485 28.432 28.512 28.395 28.25 28.092 28.052 27.98 27.862 27.752 27.722 27.657 27.575 27.535 27.425 27.367 27.272 27.15 27.127 27.077 27.005 26.937 26.825 26.7 26.6 26.517 26.447 26.385 26.307 26.202 26.07 25.985 25.917 25.875 25.862 25.812 25.665 25.61 25.42 25.285 25.217 25.137 24.95 24.825 24.74 24.652 24.607 24.595 24.505 24.375 24.245 24.122 23.98 23.887 23.822 23.775 23.71 23.635 23.757 24.442 23.76 23.36 23.342 23.315 23.515 24.555 24.81 24.465 25.75 26.227 24.43 23.95 22.472 22.1 22.145 21.987 21.91 21.79 21.707 21.645 21.585 21.512 21.39 21.335 21.332 21.327 21.264 21.182 21.072 21.002 20.942 20.919 20.869 20.839 20.787 20.772 20.702 20.689 20.694 20.694 20.639 20.662 20.634 20.592 20.587 20.594 20.639 20.629 20.632 20.649 20.649 20.639 20.607 20.619 20.592 20.562 20.509 20.494 20.474 20.429 20.397 20.369 20.364 20.314 20.277 20.207 20.144 20.094 20.039 19.994 19.954 19.884 19.879 19.864 19.802 19.732 19.657 19.567 19.494 19.447 19.422 19.342 19.299 19.282 19.229 19.162 19.142 19.074 19.012 18.939 18.897 18.817 18.759 18.667 18.627 18.559 18.492 18.459 18.424 18.377 18.302 18.232 18.152 18.082 18.054 18.004 17.937 17.879 17.862 17.862 17.797 17.739 17.667 17.599 17.539 17.474 17.422 17.384 17.314 17.312 17.274 17.229
53.581 54.808 54.506 57.131 60.628 58.303 55.753 57.076 59.208 59.586 58.296 58.063 56.458 56.641 56.823 56.836 57.093 57.203 56.716 56.871 56.878 56.621 58.891 56.981 56.646 56.706 56.793 56.846 56.908 56.886 56.888 56.968 57.003 57.018 57.028 57.078 57.078 57.103 57.183 57.198 57.211 58.598 57.216 56.975 56.91 56.863 56.768 56.718 56.635 56.55 56.443 56.36 56.303 56.243 56.13 56.053 55.973 55.925 55.83 55.74 55.693 55.638 55.51 55.395 55.28 55.12 55 54.933 54.828 54.82 54.81 54.775 54.95 56.06 55.355 54.283 54.263 54.168 53.94 53.705 53.468 53.215 52.965 52.76 52.608 52.413 52.208 51.98 51.785 51.545 51.31 51.11 50.895 50.648 50.435 50.188 49.933 49.69 49.46 49.213 48.95 48.65 48.365 48.115 47.845 47.628 47.395 47.088 46.798 46.545 46.328 46.078 45.815 45.5 45.248 44.928 44.585 44.255 43.913 43.503 43.238 43.043 42.773 42.538 42.368 42.235 42.15 41.993 41.82 41.66 41.428 41.143 40.813 40.563 40.295 40.065 39.915 39.78 39.515 39.173 38.945 38.79 38.605 38.345 38.035 37.843 37.768 38.018 38.253 39.095 38.113 38.665 38.38 37.305 36.9 37.098 37.09 37.025 37.018 37.065 37.03 36.96 36.888 36.855 36.835 36.79 36.755 36.643 36.543 36.533 36.415 36.26 36.178 36.03 35.835 35.658 35.438 35.215 35.033 34.87 34.753 34.54 34.41 34.223 34.015 33.928 33.785 34.905 34.285 33.355 33.253 33.115 32.925 32.808 32.653 32.533 32.428 32.335 32.263 32.165 32.035 31.888 31.818 31.798 31.795 31.668 31.41 31.903 31.368 31.398 31.353 31.338 31.2 31.168 30.968 30.905 30.863 30.778 30.978 30.49 30.52 30.498 30.368 30.343 30.3 30.313 30.385 30.368 30.325 30.228 30.198 30.083 30.035 30.26 30.708 29.87 29.75 29.705 29.643 33.095 31.508 30.945 29.463 29.305 29.207 29.15 29.077 28.97 28.85 28.835 28.812 28.79 28.82 28.762 28.705 28.64 28.592 28.532 28.5 28.527 28.407 28.38 28.235 28.137 28.075 27.872 27.767 27.752 27.695 27.632 27.565 27.462 27.43 27.287 27.152 27.12 27.095 27.885 26.992 26.855 26.827 26.782 26.62 26.557 26.485 26.505 26.51 26.307 26.055 26.047 26.075 25.887 25.82 25.752 25.622 25.51 25.41 25.35 25.155 25.047 24.947 24.832 24.795 24.737 24.69 24.61 24.497 24.527 24.402 24.142 24.045 24.005 23.92 23.847 23.785 24.567 24.437 23.462 23.487 24.477 24.23 25.817 24.185 24.79 27.957 23.972 24.492 28.092 23.052 22.257 22.2 22.127 22.045 21.967 21.857 21.8 21.682 21.65 21.577 21.487 21.43 21.452 21.37 21.309 21.179 21.104 21.004 20.984 20.967 20.889 20.864 20.824 20.777 20.754 20.757 20.752 20.737 20.699 20.729 20.662 20.642 20.682 20.697 20.734 20.719 20.729 20.722 20.719 20.714 20.684 20.657 20.644 20.579 20.562 20.539 20.487 20.479 20.454 20.424 20.394 20.349 20.329 20.252 20.194 20.092 20.062 20.019 19.949 19.919 19.877 19.844 19.824 19.769 19.667 19.602 19.559 19.519 19.459 19.387 19.322 19.309 19.262 19.207 19.149 19.109 19.042 18.959 18.882 18.824 18.767 18.687 18.634 18.552 18.469 18.409 18.352 18.284 18.229 18.192 18.152 18.074 18.027 18.002 17.917 17.887 17.854 17.779 17.707 17.657 17.622 17.592 17.524 17.494 17.459 17.412 17.354 17.314 17.262 17.199
53.451 53.653 53.876 54.043 56.718 55.221 54.556 54.753 54.963 55.866 56.323 56.693 57.638 57.168 57.448 57.726 57.973 57.963 58.466 58.516 58.616 58.663 59.968 59.078 58.263 58.811 57.521 57.648 57.721 57.571 58.313 57.823 57.366 57.766 57.356 57.408 57.853 57.468 58.496 58.383 57.671 61.208 59.656 57.133 57.108 57.035 56.915 57.248 57.393 57.035 56.513 56.48 56.395 57.415 57.603 56.49 56.59 56.628 56.28 56.155 56.915 56.023 56.15 55.815 55.723 56.415 55.68 55.655 54.995 54.9 54.843 54.803 55.035 57.675 56.573 54.303 54.308 54.21 54.008 53.735 53.523 53.248 52.953 52.643 52.58 52.41 52.2 51.96 51.715 51.503 51.28 51.045 50.83 50.605 50.375 50.115 49.848 49.64 49.398 49.143 48.863 48.588 48.338 48.073 47.81 47.585 47.373 47.083 46.805 46.563 46.345 46.083 45.83 45.54 45.255 44.91 44.573 44.285 43.988 43.55 43.185 42.925 42.738 42.538 42.353 42.225 42.16 41.988 41.848 41.648 41.33 41.038 40.738 40.523 40.23 40.023 39.875 39.725 39.538 39.258 38.975 38.76 38.533 38.218 37.978 38.473 39.65 39.3 39.518 39.598 39.73 38.953 38.885 37.625 37.213 37.27 37.31 37.285 37.283 37.265 37.235 37.203 37.15 37.138 37.095 36.995 36.88 36.783 36.653 36.575 36.505 36.353 36.268 36.178 36.03 35.88 35.653 35.453 35.2 34.998 34.82 34.633 34.508 34.328 34.1 33.968 33.795 33.728 33.56 33.423 33.295 33.19 33.068 32.925 32.753 32.645 32.558 32.468 32.38 32.295 32.173 32.063 31.975 31.963 32.195 31.528 31.485 33.685 31.513 31.508 31.443 31.463 31.303 31.273 31.333 31.788 31.875 31.005 30.865 30.66 30.658 30.555 30.445 30.433 30.395 30.41 30.438 30.39 30.435 30.363 30.33 30.28 30.108 30.133 30.085 29.81 29.878 29.925 29.875 30.16 34.445 33.57 29.86 29.42 30.142 29.2 29.105 29.02 28.875 28.85 28.795 28.802 28.817 28.807 28.75 28.702 28.655 28.587 28.58 28.5 28.407 28.337 28.262 28.762 28.137 28.052 27.972 27.872 27.822 27.787 27.97 27.642 27.567 27.367 27.607 27.97 27.37 27.602 26.957 26.845 26.785 26.732 26.807 26.69 26.577 26.47 26.417 26.197 26.085 25.95 25.86 25.797 26.64 28.532 25.65 25.55 25.482 25.745 26.277 25.11 25.112 24.927 26.165 26.88 25.977 26.395 25.782 24.735 25.465 25.092 24.212 25.127 27.765 25.75 25.945 26.767 24.022 24.245 24.8 25.19 25.935 28.082 27.177 28.125 31.175 25.03 23.31 23.12 22.547 22.337 22.295 22.192 22.09 21.977 21.932 21.847 21.745 21.685 21.647 21.585 21.547 21.48 21.44 21.314 21.207 21.184 21.154 21.064 20.994 20.957 20.922 20.907 20.884 20.837 20.827 20.804 20.819 20.789 20.782 20.719 20.722 20.732 20.749 20.764 20.769 20.772 20.804 20.804 20.764 20.759 20.757 20.722 20.659 20.652 20.599 20.572 20.554 20.504 20.464 20.427 20.387 20.309 20.229 20.184 20.109 20.057 20.004 20.002 19.964 19.909 19.869 19.849 19.767 19.697 19.642 19.592 19.527 19.472 19.402 19.367 19.314 19.292 19.239 19.174 19.117 19.017 18.962 18.887 18.817 18.719 18.624 18.584 18.504 18.432 18.387 18.362 18.304 18.234 18.187 18.132 18.057 18.002 17.962 17.879 17.829 17.799 17.774 17.707 17.662 17.634 17.569 17.512 17.454 17.417 17.392 17.354 17.319 17.259 17.189
53.401 53.596 53.743 53.903 54.056 54.238 54.426 54.593 54.803 54.971 55.186 55.316 55.423 55.618 55.913 56.031 56.196 56.486 56.803 57.158 57.918 58.731 58.448 58.178 58.693 58.521 58.208 58.681 58.876 58.771 59.506 59.683 59.813 59.873 59.928 59.743 59.793 59.586 59.921 59.596 57.603 57.451 57.973 61.555 57.708 57.168 57.05 58.583 57.873 57.193 56.555 56.535 56.398 56.513 57.548 57.723 58.028 58.325 56.298 56.15 56.708 56.613 56.69 56.298 56.573 56.158 58.31 57.033 55.315 54.785 54.848 54.868 56.51 60.443 55.605 54.365 54.36 54.295 54.1 53.81 53.553 53.275 52.99 52.723 52.483 52.34 52.165 51.943 51.718 51.473 51.27 51.018 50.783 50.555 50.328 50.063 49.81 49.563 49.34 49.063 48.79 48.548 48.278 48.04 47.758 47.518 47.308 47.035 46.763 46.545 46.35 46.078 45.765 45.455 45.15 44.825 44.518 44.198 43.875 43.545 43.195 42.853 42.65 42.495 42.36 42.208 42.123 41.948 41.76 41.575 41.278 40.973 40.64 40.385 40.18 40.013 39.855 39.725 39.615 39.415 39.058 38.768 38.528 38.553 39 39.993 40.02 40.305 39.52 39.738 38.713 38.333 37.563 37.428 37.478 37.505 37.493 37.488 37.495 37.445 37.433 37.405 37.343 37.35 37.295 37.248 37.13 37.063 36.97 36.813 36.703 36.525 36.42 36.33 36.178 36.02 35.863 35.63 35.398 35.14 34.945 34.75 34.613 34.493 34.338 34.123 33.96 34.183 34.2 33.498 33.383 38.123 33.763 33.09 32.885 32.75 32.675 32.62 32.54 32.443 32.355 32.3 32.285 32.2 31.968 31.633 31.745 31.71 32.21 32.255 31.608 31.685 31.48 31.36 31.338 31.288 31.063 30.953 30.79 30.725 30.895 30.788 30.54 30.49 30.508 30.51 30.488 30.48 30.438 30.418 30.358 30.318 30.198 30.108 29.845 29.703 29.703 30.073 30.058 30.375 32.533 33.95 31.04 30.01 31.455 30.307 29.305 29.497 31.307 30.827 32.285 29.365 31.452 30.46 29.69 29.575 29.845 29.277 28.777 29.032 30.852 28.952 31.397 32.135 29.937 28.262 29.597 28.575 29.63 28.505 32.832 32.977 28.985 31.315 29.777 32.745 32.015 29.495 30.267 31.227 29.422 28.135 28.845 29.785 27.507 27.332 28.487 27.965 27.155 26.782 27.742 27.1 27.435 29.145 27.187 26.68 27.262 26.58 28.82 26.402 27.13 26.37 27.41 28.6 27.682 27.545 27.155 25.945 26.687 27.43 26.195 27.32 29.17 27.17 27.842 25.352 23.64 26.187 26.507 25.845 28.15 26.722 27.742 28.482 30.367 28.137 23.73 22.832 22.442 22.417 22.307 22.197 22.13 22.055 22.002 21.887 21.817 21.722 21.647 21.627 21.6 21.555 21.47 21.369 21.267 21.219 21.214 21.152 21.074 21.027 20.984 20.937 20.917 20.867 20.867 20.859 20.829 20.842 20.827 20.792 20.784 20.812 20.829 20.844 20.854 20.842 20.854 20.854 20.867 20.827 20.797 20.762 20.702 20.672 20.637 20.597 20.594 20.527 20.482 20.444 20.407 20.352 20.297 20.212 20.154 20.104 20.072 20.019 19.989 19.974 19.942 19.884 19.812 19.717 19.629 19.582 19.529 19.484 19.404 19.357 19.324 19.272 19.222 19.159 19.099 19.022 18.974 18.894 18.804 18.687 18.612 18.582 18.537 18.472 18.444 18.364 18.312 18.254 18.172 18.094 18.057 17.972 17.924 17.884 17.824 17.799 17.744 17.689 17.644 17.567 17.532 17.467 17.432 17.402 17.369 17.334 17.287 17.237 17.204
53.393 53.548 53.708 53.901 54.051 54.241 54.413 54.596 54.776 54.931 55.116 55.248 55.383 55.536 55.681 55.841 55.911 56.033 56.173 56.298 56.453 56.643 56.778 56.738 56.821 56.921 56.918 57.043 57.111 57.283 57.668 57.781 58.188 58.331 58.673 58.746 58.623 58.598 58.863 58.233 58.248 57.646 57.653 57.555 57.81 57.543 57.603 58.043 58.37 58.16 57.43 56.888 56.973 57.283 58.095 58.2 57.875 57.39 56.705 56.423 57.138 56.533 56.91 56.508 56.165 55.748 55.47 55.243 55.118 54.893 54.913 54.84 56.303 56.565 55.33 54.333 54.42 54.34 54.11 53.855 53.58 53.283 53.005 52.76 52.51 52.255 52.09 51.878 51.663 51.425 51.218 50.98 50.74 50.525 50.268 50.013 49.748 49.488 49.265 48.998 48.72 48.485 48.268 48.008 47.68 47.433 47.215 46.95 46.7 46.458 46.238 45.985 45.703 45.38 45.068 44.79 44.458 44.12 43.79 43.513 43.2 42.918 42.665 42.48 42.33 42.213 42.115 41.913 41.678 41.49 41.228 40.843 40.555 40.323 40.108 39.945 39.82 39.693 39.575 39.333 39.033 38.768 38.503 39.3 39.703 40.82 40.428 40.155 39.858 38.895 37.895 37.685 37.678 37.708 37.72 37.758 37.713 37.718 37.72 37.663 37.66 37.628 37.555 37.523 37.455 37.373 37.285 37.26 37.155 37.075 36.94 36.783 36.563 36.408 36.308 36.113 35.96 35.758 35.523 35.315 35.098 34.93 34.775 34.65 34.56 34.41 35.27 38.808 36.585 33.843 33.57 37.665 37.713 33.163 32.993 32.895 32.778 32.745 32.67 32.598 33.243 33.875 32.233 32.455 32.405 31.953 31.93 31.93 31.963 33.085 31.785 31.93 31.62 31.513 31.413 31.298 31.155 31.028 30.948 30.85 30.828 30.73 30.645 30.543 30.545 30.553 30.513 30.505 30.473 30.383 30.32 30.328 30.295 30.213 30.115 30.05 29.973 30.143 30.383 30.885 30.163 30.428 31.275 31.01 32.725 32.795 33.562 32.972 33.49 32.915 30.477 32.005 34.862 33.202 33.192 31.437 31.71 32.12 32.787 33.942 36.065 30.37 30.527 30.41 28.992 29.76 30.86 29.762 29.292 33.05 34.732 35.065 32.302 29.995 30.33 31.78 30.537 27.475 29.245 31.362 30.28 28.605 30.147 30.342 30.992 28.777 27.045 26.717 26.855 27.022 29.37 26.702 26.51 28.145 27.045 26.622 27.777 29.585 27.552 27.262 26.212 27.285 28.335 26.18 25.295 25.355 26.775 25.41 26.225 27.15 29.947 27.06 25.665 25.7 24.872 24.165 23.83 25.202 25.282 24.752 27.637 25.99 24.072 26.4 29.98 28.295 22.965 22.557 22.522 22.475 22.352 22.275 22.202 22.125 22.017 21.897 21.85 21.785 21.73 21.685 21.645 21.595 21.48 21.384 21.292 21.239 21.214 21.154 21.122 21.064 21.009 20.979 20.972 20.927 20.914 20.889 20.899 20.909 20.922 20.919 20.897 20.917 20.919 20.922 20.894 20.892 20.899 20.904 20.874 20.897 20.832 20.799 20.734 20.692 20.667 20.647 20.637 20.559 20.522 20.494 20.409 20.367 20.312 20.227 20.164 20.104 20.097 20.034 20.007 19.967 19.939 19.872 19.807 19.717 19.647 19.584 19.519 19.472 19.402 19.337 19.312 19.264 19.217 19.142 19.097 19.017 18.927 18.854 18.782 18.694 18.634 18.587 18.542 18.467 18.439 18.367 18.329 18.259 18.177 18.102 18.052 17.984 17.939 17.877 17.827 17.772 17.714 17.702 17.644 17.582 17.519 17.447 17.427 17.359 17.347 17.294 17.242 17.222 17.207
53.346 53.518 53.711 53.911 54.086 54.271 54.456 54.648 54.801 54.953 55.083 55.238 55.391 55.516 55.648 55.801 55.926 56.046 56.183 56.286 56.411 56.538 56.636 56.691 56.773 56.836 56.906 56.961 57.018 57.083 57.186 57.248 57.303 57.341 57.433 57.533 57.531 57.563 57.588 57.631 57.628 57.661 57.633 57.583 57.558 57.565 57.533 57.465 57.708 57.608 57.613 57.135 57.045 56.97 56.845 57.153 56.985 57.26 56.488 56.365 56.3 56.13 55.92 55.785 55.64 55.543 55.41 55.245 55.39 55.16 54.908 54.873 55.353 55.693 55.568 54.45 54.45 54.368 54.113 53.89 53.605 53.29 52.98 52.738 52.468 52.2 52.005 51.813 51.58 51.37 51.13 50.9 50.673 50.388 50.188 49.945 49.695 49.4 49.173 48.91 48.658 48.425 48.175 47.888 47.603 47.355 47.158 46.885 46.603 46.338 46.14 45.873 45.618 45.393 45.073 44.73 44.388 44.068 43.755 43.513 43.3 43.018 42.743 42.488 42.323 42.18 42.11 41.885 41.555 41.388 41.085 40.733 40.49 40.28 40.053 39.86 39.738 39.623 39.465 39.303 39.213 39.398 39.853 40.288 39.84 39.908 38.905 38.21 38.085 37.895 37.858 37.843 37.86 37.9 37.965 38.003 37.965 37.985 37.958 37.968 37.91 37.88 37.785 37.703 37.63 37.523 37.465 37.36 37.273 37.193 37.04 36.92 36.72 36.515 36.363 36.165 36.013 35.85 35.668 35.485 35.275 35.085 34.945 34.755 34.66 34.45 35.313 37.008 39.408 37.955 35.308 34.238 34.753 33.253 33.12 32.988 32.9 32.863 32.815 32.913 34.16 35.49 32.5 32.505 32.275 32.28 32.12 33.018 32.225 31.885 32.42 32.475 31.733 31.63 31.498 31.33 31.218 31.08 30.985 30.895 30.803 30.618 30.625 30.538 30.49 30.54 30.523 30.49 30.435 30.428 30.39 30.413 30.418 30.378 30.313 30.33 30.325 30.305 30.325 30.485 30.458 30.545 31.008 30.94 31.935 34.455 30.54 30.175 30.425 30.577 30.017 30.14 30.707 31.177 33.085 30.872 29.58 30 32.23 30.752 30.837 30.457 29.46 30.085 29.772 29.305 29.407 29.042 30.765 29.57 30.38 30.905 30.37 28.84 28.457 28.3 27.8 27.33 27.307 28.08 27.397 28.165 27.465 27.402 28.38 28.152 27.417 27.422 28.697 27.307 27.562 27.652 26.44 26.592 28.01 27.35 25.982 27.527 28.607 28.162 27.352 27.995 28.015 26.695 25.725 25.452 24.865 24.802 24.772 24.715 24.69 24.515 24.42 24.262 24.062 23.937 24.032 24.517 23.935 23.8 23.732 24.187 23.752 26.362 29.742 27.205 22.92 22.66 22.597 22.512 22.405 22.31 22.217 22.142 22.042 21.987 21.907 21.857 21.82 21.742 21.717 21.627 21.525 21.402 21.314 21.259 21.234 21.199 21.192 21.144 21.104 21.069 21.017 21.017 20.997 20.984 20.972 20.962 20.969 20.957 20.969 20.972 20.992 20.974 20.979 20.962 20.967 20.952 20.949 20.912 20.847 20.814 20.782 20.752 20.722 20.692 20.639 20.597 20.567 20.522 20.442 20.377 20.344 20.269 20.189 20.132 20.089 20.067 20.039 20.009 19.967 19.897 19.827 19.764 19.679 19.624 19.552 19.502 19.424 19.374 19.329 19.282 19.207 19.149 19.079 18.987 18.899 18.827 18.742 18.674 18.592 18.572 18.504 18.432 18.387 18.322 18.277 18.219 18.132 18.059 18.009 17.959 17.937 17.882 17.817 17.782 17.707 17.704 17.647 17.549 17.504 17.429 17.407 17.374 17.327 17.292 17.244 17.217 17.174
53.248 53.491 53.703 53.911 54.083 54.283 54.468 54.658 54.811 54.953 55.111 55.301 55.426 55.593 55.683 55.831 55.981 56.096 56.226 56.361 56.516 56.623 56.701 56.798 56.873 56.941 56.996 57.076 57.106 57.186 57.273 57.298 57.318 57.386 57.433 57.496 57.536 57.536 57.563 57.588 57.556 57.566 57.548 57.538 57.498 57.453 57.388 57.338 57.275 57.2 57.103 57.028 56.918 56.838 56.76 56.693 56.613 56.515 56.428 56.303 56.175 56.065 55.94 55.798 55.715 55.635 55.523 55.453 56.19 55.513 54.898 54.928 55.353 55.908 55.785 54.673 54.5 54.355 54.108 53.908 53.578 53.275 52.95 52.693 52.433 52.2 51.98 51.755 51.53 51.298 51.08 50.86 50.583 50.3 50.063 49.848 49.615 49.318 49.07 48.813 48.575 48.343 48.038 47.773 47.545 47.303 47.08 46.858 46.51 46.28 46.043 45.83 45.55 45.313 45.078 44.738 44.328 44.023 43.793 43.555 43.338 43.1 42.84 42.548 42.355 42.183 42.05 41.805 41.478 41.248 40.913 40.695 40.525 40.595 40.17 40.32 41.045 41.313 40.803 41.705 42.155 40.408 39.93 40.225 39.66 38.838 38.298 38.203 38.105 38.038 38.003 38.02 38.07 38.153 38.218 38.225 38.215 38.19 38.16 38.185 38.14 38.11 38.01 37.893 37.823 37.698 37.605 37.498 37.415 37.31 37.183 37.123 36.955 36.763 36.463 36.275 36.095 35.973 35.795 35.583 35.415 35.193 35.068 34.86 34.72 34.548 35.58 37.488 40.568 34.473 33.72 33.565 33.438 33.335 33.2 33.095 33.023 33.013 33.735 32.425 32.793 33.605 32.575 33.323 33.025 32.275 32.293 32.463 32.905 32.065 31.953 31.925 31.85 31.753 31.62 31.475 31.198 31.053 30.948 30.808 30.32 29.943 30.235 30.215 30.05 30.32 30.555 30.525 30.493 30.478 30.438 30.475 30.495 30.465 30.453 30.493 30.425 30.46 30.788 30.663 30.385 30.325 30.353 30.597 30.56 30.367 30.24 30.067 30.13 29.952 29.745 29.785 29.902 30.62 29.56 29.9 29.47 29.955 29.98 30.797 29.422 29.135 29.19 29.257 30.322 30.437 30.387 29.272 29.147 28.885 29.172 28.527 28.302 28.17 27.955 27.81 27.575 27.355 27.535 27.647 27.875 28.307 28.925 27.71 27.767 28.082 27.975 27.89 28.89 27.435 27.275 27.48 27.2 27.155 27.79 27.225 26.2 26.837 28.382 28.765 29.182 29.517 28.865 27.85 27.177 26.222 24.912 24.88 24.872 24.832 24.772 24.66 24.48 24.247 24.14 24.145 24.167 24.427 24.012 23.902 23.83 23.78 24.185 28.315 29.69 26.235 22.742 22.737 22.632 22.542 22.462 22.37 22.305 22.18 22.11 22.07 22.017 21.952 21.892 21.822 21.792 21.702 21.585 21.457 21.387 21.332 21.284 21.277 21.207 21.174 21.139 21.109 21.049 21.044 21.059 21.017 21.022 21.022 21.044 21.002 21.042 21.044 21.034 21.027 21.029 21.034 21.039 21.047 20.999 20.952 20.919 20.894 20.862 20.832 20.767 20.732 20.672 20.674 20.587 20.544 20.484 20.437 20.369 20.299 20.202 20.182 20.152 20.117 20.109 20.037 19.984 19.909 19.832 19.757 19.687 19.634 19.579 19.537 19.459 19.407 19.327 19.277 19.234 19.142 19.084 19.007 18.924 18.844 18.757 18.669 18.587 18.522 18.477 18.409 18.342 18.289 18.254 18.182 18.112 18.067 18.022 17.919 17.894 17.862 17.819 17.777 17.724 17.674 17.617 17.527 17.487 17.424 17.347 17.327 17.284 17.252 17.222 17.182 17.167
53.238 53.466 53.631 53.871 54.056 54.223 54.456 54.616 54.758 54.913 55.086 55.273 55.411 55.563 55.706 55.843 56.003 56.131 56.283 56.423 56.558 56.661 56.756 56.828 56.926 56.983 57.058 57.133 57.198 57.301 57.331 57.398 57.433 57.491 57.521 57.578 57.588 57.588 57.631 57.633 57.628 57.603 57.598 57.54 57.483 57.45 57.395 57.328 57.285 57.245 57.18 57.11 56.995 56.928 56.833 56.75 56.673 56.575 56.488 56.358 56.255 56.148 56.028 55.903 55.788 55.69 55.588 55.538 55.91 55.93 54.933 54.955 55.053 55.893 55.835 54.695 54.458 54.335 54.135 53.905 53.595 53.255 52.95 52.67 52.385 52.17 51.94 51.67 51.443 51.22 51.02 50.78 50.478 50.193 49.968 49.748 49.513 49.203 48.963 48.723 48.458 48.17 47.875 47.695 47.465 47.253 46.975 46.73 46.455 46.21 45.983 45.785 45.538 45.288 45.048 44.69 44.25 43.973 43.813 43.588 43.35 43.13 42.923 42.6 42.373 42.168 41.943 41.775 41.623 41.458 41.675 42.91 42.843 42.943 42.828 42.87 42.338 41.125 41.555 42.968 43.403 41.698 40.223 39.478 39.038 38.528 38.435 38.378 38.303 38.253 38.253 38.3 38.345 38.435 38.483 38.47 38.478 38.433 38.42 38.405 38.363 38.285 38.208 38.11 38.005 37.893 37.768 37.66 37.565 37.428 37.313 37.198 37.09 36.973 36.745 36.45 36.2 36.058 35.898 35.71 35.498 35.305 35.135 34.948 34.875 34.608 34.44 34.355 34.153 34.048 33.848 33.683 33.563 33.415 33.283 33.218 33.193 33.203 34.1 32.68 33.068 32.635 32.663 32.565 32.495 32.44 32.43 32.455 32.3 32.193 32.11 32.038 31.893 31.81 31.658 31.46 31.17 30.955 30.865 30.723 30.028 29.705 31.508 32.088 30.46 29.805 30.338 30.578 30.57 30.56 30.54 30.493 30.54 30.558 30.58 30.675 30.638 30.735 30.965 30.658 30.435 30.36 30.303 30.432 30.485 30.322 30.23 30.132 30.072 29.942 29.802 29.785 29.785 29.687 29.652 29.462 29.422 29.432 29.277 29.255 29.142 29.097 29.047 29.017 29.602 29.3 29.11 29.587 28.992 28.697 28.565 28.482 28.337 28.187 28.007 29.035 28.785 27.745 28.172 28.222 28.26 28.012 27.962 27.587 27.64 28.002 28.08 27.862 28.005 27.855 27.68 27.657 27.052 27.122 27.21 26.495 26.272 26.617 28.33 28.685 29.135 29.477 28.99 26.92 26.707 25.95 24.932 24.9 24.89 24.85 24.79 24.675 24.477 24.325 24.3 24.272 24.2 24.167 24.065 23.97 23.897 23.885 26.142 28.452 26.355 24.072 22.832 22.79 22.675 22.575 22.487 22.472 22.365 22.282 22.182 22.12 22.075 22.05 21.93 21.852 21.805 21.717 21.61 21.489 21.444 21.404 21.369 21.324 21.299 21.252 21.199 21.149 21.119 21.109 21.114 21.097 21.059 21.079 21.067 21.077 21.107 21.094 21.079 21.077 21.047 21.064 21.059 21.054 21.027 20.987 20.952 20.912 20.872 20.859 20.789 20.757 20.714 20.669 20.604 20.564 20.497 20.427 20.349 20.334 20.304 20.262 20.244 20.149 20.097 20.059 19.997 19.914 19.847 19.757 19.699 19.644 19.582 19.539 19.454 19.404 19.344 19.289 19.229 19.149 19.057 18.999 18.892 18.809 18.719 18.654 18.574 18.549 18.489 18.407 18.369 18.292 18.232 18.184 18.117 18.077 18.034 17.944 17.872 17.837 17.767 17.739 17.694 17.629 17.589 17.532 17.452 17.382 17.347 17.309 17.297 17.254 17.209 17.177 17.132
53.253 53.481 53.688 53.893 54.058 54.263 54.426 54.601 54.723 54.876 55.053 55.243 55.381 55.541 55.696 55.823 55.958 56.096 56.258 56.401 56.533 56.628 56.751 56.848 56.913 56.961 57.041 57.113 57.176 57.256 57.353 57.418 57.466 57.541 57.591 57.648 57.693 57.668 57.706 57.701 57.671 57.671 57.636 57.603 57.545 57.493 57.425 57.35 57.323 57.29 57.24 57.208 57.113 57.038 56.898 56.803 56.723 56.623 56.533 56.43 56.333 56.24 56.133 56 55.878 55.78 55.65 55.57 55.788 56.54 54.945 54.998 54.983 55.963 55.913 54.735 54.425 54.318 54.188 53.923 53.618 53.243 52.928 52.585 52.305 52.078 51.835 51.608 51.285 51.123 50.908 50.678 50.385 50.115 49.903 49.685 49.408 49.148 48.858 48.605 48.355 48.03 47.82 47.695 47.44 47.14 46.89 46.635 46.42 46.2 45.928 45.705 45.51 45.303 45.01 44.62 44.188 43.96 43.81 43.578 43.39 43.18 42.873 42.503 43.153 42.245 42.403 42.993 44.568 43.083 43.483 44.1 44.025 43.59 42.105 40.19 40.065 39.743 40.36 40.45 40.528 39.983 39.39 38.953 38.808 38.728 38.653 38.598 38.52 38.545 38.563 38.62 38.688 38.743 38.763 38.778 38.763 38.735 38.693 38.623 38.583 38.503 38.428 38.34 38.225 38.085 37.948 37.823 37.71 37.565 37.413 37.245 37.13 37.025 36.85 36.693 36.355 36.118 35.95 35.82 35.573 35.368 35.168 34.995 34.865 34.635 34.515 34.423 34.225 34.095 33.973 33.848 33.653 33.5 33.385 33.315 33.635 33.39 33.095 32.885 32.855 32.86 32.823 32.715 32.623 32.588 32.57 32.493 32.418 32.355 32.255 32.103 31.9 31.845 31.685 31.495 31.173 30.905 30.763 30.98 30.94 30.468 30.563 31.703 30.595 29.813 30.24 30.62 30.65 30.663 30.638 30.598 30.64 30.673 30.728 30.768 30.79 31.138 30.978 30.558 30.48 30.368 30.278 30.297 30.28 30.325 30.27 30.215 30.137 30.057 30.002 29.94 29.877 29.767 29.71 29.58 29.49 29.425 29.347 29.327 29.222 29.19 29.17 29.122 29.062 29.022 29.002 28.942 28.877 28.787 28.707 28.605 28.445 28.287 28.31 28.857 28.41 28.137 28.96 28.64 28.547 28.367 28.085 27.612 27.66 27.775 28.067 28.127 28.19 28.42 27.805 27.32 27.215 27.177 27.17 26.755 26.542 26.63 28.247 28.642 29.112 29.487 28.872 25.895 25.205 24.997 24.967 24.925 24.895 24.842 24.8 24.637 24.555 24.515 24.45 24.347 24.272 24.175 24.085 24.02 23.95 24.025 26.467 27.785 23.35 22.962 22.94 22.83 22.74 22.65 22.592 22.525 22.43 22.362 22.265 22.167 22.11 22.06 21.967 21.855 21.755 21.697 21.627 21.554 21.524 21.487 21.457 21.427 21.377 21.332 21.299 21.262 21.237 21.192 21.184 21.157 21.144 21.157 21.157 21.154 21.149 21.142 21.144 21.139 21.097 21.099 21.097 21.069 21.024 20.997 20.964 20.927 20.899 20.852 20.794 20.764 20.724 20.674 20.619 20.554 20.519 20.447 20.382 20.327 20.267 20.254 20.222 20.159 20.114 20.069 19.987 19.929 19.847 19.784 19.722 19.659 19.612 19.549 19.469 19.407 19.344 19.279 19.222 19.134 19.027 18.984 18.877 18.817 18.724 18.667 18.587 18.552 18.524 18.447 18.377 18.297 18.262 18.209 18.097 18.037 17.972 17.912 17.837 17.797 17.767 17.689 17.652 17.567 17.529 17.462 17.409 17.369 17.327 17.314 17.304 17.252 17.204 17.164 17.087
53.248 53.511 53.728 53.928 54.101 54.311 54.468 54.598 54.746 54.898 55.086 55.238 55.386 55.528 55.681 55.826 55.941 56.088 56.241 56.366 56.508 56.578 56.701 56.813 56.888 56.966 57.031 57.108 57.173 57.251 57.363 57.431 57.506 57.553 57.583 57.656 57.741 57.711 57.706 57.721 57.708 57.716 57.723 57.678 57.638 57.588 57.545 57.49 57.415 57.38 57.298 57.243 57.16 57.09 56.99 56.868 56.775 56.68 56.608 56.525 56.423 56.313 56.208 56.113 56.01 55.885 55.743 55.64 55.775 56.573 55.025 55.01 55.013 55.738 55.97 54.623 54.32 54.255 54.183 53.958 53.665 53.31 52.888 52.485 52.155 51.878 51.64 51.405 51.18 50.918 50.775 50.565 50.315 50.083 49.868 49.615 49.343 49.063 48.775 48.475 48.208 47.928 47.768 47.723 47.395 47.093 46.808 46.6 46.405 46.193 45.923 45.685 45.47 45.235 44.943 44.55 44.22 44.42 45.083 44.543 44.39 47.508 45.863 44.16 46.963 44.935 44.508 44.793 45.43 42.815 43.443 42.538 41.618 42.135 41.64 39.455 39.308 39.423 40.23 40.158 39.933 39.375 39.123 39.085 39.043 38.998 38.94 38.903 38.878 38.865 38.885 38.935 38.978 38.985 38.995 39.058 38.995 38.903 38.855 38.795 38.785 38.71 38.618 38.52 38.42 38.275 38.145 37.99 37.873 37.77 37.593 37.405 37.208 37.048 36.915 36.823 36.53 36.193 35.995 35.825 35.625 35.44 35.26 35.095 34.903 34.723 34.598 34.498 34.295 34.143 34.093 33.93 33.7 33.533 33.435 33.4 34.713 33.673 35.018 33.66 33.075 33.053 33 32.873 32.76 32.718 32.678 32.643 32.53 32.46 32.385 32.233 32.085 31.945 31.825 31.54 31.165 30.998 31.215 31.55 31.49 31.373 31.368 32.023 31.535 30.58 30.61 30.693 30.75 30.825 30.81 30.765 30.773 30.785 30.833 30.825 30.783 30.835 30.698 30.58 30.495 30.413 30.295 30.325 30.345 30.345 30.342 30.302 30.247 30.217 30.16 30.057 29.952 29.845 29.757 29.665 29.585 29.477 29.432 29.407 29.362 29.332 29.262 29.265 29.217 29.11 29.062 28.995 28.93 28.955 28.872 28.752 28.57 28.477 28.795 28.472 28.545 28.575 28.82 28.742 28.85 28.722 28.372 27.91 27.857 27.985 28.267 28.527 28.49 28.497 28.25 27.582 27.325 27.172 27.057 26.945 27.185 27.14 28.222 28.652 29.08 29.432 28.927 27.97 26.867 25.075 25.007 24.962 24.927 24.885 24.827 24.77 24.73 24.63 24.537 24.397 24.277 24.215 24.16 24.077 23.982 27.03 26.497 23.737 23.067 23.07 22.975 22.882 22.8 22.745 22.647 22.572 22.497 22.397 22.292 22.227 22.172 22.16 22.037 21.942 21.822 21.735 21.627 21.587 21.569 21.572 21.522 21.467 21.449 21.402 21.367 21.327 21.299 21.254 21.244 21.234 21.244 21.222 21.237 21.237 21.222 21.212 21.207 21.184 21.182 21.167 21.164 21.134 21.077 21.042 21.004 20.942 20.882 20.829 20.777 20.742 20.707 20.654 20.599 20.554 20.499 20.464 20.354 20.322 20.249 20.219 20.192 20.164 20.124 20.074 20.022 19.929 19.819 19.772 19.727 19.657 19.624 19.544 19.464 19.404 19.354 19.287 19.204 19.139 19.057 18.967 18.907 18.839 18.754 18.659 18.592 18.562 18.502 18.449 18.377 18.329 18.237 18.179 18.097 18.014 17.974 17.864 17.832 17.759 17.709 17.657 17.609 17.559 17.519 17.464 17.399 17.309 17.297 17.244 17.199 17.164 17.137 17.102 17.022
53.286 53.511 53.708 53.916 54.131 54.298 54.433 54.628 54.748 54.931 55.146 55.268 55.423 55.561 55.728 55.861 55.993 56.133 56.263 56.393 56.513 56.573 56.688 56.803 56.881 56.943 57.021 57.088 57.161 57.261 57.356 57.446 57.523 57.573 57.623 57.696 57.731 57.726 57.726 57.736 57.733 57.761 57.743 57.705 57.668 57.648 57.613 57.533 57.483 57.43 57.36 57.318 57.24 57.15 57.053 56.933 56.85 56.76 56.665 56.593 56.505 56.423 56.315 56.208 56.09 55.985 55.833 55.703 55.835 56.735 55.303 55.04 55.023 55.425 55.703 54.538 54.363 54.315 54.225 54.003 53.715 53.315 52.908 52.365 52.178 52.118 52.23 51.273 50.96 50.77 50.573 50.475 50.273 50.035 49.795 49.573 49.275 48.97 48.665 48.373 48.13 47.845 47.753 47.663 47.338 46.985 46.78 46.608 46.413 46.19 46.48 45.705 45.458 46.14 46.66 47.115 46.565 48.11 47.883 44.438 43.755 43.678 46.625 48.14 47.865 44.5 43.875 43.123 42.765 42.08 40.768 40.538 40.33 40.12 39.858 39.48 39.395 39.45 40.19 40.268 39.73 39.373 39.328 39.293 39.265 39.26 39.22 39.208 39.178 39.198 39.223 39.235 39.233 39.158 39.188 39.245 39.21 39.128 39.068 39.028 38.968 38.913 38.838 38.69 38.603 38.49 38.32 38.17 38.003 37.898 37.73 37.555 37.353 37.158 36.998 36.913 36.725 36.353 36.093 35.873 35.695 35.568 35.358 35.228 35.043 34.828 34.648 34.488 34.345 34.218 34.143 33.988 34.27 37.015 33.105 33.245 33.775 33.89 34.623 33.78 33.688 34.42 33.308 33 32.91 32.855 32.8 32.765 32.645 32.598 32.53 32.428 32.285 32.095 31.955 31.583 31.298 31.13 31.605 31.63 31.688 31.785 32.193 32.303 32.478 31.01 30.908 30.948 30.898 31.003 31.068 30.998 30.96 30.91 30.923 30.918 30.903 30.848 30.793 30.64 30.538 30.493 30.443 30.437 30.39 30.43 30.427 30.372 30.35 30.34 30.267 30.167 30.007 29.925 29.822 29.712 29.642 29.572 29.505 29.49 29.485 29.457 29.402 29.362 29.317 29.225 29.115 29.045 29.015 29.002 28.92 28.832 28.702 28.637 28.542 28.522 28.625 28.832 28.905 29.475 29.227 28.81 28.142 27.79 27.94 28.052 28.372 28.682 28.565 28.375 28.1 27.83 27.445 27.302 27.17 27.102 27.352 27.36 28.24 28.675 29.142 29.392 28.87 28.02 26.88 25.04 25.002 24.98 24.977 24.92 24.925 24.862 24.782 24.687 24.58 24.44 24.335 24.275 24.22 24.152 24.502 27.792 25.377 23.272 23.09 23.092 23.01 22.915 22.837 22.74 22.68 22.637 22.572 22.492 22.34 22.31 22.277 22.222 22.137 21.987 21.902 21.81 21.705 21.694 21.687 21.627 21.572 21.534 21.492 21.457 21.404 21.399 21.349 21.317 21.322 21.319 21.332 21.314 21.317 21.339 21.297 21.292 21.272 21.252 21.224 21.239 21.199 21.177 21.129 21.049 21.029 20.969 20.914 20.872 20.799 20.759 20.689 20.647 20.582 20.529 20.489 20.444 20.374 20.347 20.267 20.227 20.177 20.139 20.097 20.019 19.962 19.879 19.814 19.737 19.707 19.654 19.587 19.537 19.452 19.412 19.344 19.262 19.202 19.132 19.072 18.982 18.869 18.822 18.724 18.667 18.612 18.554 18.512 18.457 18.389 18.314 18.254 18.184 18.097 18.019 17.932 17.884 17.782 17.719 17.662 17.612 17.577 17.532 17.457 17.424 17.374 17.312 17.272 17.239 17.177 17.122 17.092 17.062 17.004
53.308 53.533 53.723 53.941 54.168 54.271 54.446 54.651 54.773 54.963 55.141 55.296 55.446 55.593 55.743 55.861 56.036 56.158 56.293 56.428 56.556 56.601 56.756 56.841 56.918 56.973 57.048 57.108 57.193 57.281 57.378 57.483 57.553 57.601 57.651 57.703 57.728 57.706 57.753 57.766 57.768 57.761 57.741 57.705 57.668 57.65 57.638 57.563 57.495 57.463 57.41 57.368 57.3 57.18 57.115 56.998 56.903 56.828 56.78 56.708 56.615 56.505 56.425 56.313 56.193 56.073 55.933 55.798 55.813 57.098 55.903 55.068 55.045 55.313 55.995 54.555 54.5 54.76 54.703 54.51 54.053 53.308 53.24 52.745 52.283 52.188 52.145 51.593 51.688 51.005 51.735 50.728 50.423 50.158 50.013 49.328 49.03 48.838 49.54 48.27 48.078 47.793 48.33 49.213 50.583 48.325 51.065 52.865 48.85 49.398 50.12 45.675 47.445 49.57 50.315 45.358 47.373 47.513 44.783 44.033 42.993 43.413 44.618 45.508 46.735 43.595 42.178 41.508 41.243 41.045 40.903 40.728 40.528 40.32 40.003 39.6 39.533 39.618 40.145 40.258 39.653 39.573 39.545 39.535 39.525 39.485 39.493 39.448 39.45 39.5 39.515 39.508 39.46 39.34 39.375 39.428 39.395 39.378 39.328 39.283 39.175 39.088 38.983 38.865 38.758 38.643 38.495 38.308 38.163 38.023 37.828 37.68 37.473 37.278 37.085 36.95 36.803 36.545 36.248 35.968 35.785 35.588 35.383 35.253 35.095 34.93 34.738 34.585 34.468 34.335 34.203 34.013 33.75 33.468 34 33.988 33.895 33.643 33.53 33.473 33.425 34.225 33.403 33.15 33.1 32.98 32.903 32.803 32.795 32.753 32.653 32.56 32.428 32.18 31.943 31.74 31.555 31.373 31.555 31.705 31.558 31.46 32.303 31.938 31.445 31.655 31.125 31.068 31.103 31.21 31.275 31.21 31.143 31.108 31.11 31.08 31.018 30.945 30.875 30.77 30.67 30.608 30.578 30.59 30.497 30.48 30.48 30.457 30.42 30.385 30.305 30.22 30.122 30.012 29.897 29.792 29.73 29.687 29.607 29.597 29.565 29.557 29.522 29.47 29.395 29.33 29.237 29.16 29.09 29.04 28.922 28.845 28.712 28.567 28.492 28.46 28.407 28.49 29.8 29.63 28.77 28.522 27.797 27.742 27.74 27.847 28.167 28.53 28.46 28.345 28.135 27.92 27.66 27.742 27.337 27.065 26.895 26.915 26.607 26.372 26.565 27 26.482 25.667 25.402 25.085 25.02 25.005 25.005 24.985 24.967 24.947 24.862 24.76 24.632 24.517 24.427 24.367 24.302 24.187 27.142 26.02 23.65 23.22 23.217 23.112 23.057 22.972 22.885 22.815 22.772 22.715 22.632 22.547 22.462 22.382 22.325 22.242 22.127 22.065 21.952 21.86 21.82 21.802 21.759 21.729 21.664 21.619 21.572 21.539 21.497 21.472 21.462 21.424 21.397 21.394 21.379 21.392 21.379 21.384 21.374 21.334 21.317 21.302 21.272 21.252 21.224 21.162 21.124 21.079 21.062 20.992 20.954 20.912 20.834 20.779 20.699 20.649 20.602 20.552 20.512 20.429 20.362 20.329 20.242 20.199 20.142 20.087 20.014 19.957 19.899 19.837 19.764 19.739 19.669 19.617 19.547 19.489 19.444 19.369 19.317 19.249 19.184 19.102 19.037 18.974 18.859 18.782 18.714 18.679 18.592 18.579 18.502 18.442 18.367 18.322 18.239 18.139 18.062 17.959 17.899 17.862 17.779 17.714 17.667 17.602 17.554 17.489 17.439 17.387 17.359 17.294 17.247 17.202 17.147 17.127 17.064 17.034 16.979
53.316 53.533 53.741 53.966 54.178 54.303 54.476 54.671 54.816 55.008 55.191 55.311 55.451 55.603 55.771 55.898 56.051 56.186 56.318 56.471 56.546 56.658 56.803 56.886 56.953 57.023 57.111 57.191 57.246 57.326 57.426 57.501 57.598 57.636 57.688 57.703 57.721 57.726 57.761 57.796 57.781 57.771 57.761 57.75 57.708 57.683 57.665 57.62 57.573 57.465 57.428 57.398 57.335 57.25 57.168 57.05 56.965 56.895 56.845 56.77 56.668 56.568 56.493 56.415 56.303 56.185 56.053 55.865 55.865 57.02 56.205 55.08 55.058 55.26 56.105 54.725 54.258 54.25 54.083 53.838 53.58 53.235 52.843 52.463 52.033 51.733 51.848 52.175 51.433 51.22 50.41 50.58 50.408 50.763 52.065 49.928 49.298 50.09 50.153 51.163 50.4 47.555 49.58 49.845 52.033 52.85 54.14 53.165 51.243 53.903 50.925 48.155 45.2 44.895 44.695 45.403 44.168 43.94 43.463 43.415 43.1 44.698 47.425 42.39 42.128 41.915 41.72 41.545 41.348 41.195 40.995 40.845 40.675 40.49 40.145 39.69 39.703 39.978 40.665 40.198 39.823 39.803 39.75 39.738 39.768 39.743 39.75 39.753 39.743 39.75 39.733 39.705 39.658 39.553 39.555 39.575 39.588 39.543 39.498 39.448 39.323 39.24 39.14 39.028 38.913 38.82 38.68 38.488 38.3 38.155 37.948 37.8 37.583 37.413 37.188 37.045 36.843 36.73 36.445 36.053 35.848 35.638 35.463 35.328 35.17 35.01 34.87 34.698 34.548 34.765 34.288 34.523 37.62 36.845 36.988 35.883 34.89 33.768 33.74 33.635 33.525 33.548 33.385 33.32 33.24 33.123 33.06 32.998 32.953 32.883 32.808 32.665 32.428 32.213 32.028 31.863 31.743 31.675 31.805 31.83 31.713 31.8 31.97 31.71 32.13 33.13 31.883 31.348 31.36 31.44 31.468 31.415 31.343 31.31 31.275 31.203 31.12 31.06 30.995 30.853 30.743 30.668 30.633 30.555 30.49 30.49 30.54 30.512 30.432 30.425 30.34 30.282 30.19 30.072 29.957 29.887 29.84 29.815 29.73 29.732 29.657 29.602 29.575 29.527 29.455 29.412 29.33 29.222 29.137 29.07 28.965 28.872 28.727 28.595 28.51 28.43 28.41 28.352 28.307 28.245 28.107 27.96 27.825 27.755 27.74 27.945 28.282 28.387 27.765 27.72 27.715 28.532 29.377 28.63 28.07 27.945 27.482 26.995 26.385 25.987 25.747 25.597 25.492 25.317 25.192 25.46 25.637 25.065 25.125 25.322 25.125 25.007 24.91 24.79 24.672 24.585 24.477 24.402 24.32 24.987 26.492 24.312 23.375 23.362 23.287 23.182 23.122 23.005 22.952 22.89 22.815 22.745 22.67 22.56 22.502 22.422 22.397 22.295 22.197 22.087 21.98 21.92 21.92 21.904 21.862 21.789 21.744 21.692 21.659 21.617 21.594 21.547 21.509 21.474 21.469 21.487 21.432 21.454 21.434 21.452 21.389 21.372 21.367 21.349 21.302 21.312 21.237 21.207 21.169 21.122 21.089 21.004 20.964 20.892 20.834 20.749 20.717 20.664 20.599 20.559 20.479 20.422 20.339 20.274 20.234 20.212 20.162 20.122 20.017 19.919 19.884 19.829 19.742 19.717 19.627 19.572 19.532 19.479 19.409 19.327 19.287 19.189 19.114 19.052 19.017 18.944 18.847 18.769 18.749 18.692 18.602 18.564 18.464 18.407 18.362 18.272 18.192 18.127 18.019 17.957 17.902 17.844 17.769 17.692 17.619 17.584 17.542 17.457 17.427 17.369 17.319 17.274 17.222 17.172 17.127 17.087 17.039 17.004 16.989
53.328 53.526 53.703 53.931 54.146 54.288 54.501 54.696 54.838 55.056 55.218 55.348 55.496 55.648 55.791 55.903 56.068 56.218 56.368 56.513 56.588 56.751 56.818 56.936 57.006 57.086 57.188 57.253 57.341 57.438 57.491 57.586 57.636 57.701 57.743 57.761 57.751 57.798 57.803 57.838 57.811 57.826 57.801 57.81 57.763 57.735 57.703 57.615 57.583 57.51 57.485 57.388 57.365 57.278 57.245 57.088 57.033 56.933 56.898 56.8 56.748 56.633 56.57 56.498 56.37 56.265 56.14 55.973 55.888 56.43 57.103 55.12 55.103 55.128 55.995 55.038 54.323 54.25 54.15 53.893 53.643 53.325 52.965 52.663 52.36 51.99 51.708 51.55 51.288 52.34 52.448 50.663 50.073 50.023 50.268 51.59 51.818 50.885 49.958 48.593 48.435 49.158 47.513 48.183 49.748 47.63 49.918 55.01 54.153 53.413 49.658 47.395 45.22 46.32 44.74 45.683 45.055 44.323 43.755 43.748 44.94 44.718 45.255 42.433 42.22 41.983 41.76 41.618 41.455 41.305 41.118 40.975 40.783 40.568 40.195 39.85 40.355 40.88 40.768 40.16 40.033 40.005 40.008 39.985 40.003 40.03 40.053 40.04 40.013 39.993 39.933 39.873 39.858 39.788 39.768 39.78 39.788 39.773 39.715 39.603 39.505 39.4 39.295 39.195 39.093 38.96 38.84 38.643 38.468 38.295 38.115 37.903 37.703 37.503 37.29 37.12 36.913 36.775 36.58 36.248 35.975 35.748 35.568 35.405 35.273 35.115 35.01 34.853 34.715 35.013 34.383 34.385 34.958 36.298 35.003 35.403 34.72 33.94 33.893 33.838 33.71 33.623 33.505 33.425 33.358 33.258 33.235 33.2 33.145 33.07 32.9 32.715 32.47 32.25 32.153 32.098 31.963 31.9 31.833 31.935 31.813 32.29 31.93 31.813 31.943 32.263 31.943 31.71 31.625 31.635 31.68 31.573 31.503 31.498 31.453 31.323 31.243 31.153 31.07 30.978 30.835 30.713 30.633 30.59 30.535 30.56 30.555 30.537 30.5 30.442 30.37 30.29 30.202 30.107 30.04 29.985 29.962 29.877 29.815 29.787 29.747 29.707 29.627 29.562 29.52 29.437 29.367 29.265 29.137 29.015 28.93 28.81 28.67 28.555 28.475 28.387 28.365 28.317 28.25 28.152 27.997 27.887 27.815 27.732 27.722 27.96 28.187 28.365 27.957 27.557 27.285 27.77 27.822 27.615 27.602 27.8 28.03 28.015 27.1 26.435 25.975 25.725 25.53 25.392 25.267 25.59 26.442 25.137 25.185 25.375 25.64 25.305 24.97 24.78 24.677 24.55 24.447 24.39 24.792 27.5 24.822 23.747 23.455 23.435 23.327 23.225 23.162 23.092 23 22.927 22.87 22.807 22.71 22.637 22.6 22.545 22.445 22.337 22.262 22.16 22.072 22.015 21.997 21.967 21.904 21.827 21.769 21.727 21.694 21.639 21.629 21.599 21.567 21.534 21.529 21.507 21.517 21.532 21.534 21.529 21.464 21.447 21.407 21.399 21.344 21.287 21.212 21.189 21.152 21.129 21.082 21.032 20.969 20.894 20.822 20.774 20.749 20.657 20.597 20.502 20.449 20.412 20.347 20.279 20.232 20.187 20.139 20.082 19.999 19.952 19.864 19.809 19.774 19.659 19.602 19.574 19.519 19.449 19.414 19.324 19.254 19.164 19.092 19.049 18.952 18.894 18.819 18.739 18.697 18.654 18.542 18.514 18.474 18.379 18.314 18.222 18.142 18.084 18.004 17.912 17.862 17.777 17.689 17.634 17.599 17.577 17.512 17.447 17.397 17.344 17.284 17.204 17.132 17.102 17.077 17.024 16.994 16.974 16.937
53.401 53.618 53.796 54.003 54.158 54.293 54.506 54.676 54.853 55.081 55.216 55.398 55.556 55.721 55.838 55.963 56.113 56.278 56.456 56.563 56.646 56.786 56.911 57.006 57.083 57.148 57.268 57.311 57.408 57.526 57.568 57.636 57.681 57.753 57.773 57.821 57.823 57.853 57.888 57.916 57.888 57.893 57.883 57.878 57.815 57.788 57.75 57.685 57.625 57.583 57.548 57.493 57.463 57.338 57.275 57.13 57.08 56.995 56.935 56.883 56.798 56.73 56.638 56.575 56.478 56.355 56.218 56.083 55.948 56.048 57.185 55.143 55.143 55.148 55.655 55.723 54.52 54.393 54.238 53.985 53.758 53.428 53.083 52.793 52.53 52.203 51.903 51.73 51.458 50.988 50.42 50.073 50.09 49.875 49.933 49.733 50.228 51.925 51.833 49.23 48.935 50.733 49.163 48.12 47.398 47.95 52.71 51.795 53.6 49.785 51.578 47.383 45.408 45.61 45.748 46.6 46.143 44.66 45.12 45.678 44.568 43.075 42.775 42.535 42.33 42.1 41.878 41.7 41.55 41.36 41.195 41.06 40.825 40.515 40.1 40.408 41.418 41.25 40.885 40.225 40.22 40.21 40.25 40.23 40.243 40.27 40.318 40.275 40.235 40.215 40.165 40.118 40.058 40.025 39.99 39.98 39.975 39.978 39.928 39.838 39.735 39.565 39.473 39.37 39.235 39.095 38.918 38.773 38.605 38.428 38.27 38.055 37.848 37.618 37.43 37.195 36.963 36.768 36.575 36.41 36.153 35.883 35.68 35.528 35.383 35.285 35.175 35.033 34.925 35.265 34.695 35.575 35.333 34.885 34.92 34.55 34.413 34.043 34.083 33.94 33.84 33.743 33.668 33.605 33.555 33.513 33.478 33.4 33.343 33.18 32.928 32.733 32.555 32.403 32.31 32.208 32.148 32.11 32.11 32.078 32.115 32.133 31.988 32.173 32.05 32.315 32.755 32.215 31.88 31.85 31.813 31.725 31.64 31.598 31.505 31.41 31.285 31.193 31.103 31.003 30.855 30.793 30.705 30.642 30.592 30.547 30.585 30.56 30.5 30.437 30.38 30.297 30.24 30.145 30.082 30.04 30.045 29.967 29.88 29.882 29.84 29.785 29.695 29.595 29.532 29.465 29.392 29.297 29.167 29.02 28.92 28.807 28.682 28.56 28.462 28.415 28.345 28.302 28.245 28.135 28 27.885 27.835 27.745 27.725 27.757 27.922 28.082 27.88 27.682 27.337 27.472 27.117 27.055 27.04 26.975 27.13 26.875 26.675 26.505 26.152 25.812 25.645 25.52 25.44 25.487 25.902 25.28 25.277 25.292 25.727 25.717 25.007 24.825 24.68 24.555 24.46 24.802 26.437 25.695 24.165 23.605 23.582 23.472 23.362 23.292 23.225 23.142 23.105 23.032 22.945 22.835 22.782 22.67 22.667 22.607 22.475 22.377 22.242 22.162 22.07 22.045 22.027 21.997 21.942 21.862 21.832 21.769 21.737 21.727 21.702 21.662 21.629 21.562 21.597 21.554 21.539 21.549 21.559 21.539 21.519 21.469 21.462 21.402 21.337 21.319 21.264 21.237 21.192 21.144 21.117 21.069 21.019 20.962 20.879 20.842 20.769 20.657 20.579 20.532 20.442 20.412 20.337 20.254 20.209 20.184 20.114 20.072 20.004 19.972 19.897 19.837 19.767 19.699 19.637 19.599 19.537 19.452 19.397 19.302 19.219 19.152 19.062 18.989 18.934 18.849 18.797 18.709 18.667 18.607 18.539 18.512 18.444 18.367 18.279 18.204 18.109 18.037 17.949 17.879 17.797 17.742 17.679 17.602 17.572 17.529 17.477 17.414 17.362 17.302 17.252 17.217 17.157 17.107 17.079 17.019 16.969 16.909 16.867
53.398 53.628 53.881 54.096 54.191 54.386 54.583 54.751 54.951 55.163 55.276 55.436 55.611 55.743 55.858 56.001 56.153 56.336 56.511 56.591 56.728 56.863 56.968 57.096 57.121 57.213 57.331 57.376 57.471 57.558 57.613 57.706 57.768 57.838 57.863 57.888 57.891 57.893 57.943 57.958 57.943 57.938 57.921 57.93 57.883 57.845 57.813 57.723 57.693 57.663 57.638 57.605 57.56 57.443 57.343 57.208 57.13 57.045 56.965 56.938 56.885 56.775 56.708 56.64 56.543 56.433 56.285 56.183 56.005 56.02 57.108 55.323 55.145 55.15 55.818 56.075 54.67 54.505 54.283 54.1 53.89 53.59 53.233 52.953 52.718 52.423 52.108 51.905 51.6 51.168 50.728 50.478 50.205 49.86 49.563 49.325 49.07 49.04 49.383 49.258 48.958 49.455 48.713 47.975 47.918 48.58 50.383 50.803 51.723 47.503 45.638 45.415 45.21 45.413 45.293 45.393 45.175 45.11 44.578 43.71 43.325 43.093 42.83 42.638 42.458 42.19 41.968 41.778 41.573 41.36 41.11 40.86 40.608 40.285 40.22 41.723 41.828 41.503 40.708 40.41 40.435 40.48 40.505 40.505 40.535 40.533 40.57 40.57 40.53 40.48 40.435 40.418 40.363 40.31 40.28 40.185 40.17 40.168 40.118 40.028 39.878 39.71 39.65 39.558 39.413 39.24 39.055 38.91 38.758 38.588 38.408 38.18 37.943 37.75 37.563 37.325 37.093 36.865 36.663 36.513 36.248 35.98 35.805 35.638 35.483 35.403 35.263 35.14 34.985 34.775 34.493 34.703 34.875 34.515 34.515 34.373 34.235 34.285 34.57 34.1 33.955 33.86 33.818 33.788 33.758 33.698 33.648 33.583 33.44 33.305 33.145 32.845 32.705 32.558 32.483 32.433 32.403 32.388 32.378 32.335 32.268 32.328 32.363 32.39 32.258 32.29 32.518 32.253 32.085 31.998 31.93 31.855 31.783 31.675 31.553 31.438 31.305 31.203 31.14 31.043 30.965 30.875 30.773 30.68 30.64 30.582 30.567 30.567 30.527 30.472 30.39 30.32 30.242 30.21 30.162 30.14 30.1 30.02 29.965 29.952 29.935 29.87 29.767 29.657 29.542 29.49 29.417 29.31 29.147 29.017 28.93 28.84 28.727 28.61 28.515 28.42 28.375 28.307 28.265 28.155 28.037 27.927 27.8 27.712 27.662 27.622 27.6 27.537 27.425 27.307 27.205 27.305 27.005 26.992 26.88 26.83 26.66 26.755 26.46 26.237 26.202 25.995 25.865 25.752 25.617 25.587 25.507 25.465 25.41 25.295 25.41 25.212 24.99 24.82 24.66 24.562 24.512 25.122 26.587 24.397 23.79 23.75 23.625 23.522 23.445 23.357 23.3 23.247 23.192 23.127 23 22.867 22.805 22.722 22.667 22.567 22.495 22.417 22.32 22.215 22.162 22.122 22.102 22.039 21.979 21.922 21.869 21.814 21.774 21.774 21.729 21.674 21.654 21.617 21.627 21.602 21.584 21.589 21.569 21.574 21.519 21.469 21.464 21.414 21.409 21.374 21.319 21.272 21.239 21.207 21.154 21.082 21.014 20.977 20.929 20.859 20.762 20.647 20.599 20.544 20.487 20.454 20.369 20.299 20.234 20.187 20.139 20.079 20.012 19.942 19.902 19.794 19.739 19.644 19.594 19.579 19.492 19.417 19.354 19.279 19.204 19.119 19.082 19.027 18.954 18.879 18.789 18.712 18.637 18.549 18.489 18.422 18.352 18.282 18.229 18.137 18.059 18.002 17.907 17.812 17.759 17.704 17.649 17.592 17.559 17.484 17.432 17.387 17.329 17.257 17.212 17.187 17.134 17.102 17.054 17.027 16.979 16.927 16.857
53.381 53.601 53.841 54.061 54.206 54.401 54.616 54.791 55.023 55.246 55.376 55.536 55.683 55.831 55.931 56.061 56.221 56.393 56.513 56.631 56.791 56.908 57.013 57.146 57.198 57.283 57.396 57.463 57.531 57.578 57.663 57.738 57.811 57.853 57.891 57.896 57.911 57.961 58.001 58.023 58.031 58.021 57.998 57.958 57.92 57.85 57.81 57.755 57.725 57.72 57.68 57.65 57.63 57.528 57.415 57.313 57.178 57.12 57.053 57.028 56.953 56.865 56.773 56.665 56.57 56.485 56.388 56.273 56.105 56.07 56.668 56 55.165 55.165 55.485 56.148 54.828 54.535 54.335 54.138 53.965 53.725 53.388 53.125 52.878 52.595 52.298 52.063 51.798 51.433 51.028 50.828 50.498 50.18 49.853 49.555 49.325 49.135 48.948 48.655 48.433 48.173 47.745 47.593 47.635 47.41 47.14 50.19 50 46.145 45.805 45.595 45.403 45.11 44.87 44.648 44.383 44.118 43.775 43.595 43.445 43.203 42.905 42.713 42.51 42.288 42.043 41.795 41.56 41.238 40.92 40.698 40.55 40.388 40.388 41.308 41.723 41.478 40.665 40.63 40.635 40.713 40.76 40.823 40.858 40.885 40.903 40.903 40.855 40.84 40.805 40.748 40.678 40.635 40.568 40.45 40.39 40.33 40.28 40.2 40.048 39.895 39.798 39.695 39.568 39.383 39.22 39.078 38.878 38.728 38.523 38.295 38.095 37.885 37.665 37.47 37.238 37.02 36.793 36.563 36.31 36.065 35.903 35.778 35.613 35.523 35.403 35.265 35.035 34.82 34.558 34.838 34.568 34.425 34.475 34.488 34.39 34.46 34.72 34.218 34.115 34.065 34.045 33.955 33.903 33.85 33.79 33.738 33.615 33.458 33.33 33.125 32.95 32.81 32.705 32.678 32.64 32.633 32.628 32.598 32.54 32.513 32.493 32.635 32.483 32.423 32.343 32.305 32.25 32.183 32.088 31.988 31.823 31.685 31.638 31.5 31.375 31.303 31.163 31.12 30.968 30.833 30.783 30.705 30.685 30.627 30.61 30.575 30.512 30.497 30.41 30.352 30.275 30.245 30.192 30.177 30.157 30.095 30.035 30.012 29.982 29.935 29.835 29.697 29.565 29.485 29.42 29.282 29.17 29.072 28.975 28.885 28.797 28.687 28.592 28.485 28.395 28.327 28.267 28.2 28.112 28.022 27.9 27.825 28.175 28.122 27.557 27.435 27.342 27.235 27.13 27.212 27.01 26.92 26.917 26.747 26.82 26.535 26.415 26.36 26.487 26.382 26.08 26.035 26.032 25.747 25.772 25.682 25.397 25.28 25.197 25.072 24.965 24.82 24.667 24.58 25.117 26.307 24.84 24.095 23.847 23.837 23.695 23.582 23.512 23.475 23.375 23.327 23.215 23.157 23.047 22.985 22.922 22.87 22.742 22.665 22.597 22.485 22.372 22.272 22.232 22.177 22.162 22.099 22.034 21.982 21.919 21.882 21.874 21.849 21.817 21.747 21.717 21.697 21.704 21.672 21.647 21.682 21.664 21.619 21.592 21.539 21.494 21.437 21.429 21.352 21.289 21.262 21.212 21.197 21.147 21.104 21.054 21.007 20.944 20.879 20.807 20.709 20.629 20.562 20.507 20.432 20.379 20.287 20.237 20.177 20.137 20.104 20.032 19.952 19.887 19.799 19.729 19.684 19.589 19.547 19.474 19.402 19.359 19.294 19.214 19.147 19.084 18.989 18.887 18.819 18.747 18.687 18.639 18.567 18.507 18.432 18.359 18.252 18.144 18.094 17.999 17.942 17.867 17.797 17.752 17.662 17.597 17.537 17.494 17.439 17.404 17.372 17.304 17.234 17.187 17.137 17.104 17.044 17.014 16.979 16.944 16.909 16.862
53.443 53.678 53.888 54.043 54.223 54.416 54.606 54.818 55.043 55.241 55.416 55.588 55.748 55.906 56.001 56.163 56.331 56.493 56.576 56.693 56.858 56.951 57.093 57.141 57.216 57.326 57.436 57.503 57.588 57.668 57.738 57.841 57.886 57.923 57.941 57.958 57.971 58.011 58.023 58.006 58.043 58.053 58.041 58.008 57.95 57.94 57.88 57.825 57.768 57.788 57.698 57.68 57.673 57.603 57.525 57.398 57.28 57.195 57.15 57.095 56.998 56.92 56.858 56.76 56.665 56.565 56.48 56.383 56.193 56.105 56.64 56.29 55.21 55.2 55.323 55.91 55.413 54.558 54.393 54.188 54.035 53.808 53.498 53.25 53.028 52.753 52.428 52.153 51.888 51.573 51.215 50.99 50.675 50.38 50.085 49.748 49.498 49.325 49.145 48.805 48.56 48.308 47.928 47.655 47.48 47.345 47.238 47.71 48.363 46.283 46.093 45.855 45.63 45.345 45.093 44.845 44.578 44.265 43.92 43.685 43.533 43.328 43.023 42.773 42.578 42.338 42.053 41.815 41.605 41.233 41.093 41.033 40.89 40.66 40.478 40.573 41.215 41.123 40.82 40.873 40.863 40.938 40.99 41.073 41.078 41.14 41.19 41.183 41.203 41.165 41.178 41.123 41.058 40.968 40.865 40.7 40.628 40.538 40.473 40.368 40.243 40.065 39.95 39.808 39.673 39.51 39.363 39.208 39.058 38.89 38.665 38.438 38.193 37.993 37.795 37.603 37.358 37.165 36.95 36.7 36.5 36.213 36.028 35.888 35.773 35.678 35.583 35.405 35.075 34.808 34.655 35.228 36.565 35.423 34.93 34.738 34.543 34.538 34.695 34.405 34.338 34.283 34.203 34.155 34.103 33.965 33.9 33.803 33.703 33.633 33.473 33.368 33.198 33.093 32.975 32.98 32.935 32.888 32.848 32.773 32.743 32.678 32.633 32.67 32.628 32.59 32.535 32.458 32.403 32.363 32.278 32.153 31.978 31.833 31.685 31.568 33.18 32.378 31.208 31.13 30.933 30.86 30.793 30.725 30.69 30.675 30.697 30.64 30.587 30.505 30.437 30.37 30.312 30.307 30.275 30.26 30.242 30.185 30.142 30.06 30.021 29.958 29.838 29.734 29.595 29.499 29.41 29.287 29.202 29.106 29.036 28.975 28.877 28.762 28.65 28.56 28.472 28.402 28.342 28.292 28.227 28.127 28.037 27.96 28.282 28.045 27.565 27.46 27.352 27.27 27.18 27.06 26.965 26.91 26.802 26.685 26.625 26.52 26.452 26.497 26.462 26.322 26.132 26.175 26.172 26.11 26.412 26.12 25.67 25.335 25.267 25.147 25.025 24.827 24.692 24.662 27.082 25.932 24.197 23.95 24.02 23.91 23.775 23.66 23.612 23.522 23.437 23.412 23.34 23.205 23.142 23.072 22.997 22.892 22.79 22.73 22.64 22.532 22.43 22.312 22.29 22.272 22.22 22.212 22.132 22.047 22.029 21.984 21.972 21.954 21.884 21.849 21.842 21.839 21.804 21.792 21.752 21.702 21.687 21.632 21.594 21.567 21.519 21.464 21.422 21.407 21.334 21.292 21.262 21.227 21.197 21.137 21.059 20.974 20.889 20.814 20.734 20.679 20.622 20.524 20.477 20.402 20.349 20.304 20.249 20.204 20.134 20.094 20.047 19.972 19.884 19.789 19.729 19.669 19.614 19.547 19.477 19.397 19.322 19.259 19.212 19.134 19.024 18.962 18.892 18.827 18.759 18.669 18.599 18.534 18.509 18.422 18.324 18.249 18.149 18.079 18.037 17.957 17.902 17.804 17.724 17.664 17.584 17.502 17.434 17.402 17.329 17.262 17.184 17.162 17.157 17.127 17.074 17.052 17.007 16.949 16.892 16.817 16.769
53.493 53.706 53.943 54.088 54.268 54.473 54.651 54.878 55.091 55.246 55.433 55.596 55.766 55.908 56.026 56.201 56.378 56.531 56.646 56.783 56.953 57.051 57.176 57.266 57.326 57.396 57.443 57.541 57.598 57.713 57.788 57.891 57.961 57.958 58.013 58.013 58.003 58.053 58.068 58.086 58.118 58.151 58.108 58.073 58.005 58.013 57.945 57.908 57.86 57.833 57.775 57.745 57.735 57.663 57.553 57.445 57.355 57.293 57.238 57.168 57.088 57.028 56.94 56.845 56.73 56.638 56.535 56.435 56.28 56.165 56.57 56.615 55.273 55.238 55.29 56.065 55.715 54.605 54.45 54.245 54.088 53.89 53.6 53.345 53.133 52.888 52.538 52.27 51.958 51.618 51.355 51.105 50.838 50.5 50.233 49.92 49.66 49.47 49.23 48.923 48.725 48.453 48.083 47.8 47.585 47.418 47.215 46.988 46.733 46.515 46.263 45.98 45.758 45.553 45.263 45.008 44.738 44.425 44.08 43.803 43.555 43.373 43.133 42.88 42.625 42.33 42.113 41.928 41.74 41.523 41.448 41.28 41.068 40.833 40.63 40.735 41.678 41.08 41.02 41.063 41.135 41.223 41.265 41.32 41.375 41.455 41.51 41.485 41.513 41.498 41.483 41.438 41.38 41.268 41.133 40.95 40.865 40.745 40.705 40.6 40.42 40.27 40.078 39.925 39.788 39.66 39.535 39.348 39.215 39.025 38.81 38.58 38.36 38.118 37.913 37.695 37.48 37.308 37.09 36.898 36.673 36.398 36.19 36.023 35.943 35.815 35.708 35.485 35.208 35.015 34.888 35.938 35.8 34.94 35.315 35.253 34.658 34.688 34.83 34.538 34.42 34.4 34.343 34.255 34.195 34.093 33.99 33.945 33.863 33.828 33.725 33.575 33.44 33.303 33.29 33.238 33.203 33.113 32.99 32.955 32.938 32.883 32.893 32.858 32.82 32.778 32.73 32.618 32.543 32.545 32.478 32.495 32.05 33.063 31.773 31.55 35.415 32.658 31.243 31.16 30.925 30.835 30.755 30.76 30.692 30.667 30.625 30.63 30.535 30.437 30.375 30.365 30.34 30.345 30.31 30.292 30.252 30.21 30.181 30.098 30.045 29.973 29.85 29.737 29.585 29.472 29.379 29.304 29.22 29.139 29.083 28.986 28.917 28.821 28.733 28.665 28.59 28.492 28.395 28.36 28.3 28.21 28.09 27.972 27.812 27.7 27.57 27.497 27.39 27.365 27.225 27.1 27.017 26.935 26.812 26.705 26.637 26.567 26.525 26.5 26.53 26.335 26.16 26.395 26.232 26.08 26.23 26.055 25.505 25.392 25.275 25.19 25.03 24.86 24.735 25.615 26.997 25.847 24.262 24.072 24.092 23.952 23.83 23.782 23.697 23.62 23.567 23.562 23.415 23.317 23.21 23.152 23.047 22.935 22.875 22.777 22.672 22.572 22.465 22.407 22.35 22.357 22.307 22.282 22.212 22.172 22.112 22.079 22.019 21.987 21.947 21.922 21.912 21.902 21.864 21.819 21.794 21.757 21.732 21.724 21.689 21.637 21.594 21.534 21.449 21.454 21.412 21.357 21.272 21.232 21.144 21.097 21.019 20.972 20.909 20.857 20.754 20.679 20.602 20.562 20.494 20.429 20.359 20.307 20.257 20.197 20.132 20.079 19.992 19.912 19.859 19.782 19.722 19.662 19.592 19.514 19.437 19.389 19.339 19.259 19.212 19.119 19.044 18.954 18.877 18.804 18.739 18.669 18.622 18.544 18.474 18.412 18.294 18.239 18.152 18.094 18.052 17.962 17.874 17.779 17.717 17.632 17.587 17.547 17.484 17.432 17.339 17.244 17.204 17.169 17.134 17.077 17.029 16.984 16.967 16.892 16.857 16.837 16.777
53.553 53.756 53.961 54.136 54.323 54.506 54.718 54.911 55.123 55.321 55.481 55.658 55.818 55.948 56.088 56.223 56.378 56.566 56.661 56.841 57.001 57.153 57.251 57.291 57.391 57.473 57.558 57.641 57.696 57.786 57.866 57.936 57.973 58.013 58.048 58.063 58.063 58.108 58.136 58.153 58.206 58.196 58.166 58.105 58.078 58.05 58.005 57.94 57.92 57.898 57.853 57.805 57.8 57.718 57.608 57.538 57.415 57.363 57.31 57.243 57.178 57.105 56.983 56.903 56.81 56.7 56.603 56.508 56.343 56.208 56.355 57.118 55.448 55.278 55.253 55.863 56.143 54.758 54.48 54.28 54.098 53.915 53.66 53.428 53.185 52.963 52.68 52.38 52.02 51.675 51.468 51.22 50.928 50.66 50.385 50.085 49.848 49.633 49.343 49.038 48.873 48.54 48.238 47.943 47.703 47.5 47.303 47.1 46.918 46.715 46.425 46.095 45.893 45.658 45.365 45.14 44.825 44.548 44.313 44.015 43.73 43.455 43.185 42.923 42.65 42.438 42.265 42.075 41.955 41.82 41.683 41.475 41.298 41.023 40.91 41.403 41.653 41.15 41.203 41.275 41.358 41.438 41.47 41.535 41.63 41.738 41.765 41.755 41.76 41.81 41.808 41.765 41.693 41.588 41.378 41.22 41.083 40.968 40.835 40.758 40.643 40.425 40.255 40.085 39.94 39.793 39.663 39.483 39.318 39.15 38.978 38.733 38.5 38.263 38.07 37.82 37.603 37.42 37.203 37.02 36.805 36.62 36.393 36.24 36.133 35.935 35.783 35.593 35.428 35.27 35.095 35.31 35.2 34.878 34.953 34.83 34.73 34.795 35.135 34.903 34.51 34.513 34.465 34.393 34.373 34.273 34.155 34.128 34.038 33.935 33.855 33.798 33.678 33.643 33.533 33.448 33.393 33.303 33.23 33.143 33.105 33.075 33.075 33.063 33.008 32.968 32.9 32.82 32.865 32.928 32.633 32.778 32.445 33.37 32.515 31.693 32.333 31.705 31.203 31.145 30.948 30.795 30.703 30.735 30.702 30.615 30.577 30.467 30.4 30.392 30.37 30.357 30.357 30.375 30.37 30.335 30.322 30.237 30.145 30.082 30.031 30.003 29.888 29.744 29.584 29.475 29.41 29.327 29.237 29.174 29.106 29.031 28.943 28.856 28.788 28.728 28.657 28.565 28.492 28.405 28.355 28.267 28.112 27.95 27.82 27.707 27.65 27.525 27.425 27.342 27.255 27.15 27.065 26.99 26.905 26.807 26.722 26.695 26.6 26.557 26.595 26.387 26.215 26.387 26.055 26.035 26.005 26.07 25.545 25.412 25.312 25.19 25.042 25.055 26.097 26.505 26.777 24.677 24.19 24.2 24.165 24.01 23.905 23.862 23.8 23.692 23.632 23.615 23.477 23.365 23.315 23.247 23.115 23.03 22.972 22.89 22.77 22.66 22.57 22.542 22.467 22.43 22.397 22.329 22.284 22.217 22.177 22.139 22.099 22.054 22.057 22.017 21.977 21.982 21.909 21.919 21.854 21.867 21.812 21.774 21.764 21.667 21.604 21.514 21.452 21.407 21.327 21.297 21.222 21.147 21.117 21.084 21.072 21.002 20.914 20.852 20.744 20.689 20.607 20.569 20.502 20.432 20.379 20.309 20.239 20.177 20.124 20.049 19.967 19.894 19.819 19.759 19.702 19.632 19.569 19.509 19.454 19.374 19.289 19.234 19.179 19.124 19.057 18.974 18.904 18.822 18.729 18.679 18.649 18.554 18.474 18.399 18.347 18.202 18.124 18.067 18.027 17.974 17.859 17.769 17.684 17.602 17.567 17.502 17.452 17.374 17.332 17.287 17.222 17.167 17.107 17.069 17.009 16.987 16.974 16.922 16.862 16.802 16.722
53.638 53.863 54.031 54.211 54.393 54.566 54.748 54.986 55.191 55.371 55.523 55.698 55.856 55.966 56.106 56.253 56.438 56.583 56.706 56.891 57.018 57.191 57.261 57.351 57.411 57.521 57.621 57.718 57.776 57.891 57.948 58.058 58.068 58.098 58.138 58.156 58.151 58.191 58.221 58.193 58.231 58.256 58.208 58.158 58.138 58.113 58.05 58.01 58.008 57.993 57.938 57.883 57.853 57.778 57.675 57.605 57.483 57.413 57.355 57.29 57.25 57.165 57.043 56.975 56.833 56.74 56.645 56.555 56.39 56.225 56.23 56.965 55.578 55.285 55.243 55.84 55.998 55.253 54.54 54.353 54.128 53.918 53.723 53.51 53.25 53.045 52.813 52.445 52.098 51.708 51.55 51.335 51.058 50.798 50.575 50.278 50.033 49.775 49.488 49.18 48.978 48.615 48.365 48.108 47.85 47.608 47.435 47.19 47.01 46.845 46.605 46.268 46.035 45.8 45.455 45.22 44.958 44.713 44.488 44.173 43.875 43.568 43.245 43.018 42.76 42.568 42.443 42.295 42.233 42.113 41.928 41.718 41.54 41.265 41.7 42.793 41.598 41.348 41.438 41.46 41.593 41.655 41.71 41.755 41.888 41.96 41.983 41.993 42.055 42.108 42.1 42.05 41.993 41.85 41.648 41.495 41.313 41.23 41.108 41.005 40.868 40.61 40.415 40.235 40.088 39.903 39.76 39.595 39.425 39.285 39.103 38.863 38.658 38.43 38.23 37.978 37.74 37.47 37.278 37.115 36.938 36.815 36.608 36.485 36.358 36.135 35.908 35.738 35.623 35.463 35.323 35.698 34.988 34.513 34.893 34.978 34.978 34.868 35.548 34.788 34.693 34.62 34.535 34.538 34.503 34.413 34.375 34.315 34.2 34.075 34.003 33.935 33.903 33.88 33.743 33.645 33.58 33.51 33.435 33.333 33.265 33.248 33.248 33.233 33.198 33.133 33.028 33.175 33.768 33.268 32.728 32.56 32.405 31.935 31.733 33.63 32.35 31.645 31.228 31.125 30.96 30.835 30.755 30.697 30.66 30.62 30.49 30.38 30.315 30.412 30.375 30.365 30.41 30.422 30.395 30.374 30.322 30.23 30.147 30.076 30.017 29.968 29.862 29.718 29.618 29.487 29.395 29.338 29.26 29.218 29.166 29.065 28.972 28.91 28.841 28.798 28.717 28.64 28.58 28.505 28.422 28.33 28.17 28.02 27.885 27.815 27.735 27.612 27.515 27.415 27.332 27.225 27.142 27.067 26.98 26.87 26.795 26.727 26.635 26.56 26.552 26.46 26.25 26.13 26.022 25.947 25.867 25.792 25.59 25.455 25.345 25.235 25.105 25.13 30.052 29.075 25.51 24.452 24.292 24.277 24.165 24.09 24.055 23.982 23.882 23.807 23.69 23.637 23.572 23.475 23.427 23.327 23.222 23.12 23.035 22.945 22.825 22.695 22.617 22.59 22.545 22.492 22.457 22.409 22.369 22.304 22.292 22.244 22.217 22.167 22.157 22.117 22.094 22.082 22.034 21.977 21.922 21.887 21.834 21.784 21.712 21.632 21.577 21.532 21.437 21.372 21.364 21.304 21.277 21.217 21.137 21.104 21.044 20.914 20.687 20.729 20.717 20.667 20.642 20.562 20.479 20.427 20.364 20.272 20.229 20.162 20.092 19.969 19.917 19.854 19.789 19.714 19.657 19.609 19.547 19.477 19.427 19.359 19.327 19.242 19.172 19.117 19.034 18.982 18.912 18.837 18.752 18.689 18.632 18.567 18.504 18.399 18.307 18.242 18.182 18.087 17.987 17.962 17.894 17.809 17.759 17.694 17.614 17.554 17.472 17.374 17.309 17.249 17.164 17.097 17.049 17.039 16.984 16.972 16.952 16.867 16.807 16.717 16.644
53.776 53.946 54.093 54.276 54.441 54.606 54.833 55.076 55.261 55.446 55.578 55.748 55.896 55.996 56.186 56.306 56.466 56.583 56.761 56.916 57.091 57.226 57.326 57.381 57.451 57.553 57.683 57.756 57.831 57.923 58.008 58.121 58.108 58.176 58.213 58.233 58.261 58.291 58.326 58.288 58.318 58.308 58.273 58.24 58.213 58.143 58.113 58.075 58.07 58.045 58.02 57.96 57.945 57.835 57.765 57.695 57.593 57.508 57.445 57.4 57.348 57.228 57.13 57.023 56.918 56.793 56.713 56.608 56.47 56.275 56.185 56.85 55.788 55.313 55.263 55.94 56.045 55.41 54.61 54.41 54.235 54.01 53.78 53.553 53.298 53.123 52.878 52.553 52.155 51.778 51.578 51.42 51.163 50.96 50.7 50.433 50.168 49.903 49.6 49.31 49.093 48.74 48.47 48.215 47.98 47.763 47.563 47.31 47.143 46.988 46.713 46.443 46.21 45.988 45.6 45.31 45.108 44.863 44.608 44.31 43.993 43.633 43.32 43.118 42.913 42.74 42.608 42.553 42.443 42.285 42.115 41.865 41.665 41.483 41.583 42.123 41.57 41.543 41.645 41.705 41.745 41.805 41.913 42.013 42.15 42.198 42.178 42.248 42.35 42.4 42.395 42.32 42.278 42.093 41.93 41.768 41.55 41.445 41.325 41.183 41.003 40.788 40.573 40.39 40.21 40.018 39.875 39.728 39.575 39.443 39.208 39.03 38.795 38.573 38.335 38.123 37.885 37.608 37.403 37.248 37.115 36.98 36.828 36.7 36.52 36.29 36.053 35.945 35.795 35.635 35.923 37.873 35.83 34.73 35.075 35.21 35.1 35.005 35.98 34.88 34.803 34.765 34.733 34.728 34.648 34.638 34.585 34.5 34.383 34.23 34.153 34.15 34.075 34.038 33.94 33.828 33.755 33.668 33.573 33.528 33.46 33.46 33.398 33.435 33.365 33.3 33.32 33.64 34.52 33.828 33.673 34.838 32.67 32.05 33.08 34.533 31.65 31.205 31.3 31.205 31.018 30.845 30.803 30.717 30.64 30.585 30.482 30.407 30.387 30.387 30.387 30.395 30.447 30.43 30.418 30.401 30.269 30.196 30.141 30.076 30.019 29.948 29.847 29.759 29.664 29.547 29.424 29.374 29.321 29.278 29.219 29.126 29.027 28.976 28.908 28.863 28.776 28.688 28.615 28.56 28.482 28.36 28.207 28.082 27.942 27.867 27.785 27.69 27.57 27.497 27.387 27.31 27.205 27.11 27.025 26.92 26.837 26.755 26.647 26.592 26.537 26.437 26.297 26.15 26.065 25.957 25.855 25.735 25.61 25.477 25.347 25.252 25.095 26.267 28.042 26.26 24.975 24.402 24.42 24.33 24.242 24.172 24.115 24.035 23.907 23.86 23.772 23.672 23.58 23.52 23.47 23.365 23.285 23.185 23.102 22.977 22.875 22.782 22.745 22.662 22.622 22.602 22.545 22.527 22.467 22.407 22.374 22.369 22.334 22.287 22.237 22.204 22.162 22.159 22.119 22.079 22.024 21.957 21.912 21.857 21.779 21.714 21.659 21.592 21.547 21.474 21.434 21.347 21.302 21.239 21.159 21.119 21.014 20.877 20.642 20.757 20.662 20.637 20.584 20.569 20.507 20.434 20.342 20.247 20.149 20.119 20.049 19.964 19.939 19.872 19.812 19.714 19.652 19.584 19.529 19.459 19.434 19.364 19.322 19.264 19.169 19.127 19.039 18.934 18.882 18.824 18.749 18.714 18.614 18.554 18.507 18.447 18.339 18.222 18.147 18.052 17.984 17.907 17.832 17.734 17.654 17.589 17.489 17.432 17.372 17.314 17.252 17.212 17.124 17.014 16.984 16.972 16.967 16.977 17.454 17.784 16.874 16.942 16.832
53.826 54.001 54.178 54.356 54.521 54.706 54.936 55.138 55.371 55.526 55.661 55.843 55.973 56.083 56.223 56.393 56.533 56.643 56.843 56.966 57.143 57.228 57.333 57.431 57.468 57.583 57.701 57.773 57.888 57.963 58.073 58.153 58.148 58.208 58.261 58.273 58.326 58.373 58.386 58.386 58.408 58.403 58.388 58.328 58.288 58.235 58.18 58.163 58.115 58.088 58.048 58.013 57.975 57.888 57.825 57.743 57.64 57.573 57.52 57.478 57.403 57.318 57.17 57.103 57 56.84 56.76 56.643 56.533 56.348 56.24 56.545 56.47 55.35 55.35 55.568 56.25 55.593 54.693 54.49 54.308 54.03 53.795 53.573 53.333 53.128 52.91 52.603 52.21 51.843 51.65 51.465 51.228 51.028 50.8 50.528 50.265 49.993 49.683 49.418 49.173 48.853 48.583 48.323 48.068 47.845 47.635 47.435 47.22 47.018 46.798 46.603 46.413 46.195 45.815 45.473 45.28 45.005 44.698 44.35 43.993 43.71 43.503 43.313 43.098 42.945 42.908 42.803 42.635 42.47 42.293 42.043 41.833 42.175 42.195 42.065 41.658 41.763 41.85 41.883 41.955 42.033 42.18 42.3 42.438 42.473 42.493 42.508 42.563 42.62 42.59 42.52 42.455 42.318 42.13 41.94 41.775 41.648 41.538 41.383 41.128 40.928 40.728 40.548 40.338 40.15 40.003 39.818 39.688 39.545 39.358 39.173 38.94 38.713 38.51 38.288 38.053 37.823 37.603 37.383 37.243 37.08 36.983 36.835 36.645 36.448 36.22 36.098 35.93 35.755 35.843 36.325 35.698 34.855 35.015 35.245 35.352 35.255 37.145 38.905 37.455 34.94 34.912 34.915 34.815 34.76 34.672 34.592 36.565 34.647 34.435 34.362 34.345 34.33 34.152 34.035 33.895 33.827 33.775 33.737 33.702 33.685 33.66 33.617 33.57 33.63 33.812 33.602 33.715 33.517 34.437 35.19 33.195 32.132 32.75 34.062 31.455 31.375 31.322 31.21 31.087 30.965 30.865 30.707 30.627 30.562 30.502 30.465 30.46 30.447 30.44 30.41 30.475 30.494 30.511 30.467 30.297 30.191 30.132 30.059 29.957 29.905 29.873 29.822 29.722 29.618 29.506 29.438 29.394 29.316 29.262 29.186 29.089 29.023 28.961 28.89 28.808 28.73 28.649 28.583 28.51 28.385 28.257 28.16 28.017 27.93 27.835 27.72 27.627 27.522 27.412 27.32 27.205 27.117 27.012 26.917 26.797 26.72 26.647 26.602 26.542 26.44 26.415 26.225 26.105 26.005 25.87 25.752 25.665 25.505 25.387 25.27 25.125 26.702 27.74 25.477 24.567 24.515 24.475 24.405 24.262 24.272 24.22 24.057 23.975 23.882 23.807 23.667 23.622 23.572 23.5 23.415 23.34 23.252 23.167 23.067 22.96 22.897 22.832 22.792 22.732 22.685 22.642 22.607 22.529 22.494 22.482 22.444 22.402 22.362 22.332 22.284 22.272 22.234 22.182 22.159 22.119 22.064 22.007 21.942 21.894 21.822 21.754 21.602 21.527 21.469 21.447 21.357 21.314 21.227 21.129 21.029 20.934 20.822 20.719 20.707 20.637 20.582 20.579 20.547 20.497 20.414 20.352 20.237 20.152 20.112 20.037 19.992 19.919 19.859 19.789 19.739 19.664 19.609 19.562 19.479 19.429 19.354 19.287 19.207 19.174 19.119 19.034 18.977 18.919 18.847 18.794 18.742 18.644 18.557 18.497 18.382 18.299 18.169 18.082 17.982 17.869 17.794 17.719 17.584 17.494 17.429 17.334 17.267 17.244 17.219 18.489 20.577 17.167 17.119 17.382 17.297 18.604 18.984 22.822 21.894 16.754 16.642 16.437
53.878 54.066 54.266 54.428 54.581 54.776 55.018 55.221 55.428 55.568 55.741 55.931 56.056 56.168 56.293 56.483 56.613 56.741 56.931 57.093 57.248 57.288 57.386 57.483 57.546 57.626 57.746 57.831 57.941 58.021 58.121 58.168 58.211 58.258 58.291 58.318 58.346 58.396 58.438 58.431 58.463 58.438 58.436 58.378 58.363 58.308 58.238 58.235 58.215 58.188 58.143 58.1 58.038 57.983 57.903 57.813 57.733 57.633 57.6 57.583 57.503 57.403 57.258 57.178 57.065 56.923 56.833 56.713 56.558 56.398 56.28 56.48 56.833 55.373 55.348 55.383 56.193 55.72 54.758 54.56 54.308 54.02 53.815 53.6 53.353 53.13 52.923 52.595 52.23 51.91 51.693 51.53 51.308 51.098 50.91 50.615 50.288 50.028 49.733 49.508 49.24 48.928 48.695 48.418 48.133 47.95 47.778 47.59 47.318 47.073 46.875 46.72 46.58 46.385 46.033 45.59 45.408 45.098 44.745 44.305 43.998 43.83 43.675 43.463 43.288 43.205 43.165 43.023 42.82 42.655 42.495 42.23 42.09 42.568 42.435 41.998 41.89 42.025 42.095 42.12 42.2 42.325 42.45 42.548 42.668 42.725 42.755 42.775 42.79 42.788 42.755 42.708 42.598 42.46 42.305 42.103 41.953 41.848 41.745 41.558 41.325 41.105 40.88 40.68 40.463 40.25 40.09 39.928 39.805 39.598 39.448 39.28 39.085 38.885 38.658 38.415 38.173 37.978 37.753 37.578 37.435 37.283 37.128 36.933 36.775 36.57 36.358 36.17 36.068 35.943 36.315 36.558 35.638 35.26 35.245 35.192 35.357 35.395 36.057 36.475 35.28 35.212 35.07 35.042 34.94 34.887 34.827 36.405 37.325 36.032 34.822 35.262 34.615 34.792 34.367 34.162 34.08 34.017 33.985 33.947 33.905 33.902 33.902 33.822 33.777 33.942 34.287 34.172 33.535 33.39 34.49 36.357 33.367 32.28 31.9 31.532 31.47 31.492 31.41 31.347 31.24 31.092 30.922 30.755 30.607 30.55 30.542 30.517 30.447 30.432 30.442 30.462 30.47 30.544 30.465 30.398 30.27 30.19 30.106 30.037 29.939 29.912 29.869 29.826 29.77 29.702 29.596 29.545 29.502 29.422 29.352 29.245 29.152 29.076 29.006 28.924 28.849 28.788 28.706 28.625 28.526 28.421 28.29 28.185 28.057 27.972 27.907 27.777 27.66 27.53 27.432 27.33 27.237 27.117 27.01 26.922 26.832 26.747 26.67 26.625 26.565 26.505 26.63 26.317 26.145 26.03 25.877 25.797 25.705 25.597 25.38 25.267 25.942 28.365 26.63 24.992 24.557 24.605 24.495 24.432 24.355 24.332 24.257 24.137 23.982 23.915 23.855 23.78 23.705 23.627 23.517 23.437 23.38 23.307 23.205 23.092 23.025 22.957 22.885 22.835 22.782 22.74 22.695 22.637 22.614 22.594 22.594 22.524 22.504 22.442 22.397 22.364 22.367 22.317 22.264 22.244 22.207 22.147 22.074 21.979 21.917 21.844 21.749 21.637 21.547 21.502 21.424 21.337 21.302 21.224 21.129 21.027 20.949 20.859 20.784 20.744 20.682 20.672 20.624 20.542 20.489 20.414 20.332 20.254 20.187 20.099 20.072 19.979 19.892 19.854 19.784 19.702 19.647 19.612 19.559 19.494 19.439 19.389 19.299 19.252 19.184 19.134 19.087 19.017 18.907 18.794 18.724 18.647 18.554 18.479 18.392 18.279 18.189 18.087 18.017 17.909 17.844 17.864 17.797 17.822 17.667 17.359 17.272 17.332 17.124 16.767 18.624 19.414 17.134 16.889 16.737 16.547 17.152 16.584 18.737 22.189 16.339 16.329 16.337
