ncols 427
nrows 31
xllcorner    458120
yllcorner    88800
cellsize     2
NODATA_value -9999
31.239 31.194 31.132 31.062 31.009 30.969 30.932 30.874 30.834 30.747 30.682 30.607 30.557 30.519 30.499 30.429 30.402 30.352 30.279 30.229 30.174 30.154 30.127 30.102 30.069 30.007 29.974 29.922 29.889 29.849 29.824 29.779 29.774 29.767 29.739 29.714 29.664 29.644 29.612 29.592 30.747 30.694 29.607 29.587 29.574 29.527 29.504 29.494 29.509 29.482 29.439 29.437 29.462 29.442 29.469 29.462 29.457 29.512 29.527 29.534 29.509 29.497 29.497 29.462 29.469 29.444 29.369 29.337 29.332 29.232 29.207 29.199 29.209 29.192 29.189 29.139 29.117 29.104 29.089 29.029 28.957 28.964 28.927 28.904 28.902 28.847 28.809 28.799 28.797 28.759 28.714 28.747 28.707 28.674 28.694 28.664 28.634 28.554 28.537 28.562 28.529 28.509 28.464 28.429 28.439 28.404 28.379 28.352 28.317 28.377 28.304 28.249 28.154 28.124 28.069 28.049 28.024 27.964 27.999 27.987 27.999 32.524 33.437 28.029 28.062 28.042 28.047 28.092 28.159 28.209 28.612 28.322 28.357 28.424 28.504 28.569 28.602 28.639 28.694 28.819 28.884 28.916 28.994 29.866 29.191 29.334 30.059 29.636 29.521 29.556 29.766 32.899 30.386 30.599 30.909 33.766 30.366 29.986 30.011 30.021 31.056 31.929 31.156 30.674 30.704 30.749 30.451 30.501 30.566 30.701 30.824 31.471 32.321 31.086 31.089 31.174 31.261 31.376 31.416 31.419 31.401 31.419 31.469 31.509 31.496 31.509 31.541 31.546 31.559 31.569 31.601 31.651 31.664 31.679 31.676 31.654 31.644 31.614 31.601 31.586 31.549 31.521 31.474 31.429 31.341 31.296 31.214 31.181 31.134 31.129 31.069 31.019 31.031 31.026 31.021 31.046 31.089 31.114 31.159 31.226 31.314 31.404 31.484 31.556 31.644 31.706 31.809 31.856 31.919 32.034 32.101 32.189 32.294 32.419 32.516 32.636 32.691 32.741 32.794 32.819 32.881 33.071 33.236 33.341 33.361 33.459 33.644 33.749 33.811 33.901 33.981 34.119 34.281 34.426 34.554 34.714 34.886 35.066 35.234 35.381 35.459 35.589 35.704 35.774 35.891 36.011 36.101 36.224 36.329 36.479 36.616 36.719 36.801 36.874 36.964 37.039 37.059 37.101 37.129 37.174 37.219 37.226 37.256 37.221 37.209 37.199 37.199 37.166 37.169 37.141 37.154 37.144 37.176 37.166 37.141 37.104 37.046 37.006 36.979 36.916 36.829 36.719 36.594 36.504 36.381 36.256 36.156 36.121 36.044 35.981 35.934 35.839 35.756 35.706 35.589 35.524 35.244 35.986 35.484 35.189 35.064 34.931 34.801 34.656 34.551 34.451 34.334 34.141 33.909 33.724 33.564 33.419 33.266 33.124 32.984 32.811 32.689 32.551 32.356 32.169 31.989 31.791 31.616 31.379 31.189 31.081 31.399 31.379 30.391 30.219 30.159 30.494 30.529 29.446 29.206 29.099 28.961 28.816 28.731 28.624 28.526 28.449 28.389 28.296 28.184 28.081 28.011 27.999 27.959 27.889 27.854 27.826 27.794 27.766 27.766 27.759 27.759 27.756 27.769 27.764 27.754 27.804 27.816 27.829 27.849 27.896 27.914 27.889 27.886 27.874 27.879 27.884 27.894 27.921 27.911 27.919 27.891 27.904 27.859 27.841 27.814 27.776 27.736 27.729 27.709 27.661 27.629 27.629 27.619 27.614 27.571 27.554 27.556 27.521 27.504 27.484 27.444 27.411 27.359 27.334 27.289 27.284 27.246 27.249 27.226 27.196 27.191
31.132 31.119 31.052 30.994 30.957 30.924 30.867 30.807 30.744 30.682 30.614 30.542 30.517 30.489 30.457 30.387 30.339 30.297 30.214 30.199 30.154 30.122 30.099 30.109 30.032 29.987 29.914 29.849 29.857 29.809 29.772 29.779 29.782 29.759 29.752 29.707 29.667 29.632 29.617 29.934 31.304 29.762 29.627 29.642 29.617 29.544 29.557 29.562 29.554 29.562 29.507 29.439 29.459 29.489 29.524 29.519 29.494 29.532 29.552 29.544 29.527 29.512 29.497 29.489 29.472 29.407 29.389 29.357 29.352 29.364 29.279 29.257 29.274 29.234 29.179 29.137 29.102 29.114 29.074 29.049 28.989 29.009 28.972 28.927 28.894 28.847 28.822 28.819 28.802 28.769 28.744 28.752 28.717 28.697 28.694 28.664 28.609 28.567 28.542 28.564 28.524 28.499 28.479 28.459 28.462 28.404 28.369 28.354 28.332 28.339 28.324 28.259 28.179 28.129 28.087 28.054 27.904 28.044 28.009 27.974 28.072 28.067 28.097 28.069 28.204 29.897 28.529 28.164 28.162 28.237 28.254 28.337 28.357 28.422 28.487 28.549 28.619 28.642 28.709 28.849 28.906 28.946 28.984 29.039 29.186 29.354 29.414 29.564 29.559 29.826 30.561 31.841 31.464 32.369 33.634 33.599 30.364 30.006 30.051 30.486 31.144 31.421 30.524 30.589 30.554 30.686 30.914 30.616 30.981 30.769 31.426 32.629 31.391 31.071 31.154 31.259 31.356 31.459 31.449 31.444 31.484 31.511 31.549 31.569 31.571 31.601 31.634 31.639 31.686 31.699 31.704 31.744 31.761 31.761 31.736 31.744 31.716 31.716 31.706 31.679 31.651 31.629 31.579 31.549 31.494 31.431 31.381 31.351 31.341 31.241 31.204 31.174 31.184 31.174 31.169 31.221 31.256 31.279 31.341 31.409 31.541 31.621 31.724 31.784 31.871 31.961 32.044 32.129 32.189 32.266 32.309 32.411 32.524 32.654 32.784 32.881 32.966 33.029 33.056 33.091 33.164 33.249 33.431 33.516 33.584 33.671 33.866 34.011 34.054 34.154 34.211 34.339 34.459 34.606 34.719 34.896 35.054 35.284 35.434 35.599 35.714 35.831 35.901 36.014 36.149 36.239 36.351 36.461 36.589 36.741 36.841 36.924 37.026 37.091 37.184 37.211 37.281 37.291 37.374 37.421 37.439 37.494 37.476 37.454 37.479 37.459 37.416 37.406 37.364 37.361 37.401 37.399 37.396 37.381 37.344 37.309 37.261 37.244 37.186 37.126 37.044 36.956 36.831 36.719 36.621 36.499 36.471 36.376 36.311 36.221 36.134 36.086 36.026 35.971 35.826 35.919 36.069 35.939 35.471 35.334 35.256 35.089 34.961 34.874 34.776 34.624 34.439 34.226 34.074 33.896 33.729 33.586 33.434 33.289 33.094 32.944 32.759 32.674 32.496 32.314 32.081 31.889 31.736 31.529 31.271 31.121 31.149 31.716 30.909 30.264 30.214 30.241 30.971 30.444 29.306 29.204 29.141 28.969 28.824 28.769 28.646 28.551 28.504 28.414 28.324 28.231 28.144 28.096 28.029 27.989 27.951 27.901 27.889 27.864 27.814 27.829 27.846 27.831 27.821 27.816 27.824 27.844 27.846 27.881 27.906 27.929 27.941 27.914 27.901 27.904 27.911 27.919 27.926 27.916 27.941 27.934 27.939 27.901 27.899 27.886 27.836 27.794 27.776 27.726 27.694 27.646 27.641 27.624 27.629 27.616 27.599 27.596 27.596 27.546 27.541 27.499 27.444 27.389 27.349 27.346 27.299 27.271 27.244 27.244 27.201 27.221 27.204
31.092 31.052 30.982 30.937 30.887 30.862 30.799 30.742 30.699 30.632 30.584 30.527 30.444 30.467 30.424 30.369 30.327 30.279 30.207 30.204 30.179 30.124 30.107 30.097 29.997 29.962 29.894 29.849 29.809 29.809 29.794 29.802 29.752 29.759 29.754 29.694 29.679 29.672 29.639 30.529 31.334 29.722 29.662 29.674 29.652 29.577 29.599 29.607 29.609 29.614 29.627 29.512 29.524 29.559 29.612 29.562 29.522 29.544 29.554 29.554 29.537 29.549 29.547 29.512 29.492 29.454 29.392 29.382 29.362 29.307 29.289 29.284 29.289 29.229 29.167 29.147 29.127 29.114 29.062 29.039 29.029 29.014 28.992 28.939 28.912 28.857 28.804 28.819 28.794 28.752 28.764 28.739 28.719 28.704 28.669 28.652 28.619 28.594 28.602 28.557 28.559 28.492 28.479 28.489 28.457 28.414 28.369 28.354 28.342 28.337 28.302 28.259 28.207 28.164 28.084 28.062 27.912 27.992 28.004 28.032 28.112 28.032 28.099 28.099 28.234 30.242 28.419 28.147 28.137 28.224 28.249 28.314 28.334 28.389 28.462 28.522 28.587 28.639 28.717 28.854 28.926 28.949 28.996 29.054 29.194 29.439 29.554 29.626 29.641 29.946 30.759 31.231 29.986 30.514 32.684 31.256 29.984 29.971 30.121 31.381 31.796 30.539 30.424 30.491 30.549 31.076 31.784 32.046 33.141 31.834 31.464 31.451 31.169 31.179 31.251 31.349 31.434 31.494 31.501 31.524 31.561 31.579 31.624 31.641 31.671 31.696 31.736 31.749 31.779 31.811 31.819 31.849 31.859 31.841 31.854 31.814 31.816 31.796 31.799 31.781 31.774 31.741 31.691 31.661 31.621 31.576 31.496 31.534 31.464 31.399 31.399 31.386 31.374 31.386 31.371 31.381 31.436 31.484 31.544 31.639 31.734 31.844 31.936 32.029 32.184 32.284 32.401 32.441 32.481 32.509 32.556 32.631 32.771 32.874 33.006 33.144 33.264 33.309 33.334 33.391 33.469 33.556 33.606 33.641 33.811 33.946 34.096 34.209 34.334 34.396 34.481 34.579 34.706 34.824 34.949 35.071 35.296 35.474 35.616 35.769 35.914 36.031 36.169 36.296 36.359 36.486 36.604 36.679 36.824 36.936 37.019 37.116 37.204 37.281 37.349 37.386 37.444 37.549 37.614 37.654 37.716 37.706 37.719 37.724 37.714 37.676 37.696 37.636 37.611 37.614 37.594 37.586 37.576 37.581 37.541 37.536 37.494 37.446 37.386 37.329 37.239 37.171 37.064 36.956 36.844 36.794 36.724 36.629 36.531 36.436 36.354 36.336 36.269 36.204 36.099 36.894 36.721 35.801 35.669 35.539 35.416 35.274 35.194 35.131 34.956 34.726 34.524 34.384 34.216 34.046 33.889 33.711 33.569 33.411 33.206 33.064 32.919 32.781 32.621 32.364 32.184 32.021 31.821 31.664 31.401 31.214 31.139 31.389 31.629 30.566 30.251 30.214 30.364 31.061 29.684 29.296 29.181 29.081 28.941 28.861 28.766 28.701 28.609 28.519 28.421 28.326 28.254 28.196 28.156 28.129 28.061 28.004 27.976 27.939 27.919 27.919 27.881 27.881 27.909 27.919 27.894 27.896 27.901 27.929 27.939 27.946 27.944 27.926 27.929 27.931 27.964 27.944 27.954 27.946 27.954 27.951 27.946 27.944 27.916 27.899 27.869 27.826 27.761 27.731 27.711 27.674 27.619 27.634 27.646 27.631 27.651 27.621 27.586 27.561 27.539 27.489 27.469 27.389 27.361 27.339 27.299 27.291 27.256 27.239 27.214 27.211 27.176
31.074 31.004 30.947 30.892 30.859 30.812 30.754 30.709 30.664 30.569 30.509 30.484 30.437 30.449 30.387 30.339 30.334 30.287 30.234 30.212 30.167 30.109 30.107 30.059 29.992 29.937 29.887 29.854 29.834 29.809 29.779 29.797 29.794 29.802 29.752 29.714 29.722 29.697 29.659 30.844 30.964 29.737 29.717 29.729 29.709 29.664 29.652 29.672 29.712 29.669 29.654 29.612 29.609 29.637 29.662 29.614 29.554 29.597 29.604 29.579 29.577 29.562 29.552 29.494 29.507 29.472 29.394 29.372 29.352 29.337 29.307 29.264 29.264 29.244 29.247 29.244 29.234 29.134 29.044 28.984 28.974 28.994 28.989 29.012 28.977 28.897 28.857 28.844 28.789 28.757 28.742 28.712 28.709 28.709 28.692 28.669 28.607 28.609 28.587 28.582 28.559 28.512 28.512 28.512 28.482 28.467 28.412 28.377 28.367 28.347 28.327 28.267 28.214 28.177 28.129 28.102 27.814 28.102 28.232 28.089 28.152 28.087 28.134 28.084 28.614 30.139 28.189 28.172 28.174 28.259 28.277 28.352 28.369 28.414 28.497 28.557 28.629 28.667 28.752 28.867 28.934 28.986 29.031 29.069 29.209 29.546 29.666 29.709 29.706 29.759 30.154 32.546 31.351 31.981 31.281 30.054 30.039 30.016 31.549 31.176 30.879 30.381 30.461 30.516 30.631 30.699 31.354 33.171 31.944 31.799 32.054 31.256 31.256 31.321 31.361 31.466 31.519 31.541 31.579 31.611 31.629 31.671 31.701 31.714 31.761 31.806 31.811 31.851 31.886 31.924 31.979 31.961 31.966 31.951 31.929 31.931 31.919 31.896 31.901 31.871 31.869 31.834 31.806 31.781 31.736 31.694 31.666 31.676 31.576 31.609 31.584 31.561 31.539 31.551 31.589 31.641 31.671 31.731 31.794 31.879 31.974 32.069 32.196 32.331 32.466 32.614 32.731 32.769 32.781 32.784 32.849 32.936 33.019 33.116 33.236 33.359 33.456 33.531 33.616 33.664 33.746 33.836 33.886 33.929 34.044 34.174 34.299 34.404 34.519 34.596 34.729 34.871 35.014 35.101 35.201 35.359 35.491 35.634 35.769 35.914 36.074 36.226 36.374 36.489 36.611 36.706 36.824 36.919 37.011 37.119 37.214 37.289 37.376 37.431 37.514 37.576 37.691 37.761 37.849 37.876 37.931 37.944 37.974 37.984 37.971 37.984 37.986 37.916 37.899 37.851 37.851 37.804 37.786 37.734 37.729 37.704 37.679 37.659 37.609 37.536 37.476 37.394 37.299 37.176 37.124 37.054 36.964 36.841 36.764 36.654 36.611 36.581 36.556 36.371 36.864 37.414 36.301 36.031 35.901 35.764 35.609 35.514 35.429 35.281 35.059 34.874 34.696 34.534 34.361 34.204 34.016 33.866 33.704 33.531 33.344 33.176 33.014 32.881 32.689 32.501 32.326 32.114 31.894 31.786 31.569 31.389 31.206 31.106 31.336 31.301 30.296 30.239 30.209 30.609 30.691 29.396 29.304 29.194 29.044 28.909 28.871 28.794 28.714 28.636 28.546 28.436 28.336 28.296 28.241 28.189 28.144 28.114 28.061 27.996 27.976 27.964 27.959 27.954 27.971 27.979 27.946 27.951 27.959 27.961 27.951 27.959 27.954 27.966 27.976 27.971 27.966 27.969 27.961 27.981 27.994 27.989 27.956 27.926 27.909 27.904 27.871 27.854 27.791 27.724 27.696 27.666 27.624 27.626 27.651 27.669 27.656 27.624 27.599 27.541 27.516 27.481 27.436 27.406 27.369 27.334 27.294 27.294 27.254 27.251 27.214 27.174 27.149
31.064 30.989 30.922 30.862 30.834 30.797 30.717 30.699 30.607 30.547 30.482 30.487 30.442 30.439 30.404 30.374 30.359 30.282 30.229 30.197 30.132 30.102 30.064 30.027 29.987 29.972 29.917 29.882 29.862 29.814 29.832 29.814 29.817 29.779 29.779 29.769 29.747 29.727 29.887 31.129 30.517 29.754 29.767 29.779 29.777 29.707 29.734 29.789 29.752 29.747 29.722 29.707 29.687 29.724 29.719 29.667 29.619 29.657 29.667 29.602 29.614 29.574 29.542 29.524 29.494 29.447 29.419 29.392 29.364 29.349 29.319 29.289 29.247 29.294 29.264 29.224 29.219 29.184 29.122 29.027 28.992 28.917 28.872 28.949 28.964 28.894 28.887 28.872 28.847 28.807 28.762 28.694 28.702 28.699 28.674 28.652 28.629 28.617 28.617 28.589 28.594 28.549 28.527 28.542 28.509 28.479 28.447 28.397 28.364 28.339 28.317 28.279 28.222 28.184 28.144 28.117 27.974 28.112 28.047 28.099 28.124 28.137 28.434 28.207 28.504 29.069 28.549 28.194 28.212 28.252 28.299 28.379 28.392 28.469 28.527 28.579 28.667 28.712 28.769 28.874 28.936 28.989 29.029 29.101 29.334 30.041 29.856 29.796 29.799 29.841 29.821 30.499 30.661 30.984 30.511 29.989 30.069 30.216 31.479 30.959 30.399 30.461 30.476 30.509 30.651 30.691 31.741 32.921 32.924 32.426 31.636 31.291 31.339 31.424 31.494 31.539 31.569 31.619 31.644 31.701 31.724 31.756 31.776 31.809 31.844 31.874 31.921 31.954 32.011 32.036 32.061 32.066 32.054 32.046 32.024 32.001 32.011 31.994 32.006 31.974 31.976 31.941 31.926 31.909 31.871 31.901 31.859 31.799 31.789 31.759 31.754 31.739 31.751 31.774 31.789 31.866 31.909 31.959 32.051 32.121 32.219 32.331 32.446 32.601 32.776 32.944 32.999 33.024 33.079 33.126 33.131 33.219 33.251 33.369 33.464 33.564 33.669 33.769 33.844 33.934 34.026 34.091 34.154 34.189 34.261 34.394 34.469 34.589 34.686 34.816 34.954 35.146 35.274 35.389 35.519 35.586 35.679 35.794 35.906 36.056 36.229 36.396 36.534 36.661 36.796 36.876 37.041 37.096 37.196 37.311 37.391 37.474 37.546 37.626 37.694 37.819 37.874 37.986 38.049 38.129 38.169 38.214 38.254 38.249 38.246 38.254 38.266 38.211 38.176 38.181 38.136 38.081 38.004 37.966 37.906 37.906 37.891 37.881 37.811 37.784 37.709 37.626 37.501 37.419 37.374 37.271 37.186 37.089 36.961 36.879 36.849 36.831 36.801 36.846 37.899 36.876 36.396 36.226 36.116 35.949 35.846 35.774 35.616 35.384 35.179 35.016 34.864 34.689 34.526 34.321 34.164 33.994 33.794 33.639 33.449 33.294 33.131 32.926 32.739 32.586 32.386 32.201 32.001 31.864 31.696 31.524 31.341 31.159 31.094 31.741 30.929 30.246 30.259 30.244 30.941 30.036 29.379 29.264 29.189 29.006 28.901 28.884 28.809 28.714 28.619 28.541 28.456 28.399 28.336 28.281 28.254 28.186 28.129 28.071 28.049 28.026 28.016 28.021 28.031 28.004 27.994 27.991 28.009 27.981 27.994 27.999 27.964 28.011 28.014 28.029 28.031 28.059 28.036 28.026 28.011 27.999 27.949 27.939 27.929 27.904 27.879 27.839 27.789 27.761 27.691 27.674 27.676 27.679 27.689 27.694 27.649 27.631 27.589 27.529 27.516 27.494 27.454 27.421 27.394 27.341 27.314 27.289 27.239 27.226 27.191 27.134 27.104
31.022 30.949 30.904 30.849 30.834 30.774 30.682 30.677 30.597 30.524 30.474 30.452 30.432 30.427 30.377 30.359 30.322 30.222 30.194 30.159 30.114 30.089 30.062 30.014 29.997 29.944 29.877 29.889 29.874 29.837 29.849 29.827 29.817 29.812 29.799 29.794 29.769 29.727 30.309 31.417 30.084 29.812 29.854 29.909 29.837 29.762 29.802 29.867 29.824 29.809 29.784 29.777 29.747 29.814 29.809 29.754 29.687 29.664 29.677 29.642 29.609 29.577 29.537 29.559 29.529 29.502 29.437 29.402 29.387 29.392 29.332 29.324 29.289 29.257 29.207 29.224 29.194 29.194 29.147 29.079 29.044 29.027 28.959 28.959 28.849 28.852 28.854 28.879 28.839 28.817 28.789 28.739 28.754 28.739 28.707 28.677 28.634 28.632 28.612 28.639 28.612 28.562 28.534 28.587 28.532 28.494 28.434 28.414 28.394 28.374 28.357 28.274 28.232 28.222 28.147 28.179 28.034 28.104 28.127 28.112 28.169 28.174 28.179 28.187 28.629 28.319 28.337 28.224 28.234 28.267 28.292 28.384 28.419 28.482 28.554 28.637 28.682 28.727 28.804 28.877 28.954 29.006 29.064 29.091 29.891 30.866 30.914 30.496 29.854 29.854 29.854 29.949 32.536 31.666 30.136 30.044 30.084 31.256 31.571 30.871 30.406 30.441 30.606 30.624 30.611 30.964 30.926 31.416 32.459 31.811 31.329 31.309 31.381 31.486 31.539 31.614 31.636 31.674 31.711 31.769 31.799 31.844 31.869 31.901 31.934 31.979 32.024 32.064 32.114 32.154 32.149 32.176 32.164 32.159 32.126 32.116 32.124 32.116 32.111 32.081 32.069 32.041 32.054 32.036 32.044 32.051 31.994 31.956 31.936 31.954 31.946 31.966 31.954 31.986 32.049 32.084 32.136 32.244 32.319 32.406 32.491 32.594 32.716 32.879 33.061 33.179 33.199 33.244 33.304 33.349 33.369 33.434 33.526 33.614 33.704 33.789 33.899 33.961 34.091 34.149 34.276 34.354 34.439 34.459 34.489 34.604 34.709 34.776 34.899 35.004 35.171 35.361 35.519 35.676 35.769 35.801 35.896 35.971 36.081 36.196 36.361 36.509 36.671 36.794 36.921 37.041 37.199 37.296 37.386 37.466 37.559 37.654 37.754 37.786 37.916 37.989 38.084 38.181 38.264 38.321 38.424 38.491 38.506 38.539 38.556 38.544 38.574 38.506 38.514 38.464 38.451 38.344 38.269 38.191 38.134 38.126 38.121 38.104 38.086 38.024 37.964 37.856 37.734 37.719 37.609 37.521 37.404 37.299 37.194 37.164 37.104 37.181 37.106 38.061 37.539 36.756 36.544 36.434 36.279 36.154 36.096 35.951 35.741 35.516 35.349 35.201 35.029 34.814 34.629 34.449 34.271 34.084 33.929 33.761 33.561 33.406 33.186 32.976 32.846 32.651 32.469 32.294 32.109 31.959 31.794 31.676 31.499 31.281 31.101 31.431 31.706 30.471 30.276 30.156 30.364 30.896 29.519 29.369 29.266 29.126 29.001 28.946 28.889 28.799 28.686 28.629 28.551 28.474 28.421 28.376 28.301 28.274 28.204 28.161 28.116 28.104 28.096 28.084 28.089 28.046 28.031 28.039 28.056 28.029 28.049 28.029 28.026 28.036 28.031 28.049 28.084 28.071 28.066 28.066 28.046 27.984 27.986 27.931 27.936 27.921 27.901 27.844 27.801 27.764 27.704 27.711 27.704 27.726 27.699 27.689 27.681 27.621 27.581 27.556 27.536 27.521 27.476 27.459 27.414 27.356 27.319 27.306 27.254 27.201 27.159 27.109 27.074
30.964 30.922 30.882 30.849 30.799 30.744 30.684 30.637 30.569 30.507 30.469 30.429 30.444 30.407 30.357 30.329 30.274 30.209 30.147 30.104 30.089 30.092 30.057 29.999 29.997 29.962 29.899 29.912 29.887 29.854 29.839 29.847 29.849 29.857 29.827 29.844 29.792 29.762 30.527 31.102 29.812 29.859 29.889 29.912 29.914 29.842 29.914 29.919 29.899 29.867 29.842 29.822 29.817 29.849 29.807 29.767 29.747 29.699 29.667 29.649 29.632 29.579 29.564 29.552 29.537 29.504 29.457 29.427 29.414 29.407 29.407 29.367 29.314 29.289 29.249 29.222 29.222 29.217 29.167 29.072 29.087 29.037 29.024 29.022 28.977 28.972 28.939 28.864 28.862 28.817 28.804 28.799 28.822 28.797 28.762 28.702 28.634 28.607 28.587 28.614 28.597 28.579 28.567 28.557 28.572 28.547 28.442 28.394 28.397 28.387 28.334 28.292 28.264 28.229 28.209 28.244 28.032 28.169 28.164 28.157 28.174 28.222 28.179 28.182 28.274 28.292 28.387 28.392 28.254 28.297 28.332 28.404 28.444 28.512 28.587 28.649 28.699 28.767 28.839 28.909 28.971 29.024 29.081 29.111 29.431 31.019 32.614 31.164 29.911 29.869 29.841 30.004 31.646 31.609 30.029 30.096 30.489 32.161 31.971 31.899 30.451 30.844 30.721 30.671 30.749 31.481 31.079 32.214 32.236 31.379 31.271 31.374 31.496 31.554 31.616 31.651 31.694 31.739 31.789 31.851 31.881 31.919 31.954 32.014 32.034 32.079 32.116 32.166 32.209 32.244 32.256 32.256 32.251 32.246 32.251 32.231 32.224 32.211 32.206 32.194 32.184 32.179 32.156 32.144 32.199 32.156 32.094 32.081 32.109 32.119 32.129 32.141 32.164 32.234 32.266 32.341 32.404 32.501 32.594 32.724 32.816 32.904 33.026 33.189 33.309 33.369 33.386 33.446 33.511 33.539 33.584 33.656 33.771 33.876 33.921 33.999 34.061 34.151 34.276 34.376 34.496 34.626 34.711 34.764 34.791 34.854 34.934 34.996 35.109 35.231 35.396 35.559 35.741 35.889 35.961 36.041 36.106 36.184 36.241 36.371 36.476 36.599 36.754 36.884 37.019 37.196 37.334 37.441 37.549 37.669 37.739 37.834 37.896 38.004 38.099 38.181 38.286 38.409 38.489 38.576 38.656 38.671 38.726 38.769 38.769 38.796 38.826 38.826 38.816 38.749 38.689 38.636 38.554 38.484 38.456 38.426 38.406 38.366 38.309 38.269 38.181 38.096 38.019 37.954 37.871 37.746 37.649 37.529 37.471 37.436 37.464 37.611 38.234 38.539 37.179 36.884 36.714 36.571 36.466 36.394 36.289 36.071 35.891 35.694 35.549 35.359 35.176 34.944 34.744 34.566 34.361 34.186 34.054 33.869 33.676 33.449 33.251 33.081 32.871 32.709 32.526 32.346 32.184 32.006 31.856 31.739 31.586 31.394 31.169 31.164 31.659 31.266 30.309 30.214 30.136 30.689 30.344 29.406 29.351 29.211 29.084 28.979 28.944 28.856 28.791 28.684 28.629 28.566 28.504 28.441 28.384 28.339 28.289 28.254 28.211 28.196 28.171 28.139 28.111 28.099 28.066 28.059 28.084 28.089 28.084 28.094 28.104 28.086 28.069 28.101 28.126 28.136 28.114 28.104 28.064 28.029 27.969 27.949 27.936 27.921 27.866 27.841 27.806 27.776 27.746 27.751 27.746 27.731 27.701 27.671 27.639 27.599 27.584 27.551 27.534 27.524 27.534 27.479 27.436 27.386 27.339 27.279 27.234 27.186 27.141 27.089 27.041
30.909 30.864 30.837 30.799 30.774 30.737 30.674 30.609 30.542 30.509 30.462 30.434 30.437 30.379 30.352 30.297 30.209 30.167 30.104 30.079 30.072 30.074 30.054 30.017 29.994 29.947 29.922 29.929 29.907 29.879 29.889 29.879 29.892 29.872 29.859 29.857 29.827 29.939 31.269 30.599 29.887 29.917 29.947 29.982 29.952 29.912 29.982 29.957 29.982 29.924 29.882 29.879 29.864 29.879 29.822 29.804 29.767 29.732 29.724 29.669 29.647 29.607 29.579 29.567 29.547 29.504 29.492 29.469 29.434 29.439 29.414 29.372 29.364 29.314 29.269 29.242 29.254 29.212 29.174 29.162 29.129 29.054 29.044 29.049 29.014 28.989 28.979 28.942 28.934 28.909 28.824 28.812 28.774 28.792 28.812 28.774 28.679 28.669 28.639 28.637 28.582 28.549 28.547 28.554 28.524 28.512 28.444 28.409 28.407 28.402 28.377 28.337 28.274 28.304 28.229 28.184 28.092 28.229 28.229 28.219 28.367 28.324 28.324 28.272 28.294 28.519 28.329 28.394 28.287 28.329 28.319 28.402 28.457 28.532 28.604 28.662 28.714 28.817 28.859 28.922 29.004 29.026 29.074 29.121 29.336 30.126 30.806 29.916 29.929 29.876 29.899 30.361 32.349 30.451 30.106 30.124 31.089 31.871 31.074 31.599 32.059 31.099 30.591 31.274 32.394 31.449 31.834 32.229 31.466 31.276 31.349 31.486 31.534 31.621 31.686 31.689 31.764 31.816 31.879 31.914 31.949 32.006 32.061 32.104 32.119 32.174 32.224 32.256 32.311 32.326 32.331 32.344 32.339 32.356 32.349 32.354 32.359 32.351 32.319 32.349 32.301 32.284 32.284 32.311 32.344 32.284 32.291 32.276 32.269 32.281 32.321 32.349 32.391 32.456 32.504 32.584 32.689 32.784 32.896 33.066 33.181 33.254 33.329 33.481 33.549 33.551 33.584 33.624 33.674 33.734 33.781 33.916 34.014 34.084 34.139 34.209 34.289 34.371 34.496 34.616 34.731 34.866 34.971 35.041 35.094 35.126 35.189 35.261 35.369 35.461 35.601 35.734 35.949 36.044 36.154 36.221 36.286 36.339 36.426 36.524 36.634 36.729 36.851 36.956 37.134 37.279 37.461 37.554 37.676 37.791 37.906 37.996 38.094 38.216 38.301 38.441 38.521 38.616 38.706 38.756 38.824 38.889 38.961 38.989 39.016 39.074 39.111 39.119 39.106 39.029 39.006 38.934 38.884 38.826 38.794 38.779 38.679 38.654 38.574 38.494 38.429 38.359 38.274 38.201 38.109 38.016 37.896 37.811 37.801 37.761 37.784 38.449 38.809 37.724 37.266 37.089 36.906 36.766 36.686 36.604 36.404 36.211 36.054 35.911 35.741 35.519 35.321 35.086 34.856 34.679 34.429 34.324 34.161 33.971 33.741 33.489 33.349 33.166 32.961 32.769 32.606 32.401 32.254 32.086 31.939 31.786 31.664 31.484 31.281 31.096 31.169 31.794 30.709 30.199 30.131 30.201 30.824 29.881 29.379 29.306 29.184 29.079 28.991 28.941 28.856 28.774 28.706 28.666 28.576 28.536 28.454 28.426 28.386 28.346 28.309 28.271 28.219 28.169 28.159 28.134 28.124 28.104 28.121 28.149 28.146 28.116 28.146 28.129 28.146 28.151 28.156 28.146 28.124 28.136 28.079 28.014 27.974 27.959 27.924 27.904 27.859 27.851 27.829 27.814 27.791 27.791 27.749 27.731 27.686 27.646 27.624 27.601 27.596 27.589 27.566 27.556 27.524 27.501 27.464 27.396 27.329 27.269 27.221 27.151 27.116 27.074 27.051
30.882 30.839 30.822 30.779 30.729 30.702 30.654 30.592 30.522 30.462 30.427 30.417 30.379 30.314 30.302 30.252 30.134 30.124 30.122 30.099 30.097 30.084 30.059 29.997 29.984 29.959 29.939 29.952 29.917 29.929 29.959 29.912 29.922 29.894 29.882 29.884 29.852 30.147 31.382 29.954 29.927 29.964 29.992 30.034 29.974 29.967 30.044 30.024 30.024 30.014 29.929 29.942 29.902 29.909 29.882 29.844 29.797 29.757 29.744 29.697 29.672 29.614 29.612 29.574 29.564 29.512 29.507 29.509 29.457 29.429 29.404 29.372 29.352 29.324 29.287 29.272 29.294 29.277 29.219 29.194 29.154 29.109 29.092 29.077 29.064 29.054 29.054 29.009 28.964 28.954 28.899 28.847 28.819 28.749 28.727 28.772 28.744 28.752 28.697 28.684 28.654 28.564 28.544 28.527 28.517 28.507 28.447 28.352 28.387 28.387 28.372 28.324 28.312 28.269 28.237 28.154 28.167 28.209 28.227 28.204 28.239 28.354 28.314 28.242 28.282 28.312 28.337 28.282 28.314 28.344 28.369 28.457 28.474 28.537 28.617 28.692 28.749 28.814 28.889 28.937 29.004 29.041 29.069 29.141 30.276 30.199 30.001 29.954 29.914 29.949 29.999 30.419 31.486 30.064 30.109 30.556 31.549 30.841 30.401 30.449 30.679 31.899 31.924 30.954 32.049 32.296 33.336 31.664 31.201 31.306 31.441 31.541 31.601 31.661 31.709 31.766 31.801 31.894 31.941 32.004 32.061 32.111 32.146 32.204 32.249 32.289 32.346 32.376 32.379 32.401 32.394 32.421 32.431 32.451 32.454 32.479 32.489 32.486 32.451 32.461 32.454 32.431 32.471 32.471 32.426 32.431 32.456 32.471 32.464 32.496 32.509 32.541 32.614 32.691 32.781 32.866 32.976 33.119 33.259 33.389 33.491 33.526 33.601 33.734 33.759 33.779 33.781 33.779 33.859 33.894 34.011 34.119 34.229 34.311 34.356 34.414 34.511 34.629 34.716 34.814 34.931 35.079 35.196 35.279 35.301 35.354 35.454 35.524 35.589 35.716 35.789 35.951 36.096 36.201 36.276 36.379 36.449 36.546 36.629 36.729 36.781 36.899 36.986 37.081 37.229 37.371 37.514 37.679 37.804 37.929 38.061 38.189 38.301 38.419 38.521 38.676 38.736 38.846 38.909 39.001 39.039 39.126 39.211 39.286 39.359 39.416 39.429 39.436 39.401 39.366 39.296 39.274 39.206 39.211 39.164 39.071 39.026 38.926 38.814 38.726 38.664 38.601 38.526 38.449 38.364 38.256 38.164 38.136 38.104 38.079 38.539 39.321 38.316 37.719 37.486 37.314 37.116 37.004 36.906 36.749 36.564 36.366 36.219 36.056 35.844 35.656 35.426 35.189 34.984 34.769 34.564 34.429 34.256 34.021 33.784 33.581 33.419 33.244 33.064 32.829 32.651 32.486 32.314 32.149 32.004 31.844 31.701 31.551 31.354 31.171 31.021 31.386 31.129 30.289 30.151 30.031 30.236 30.761 29.596 29.384 29.284 29.211 29.076 28.994 28.959 28.844 28.786 28.764 28.689 28.619 28.571 28.544 28.499 28.441 28.386 28.319 28.264 28.229 28.189 28.186 28.174 28.176 28.194 28.209 28.196 28.194 28.196 28.194 28.204 28.206 28.199 28.169 28.146 28.164 28.099 28.026 27.989 27.956 27.934 27.899 27.854 27.836 27.851 27.836 27.839 27.814 27.769 27.719 27.684 27.651 27.624 27.606 27.606 27.629 27.581 27.566 27.529 27.484 27.424 27.396 27.331 27.264 27.229 27.169 27.129 27.079 27.066
30.877 30.827 30.797 30.772 30.717 30.689 30.622 30.577 30.494 30.444 30.412 30.379 30.334 30.277 30.257 30.192 30.122 30.147 30.112 30.112 30.092 30.087 30.069 30.027 29.994 29.949 29.967 29.974 29.967 29.949 29.962 29.954 29.974 29.979 29.942 29.942 29.874 30.667 30.712 29.969 29.957 30.004 30.009 30.027 29.997 30.047 30.079 30.069 30.069 30.037 30.019 29.977 29.954 29.944 29.924 29.862 29.857 29.802 29.757 29.739 29.712 29.644 29.612 29.594 29.552 29.532 29.514 29.484 29.457 29.457 29.414 29.394 29.377 29.349 29.317 29.314 29.289 29.294 29.239 29.239 29.174 29.129 29.107 29.132 29.107 29.084 29.064 29.034 29.024 28.987 28.937 28.874 28.879 28.812 28.772 28.784 28.749 28.697 28.699 28.717 28.717 28.644 28.612 28.547 28.492 28.464 28.432 28.597 28.569 28.374 28.369 28.357 28.314 28.277 28.254 28.167 28.229 28.232 28.229 28.217 28.242 28.272 28.307 28.262 28.237 28.282 28.322 28.319 28.372 28.357 28.429 28.499 28.509 28.577 28.647 28.707 28.779 28.854 28.902 28.982 29.024 29.079 29.074 29.156 30.329 30.509 30.104 29.976 29.991 30.071 30.134 31.229 30.506 30.141 30.154 31.421 30.866 30.371 30.444 30.459 30.474 30.589 31.154 31.611 32.276 32.894 32.304 31.171 31.239 31.379 31.524 31.584 31.636 31.686 31.774 31.831 31.886 31.954 32.004 32.099 32.154 32.181 32.234 32.291 32.356 32.384 32.421 32.451 32.469 32.491 32.499 32.524 32.529 32.564 32.566 32.591 32.611 32.591 32.561 32.576 32.559 32.576 32.624 32.609 32.591 32.599 32.626 32.614 32.636 32.676 32.706 32.789 32.846 32.921 33.044 33.129 33.286 33.424 33.559 33.649 33.689 33.739 33.849 33.956 34.001 33.996 34.001 33.971 34.054 34.129 34.226 34.349 34.424 34.506 34.564 34.646 34.756 34.851 34.961 35.061 35.176 35.321 35.431 35.444 35.484 35.556 35.661 35.764 35.816 35.904 36.019 36.109 36.224 36.339 36.416 36.521 36.611 36.714 36.819 36.941 36.994 37.079 37.156 37.246 37.349 37.476 37.649 37.806 37.941 38.054 38.214 38.346 38.486 38.646 38.799 38.924 38.966 39.071 39.129 39.211 39.324 39.419 39.521 39.614 39.674 39.696 39.719 39.716 39.684 39.644 39.654 39.624 39.591 39.574 39.496 39.426 39.309 39.191 39.134 39.019 38.941 38.836 38.759 38.669 38.624 38.524 38.466 38.429 38.344 38.594 39.416 39.224 38.216 37.869 37.686 37.529 37.374 37.249 37.056 36.884 36.689 36.549 36.371 36.169 35.991 35.779 35.534 35.306 35.084 34.884 34.696 34.496 34.269 34.051 33.914 33.699 33.509 33.319 33.134 32.934 32.736 32.569 32.369 32.224 32.049 31.854 31.744 31.586 31.399 31.216 31.069 30.926 31.309 30.969 30.166 30.076 29.971 30.631 30.551 29.439 29.346 29.286 29.209 29.094 29.051 28.951 28.866 28.806 28.764 28.686 28.631 28.616 28.554 28.519 28.454 28.386 28.324 28.274 28.264 28.244 28.244 28.221 28.239 28.231 28.244 28.239 28.259 28.244 28.236 28.239 28.249 28.219 28.184 28.164 28.096 28.041 28.001 27.949 27.944 27.899 27.901 27.869 27.879 27.864 27.844 27.826 27.739 27.706 27.684 27.639 27.634 27.639 27.619 27.624 27.589 27.566 27.514 27.469 27.451 27.369 27.324 27.259 27.216 27.181 27.131 27.109 27.066
30.849 30.814 30.782 30.752 30.739 30.674 30.592 30.522 30.479 30.439 30.372 30.342 30.312 30.274 30.229 30.202 30.142 30.144 30.117 30.094 30.122 30.074 30.039 30.019 30.022 30.002 30.004 30.017 30.007 30.027 30.009 30.007 30.004 29.989 29.997 29.944 29.927 31.342 30.449 30.002 30.004 30.034 30.059 30.064 30.069 30.089 30.177 30.139 30.129 30.124 30.064 30.019 30.007 29.997 29.962 29.907 29.882 29.834 29.794 29.784 29.712 29.657 29.657 29.624 29.577 29.534 29.544 29.507 29.499 29.484 29.429 29.412 29.397 29.362 29.332 29.317 29.302 29.279 29.287 29.237 29.167 29.157 29.149 29.132 29.109 29.102 29.067 29.042 29.064 29.024 28.954 28.924 28.954 28.954 28.919 28.967 28.824 28.749 28.762 28.737 28.699 28.669 28.647 28.617 28.542 28.497 28.444 28.392 28.427 28.389 28.377 28.357 28.327 28.287 28.297 28.284 28.267 28.264 28.247 28.242 28.222 28.259 28.272 28.304 28.299 28.322 28.327 28.367 28.397 28.432 28.464 28.532 28.532 28.599 28.654 28.707 28.779 28.847 28.892 28.967 29.031 29.096 29.131 29.229 29.526 29.894 29.954 29.956 30.521 30.846 30.836 31.219 30.181 30.176 30.726 31.349 30.296 30.384 30.429 30.506 30.556 30.591 30.649 30.786 31.146 31.576 31.236 31.181 31.326 31.486 31.579 31.606 31.669 31.744 31.816 31.886 31.954 32.026 32.096 32.149 32.231 32.274 32.341 32.391 32.459 32.471 32.496 32.551 32.524 32.569 32.576 32.616 32.619 32.636 32.666 32.696 32.681 32.686 32.686 32.714 32.719 32.739 32.764 32.729 32.749 32.756 32.786 32.816 32.841 32.859 32.946 32.996 33.071 33.181 33.301 33.439 33.576 33.716 33.824 33.866 33.921 34.004 34.104 34.186 34.214 34.186 34.184 34.186 34.256 34.346 34.429 34.541 34.629 34.694 34.771 34.871 34.996 35.121 35.241 35.344 35.421 35.556 35.639 35.664 35.684 35.756 35.876 35.961 36.056 36.146 36.229 36.286 36.376 36.491 36.574 36.684 36.781 36.889 37.004 37.129 37.239 37.294 37.376 37.476 37.534 37.646 37.801 37.919 38.086 38.204 38.381 38.551 38.709 38.856 39.004 39.129 39.189 39.296 39.386 39.479 39.594 39.716 39.786 39.884 39.936 39.961 39.986 39.981 39.951 39.976 39.969 39.961 39.919 39.866 39.779 39.694 39.604 39.494 39.359 39.316 39.191 39.121 39.056 38.944 38.864 38.801 38.754 38.634 38.689 39.264 39.106 38.521 38.251 38.104 37.911 37.766 37.661 37.471 37.191 36.999 36.849 36.684 36.504 36.301 36.099 35.879 35.654 35.424 35.224 35.006 34.774 34.564 34.324 34.149 33.956 33.754 33.569 33.396 33.149 32.994 32.829 32.621 32.464 32.284 32.126 31.951 31.784 31.614 31.456 31.279 31.149 30.971 30.946 31.569 30.576 30.134 30.041 29.979 30.869 30.129 29.406 29.364 29.261 29.176 29.096 29.036 28.969 28.896 28.866 28.801 28.721 28.686 28.639 28.584 28.514 28.446 28.384 28.336 28.341 28.309 28.311 28.299 28.266 28.296 28.316 28.326 28.309 28.294 28.284 28.276 28.246 28.244 28.214 28.149 28.129 28.081 28.046 27.981 27.964 27.929 27.916 27.901 27.899 27.869 27.844 27.806 27.774 27.749 27.711 27.664 27.651 27.639 27.639 27.606 27.566 27.546 27.506 27.466 27.419 27.349 27.316 27.269 27.246 27.166 27.144 27.086 27.041
30.802 30.797 30.774 30.752 30.694 30.644 30.569 30.507 30.429 30.402 30.374 30.332 30.272 30.257 30.239 30.182 30.162 30.134 30.124 30.104 30.119 30.074 30.074 30.067 30.047 30.039 30.047 30.022 30.037 30.049 30.022 30.072 30.072 30.057 30.037 29.987 30.059 31.557 30.457 30.039 30.044 30.072 30.092 30.104 30.127 30.184 30.227 30.204 30.197 30.142 30.112 30.057 30.044 30.037 29.984 29.924 29.917 29.854 29.809 29.807 29.737 29.684 29.649 29.637 29.594 29.524 29.542 29.519 29.517 29.494 29.442 29.419 29.392 29.352 29.332 29.339 29.307 29.287 29.252 29.219 29.174 29.157 29.154 29.142 29.099 29.104 29.097 29.062 29.079 29.009 28.984 28.927 28.989 29.049 29.034 28.979 28.889 28.817 28.797 28.787 28.747 28.707 28.642 28.597 28.584 28.569 28.529 28.442 28.409 28.349 28.349 28.379 28.334 28.334 28.314 28.204 28.322 28.309 28.279 28.257 28.249 28.279 28.337 28.294 28.327 28.362 28.349 28.362 28.434 28.434 28.467 28.534 28.574 28.617 28.682 28.734 28.797 28.847 28.892 28.954 29.016 29.071 29.114 29.281 30.846 31.554 30.004 29.936 30.169 31.229 31.174 30.141 30.174 30.219 31.521 30.709 30.329 30.429 30.469 30.569 30.621 30.664 30.726 30.806 30.951 31.099 31.226 31.294 31.421 31.531 31.614 31.649 31.729 31.804 31.896 31.961 32.024 32.109 32.179 32.226 32.306 32.356 32.441 32.499 32.551 32.576 32.591 32.621 32.621 32.651 32.671 32.704 32.709 32.744 32.774 32.791 32.809 32.806 32.829 32.844 32.859 32.899 32.889 32.916 32.946 32.949 32.954 33.011 33.039 33.101 33.171 33.249 33.329 33.406 33.546 33.706 33.851 33.939 34.004 34.074 34.139 34.239 34.326 34.374 34.411 34.391 34.371 34.406 34.469 34.569 34.619 34.726 34.789 34.886 34.976 35.106 35.229 35.356 35.476 35.591 35.661 35.754 35.834 35.901 35.901 35.976 36.061 36.184 36.284 36.381 36.426 36.511 36.614 36.676 36.754 36.871 36.939 37.086 37.209 37.326 37.431 37.564 37.639 37.721 37.811 37.871 38.009 38.111 38.226 38.386 38.519 38.701 38.896 39.049 39.196 39.326 39.441 39.539 39.624 39.731 39.861 39.961 40.046 40.136 40.189 40.211 40.241 40.239 40.281 40.276 40.254 40.229 40.176 40.139 40.024 39.951 39.849 39.761 39.681 39.591 39.504 39.404 39.324 39.189 39.116 39.029 38.909 38.874 39.446 39.554 38.974 38.581 38.439 38.306 38.141 38.056 37.871 37.621 37.384 37.171 37.004 36.821 36.634 36.386 36.186 35.976 35.726 35.534 35.336 35.076 34.824 34.616 34.401 34.231 33.999 33.824 33.624 33.414 33.249 33.039 32.899 32.751 32.541 32.361 32.194 32.034 31.851 31.659 31.509 31.341 31.186 31.039 30.889 31.219 31.436 30.336 30.051 29.946 30.104 30.961 29.871 29.404 29.359 29.299 29.199 29.106 29.059 28.994 28.924 28.856 28.786 28.709 28.679 28.639 28.571 28.501 28.436 28.419 28.396 28.384 28.376 28.331 28.346 28.351 28.349 28.356 28.351 28.339 28.324 28.294 28.279 28.264 28.219 28.166 28.121 28.071 28.036 28.019 27.996 27.969 27.976 27.916 27.909 27.869 27.834 27.814 27.774 27.774 27.739 27.706 27.701 27.634 27.619 27.601 27.559 27.541 27.511 27.434 27.411 27.344 27.319 27.294 27.246 27.199 27.124 27.071 27.041
30.814 30.814 30.769 30.744 30.694 30.622 30.527 30.459 30.409 30.387 30.372 30.337 30.297 30.279 30.254 30.204 30.192 30.169 30.149 30.152 30.154 30.114 30.114 30.112 30.079 30.084 30.079 30.082 30.104 30.104 30.092 30.137 30.137 30.089 30.082 30.059 30.427 31.309 30.132 30.079 30.074 30.112 30.129 30.149 30.192 30.234 30.247 30.242 30.217 30.187 30.134 30.104 30.059 30.054 30.004 29.962 29.932 29.894 29.864 29.829 29.807 29.732 29.664 29.647 29.609 29.572 29.537 29.507 29.519 29.499 29.467 29.432 29.417 29.404 29.359 29.337 29.309 29.277 29.262 29.227 29.157 29.159 29.149 29.152 29.147 29.122 29.069 29.084 29.082 29.032 28.994 28.969 28.939 28.957 28.984 28.904 28.882 28.844 28.814 28.777 28.759 28.747 28.669 28.614 28.559 28.477 28.449 28.467 28.469 28.354 28.372 28.372 28.352 28.327 28.332 28.179 28.334 28.297 28.297 28.227 28.254 28.304 28.309 28.307 28.352 28.364 28.384 28.374 28.427 28.482 28.504 28.574 28.602 28.647 28.707 28.764 28.837 28.862 28.924 28.982 29.031 29.086 29.141 29.944 32.704 32.519 29.956 29.914 30.004 30.039 30.114 30.186 30.181 30.929 31.346 30.301 30.384 30.439 30.529 30.619 30.696 30.726 30.814 30.909 31.029 31.146 31.309 31.456 31.541 31.576 31.651 31.706 31.761 31.841 31.919 31.984 32.074 32.146 32.261 32.304 32.389 32.429 32.536 32.599 32.641 32.666 32.689 32.699 32.699 32.741 32.744 32.791 32.809 32.836 32.856 32.891 32.914 32.936 32.956 33.029 33.036 33.071 33.061 33.091 33.104 33.146 33.184 33.229 33.279 33.356 33.389 33.459 33.571 33.671 33.774 33.951 34.076 34.151 34.194 34.261 34.339 34.399 34.514 34.571 34.606 34.591 34.591 34.639 34.699 34.754 34.811 34.881 34.951 35.089 35.209 35.319 35.436 35.564 35.704 35.801 35.899 35.979 36.034 36.084 36.126 36.181 36.276 36.371 36.499 36.569 36.644 36.734 36.821 36.891 36.981 37.051 37.154 37.291 37.404 37.516 37.674 37.799 37.899 37.994 38.084 38.211 38.291 38.351 38.486 38.554 38.706 38.871 39.019 39.191 39.379 39.519 39.634 39.759 39.906 40.014 40.124 40.219 40.326 40.394 40.481 40.491 40.511 40.544 40.574 40.549 40.556 40.509 40.461 40.416 40.289 40.261 40.189 40.076 39.984 39.889 39.774 39.669 39.559 39.434 39.351 39.191 39.116 39.451 40.124 39.311 38.894 38.786 38.646 38.516 38.409 38.256 38.026 37.784 37.564 37.309 37.134 36.949 36.739 36.481 36.251 36.059 35.816 35.646 35.409 35.184 34.896 34.704 34.484 34.296 34.084 33.889 33.696 33.501 33.309 33.109 32.964 32.811 32.586 32.446 32.239 32.074 31.924 31.714 31.526 31.389 31.229 31.096 30.956 30.856 31.331 31.136 30.094 29.996 29.974 30.601 30.731 29.519 29.416 29.386 29.321 29.196 29.144 29.099 28.996 28.896 28.824 28.791 28.729 28.674 28.629 28.546 28.531 28.504 28.456 28.454 28.424 28.404 28.404 28.399 28.371 28.374 28.366 28.364 28.346 28.314 28.299 28.261 28.224 28.156 28.129 28.079 28.056 28.054 28.036 28.014 27.974 27.894 27.884 27.874 27.826 27.801 27.804 27.804 27.791 27.751 27.706 27.666 27.639 27.601 27.554 27.514 27.469 27.444 27.426 27.361 27.329 27.291 27.239 27.206 27.149 27.091 27.036
30.844 30.792 30.739 30.714 30.664 30.562 30.497 30.447 30.399 30.369 30.364 30.327 30.339 30.322 30.299 30.237 30.222 30.184 30.202 30.169 30.154 30.137 30.139 30.144 30.132 30.147 30.154 30.167 30.152 30.159 30.184 30.197 30.182 30.144 30.114 30.089 30.934 30.929 30.099 30.144 30.137 30.179 30.184 30.212 30.217 30.249 30.284 30.264 30.237 30.199 30.149 30.134 30.094 30.054 30.014 29.979 29.962 29.934 29.917 29.864 29.809 29.739 29.689 29.657 29.622 29.594 29.564 29.564 29.552 29.532 29.472 29.427 29.409 29.364 29.359 29.382 29.312 29.307 29.294 29.262 29.187 29.189 29.169 29.157 29.147 29.112 29.067 29.084 29.074 29.044 29.022 29.019 28.977 28.942 28.924 28.917 28.849 28.889 28.837 28.802 28.777 28.737 28.709 28.664 28.629 28.532 28.432 28.389 28.409 28.364 28.369 28.337 28.354 28.349 28.324 28.289 28.327 28.327 28.317 28.274 28.294 28.332 28.334 28.347 28.374 28.394 28.399 28.392 28.419 28.492 28.539 28.584 28.607 28.677 28.727 28.784 28.862 28.917 28.952 29.027 29.061 29.106 29.196 29.939 32.766 30.966 29.926 29.946 30.034 30.091 30.141 30.149 30.341 31.494 30.559 30.339 30.416 30.479 30.549 30.619 30.679 30.801 30.924 31.011 31.116 31.224 31.306 31.466 31.601 31.659 31.684 31.756 31.824 31.886 31.949 32.054 32.116 32.196 32.294 32.394 32.479 32.544 32.624 32.701 32.714 32.749 32.771 32.799 32.809 32.861 32.871 32.896 32.906 32.929 32.936 32.984 33.029 33.069 33.101 33.204 33.201 33.191 33.216 33.284 33.279 33.369 33.394 33.464 33.559 33.601 33.681 33.751 33.834 33.924 34.054 34.194 34.289 34.336 34.391 34.441 34.474 34.586 34.689 34.754 34.791 34.814 34.849 34.899 34.921 34.976 35.029 35.099 35.171 35.296 35.411 35.499 35.649 35.791 35.899 36.019 36.091 36.164 36.241 36.309 36.324 36.384 36.416 36.561 36.654 36.746 36.856 36.956 37.041 37.099 37.184 37.276 37.336 37.496 37.581 37.744 37.889 38.031 38.164 38.259 38.369 38.489 38.559 38.639 38.741 38.781 38.879 39.014 39.159 39.341 39.516 39.676 39.836 39.999 40.136 40.296 40.399 40.494 40.581 40.686 40.721 40.806 40.849 40.879 40.899 40.866 40.846 40.804 40.781 40.664 40.634 40.581 40.441 40.394 40.241 40.149 40.044 39.904 39.776 39.686 39.534 39.381 39.736 40.186 39.631 39.209 39.086 38.951 38.839 38.746 38.599 38.374 38.154 37.946 37.714 37.496 37.274 37.071 36.851 36.604 36.379 36.186 35.946 35.729 35.469 35.224 35.001 34.801 34.564 34.381 34.149 33.954 33.751 33.581 33.391 33.196 33.036 32.831 32.684 32.519 32.326 32.151 32.014 31.781 31.586 31.419 31.276 31.144 31.029 30.871 30.861 31.484 30.796 30.021 29.956 29.896 30.919 30.241 29.486 29.441 29.374 29.286 29.229 29.199 29.099 28.969 28.906 28.841 28.786 28.726 28.674 28.641 28.614 28.579 28.531 28.496 28.499 28.486 28.451 28.446 28.401 28.391 28.394 28.379 28.339 28.331 28.294 28.276 28.241 28.196 28.141 28.129 28.121 28.094 28.089 28.024 27.976 27.929 27.899 27.856 27.851 27.839 27.831 27.826 27.839 27.784 27.719 27.654 27.624 27.581 27.556 27.506 27.469 27.446 27.391 27.361 27.334 27.296 27.221 27.206 27.159 27.101 27.031
30.792 30.759 30.719 30.672 30.619 30.517 30.487 30.434 30.417 30.412 30.402 30.367 30.339 30.327 30.307 30.239 30.224 30.222 30.207 30.214 30.202 30.184 30.184 30.184 30.192 30.189 30.184 30.209 30.247 30.247 30.264 30.249 30.257 30.222 30.182 30.127 31.449 30.907 30.144 30.182 30.219 30.229 30.227 30.252 30.274 30.312 30.297 30.292 30.279 30.224 30.182 30.157 30.137 30.074 30.062 30.037 29.999 29.974 29.922 29.882 29.824 29.767 29.744 29.692 29.639 29.614 29.589 29.564 29.559 29.564 29.524 29.459 29.429 29.407 29.389 29.364 29.324 29.324 29.317 29.222 29.167 29.159 29.149 29.157 29.147 29.137 29.124 29.109 29.069 29.062 29.027 29.027 28.979 28.964 28.949 28.924 28.902 28.939 28.877 28.824 28.774 28.729 28.697 28.677 28.642 28.582 28.544 28.539 28.452 28.394 28.342 28.292 28.372 28.397 28.354 28.262 28.369 28.332 28.337 28.349 28.384 28.407 28.382 28.382 28.404 28.419 28.419 28.434 28.479 28.512 28.539 28.607 28.607 28.704 28.747 28.809 28.874 28.904 28.939 29.012 29.039 29.139 29.274 29.649 29.991 29.944 29.966 30.021 30.096 30.129 30.204 30.161 30.914 30.921 30.309 30.381 30.454 30.519 30.609 30.644 30.704 30.834 30.981 31.076 31.189 31.311 31.411 31.476 31.554 31.684 31.814 31.856 31.864 31.924 32.014 32.074 32.211 32.286 32.366 32.466 32.586 32.651 32.709 32.774 32.804 32.819 32.834 32.879 32.916 32.961 32.974 32.996 33.021 33.046 33.089 33.109 33.141 33.174 33.251 33.304 33.304 33.361 33.404 33.459 33.501 33.556 33.626 33.696 33.764 33.856 33.936 34.019 34.089 34.166 34.294 34.409 34.481 34.509 34.574 34.586 34.646 34.731 34.836 34.931 34.976 35.051 35.069 35.124 35.129 35.166 35.241 35.336 35.406 35.461 35.606 35.721 35.846 35.976 36.099 36.204 36.269 36.349 36.434 36.479 36.516 36.556 36.656 36.711 36.784 36.899 36.999 37.126 37.249 37.336 37.444 37.519 37.619 37.699 37.804 37.949 38.086 38.201 38.329 38.476 38.594 38.721 38.821 38.926 39.014 39.046 39.136 39.206 39.309 39.514 39.689 39.839 40.029 40.206 40.389 40.554 40.656 40.761 40.879 40.939 41.056 41.061 41.131 41.169 41.194 41.149 41.146 41.124 41.064 40.996 40.929 40.846 40.741 40.644 40.519 40.409 40.266 40.126 40.016 39.846 39.714 40.004 40.504 39.941 39.489 39.376 39.274 39.144 39.044 38.921 38.754 38.514 38.309 38.104 37.876 37.621 37.396 37.179 36.986 36.714 36.496 36.296 36.034 35.751 35.506 35.309 35.074 34.856 34.661 34.451 34.241 34.031 33.839 33.629 33.476 33.281 33.079 32.891 32.751 32.591 32.399 32.216 32.054 31.831 31.646 31.471 31.321 31.196 31.069 30.929 30.761 31.064 31.619 30.316 29.979 29.881 30.219 30.984 30.001 29.484 29.419 29.341 29.274 29.196 29.146 29.039 28.956 28.921 28.856 28.791 28.734 28.696 28.669 28.651 28.594 28.581 28.571 28.546 28.489 28.469 28.436 28.439 28.441 28.396 28.371 28.331 28.304 28.276 28.226 28.211 28.166 28.156 28.141 28.129 28.099 28.044 27.986 27.924 27.896 27.884 27.879 27.884 27.846 27.844 27.829 27.786 27.739 27.684 27.636 27.584 27.551 27.501 27.489 27.446 27.416 27.386 27.334 27.279 27.244 27.194 27.146 27.099 27.064
30.739 30.707 30.669 30.607 30.562 30.497 30.482 30.432 30.412 30.404 30.414 30.364 30.342 30.314 30.287 30.272 30.257 30.237 30.264 30.272 30.237 30.239 30.239 30.227 30.249 30.252 30.289 30.254 30.299 30.294 30.312 30.347 30.302 30.257 30.207 30.322 32.107 30.499 30.202 30.234 30.257 30.279 30.292 30.329 30.352 30.329 30.352 30.322 30.302 30.277 30.249 30.179 30.144 30.112 30.107 30.067 30.017 29.942 29.927 29.884 29.829 29.797 29.767 29.737 29.664 29.647 29.609 29.577 29.587 29.557 29.517 29.494 29.462 29.442 29.414 29.389 29.344 29.332 29.324 29.264 29.184 29.182 29.152 29.162 29.129 29.119 29.104 29.089 29.062 29.032 29.014 29.019 28.974 28.967 28.962 28.974 28.919 28.942 28.874 28.839 28.767 28.752 28.722 28.704 28.652 28.612 28.587 28.557 28.499 28.474 28.449 28.397 28.437 28.479 28.449 28.434 28.447 28.417 28.412 28.437 28.622 28.542 28.464 28.422 28.379 28.457 28.482 28.529 28.504 28.547 28.662 28.854 29.027 29.224 29.182 29.019 28.922 28.922 28.987 29.052 29.104 29.209 29.441 29.709 29.954 29.949 30.001 30.051 30.131 30.201 30.196 30.414 31.099 30.379 30.386 30.444 30.499 30.546 30.619 30.716 30.796 30.951 31.036 31.129 31.269 31.374 31.469 31.549 31.616 31.659 31.801 31.961 31.986 31.981 32.081 32.166 32.259 32.339 32.449 32.534 32.641 32.731 32.811 32.871 32.891 32.916 32.924 32.979 33.019 33.074 33.111 33.139 33.151 33.191 33.211 33.229 33.261 33.311 33.404 33.419 33.436 33.521 33.584 33.636 33.694 33.776 33.851 33.946 34.001 34.089 34.229 34.259 34.356 34.444 34.579 34.641 34.666 34.681 34.726 34.746 34.829 34.896 35.006 35.096 35.171 35.236 35.259 35.291 35.339 35.409 35.444 35.534 35.596 35.724 35.846 35.951 36.054 36.166 36.274 36.371 36.421 36.499 36.579 36.634 36.644 36.789 36.829 36.874 36.961 37.041 37.149 37.319 37.436 37.556 37.694 37.776 37.864 37.934 38.064 38.181 38.284 38.434 38.551 38.676 38.794 38.931 39.046 39.159 39.241 39.326 39.366 39.411 39.541 39.751 39.919 40.069 40.236 40.399 40.596 40.751 40.889 41.054 41.164 41.271 41.309 41.411 41.421 41.446 41.449 41.436 41.454 41.386 41.314 41.244 41.174 41.151 41.036 40.914 40.799 40.666 40.519 40.376 40.234 40.071 40.196 40.971 40.361 39.786 39.641 39.509 39.396 39.296 39.209 39.046 38.836 38.659 38.444 38.229 37.984 37.761 37.489 37.299 37.074 36.839 36.614 36.366 36.086 35.859 35.626 35.361 35.106 34.941 34.684 34.524 34.321 34.139 33.921 33.746 33.556 33.356 33.164 32.956 32.821 32.661 32.471 32.244 32.051 31.886 31.714 31.536 31.394 31.244 31.079 30.981 30.851 30.679 31.296 31.244 30.039 29.994 29.919 30.724 31.089 29.784 29.414 29.344 29.261 29.201 29.144 29.094 29.036 29.004 28.961 28.864 28.791 28.751 28.729 28.726 28.686 28.669 28.639 28.594 28.559 28.474 28.454 28.436 28.456 28.431 28.394 28.354 28.324 28.289 28.254 28.229 28.194 28.199 28.161 28.144 28.101 28.056 27.999 27.949 27.941 27.914 27.894 27.889 27.869 27.861 27.839 27.781 27.736 27.701 27.634 27.599 27.561 27.519 27.486 27.431 27.389 27.339 27.299 27.271 27.221 27.181 27.154 27.129 27.099
30.704 30.649 30.629 30.619 30.567 30.497 30.492 30.447 30.434 30.412 30.424 30.397 30.382 30.319 30.307 30.319 30.299 30.292 30.319 30.312 30.284 30.299 30.297 30.287 30.302 30.294 30.324 30.349 30.374 30.367 30.384 30.387 30.367 30.324 30.279 30.917 31.727 30.354 30.262 30.294 30.339 30.337 30.334 30.382 30.417 30.392 30.384 30.342 30.324 30.302 30.287 30.219 30.197 30.187 30.087 30.042 29.989 30.039 29.964 29.922 29.879 29.812 29.767 29.767 29.704 29.684 29.647 29.599 29.594 29.564 29.514 29.494 29.462 29.434 29.432 29.407 29.379 29.352 29.337 29.249 29.234 29.219 29.209 29.189 29.144 29.122 29.099 29.109 29.072 29.054 29.037 29.014 28.972 28.972 28.994 28.974 28.929 28.907 28.854 28.817 28.802 28.744 28.717 28.719 28.664 28.644 28.607 28.574 28.532 28.437 28.342 28.342 28.427 28.457 28.469 28.412 28.487 28.447 28.424 28.539 28.702 28.587 28.749 28.602 28.519 28.869 29.089 28.892 28.562 28.477 28.932 29.302 29.659 29.834 29.602 29.149 28.917 28.937 29.037 29.164 29.244 29.344 29.514 29.764 29.909 30.001 30.001 30.099 30.154 30.184 30.231 31.051 30.736 30.344 30.414 30.479 30.534 30.594 30.686 30.781 30.926 31.044 31.141 31.244 31.359 31.446 31.531 31.609 31.671 31.756 31.819 31.906 32.056 32.176 32.174 32.224 32.351 32.449 32.541 32.616 32.721 32.784 32.851 32.924 32.961 32.994 33.031 33.076 33.116 33.179 33.211 33.226 33.281 33.316 33.351 33.379 33.424 33.509 33.566 33.566 33.611 33.691 33.751 33.804 33.896 34.009 34.081 34.169 34.256 34.376 34.474 34.561 34.626 34.741 34.796 34.839 34.821 34.864 34.891 34.939 35.021 35.094 35.166 35.269 35.339 35.434 35.481 35.501 35.536 35.606 35.674 35.751 35.836 35.959 36.079 36.169 36.249 36.356 36.439 36.486 36.586 36.654 36.704 36.774 36.856 36.941 36.971 37.034 37.129 37.211 37.351 37.526 37.651 37.784 37.926 38.001 38.086 38.229 38.314 38.421 38.566 38.686 38.804 38.891 39.016 39.131 39.231 39.331 39.451 39.519 39.596 39.674 39.804 39.971 40.114 40.279 40.409 40.596 40.796 40.964 41.134 41.281 41.406 41.526 41.601 41.654 41.681 41.691 41.731 41.704 41.671 41.639 41.559 41.464 41.441 41.346 41.259 41.136 41.016 40.891 40.744 40.571 40.401 40.616 40.989 40.589 40.101 39.929 39.801 39.654 39.569 39.484 39.324 39.141 38.949 38.789 38.586 38.356 38.144 37.849 37.589 37.384 37.189 36.941 36.704 36.396 36.151 35.949 35.689 35.449 35.216 34.956 34.764 34.569 34.386 34.184 33.994 33.789 33.634 33.419 33.256 33.049 32.869 32.724 32.489 32.326 32.104 31.936 31.774 31.584 31.404 31.251 31.124 31.006 30.911 30.746 30.709 31.264 31.031 30.019 29.946 29.971 31.134 30.481 29.486 29.389 29.336 29.246 29.174 29.136 29.091 29.044 28.986 28.929 28.854 28.821 28.791 28.784 28.751 28.739 28.676 28.621 28.581 28.516 28.474 28.469 28.444 28.434 28.424 28.381 28.356 28.319 28.284 28.259 28.239 28.221 28.156 28.124 28.086 28.054 28.021 27.991 27.974 27.951 27.936 27.911 27.886 27.861 27.831 27.799 27.744 27.711 27.664 27.594 27.561 27.514 27.466 27.426 27.356 27.331 27.291 27.261 27.241 27.191 27.141 27.134 27.076
30.692 30.617 30.614 30.594 30.537 30.522 30.504 30.457 30.469 30.447 30.417 30.412 30.409 30.344 30.327 30.314 30.329 30.342 30.369 30.349 30.354 30.357 30.347 30.347 30.354 30.347 30.392 30.424 30.434 30.417 30.457 30.434 30.432 30.394 30.344 31.339 31.719 30.494 30.352 30.377 30.402 30.377 30.397 30.454 30.454 30.457 30.452 30.449 30.382 30.337 30.312 30.249 30.237 30.229 30.137 30.054 30.032 29.972 29.969 29.987 29.939 29.872 29.817 29.809 29.752 29.694 29.642 29.632 29.617 29.572 29.549 29.502 29.477 29.472 29.444 29.409 29.394 29.332 29.334 29.279 29.252 29.229 29.212 29.202 29.169 29.132 29.119 29.107 29.084 29.069 29.047 29.032 28.957 28.979 29.007 28.952 28.927 28.927 28.857 28.824 28.759 28.739 28.732 28.709 28.702 28.632 28.587 28.582 28.557 28.509 28.412 28.397 28.444 28.452 28.469 28.397 28.442 28.437 28.422 28.434 28.389 28.359 28.497 28.604 28.919 29.117 29.532 29.362 29.034 28.539 28.769 29.087 29.452 29.499 29.602 29.147 28.862 28.927 29.024 29.142 29.199 29.309 29.564 29.911 29.989 30.069 30.114 30.164 30.234 30.219 30.624 31.114 30.406 30.404 30.451 30.526 30.594 30.671 30.781 30.871 31.021 31.146 31.254 31.336 31.429 31.511 31.601 31.696 31.744 31.811 31.914 31.969 32.026 32.184 32.311 32.376 32.441 32.551 32.646 32.751 32.811 32.889 32.941 32.989 33.031 33.109 33.166 33.201 33.241 33.276 33.311 33.374 33.396 33.446 33.491 33.554 33.641 33.671 33.684 33.749 33.789 33.866 33.944 34.019 34.116 34.214 34.314 34.386 34.489 34.596 34.729 34.796 34.889 34.921 35.004 35.019 35.054 35.059 35.096 35.154 35.216 35.301 35.386 35.471 35.531 35.614 35.661 35.661 35.769 35.836 35.916 35.964 36.091 36.199 36.291 36.359 36.469 36.539 36.596 36.676 36.734 36.811 36.864 36.939 37.036 37.044 37.101 37.164 37.299 37.381 37.546 37.701 37.834 38.001 38.119 38.219 38.321 38.449 38.556 38.719 38.814 38.891 38.966 39.086 39.201 39.276 39.394 39.519 39.591 39.699 39.786 39.911 40.084 40.221 40.356 40.456 40.584 40.781 40.969 41.134 41.329 41.481 41.629 41.739 41.841 41.911 41.956 41.951 41.981 41.934 41.866 41.839 41.769 41.731 41.641 41.594 41.494 41.364 41.224 41.081 40.924 40.744 41.191 41.799 41.006 40.404 40.209 40.104 39.939 39.816 39.721 39.636 39.429 39.224 39.086 38.919 38.711 38.484 38.241 37.994 37.711 37.471 37.274 37.019 36.734 36.471 36.246 36.021 35.771 35.524 35.254 35.059 34.824 34.619 34.449 34.274 34.071 33.864 33.659 33.506 33.321 33.121 32.931 32.721 32.551 32.359 32.156 31.979 31.796 31.631 31.421 31.281 31.164 31.044 30.921 30.806 30.664 31.051 31.521 30.381 29.994 29.916 30.229 31.206 30.476 29.371 29.294 29.266 29.241 29.159 29.124 29.066 29.026 28.976 28.924 28.864 28.849 28.839 28.794 28.749 28.716 28.684 28.594 28.541 28.494 28.454 28.451 28.436 28.416 28.391 28.349 28.331 28.306 28.291 28.264 28.229 28.174 28.141 28.106 28.079 28.051 28.031 28.021 27.989 27.954 27.924 27.864 27.831 27.821 27.764 27.744 27.704 27.681 27.606 27.579 27.529 27.451 27.396 27.366 27.299 27.281 27.251 27.224 27.191 27.141 27.134 27.101
30.684 30.649 30.592 30.572 30.547 30.532 30.532 30.484 30.467 30.444 30.432 30.424 30.429 30.372 30.367 30.374 30.387 30.387 30.399 30.397 30.422 30.414 30.409 30.419 30.427 30.427 30.449 30.484 30.509 30.504 30.522 30.497 30.494 30.422 30.382 31.769 31.077 30.442 30.447 30.447 30.504 30.419 30.469 30.479 30.494 30.459 30.472 30.512 30.412 30.379 30.324 30.297 30.262 30.242 30.189 30.114 30.057 30.027 30.014 30.037 29.949 29.919 29.867 29.804 29.749 29.729 29.664 29.639 29.622 29.602 29.552 29.567 29.487 29.477 29.457 29.452 29.414 29.392 29.359 29.324 29.279 29.272 29.212 29.224 29.174 29.144 29.137 29.114 29.082 29.059 29.064 29.037 28.974 28.977 28.974 28.934 28.917 28.894 28.864 28.829 28.779 28.759 28.739 28.719 28.702 28.667 28.654 28.617 28.584 28.544 28.522 28.504 28.509 28.497 28.499 28.454 28.247 28.162 28.437 28.464 28.389 28.394 28.467 28.547 28.777 28.889 29.054 29.284 29.199 28.662 28.717 29.124 29.322 29.319 29.124 28.932 28.947 29.012 29.109 29.152 29.271 29.386 29.801 31.339 31.469 30.331 30.164 30.219 30.259 30.261 31.474 30.759 30.386 30.459 30.526 30.601 30.669 30.786 30.911 31.024 31.114 31.241 31.331 31.434 31.534 31.604 31.669 31.756 31.824 31.909 31.946 32.019 32.126 32.221 32.304 32.469 32.566 32.656 32.761 32.849 32.931 32.996 33.029 33.089 33.121 33.186 33.256 33.324 33.376 33.409 33.446 33.499 33.556 33.596 33.634 33.749 33.814 33.801 33.846 33.881 33.981 34.046 34.146 34.231 34.329 34.404 34.539 34.616 34.754 34.844 34.914 34.949 35.066 35.124 35.201 35.231 35.244 35.274 35.311 35.374 35.429 35.499 35.571 35.621 35.701 35.784 35.819 35.896 35.964 36.049 36.134 36.231 36.336 36.414 36.494 36.584 36.654 36.754 36.804 36.874 36.936 36.986 37.036 37.136 37.169 37.199 37.254 37.329 37.446 37.579 37.741 37.899 38.046 38.181 38.264 38.391 38.524 38.684 38.801 38.931 39.009 39.101 39.166 39.254 39.326 39.444 39.556 39.629 39.744 39.836 39.954 40.104 40.274 40.416 40.531 40.674 40.824 40.969 41.121 41.314 41.481 41.664 41.796 41.941 42.039 42.099 42.139 42.181 42.141 42.139 42.069 42.034 41.999 41.916 41.846 41.794 41.676 41.576 41.466 41.291 41.089 41.164 41.926 41.299 40.694 40.474 40.366 40.201 40.076 39.981 39.869 39.694 39.511 39.349 39.186 38.994 38.824 38.601 38.359 38.091 37.791 37.561 37.331 37.026 36.759 36.531 36.299 36.066 35.814 35.564 35.344 35.096 34.876 34.656 34.501 34.304 34.109 33.884 33.716 33.534 33.364 33.176 32.974 32.756 32.589 32.394 32.206 31.986 31.809 31.646 31.499 31.306 31.199 31.081 30.939 30.841 30.734 30.589 30.831 30.881 30.126 29.916 29.849 30.749 31.321 30.124 29.391 29.319 29.299 29.204 29.144 29.134 29.044 28.984 28.944 28.906 28.889 28.854 28.819 28.774 28.726 28.686 28.621 28.581 28.511 28.466 28.444 28.431 28.434 28.404 28.396 28.369 28.344 28.304 28.266 28.211 28.179 28.159 28.141 28.106 28.091 28.046 28.041 28.009 27.951 27.946 27.889 27.856 27.814 27.771 27.754 27.726 27.714 27.659 27.571 27.501 27.431 27.396 27.334 27.301 27.279 27.249 27.249 27.199 27.159 27.139 27.114
30.679 30.652 30.627 30.582 30.562 30.527 30.507 30.484 30.502 30.484 30.447 30.452 30.444 30.392 30.412 30.424 30.419 30.457 30.459 30.447 30.482 30.484 30.469 30.474 30.477 30.507 30.529 30.557 30.569 30.589 30.567 30.547 30.554 30.464 30.797 32.139 31.184 30.492 30.542 30.554 30.539 30.494 30.534 30.529 30.544 30.534 30.529 30.539 30.464 30.397 30.352 30.337 30.307 30.282 30.267 30.184 30.174 30.052 30.064 30.064 29.994 29.927 29.892 29.807 29.812 29.727 29.677 29.674 29.634 29.594 29.569 29.537 29.497 29.502 29.509 29.469 29.457 29.424 29.404 29.329 29.272 29.259 29.242 29.214 29.179 29.177 29.132 29.132 29.102 29.087 29.079 29.034 28.984 29.014 28.969 28.939 28.967 28.929 28.884 28.887 28.832 28.779 28.749 28.739 28.702 28.694 28.652 28.639 28.612 28.614 28.549 28.547 28.522 28.502 28.529 28.524 28.099 27.644 27.897 28.487 28.499 28.532 28.502 28.514 28.527 28.559 28.702 28.864 29.109 28.752 28.752 28.907 29.004 28.949 28.907 28.942 29.027 29.102 29.207 29.344 29.404 29.496 29.566 31.411 32.576 32.301 30.261 30.294 30.226 30.841 31.309 30.389 30.476 30.524 30.631 30.679 30.776 30.891 31.026 31.129 31.234 31.341 31.454 31.544 31.599 31.696 31.759 31.809 31.876 31.971 32.041 32.114 32.204 32.309 32.381 32.501 32.661 32.816 32.894 32.941 33.046 33.076 33.149 33.184 33.251 33.319 33.366 33.426 33.489 33.541 33.609 33.651 33.694 33.736 33.816 33.926 33.961 33.996 34.036 34.089 34.189 34.251 34.336 34.421 34.536 34.636 34.769 34.874 34.981 35.014 35.071 35.154 35.239 35.336 35.414 35.444 35.444 35.459 35.544 35.601 35.666 35.719 35.771 35.826 35.866 35.959 36.026 36.114 36.199 36.291 36.371 36.454 36.571 36.629 36.691 36.726 36.831 36.936 37.016 37.064 37.111 37.176 37.246 37.299 37.346 37.401 37.456 37.546 37.664 37.789 37.961 38.109 38.254 38.329 38.451 38.579 38.711 38.856 38.981 39.094 39.176 39.249 39.351 39.386 39.484 39.579 39.649 39.744 39.854 39.976 40.111 40.244 40.426 40.579 40.714 40.886 41.044 41.174 41.304 41.491 41.664 41.824 41.976 42.126 42.191 42.294 42.334 42.359 42.376 42.321 42.286 42.229 42.201 42.169 42.059 41.976 41.906 41.794 41.626 41.474 41.536 42.326 41.834 41.044 40.739 40.621 40.454 40.321 40.246 40.124 39.934 39.744 39.591 39.454 39.264 39.099 38.889 38.674 38.436 38.159 37.874 37.601 37.251 37.051 36.841 36.574 36.341 36.111 35.879 35.666 35.436 35.169 34.931 34.721 34.544 34.349 34.121 33.949 33.769 33.589 33.399 33.196 33.006 32.826 32.624 32.436 32.239 32.066 31.881 31.686 31.529 31.386 31.219 31.099 30.986 30.854 30.741 30.596 30.486 30.576 30.684 29.999 29.911 29.886 31.094 31.129 29.684 29.341 29.329 29.281 29.164 29.146 29.111 29.046 28.959 28.941 28.929 28.896 28.829 28.809 28.746 28.696 28.631 28.581 28.524 28.514 28.476 28.464 28.441 28.426 28.414 28.394 28.344 28.296 28.256 28.244 28.224 28.196 28.161 28.139 28.121 28.079 28.069 28.036 28.016 27.979 27.889 27.864 27.844 27.816 27.784 27.724 27.694 27.619 27.561 27.491 27.431 27.381 27.361 27.311 27.264 27.261 27.236 27.191 27.159 27.124 27.101
30.702 30.652 30.649 30.577 30.564 30.544 30.539 30.512 30.509 30.489 30.494 30.502 30.467 30.474 30.474 30.454 30.464 30.492 30.512 30.507 30.494 30.534 30.519 30.527 30.557 30.552 30.572 30.624 30.619 30.647 30.629 30.607 30.579 30.529 31.182 32.154 30.909 30.584 30.619 30.589 30.537 30.542 30.589 30.562 30.559 30.554 30.564 30.557 30.497 30.459 30.417 30.387 30.337 30.319 30.312 30.244 30.212 30.134 30.147 30.109 30.029 29.984 29.899 29.839 29.809 29.739 29.672 29.677 29.649 29.637 29.617 29.529 29.504 29.507 29.544 29.514 29.497 29.462 29.399 29.354 29.317 29.254 29.234 29.257 29.229 29.204 29.179 29.139 29.104 29.094 29.082 29.012 29.029 29.024 29.009 28.992 28.984 28.962 28.917 28.917 28.839 28.779 28.767 28.734 28.682 28.687 28.647 28.647 28.662 28.652 28.572 28.557 28.562 28.547 28.542 28.504 28.129 27.507 27.537 28.354 28.487 28.537 28.904 28.919 28.582 28.649 28.589 28.627 28.689 28.754 28.757 28.767 28.799 28.854 28.932 29.027 29.094 29.169 29.267 29.494 29.519 29.734 30.191 30.921 32.476 31.636 30.229 30.261 30.324 31.556 30.601 30.444 30.536 30.601 30.701 30.759 30.914 31.029 31.129 31.221 31.354 31.446 31.556 31.621 31.681 31.756 31.821 31.894 31.964 32.051 32.129 32.209 32.309 32.406 32.506 32.616 32.701 32.841 33.034 33.089 33.124 33.211 33.231 33.336 33.389 33.444 33.509 33.556 33.606 33.679 33.726 33.799 33.869 33.929 34.034 34.116 34.114 34.171 34.254 34.319 34.406 34.451 34.541 34.641 34.769 34.894 34.981 35.046 35.119 35.186 35.279 35.341 35.476 35.546 35.604 35.631 35.636 35.681 35.751 35.809 35.886 35.909 35.926 35.976 36.094 36.179 36.271 36.361 36.471 36.564 36.659 36.759 36.819 36.876 36.896 36.956 37.054 37.136 37.204 37.261 37.309 37.389 37.429 37.516 37.576 37.646 37.699 37.801 37.891 38.034 38.161 38.294 38.409 38.494 38.644 38.749 38.879 38.989 39.106 39.224 39.309 39.384 39.481 39.524 39.611 39.721 39.791 39.876 39.954 40.089 40.224 40.384 40.569 40.724 40.904 41.101 41.254 41.444 41.579 41.744 41.846 41.974 42.126 42.246 42.356 42.444 42.461 42.524 42.546 42.529 42.501 42.434 42.376 42.351 42.266 42.189 42.114 41.936 41.784 41.789 42.451 42.666 41.411 41.079 40.904 40.739 40.599 40.501 40.379 40.209 40.001 39.839 39.681 39.529 39.349 39.146 38.954 38.719 38.476 38.221 37.926 37.576 37.339 37.121 36.854 36.619 36.356 36.121 35.939 35.764 35.484 35.209 34.989 34.771 34.566 34.356 34.186 33.976 33.799 33.626 33.431 33.219 33.051 32.839 32.651 32.464 32.249 32.084 31.909 31.734 31.559 31.426 31.264 31.096 31.001 30.874 30.739 30.664 30.536 30.536 30.894 30.581 29.916 29.851 30.111 31.311 30.581 29.391 29.366 29.334 29.246 29.174 29.159 29.089 29.019 28.964 28.961 28.919 28.871 28.824 28.779 28.734 28.629 28.591 28.549 28.521 28.526 28.481 28.486 28.444 28.406 28.384 28.314 28.304 28.276 28.274 28.244 28.216 28.196 28.171 28.139 28.104 28.091 28.056 28.009 27.986 27.931 27.891 27.844 27.826 27.764 27.724 27.689 27.611 27.559 27.511 27.431 27.391 27.366 27.336 27.296 27.251 27.229 27.186 27.159 27.124 27.081
30.702 30.689 30.669 30.597 30.584 30.579 30.552 30.532 30.552 30.554 30.562 30.519 30.497 30.502 30.502 30.522 30.544 30.567 30.564 30.582 30.584 30.572 30.572 30.624 30.609 30.624 30.642 30.667 30.684 30.694 30.689 30.644 30.604 30.544 31.749 32.112 30.779 30.652 30.662 30.569 30.552 30.594 30.612 30.587 30.589 30.577 30.614 30.567 30.537 30.502 30.427 30.434 30.374 30.364 30.372 30.314 30.267 30.187 30.164 30.102 30.062 29.999 29.942 29.899 29.887 29.789 29.699 29.687 29.647 29.644 29.659 29.589 29.544 29.527 29.517 29.487 29.474 29.472 29.402 29.379 29.322 29.287 29.284 29.282 29.232 29.202 29.207 29.167 29.109 29.092 29.074 29.047 29.022 29.044 29.014 28.979 28.977 28.947 28.914 28.904 28.864 28.802 28.784 28.754 28.719 28.699 28.697 28.669 28.674 28.647 28.587 28.597 28.582 28.559 28.567 28.507 28.232 27.612 27.422 28.252 28.529 28.604 29.629 31.729 31.754 31.624 29.959 28.742 28.764 28.779 28.749 28.772 28.837 28.924 28.994 29.059 29.134 29.227 29.327 29.542 29.566 29.901 30.621 32.251 33.869 30.456 30.294 30.291 31.129 31.156 30.399 30.526 30.591 30.661 30.764 30.874 31.009 31.134 31.199 31.364 31.444 31.551 31.631 31.696 31.786 31.864 31.926 31.981 32.051 32.154 32.199 32.296 32.381 32.499 32.639 32.726 32.831 32.934 33.044 33.176 33.289 33.311 33.369 33.464 33.536 33.609 33.661 33.739 33.781 33.809 33.866 33.936 34.044 34.139 34.204 34.226 34.296 34.386 34.454 34.531 34.609 34.694 34.774 34.861 34.986 35.061 35.156 35.229 35.321 35.431 35.509 35.606 35.694 35.769 35.761 35.819 35.866 35.911 35.956 36.019 36.091 36.104 36.144 36.224 36.321 36.421 36.516 36.634 36.769 36.849 36.944 37.021 37.051 37.099 37.119 37.199 37.286 37.336 37.416 37.466 37.546 37.591 37.631 37.711 37.849 37.881 37.951 38.021 38.126 38.254 38.371 38.474 38.564 38.676 38.789 38.894 38.989 39.101 39.239 39.321 39.429 39.484 39.579 39.666 39.759 39.871 39.909 39.971 40.106 40.216 40.351 40.531 40.701 40.911 41.114 41.296 41.489 41.654 41.826 41.951 42.051 42.179 42.284 42.381 42.454 42.549 42.591 42.671 42.679 42.681 42.631 42.621 42.586 42.519 42.451 42.379 42.266 42.061 42.169 42.904 42.469 41.694 41.334 41.171 41.006 40.859 40.749 40.626 40.454 40.234 40.079 39.901 39.731 39.584 39.421 39.224 38.986 38.764 38.556 38.229 37.859 37.591 37.389 37.149 36.874 36.609 36.356 36.151 36.014 35.776 35.531 35.256 35.026 34.816 34.609 34.384 34.189 34.006 33.826 33.634 33.421 33.254 33.056 32.849 32.666 32.454 32.304 32.126 31.956 31.776 31.619 31.459 31.296 31.121 31.014 30.879 30.769 30.664 30.561 30.451 30.779 31.399 30.224 29.874 29.756 30.336 31.404 30.486 29.389 29.386 29.346 29.239 29.149 29.111 29.059 29.004 28.974 28.941 28.891 28.831 28.781 28.719 28.679 28.621 28.566 28.556 28.541 28.519 28.486 28.451 28.406 28.364 28.304 28.296 28.276 28.286 28.254 28.224 28.204 28.184 28.154 28.126 28.071 28.059 28.019 27.994 27.939 27.881 27.871 27.801 27.746 27.701 27.656 27.594 27.544 27.511 27.431 27.389 27.349 27.346 27.309 27.264 27.221 27.159 27.134 27.089 27.051
30.739 30.707 30.712 30.652 30.637 30.594 30.572 30.574 30.604 30.557 30.599 30.609 30.562 30.572 30.574 30.592 30.599 30.634 30.639 30.649 30.652 30.637 30.642 30.687 30.664 30.667 30.712 30.727 30.719 30.737 30.739 30.689 30.647 30.769 32.457 31.404 30.699 30.692 30.679 30.587 30.627 30.662 30.669 30.634 30.612 30.634 30.622 30.599 30.589 30.559 30.469 30.417 30.379 30.374 30.377 30.294 30.284 30.232 30.174 30.102 30.044 30.024 29.987 29.957 29.904 29.847 29.792 29.772 29.722 29.699 29.679 29.647 29.584 29.584 29.547 29.507 29.494 29.479 29.444 29.419 29.324 29.302 29.247 29.247 29.224 29.194 29.199 29.164 29.122 29.134 29.137 29.084 29.047 29.037 29.009 29.014 28.982 28.959 28.919 28.907 28.864 28.812 28.789 28.759 28.724 28.722 28.717 28.664 28.674 28.654 28.627 28.612 28.582 28.567 28.582 28.547 28.029 27.779 28.512 28.772 28.529 28.537 28.582 28.982 31.064 29.979 29.754 28.862 28.827 28.812 28.772 28.824 28.884 28.982 29.007 29.092 29.202 29.292 29.452 29.644 29.934 30.176 30.269 31.864 31.494 30.289 30.316 30.504 31.539 30.509 30.469 30.561 30.661 30.776 30.879 31.009 31.086 31.191 31.314 31.444 31.556 31.646 31.706 31.794 31.864 31.949 32.029 32.081 32.149 32.266 32.334 32.401 32.506 32.621 32.744 32.834 32.951 33.054 33.151 33.221 33.354 33.479 33.554 33.581 33.664 33.751 33.814 33.859 33.921 33.951 34.031 34.129 34.246 34.351 34.366 34.416 34.506 34.559 34.656 34.724 34.809 34.894 34.996 35.099 35.191 35.256 35.359 35.461 35.569 35.641 35.741 35.804 35.921 35.914 35.936 35.974 36.079 36.134 36.204 36.286 36.301 36.344 36.371 36.449 36.561 36.659 36.779 36.924 37.036 37.131 37.214 37.276 37.311 37.374 37.376 37.476 37.509 37.559 37.606 37.676 37.729 37.744 37.824 37.924 38.026 38.076 38.146 38.239 38.336 38.456 38.554 38.624 38.719 38.799 38.876 38.996 39.109 39.201 39.339 39.424 39.504 39.581 39.694 39.809 39.934 40.019 40.099 40.174 40.274 40.389 40.566 40.719 40.911 41.114 41.309 41.499 41.689 41.886 42.056 42.209 42.301 42.394 42.481 42.524 42.621 42.656 42.724 42.741 42.771 42.766 42.779 42.764 42.714 42.664 42.594 42.489 42.356 42.569 43.381 42.976 41.896 41.561 41.419 41.286 41.121 41.009 40.879 40.679 40.479 40.309 40.119 39.954 39.814 39.644 39.451 39.241 38.979 38.789 38.569 38.181 37.924 37.689 37.444 37.189 36.906 36.659 36.394 36.229 36.021 35.801 35.529 35.279 35.081 34.869 34.624 34.414 34.219 34.031 33.816 33.659 33.461 33.269 33.069 32.874 32.676 32.504 32.329 32.174 31.961 31.816 31.644 31.501 31.341 31.189 31.026 30.864 30.774 30.656 30.591 30.496 30.516 30.951 31.189 30.016 29.864 29.774 30.764 31.254 29.896 29.401 29.394 29.314 29.184 29.119 29.071 29.026 28.976 28.966 28.931 28.886 28.819 28.744 28.684 28.661 28.614 28.584 28.569 28.534 28.474 28.436 28.384 28.349 28.336 28.319 28.301 28.279 28.284 28.236 28.199 28.176 28.159 28.116 28.086 28.069 28.029 27.999 27.931 27.909 27.856 27.781 27.726 27.684 27.636 27.579 27.534 27.484 27.444 27.406 27.351 27.321 27.286 27.241 27.179 27.124 27.101 27.071 27.029
30.774 30.722 30.722 30.659 30.634 30.619 30.597 30.632 30.642 30.629 30.647 30.629 30.609 30.647 30.627 30.672 30.674 30.717 30.697 30.724 30.699 30.684 30.709 30.727 30.734 30.729 30.779 30.789 30.779 30.782 30.754 30.729 30.682 30.949 32.289 31.097 30.774 30.744 30.717 30.659 30.707 30.717 30.699 30.692 30.652 30.659 30.639 30.619 30.609 30.562 30.494 30.437 30.369 30.364 30.347 30.302 30.299 30.267 30.177 30.152 30.089 30.079 30.017 30.014 29.974 29.897 29.819 29.784 29.762 29.732 29.699 29.672 29.619 29.609 29.617 29.544 29.479 29.479 29.484 29.454 29.369 29.344 29.314 29.252 29.239 29.194 29.147 29.137 29.099 29.137 29.109 29.059 29.072 29.064 29.009 29.007 28.979 28.959 28.944 28.944 28.867 28.874 28.824 28.784 28.762 28.754 28.734 28.687 28.709 28.689 28.657 28.642 28.599 28.577 28.602 28.682 28.422 31.029 31.172 28.179 28.534 28.589 28.664 29.347 30.007 28.804 28.909 28.822 28.812 28.774 28.797 28.919 28.967 29.022 29.034 29.122 29.237 29.434 29.747 29.769 29.979 30.171 32.696 33.594 30.291 30.334 30.336 31.389 30.996 30.419 30.539 30.651 30.769 30.869 30.984 31.074 31.161 31.286 31.446 31.561 31.616 31.711 31.801 31.879 31.954 32.029 32.124 32.196 32.261 32.374 32.429 32.514 32.631 32.741 32.839 32.961 33.079 33.146 33.249 33.361 33.449 33.541 33.669 33.799 33.794 33.871 33.969 34.024 34.111 34.164 34.234 34.341 34.451 34.466 34.511 34.609 34.691 34.759 34.851 34.914 35.006 35.109 35.216 35.301 35.409 35.491 35.614 35.706 35.804 35.851 35.916 35.994 36.031 36.049 36.129 36.206 36.266 36.354 36.429 36.494 36.526 36.549 36.609 36.736 36.804 36.936 37.051 37.181 37.274 37.369 37.464 37.519 37.574 37.611 37.664 37.724 37.751 37.759 37.799 37.891 37.929 37.961 38.026 38.136 38.214 38.266 38.371 38.464 38.584 38.674 38.706 38.761 38.814 38.891 38.969 39.079 39.206 39.319 39.399 39.499 39.591 39.709 39.846 39.954 40.084 40.174 40.309 40.391 40.489 40.606 40.756 40.939 41.114 41.334 41.501 41.679 41.896 42.084 42.276 42.404 42.534 42.611 42.679 42.691 42.744 42.781 42.799 42.819 42.834 42.836 42.869 42.894 42.861 42.819 42.726 42.616 42.936 43.499 42.571 42.116 41.776 41.664 41.521 41.371 41.236 41.114 40.934 40.724 40.539 40.356 40.189 40.026 39.844 39.654 39.466 39.256 39.044 38.786 38.489 38.214 37.971 37.726 37.491 37.206 36.926 36.684 36.484 36.261 36.029 35.766 35.551 35.321 35.131 34.899 34.681 34.459 34.254 34.039 33.851 33.661 33.431 33.254 33.056 32.871 32.704 32.559 32.356 32.201 32.024 31.866 31.709 31.544 31.384 31.196 31.039 30.896 30.814 30.664 30.584 30.506 30.411 30.519 31.289 30.866 29.924 29.804 29.711 30.949 30.874 29.516 29.384 29.361 29.281 29.139 29.086 29.059 29.006 28.994 28.954 28.879 28.811 28.761 28.709 28.699 28.664 28.631 28.616 28.559 28.469 28.436 28.391 28.371 28.341 28.331 28.319 28.311 28.291 28.244 28.209 28.196 28.181 28.146 28.104 28.054 28.031 27.994 27.939 27.866 27.819 27.756 27.711 27.661 27.591 27.519 27.534 27.461 27.431 27.411 27.361 27.321 27.269 27.179 27.121 27.099 27.081 27.026 26.999
30.762 30.757 30.719 30.669 30.642 30.639 30.637 30.669 30.659 30.672 30.699 30.677 30.672 30.689 30.702 30.709 30.742 30.749 30.744 30.772 30.759 30.754 30.749 30.759 30.779 30.847 30.839 30.834 30.829 30.824 30.809 30.774 30.742 31.087 32.067 31.184 30.762 30.789 30.739 30.672 30.714 30.739 30.709 30.702 30.694 30.667 30.667 30.657 30.664 30.584 30.579 30.484 30.462 30.417 30.387 30.334 30.349 30.282 30.242 30.177 30.122 30.089 30.039 30.047 30.009 29.929 29.879 29.844 29.794 29.767 29.744 29.697 29.679 29.672 29.597 29.542 29.514 29.472 29.484 29.464 29.417 29.372 29.362 29.282 29.254 29.227 29.187 29.172 29.177 29.157 29.139 29.059 29.034 29.062 29.014 28.987 28.997 28.959 28.954 28.934 28.887 28.849 28.839 28.817 28.797 28.782 28.729 28.709 28.704 28.699 28.677 28.657 28.614 28.612 28.627 28.642 29.204 29.799 29.999 28.924 28.652 28.642 28.689 28.744 29.064 28.969 28.824 28.829 28.819 28.812 28.962 28.972 29.009 29.062 29.102 29.194 29.312 29.489 29.667 29.842 29.889 29.949 32.266 31.214 30.361 30.336 30.626 31.414 30.434 30.521 30.589 30.716 30.841 30.971 31.086 31.161 31.266 31.444 31.551 31.641 31.701 31.779 31.861 31.969 32.059 32.124 32.199 32.289 32.369 32.501 32.581 32.681 32.766 32.869 32.986 33.069 33.176 33.294 33.359 33.486 33.574 33.686 33.766 33.881 34.021 34.074 34.129 34.214 34.299 34.336 34.444 34.546 34.606 34.614 34.694 34.794 34.881 34.966 35.044 35.111 35.224 35.331 35.449 35.529 35.676 35.736 35.866 35.954 35.964 36.024 36.074 36.171 36.186 36.221 36.324 36.386 36.499 36.581 36.656 36.706 36.719 36.779 36.914 36.986 37.124 37.231 37.341 37.429 37.544 37.579 37.676 37.754 37.829 37.889 37.936 37.954 37.999 37.979 38.066 38.109 38.156 38.214 38.284 38.371 38.434 38.531 38.616 38.696 38.799 38.856 38.851 38.901 38.919 39.001 39.066 39.164 39.291 39.391 39.516 39.594 39.739 39.871 39.979 40.116 40.246 40.386 40.494 40.594 40.699 40.844 41.006 41.176 41.369 41.524 41.724 41.909 42.084 42.269 42.459 42.571 42.694 42.809 42.846 42.856 42.886 42.924 42.919 42.919 42.901 42.964 43.001 42.996 42.971 42.919 42.834 43.296 44.061 43.031 42.214 42.004 41.889 41.744 41.616 41.481 41.356 41.164 40.984 40.756 40.579 40.396 40.224 40.036 39.884 39.684 39.479 39.261 39.014 38.689 38.461 38.236 38.004 37.764 37.481 37.204 36.926 36.709 36.489 36.256 36.021 35.794 35.551 35.334 35.121 34.934 34.709 34.489 34.259 34.084 33.866 33.666 33.421 33.241 33.034 32.866 32.739 32.554 32.386 32.219 32.059 31.911 31.699 31.576 31.376 31.219 31.089 30.931 30.789 30.696 30.599 30.484 30.426 30.336 30.644 31.406 30.714 29.831 29.729 29.939 31.236 30.656 29.431 29.414 29.359 29.236 29.101 29.091 29.064 29.031 28.961 28.901 28.856 28.806 28.731 28.721 28.669 28.661 28.609 28.534 28.496 28.441 28.399 28.411 28.369 28.369 28.331 28.324 28.286 28.261 28.254 28.209 28.221 28.159 28.121 28.084 28.026 27.984 27.924 27.861 27.789 27.754 27.679 27.661 27.579 27.544 27.486 27.466 27.431 27.404 27.349 27.289 27.224 27.146 27.116 27.094 27.056 27.011 26.971
30.799 30.762 30.722 30.677 30.667 30.659 30.657 30.712 30.697 30.707 30.729 30.709 30.719 30.737 30.762 30.769 30.804 30.774 30.777 30.814 30.794 30.807 30.817 30.827 30.824 30.864 30.882 30.882 30.884 30.859 30.834 30.804 30.754 32.252 32.544 31.229 30.812 30.802 30.742 30.767 30.779 30.789 30.779 30.757 30.717 30.674 30.682 30.677 30.654 30.609 30.594 30.519 30.507 30.492 30.447 30.352 30.342 30.342 30.242 30.179 30.184 30.124 30.087 30.052 30.007 29.949 29.904 29.852 29.842 29.809 29.729 29.689 29.722 29.719 29.669 29.582 29.549 29.494 29.469 29.459 29.417 29.374 29.362 29.319 29.307 29.262 29.229 29.184 29.199 29.177 29.159 29.104 29.092 29.094 29.029 29.014 29.007 28.972 28.962 28.919 28.904 28.877 28.854 28.809 28.767 28.754 28.752 28.752 28.727 28.709 28.692 28.654 28.644 28.637 28.609 28.557 30.724 30.479 27.762 28.759 28.614 28.664 28.717 28.744 28.892 28.959 28.917 28.887 28.909 29.049 29.747 30.009 30.782 31.104 29.279 29.249 29.684 30.062 29.749 29.829 30.124 29.961 32.046 30.331 30.331 30.324 31.239 30.691 30.446 30.554 30.646 30.806 30.934 31.059 31.139 31.266 31.391 31.526 31.631 31.709 31.776 31.859 31.931 32.039 32.114 32.184 32.306 32.404 32.499 32.576 32.696 32.784 32.886 33.011 33.109 33.189 33.294 33.386 33.476 33.614 33.711 33.801 33.924 34.016 34.071 34.216 34.319 34.366 34.446 34.526 34.669 34.729 34.761 34.839 34.901 34.996 35.076 35.156 35.224 35.344 35.464 35.569 35.634 35.789 35.869 35.984 36.076 36.094 36.131 36.211 36.264 36.309 36.366 36.441 36.504 36.609 36.691 36.809 36.879 36.929 36.999 37.069 37.161 37.289 37.411 37.499 37.599 37.709 37.759 37.836 37.901 37.991 38.054 38.091 38.141 38.181 38.206 38.279 38.321 38.364 38.451 38.491 38.531 38.629 38.691 38.801 38.899 38.956 39.004 39.024 39.044 39.074 39.084 39.141 39.211 39.269 39.396 39.506 39.639 39.779 39.881 40.004 40.171 40.311 40.456 40.601 40.714 40.831 40.989 41.109 41.274 41.469 41.629 41.784 41.934 42.119 42.264 42.436 42.616 42.741 42.864 42.939 43.001 43.044 43.064 43.056 43.076 43.044 43.074 43.076 43.116 43.064 43.054 43.016 43.511 44.221 43.246 42.401 42.199 42.091 41.974 41.826 41.719 41.569 41.401 41.196 40.994 40.799 40.611 40.444 40.264 40.086 39.879 39.691 39.486 39.234 38.966 38.711 38.466 38.269 38.004 37.736 37.464 37.171 36.974 36.751 36.511 36.256 36.029 35.779 35.586 35.346 35.146 34.921 34.719 34.486 34.311 34.084 33.886 33.651 33.426 33.226 33.064 32.896 32.739 32.576 32.394 32.261 32.081 31.919 31.756 31.576 31.411 31.244 31.134 30.951 30.796 30.706 30.601 30.494 30.406 30.326 30.219 31.076 31.529 30.341 29.794 29.674 30.151 31.231 29.989 29.434 29.399 29.331 29.186 29.096 29.079 29.054 28.999 28.926 28.889 28.846 28.774 28.724 28.699 28.689 28.611 28.551 28.526 28.456 28.429 28.391 28.379 28.366 28.336 28.316 28.281 28.249 28.224 28.211 28.181 28.149 28.124 28.079 28.021 27.951 27.894 27.829 27.776 27.719 27.666 27.624 27.594 27.534 27.511 27.459 27.409 27.396 27.341 27.261 27.189 27.134 27.114 27.039 27.016 27.001 26.961
30.807 30.757 30.739 30.724 30.692 30.684 30.702 30.714 30.744 30.749 30.747 30.729 30.759 30.774 30.782 30.797 30.829 30.809 30.834 30.832 30.834 30.844 30.842 30.869 30.862 30.912 30.904 30.929 30.899 30.877 30.849 30.812 31.009 32.322 32.069 31.064 30.849 30.837 30.759 30.789 30.804 30.804 30.777 30.744 30.747 30.732 30.717 30.687 30.687 30.699 30.627 30.529 30.482 30.472 30.502 30.397 30.372 30.304 30.299 30.217 30.219 30.172 30.099 30.069 30.022 30.002 29.967 29.909 29.844 29.854 29.812 29.732 29.737 29.742 29.682 29.642 29.547 29.502 29.457 29.439 29.389 29.369 29.379 29.339 29.307 29.272 29.219 29.202 29.194 29.202 29.174 29.117 29.107 29.099 29.057 29.059 28.994 28.972 28.984 28.954 28.917 28.884 28.867 28.814 28.797 28.787 28.769 28.754 28.724 28.704 28.662 28.654 28.657 28.662 28.639 28.427 27.772 27.732 27.987 28.624 28.672 28.699 28.697 28.747 28.812 28.857 28.904 28.937 28.964 30.372 30.737 31.439 33.039 33.499 31.352 30.499 29.609 29.729 29.674 29.752 30.054 31.141 31.806 30.369 30.369 30.949 31.106 30.374 30.489 30.594 30.739 30.889 31.014 31.146 31.254 31.376 31.511 31.619 31.704 31.786 31.841 31.961 32.026 32.121 32.214 32.299 32.406 32.501 32.616 32.686 32.826 32.914 33.009 33.131 33.226 33.316 33.419 33.541 33.616 33.716 33.841 33.956 34.071 34.144 34.274 34.334 34.456 34.601 34.661 34.769 34.839 34.851 34.941 35.011 35.076 35.196 35.271 35.366 35.451 35.574 35.684 35.751 35.911 35.991 36.071 36.189 36.246 36.271 36.299 36.369 36.444 36.499 36.574 36.636 36.729 36.846 36.941 37.021 37.114 37.164 37.229 37.319 37.471 37.551 37.659 37.744 37.854 37.946 38.009 38.061 38.114 38.189 38.264 38.321 38.359 38.394 38.486 38.536 38.604 38.671 38.734 38.769 38.844 38.884 38.959 39.059 39.136 39.149 39.184 39.214 39.239 39.236 39.266 39.349 39.376 39.434 39.559 39.704 39.834 39.966 40.111 40.249 40.374 40.539 40.696 40.786 40.941 41.084 41.209 41.396 41.579 41.739 41.894 42.011 42.209 42.319 42.486 42.654 42.786 42.916 42.999 43.079 43.126 43.146 43.189 43.241 43.234 43.239 43.219 43.184 43.191 43.139 43.161 43.556 44.491 43.471 42.639 42.431 42.309 42.171 42.059 41.971 41.816 41.651 41.424 41.216 41.014 40.844 40.674 40.471 40.269 40.084 39.906 39.696 39.469 39.219 38.974 38.714 38.486 38.239 37.981 37.754 37.449 37.206 36.994 36.751 36.516 36.261 36.031 35.789 35.564 35.361 35.146 34.919 34.709 34.529 34.291 34.094 33.866 33.656 33.454 33.264 33.061 32.901 32.724 32.571 32.411 32.274 32.109 31.959 31.766 31.619 31.436 31.289 31.119 30.986 30.861 30.694 30.606 30.511 30.414 30.319 30.244 30.206 30.946 31.224 30.086 29.776 29.629 30.699 30.711 29.694 29.391 29.361 29.294 29.184 29.101 29.091 29.046 28.971 28.906 28.866 28.801 28.769 28.726 28.689 28.656 28.591 28.546 28.496 28.439 28.419 28.384 28.369 28.349 28.324 28.284 28.246 28.239 28.214 28.191 28.164 28.134 28.079 27.999 27.944 27.866 27.824 27.776 27.729 27.689 27.631 27.581 27.541 27.466 27.426 27.389 27.349 27.309 27.226 27.184 27.131 27.081 27.016 27.001 26.961 26.934
30.812 30.777 30.764 30.742 30.729 30.724 30.742 30.754 30.764 30.789 30.762 30.762 30.769 30.789 30.829 30.822 30.842 30.849 30.864 30.859 30.847 30.882 30.864 30.889 30.907 30.944 30.944 30.944 30.939 30.917 30.874 30.832 31.232 32.512 31.359 30.889 30.864 30.847 30.817 30.827 30.844 30.839 30.809 30.782 30.772 30.789 30.754 30.742 30.732 30.699 30.677 30.577 30.519 30.517 30.502 30.407 30.417 30.362 30.327 30.252 30.192 30.187 30.132 30.092 30.077 30.034 29.992 29.934 29.894 29.867 29.807 29.787 29.747 29.724 29.684 29.647 29.592 29.519 29.504 29.482 29.417 29.404 29.419 29.382 29.324 29.272 29.237 29.234 29.224 29.192 29.162 29.122 29.112 29.082 29.049 29.057 29.012 28.989 29.007 28.972 28.927 28.912 28.874 28.829 28.822 28.804 28.757 28.737 28.724 28.709 28.692 28.699 28.722 28.669 28.629 28.527 28.502 27.657 28.302 28.754 28.707 28.727 28.777 28.787 28.829 28.864 28.934 28.974 29.614 32.052 31.872 31.712 32.547 32.449 32.319 30.917 30.247 29.527 29.622 30.127 32.371 34.206 30.401 30.386 30.524 31.676 30.561 30.404 30.524 30.671 30.841 30.961 31.104 31.204 31.331 31.484 31.591 31.679 31.779 31.849 31.944 32.026 32.126 32.211 32.291 32.381 32.524 32.599 32.696 32.821 32.921 33.026 33.131 33.224 33.339 33.436 33.541 33.656 33.761 33.869 33.976 34.106 34.236 34.314 34.406 34.494 34.596 34.651 34.826 34.936 34.989 35.034 35.136 35.219 35.311 35.376 35.471 35.561 35.666 35.801 35.919 36.006 36.116 36.199 36.304 36.394 36.411 36.454 36.496 36.601 36.659 36.704 36.789 36.869 36.971 37.089 37.151 37.241 37.326 37.399 37.491 37.621 37.706 37.776 37.879 37.984 38.096 38.189 38.236 38.276 38.354 38.424 38.476 38.524 38.586 38.661 38.774 38.841 38.906 38.951 38.966 39.051 39.106 39.176 39.226 39.336 39.361 39.379 39.376 39.371 39.396 39.456 39.546 39.581 39.641 39.714 39.821 39.936 40.111 40.244 40.356 40.481 40.599 40.769 40.919 41.034 41.184 41.316 41.481 41.646 41.841 42.006 42.171 42.301 42.436 42.536 42.694 42.836 42.964 43.049 43.114 43.216 43.246 43.319 43.336 43.381 43.406 43.364 43.319 43.259 43.226 43.251 43.684 44.584 43.469 42.814 42.604 42.504 42.389 42.291 42.199 42.051 41.864 41.669 41.436 41.234 41.051 40.866 40.721 40.489 40.296 40.104 39.921 39.701 39.436 39.216 38.969 38.709 38.459 38.211 38.006 37.711 37.469 37.214 36.946 36.726 36.469 36.269 36.019 35.774 35.549 35.361 35.119 34.911 34.736 34.504 34.294 34.086 33.876 33.646 33.459 33.279 33.086 32.904 32.754 32.589 32.446 32.266 32.106 31.946 31.779 31.581 31.456 31.311 31.116 30.999 30.854 30.741 30.596 30.501 30.419 30.304 30.259 30.206 30.326 31.194 31.309 30.019 29.706 29.614 31.099 31.394 29.664 29.379 29.364 29.259 29.154 29.106 29.099 29.029 28.951 28.904 28.854 28.806 28.736 28.719 28.686 28.626 28.581 28.521 28.444 28.409 28.356 28.359 28.341 28.319 28.299 28.249 28.206 28.199 28.181 28.146 28.116 28.046 28.006 27.936 27.859 27.819 27.791 27.736 27.679 27.611 27.566 27.504 27.469 27.421 27.384 27.326 27.256 27.191 27.176 27.121 27.039 27.029 26.979 26.944 26.919
30.829 30.809 30.787 30.787 30.749 30.762 30.807 30.782 30.782 30.797 30.794 30.782 30.814 30.839 30.822 30.887 30.872 30.904 30.877 30.902 30.899 30.917 30.907 30.929 30.944 30.974 30.967 30.959 30.952 30.939 30.904 30.864 31.847 32.384 30.972 30.887 30.932 30.909 30.862 30.857 30.867 30.829 30.834 30.814 30.784 30.782 30.777 30.789 30.707 30.729 30.669 30.599 30.569 30.554 30.469 30.447 30.442 30.424 30.304 30.317 30.244 30.212 30.179 30.117 30.074 30.059 30.014 29.937 29.899 29.904 29.887 29.817 29.779 29.762 29.717 29.667 29.627 29.579 29.577 29.534 29.477 29.452 29.422 29.409 29.379 29.324 29.269 29.242 29.234 29.189 29.157 29.117 29.137 29.119 29.087 29.097 29.044 29.017 29.024 28.999 28.954 28.897 28.867 28.857 28.837 28.792 28.797 28.769 28.749 28.752 28.739 28.744 28.797 28.707 28.699 28.689 28.559 28.514 28.674 28.792 28.774 28.827 28.909 28.827 28.842 28.969 28.972 29.014 29.132 31.707 30.532 30.274 30.797 30.764 32.462 32.544 29.512 29.537 29.677 31.109 32.811 30.919 30.404 30.411 31.169 30.991 30.376 30.481 30.604 30.769 30.924 31.051 31.186 31.311 31.426 31.576 31.659 31.751 31.869 31.931 32.019 32.106 32.191 32.279 32.371 32.499 32.639 32.701 32.791 32.911 33.044 33.136 33.219 33.351 33.431 33.536 33.641 33.791 33.894 34.024 34.139 34.261 34.376 34.504 34.606 34.686 34.769 34.876 34.991 35.046 35.139 35.221 35.314 35.431 35.514 35.601 35.694 35.804 35.891 36.034 36.101 36.261 36.299 36.439 36.516 36.571 36.586 36.636 36.699 36.804 36.839 36.941 37.041 37.139 37.229 37.309 37.389 37.459 37.526 37.634 37.741 37.861 37.924 38.036 38.146 38.229 38.311 38.381 38.451 38.534 38.614 38.701 38.751 38.774 38.851 38.984 39.026 39.134 39.151 39.249 39.319 39.361 39.404 39.441 39.536 39.546 39.589 39.621 39.621 39.551 39.569 39.706 39.834 39.866 39.924 39.996 40.104 40.231 40.349 40.499 40.561 40.739 40.914 41.054 41.151 41.289 41.414 41.589 41.741 41.921 42.104 42.246 42.429 42.574 42.669 42.799 42.919 43.064 43.134 43.181 43.259 43.314 43.374 43.401 43.431 43.469 43.464 43.419 43.374 43.289 43.314 43.444 44.354 43.724 42.994 42.801 42.674 42.564 42.446 42.371 42.269 42.059 41.839 41.631 41.441 41.241 41.056 40.894 40.716 40.504 40.326 40.124 39.916 39.704 39.449 39.211 38.926 38.656 38.409 38.211 37.934 37.684 37.429 37.146 36.934 36.704 36.481 36.219 35.999 35.764 35.566 35.336 35.131 34.931 34.694 34.516 34.286 34.094 33.876 33.671 33.449 33.311 33.119 32.949 32.766 32.586 32.439 32.241 32.076 31.921 31.764 31.611 31.464 31.314 31.161 31.009 30.894 30.779 30.646 30.514 30.434 30.346 30.254 30.211 30.139 30.246 31.221 31.064 29.889 29.641 29.619 31.834 30.466 29.429 29.384 29.329 29.244 29.134 29.084 29.076 29.011 28.946 28.909 28.836 28.781 28.729 28.696 28.666 28.594 28.524 28.479 28.434 28.399 28.376 28.344 28.334 28.301 28.264 28.234 28.209 28.171 28.139 28.089 28.029 27.981 27.926 27.874 27.814 27.776 27.734 27.679 27.624 27.554 27.486 27.451 27.424 27.351 27.266 27.239 27.174 27.124 27.079 27.029 27.011 26.964 26.934 26.919
30.879 30.834 30.842 30.812 30.809 30.829 30.867 30.832 30.867 30.872 30.829 30.852 30.854 30.889 30.872 30.909 30.914 30.942 30.937 30.919 30.949 30.969 30.964 30.969 30.987 30.982 31.002 31.004 30.997 30.969 30.922 31.017 32.362 31.632 30.974 30.934 30.944 30.959 30.909 30.859 30.874 30.884 30.884 30.862 30.834 30.819 30.802 30.839 30.767 30.772 30.694 30.632 30.619 30.564 30.517 30.464 30.392 30.422 30.414 30.322 30.287 30.284 30.237 30.162 30.062 30.049 29.984 29.957 29.927 29.919 29.939 29.847 29.779 29.782 29.707 29.709 29.642 29.607 29.612 29.552 29.504 29.477 29.464 29.412 29.394 29.334 29.269 29.299 29.329 29.207 29.202 29.169 29.187 29.202 29.114 29.124 29.077 29.044 29.047 29.004 28.954 28.924 28.882 28.867 28.847 28.824 28.817 28.814 28.789 28.757 28.752 28.734 28.759 28.812 28.759 28.734 28.689 28.667 28.704 28.762 28.842 28.882 28.872 28.874 28.922 29.059 28.974 29.042 29.052 29.759 29.339 30.484 32.427 32.597 32.587 32.517 30.299 29.519 29.682 32.459 31.759 30.419 30.446 30.814 31.601 30.509 30.486 30.551 30.716 30.894 31.019 31.124 31.249 31.444 31.534 31.634 31.734 31.811 31.919 32.011 32.091 32.166 32.244 32.371 32.489 32.591 32.706 32.784 32.906 33.031 33.136 33.234 33.349 33.429 33.549 33.664 33.779 33.914 34.054 34.204 34.286 34.436 34.544 34.661 34.764 34.861 34.934 35.051 35.166 35.226 35.294 35.386 35.499 35.614 35.714 35.816 35.909 36.034 36.139 36.216 36.364 36.426 36.511 36.631 36.709 36.746 36.789 36.871 36.939 37.024 37.104 37.221 37.296 37.389 37.494 37.574 37.641 37.699 37.766 37.891 37.999 38.081 38.171 38.269 38.386 38.446 38.556 38.609 38.694 38.791 38.914 38.999 38.999 39.044 39.181 39.224 39.304 39.389 39.464 39.551 39.604 39.666 39.696 39.779 39.786 39.821 39.881 39.896 39.849 39.774 39.851 39.991 40.091 40.174 40.226 40.316 40.396 40.529 40.609 40.774 40.879 41.049 41.166 41.294 41.421 41.516 41.686 41.839 42.001 42.166 42.339 42.499 42.664 42.764 42.909 43.014 43.154 43.204 43.286 43.346 43.391 43.444 43.459 43.484 43.514 43.551 43.511 43.459 43.374 43.331 43.451 43.916 43.459 43.161 42.986 42.844 42.701 42.636 42.526 42.404 42.226 42.024 41.801 41.616 41.419 41.229 41.061 40.899 40.711 40.524 40.306 40.096 39.871 39.641 39.414 39.174 38.884 38.641 38.391 38.146 37.874 37.644 37.381 37.141 36.911 36.674 36.431 36.236 35.984 35.751 35.529 35.351 35.116 34.941 34.711 34.491 34.286 34.079 33.876 33.699 33.491 33.331 33.149 32.964 32.796 32.616 32.426 32.231 32.084 31.899 31.789 31.616 31.486 31.291 31.171 31.049 30.911 30.769 30.669 30.524 30.441 30.356 30.284 30.204 30.159 30.074 30.221 30.946 30.466 29.771 29.559 29.764 31.139 30.234 29.359 29.311 29.259 29.206 29.109 29.094 29.054 28.996 28.934 28.856 28.819 28.739 28.699 28.659 28.611 28.549 28.504 28.474 28.449 28.406 28.366 28.324 28.299 28.249 28.211 28.189 28.169 28.091 28.049 28.046 27.974 27.914 27.874 27.824 27.794 27.726 27.676 27.609 27.526 27.484 27.416 27.356 27.296 27.256 27.194 27.159 27.091 27.039 27.011 26.994 26.959 26.939 26.891
30.942 30.899 30.887 30.889 30.874 30.917 30.907 30.909 30.924 30.924 30.869 30.917 30.912 30.939 30.974 30.999 30.999 31.034 31.002 30.984 30.984 31.032 31.034 31.019 31.062 31.057 31.057 31.072 31.029 31.009 30.949 31.374 32.579 31.289 30.984 30.964 30.974 31.009 30.964 30.904 30.927 30.944 30.922 30.904 30.867 30.829 30.867 30.809 30.807 30.767 30.707 30.652 30.624 30.587 30.592 30.484 30.464 30.419 30.417 30.344 30.307 30.244 30.277 30.199 30.152 30.102 30.027 29.962 29.969 29.932 29.922 29.929 29.849 29.772 29.709 29.752 29.677 29.654 29.622 29.577 29.527 29.494 29.504 29.439 29.404 29.327 29.287 29.269 29.322 29.219 29.267 29.259 29.199 29.302 29.194 29.174 29.097 29.074 29.059 29.027 28.974 28.939 28.874 28.897 28.852 28.807 28.804 28.812 28.789 28.767 28.789 28.739 28.749 28.774 28.837 28.774 28.744 28.744 28.764 28.809 28.892 28.924 28.892 28.932 28.934 28.962 28.982 29.029 29.114 29.107 29.167 31.449 33.534 32.409 32.239 33.227 30.002 29.572 29.872 32.037 30.626 30.434 30.441 31.544 30.869 30.524 30.586 30.721 30.869 30.996 31.081 31.214 31.389 31.501 31.629 31.691 31.814 31.916 32.001 32.071 32.154 32.259 32.344 32.454 32.596 32.701 32.829 32.924 33.029 33.144 33.249 33.354 33.469 33.561 33.684 33.776 33.914 34.041 34.176 34.344 34.441 34.604 34.719 34.826 34.961 35.024 35.136 35.209 35.289 35.389 35.504 35.601 35.701 35.806 35.926 36.024 36.131 36.274 36.324 36.484 36.554 36.634 36.726 36.864 36.961 37.004 37.056 37.136 37.201 37.294 37.356 37.484 37.556 37.681 37.746 37.834 37.881 37.936 38.026 38.124 38.204 38.329 38.439 38.546 38.629 38.716 38.771 38.881 38.966 39.074 39.171 39.216 39.241 39.359 39.424 39.504 39.554 39.619 39.729 39.811 39.851 39.936 40.011 40.044 40.089 40.156 40.176 40.194 40.154 40.144 40.209 40.301 40.369 40.446 40.516 40.594 40.696 40.816 40.951 41.044 41.179 41.309 41.446 41.561 41.649 41.799 41.984 42.129 42.291 42.444 42.609 42.741 42.851 43.001 43.094 43.219 43.311 43.381 43.459 43.504 43.541 43.571 43.556 43.566 43.584 43.556 43.531 43.461 43.364 43.509 44.316 43.819 43.224 43.149 42.996 42.871 42.771 42.696 42.579 42.366 42.161 41.961 41.791 41.649 41.399 41.219 41.079 40.891 40.711 40.489 40.286 40.071 39.831 39.606 39.371 39.094 38.831 38.591 38.321 38.086 37.816 37.579 37.324 37.079 36.896 36.606 36.404 36.156 35.949 35.749 35.556 35.336 35.146 34.924 34.696 34.474 34.254 34.084 33.871 33.681 33.526 33.356 33.169 32.989 32.809 32.609 32.394 32.236 32.056 31.896 31.724 31.604 31.449 31.304 31.154 31.046 30.896 30.789 30.699 30.551 30.464 30.381 30.294 30.214 30.161 30.086 29.964 30.359 31.259 30.034 29.589 29.486 30.234 31.009 29.821 29.279 29.261 29.234 29.129 29.084 29.074 29.036 28.956 28.881 28.844 28.804 28.724 28.651 28.601 28.571 28.514 28.514 28.481 28.454 28.386 28.336 28.306 28.259 28.234 28.171 28.151 28.091 28.039 27.996 27.959 27.926 27.891 27.814 27.776 27.694 27.639 27.556 27.504 27.446 27.379 27.321 27.274 27.209 27.149 27.099 27.051 27.014 26.994 26.976 26.961 26.929 26.871
