ncols 432
nrows 31
xllcorner    458024
yllcorner    91834
cellsize     2
NODATA_value -9999
41.902 41.817 42.397 45.599 46.889 46.142 42.764 41.652 41.732 41.842 42.557 44.009 42.942 42.084 42.237 42.414 42.479 42.702 44.552 44.469 45.577 45.932 45.664 44.412 43.744 43.434 43.427 43.472 43.767 44.967 47.519 47.489 45.144 45.044 44.909 45.032 46.264 45.734 45.096 44.901 44.981 44.941 44.994 45.696 48.321 48.389 47.489 47.989 47.801 47.064 48.264 47.781 46.956 47.744 47.674 47.594 47.974 50.494 51.734 52.171 52.829 50.669 50.116 50.151 50.286 49.876 48.389 48.084 48.121 48.321 49.166 50.469 53.671 55.094 55.981 55.251 53.889 51.369 51.089 50.061 49.509 50.159 49.906 49.364 50.381 49.501 49.699 48.954 48.611 50.501 54.289 55.289 55.496 54.456 52.539 49.269 49.109 48.754 48.354 48.289 48.279 48.301 48.991 56.871 58.919 58.701 53.556 48.446 48.421 48.199 49.656 49.566 48.221 48.376 49.176 48.191 48.204 48.264 49.196 50.299 49.961 49.794 49.449 49.704 49.804 50.124 50.584 51.186 51.676 50.189 48.761 49.224 50.051 50.414 49.919 48.971 48.754 51.514 54.359 55.359 55.846 55.261 54.274 51.441 48.256 48.264 49.421 48.674 48.244 48.126 48.136 48.561 50.051 50.171 49.099 48.361 48.366 48.781 50.791 55.476 55.934 55.949 55.936 56.089 56.041 52.361 51.049 54.286 54.261 53.316 50.949 55.794 55.751 54.614 49.966 49.039 51.446 49.344 48.624 48.674 48.629 48.684 48.741 48.696 48.859 48.736 48.639 48.666 48.686 49.179 50.019 49.509 52.736 51.184 59.461 55.804 49.821 50.206 49.829 49.859 49.894 49.916 52.064 53.539 52.229 49.626 49.659 50.621 53.009 53.476 53.454 53.531 53.526 53.456 53.439 53.469 53.391 52.521 52.516 52.736 52.816 53.016 52.504 52.444 51.456 50.171 50.021 50.011 50.014 50.091 50.116 50.104 50.099 50.131 50.101 50.044 50.069 50.086 51.134 54.156 52.754 51.499 51.661 50.626 50.424 50.446 50.439 50.471 50.484 50.496 50.639 53.654 52.689 53.996 54.571 56.539 59.306 59.324 59.426 59.271 59.246 58.739 54.876 50.944 50.769 50.619 50.329 50.554 50.621 50.254 50.199 50.199 51.311 52.646 50.689 52.386 52.491 54.011 53.574 53.471 52.591 51.419 51.239 50.964 50.619 50.511 50.776 50.711 50.531 51.191 52.941 53.094 52.749 52.384 52.971 51.404 50.264 50.116 50.109 50.644 55.681 57.216 57.811 56.889 55.664 51.246 50.254 50.236 50.144 50.064 50.036 49.991 49.904 49.994 52.396 53.931 54.871 54.141 53.014 50.224 49.756 50.459 51.016 53.074 52.874 49.616 50.521 49.616 49.879 51.291 51.349 50.121 49.376 49.436 49.761 49.554 49.516 49.534 49.496 49.484 49.561 50.756 49.644 49.479 52.794 54.891 55.906 56.034 55.781 54.176 52.176 49.994 52.701 52.721 51.846 51.104 51.104 51.501 51.069 51.189 50.869 51.994 52.209 52.258 51.754 51.803 53.58 53.764 55.393 56.816 57.156 56.917 55.323 51.463 51.778 51.374 50.779 50.755 50.807 50.833 50.744 51.51 51.783 51.063 54.082 57.236 59.112 58.002 56.12 53.815 53.107 52.158 51.175 50.906 50.962 50.998 51.048 51.17 51.451 51.404 51.202 51.331 53.025 53.269 52.618 51.464 51.227 51.227 55.86 57.089 57.462 57.032 56.777 51.759 51.29 51.277 51.488 52.304 53.142 52.011 52.628 52.486 52.886 53.186 51.835 51.135 52.155 54.602 55.842 56.852 56.651 56.65
41.179 40.764 41.362 41.622 42.959 42.999 41.834 41.817 41.874 42.102 43.079 43.017 42.237 42.202 42.374 42.534 43.687 45.997 45.152 43.047 44.957 47.192 47.392 46.189 43.789 43.529 43.452 43.594 43.884 44.304 45.739 45.407 44.777 44.794 44.839 44.834 44.847 44.899 44.891 45.429 47.054 45.274 45.171 45.256 46.786 48.771 48.886 48.899 49.071 48.959 48.771 47.629 47.081 48.744 47.674 47.771 48.869 48.166 48.594 48.979 48.531 48.911 48.699 50.306 50.461 48.676 48.144 48.164 48.214 48.311 48.544 50.231 54.281 55.374 55.944 54.949 53.791 51.556 50.334 49.046 48.961 49.006 49.646 49.379 49.714 49.389 49.081 49.031 49.064 48.809 51.969 54.736 55.574 55.059 54.044 50.294 48.381 48.341 48.436 48.381 48.286 48.316 48.326 54.091 58.329 58.489 55.114 48.721 48.376 48.284 49.111 50.181 49.724 48.486 48.684 48.231 48.224 48.216 48.271 50.036 50.426 51.349 50.931 51.501 54.064 54.209 54.199 54.149 54.099 54.121 53.121 50.709 50.649 50.726 50.059 48.591 50.894 54.324 55.296 56.031 55.274 54.291 51.996 49.271 48.251 48.226 48.221 48.301 48.449 48.229 48.249 48.316 48.991 49.026 48.491 48.446 48.476 48.444 48.576 55.519 55.806 55.759 55.721 55.569 55.534 53.196 51.881 54.376 54.584 58.669 50.901 51.251 53.936 53.374 50.426 49.651 51.999 49.524 48.711 48.731 48.716 48.669 48.664 49.669 54.176 51.594 48.944 48.766 48.874 49.579 49.654 49.469 49.536 49.714 52.334 51.906 49.946 49.931 49.951 49.986 49.981 50.014 50.481 52.164 50.216 49.679 49.596 50.914 53.441 53.446 53.474 53.599 53.581 53.484 53.426 53.451 53.404 50.944 50.251 50.109 50.044 50.109 50.056 50.349 50.544 50.431 50.066 50.064 50.094 50.124 50.144 50.116 50.146 50.171 50.139 50.091 50.089 50.554 50.154 52.636 53.576 53.994 52.626 50.439 50.729 50.449 50.496 50.539 50.514 50.546 50.629 53.929 53.411 53.036 53.089 54.539 57.046 57.516 57.911 57.701 58.176 58.756 56.031 50.561 50.864 51.591 50.439 50.414 50.824 50.289 50.246 50.491 52.211 52.639 52.286 52.996 53.176 52.259 52.509 52.554 52.486 51.679 52.499 52.401 52.409 51.856 52.179 52.209 52.129 52.039 51.324 51.641 53.606 55.524 53.519 51.596 51.139 50.694 50.774 51.736 52.689 51.799 52.511 53.034 51.544 50.216 50.231 50.264 50.159 50.111 50.056 50.081 50.816 51.169 51.689 53.111 52.369 52.236 51.336 50.004 49.916 52.489 55.344 55.574 53.244 50.494 51.604 50.971 51.736 50.556 49.566 49.489 49.499 49.504 49.674 49.559 49.539 49.529 49.521 49.516 49.586 50.882 49.897 49.642 53.369 54.989 55.999 55.346 54.201 52.983 50.735 49.916 51.589 51.076 50.616 51.088 53.129 53.897 53.29 52.13 52.396 53.457 53.415 53.446 52.292 51.942 51.819 51.948 53.466 53.33 54.268 54.881 53.571 51.1 51.727 51.25 50.789 50.806 50.873 50.85 50.793 51.173 51.071 51.362 55.304 57.338 58.536 57.859 55.727 53.36 52.86 51.664 51.65 51.503 51.15 51.25 51.542 51.523 51.381 51.563 51.502 51.708 53.384 53.921 53.236 51.294 51.225 51.515 55.709 56.772 56.617 56.94 56.99 52.281 51.28 51.273 52.189 53.445 52.518 52.523 52.312 52.816 53.676 53.381 53.041 52.277 52.148 51.901 51.45 53.005 51.653 52
41.139 40.879 41.837 41.489 42.274 42.934 42.694 42.474 42.097 43.382 43.894 42.552 42.307 42.344 42.464 43.182 44.197 47.687 48.767 46.312 45.584 46.304 45.904 44.572 43.574 43.692 43.794 43.869 44.154 44.512 46.209 45.247 44.899 44.847 44.854 44.869 45.184 45.037 44.951 46.249 48.151 46.239 45.719 45.536 45.554 46.141 47.449 48.339 48.669 49.391 48.674 47.911 48.309 48.449 47.951 48.306 49.149 48.089 49.124 48.569 48.124 48.194 48.536 50.561 50.741 48.999 48.196 48.231 48.321 48.406 48.599 51.926 54.594 55.661 55.806 54.679 53.066 51.369 49.976 49.084 49.124 49.129 49.626 49.649 49.934 49.199 49.154 49.046 48.639 48.621 50.911 54.109 55.164 55.359 52.336 48.624 48.301 48.349 48.439 48.451 48.356 48.389 48.439 51.196 57.221 58.454 54.871 50.049 50.274 49.541 48.411 48.831 49.789 50.046 49.446 48.366 48.254 48.256 48.446 50.144 50.439 51.439 50.871 51.276 54.986 55.419 55.394 55.446 55.401 55.391 53.294 50.691 50.631 50.744 50.146 49.299 54.051 55.259 55.886 55.486 54.019 52.941 49.751 48.639 48.431 48.406 48.404 48.611 48.689 48.291 48.311 48.356 48.689 48.986 49.666 51.219 49.099 48.556 48.644 53.696 54.384 53.871 53.869 53.864 53.661 52.254 50.211 52.994 52.724 59.374 57.459 56.619 53.011 49.541 49.179 49.271 49.916 49.136 48.749 48.796 48.779 48.729 48.691 55.181 60.094 57.256 48.701 48.961 49.099 49.759 50.029 49.956 49.951 49.964 49.989 50.024 50.039 50.061 50.034 50.094 50.131 50.121 50.154 50.196 50.101 49.941 49.901 50.529 53.331 53.411 53.434 53.516 53.549 53.519 53.444 53.434 52.904 50.221 50.091 50.066 50.066 50.061 50.096 50.116 50.071 50.084 50.074 50.091 50.164 50.136 50.171 50.171 50.209 50.224 50.209 50.146 50.124 50.194 50.666 50.839 57.181 52.119 52.911 53.194 52.531 51.944 51.641 50.529 50.709 52.024 52.579 54.059 53.264 51.591 51.096 50.801 52.719 57.329 58.684 58.814 59.064 59.274 58.426 53.464 50.589 50.791 50.781 50.701 50.951 50.324 50.274 51.586 52.671 52.356 52.034 52.286 54.926 56.176 56.239 56.316 54.304 51.396 51.101 50.984 51.331 50.639 50.879 50.749 50.561 50.514 50.534 50.549 50.801 54.739 54.529 51.336 50.579 50.296 50.511 50.296 54.729 55.506 54.979 54.894 54.061 52.446 50.721 50.709 50.234 50.161 50.104 50.069 50.149 52.396 51.931 51.091 50.936 51.194 51.104 51.024 50.751 52.724 54.991 54.751 51.666 50.159 50.229 50.624 52.011 51.244 49.989 50.176 49.942 50.203 49.898 49.848 50.151 51.156 51.939 52.456 51.203 50.494 49.691 49.797 52.981 54.827 55.968 55.179 54.055 52.798 49.969 51.5 52.598 50.831 50.244 50.208 51.636 53.074 53.382 50.722 50.976 52.584 52.841 52.494 52.705 52.495 50.848 51.165 52.009 51.211 51.195 51.241 50.882 51.098 51.129 51.056 50.842 50.826 50.896 50.903 50.815 50.997 51.251 51.242 55.003 57.203 57.7 57.449 56.217 54.444 52.557 51.139 50.786 50.844 50.89 50.959 51.216 51.525 51.422 51.192 51.308 51.473 52.601 54.178 52.962 51.267 51.285 52.007 52.998 54.375 54.756 54.041 54.734 51.308 51.238 51.354 52.117 52.837 51.683 51.673 51.163 51.161 52.173 51.784 51.114 51.172 51.56 51.573 51.413 52.75 54.642 54.028
41.234 42.114 42.364 44.247 45.134 44.999 44.474 43.864 43.289 42.394 42.664 42.339 42.382 42.462 42.534 43.204 43.647 43.354 44.627 44.637 44.634 43.842 43.762 43.644 43.707 43.819 43.964 44.107 44.542 46.557 48.477 48.069 46.877 45.007 47.134 47.897 49.384 47.237 47.056 46.534 47.079 46.376 46.061 45.894 45.979 46.141 46.169 46.984 47.729 48.141 47.419 47.126 47.644 47.644 48.486 48.511 48.986 48.416 48.151 48.279 48.301 48.386 48.461 48.509 49.291 50.394 48.946 49.206 48.386 48.489 48.946 53.324 54.876 55.916 55.504 54.366 52.221 49.776 49.079 49.279 49.831 50.741 50.811 49.881 50.279 49.141 49.324 48.761 48.639 48.969 51.244 53.316 52.314 48.539 48.814 49.171 48.351 48.411 48.484 48.531 48.501 48.451 48.479 48.426 52.286 57.414 57.286 55.646 53.731 51.119 50.821 49.089 48.214 49.096 50.124 48.499 48.284 48.236 48.721 50.181 50.469 51.444 50.244 48.491 53.226 55.116 55.179 55.356 55.184 55.249 54.014 50.719 50.636 50.709 50.304 49.309 51.134 55.531 55.274 54.281 51.731 49.991 48.526 48.489 48.509 48.536 48.739 48.596 48.484 48.374 48.381 48.431 48.569 48.616 50.666 52.144 49.951 48.639 48.674 49.819 49.934 50.009 49.009 49.774 48.896 48.629 48.866 50.436 56.564 60.219 61.544 61.574 60.249 49.641 49.374 49.121 49.009 48.879 48.846 48.816 48.801 48.751 50.071 54.901 57.511 57.696 49.734 49.209 49.319 49.876 51.294 54.766 54.271 54.224 53.851 53.721 53.656 50.259 50.149 51.976 51.624 52.109 50.799 50.196 50.141 50.089 50.124 50.491 53.391 53.426 53.461 53.571 53.504 53.484 53.419 53.431 51.914 50.954 50.119 50.139 50.104 50.104 50.089 50.121 50.136 50.154 50.094 50.106 50.139 50.186 50.206 50.196 50.264 50.259 50.269 50.176 50.196 50.244 51.911 51.459 53.021 50.939 52.704 53.009 52.371 52.461 51.054 51.099 54.286 55.286 55.031 54.241 53.509 50.756 50.626 50.951 50.874 56.051 57.706 58.109 58.116 58.279 58.276 52.861 50.471 50.579 50.794 50.254 50.394 50.341 50.306 50.539 51.739 50.664 50.551 51.821 56.709 57.599 57.669 56.984 54.566 51.974 50.859 50.789 50.741 50.746 50.739 50.679 50.646 50.599 50.754 51.084 51.199 51.469 54.311 52.374 50.274 50.261 50.254 50.514 55.941 57.229 57.804 56.856 56.434 53.366 50.996 50.669 50.366 50.231 50.156 50.084 50.286 51.819 50.471 51.719 51.681 52.109 51.871 51.824 51.656 50.708 52.298 50.007 49.861 49.776 50.331 51.534 51.716 50.145 50.241 51.316 51.315 51.537 50.181 50.008 50.086 52.09 53.744 53.461 52.313 50.699 49.703 49.671 49.983 53.012 54.832 54.826 53.911 52.647 50.354 50.629 52.327 50.508 50.297 50.313 50.618 51.239 51.003 50.189 50.221 50.201 50.157 50.618 51.102 51.314 51.108 53.35 55.785 56.547 55.456 55.296 52.309 50.945 51.318 51.063 50.865 50.881 50.929 50.926 50.92 51.001 51.391 51.636 54.969 55.521 55.576 55.888 56.191 54.587 51.62 51.689 51.392 51.378 51.336 51.092 51.612 51.271 51.46 51.195 51.226 51.343 52.332 54.196 52.865 51.349 51.716 51.61 51.308 51.413 51.607 51.621 51.31 51.221 51.236 51.242 52.358 51.555 51.325 52.343 52.069 51.619 51.488 51.54 51.33 51.366 52.731 52.743 53.104 55.265 56.768 56.866
42.649 42.997 43.847 47.454 47.544 47.467 47.432 47.414 44.394 42.787 42.384 42.649 42.534 42.579 44.834 46.224 43.317 43.367 43.919 44.987 43.369 43.499 43.687 43.782 43.887 43.949 44.052 45.042 47.947 47.727 48.759 48.502 47.242 45.454 49.654 51.267 50.834 49.217 48.666 46.769 45.996 46.534 46.281 46.331 46.419 47.306 46.234 46.736 47.476 48.594 48.396 48.711 47.464 47.276 47.284 47.809 48.664 49.366 49.379 50.546 49.619 48.516 48.564 48.566 48.606 49.049 51.636 51.456 48.456 48.514 49.739 53.584 55.171 55.991 55.209 54.021 51.489 48.881 48.964 49.066 49.161 50.781 50.486 51.366 49.186 49.216 49.416 48.959 48.576 48.519 50.216 51.201 50.276 48.554 48.814 49.416 53.036 48.591 48.596 49.544 49.929 48.499 48.521 48.509 48.561 49.706 55.439 54.656 54.309 53.789 52.049 51.521 50.301 48.614 49.446 49.991 50.146 49.051 48.261 49.964 50.731 51.356 49.974 48.509 53.054 53.851 53.411 53.909 53.961 53.969 53.234 49.929 50.279 50.311 49.286 49.854 50.634 51.721 54.301 49.574 48.749 49.404 49.609 48.681 48.609 48.766 48.649 48.559 48.571 48.466 48.464 48.461 48.624 48.711 48.786 49.301 50.279 49.674 48.731 48.696 48.681 48.696 48.804 48.719 48.729 48.801 49.279 55.304 55.776 59.014 62.029 56.096 56.079 49.194 49.089 49.021 48.921 48.921 48.886 48.854 49.534 50.811 50.516 55.286 55.539 54.751 49.519 49.389 49.411 49.901 51.824 56.216 56.409 56.354 55.504 55.526 55.891 51.541 50.256 52.674 53.311 52.344 51.741 50.779 50.151 50.091 50.131 50.834 53.451 53.509 53.454 53.584 53.569 53.511 53.444 53.344 51.374 50.951 50.144 50.194 50.144 50.144 50.141 50.099 50.116 50.134 50.146 50.174 50.186 50.251 50.256 50.261 50.299 50.299 50.291 50.251 50.236 50.296 50.354 50.439 52.646 52.274 52.034 51.411 50.771 51.189 51.136 52.671 54.689 55.679 55.464 54.351 53.159 51.394 51.871 52.279 52.271 52.039 52.526 53.414 54.311 54.681 54.601 50.726 51.806 51.446 50.514 50.191 50.339 50.419 50.334 51.121 50.936 51.101 51.476 52.526 56.921 57.956 58.059 57.089 54.081 50.746 50.836 50.826 50.841 50.831 50.794 50.734 50.681 50.634 51.229 53.884 53.984 52.464 51.731 51.339 50.244 50.286 50.284 51.396 56.049 57.219 57.884 56.816 55.049 52.171 50.471 50.386 50.347 50.267 50.211 50.146 50.492 50.994 50.525 52.884 53.726 53.864 53.829 53.825 53.753 52.132 51.399 50.215 50.241 50.842 53.293 53.615 52.791 50.769 55.755 55.788 56.543 56.037 50.67 49.998 50.024 51.867 53.579 53.411 52.377 50.343 49.725 49.845 51.052 52.857 54.002 54.652 53.764 52.556 50.147 50.382 52.121 51.053 50.981 50.899 51.067 51.725 51.748 51.293 50.675 50.673 50.268 50.285 50.395 50.53 51.984 53.755 56.231 57.904 58.068 56.938 53.771 50.93 50.935 50.976 50.921 50.95 50.957 51.168 50.955 51.36 51.2 52.012 55.099 54.972 54.714 54.547 54.654 54.296 51.937 52.009 52.828 52.649 51.742 51.175 51.435 51.353 51.273 51.167 51.198 51.537 51.873 53.196 52.708 51.817 52.197 51.544 51.333 51.284 51.277 51.257 51.271 51.238 51.24 51.199 51.961 51.772 51.588 52.047 52.805 52.974 52.96 53.012 52.893 52.779 53.362 54.491 55.686 56.493 57.245 57.327
47.029 46.747 44.382 48.344 48.592 48.502 48.512 48.484 46.377 46.689 43.464 43.327 42.882 42.667 45.322 46.722 43.692 43.297 44.419 45.337 43.612 43.584 43.682 43.889 43.997 44.109 44.224 44.754 46.554 46.372 47.899 45.924 48.362 49.634 50.249 51.284 50.802 49.027 48.209 46.809 45.716 49.736 50.824 50.356 50.701 49.209 48.206 47.144 48.209 49.104 48.686 48.599 47.819 47.734 48.191 47.656 47.826 48.301 48.879 51.449 52.826 49.076 48.666 48.621 49.274 49.624 52.189 54.346 51.916 55.476 52.366 52.889 52.779 55.364 54.296 52.979 50.674 49.011 49.879 50.481 49.146 49.651 51.276 52.646 49.861 49.524 49.916 49.196 49.054 49.441 49.174 50.234 50.359 50.714 51.689 50.549 54.446 51.149 49.796 54.804 58.876 51.056 48.599 48.569 48.611 48.849 50.731 52.941 54.489 53.179 52.776 52.384 53.019 49.174 48.286 50.219 50.984 49.219 49.086 51.484 51.606 50.139 48.661 48.631 49.889 49.104 48.734 51.066 48.934 49.966 49.069 48.319 49.121 48.421 48.481 48.716 49.824 49.989 49.576 48.961 48.616 48.791 51.384 52.186 49.234 48.799 48.594 48.584 48.669 48.576 48.584 48.584 48.684 48.796 48.839 48.874 49.579 49.339 48.841 48.764 48.806 48.861 49.066 49.076 50.676 50.214 49.206 54.366 54.016 53.809 57.341 54.179 49.556 49.051 48.944 48.921 48.916 49.151 50.056 50.114 50.941 51.944 50.519 52.286 53.779 50.691 50.501 49.464 49.461 49.821 52.104 56.169 56.364 56.404 56.384 56.404 56.284 54.331 54.199 55.374 55.354 54.851 54.406 54.329 54.104 50.586 50.129 51.491 53.434 53.449 53.454 53.579 53.531 53.461 53.439 52.839 50.419 50.376 50.259 50.209 50.196 50.194 50.161 50.189 50.199 50.196 50.221 50.179 50.276 50.284 50.281 50.281 50.329 50.374 50.334 50.271 50.311 50.329 50.374 50.489 52.786 53.254 53.014 53.581 53.001 53.309 53.541 52.436 52.794 53.619 52.961 52.449 52.899 52.684 52.181 53.281 53.529 52.891 52.321 53.806 53.064 54.156 53.641 50.954 51.441 51.176 51.114 50.526 50.364 50.419 50.384 51.046 53.864 54.709 51.274 52.589 56.824 56.806 56.791 57.359 52.854 50.829 50.854 50.874 50.884 50.879 50.841 50.894 50.794 50.731 51.411 52.511 52.491 53.351 52.266 52.534 50.304 50.303 50.295 50.583 55.236 57.194 57.884 56.864 53.29 50.447 50.455 50.433 50.377 50.291 50.238 50.169 50.463 50.531 50.326 52.896 54.054 54.751 54.697 54.718 54.311 50.661 50.59 50.34 52.018 51.294 53.255 52.982 52.397 51.961 57.371 58.146 58.148 58.199 53.019 50.011 49.973 50.634 52.204 51.782 50.477 49.907 49.775 50.029 51.486 52.965 54.119 54.679 53.634 52.372 50.251 50.742 51.806 51.864 51.537 51.152 52.149 52.196 52.419 52.224 52.233 52.801 51.748 50.826 51.076 51.203 52.403 53.747 56.423 58.242 58.776 56.872 53.817 52 51.849 50.991 50.909 50.969 50.994 51.453 51.165 52.111 51.459 53.771 57.24 57.867 57.857 57.697 57.55 57.288 55.191 53.389 52.535 52.35 51.752 51.776 52.185 51.752 51.573 51.665 52.026 51.536 52.061 52.861 52.698 51.472 52.045 51.829 51.594 51.293 51.295 51.276 51.26 51.259 51.293 51.518 51.721 51.977 51.457 51.435 51.421 51.627 52.309 51.519 51.606 52.207 53.468 55.407 55.934 56.561 56.868 56.828
48.069 47.992 43.659 48.687 48.682 48.612 48.684 48.657 45.892 45.984 44.119 43.719 42.814 43.414 47.187 47.084 43.807 43.494 44.259 45.267 44.209 44.122 43.839 43.999 44.099 44.224 44.359 45.322 45.919 45.014 47.132 50.132 50.874 51.234 51.149 51.374 50.902 49.252 48.554 48.086 45.749 50.221 53.159 53.044 52.984 51.344 49.296 47.439 48.826 48.721 48.126 47.679 47.714 47.796 47.829 48.244 48.394 48.956 48.439 48.524 52.464 53.201 51.279 48.844 49.066 51.759 53.904 57.274 56.524 56.091 56.966 53.844 51.409 51.384 49.959 50.464 49.634 49.369 50.824 51.511 49.916 49.896 52.076 53.139 50.924 49.506 49.814 49.526 49.626 49.731 49.649 49.186 49.726 51.321 52.844 54.424 51.471 50.949 49.159 51.059 53.294 48.681 48.684 48.691 48.689 48.711 48.701 49.324 51.459 50.946 48.844 50.519 52.286 48.976 48.426 49.406 50.734 50.651 50.561 51.486 52.369 50.634 49.349 49.729 48.716 48.306 48.366 49.799 48.814 48.369 48.319 48.329 48.661 49.019 49.244 51.664 49.109 48.619 48.629 48.724 49.436 50.916 51.971 54.681 50.921 48.721 48.724 48.694 48.701 48.651 48.651 48.684 48.726 48.894 48.969 48.981 48.956 48.931 48.986 49.011 49.824 49.266 50.546 51.559 54.274 52.826 49.314 50.164 52.219 49.656 49.706 49.049 48.999 48.954 51.164 54.659 49.499 53.121 56.389 53.069 50.756 50.924 50.154 50.434 49.836 51.979 51.564 49.504 49.544 49.901 51.816 56.486 56.429 56.396 56.399 56.374 56.361 56.356 56.381 56.381 56.426 56.384 56.371 56.346 56.366 50.631 50.109 51.216 53.364 53.416 53.454 53.599 53.586 53.511 53.429 52.801 50.841 50.219 50.239 50.251 50.216 50.179 50.181 50.196 50.226 50.196 50.216 50.201 50.299 50.339 50.346 50.376 50.376 50.431 50.409 50.344 50.369 51.279 50.436 50.629 54.544 53.879 53.969 54.504 54.174 54.941 55.394 52.599 50.899 51.186 50.946 51.014 51.779 53.346 52.926 56.531 58.231 57.806 57.959 57.806 57.776 58.281 53.891 50.886 50.771 51.039 51.114 51.021 50.711 50.451 50.421 50.631 50.935 52.806 51.774 51.651 54.291 54.559 54.464 54.362 52.29 51.042 50.998 51.373 51.29 51.261 52.477 53.046 52.387 51.961 50.91 50.683 51.683 52.151 53.152 53.453 50.613 50.329 50.324 50.424 55.5 57.155 57.822 56.865 53.283 50.411 50.381 50.377 50.343 50.317 50.256 50.207 50.491 50.843 50.157 52.54 54.085 54.653 54.035 53.936 53.203 50.395 52.057 51.525 51.842 53.212 53.527 53.408 53.181 54.602 58.305 58.389 58.346 58.374 51.769 50.105 49.99 49.956 49.964 49.907 49.888 49.895 49.822 50.593 52.143 52.728 52.606 53.08 52.933 51.677 50.161 51.034 51.235 51.865 50.489 50.931 50.571 50.553 51.945 51.482 50.775 51.731 51.047 50.641 51.767 52.554 52.092 53.05 56.55 58.548 58.885 56.765 53.678 52.359 52.38 51.46 50.965 51.03 51.046 51.15 51.016 51.367 51.194 54.129 57.381 57.856 57.976 58.09 58.217 57.666 55.148 53.867 52.107 51.177 51.093 51.133 51.138 51.182 51.239 51.212 51.395 51.94 53.18 52.276 53.246 52.436 53.343 52.717 51.435 51.692 51.615 51.61 52.101 51.569 51.494 52.226 52.53 55.828 52.779 51.431 51.301 51.27 51.282 51.222 51.191 51.248 51.522 52.786 53.806 56.452 57.254 57.293
47.649 47.129 43.104 47.612 47.642 47.659 47.607 47.617 44.794 42.939 43.152 43.119 42.867 42.864 44.919 47.612 44.479 43.799 45.532 46.474 47.517 47.292 44.457 44.169 44.324 44.459 44.639 45.837 46.254 44.954 47.292 51.367 51.249 51.189 51.124 51.042 50.734 49.194 48.366 47.249 45.821 51.059 53.851 53.894 53.716 51.294 47.651 47.606 48.614 48.131 47.799 47.799 47.846 48.134 48.634 48.024 48.139 48.309 48.764 50.569 54.041 55.009 54.769 50.989 49.301 50.206 54.511 57.376 55.136 57.826 53.104 50.066 50.629 50.091 49.846 50.589 50.659 50.524 50.316 50.164 49.764 49.671 50.244 49.896 49.491 49.701 49.486 49.349 49.204 49.059 49.044 49.001 48.959 48.951 49.341 60.811 62.841 55.964 53.166 48.726 48.709 48.711 48.721 48.701 48.696 48.721 48.651 48.641 48.629 48.889 49.039 48.666 49.144 48.389 48.311 48.286 49.274 49.674 49.451 49.279 49.829 48.729 48.579 49.164 48.564 48.511 48.466 48.449 48.394 48.501 49.161 49.296 49.431 49.899 51.611 53.774 50.831 51.036 50.191 50.281 50.506 52.481 52.101 50.689 48.911 48.829 48.831 48.826 48.736 48.674 48.689 48.754 48.799 48.821 48.969 49.029 49.036 49.066 49.071 49.184 50.109 49.434 50.036 52.396 53.411 51.929 49.124 49.041 48.991 49.034 49.001 48.981 49.039 49.791 52.821 53.361 51.276 51.986 54.459 53.144 50.246 49.946 49.754 51.186 50.421 51.351 50.844 49.594 49.591 49.896 52.151 56.481 56.439 56.431 56.406 56.389 56.351 56.329 56.369 56.419 56.471 56.431 56.371 56.391 56.209 51.064 50.216 50.731 53.404 53.411 53.469 53.469 53.496 53.484 53.419 53.366 51.239 50.296 50.281 50.274 50.241 50.241 50.256 50.244 50.239 50.244 50.236 50.279 50.301 50.384 50.391 50.409 50.481 50.459 50.421 50.381 50.409 50.434 50.496 52.314 57.054 55.986 53.761 55.014 55.224 56.041 55.294 55.394 51.214 51.801 51.259 51.591 52.069 53.394 53.246 57.799 60.074 59.959 59.906 59.891 59.919 58.964 54.491 50.815 50.955 51.074 51.43 50.447 50.66 50.501 50.424 50.663 50.804 51.028 51.442 51.076 52.539 52.786 52.882 53.225 52.955 51.867 51.474 52.376 51.908 52.326 53.705 54.222 54.298 51.933 51.191 51.052 51.029 51.283 53.088 53.138 50.943 50.42 50.337 50.469 52.288 54.278 54.698 53.923 52.034 50.396 50.427 50.39 50.32 50.305 50.263 50.223 50.652 51.071 50.317 52.851 54.114 54.636 53.734 52.394 51.694 50.528 50.74 50.604 50.808 53.479 54.191 54.508 54.271 54.604 57.209 57.256 56.736 56.588 53.23 50.729 50.023 49.972 50.119 49.95 49.888 49.891 49.845 50.416 52.203 53.036 51.252 50.845 50.001 50.076 50.749 50.78 50.509 50.56 50.646 50.988 50.666 51.327 52.642 52.288 50.449 50.443 50.446 50.604 52.442 53.682 53.818 54.243 56.788 58.211 58.153 56.509 52.611 51.72 51.869 51.286 51.315 51.157 51.093 50.986 51.369 51.714 51.551 52.967 55.062 55.686 55.487 54.532 55.388 55.562 53.266 52.936 51.71 51.122 51.079 51.136 51.124 51.118 51.175 51.197 51.227 51.724 52.343 52.638 53.491 54.798 56.01 55.835 52.922 51.843 51.748 54.346 55.479 54.69 51.925 51.805 52.373 54.2 53.216 52.043 51.626 51.738 51.471 51.651 51.518 51.266 51.198 51.418 51.918 52.451 56.053 55.071
45.734 45.304 42.454 45.679 42.437 42.714 42.914 42.314 42.042 42.754 43.152 43.299 43.829 43.769 46.319 47.334 44.182 43.947 45.074 46.249 47.572 47.549 45.489 44.567 44.672 44.897 45.132 45.299 45.489 45.324 47.952 49.262 48.844 50.892 49.387 47.832 47.919 47.877 47.849 47.564 46.024 49.444 53.019 53.006 53.039 50.644 49.089 47.559 47.774 51.719 52.609 51.761 52.141 51.866 53.076 51.894 49.299 48.411 48.489 50.091 51.761 55.251 55.454 53.844 50.244 49.211 48.959 48.996 49.114 49.286 50.284 50.729 50.116 51.696 50.259 49.474 49.541 49.589 50.554 50.106 49.476 49.234 49.266 49.279 49.261 49.239 49.196 49.106 49.021 51.529 51.624 53.169 48.951 48.961 50.374 56.364 55.721 58.234 54.156 48.789 48.806 48.794 48.794 48.801 48.961 48.719 48.816 48.624 48.579 48.861 49.486 48.719 48.374 48.309 48.294 48.261 48.246 48.226 48.204 48.159 48.156 48.176 48.201 48.269 48.309 48.354 48.441 48.479 48.524 48.736 49.819 49.206 49.471 48.686 50.601 51.061 51.026 51.576 50.996 51.834 51.844 51.754 50.174 48.864 48.881 48.899 48.851 48.796 48.739 48.749 48.814 48.849 48.831 48.844 48.931 49.001 49.036 49.089 49.069 49.086 49.129 49.161 49.184 49.226 50.061 49.374 49.164 49.126 49.121 49.091 48.984 48.936 49.271 52.464 54.076 50.639 50.159 50.544 52.609 51.201 50.359 49.894 49.916 50.441 50.056 49.981 50.326 49.674 49.686 49.884 51.499 56.266 56.429 56.451 56.424 56.406 56.344 56.336 56.369 56.409 56.436 56.461 56.376 56.389 56.394 51.049 50.204 51.436 53.391 53.409 53.474 53.471 53.499 53.444 53.396 53.011 50.524 50.316 50.284 50.299 50.304 50.276 50.256 50.271 50.286 50.269 50.291 50.281 50.386 50.401 50.479 50.494 50.491 50.486 50.441 50.399 50.459 50.791 53.174 52.969 55.464 54.499 53.356 54.576 55.184 54.986 52.399 55.239 53.983 52.939 51.519 51.251 52.48 53.639 53.584 57.331 58.884 58.939 59.254 58.974 59.161 58.951 54.589 52.405 51.313 50.887 51.247 50.641 50.636 50.532 50.525 50.806 50.935 50.951 50.903 51.089 53.436 55.439 55.563 55.069 55.034 53.236 51 51.105 51.067 51.106 51.602 52.654 52.624 51.017 50.75 50.664 50.648 51.439 52.621 52.267 50.704 50.442 50.395 50.454 50.858 51.14 50.962 50.916 50.468 50.463 50.442 50.39 50.355 50.305 50.288 50.27 50.751 50.826 50.083 50.72 53.097 54.175 53.691 51.528 50.064 50.139 50.064 50.08 50.537 54.123 56.163 56.354 56.374 56.429 57.274 57.145 55.934 54.798 53.187 50.68 50.054 50.017 51.425 50.161 49.966 49.934 49.903 50.403 53.544 55.925 56.058 54.841 52.867 50.218 50.331 50.653 51.092 50.955 51.165 51.476 51.015 51.031 51.605 51.734 51.649 51.609 50.948 50.907 52.042 53.363 53.476 54.202 55.537 56.539 56.901 56.272 51.523 51.3 51.379 51.154 51.535 51.181 51.117 51.054 51.427 51.302 52.343 56.223 56.525 56.382 56.284 53.896 52.97 52.394 52.462 52.393 52.35 51.843 51.695 51.569 51.463 51.387 51.254 51.31 51.349 51.497 51.437 52.651 52.19 56.005 56.941 56.313 55.272 53.301 53.027 56.09 56.976 55.769 54.473 53.051 52.143 52.026 51.728 51.618 51.556 51.516 51.468 51.496 51.376 51.246 53.868 54.548 55.038 54.126 55.011 53.373
41.314 41.832 41.582 41.944 41.947 42.012 42.057 42.242 42.809 43.542 44.519 46.052 46.352 45.152 46.217 46.494 45.017 44.209 44.217 45.579 47.017 45.989 45.094 45.044 45.209 45.364 45.429 45.449 45.499 45.457 45.974 45.347 45.712 46.119 46.279 45.462 45.494 47.492 48.116 49.291 47.294 49.189 51.396 51.091 48.256 47.781 47.426 48.096 49.746 53.894 54.731 54.804 54.799 54.781 54.741 54.511 51.831 50.389 48.674 48.849 49.079 52.711 54.764 53.414 53.971 52.541 50.189 49.396 49.414 50.651 51.434 51.641 51.791 53.011 52.879 51.224 51.064 50.854 50.551 51.226 51.474 50.044 49.274 49.286 49.611 49.994 50.176 50.381 50.356 58.464 56.549 56.094 50.034 49.954 50.996 61.016 60.054 57.364 52.689 49.509 49.411 49.436 49.409 49.976 50.584 50.414 50.476 50.076 49.626 49.274 48.829 48.561 52.549 50.801 48.836 48.341 48.294 48.221 48.186 48.161 48.141 48.211 48.224 48.211 48.291 48.306 48.346 48.356 48.391 48.409 48.464 48.496 48.526 48.571 48.599 48.654 48.681 48.741 48.771 49.141 49.359 48.909 48.801 48.836 48.816 48.814 48.786 48.796 48.851 48.841 48.866 48.879 48.904 48.919 48.991 48.991 49.374 51.231 50.416 49.074 49.059 49.139 49.159 49.139 49.191 49.126 49.149 49.091 49.111 49.151 50.079 50.491 51.311 50.901 51.649 49.934 50.031 49.981 49.949 50.024 49.979 49.959 50.874 51.616 51.399 50.029 50.661 49.714 49.696 49.966 52.861 56.361 56.374 56.429 56.424 56.374 56.334 56.361 56.376 56.414 56.426 56.404 56.369 56.379 56.349 51.316 50.151 51.244 53.374 53.434 53.469 53.446 53.456 53.484 53.411 52.186 50.374 50.341 50.334 50.309 50.276 50.271 50.296 50.281 50.336 50.304 50.304 50.329 50.441 50.497 50.518 50.545 50.572 50.534 50.513 50.47 50.5 51.374 53.894 53.012 54.265 54.137 52.876 55.184 56.385 53.551 55.841 55.137 54.495 51.598 54.13 53.095 52.029 52.285 51.963 54.215 55.124 57.517 58.065 58.061 58.651 58.915 57.695 55.412 53.72 51.898 51.386 50.901 50.775 50.561 50.57 50.726 50.954 50.994 50.957 51.149 56.837 57.875 57.84 57.987 57.557 53.216 51.293 50.989 50.974 50.907 50.871 50.995 51.164 50.958 50.794 50.698 50.72 51.536 52.054 52.673 51.047 51.072 50.621 51.075 51.139 50.892 50.692 50.624 50.549 50.477 50.443 50.398 50.382 50.328 50.308 50.267 50.341 50.908 50.072 50.334 52.613 53.991 53.708 51.629 50.13 50.163 50.041 50.066 50.787 53.66 57.188 57.413 57.967 59.354 59.401 57.554 55.961 54.895 53.124 50.45 50.101 50.081 52.386 53.108 51.855 50 49.942 50.075 53.723 56.609 57.222 56.273 53.193 50.262 50.842 51.311 51.943 50.88 50.469 50.529 51.208 51.241 50.727 51.088 51.317 51.228 51.133 51.28 51.125 51.586 51.873 53.37 54.07 53.722 53.373 54.173 51.219 50.871 51.098 51.128 51.589 51.272 51.424 51.35 51.456 51.191 51.859 57.381 58.17 58.318 57.936 54.181 52.678 51.942 51.533 51.525 51.523 51.536 51.764 52.34 52.338 52.247 52.354 52.314 52.609 52.433 52.258 52.815 53.811 56.078 56.776 57.016 56.823 55.346 53.506 56.911 57.193 56.883 56.431 54.633 52.521 52.221 52.273 52.053 51.676 51.588 52.811 52.106 51.628 51.228 54.246 56.073 57.068 57.046 57.013 56.886
41.149 41.277 42.014 41.744 42.199 42.124 42.334 42.552 43.537 43.449 45.439 46.997 46.554 47.559 48.814 45.617 46.112 45.629 45.047 45.754 47.039 46.059 45.192 45.587 45.604 45.607 45.707 45.734 45.762 46.322 46.382 49.162 45.744 45.659 45.667 45.737 45.747 46.704 47.119 48.899 51.416 50.344 49.594 49.146 46.771 46.746 46.809 47.391 50.094 51.986 51.931 53.486 52.304 53.671 51.986 52.206 51.539 50.406 49.326 49.961 49.591 51.044 49.519 50.109 54.514 53.521 50.861 50.366 50.836 50.569 50.591 50.281 50.116 51.329 51.201 49.866 49.814 49.934 49.834 50.736 52.024 50.609 49.309 49.309 50.484 51.256 51.289 51.554 51.854 54.746 55.814 51.789 49.871 49.726 49.674 50.881 53.869 49.516 49.471 49.409 49.344 49.319 49.309 49.311 49.284 49.239 49.661 49.586 49.954 49.939 50.281 50.196 52.109 53.059 49.814 48.664 48.719 48.214 48.209 48.376 48.171 48.134 48.171 48.191 48.269 48.301 48.326 48.366 48.409 48.471 48.486 48.539 48.576 48.554 48.559 48.894 49.399 48.689 48.731 48.761 48.791 48.791 48.789 48.854 48.806 48.879 48.826 48.876 48.909 48.954 48.921 48.959 48.981 49.314 48.996 49.161 53.061 59.161 57.569 49.141 49.084 49.141 49.119 49.204 49.154 49.404 49.571 49.884 50.581 50.386 52.724 51.739 51.274 50.409 52.944 50.246 50.634 49.881 50.026 50.059 50.039 50.271 51.999 52.281 52.249 50.419 49.769 49.784 49.776 49.899 52.244 56.356 56.356 56.386 56.379 56.399 56.336 56.371 56.384 56.409 56.434 56.429 56.349 56.356 56.336 50.796 50.194 51.299 53.359 53.384 53.404 53.416 53.434 53.441 53.376 52.376 51.144 50.4 50.37 50.37 50.378 50.331 50.357 50.33 50.344 50.366 50.337 50.423 50.501 50.529 50.555 50.567 50.584 50.546 50.522 50.711 50.562 50.572 53.4 52.279 54.535 54.141 53.054 54.864 56.586 56.172 55.277 53.175 52.536 52.106 54.659 54.678 53.14 52.102 51.25 52.471 52.613 57.154 59.006 59.16 59.144 59.163 58.857 54.112 52.359 51.371 51.533 50.552 50.644 50.614 50.588 50.788 50.961 51.025 51.022 51.211 54.323 56.326 56.735 57.821 57.768 54.76 51.186 50.974 50.951 50.946 50.884 50.918 51.17 50.865 50.757 50.719 50.671 50.679 51.264 54.508 51.665 51.07 51.596 51.3 50.718 50.723 50.764 51.476 51.011 50.485 50.45 50.397 50.387 50.363 50.325 50.299 50.384 50.961 50.064 50.271 52.496 53.87 53.656 51.401 50.724 50.422 50.056 50.09 50.632 54.405 56.949 57.105 57.547 59.75 60.109 58.012 56.014 55.125 53.278 51.077 50.155 50.123 52.246 53.855 51.439 50.014 50.015 50.346 54.134 56.637 57.134 56.265 52.116 50.291 50.532 51.021 51.21 50.722 50.464 50.433 50.833 50.739 50.479 50.519 50.543 50.566 50.884 50.631 50.727 50.975 51.006 56.026 57.429 57.674 57.499 56.706 51.632 51.569 51.512 51.281 52.14 51.21 51.666 51.527 51.652 51.339 51.779 56.384 58.194 58.599 57.967 55.488 53.636 51.831 52.773 51.748 51.11 51.092 51.117 51.271 51.347 51.228 51.288 51.251 51.243 51.361 51.741 53.331 51.416 52.571 55.363 55.983 56.698 52.748 52.408 55.038 55.696 56.231 56.636 55.321 52.923 52.298 52.888 53.013 51.641 51.596 55.386 54.568 51.961 51.533 51.526 54.563 56.983 57.271 57.418 57.458
41.244 41.459 42.292 41.999 42.347 42.337 42.402 43.154 43.117 44.497 47.502 47.159 45.432 46.027 44.997 44.842 46.594 48.527 47.599 46.544 46.767 46.817 46.802 47.184 46.932 46.827 47.057 46.977 47.407 47.497 47.484 46.907 46.167 46.809 46.697 46.602 46.579 47.504 48.646 49.816 51.119 48.874 48.206 49.569 47.104 47.311 47.329 48.506 49.631 49.194 48.936 49.184 49.339 49.009 49.506 49.661 50.439 50.156 49.954 49.426 49.191 49.159 49.166 49.239 50.406 51.241 49.514 49.384 49.436 49.471 49.484 49.529 49.556 49.524 49.559 49.579 49.641 49.676 49.671 49.684 49.686 49.506 49.346 49.356 49.731 49.766 49.769 49.754 49.706 50.451 50.684 49.694 49.626 49.591 49.576 49.536 49.519 49.484 49.486 49.409 49.364 49.376 49.369 49.314 49.244 49.191 49.141 49.091 49.054 49.006 48.931 48.971 51.601 52.956 50.446 50.719 49.229 48.806 49.659 51.944 49.654 51.024 48.336 48.361 48.344 48.341 48.371 48.414 48.429 48.446 48.451 48.506 48.541 48.544 50.034 55.809 56.506 49.791 48.681 48.756 48.781 48.824 48.841 48.831 48.824 48.896 48.874 48.886 48.919 48.969 48.976 48.951 48.986 50.419 49.179 50.134 57.346 60.151 58.666 53.514 50.284 49.696 50.006 50.166 50.144 49.929 49.941 49.976 50.794 49.876 51.159 51.076 50.594 51.019 50.494 49.851 50.101 50.361 49.899 49.934 49.911 49.891 50.244 50.664 50.596 50.119 49.801 49.834 49.824 49.819 52.621 55.271 55.001 55.874 53.956 55.254 56.339 55.679 56.071 55.861 56.419 56.366 56.386 56.341 55.299 50.495 50.207 51.29 52.289 53.018 52.945 52.739 52.797 52.975 53.059 53.115 50.789 50.405 50.412 50.402 50.404 50.39 50.382 50.372 50.392 50.379 50.466 50.62 50.558 50.579 50.638 50.655 51.01 52.61 52.411 51.118 50.625 50.653 53.509 53.454 56.771 54.878 54.108 55.724 57.661 56.619 55.121 53.938 53.648 55.219 55.032 55.614 54.792 53.083 53.229 51.765 52.388 55.541 57.993 57.328 57.092 57.05 56.429 52.961 52.331 52.128 51.27 50.566 50.6 50.637 50.629 50.798 50.933 50.972 50.985 50.955 51.171 53.82 55.63 56.955 56.604 53.438 51.017 50.999 51.017 50.954 50.881 50.822 50.812 50.806 50.757 50.766 50.739 50.776 51.29 53.81 53.455 50.716 50.642 51.083 52.743 53.543 51.615 50.821 50.63 50.574 50.52 50.461 50.432 50.369 50.361 50.338 51.588 51.221 50.083 50.112 51.092 53.144 53.584 51.832 50.868 51.233 50.239 50.235 50.67 53.836 55.735 55.651 55.997 56.33 57.428 57.247 56.083 55.106 52.576 50.636 50.188 50.333 51.6 51.743 50.326 50.083 50.05 50.472 54.588 56.615 57.176 56.242 51.973 50.383 50.559 50.865 52.074 50.959 50.51 50.486 50.523 50.545 50.654 50.723 50.607 50.599 50.612 50.658 50.91 50.965 51.014 56.581 58.517 58.888 58.453 56.692 51.811 51.116 52.087 51.341 51.941 51.242 51.154 51.218 51.488 51.803 51.523 54.728 55.194 56.801 57.246 54.44 53.266 51.802 52.301 51.439 51.115 51.115 51.128 51.509 51.316 51.303 51.333 51.343 51.278 51.326 51.573 52.591 51.728 51.611 53.218 54.331 54.643 51.843 51.318 51.506 52.713 54.453 54.253 53.416 53.278 52.811 51.641 51.596 51.633 51.793 52.188 51.503 52.423 54.241 54.533 55.243 57.203 57.283 57.458 57.638
41.307 42.049 43.099 42.267 42.977 43.044 47.207 48.079 46.519 48.304 48.457 46.679 47.187 44.512 45.759 44.909 46.554 48.849 47.957 47.259 47.417 47.539 47.264 47.864 46.762 47.014 47.474 47.524 47.889 48.099 47.427 47.214 47.037 47.482 47.989 47.307 47.322 47.424 47.529 47.894 50.759 48.696 48.249 50.199 47.696 47.821 47.934 48.021 48.499 48.221 48.296 48.384 48.566 48.691 48.611 48.781 48.806 48.791 48.859 48.866 48.976 49.069 49.106 49.179 49.241 49.269 49.359 49.351 49.359 49.399 49.416 49.469 49.539 49.546 49.546 49.581 49.636 49.646 49.649 49.659 49.676 49.584 49.464 49.461 49.651 49.776 49.911 49.929 49.834 49.739 49.699 49.696 49.661 49.596 49.566 49.541 49.539 49.521 49.491 49.464 49.444 49.386 49.389 49.341 49.316 49.276 49.216 49.171 49.134 49.061 49.016 49.001 48.994 48.899 49.009 50.351 50.529 50.226 50.239 53.449 50.181 55.226 51.604 48.801 48.631 48.609 48.536 48.509 48.486 48.491 48.539 48.534 48.574 48.591 51.886 59.189 59.526 55.889 48.869 49.074 49.084 49.414 49.509 49.589 49.084 48.981 49.514 49.936 49.026 49.004 49.036 50.294 50.819 53.509 52.249 54.184 60.516 60.106 54.871 52.426 52.324 49.944 49.841 49.811 49.839 49.839 49.841 49.819 49.839 49.849 49.951 49.901 49.889 49.854 49.856 49.851 50.104 51.016 50.306 51.429 51.024 51.381 51.634 50.969 50.871 50.969 50.535 49.868 49.868 49.907 49.952 50.396 50.031 50.162 50.443 50.64 50.541 50.844 51.255 54.82 56.394 56.399 56.39 56.305 54.251 50.313 50.234 50.605 50.322 50.344 50.376 50.427 50.47 50.427 50.67 50.629 50.446 50.422 50.433 50.43 50.443 50.45 50.454 50.423 50.426 50.435 50.655 50.745 50.609 50.68 50.743 50.785 51.183 53.962 51.921 50.85 50.734 51.413 53.088 53.308 54.834 54.022 51.973 55.486 56.905 57.379 56.441 55.466 55.122 54.349 54.777 54.655 54.08 53.629 53.783 54.181 53.841 53.662 53.526 53.336 53.394 53.325 52.439 52.153 53.285 51.893 50.787 50.575 50.682 50.711 50.676 50.685 50.702 50.749 50.826 51.298 53.082 53.462 53.331 52.784 52.091 51.608 51.049 51.188 51.576 51.81 52.219 51.077 51.022 51.312 51.213 51.314 51.801 51.919 53.64 54.54 53.353 51.978 51.908 53.45 56.35 56.662 54.683 50.9 50.643 50.627 50.574 50.539 50.481 50.409 50.342 50.323 51.214 50.913 50.113 50.376 51.281 53.29 53.546 51.34 50.327 51.219 50.446 51.06 51.447 53.136 53.336 53.584 53.491 54.58 57.394 57.489 57.307 55.751 50.571 50.211 50.285 50.407 50.422 50.313 50.203 50.127 50.097 50.891 54.976 56.634 57.158 56.153 52.098 50.37 50.582 51.377 50.922 51.111 50.785 50.697 50.642 50.669 50.782 51.32 50.763 50.682 50.658 50.722 51.226 51.14 51.192 54.324 56.741 57.064 57.369 55.668 51.785 51.971 51.407 51.176 51.209 51.264 51.207 51.154 51.614 51.265 51.571 53.255 53.969 54.631 55.552 52.191 53.279 52.892 51.395 51.177 51.163 51.158 51.508 51.463 51.503 51.371 51.373 51.396 52.108 51.408 51.403 51.548 51.413 51.391 53.251 54.383 52.151 51.738 51.386 51.363 51.876 53.498 53.658 51.978 52.498 52.263 51.703 52.251 52.551 53.223 52.736 51.536 53.036 55.208 56.161 56.471 57.546 57.376 57.261 57.401
41.359 42.087 42.902 42.894 45.192 48.837 50.752 49.352 48.044 47.319 44.857 45.662 46.012 45.819 51.897 52.084 46.624 49.219 48.257 47.987 48.017 47.402 49.447 50.804 48.132 47.312 48.677 48.897 48.949 49.192 48.519 47.549 49.604 48.789 47.422 47.334 47.429 47.482 47.519 47.559 48.481 48.071 47.614 47.656 47.756 47.844 47.886 47.944 48.034 48.114 48.179 48.299 48.376 48.436 48.511 48.589 48.701 48.789 48.836 48.904 49.019 49.071 49.109 49.211 49.296 49.349 49.376 49.394 49.401 49.394 49.421 49.476 49.519 49.544 49.569 49.599 49.614 49.624 49.646 49.659 49.654 49.604 49.504 49.539 49.659 49.786 49.926 49.959 49.866 49.744 49.724 49.686 49.669 49.586 49.559 49.539 49.534 49.566 49.541 49.506 49.466 49.449 49.431 49.389 49.366 49.329 49.261 49.266 49.216 49.174 49.136 49.071 49.016 48.966 49.066 50.511 49.496 49.126 49.161 51.329 51.294 49.974 50.976 50.564 50.764 50.134 49.006 48.996 49.034 48.994 48.959 49.189 49.849 49.801 54.981 57.039 57.966 54.109 51.779 50.471 50.631 50.656 50.546 50.406 49.474 49.274 49.301 49.284 49.246 49.119 49.229 51.009 50.949 51.079 50.574 51.876 53.391 56.841 50.039 49.764 49.826 49.859 49.839 49.871 50.016 49.866 49.856 50.164 50.009 50.251 50.972 49.871 49.855 49.851 51.081 50.383 49.929 50.049 50.329 52.581 52.976 53.775 53.846 53.88 53.842 53.512 52.66 50.578 49.944 49.94 49.964 49.985 49.985 50.032 50.091 50.142 50.112 50.091 50.196 54.348 56.353 56.398 56.415 56.385 56.03 51.237 50.197 50.32 50.363 50.405 50.414 50.454 50.448 50.446 50.45 50.457 50.491 50.465 50.476 50.502 50.502 50.514 51.044 52.09 51.585 51.693 51.11 50.782 50.679 50.745 50.838 51.536 52.829 52.796 51.521 50.913 50.846 52.13 53.906 54.118 55.325 52.308 51.835 53.025 52.72 53.943 55.097 55.234 54.192 53.953 54.06 53.795 52.809 53.18 53.013 54.16 56.304 55.875 55.33 56.013 55.582 56.375 53.874 53.385 53.639 52.778 51.001 50.598 50.729 50.749 50.704 51.124 50.965 51.031 51.025 51.365 53.546 54.992 53.991 53.783 53.922 52.494 52.69 52.588 53.208 53.824 53.879 53.005 52.869 52.869 52.135 52.603 53.355 53.873 55.237 55.737 51.949 51.658 53.496 57.293 57.176 56.107 54.027 51.009 50.654 50.649 50.594 50.571 50.533 50.431 50.373 50.342 50.421 50.559 50.251 50.989 52.854 53.946 53.555 50.79 50.146 50.883 50.89 51.338 51.708 52.549 53.464 53.564 53.361 54.741 57.92 57.928 57.93 55.822 50.427 50.169 50.337 50.535 50.735 50.486 50.278 50.166 50.161 50.574 54.764 56.637 57.134 56.189 51.437 50.324 50.627 51.073 50.862 50.922 51.681 50.968 51.228 50.999 50.908 51.359 51.042 51.145 51.456 51.445 51.458 51.299 51.065 51.371 53.027 53.803 53.686 53.029 51.478 51.66 51.273 51.181 51.247 51.264 51.291 51.629 53.561 52.244 54.294 57.244 58.106 57.484 55.244 52.529 53.231 57.963 52.871 51.751 51.661 51.498 51.403 51.533 51.378 51.378 51.376 51.418 51.963 51.443 51.673 52.768 52.696 51.928 51.698 51.896 51.826 51.906 51.431 51.456 51.443 51.403 51.446 51.886 52.223 51.568 51.728 52.016 51.421 51.421 52.023 53.176 53.311 55.383 56.523 56.873 57.673 57.168 54.998 53.546
41.394 43.044 46.087 45.287 48.089 48.639 44.604 45.379 45.197 44.567 44.837 46.794 49.124 48.714 50.417 51.452 48.252 50.667 48.947 48.112 48.647 48.557 49.509 50.567 48.802 47.782 49.872 49.122 47.447 47.304 47.312 47.219 47.354 47.207 47.237 47.284 47.334 47.394 47.421 47.444 47.596 48.444 47.666 48.546 47.786 47.886 47.921 47.979 48.091 48.159 48.266 48.359 48.436 48.546 48.629 48.696 48.804 48.846 48.941 49.021 49.084 49.116 49.206 49.266 49.336 49.384 49.439 49.449 49.436 49.474 49.506 49.561 49.596 49.606 49.574 49.596 49.611 49.631 49.656 49.686 49.706 49.646 49.559 49.576 49.664 49.741 49.914 49.941 49.799 49.729 49.709 49.691 49.684 49.636 49.581 49.591 49.601 49.636 49.616 49.561 49.554 49.484 49.474 49.469 49.436 49.389 49.346 49.311 49.274 49.226 49.189 49.151 49.086 49.016 49.336 50.494 49.104 49.094 49.151 51.559 49.426 49.279 49.561 49.976 49.856 49.206 49.229 49.224 49.291 49.316 49.359 49.434 49.691 49.924 50.609 52.311 55.299 49.796 49.769 50.859 50.636 49.766 49.766 49.649 49.539 49.481 50.826 50.484 49.429 49.274 49.326 50.081 51.469 51.419 51.796 50.019 49.838 53.419 49.805 49.807 49.841 49.858 49.843 49.858 50.437 50.374 49.825 50.859 51.094 53.312 51.28 51.116 49.972 49.949 50.879 50.019 49.968 49.933 50.11 52.131 53.068 53.809 53.851 53.867 53.88 53.569 52.936 51.257 50.979 51.133 51.016 50.57 50.69 50.984 50.541 50.122 50.128 50.145 50.589 55 56.364 56.361 56.377 56.366 55.028 50.404 50.321 51.067 50.544 50.712 50.688 50.585 50.429 50.462 50.442 50.484 50.497 50.472 50.493 50.485 50.524 50.659 52.653 55.231 55.305 55.304 54.354 51.725 51.015 50.95 50.976 53.385 54.103 54.101 53.698 51.198 51.474 53.233 55.461 55.148 53.537 51.362 51.241 51.321 51.181 51.7 51.756 51.976 51.787 53.391 53.919 53.646 51.936 52.971 52.916 57.29 59.149 59.14 59.138 59.126 59.244 58.601 53.551 51.421 51.871 51.143 50.799 50.653 50.758 50.778 50.763 51.321 51.444 52.043 51.396 52.346 57.063 57.859 57.817 57.646 56.279 53.41 52.009 51.661 51.533 51.77 51.596 51.446 51.411 52.424 51.384 51.783 52.462 52.029 54.347 54.982 51.265 53.666 56.983 58.05 57.803 57.013 55.923 52.247 50.794 50.604 50.585 50.563 50.539 50.983 50.955 50.553 50.476 50.458 50.148 50.273 52.861 53.92 53.496 51.016 50.205 50.146 50.258 50.271 50.177 51.763 53.757 53.922 53.349 54.361 56.537 56.542 56.468 54.097 50.519 50.223 50.374 50.71 51.13 50.58 50.289 50.195 50.117 50.392 53.756 55.369 55.815 54.773 51.474 50.215 50.701 51.087 50.837 50.807 50.88 50.762 51.075 50.923 50.936 51.319 51.416 51.017 53.657 53.841 53.862 52.761 51.128 52.262 52.446 52.543 52.694 52.09 51.386 51.337 51.427 51.211 51.311 51.326 52.081 51.814 53.801 52.416 54.881 57.934 58.864 58.489 56.796 51.501 53.918 54.591 54.361 51.961 51.778 51.533 51.993 52.198 52.211 52.003 51.938 52.003 52.091 51.828 52.038 51.906 51.643 51.806 51.753 51.853 52.053 52.066 51.968 51.878 52.631 52.346 52.116 52.738 52.171 51.733 51.548 51.626 51.486 51.418 51.521 52.711 53.408 54.261 55.628 56.806 57.698 57.203 56.713 55.158
43.369 44.044 45.952 45.377 44.194 46.159 43.322 44.859 45.652 46.342 45.397 46.099 50.667 51.369 48.064 46.772 48.054 48.534 48.689 47.649 49.447 49.544 48.324 48.427 47.054 47.194 48.194 47.167 47.017 46.992 47.057 47.132 47.197 47.249 47.252 47.282 47.344 47.389 47.446 47.544 47.604 47.649 47.719 47.764 47.824 47.931 48.014 48.071 48.156 48.231 48.351 48.419 48.494 48.579 48.674 48.766 48.844 48.911 49.009 49.061 49.131 49.171 49.236 49.304 49.346 49.409 49.456 49.471 49.469 49.506 49.549 49.584 49.621 49.651 49.649 49.649 49.651 49.669 49.704 49.781 49.779 49.686 49.606 49.616 49.699 49.754 49.874 49.906 49.774 49.741 49.731 49.734 49.706 49.674 49.661 49.639 49.666 49.716 49.676 49.616 49.599 49.554 49.516 49.511 49.461 49.436 49.419 49.394 49.369 49.321 49.276 49.221 49.171 49.106 49.206 50.006 49.084 49.114 49.201 49.406 50.241 49.271 49.261 49.274 49.246 49.251 49.304 49.349 49.386 49.401 49.404 49.466 49.504 49.534 49.544 49.624 49.586 50.104 52.529 52.561 49.846 49.802 49.798 49.985 50.195 50.326 50.426 51.349 49.9 49.444 49.467 49.676 51.563 52.628 52.889 50.47 50.767 51.575 49.829 50.597 49.981 49.998 49.894 49.89 49.885 49.909 49.846 50.08 51.93 55.245 50.332 51.981 51.123 50.736 50.708 50.576 50.179 52.2 51.303 52.672 53.301 53.837 53.848 53.868 53.877 53.591 53.184 53.136 53.158 53.145 53.194 53.128 53.034 53.111 52.968 50.218 50.158 50.72 50.272 55.256 56.382 56.424 56.379 56.405 53.961 50.414 50.386 52.415 50.693 51.237 50.611 50.619 50.539 51.22 50.575 50.72 51.235 50.725 50.878 50.882 50.66 51.839 54.877 55.211 55.236 55.222 55.21 53.801 51.739 51.341 51.947 53.932 54.186 54.18 54.118 52.747 51.466 52.379 52.863 52.083 52.574 51.345 51.248 51.231 51.236 51.261 51.255 51.225 51.257 52.829 53.199 53.116 52.098 53.248 52.786 56.742 59.905 60.096 60.088 60.081 59.919 58.839 54.81 51.559 52.333 51.494 50.858 50.713 50.813 50.845 50.826 51.389 51.223 51.907 51.495 52.399 56.894 57.489 57.796 58.163 56.146 53.801 52.061 51.491 51.348 51.384 51.287 51.225 51.563 52.864 51.697 51.518 51.758 53.079 55.399 54.497 50.966 51.888 56.526 57.365 58.058 57.741 56.979 55.053 51.199 50.763 51.045 51.222 50.703 51.226 51.414 51.171 50.594 50.464 50.167 51.367 53.529 54.38 53.527 51.534 50.346 50.836 51.885 51.4 50.373 52.034 53.679 53.811 53.355 54.921 57.142 57.13 57.156 56.727 51.827 50.2 50.381 50.792 50.779 50.825 50.649 50.177 50.223 50.618 52.871 54.127 54.679 53.701 52.344 50.483 50.797 51.318 51.537 50.89 50.796 50.779 50.814 50.866 50.809 50.829 50.831 50.926 52.241 51.894 52.589 51.859 52.519 55.311 55.481 55.389 55.479 52.974 51.299 51.326 51.346 51.241 51.319 51.361 51.936 51.459 52.481 51.884 54.359 57.874 59.014 58.931 56.999 51.491 51.448 53.388 52.948 51.246 51.261 51.236 51.248 51.303 51.396 51.431 51.403 51.576 51.531 51.663 52.698 51.916 51.786 51.673 51.658 52.211 52.258 51.773 51.668 51.761 51.803 52.158 52.618 52.411 51.813 51.873 51.798 52.298 52.158 51.953 51.958 52.156 53.301 52.088 53.453 57.048 57.408 57.606 57.623 57.508
44.942 47.234 46.492 43.517 43.219 44.469 46.147 46.797 47.847 49.092 47.764 50.617 51.959 51.404 50.447 47.454 48.667 47.512 47.624 48.947 50.714 48.759 49.239 49.332 48.122 47.109 47.044 46.964 46.962 47.047 47.097 47.179 47.214 47.264 47.272 47.337 47.409 47.437 47.469 47.559 47.634 47.734 47.774 47.809 47.901 47.991 48.081 48.149 48.224 48.316 48.396 48.474 48.581 48.616 48.696 48.799 48.871 48.971 49.056 49.104 49.149 49.209 49.284 49.356 49.389 49.471 49.504 49.504 49.516 49.546 49.584 49.594 49.651 49.676 49.676 49.679 49.721 49.714 49.719 49.774 49.796 49.736 49.681 49.646 49.749 49.834 49.916 49.941 49.839 49.771 49.784 49.766 49.779 49.749 49.721 49.691 49.754 49.749 49.719 49.666 49.659 49.611 49.569 49.546 49.496 49.454 49.434 49.441 49.429 49.401 49.346 49.286 49.211 49.174 49.744 50.606 49.126 49.206 49.269 49.486 49.536 49.279 49.321 49.349 49.324 49.345 49.359 49.408 49.415 49.474 49.487 49.513 49.561 49.589 49.606 49.618 49.631 49.685 50.745 49.759 49.806 49.801 49.953 51.822 52.109 52.082 50.636 50.95 50.497 49.547 49.536 49.68 53.499 53.451 54.009 50.49 49.929 49.828 49.837 51.658 50.597 49.86 52.131 50.238 49.898 49.906 49.892 49.986 51.093 50.672 50.386 52.123 50.4 50.461 50.878 51.155 50.86 50.083 50.522 52.416 53.2 53.808 53.841 53.868 53.876 53.633 53.177 53.199 53.161 53.168 53.201 53.216 53.194 53.204 52.859 50.243 50.141 51.07 50.505 55.519 56.384 56.403 56.405 56.385 53.865 50.308 50.206 51.478 52.506 52.446 50.899 50.693 50.69 50.722 50.762 50.75 50.774 50.779 50.787 50.818 50.835 51.238 55.105 55.181 55.217 55.21 55.178 54.768 54.033 53.767 53.994 54.179 54.28 54.257 54.195 53.759 51.334 51.081 51.475 52.488 53.8 53.238 51.958 51.244 51.285 51.322 51.29 51.274 51.288 51.389 51.391 51.298 51.485 51.597 51.423 55.541 58.361 58.406 58.688 58.524 58.992 58.827 55.384 51.54 51.89 51.835 51.462 51.44 50.995 50.872 50.838 51.256 52.295 52.544 52.125 52.181 54.401 56.164 57.361 58.223 56.657 53.769 51.864 51.516 51.824 51.795 52.036 52.211 52.081 52.707 51.783 52.238 52.344 55.531 57.051 56.271 51.013 50.666 53.467 56.563 57.448 57.97 56.37 51.613 50.925 52.421 53.739 53.78 51.78 51.57 51.575 51.464 50.749 50.651 50.185 52.048 54.196 54.745 53.665 52.99 52.66 53.009 53.307 52.894 52.547 53.275 53.504 53.398 53.044 55.852 57.995 57.961 58.03 58.083 52.328 50.676 50.87 51.138 51.4 53.502 53.72 53.412 53.616 53.555 53.951 54.529 54.651 53.434 52.229 50.524 51.344 51.206 50.976 50.971 51.224 50.821 50.859 50.859 50.849 50.834 50.891 50.911 50.966 51.019 51.089 53.106 54.291 56.901 58.046 58.059 57.606 53.771 51.391 51.579 51.744 51.264 51.369 51.359 51.374 51.594 53.694 52.289 53.856 57.026 57.784 57.431 57.026 51.681 51.461 51.386 51.546 54.116 53.678 51.313 51.276 51.338 51.431 51.453 51.426 51.436 51.513 51.596 52.088 51.646 51.618 51.608 51.756 52.293 51.973 51.856 51.853 53.343 52.558 52.908 52.701 53.233 52.836 51.771 51.753 51.721 51.616 51.603 51.493 52.166 53.651 54.261 55.016 57.081 57.268 57.108 57.066 56.783
43.722 45.577 44.557 43.264 46.962 48.267 48.429 48.517 49.559 49.669 48.162 49.304 50.504 49.639 47.909 47.434 47.642 47.652 48.342 50.282 50.924 48.407 50.002 49.177 47.119 46.917 46.907 47.024 47.049 47.124 47.149 47.199 47.237 47.312 47.342 47.414 47.449 47.504 47.514 47.631 47.744 47.829 47.861 47.964 48.034 48.059 48.129 48.219 48.279 48.394 48.456 48.536 48.649 48.696 48.764 48.854 48.906 49.004 49.094 49.131 49.216 49.254 49.319 49.416 49.464 49.469 49.526 49.549 49.531 49.571 49.594 49.616 49.676 49.704 49.699 49.726 49.736 49.744 49.779 49.806 49.821 49.816 49.774 49.759 49.861 49.914 49.994 49.981 49.899 49.851 49.809 49.831 49.859 49.864 49.789 49.771 49.766 49.789 49.779 49.731 49.704 49.639 49.606 49.576 49.531 49.506 49.486 49.476 49.454 49.441 49.381 49.322 49.301 49.235 49.649 50.803 49.263 49.239 49.29 49.629 49.474 49.341 49.358 49.347 49.399 49.444 49.454 49.45 49.467 49.501 49.517 49.569 49.627 49.632 49.633 49.618 49.648 49.675 49.706 49.744 49.769 49.797 49.992 50.933 50.834 50.957 50.161 49.8 49.803 49.603 49.621 49.746 51.246 52.258 51.603 50.327 49.869 49.814 49.838 49.861 49.998 49.868 50.357 50.558 50.39 50.822 50.031 50.386 50.325 50.069 50.244 50.946 50.23 50.182 50.132 50.115 50.191 50.191 50.186 52.282 53.071 53.388 53.869 53.909 53.874 53.477 53.205 53.202 53.213 53.198 53.238 53.215 53.2 53.215 52.123 50.064 50.298 51.243 50.38 54.959 56.36 56.392 56.381 56.359 53.675 50.309 50.32 50.756 50.997 50.985 50.897 50.803 50.792 50.789 50.921 51.199 51.023 50.916 50.873 50.883 50.895 50.881 53.225 55.208 55.214 55.198 54.858 54.221 54.246 54.209 54.188 54.241 54.245 54.241 54.055 53.26 51.138 51.101 52.744 55.283 56.99 57.543 56.232 52.151 51.31 51.323 51.409 51.312 51.326 51.359 51.372 51.372 51.387 51.385 51.387 51.704 53.519 57.945 58.876 58.911 59.068 59.133 56.638 52.189 51.689 51.61 51.201 51.467 51.047 50.935 50.895 53.204 52.924 53.634 51.969 52.046 54.045 56.051 57.441 58.437 57.706 53.944 52.561 52.247 52.403 52.092 52.065 52.068 52.304 52.238 52.218 52.099 52.347 54.809 56.602 55.644 50.78 50.736 50.738 52.859 56.31 54.163 52.581 50.731 51.017 53.116 54.25 54.364 53.72 53.646 53.685 53.652 52.523 50.754 50.174 52.168 54.229 54.814 54.248 54.213 54.198 54.189 54.201 54.186 54.211 53.323 52.169 52.439 51.619 53.444 56.571 56.569 56.556 56.611 54.259 53.204 53.379 53.429 53.719 55.776 56.039 56.031 56.036 56.026 55.784 53.226 51.016 51.449 51.526 51.179 52.039 51.701 51.286 52.144 51.834 51.461 51.646 51.589 51.184 51.111 51.926 52.416 51.984 51.899 51.751 53.896 54.311 57.119 58.566 58.679 57.724 53.379 51.814 51.566 51.581 51.289 51.414 51.416 51.354 52.369 54.074 53.669 57.094 57.736 57.969 57.446 57.934 53.894 52.356 53.323 52.728 57.293 56.676 52.996 51.801 53.191 51.731 51.446 51.416 51.463 51.561 51.861 51.961 51.708 51.953 51.783 51.851 51.821 51.948 51.968 51.933 53.026 53.806 54.518 52.546 52.976 53.371 52.443 51.948 51.836 51.736 51.686 51.623 52.438 54.143 55.986 56.281 57.163 57.643 57.473 57.508 54.316
44.204 44.519 43.467 43.062 44.727 45.804 47.802 48.554 48.887 48.197 46.774 46.972 47.682 47.227 47.317 47.227 47.317 47.289 47.737 50.084 50.552 49.954 48.414 48.119 46.899 46.934 46.992 47.069 47.129 47.182 47.234 47.232 47.314 47.372 47.414 47.492 47.512 47.559 47.646 47.731 47.836 47.884 47.984 48.051 48.096 48.151 48.244 48.294 48.374 48.436 48.529 48.601 48.694 48.776 48.864 48.909 48.991 49.056 49.124 49.209 49.256 49.286 49.379 49.451 49.489 49.529 49.586 49.579 49.616 49.646 49.631 49.684 49.724 49.756 49.751 49.771 49.791 49.834 49.819 49.869 49.924 49.919 49.844 49.811 49.924 49.976 50.019 50.029 49.974 49.971 49.926 49.919 49.949 49.919 49.881 49.846 49.856 49.866 49.794 49.781 49.764 49.695 49.679 49.642 49.604 49.53 49.532 49.516 49.504 49.499 49.431 49.418 49.379 49.348 50.09 50.443 49.211 49.27 49.327 49.543 49.695 49.365 49.388 49.393 49.469 49.515 49.509 49.513 49.52 49.539 49.568 49.583 49.642 49.695 49.688 49.67 49.691 49.721 49.761 49.797 49.813 49.837 49.884 49.957 50.017 50.012 49.944 49.856 49.748 49.684 49.683 49.796 50.569 51.408 51.329 50.092 49.87 49.839 49.866 50.201 52.104 51.089 52.498 52.327 52.152 50.705 50.456 53.506 53.497 50.351 50.97 50.901 50.374 50.445 50.326 50.174 50.523 50.335 50.299 54.587 56.133 56.247 56.226 56.207 56.09 54.161 53.211 53.207 53.165 53.196 53.186 53.16 53.173 53.425 52.239 50.066 50.219 51.129 50.655 55.101 55.606 54.9 54.736 53.488 52.541 50.738 50.81 51.01 51.189 51.045 50.975 50.931 51.18 51.084 51.49 53.501 53.435 53.082 52.94 51.761 51.509 51.532 51.489 54.257 54.905 54.963 54.533 54.169 54.263 54.255 54.23 54.245 54.252 54.281 53.649 51.098 51.085 51.296 55.545 57.725 58.899 59.223 58.18 54.806 51.365 51.324 51.86 51.928 51.413 51.398 51.435 51.47 51.893 52.636 52.281 51.444 52.676 57.903 58.715 58.755 58.765 58.785 57.128 51.889 51.47 51.276 50.957 50.863 50.964 51.002 50.93 51.032 51.374 51.491 51.354 52.124 55.323 56.631 57.534 58.489 57.736 54.028 52.088 51.648 51.729 51.58 51.348 51.342 51.304 51.214 51.202 51.322 53.322 54.507 55.998 54.169 50.79 50.792 50.749 50.664 52.152 51.288 50.665 50.646 50.774 53.652 54.897 54.899 54.888 54.919 54.883 54.891 54.491 51.419 50.159 52.251 54.126 54.731 54.661 54.689 54.671 54.646 54.711 54.711 54.721 54.694 51.311 50.434 50.196 50.214 50.729 53.221 54.859 54.456 54.564 54.299 54.269 54.279 54.694 56.961 57.111 57.144 57.149 57.159 57.149 54.636 50.449 51.546 52.286 51.584 51.619 51.969 50.944 51.001 51.134 51.476 51.161 51.439 51.874 52.299 53.124 53.551 53.459 53.169 52.824 53.391 54.344 56.401 57.289 57.251 57.296 53.209 51.446 51.876 51.499 51.334 51.426 51.516 51.511 52.474 52.009 52.186 57.069 58.539 58.734 58.704 58.306 54.039 53.021 54.953 52.393 55.841 56.001 55.713 53.813 54.498 53.421 52.286 52.016 52.161 52.373 52.418 52.078 51.803 52.638 52.106 52.143 51.873 51.863 51.793 51.933 52.973 53.321 53.568 53.636 52.628 52.033 51.938 52.028 52.468 52.483 51.718 51.951 52.383 52.906 53.421 53.973 55.646 56.283 55.916 53.853 52.056
45.639 45.252 45.189 45.232 44.649 45.624 46.634 47.037 47.292 47.289 46.907 46.984 47.042 47.094 47.092 47.074 46.707 46.562 46.787 48.809 49.489 48.044 46.757 46.872 47.002 47.037 47.084 47.162 47.187 47.264 47.317 47.352 47.409 47.444 47.477 47.567 47.637 47.652 47.746 47.824 47.934 47.986 48.066 48.121 48.171 48.229 48.316 48.374 48.436 48.509 48.604 48.684 48.754 48.834 48.894 48.996 49.039 49.089 49.171 49.241 49.291 49.324 49.404 49.486 49.516 49.551 49.666 49.691 49.726 49.739 49.714 49.766 49.819 49.859 49.879 49.899 49.894 49.906 49.911 49.951 49.974 49.971 49.896 49.906 49.976 50.011 50.034 50.036 50.041 50.043 50.042 50.029 50.02 49.972 49.926 49.901 49.904 49.894 49.848 49.807 49.764 49.74 49.712 49.701 49.657 49.615 49.577 49.562 49.559 49.553 49.517 49.466 49.441 49.378 50.323 50.675 49.311 49.36 49.372 49.425 49.444 49.445 49.444 49.491 49.522 49.563 49.529 49.556 49.574 49.589 49.6 49.642 49.7 49.746 49.748 49.717 49.74 49.784 49.87 49.878 49.908 49.908 49.926 49.986 50.05 50.032 49.961 49.876 49.796 49.752 49.762 49.944 51.158 51.349 51.188 50.129 49.883 49.887 49.899 49.913 50.312 49.909 50.907 52.026 52.317 50.182 51.395 51.826 50.745 50.545 51.081 50.519 50.284 50.199 50.252 50.192 50.78 51.138 50.86 56.407 57.101 57.142 57.144 57.104 56.907 54.13 51.817 51.749 51.522 52.146 52.152 52.279 53.307 55.583 54.885 51.804 51.369 51.026 51.194 55.361 56.094 53.956 53.805 51.395 50.802 50.843 50.942 51.425 53.363 53.569 53.334 53.35 53.403 53.499 53.542 53.937 53.953 53.911 53.662 52.863 53.234 53.095 52.65 52.89 54.134 54.162 54.968 55.669 55.882 55.746 55.442 55.584 55.735 55.529 54.863 52.386 51.078 51.252 56.568 58.548 58.952 58.006 57.83 54.753 52.494 51.689 52.79 55.169 52.395 52.662 53.215 53.22 53.298 56.435 56.25 52.118 51.545 53.515 53.176 53.495 53.033 53.272 53.993 51.398 51.278 51.145 50.962 50.891 50.978 51.045 51.002 51.173 51.167 51.27 51.348 52.865 57.22 58.076 58.19 58.095 56.806 53.826 51.871 51.394 51.623 51.772 51.41 51.348 51.27 51.241 51.327 51.351 51.96 53.664 54.599 53.206 50.842 50.831 50.799 50.73 50.714 50.712 50.717 50.656 50.927 54.154 55.557 55.47 55.446 55.454 55.404 55.394 54.904 51.831 50.301 52.361 53.541 53.641 53.626 53.644 53.639 53.624 53.634 53.644 53.631 53.619 50.879 50.246 50.241 50.244 51.236 51.739 51.194 51.039 52.499 52.344 53.394 53.479 53.529 56.244 56.974 56.979 56.996 56.979 56.981 54.531 50.741 51.474 52.319 53.009 51.844 52.101 51.009 51.006 51.011 51.036 51.064 51.054 51.076 52.186 53.276 52.101 53.184 54.214 54.186 54.079 55.336 56.666 57.439 56.189 53.981 52.079 51.764 51.774 51.469 51.361 51.439 51.674 52.304 52.729 52.001 51.626 54.551 57.264 58.784 59.301 58.269 55.169 54.263 54.578 51.826 52.356 52.676 53.231 53.203 52.476 52.083 51.438 51.866 52.716 54.218 54.053 52.876 52.403 54.723 54.633 54.481 54.138 53.961 53.576 53.806 53.496 52.911 51.861 51.856 51.798 51.953 51.671 51.698 52.828 52.583 51.556 51.386 53.181 54.461 54.186 53.048 53.503 53.643 53.548 52.643 51.911
46.927 45.642 47.032 45.999 45.547 46.234 46.437 46.517 46.932 47.229 46.842 47.019 47.339 47.367 46.974 46.762 46.572 46.542 46.512 46.547 46.644 46.767 46.867 46.982 47.057 47.109 47.164 47.227 47.237 47.309 47.384 47.427 47.492 47.512 47.557 47.617 47.664 47.712 47.834 47.934 48.031 48.056 48.141 48.201 48.281 48.329 48.419 48.466 48.526 48.591 48.686 48.754 48.841 48.924 48.966 49.061 49.106 49.184 49.264 49.299 49.369 49.391 49.511 49.561 49.589 49.654 49.726 49.774 49.794 49.804 49.826 49.884 49.909 49.946 49.94 49.938 49.957 49.952 49.95 50.029 50.067 50.006 49.946 49.96 50.033 50.082 50.086 50.086 50.11 50.068 50.067 50.055 50.035 50.005 50 49.964 49.957 49.943 49.894 49.837 49.799 49.791 49.766 49.758 49.704 49.681 49.641 49.618 49.629 49.614 49.557 49.514 49.486 49.437 50.257 50.205 49.433 49.429 49.461 49.586 49.512 49.524 49.523 49.572 49.591 49.606 49.562 49.587 49.613 49.643 49.629 49.693 49.755 49.802 49.807 49.802 49.804 49.87 49.934 49.961 50.029 50.089 49.978 49.993 50.046 50.078 50.014 49.937 49.821 49.785 49.786 49.917 50.406 50.655 50.585 50.005 49.979 49.997 49.982 50.023 50.073 50.101 50.15 50.29 50.555 50.048 50.438 51.401 50.194 50.248 50.302 50.24 50.188 50.195 50.251 50.313 50.439 50.502 50.895 56.629 57.059 57.115 57.156 57.096 56.845 52.766 50.293 50.328 50.27 50.278 50.274 50.196 52.165 61.547 62.028 60.206 60.079 58.441 59.025 60.789 60.845 60.9 60.957 54.229 50.877 50.878 50.93 51.204 53.666 53.933 53.921 53.929 53.924 53.895 53.9 53.935 53.941 53.934 53.98 54.149 54.109 54.163 54.134 54.112 54.111 54.135 56.093 57.94 58.026 58.008 57.976 57.987 57.94 57.936 57.719 55.803 51.236 51.25 55.427 58.19 58.875 57.737 54.675 53.073 52.283 52.734 53.806 54.716 53.211 52.757 53.033 54.246 54.448 56.977 55.728 55.392 53.88 53.396 53.551 54.17 53.928 52.725 52.061 52.08 51.508 51.599 51.07 50.959 51.047 51.113 51.134 52.112 51.981 51.645 51.984 52.802 55.862 55.055 55.877 55.568 54.755 53.178 53.591 52.175 51.669 51.639 51.619 51.974 51.516 51.816 51.884 52.924 52.891 52.851 54.796 53.621 50.846 50.864 50.859 50.841 50.801 50.789 50.771 50.716 51.024 53.749 54.614 54.629 54.574 54.466 54.421 54.406 53.976 52.006 50.356 50.284 51.486 51.366 51.259 51.401 51.206 50.831 51.046 51.144 51.346 50.366 50.239 50.476 50.541 50.541 50.361 50.319 50.409 50.339 50.176 50.114 50.409 50.414 50.384 52.704 55.184 55.209 54.954 53.539 54.336 53.119 51.264 51.581 52.366 53.369 52.601 52.129 51.044 51.064 51.069 51.131 51.144 51.146 51.156 51.186 51.361 51.394 51.989 52.761 52.804 53.556 55.451 56.871 57.484 56.451 54.076 52.704 52.734 51.509 51.396 51.381 51.464 51.661 51.811 53.086 51.951 51.931 53.531 56.739 58.716 58.991 58.309 55.034 54.651 54.306 51.826 51.763 51.478 51.593 52.011 51.568 51.458 51.448 51.513 52.598 53.918 54.376 53.528 53.231 55.096 55.776 55.811 55.686 55.628 55.508 55.421 55.318 54.788 51.956 51.851 52.553 52.301 51.613 51.626 53.228 52.648 51.688 51.616 54.261 57.018 57.031 56.771 56.578 56.706 56.748 55.986 51.901
44.674 44.452 45.859 45.312 46.079 46.552 46.409 46.439 46.549 47.012 46.742 46.819 47.149 46.954 46.539 46.484 46.552 46.504 46.502 46.559 46.704 46.812 46.932 47.017 47.129 47.217 47.304 47.339 47.354 47.394 47.462 47.539 47.594 47.612 47.622 47.664 47.724 47.809 47.946 48.041 48.091 48.116 48.194 48.269 48.356 48.404 48.486 48.559 48.601 48.681 48.779 48.831 48.931 48.966 49.046 49.134 49.174 49.288 49.363 49.409 49.451 49.486 49.582 49.669 49.675 49.731 49.791 49.854 49.89 49.887 49.886 49.901 49.952 49.971 49.982 49.995 50.002 49.995 50.025 50.073 50.104 50.079 49.99 50.029 50.099 50.139 50.134 50.148 50.158 50.1 50.098 50.076 50.467 50.316 50.603 50.065 50.058 50.012 49.97 49.917 49.878 49.87 49.852 49.829 49.756 49.734 49.713 49.704 49.697 49.688 49.622 49.597 49.55 49.503 49.893 50.27 49.444 49.474 49.497 49.737 49.591 49.578 49.608 49.649 49.651 49.644 49.629 49.653 49.681 49.714 49.699 49.722 49.76 49.828 49.83 49.807 49.847 49.94 51.747 52.529 52.692 52.908 52.314 52.336 52.583 52.475 50.704 50.057 49.866 49.754 50.376 51.652 51.742 51.317 51.447 51.057 51.05 51.208 51.571 52.332 52.969 52.803 52.578 52.826 52.238 51.95 51.509 52.16 52.363 52.099 51.858 51.685 50.403 50.082 50.302 50.417 50.674 50.601 51.435 56.898 57.091 57.104 57.142 57.11 56.761 51.724 50.706 50.843 50.79 50.702 50.602 50.373 52.899 62.694 62.774 62.761 62.815 62.812 62.735 62.784 62.815 62.776 62.859 57.769 50.909 50.908 50.926 51.181 53.478 53.944 53.985 53.951 53.941 53.929 53.934 53.935 53.936 53.923 53.979 54.18 54.187 54.224 54.17 54.148 54.18 54.125 56.806 58.588 58.56 58.546 58.509 58.506 58.481 58.484 58.445 55.66 51.087 51.166 52.737 55.797 56.666 55.244 52.024 51.622 51.613 51.821 51.967 52.826 51.802 51.679 51.645 52.027 51.72 51.788 52.093 57.178 57.919 57.607 57.643 58.124 58.702 56.215 51.54 51.44 51.392 51.366 51.094 51.032 51.098 51.119 51.241 54.299 54.824 53.366 52.966 53.174 53.099 54.379 54.344 53.526 52.689 51.806 53.371 53.394 52.029 53.529 52.629 52.009 51.784 52.476 51.876 53.326 52.541 51.514 53.754 52.781 50.876 50.854 50.866 50.854 50.856 50.884 50.864 50.759 50.896 52.099 53.234 53.484 53.186 52.369 51.606 52.689 52.526 51.919 50.491 50.309 50.281 50.276 50.304 50.334 50.336 50.326 50.336 50.361 50.396 50.371 50.479 50.576 50.594 50.621 50.631 50.644 50.666 50.691 50.699 50.496 50.401 50.324 50.149 50.229 50.246 50.119 50.284 50.454 50.361 51.059 51.056 51.206 52.559 53.499 53.229 52.261 51.091 51.116 51.126 51.136 51.186 51.226 51.209 51.239 51.259 51.554 52.674 51.641 51.456 52.859 55.574 56.976 57.621 56.099 54.611 52.221 51.539 51.514 51.426 51.444 51.499 51.751 51.739 52.191 52.156 51.931 53.354 56.766 58.074 57.856 57.879 54.779 54.628 54.048 51.846 52.171 51.768 51.991 51.741 51.493 51.468 51.481 51.466 51.451 52.428 53.338 52.733 52.701 55.203 56.273 56.736 56.723 56.683 56.563 56.518 55.988 54.833 52.048 52.203 54.036 53.038 51.943 51.753 53.233 52.376 52.183 52.728 53.856 56.686 56.758 57.153 57.231 57.261 57.493 57.723 52.196
43.314 43.929 44.687 45.577 45.972 45.922 45.687 45.694 46.217 46.919 46.967 46.789 46.529 46.507 46.347 46.429 46.559 46.597 46.564 46.597 46.727 46.852 46.942 47.059 47.147 47.262 47.337 47.402 47.427 47.467 47.519 47.562 47.617 47.669 47.709 47.764 47.827 47.972 48.044 48.129 48.164 48.211 48.286 48.371 48.442 48.481 48.591 48.637 48.692 48.77 48.844 48.904 49.015 49.027 49.114 49.212 49.229 49.354 49.425 49.486 49.545 49.58 49.649 49.716 49.752 49.794 49.832 49.899 49.958 49.942 49.956 49.961 49.967 49.996 50.039 50.044 50.052 50.071 50.109 50.136 50.114 50.091 50.071 50.107 50.162 50.181 50.177 50.186 50.183 50.163 50.138 50.12 50.161 50.279 50.251 50.169 50.164 50.102 50.046 49.99 49.95 49.921 49.929 49.875 49.851 49.811 49.786 49.777 49.789 49.782 49.716 49.702 49.63 49.591 50.156 49.835 49.529 49.549 49.577 49.909 49.704 49.655 49.693 49.717 49.7 49.692 49.706 49.727 49.734 49.77 49.767 49.773 49.843 49.914 49.922 49.909 49.91 50.102 52.347 53.497 53.507 53.587 53.603 53.536 53.537 53.498 51.595 50.079 49.885 49.807 50.718 53.598 53.689 53.665 53.672 53.676 53.663 53.653 54.451 56.643 57.028 56.861 56.758 56.972 56.658 56.558 56.026 56.546 56.693 56.445 56.399 56.327 54.089 50.086 50.315 50.631 51.406 52.128 51.998 56.625 57.092 57.156 57.179 57.118 56.698 51.548 50.846 51.221 51.126 50.993 50.931 50.804 53.808 62.727 62.831 62.779 62.808 62.798 62.804 62.86 62.834 62.825 62.863 56.352 50.939 50.919 51.021 52.266 53.766 53.945 53.972 53.955 53.933 53.914 53.934 53.964 53.949 53.939 53.977 54.262 54.23 54.253 54.293 54.2 54.217 54.209 57.311 59.129 59.115 59.065 59.041 59.05 59.037 59.019 58.972 55.73 51.094 51.211 51.495 52.961 53.875 52.342 51.691 51.642 51.66 51.712 51.7 51.701 51.707 51.717 51.68 51.691 51.707 51.698 52.132 58.397 60.037 60.097 60.033 60.043 60 56.779 51.541 51.469 51.435 51.439 51.15 51.036 51.154 51.151 51.116 51.329 53.049 52.556 52.124 51.659 55.369 57.601 57.586 55.729 53.334 51.824 52.376 52.664 52.056 51.306 51.409 51.346 51.766 51.159 51.166 51.159 51.451 51.566 53.909 52.529 50.891 50.884 50.874 50.864 50.916 51.169 50.941 50.806 50.796 50.809 50.816 53.211 53.091 50.934 50.644 50.616 51.096 51.811 50.706 50.521 50.679 51.111 50.584 51.789 50.539 50.569 50.511 50.644 50.684 50.856 50.876 51.034 51.016 50.641 50.816 51.549 50.951 50.879 50.934 50.806 50.889 51.006 50.746 51.031 51.669 50.679 50.509 50.661 50.801 50.826 50.814 50.876 51.466 51.711 52.849 51.871 51.159 51.161 51.164 51.189 51.234 51.234 51.261 51.286 51.314 51.636 52.409 51.716 51.794 53.834 55.814 57.079 57.514 56.051 54.641 52.769 51.551 51.561 52.151 51.706 51.516 51.976 52.066 52.149 52.911 53.251 55.491 56.681 57.446 55.981 54.749 54.664 54.631 53.896 52.056 52.983 52.658 52.771 51.573 51.556 51.531 51.633 51.606 51.658 52.573 53.293 52.453 52.793 55.221 55.853 56.018 56.198 56.248 56.353 56.296 55.876 54.661 52.181 52.421 53.183 52.638 51.491 51.876 52.838 51.708 51.716 52.386 53.863 56.816 55.401 53.796 56.978 57.271 57.748 57.983 52.273
44.844 43.144 44.414 45.392 45.982 45.817 45.677 45.579 46.022 46.489 46.847 46.634 46.474 46.394 46.352 46.447 46.679 46.684 46.669 46.642 46.754 46.897 47.009 47.117 47.184 47.327 47.404 47.469 47.479 47.502 47.56 47.59 47.647 47.71 47.793 47.877 47.975 48.047 48.137 48.207 48.24 48.307 48.383 48.443 48.547 48.591 48.69 48.727 48.809 48.884 48.948 49.018 49.091 49.114 49.229 49.291 49.331 49.422 49.485 49.564 49.616 49.64 49.711 49.775 49.824 49.86 49.905 49.952 49.98 49.976 49.991 49.99 50.033 50.091 50.102 50.113 50.101 50.136 50.163 50.163 50.123 50.126 50.12 50.158 50.211 50.208 50.216 50.202 50.194 50.207 50.193 50.199 50.196 50.22 50.214 50.185 50.208 50.146 50.084 50.036 50 49.992 49.971 49.963 49.924 49.886 49.901 49.875 49.89 49.871 49.805 49.778 49.719 49.667 50.076 49.898 49.604 49.625 49.647 49.681 49.683 49.728 49.756 49.741 49.726 49.753 49.779 49.794 49.821 49.846 49.847 49.85 49.903 49.956 49.956 49.947 49.962 50.181 52.312 53.501 53.519 53.576 53.603 53.575 53.536 53.483 51.518 50.173 49.908 49.839 50.829 53.525 53.651 53.665 53.669 53.67 53.665 53.65 54.318 56.796 57.018 56.999 56.971 56.986 56.976 56.986 56.998 57.026 57.021 57.024 57.019 57.003 54.875 50.101 50.713 50.96 50.941 51.281 51.632 56.909 57.068 57.138 57.173 57.112 56.708 52.175 50.976 51.32 51.147 51.355 50.928 51.775 55.392 62.332 62.843 62.872 62.859 62.822 63.148 64.223 63.643 62.87 62.858 56.086 52.316 52.34 52.665 53.318 53.897 53.938 53.953 53.961 53.978 53.952 53.953 54.025 54.014 53.952 54.048 54.125 54.158 54.217 54.159 54.161 54.205 54.447 58.42 59.482 59.484 59.495 59.467 59.47 59.454 59.459 59.511 55.624 51.109 51.176 53.166 53.984 54.831 53.741 51.656 51.681 51.686 51.691 51.716 51.741 51.734 51.739 51.739 51.706 51.711 51.676 52.279 58.754 60.216 60.231 60.331 60.341 60.066 56.741 52.159 51.511 51.471 51.511 51.351 51.689 51.206 51.191 51.191 51.509 51.449 51.426 51.679 51.519 55.764 58.691 58.856 53.799 52.096 51.424 51.529 51.646 51.374 51.294 51.339 51.594 51.746 51.116 51.144 51.176 51.199 51.621 53.781 52.861 51.839 50.971 50.879 50.866 50.889 50.941 50.829 50.804 50.806 50.891 50.794 51.494 51.291 50.824 50.701 51.391 51.349 51.884 51.364 51.606 51.491 50.971 51.554 52.066 52.291 52.426 52.789 52.859 52.906 53.069 53.069 53.124 52.639 52.374 51.874 51.559 51.766 52.441 52.109 51.651 52.276 52.729 52.241 51.876 51.896 51.574 51.491 51.349 51.239 51.164 51.179 51.156 52.904 53.201 53.449 53.149 51.701 51.219 51.249 51.276 51.301 51.306 51.336 51.336 51.381 51.449 51.436 51.964 54.004 54.784 56.669 57.271 57.396 56.494 54.459 52.046 51.619 51.619 52.019 51.671 51.589 51.731 51.746 52.746 52.761 55.896 58.611 58.364 58.306 57.936 56.174 53.566 54.261 53.483 52.556 52.493 54.018 53.438 52.236 51.786 52.786 53.798 53.618 52.878 54.093 54.851 53.143 52.741 53.693 54.031 54.578 54.591 55.091 55.183 55.186 55.218 54.441 51.946 51.891 52.031 51.996 51.431 51.903 52.411 51.713 51.636 51.683 54.596 57.368 56.951 56.818 57.198 57.141 57.741 57.651 52.043
43.127 43.384 44.727 45.444 46.259 46.244 45.514 45.414 45.894 46.364 46.777 46.612 46.424 46.394 46.424 46.531 46.735 47.126 46.763 46.73 46.786 46.95 47.071 47.161 47.253 47.401 47.498 47.548 47.567 47.599 47.628 47.684 47.681 47.721 47.831 47.965 48.035 48.106 48.152 48.256 48.303 48.362 48.438 48.496 48.599 48.654 48.734 48.778 48.873 48.926 49 49.065 49.135 49.166 49.274 49.326 49.402 49.478 49.552 49.596 49.645 49.676 49.777 49.816 49.86 49.898 49.971 49.999 50.016 50.023 50.032 50.068 50.144 50.164 50.176 50.181 50.183 50.183 50.185 50.186 50.143 50.156 50.187 50.228 50.266 50.279 50.254 50.236 50.237 50.242 50.236 50.226 50.231 50.257 50.263 50.209 50.221 50.198 50.145 50.06 50.045 50.044 50.046 50.017 50.024 49.971 49.95 49.956 49.965 49.935 49.896 49.857 49.78 49.746 50.254 49.796 49.693 49.704 49.726 49.989 49.762 49.785 49.799 49.796 49.793 49.823 49.833 49.876 49.887 49.901 49.902 49.916 49.981 50.019 50.019 50.012 50.021 50.212 52.391 53.505 53.538 53.603 53.615 53.555 53.512 53.465 51.38 50.137 49.925 49.86 50.759 53.522 53.642 53.677 53.656 53.659 53.659 53.611 54.09 56.762 57.006 56.999 56.989 56.97 56.992 56.988 57 56.979 56.981 56.972 57.021 57.006 54.493 50.114 50.594 50.722 50.777 51.045 51.457 56.989 57.124 57.157 57.196 57.116 56.665 52.297 51.339 51.597 51.578 51.765 52.076 52.122 55.891 62.782 62.857 62.844 62.876 62.855 63.862 65.317 64.473 62.917 62.86 58.456 54.004 53.904 53.877 53.893 53.906 53.944 53.966 53.968 53.955 53.929 53.909 53.976 54.014 53.956 53.916 52.995 52.799 54.143 54.194 54.184 54.199 54.549 58.489 59.041 59.061 59.094 59.109 59.139 59.159 59.174 59.211 55.379 51.101 51.219 53.596 54.181 56.094 55.816 51.686 51.674 51.704 51.714 51.721 51.729 51.729 51.739 51.721 51.821 51.871 52.669 53.194 57.189 58.326 58.651 58.716 58.989 59.891 58.199 53.449 51.524 51.466 51.396 51.381 52.444 51.331 51.241 51.249 51.671 51.641 51.666 51.586 51.551 54.176 57.751 58.684 55.171 52.229 51.676 51.376 51.394 51.356 51.476 51.424 52.239 52.109 51.369 51.301 51.246 52.081 53.464 54.241 54.564 54.021 51.521 51.564 51.629 51.156 50.934 50.921 51.264 51.301 51.436 51.359 51.486 51.706 51.161 51.629 54.736 54.454 52.134 52.889 53.159 53.009 52.784 53.016 52.696 52.349 52.199 52.331 53.271 53.694 53.404 52.884 52.464 51.616 51.404 52.469 51.696 53.019 52.804 50.914 50.881 51.771 52.796 51.356 51.044 51.066 51.704 51.744 51.964 52.646 51.856 51.929 52.246 52.686 52.796 51.724 52.729 51.989 51.431 51.404 51.586 51.524 51.334 51.306 51.454 52.161 52.741 52.134 52.254 54.456 54.496 55.896 57.299 57.269 55.931 54.174 51.796 51.679 51.634 51.499 51.584 51.629 51.529 51.611 52.101 52.109 55.536 59.371 59.601 59.599 59.291 57.074 51.964 52.283 52.631 52.141 53.156 53.768 54.576 53.811 53.633 53.738 53.903 55.418 54.838 54.401 54.093 52.491 52.016 52.018 52.016 51.921 51.866 51.886 52.141 52.748 52.436 51.991 51.703 51.683 51.993 51.783 51.421 51.933 51.581 51.528 51.493 51.483 54.201 56.483 56.621 57.136 57.256 57.116 57.708 57.448 51.643
43.89 43.362 44.266 45.377 46.505 46.19 45.647 45.485 46.065 46.402 46.639 46.593 46.432 46.497 46.722 46.589 46.718 46.838 46.901 46.866 46.834 46.965 47.132 47.234 47.347 47.447 47.527 47.587 47.643 47.686 47.941 47.806 47.755 47.819 47.918 48.014 48.069 48.145 48.23 48.317 48.38 48.436 48.515 48.586 48.681 48.695 48.769 48.838 48.938 49.001 49.055 49.139 49.208 49.243 49.357 49.417 49.481 49.541 49.616 49.659 49.712 49.751 49.836 49.862 49.922 49.961 50.016 50.031 50.057 50.064 50.086 50.128 50.153 50.198 50.2 50.224 50.248 50.244 50.223 50.211 50.212 50.273 50.28 50.315 50.347 50.349 50.339 50.317 50.305 50.329 50.327 50.314 50.305 50.303 50.294 50.279 50.278 50.244 50.195 50.131 50.113 50.109 50.11 50.101 50.077 50.046 50.055 50.046 50.055 50.028 49.99 49.959 49.867 49.831 50.275 49.965 49.776 49.793 49.81 49.84 49.835 49.852 49.871 49.862 49.852 49.901 49.904 49.96 49.974 49.999 49.985 49.972 50.051 50.09 50.088 50.075 50.076 50.27 52.403 53.523 53.565 53.606 53.647 53.582 53.558 53.49 51.421 50.174 49.936 49.889 51.131 53.547 53.679 53.701 53.676 53.664 53.645 53.617 54.246 56.774 57.019 57.001 57.006 56.994 56.993 57.011 57.021 57.013 57.01 57.043 57.048 57.013 54.127 50.182 50.528 50.995 50.951 50.847 51.679 57.071 57.099 57.116 57.13 57.118 56.595 51.608 51.59 51.052 52.073 52.132 52.702 51.27 55.168 62.812 62.818 62.715 62.859 62.864 63.892 65.342 63.943 62.871 62.86 57.757 53.967 53.943 53.934 53.951 53.931 53.934 53.979 53.97 53.976 53.954 53.944 53.974 53.979 54.004 53.931 52.716 51.719 52.829 52.404 53.329 53.304 54.971 58.166 58.501 58.536 58.556 58.579 58.609 58.629 58.646 58.669 54.609 51.094 51.356 53.671 53.924 54.491 53.786 51.716 51.701 51.701 51.686 51.721 51.731 51.731 51.749 51.736 51.726 51.779 53.574 54.959 54.994 56.116 59.056 59.686 59.751 60.166 59.624 54.726 51.479 51.459 51.404 51.374 52.064 51.319 51.261 51.276 51.774 52.239 52.711 52.134 52.389 54.831 57.319 58.549 57.281 54.286 51.691 51.699 51.406 52.651 52.706 51.484 52.966 52.254 51.319 51.334 51.816 52.906 54.216 54.746 54.664 54.489 52.214 51.559 51.536 51.909 51.509 52.009 51.749 51.884 53.541 53.401 52.359 53.844 52.964 51.431 52.154 55.356 51.681 51.851 53.009 53.266 53.144 51.689 50.699 50.601 50.696 51.249 52.559 52.941 52.659 51.224 51.029 50.874 50.916 51.431 52.886 52.551 51.221 50.869 50.874 50.871 50.989 50.976 51.004 51.014 51.066 51.159 52.226 53.774 51.949 52.334 51.911 51.661 51.394 51.329 51.406 51.764 51.616 52.406 52.806 53.624 53.129 53.439 52.506 53.234 53.606 53.149 51.979 53.071 54.214 55.569 56.984 57.166 55.729 54.236 52.849 52.134 51.651 51.544 51.649 51.641 51.549 51.721 52.216 52.166 55.281 58.994 60.224 60.499 59.611 56.444 51.906 51.958 51.936 51.946 51.816 51.928 52.073 52.948 53.181 52.506 52.838 52.423 52.156 55.358 55.383 52.528 52.096 52.118 52.053 51.941 51.921 51.931 52.068 51.903 51.818 51.878 51.773 51.716 51.698 52.031 51.793 52.673 51.638 51.781 51.506 51.408 51.041 51.626 51.941 53.441 52.723 52.793 54.276 54.218 51.428
43.61 43.402 45.308 45.154 46.36 45.874 45.666 45.885 46.285 46.694 46.939 46.641 46.538 46.735 47.152 46.746 47.248 46.968 47.679 47.949 46.887 46.956 47.141 47.291 47.412 47.504 47.576 47.651 47.716 47.747 48.631 47.872 47.853 47.915 47.995 48.058 48.147 48.215 48.31 48.402 48.456 48.502 48.589 48.66 48.737 48.786 48.878 48.926 49.011 49.083 49.143 49.202 49.291 49.327 49.43 49.481 49.541 49.61 49.682 49.737 49.767 49.799 49.889 49.914 49.948 49.997 50.052 50.056 50.069 50.09 50.121 50.168 50.222 50.235 50.24 50.264 50.292 50.307 50.308 50.317 50.358 50.355 50.36 50.371 50.399 50.41 50.385 50.377 50.384 50.381 50.373 50.396 50.394 50.384 50.383 50.343 50.348 50.314 50.252 50.222 50.204 50.198 50.198 50.186 50.143 50.122 50.101 50.105 50.11 50.074 50.047 50.02 49.934 49.911 50.919 49.749 49.849 49.859 49.869 50.089 49.926 49.912 49.913 49.917 49.915 49.952 50.002 50.028 50.06 50.066 50.063 50.046 50.118 50.18 50.158 50.157 50.143 50.309 52.305 53.495 53.487 53.696 53.664 53.603 53.556 53.568 51.451 50.156 49.931 49.898 50.639 52.476 52.483 52.384 52.4 52.686 52.624 53.275 54.186 56.764 57.038 57.05 57.05 56.583 56.056 57.046 56.863 56.674 56.784 55.837 56.592 57.059 54.221 50.165 50.572 50.865 50.912 50.923 51.834 57.01 57.112 57.135 57.183 57.137 56.494 51.618 50.898 50.972 51.006 51.204 51.451 50.919 55.066 62.823 61.966 62.301 62.816 62.852 63.461 64.902 63.432 62.848 62.749 56.821 54.036 54.032 54.031 54.101 54.441 54.538 54.677 54.538 54.441 54.426 53.966 54.006 53.946 53.936 53.979 52.654 51.056 51.089 51.119 51.079 51.049 51.319 54.594 57.264 57.204 57.626 56.601 55.864 58.096 58.099 58.119 53.984 51.154 51.354 53.634 54.851 56.886 54.879 51.741 51.731 51.736 51.726 51.714 51.776 51.771 51.794 51.746 51.724 51.704 53.386 54.871 54.866 56.076 58.754 59.154 59.166 59.211 59.216 54.691 51.481 51.431 51.389 51.241 51.251 51.329 51.314 51.331 52.024 52.391 53.041 52.334 53.744 56.459 56.509 55.929 54.856 53.071 52.584 52.851 51.921 52.434 52.981 52.101 51.844 52.186 52.279 52.096 52.229 52.109 52.171 53.371 52.661 51.389 51.709 52.349 51.691 51.094 51.026 51.174 51.259 51.226 51.824 51.131 54.144 57.109 56.184 51.554 50.686 52.149 51.406 51.861 50.794 51.861 52.196 51.764 51.386 51.379 50.774 50.676 50.686 50.969 50.776 50.801 50.841 50.846 50.901 50.936 53.389 52.211 51.054 51.011 50.949 52.561 53.561 51.379 51.044 51.049 51.094 51.234 52.156 51.334 51.271 51.264 51.316 52.114 51.429 51.311 51.309 51.364 51.411 51.406 52.521 54.671 53.199 51.844 51.524 51.511 51.894 53.524 54.651 53.426 52.866 52.874 53.221 53.379 52.296 52.009 51.839 51.741 51.716 51.731 51.659 51.689 51.576 51.754 52.536 52.711 54.466 58.881 59.454 60.146 59.476 55.774 52.196 52.061 52.006 51.861 51.863 51.838 51.803 52.351 51.806 51.803 51.821 51.833 51.851 55.048 56.518 52.708 52.068 52.173 52.008 51.936 51.908 51.873 51.848 51.793 51.808 51.741 51.658 51.598 51.521 51.466 51.436 51.411 51.421 51.431 51.338 51.318 51.636 51.481 51.373 51.258 51.063 50.941 51.091 51.431 51.513
45.573 43.46 44.851 45.244 45.439 45.529 45.581 45.886 46.63 47.046 47.246 46.785 46.607 46.648 47.294 47.076 47.215 47.286 47.587 47.787 47.185 47.029 47.146 47.296 47.432 47.535 47.612 47.701 47.771 47.804 47.889 47.87 47.924 48.017 48.092 48.167 48.23 48.308 48.393 48.487 48.522 48.564 48.665 48.732 48.814 48.868 48.95 49.005 49.088 49.157 49.218 49.279 49.34 49.383 49.482 49.552 49.592 49.674 49.758 49.8 49.824 49.85 49.953 49.964 49.995 50.04 50.096 50.109 50.138 50.151 50.174 50.2 50.26 50.272 50.286 50.321 50.328 50.35 50.38 50.404 50.425 50.404 50.394 50.4 50.424 50.448 50.446 50.43 50.423 50.429 50.446 50.451 50.455 50.428 50.427 50.434 50.416 50.391 50.34 50.299 50.274 50.272 50.274 50.234 50.226 50.193 50.177 50.171 50.179 50.134 50.091 50.051 49.995 50.036 50.988 49.872 49.919 49.933 49.938 49.965 49.958 49.962 49.958 49.969 49.983 49.994 50.035 50.088 50.109 50.127 50.098 50.102 50.175 50.216 50.202 50.211 50.208 50.342 52.303 53.516 53.552 53.613 53.698 53.607 53.572 53.498 51.358 50.215 49.964 49.905 49.897 49.874 49.915 49.932 49.958 50.116 50.021 50.027 51.59 56.457 57.027 57.024 57.062 53.207 50.947 51.45 51.089 51.492 51.649 51.26 50.961 51.832 51.131 50.189 50.596 50.776 50.796 50.851 52.034 57.034 57.116 57.134 57.16 57.126 56.444 51.401 50.888 50.851 50.849 50.843 50.9 50.879 53.582 62.23 61.284 61.077 61.842 62.835 62.611 62.028 62.833 62.825 62.645 56.836 54.544 55.501 55.031 54.697 55.797 55.908 55.933 55.931 55.914 55.386 53.974 53.989 53.986 53.919 53.964 52.766 51.491 51.576 51.656 51.771 51.399 51.429 52.209 52.061 51.429 51.096 51.481 52.579 54.389 53.989 54.724 53.094 51.174 51.381 52.961 54.876 54.946 53.371 51.729 51.741 51.756 51.776 51.741 51.784 51.819 51.776 51.774 51.744 51.744 51.961 52.031 52.019 53.959 55.941 56.061 56.076 55.976 56.169 53.666 51.434 51.319 51.314 51.234 51.181 51.329 51.346 51.514 52.614 52.494 52.479 52.929 52.449 54.809 56.629 55.901 53.861 53.206 52.759 52.244 52.289 52.161 51.784 51.484 51.521 51.481 51.794 52.209 51.424 52.111 52.926 51.824 51.276 51.169 51.204 51.264 51.926 51.601 51.064 51.021 51.079 50.964 50.911 50.849 52.504 57.044 56.196 51.374 50.729 50.771 50.906 50.879 50.809 50.929 51.141 51.691 53.321 51.514 50.701 50.716 50.756 50.789 50.836 50.839 50.874 50.991 50.969 51.231 51.431 51.309 51.086 51.151 51.009 53.056 56.586 52.044 51.074 51.069 51.089 51.289 51.744 51.214 51.241 51.254 51.346 52.354 51.394 51.359 51.344 51.314 51.394 51.426 52.516 54.691 52.866 51.489 51.496 51.534 51.571 51.791 54.594 53.329 51.829 51.851 51.884 51.891 51.889 51.901 51.924 51.939 51.924 52.534 51.721 51.684 51.611 51.701 51.891 52.026 54.391 57.674 59.081 59.874 59.311 55.641 53.704 53.933 53.868 52.208 52.643 52.576 52.338 52.446 52.083 51.813 51.916 51.831 53.501 55.476 55.846 53.361 53.686 53.306 52.103 51.906 51.846 51.806 51.821 52.083 52.021 51.926 51.953 51.993 51.703 51.691 51.771 51.783 51.661 51.853 51.441 51.451 51.258 51.133 50.991 50.926 50.918 50.861 50.776 50.771 50.763
48.63 45.165 43.49 45.908 45.413 45.524 45.453 46.16 47.142 47.493 47.259 46.825 46.698 46.853 48.107 48.401 48.434 48.668 47.722 47.097 47.11 47.147 47.257 47.358 47.482 47.584 47.666 47.742 47.829 47.879 47.917 47.952 48.008 48.125 48.182 48.258 48.302 48.389 48.468 48.555 48.589 48.663 48.727 48.815 48.869 48.932 49.037 49.057 49.153 49.224 49.282 49.347 49.413 49.445 49.56 49.625 49.661 49.719 49.813 49.849 49.872 49.912 50.006 50.035 50.077 50.101 50.14 50.161 50.186 50.189 50.22 50.266 50.3 50.336 50.344 50.364 50.377 50.432 50.463 50.468 50.471 50.466 50.456 50.455 50.493 50.525 50.533 50.517 50.515 50.522 50.534 50.535 50.519 50.48 50.476 50.488 50.501 50.466 50.438 50.391 50.356 50.347 50.351 50.318 50.28 50.249 50.215 50.225 50.249 50.195 50.143 50.116 50.04 50.379 51.118 49.785 49.952 49.993 50.008 50.046 50.025 50.029 50.01 50.029 50.025 50.022 50.05 50.1 50.119 50.166 50.144 50.141 50.199 50.246 50.247 50.248 50.255 50.377 52.203 53.497 53.557 53.664 53.625 53.567 53.543 53.509 51.447 50.181 49.987 49.908 49.892 49.898 49.882 49.906 49.922 49.94 49.972 50.022 51.415 56.431 57.011 57.004 57.036 53.224 50.249 50.194 50.206 50.254 50.304 50.246 50.229 50.121 50.136 50.231 50.544 50.694 50.791 50.876 52.136 57.086 57.114 57.156 55.906 56.704 56.393 51.488 50.915 50.906 50.912 50.904 50.906 50.885 50.915 53.124 53.98 54.552 56.334 56.483 57.438 57.109 57.828 57.494 57.838 55.675 54.638 56.341 55.561 54.67 55.818 55.898 55.931 55.941 55.939 55.394 53.936 53.981 54.754 55.924 56.079 55.514 54.654 54.776 54.954 55.381 55.146 55.274 54.989 51.734 51.164 51.094 51.094 51.831 53.741 53.709 53.744 51.941 51.196 51.449 53.781 54.149 53.169 52.261 51.824 52.726 53.244 51.786 51.744 51.791 51.834 51.866 51.774 51.766 51.761 51.739 51.701 51.731 53.471 54.836 54.879 54.876 54.931 54.941 53.096 51.844 52.826 51.616 51.286 51.256 51.479 51.456 51.579 52.779 52.284 52.011 52.644 53.004 53.399 57.151 57.721 55.144 54.481 53.486 51.721 51.749 51.734 51.516 51.451 51.439 51.444 52.159 51.714 51.434 51.366 51.321 51.309 51.184 51.096 51.056 51.081 53.476 53.889 51.056 50.959 51.244 50.964 50.966 50.886 50.854 53.321 53.176 51.184 50.774 50.819 50.884 51.066 51.614 51.491 51.191 52.099 51.764 50.741 50.739 50.754 50.794 50.846 50.864 50.886 50.851 50.884 50.921 51.149 51.241 52.349 51.184 51.136 51.001 51.394 53.176 51.616 51.141 51.121 51.124 51.369 51.814 51.194 51.216 51.219 51.324 51.601 51.376 51.391 51.401 51.324 51.436 51.506 52.426 54.879 51.519 51.581 51.459 51.524 51.519 52.514 53.449 52.996 51.801 51.804 51.824 51.849 51.859 51.856 51.869 51.874 52.004 52.859 51.721 51.689 51.614 51.696 52.046 52.026 51.956 53.594 56.506 57.089 56.809 54.884 53.256 53.361 53.356 52.356 52.953 53.613 54.536 54.611 53.991 52.991 53.098 52.648 54.898 56.821 56.876 54.451 54.278 53.798 52.191 51.856 51.776 51.768 51.791 53.048 53.796 53.326 53.086 53.946 52.531 52.211 51.618 51.498 51.471 51.148 51.208 51.691 53.906 54.643 53.178 53.631 53.866 52.581 51.571 50.806 50.788
43.892 43.604 43.682 45.967 46.398 45.759 45.834 46.543 47.452 47.763 47.264 46.943 46.808 46.881 47.175 47.576 48.312 48.575 47.962 47.317 47.202 47.259 47.345 47.429 47.52 47.637 47.73 47.815 47.887 47.911 47.967 48.016 48.109 48.218 48.281 48.336 48.385 48.48 48.566 48.627 48.685 48.744 48.818 48.907 48.952 49.007 49.092 49.139 49.23 49.301 49.346 49.431 49.484 49.52 49.618 49.66 49.72 49.786 49.867 49.903 49.926 49.952 50.042 50.057 50.124 50.147 50.181 50.2 50.231 50.246 50.28 50.305 50.332 50.37 50.394 50.423 50.45 50.463 50.495 50.522 50.531 50.515 50.51 50.535 50.553 50.586 50.568 50.571 50.579 50.607 50.599 50.594 50.59 50.563 50.534 50.533 50.545 50.552 50.509 50.455 50.444 50.423 50.412 50.383 50.342 50.313 50.295 50.301 50.307 50.242 50.207 50.169 50.1 50.479 51.09 49.855 50.026 50.06 50.072 50.116 50.093 50.059 50.059 50.06 50.063 50.05 50.065 50.134 50.167 50.17 50.163 50.172 50.224 50.283 50.289 50.282 50.284 50.385 52.123 53.522 53.581 53.683 53.69 53.641 53.541 53.524 51.469 50.251 49.979 49.956 49.909 49.934 49.946 49.939 49.926 49.934 50.001 50.001 51.421 56.414 57.036 57.016 57.026 53.559 50.501 50.336 50.456 50.469 50.416 50.486 50.711 50.514 50.396 50.391 50.444 50.579 50.691 50.806 51.341 52.379 53.941 53.954 53.771 53.176 53.791 51.1 50.935 50.933 50.965 50.944 50.94 50.932 50.962 50.954 50.937 52.29 54.055 54.083 54.125 54.144 54.194 54.211 54.272 54.297 54.753 56.353 55.557 54.686 55.847 55.904 55.934 55.921 55.919 55.316 53.934 53.981 55.216 57.129 57.114 57.109 57.119 57.129 57.134 57.111 57.099 57.109 57.109 54.271 53.079 51.139 51.126 51.484 53.766 53.661 53.601 51.904 51.186 51.289 52.801 53.711 53.984 54.554 54.416 55.449 55.476 51.799 51.904 52.646 51.931 51.761 51.829 51.904 51.759 51.744 51.766 52.351 52.596 52.794 52.174 52.399 53.106 53.171 52.404 52.784 54.241 53.536 51.496 52.016 51.539 51.576 51.614 52.776 51.821 51.816 51.729 52.609 55.101 57.231 57.921 55.366 54.144 53.264 51.664 51.594 51.731 51.681 51.594 51.824 51.536 51.681 51.941 51.804 51.501 51.346 51.334 51.326 51.164 51.126 51.161 51.281 52.566 51.029 51.039 51.691 50.999 51.009 50.856 50.936 51.169 50.931 50.969 50.809 51.064 51.591 51.401 51.266 51.196 51.466 53.366 51.439 50.891 50.774 51.699 51.219 51.129 50.921 50.904 50.891 50.924 50.979 51.171 51.234 52.426 51.131 51.089 50.999 51.106 51.229 51.136 51.171 51.174 51.194 51.449 51.684 51.231 51.224 51.246 51.501 52.301 51.436 51.424 51.419 51.374 51.514 51.564 52.609 54.786 51.594 51.601 51.544 51.569 51.831 54.291 53.481 52.324 51.804 51.794 51.814 51.809 51.821 51.846 51.831 51.844 52.024 52.479 51.754 51.734 51.626 51.734 52.314 52.524 52.314 54.091 53.854 52.374 52.096 52.006 52.206 52.843 52.528 53.173 51.891 51.903 52.058 51.946 52.203 52.278 52.466 52.126 52.993 54.771 55.313 52.758 52.036 52.551 54.183 52.011 51.741 51.733 51.916 53.956 54.156 53.706 53.326 54.003 53.236 52.096 51.618 51.473 51.423 51.351 51.878 53.813 55.738 56.801 56.308 57.018 57.453 56.303 55.293 51.678 50.688
43.337 43.049 43.914 46.581 46.359 45.97 46.105 46.725 47.44 47.88 47.553 47.029 46.91 46.949 47.019 47.084 47.098 47.141 47.185 47.199 47.282 47.359 47.422 47.488 47.596 47.716 47.803 47.884 47.941 47.998 48.031 48.124 48.218 48.27 48.352 48.422 48.476 48.553 48.634 48.687 48.735 48.816 48.911 48.971 49.033 49.083 49.164 49.194 49.304 49.35 49.422 49.502 49.54 49.587 49.698 49.727 49.766 49.845 49.941 49.957 49.989 50.015 50.09 50.111 50.161 50.186 50.236 50.251 50.287 50.279 50.327 50.354 50.385 50.413 50.43 50.497 50.516 50.506 50.518 50.58 50.589 50.584 50.57 50.592 50.616 50.636 50.628 50.624 50.646 50.661 50.651 50.648 50.637 50.628 50.589 50.584 50.593 50.573 50.555 50.519 50.496 50.484 50.476 50.431 50.406 50.376 50.337 50.341 50.356 50.285 50.239 50.198 50.136 50.611 51.318 49.93 50.09 50.129 50.134 50.188 50.128 50.103 50.121 50.114 50.115 50.116 50.141 50.201 50.237 50.241 50.231 50.236 50.291 50.331 50.361 50.349 50.349 50.391 52.036 53.494 53.554 53.619 53.589 53.604 53.559 53.506 51.591 50.204 49.981 49.954 49.954 49.971 50.106 50.889 50.974 50.901 50.821 50.486 51.799 56.424 57.014 56.996 57.044 54.676 51.531 50.414 50.586 50.754 50.464 50.474 50.556 50.479 50.416 50.391 50.481 50.591 50.691 50.821 50.944 50.974 50.934 51.666 52.654 52.711 52.386 51.863 51.978 52.088 52.313 51.957 51.759 51.918 52.211 51.573 50.97 51.899 54.039 54.142 54.118 54.144 54.298 54.437 54.34 54.36 54.774 56.366 55.494 54.712 55.883 55.914 55.924 55.919 55.891 55.296 53.926 54.001 55.271 57.141 57.139 57.129 57.116 57.159 57.141 57.131 57.146 57.134 57.064 54.819 54.259 52.231 51.674 51.849 51.231 51.209 51.249 51.171 51.221 51.311 52.921 53.461 53.829 52.736 52.794 52.561 52.419 51.964 52.011 52.261 52.289 52.276 52.869 52.829 52.934 52.899 52.879 55.234 55.626 54.124 54.811 54.939 55.406 53.044 52.506 52.364 53.084 53.226 51.786 52.736 51.479 51.526 51.659 52.661 52.929 52.384 51.879 54.719 57.399 57.644 58.081 57.374 53.779 51.734 51.644 51.634 51.629 51.556 51.774 52.346 51.931 51.604 51.799 51.604 52.144 51.939 52.019 52.889 51.944 51.549 52.509 51.636 51.134 51.061 51.119 52.434 51.024 51.014 50.896 50.871 51.399 51.306 51.384 50.909 52.609 52.646 51.546 50.964 50.879 51.496 53.366 51.329 50.811 50.801 50.986 50.931 52.171 51.486 50.901 50.914 50.976 50.969 51.464 51.449 52.721 51.364 51.871 51.144 51.541 52.294 51.194 51.211 51.251 51.261 51.529 51.374 51.296 51.286 51.279 51.574 52.076 51.439 51.469 51.406 51.426 51.526 51.579 52.236 52.889 51.649 51.601 51.591 51.596 51.989 55.381 55.486 52.421 51.789 51.794 51.829 51.816 51.836 51.844 51.829 51.854 52.404 52.894 51.811 51.764 51.686 51.901 52.186 52.059 52.539 54.249 54.219 54.001 53.464 53.224 53.069 53.771 52.733 53.578 51.886 51.886 51.878 51.991 52.423 52.353 51.986 51.803 51.706 51.791 52.461 51.861 52.791 51.983 52.181 51.843 51.711 51.751 52.448 54.016 54.163 53.908 53.151 52.993 52.416 52.186 51.691 51.563 51.456 51.208 51.851 53.618 55.816 57.011 56.856 57.823 58.008 57.886 57.723 53.851 50.993
