ncols 426
nrows 32
xllcorner    458098
yllcorner    86338
cellsize     2
NODATA_value -9999
40.854 40.799 40.744 40.716 40.714 40.731 40.661 40.574 40.544 40.486 40.356 40.166 40.011 40.506 40.186 39.471 39.164 38.929 38.614 38.349 38.119 37.754 38.144 38.426 37.329 37.361 37.391 37.374 37.444 37.546 37.669 37.811 37.969 38.114 38.234 38.354 38.524 38.671 38.846 39.009 39.161 39.376 39.591 39.856 40.104 40.381 40.674 40.976 41.294 41.649 41.981 42.321 42.674 43.009 43.411 43.781 44.161 44.526 44.881 45.286 45.634 46.001 46.364 46.749 47.111 47.471 47.839 48.204 48.584 48.974 49.334 49.729 50.079 50.469 50.921 51.351 51.754 52.151 52.539 52.919 53.286 53.624 53.941 54.216 54.466 54.699 54.919 55.126 55.311 55.531 55.721 55.901 56.124 56.321 56.509 56.659 56.861 57.079 57.211 57.406 57.546 57.682 57.809 57.947 58.022 58.214 58.227 58.169 58.172 58.117 58.094 58.007 58.167 61.179 65.039 65.607 65.869 61.169 60.932 60.147 60.517 56.939 56.794 56.752 56.732 56.727 56.732 56.729 56.692 56.684 56.707 56.654 56.639 56.564 56.504 56.442 56.359 56.309 56.239 56.174 56.072 56.002 55.932 55.847 55.742 55.627 55.562 55.469 55.387 55.327 55.237 55.137 55.044 54.964 54.894 54.799 54.717 54.637 54.569 54.459 54.362 54.294 54.204 54.134 54.042 53.974 53.909 53.839 53.759 53.682 53.599 53.529 53.487 53.404 53.339 53.224 53.164 53.097 53.039 52.942 52.872 52.817 52.742 52.687 52.587 52.502 52.417 52.332 52.239 52.139 52.039 51.964 51.877 51.767 51.697 51.602 51.489 51.417 51.287 51.189 51.064 50.99 50.86 50.712 50.6 50.447 50.307 50.202 50.002 49.702 49.497 49.217 49.005 48.802 48.522 48.252 48.065 47.982 47.845 47.63 47.5 47.425 47.362 47.292 47.452 47.955 48.732 48.54 48.347 48.06 47.94 47.977 47.982 47.975 48.367 48.075 48.012 48.127 48.35 48.56 48.765 48.997 49.262 49.497 49.74 49.97 50.21 50.437 50.675 50.912 51.16 51.392 51.61 51.81 52.02 52.257 52.415 52.507 52.68 56.997 58.337 59.765 57.505 54.52 54.91 55.392 55.6 55.807 56.175 56.152 55.95 55.872 55.77 55.895 56.247 56.702 56.77 57.102 57.427 57.66 57.672 57.637 57.827 58.082 58.02 58.237 57.77 57.23 57.1 57.205 57.187 57.842 57.812 58.092 58.367 58.732 58.902 59.392 58.557 58.635 59.142 58.835 59.205 59.917 58.84 58.637 58.615 58.56 58.532 58.53 58.617 58.75 58.725 58.6 58.54 58.502 58.57 58.687 58.792 58.26 57.98 57.625 57.272 57.112 56.837 56.655 56.48 56.337 56.11 55.99 56.387 55.925 55.952 55.912 55.652 56.622 56.302 55.28 54.84 54.225 54.14 54.07 53.952 53.84 53.672 53.512 53.347 53.185 53 52.797 52.627 52.457 52.265 52.055 51.857 51.677 51.485 51.29 51.09 50.907 50.712 50.515 50.352 50.177 49.99 49.817 49.695 49.537 49.39 49.237 49.12 49.015 48.875 48.775 48.617 48.525 48.402 48.287 48.197 48.125 48.032 47.972 47.902 47.865 47.792 47.732 47.662 47.602 47.53 47.422 47.382 47.275 47.205 47.127 47.092 47.015 46.937 46.885 46.805 46.762 46.705 46.67 46.625 46.568 46.53 46.483 46.443 46.405 46.375 46.33 46.308 46.275 46.258 46.21 46.168 46.128 46.083 46.018 45.978 45.908 45.865 45.805 45.763 45.7 45.615 45.573
40.663 40.656 40.651 40.591 40.564 40.564 40.474 40.394 40.321 40.264 40.084 39.911 39.736 39.606 39.344 39.064 38.821 38.606 38.224 37.956 38.004 37.444 39.021 37.704 37.204 37.271 37.229 37.234 37.304 37.391 37.546 37.709 37.859 37.984 38.119 38.259 38.404 38.546 38.726 38.939 39.104 39.289 39.539 39.781 40.064 40.326 40.634 40.949 41.261 41.609 41.949 42.291 42.671 43.009 43.376 43.764 44.114 44.509 44.861 45.231 45.609 45.979 46.336 46.721 47.054 47.416 47.799 48.159 48.526 48.894 49.286 49.661 50.004 50.321 50.749 51.191 51.584 51.981 52.354 52.754 53.104 53.436 53.736 54.041 54.291 54.514 54.746 54.964 55.126 55.316 55.511 55.696 55.924 56.046 56.254 56.506 56.689 56.841 57.054 57.241 57.316 57.482 57.607 57.677 57.782 57.822 57.832 57.679 58.787 59.184 58.237 57.864 58.069 57.872 64.114 65.724 61.184 61.559 56.959 57.742 58.209 56.569 56.584 56.572 56.582 56.589 56.594 56.632 56.584 56.552 56.494 56.457 56.387 56.329 56.267 56.189 56.114 56.014 55.957 55.889 55.824 55.732 55.652 55.569 55.492 55.379 55.287 55.187 55.124 55.042 54.967 54.869 54.764 54.692 54.597 54.527 54.454 54.352 54.262 54.164 54.059 53.987 53.899 53.837 53.764 53.697 53.642 53.559 53.479 53.387 53.319 53.264 53.217 53.149 53.052 52.967 52.879 52.807 52.762 52.677 52.597 52.514 52.449 52.379 52.314 52.222 52.134 52.034 51.964 51.874 51.784 51.677 51.609 51.502 51.404 51.302 51.232 51.134 51.027 50.929 50.807 50.702 50.597 50.462 50.332 50.179 50.059 49.949 49.699 49.439 49.287 49.042 48.824 48.589 48.334 48.132 47.967 47.857 47.747 47.594 47.492 47.362 47.252 47.097 47.004 46.952 46.889 47.329 47.762 48.922 48.639 48.042 47.767 47.722 48.079 47.722 47.862 47.969 48.194 48.379 48.579 48.844 49.027 49.279 49.552 49.787 50.057 50.264 50.497 50.727 50.962 51.175 51.377 51.55 51.73 51.992 52.137 52.25 52.642 58.572 58.225 59.385 56.74 54.205 54.597 55.36 55.215 55.355 55.505 55.537 55.642 55.675 55.572 55.512 55.537 55.742 56.002 56.39 56.907 57.017 57.032 56.972 57.19 57.607 57.76 57.685 56.88 56.547 56.577 56.76 57.127 57.74 57.407 57.637 58.61 58.525 58.59 59.377 58.555 58.152 58.54 58.295 59.285 59.657 60.355 58.562 58.052 58.062 58.915 58.425 58.092 58.087 58.117 58.04 58.09 58.09 58.022 58 57.797 57.672 57.387 57.07 56.68 56.475 56.285 56.16 56.12 55.935 55.745 55.677 55.82 55.767 55.7 55.482 54.922 56.495 55.422 54.382 54.195 54.055 54.005 53.9 53.785 53.652 53.497 53.37 53.192 53.025 52.812 52.63 52.46 52.287 52.097 51.91 51.725 51.547 51.365 51.185 50.985 50.802 50.612 50.425 50.255 50.067 49.927 49.767 49.615 49.467 49.32 49.205 49.08 48.955 48.812 48.712 48.58 48.472 48.357 48.242 48.145 48.067 47.98 47.927 47.867 47.805 47.75 47.677 47.605 47.532 47.447 47.357 47.257 47.192 47.115 47.035 46.965 46.885 46.817 46.752 46.675 46.632 46.565 46.538 46.478 46.418 46.36 46.34 46.278 46.275 46.215 46.18 46.143 46.11 46.09 46.053 46.013 45.965 45.89 45.848 45.805 45.75 45.668 45.625 45.588 45.515 45.453 45.388
40.541 40.509 40.479 40.444 40.411 40.366 40.334 40.226 40.094 39.954 39.824 39.634 39.424 39.179 39.579 38.649 38.494 38.286 37.861 37.584 37.439 37.181 37.124 37.049 37.034 37.056 37.039 37.051 37.119 37.254 37.401 37.576 37.714 37.851 37.974 38.119 38.289 38.466 38.619 38.831 39.049 39.244 39.481 39.749 40.006 40.289 40.579 40.904 41.259 41.556 41.916 42.269 42.636 43.004 43.361 43.779 44.099 44.484 44.869 45.199 45.579 45.961 46.329 46.679 47.019 47.389 47.764 48.106 48.459 48.816 49.171 49.569 49.904 50.244 50.604 50.994 51.424 51.811 52.211 52.569 52.929 53.261 53.579 53.881 54.114 54.351 54.564 54.776 54.959 55.136 55.341 55.574 55.761 55.891 55.936 56.336 56.479 56.646 56.911 57.056 57.081 57.272 57.364 57.372 57.424 57.489 57.394 57.547 58.419 60.112 57.484 56.444 56.449 57.372 60.622 58.417 56.469 57.749 56.422 56.404 56.432 56.432 56.437 56.432 56.437 56.437 56.449 56.429 56.392 56.317 56.272 56.212 56.154 56.092 55.997 55.922 55.852 55.757 55.664 55.592 55.517 55.464 55.387 55.297 55.194 55.119 55.014 54.944 54.859 54.762 54.687 54.587 54.497 54.389 54.312 54.199 54.152 54.064 53.964 53.867 53.757 53.684 53.614 53.527 53.454 53.377 53.327 53.284 53.207 53.144 53.064 53.009 52.967 52.902 52.799 52.702 52.597 52.522 52.489 52.407 52.337 52.249 52.164 52.082 52.004 51.932 51.839 51.764 51.674 51.587 51.507 51.402 51.317 51.219 51.132 51.024 50.959 50.854 50.787 50.652 50.534 50.447 50.319 50.184 50.067 49.932 49.837 49.637 49.399 49.232 49.042 48.834 48.672 48.447 48.187 47.972 47.829 47.704 47.584 47.472 47.334 47.234 47.129 47.007 46.889 46.804 46.734 46.622 46.462 47.207 47.924 48.482 48.789 48.407 47.874 47.552 47.629 47.802 48.069 48.292 48.434 48.682 48.842 49.082 49.307 49.604 49.847 50.074 50.329 50.557 50.759 51.002 51.202 51.35 51.507 51.677 51.847 51.98 52.995 55.095 57.497 57.895 54.187 53.887 54.325 54.527 54.77 55.032 55.077 55.157 55.51 55.955 55.707 55.575 55.342 55.38 55.602 55.985 56.197 56.362 56.467 56.377 56.417 56.5 56.837 56.59 56.042 56.14 56.547 56.707 56.922 56.907 56.935 57.22 57.965 57.827 57.725 57.492 57.832 57.44 57.61 57.535 58.272 58.507 58.74 57.525 57.53 57.585 57.572 57.57 57.56 57.537 57.505 57.467 57.567 57.487 57.452 58.345 58.565 56.872 56.612 56.372 56.192 55.967 55.86 55.742 55.702 55.72 55.48 55.44 55.415 55.392 55.395 54.955 54.415 54.387 54.247 54 53.945 53.9 53.837 53.73 53.6 53.462 53.345 53.165 52.99 52.835 52.682 52.472 52.282 52.15 51.96 51.787 51.605 51.422 51.24 51.06 50.895 50.692 50.517 50.342 50.15 50.002 49.847 49.71 49.552 49.4 49.262 49.137 48.99 48.885 48.765 48.652 48.507 48.437 48.307 48.195 48.097 48.007 47.912 47.87 47.797 47.742 47.672 47.597 47.525 47.44 47.355 47.285 47.2 47.075 47.007 46.912 46.825 46.75 46.68 46.617 46.545 46.482 46.43 46.368 46.32 46.255 46.195 46.148 46.115 46.1 46.073 46.025 45.988 45.948 45.918 45.888 45.85 45.783 45.72 45.668 45.635 45.605 45.54 45.465 45.408 45.36 45.29 45.228
40.376 40.356 40.326 40.259 40.206 40.146 40.069 39.951 39.849 39.721 39.594 39.356 39.129 38.769 38.414 38.341 38.196 37.876 37.499 37.214 37.161 36.989 36.901 36.914 36.939 36.886 36.851 36.846 36.961 37.116 37.251 37.406 37.574 37.711 37.851 37.999 38.161 38.374 38.541 38.714 38.944 39.184 39.429 39.706 39.969 40.251 40.561 40.871 41.224 41.561 41.916 42.264 42.616 42.994 43.394 43.744 44.089 44.469 44.814 45.211 45.541 45.941 46.306 46.661 46.996 47.351 47.714 48.064 48.409 48.731 49.111 49.471 49.826 50.169 50.546 50.844 51.271 51.699 52.039 52.396 52.719 53.064 53.384 53.684 53.929 54.166 54.379 54.599 54.791 54.974 55.186 55.436 55.604 55.781 55.936 56.069 56.281 56.469 56.684 56.836 56.889 56.949 57.009 57.034 57.059 56.917 56.499 56.282 56.187 57.704 56.292 56.327 56.357 56.289 56.274 56.252 56.257 56.262 56.269 56.314 56.307 56.337 56.307 56.312 56.299 56.279 56.277 56.224 56.142 56.087 56.042 55.977 55.907 55.809 55.762 55.677 55.604 55.502 55.414 55.329 55.229 55.127 55.054 55.009 54.924 54.817 54.739 54.639 54.569 54.492 54.404 54.287 54.204 54.104 54.004 53.949 53.852 53.759 53.672 53.567 53.482 53.394 53.334 53.234 53.142 53.082 53.032 52.992 52.922 52.847 52.784 52.752 52.652 52.602 52.539 52.444 52.339 52.234 52.207 52.124 52.047 51.967 51.869 51.792 51.717 51.649 51.552 51.474 51.384 51.284 51.234 51.137 51.049 50.959 50.869 50.769 50.669 50.577 50.489 50.399 50.257 50.149 50.052 49.937 49.797 49.689 49.582 49.319 49.144 48.987 48.799 48.647 48.487 48.297 48.054 47.834 47.709 47.624 47.457 47.284 47.139 47.014 46.899 46.822 46.709 46.647 46.604 46.512 46.372 46.222 46.117 46.382 46.762 48.769 48.449 47.424 47.724 48.137 47.927 48.192 48.384 48.592 48.792 48.982 49.129 49.444 49.677 49.907 50.104 50.339 50.544 50.77 51.01 51.167 51.337 51.462 51.592 51.735 51.85 52.57 53.737 54.052 53.282 53.505 53.877 54 54.317 54.55 54.677 55.975 55.287 55.84 55.765 55.417 55.205 55.052 55.485 56.05 56.2 55.835 55.68 55.725 55.95 55.935 56.005 55.68 55.86 56.16 56.31 56.39 56.607 56.53 56.597 56.757 57.005 57.007 57.107 56.855 57.517 56.982 56.89 57.07 56.965 56.982 56.977 56.957 57.005 57.055 57.132 57.035 57.025 57.062 57.035 57.307 57.435 57.04 56.942 57.742 56.925 56.237 56.05 55.857 55.68 55.532 55.472 55.395 55.422 55.482 55.222 55.16 55.2 55.207 55.03 54.44 54.705 54.615 54.052 53.872 53.827 53.777 53.675 53.552 53.415 53.277 53.127 52.987 52.825 52.662 52.507 52.315 52.15 51.975 51.82 51.632 51.457 51.295 51.127 50.955 50.767 50.58 50.405 50.235 50.072 49.917 49.757 49.612 49.472 49.347 49.21 49.072 48.965 48.825 48.697 48.592 48.47 48.347 48.247 48.152 48.042 47.947 47.87 47.795 47.745 47.702 47.612 47.515 47.44 47.37 47.25 47.177 47.077 46.975 46.86 46.807 46.72 46.642 46.582 46.485 46.41 46.342 46.277 46.223 46.168 46.103 46.053 46.01 45.96 45.923 45.91 45.843 45.808 45.783 45.743 45.698 45.645 45.608 45.555 45.503 45.45 45.408 45.358 45.308 45.238 45.165 45.108 45.028
40.201 40.156 40.121 40.109 40.081 39.969 39.839 39.729 39.599 39.441 39.264 39.041 38.794 38.531 38.284 38.079 37.771 37.454 37.201 36.996 36.871 36.714 36.684 36.734 36.716 36.701 36.691 36.701 36.804 36.959 37.096 37.234 37.401 37.599 37.741 37.891 38.046 38.229 38.426 38.626 38.864 39.129 39.406 39.659 39.949 40.224 40.546 40.881 41.209 41.579 41.944 42.279 42.619 42.991 43.376 43.744 44.099 44.461 44.824 45.174 45.559 45.906 46.281 46.641 46.951 47.319 47.679 47.991 48.354 48.686 49.036 49.376 49.734 50.094 50.454 50.799 51.114 51.549 51.916 52.216 52.561 52.891 53.211 53.524 53.746 53.969 54.206 54.416 54.661 54.811 55.034 55.276 55.394 55.554 55.746 55.924 56.146 56.319 56.411 56.584 56.659 56.454 56.372 57.747 57.609 58.047 56.199 56.149 56.067 56.084 56.069 56.079 56.092 56.084 56.127 56.119 56.159 56.162 56.204 56.212 56.229 56.217 56.202 56.164 56.137 56.097 56.034 55.992 55.909 55.832 55.789 55.712 55.662 55.557 55.492 55.419 55.322 55.242 55.174 55.054 54.979 54.869 54.734 54.649 54.642 54.567 54.464 54.369 54.277 54.197 54.094 53.999 53.902 53.809 53.727 53.654 53.557 53.452 53.367 53.264 53.177 53.089 53.014 52.929 52.849 52.817 52.744 52.707 52.629 52.549 52.492 52.439 52.367 52.309 52.229 52.159 52.082 51.974 51.897 51.814 51.732 51.672 51.607 51.509 51.429 51.337 51.254 51.179 51.132 51.034 50.922 50.829 50.779 50.692 50.602 50.502 50.424 50.319 50.214 50.124 50.009 49.894 49.794 49.672 49.532 49.442 49.294 49.012 48.897 48.749 48.617 48.422 48.287 48.079 47.859 47.699 47.557 47.429 47.329 47.119 46.949 46.839 46.729 46.622 46.519 46.434 46.394 46.389 46.279 46.139 45.989 45.984 46.584 48.684 47.439 47.192 48.357 49.237 49.297 48.937 49.084 49.322 48.834 48.892 49.059 49.269 49.452 49.709 49.889 50.102 50.309 50.555 50.78 50.955 51.11 51.22 51.345 51.55 51.67 51.805 52.397 52.782 52.97 53.107 53.432 53.567 53.882 53.98 54.967 56.032 54.782 54.835 54.997 54.945 54.76 54.545 54.66 54.822 55.845 55.155 55.11 55.062 55.06 55.202 55.227 55.757 55.897 55.962 56.072 56.045 56.19 56.16 56.182 56.815 56.425 56.377 57.362 56.46 56.33 57.01 56.637 56.462 56.445 56.407 56.412 56.502 56.277 56.317 56.38 56.36 56.375 56.375 56.345 56.442 56.872 56.335 56.27 56.042 55.905 55.692 55.585 55.502 55.295 55.215 55.162 55.132 55.012 54.962 54.96 55.017 55.077 55.032 55.585 54.46 54.432 53.98 53.817 53.777 53.7 53.637 53.507 53.375 53.257 53.097 52.947 52.822 52.662 52.505 52.332 52.152 51.985 51.84 51.657 51.495 51.327 51.185 51.005 50.832 50.655 50.485 50.33 50.162 50 49.85 49.672 49.537 49.407 49.285 49.147 49.005 48.882 48.765 48.64 48.52 48.402 48.275 48.182 48.09 47.997 47.895 47.815 47.735 47.68 47.617 47.535 47.452 47.367 47.262 47.152 47.075 46.99 46.902 46.78 46.705 46.625 46.522 46.435 46.352 46.287 46.207 46.142 46.053 46.03 45.958 45.91 45.863 45.838 45.785 45.748 45.708 45.663 45.623 45.573 45.543 45.475 45.44 45.398 45.323 45.275 45.25 45.183 45.148 45.07 44.998 44.93 44.89
40.026 39.976 39.961 39.894 39.856 39.741 39.616 39.444 39.314 39.131 38.931 38.691 38.416 38.184 37.946 37.669 37.431 37.151 36.861 36.726 36.621 36.546 36.576 36.621 36.579 36.501 36.436 36.521 36.626 36.809 36.939 37.094 37.229 37.411 37.589 37.766 37.899 38.101 38.324 38.556 38.774 39.034 39.356 39.641 39.926 40.221 40.551 40.881 41.219 41.579 41.941 42.284 42.649 43.016 43.361 43.726 44.096 44.461 44.841 45.161 45.531 45.901 46.241 46.596 46.954 47.289 47.616 47.966 48.291 48.631 48.979 49.299 49.674 50.009 50.344 50.711 51.026 51.324 51.756 52.086 52.389 52.714 53.019 53.321 53.609 53.826 54.046 54.261 54.471 54.674 54.851 55.041 55.206 55.396 55.676 55.834 55.909 56.049 56.241 56.314 56.121 55.654 55.419 56.137 55.689 56.454 55.902 55.782 55.812 55.819 55.877 55.914 55.927 55.962 55.994 56.069 56.077 56.122 56.102 56.109 56.072 56.049 55.999 55.964 55.912 55.882 55.799 55.744 55.659 55.582 55.517 55.467 55.382 55.314 55.219 55.137 55.052 54.964 54.884 54.787 54.697 54.614 54.517 54.402 54.294 54.229 54.164 54.094 54.002 53.909 53.792 53.699 53.612 53.512 53.417 53.352 53.257 53.162 53.067 52.974 52.874 52.774 52.717 52.629 52.552 52.487 52.437 52.379 52.332 52.269 52.187 52.119 52.059 51.982 51.904 51.829 51.759 51.697 51.609 51.534 51.467 51.362 51.322 51.247 51.154 51.054 50.967 50.884 50.829 50.754 50.657 50.567 50.489 50.414 50.344 50.252 50.152 50.072 49.982 49.879 49.752 49.657 49.542 49.409 49.294 49.194 48.962 48.784 48.669 48.514 48.327 48.187 48.097 47.864 47.662 47.517 47.394 47.239 47.109 46.952 46.809 46.642 46.532 46.427 46.347 46.239 46.209 46.202 46.107 45.939 45.832 45.762 46.214 48.387 47.212 46.962 47.027 47.212 47.557 47.889 48.612 49.592 49.592 49.739 49.577 49.359 49.324 49.539 49.714 49.909 50.082 50.292 50.535 50.702 50.86 50.99 51.147 51.29 51.455 51.59 52.022 52.617 52.617 52.985 53.07 53.345 53.457 53.567 54.725 54.96 54.622 54.207 54.25 54.307 54.272 54.08 54.585 54.385 54.075 54.217 54.25 54.36 54.577 54.99 55.252 55.55 55.842 55.78 55.677 55.717 55.735 55.662 55.695 56.117 55.762 55.84 55.675 55.77 55.96 55.967 56.107 56.087 56.05 56.065 55.792 55.73 55.735 55.702 55.69 55.727 55.762 55.715 55.74 55.68 55.66 55.63 55.512 55.482 55.352 55.232 55.15 55.087 55.002 55.02 54.91 54.877 54.817 54.897 54.757 54.79 54.952 54.847 54.75 54.37 54.382 53.912 53.712 53.655 53.575 53.465 53.352 53.195 53.095 52.955 52.812 52.657 52.492 52.335 52.182 51.977 51.845 51.687 51.527 51.357 51.185 51.042 50.875 50.705 50.55 50.385 50.23 50.07 49.922 49.77 49.615 49.465 49.345 49.207 49.072 48.955 48.827 48.717 48.58 48.462 48.34 48.23 48.14 48.032 47.932 47.855 47.777 47.7 47.625 47.557 47.482 47.4 47.307 47.215 47.115 47.017 46.92 46.8 46.707 46.602 46.495 46.425 46.345 46.262 46.185 46.092 46.025 45.955 45.903 45.858 45.78 45.733 45.708 45.66 45.62 45.58 45.523 45.503 45.435 45.39 45.335 45.29 45.238 45.18 45.11 45.065 45.02 44.958 44.91 44.843 44.773 44.693
39.866 39.856 39.799 39.681 39.594 39.481 39.311 39.114 38.954 38.796 38.586 38.344 38.071 37.851 37.599 37.311 37.099 36.756 36.619 36.489 36.374 36.371 36.439 36.451 36.371 36.259 36.279 36.409 36.524 36.676 36.804 36.924 37.081 37.271 37.446 37.636 37.784 37.964 38.214 38.469 38.741 39.016 39.301 39.621 39.934 40.229 40.564 40.884 41.251 41.554 41.921 42.321 42.649 43.026 43.374 43.736 44.099 44.446 44.829 45.179 45.526 45.869 46.234 46.571 46.909 47.246 47.584 47.906 48.246 48.571 48.941 49.259 49.596 49.896 50.236 50.589 50.954 51.249 51.546 51.899 52.251 52.571 52.856 53.146 53.416 53.656 53.854 54.071 54.266 54.474 54.651 54.834 55.066 55.316 55.501 55.544 55.624 55.799 55.584 55.221 55.096 55.262 55.589 55.589 55.504 55.509 55.579 55.632 55.672 55.704 55.747 55.759 55.804 55.867 55.942 55.957 55.954 55.964 55.959 55.979 55.932 55.872 55.817 55.762 55.692 55.654 55.602 55.512 55.404 55.332 55.264 55.189 55.124 55.044 54.952 54.859 54.759 54.714 54.637 54.542 54.439 54.357 54.239 54.142 54.079 53.979 53.827 53.759 53.714 53.624 53.522 53.412 53.307 53.197 53.124 53.019 52.927 52.854 52.759 52.652 52.564 52.474 52.399 52.334 52.259 52.214 52.132 52.064 51.989 51.924 51.904 51.809 51.744 51.669 51.602 51.522 51.432 51.372 51.304 51.249 51.179 51.104 51.027 50.944 50.869 50.799 50.707 50.622 50.572 50.469 50.384 50.322 50.242 50.164 50.064 49.979 49.914 49.807 49.724 49.604 49.517 49.404 49.282 49.154 49.069 48.939 48.692 48.547 48.402 48.254 48.097 47.984 47.837 47.647 47.472 47.332 47.157 47.062 46.939 46.812 46.627 46.497 46.364 46.259 46.149 46.049 46.024 45.992 45.897 45.759 45.664 45.557 46.784 47.699 46.772 46.817 46.939 47.017 47.117 47.189 47.287 47.464 48.042 49.099 50.479 50.907 50.599 50.079 50.019 49.814 49.967 50.082 50.287 50.517 50.662 50.797 50.955 51.12 51.617 51.647 52.465 52.18 52.5 52.862 52.657 52.92 53.075 53.777 53.42 53.542 53.565 53.592 53.757 53.687 53.862 53.79 53.587 53.55 53.705 53.87 54.185 54.367 54.687 54.845 55.08 55.907 55.88 55.52 55.405 55.415 55.387 55.29 55.307 55.317 55.342 55.425 55.33 55.297 55.367 55.452 55.582 55.54 55.51 55.425 55.335 55.272 55.255 55.39 55.267 55.487 55.372 55.255 55.23 55.197 55.247 55.097 55.205 55.357 55.52 54.925 54.962 55.585 54.88 55.302 55.025 54.665 54.677 54.707 54.712 55.272 55.415 55.297 54.17 54.242 54.13 53.667 53.55 53.517 53.417 53.315 53.175 53.062 52.925 52.78 52.67 52.505 52.347 52.2 52.042 51.87 51.717 51.557 51.39 51.215 51.062 50.942 50.785 50.62 50.477 50.3 50.15 49.992 49.85 49.707 49.542 49.417 49.29 49.147 49.015 48.907 48.767 48.65 48.547 48.417 48.282 48.167 48.087 47.98 47.89 47.82 47.722 47.647 47.582 47.52 47.435 47.35 47.255 47.167 47.065 46.95 46.842 46.725 46.627 46.505 46.402 46.31 46.225 46.14 46.047 45.972 45.917 45.845 45.785 45.713 45.668 45.605 45.568 45.525 45.455 45.435 45.375 45.31 45.263 45.22 45.17 45.118 45.058 45.018 44.97 44.92 44.86 44.798 44.723 44.678 44.58 44.508
39.683 39.611 39.564 39.481 39.351 39.211 39.056 38.836 38.644 38.471 38.264 37.959 37.734 37.514 37.209 37.024 36.774 36.539 36.381 36.249 36.231 36.264 36.299 36.241 36.166 36.096 36.149 36.274 36.396 36.529 36.624 36.786 36.934 37.126 37.314 37.511 37.696 37.886 38.119 38.414 38.694 38.964 39.271 39.609 39.931 40.251 40.576 40.899 41.244 41.584 41.924 42.316 42.684 43.024 43.369 43.764 44.101 44.464 44.836 45.171 45.544 45.849 46.201 46.564 46.884 47.224 47.539 47.861 48.206 48.539 48.864 49.206 49.556 49.839 50.186 50.529 50.849 51.159 51.469 51.744 52.119 52.424 52.721 52.991 53.236 53.474 53.654 53.861 54.034 54.251 54.464 54.681 54.899 55.009 55.121 55.281 55.099 54.779 54.614 54.879 55.226 55.342 55.269 55.267 55.337 55.399 55.447 55.517 55.567 55.594 55.647 55.652 55.712 55.754 55.782 55.762 55.772 55.754 55.762 55.779 55.744 55.699 55.624 55.562 55.494 55.419 55.354 55.289 55.217 55.114 55.034 54.964 54.882 54.774 54.684 54.589 54.507 54.427 54.367 54.269 54.184 54.092 53.992 53.897 53.799 53.712 53.592 53.452 53.332 53.297 53.222 53.109 53.029 52.922 52.814 52.719 52.622 52.519 52.442 52.344 52.244 52.167 52.102 52.044 51.954 51.897 51.827 51.777 51.709 51.637 51.572 51.507 51.444 51.372 51.297 51.219 51.149 51.074 51.024 50.924 50.899 50.837 50.782 50.697 50.572 50.519 50.432 50.357 50.279 50.194 50.129 50.059 49.982 49.904 49.812 49.719 49.634 49.537 49.454 49.349 49.242 49.142 49.039 48.937 48.859 48.652 48.457 48.307 48.179 47.992 47.887 47.754 47.592 47.397 47.244 47.107 46.957 46.859 46.749 46.612 46.482 46.309 46.204 46.119 46.012 45.927 45.874 45.814 45.714 45.602 45.469 45.342 47.172 47.432 46.529 46.654 46.757 46.862 46.962 47.079 47.199 47.327 47.457 47.602 47.787 49.002 49.974 50.902 51.304 50.889 50.274 50.117 50.105 50.275 50.472 50.665 50.817 50.94 51.89 52.352 56.052 52.167 53.38 52.015 52.262 52.405 52.51 52.675 52.857 52.947 52.942 53.052 53.657 53.072 53.152 53.202 53.187 53.247 53.745 54.137 54.337 54.455 54.515 54.807 54.885 55.367 55.295 55.215 55.155 55.192 55.632 55.427 55.167 55.317 55.357 55.425 56.105 55.312 55.14 55.04 55.145 55.12 55.127 55.345 55.105 55.065 55.065 55.082 55.042 55.062 55.125 55.095 55.02 54.975 55.46 55.02 55.352 54.932 54.892 54.9 54.86 54.915 54.75 54.735 54.727 54.675 54.915 54.725 54.632 54.957 54.582 54.31 54.155 53.972 53.737 53.482 53.42 53.37 53.265 53.127 53.012 52.917 52.772 52.65 52.517 52.375 52.205 52.082 51.905 51.747 51.6 51.437 51.29 51.132 50.977 50.835 50.71 50.537 50.39 50.235 50.077 49.947 49.797 49.657 49.497 49.365 49.232 49.112 48.967 48.862 48.735 48.595 48.485 48.375 48.235 48.12 48.042 47.927 47.86 47.767 47.675 47.597 47.547 47.485 47.4 47.315 47.217 47.11 47.005 46.902 46.787 46.677 46.54 46.417 46.312 46.212 46.11 46.027 45.947 45.875 45.775 45.718 45.645 45.56 45.525 45.475 45.418 45.36 45.32 45.28 45.225 45.17 45.123 45.06 45.005 44.96 44.92 44.858 44.788 44.74 44.683 44.628 44.57 44.515 44.445 44.35
39.393 39.306 39.391 39.654 39.036 38.876 38.716 38.544 38.356 38.149 37.864 37.646 37.384 37.139 36.894 36.671 36.534 36.319 36.139 36.049 36.131 36.169 36.161 36.066 35.986 35.954 35.991 36.136 36.246 36.351 36.484 36.606 36.789 36.956 37.169 37.379 37.584 37.801 38.054 38.329 38.634 38.956 39.276 39.606 39.956 40.274 40.606 40.924 41.249 41.616 41.979 42.306 42.671 43.046 43.406 43.769 44.131 44.451 44.831 45.189 45.516 45.896 46.224 46.546 46.869 47.209 47.544 47.856 48.169 48.514 48.814 49.121 49.494 49.796 50.131 50.451 50.781 51.061 51.411 51.666 51.929 52.276 52.576 52.851 53.071 53.256 53.439 53.641 53.884 54.071 54.231 54.409 55.236 56.741 55.426 54.291 54.266 54.641 54.901 55.016 54.961 54.979 55.037 55.117 55.197 55.254 55.322 55.387 55.444 55.487 55.524 55.527 55.509 55.574 55.584 55.574 55.587 55.584 55.562 55.529 55.529 55.487 55.424 55.357 55.297 55.197 55.124 55.062 54.964 54.882 54.782 54.732 54.652 54.522 54.442 54.329 54.224 54.144 54.099 54.012 53.924 53.807 53.709 53.632 53.522 53.432 53.309 53.197 53.084 52.977 52.877 52.814 52.737 52.627 52.544 52.419 52.314 52.194 52.112 52.014 51.927 51.844 51.769 51.707 51.642 51.567 51.502 51.439 51.377 51.332 51.249 51.184 51.132 51.072 50.977 50.912 50.847 50.787 50.739 50.667 50.587 50.534 50.462 50.419 50.352 50.287 50.167 50.072 49.997 49.912 49.842 49.767 49.722 49.647 49.562 49.457 49.374 49.287 49.209 49.082 49.019 48.912 48.807 48.687 48.657 48.394 48.224 48.057 47.969 47.794 47.679 47.529 47.347 47.207 47.052 46.887 46.747 46.657 46.547 46.452 46.289 46.167 46.057 45.954 45.864 45.792 45.749 45.642 45.542 45.427 45.337 45.262 47.887 47.357 46.374 46.487 46.599 46.739 46.862 47.014 47.157 47.279 47.409 47.532 47.654 47.814 47.979 48.369 49.454 50.579 51.409 51.175 50.482 50.36 50.275 50.54 50.697 50.83 50.925 51.175 52.472 52.627 51.675 51.712 52.542 52.122 52.057 52.022 52.142 52.265 52.392 52.39 52.457 52.537 52.952 52.94 52.977 53.017 53.885 54.44 54.772 54.435 55.945 56.797 57.332 56.237 54.94 54.987 54.81 54.942 55.427 54.812 55.93 55.957 55.327 55.2 55.387 55.135 56.162 55.32 55 55.685 54.725 56.655 55.502 55.365 55.637 55.302 55.26 55.082 55.082 55.095 55.142 55.415 55.405 55.287 55.082 55 55.582 56.502 55.842 54.972 54.415 54.795 55.282 57.302 57.995 54.875 54.227 53.892 53.947 54.187 54.415 54.24 53.615 53.34 53.27 53.212 53.097 52.972 52.842 52.75 52.64 52.512 52.367 52.217 52.09 51.93 51.772 51.61 51.46 51.335 51.175 51.042 50.895 50.75 50.627 50.477 50.312 50.167 50.047 49.887 49.75 49.607 49.462 49.32 49.2 49.067 48.947 48.817 48.682 48.582 48.437 48.33 48.205 48.09 47.985 47.887 47.812 47.732 47.657 47.595 47.5 47.442 47.372 47.262 47.162 47.052 46.96 46.832 46.727 46.592 46.462 46.345 46.22 46.107 46.017 45.925 45.847 45.757 45.685 45.605 45.545 45.468 45.415 45.348 45.295 45.22 45.185 45.148 45.088 45.035 44.975 44.915 44.868 44.825 44.77 44.715 44.653 44.588 44.535 44.473 44.403 44.355 44.295 44.228
39.131 39.019 39.209 39.921 39.876 38.569 38.369 38.194 38.001 37.806 37.584 37.349 37.071 36.824 36.631 36.426 36.249 36.061 35.946 35.966 36.016 35.969 35.934 35.871 35.796 35.789 35.906 36.006 36.091 36.209 36.336 36.479 36.641 36.839 37.039 37.241 37.486 37.749 37.986 38.279 38.576 38.909 39.266 39.589 39.934 40.309 40.626 40.959 41.299 41.639 42.024 42.359 42.699 43.059 43.434 43.794 44.134 44.501 44.829 45.201 45.554 45.884 46.226 46.516 46.871 47.181 47.516 47.854 48.181 48.484 48.821 49.089 49.416 49.751 50.066 50.376 50.689 51.006 51.334 51.621 51.841 52.116 52.441 52.694 52.871 53.046 53.239 53.476 53.664 53.799 53.944 54.139 56.606 57.081 53.826 54.314 54.629 54.729 54.649 54.706 54.756 54.837 54.929 55.019 55.072 55.122 55.199 55.259 55.314 55.314 55.362 55.372 55.352 55.362 55.374 55.382 55.369 55.364 55.312 55.292 55.257 55.234 55.222 55.124 55.079 54.994 54.907 54.822 54.732 54.669 54.577 54.492 54.397 54.294 54.214 54.077 53.974 53.892 53.822 53.744 53.637 53.532 53.429 53.349 53.209 53.147 53.037 52.917 52.804 52.719 52.609 52.469 52.374 52.304 52.209 52.109 51.984 51.884 51.779 51.687 51.587 51.514 51.452 51.382 51.319 51.229 51.182 51.149 51.079 50.994 50.934 50.849 50.804 50.729 50.672 50.602 50.549 50.484 50.434 50.394 50.304 50.257 50.184 50.124 50.062 50.022 49.932 49.864 49.754 49.654 49.582 49.519 49.469 49.364 49.274 49.192 49.117 49.032 48.944 48.842 48.769 48.659 48.549 48.507 48.404 48.152 47.984 47.819 47.719 47.574 47.454 47.297 47.162 46.979 46.829 46.669 46.562 46.469 46.357 46.237 46.117 45.994 45.917 45.807 45.734 45.669 45.599 45.514 45.379 45.272 45.172 45.389 47.534 46.589 46.207 46.309 46.447 46.572 46.724 46.877 47.049 47.194 47.339 47.497 47.612 47.754 47.909 48.064 48.197 48.342 48.769 49.862 50.297 51.562 50.852 50.547 50.605 50.66 50.78 51.875 51.332 51.512 51.402 52.53 52.04 52.022 51.705 51.827 52.33 51.98 52.077 52.125 52.33 52.217 52.575 53.295 52.677 52.577 54.19 53.44 53.637 53.75 55.962 58.09 59.865 59.687 54.967 53.835 53.845 54.292 54.28 53.807 53.832 53.83 53.857 53.862 53.835 53.852 53.947 53.94 53.907 53.9 53.885 53.897 54.017 53.957 54.177 54.54 54.467 54.627 54.59 54.457 55.142 54.632 54.9 54.537 54.36 54.617 57.042 55.727 54.71 56.412 56.567 56.227 54.75 54.927 54.917 53.59 53.542 53.635 53.82 54.087 55.242 54.765 53.445 53.2 53.155 53.097 52.98 52.84 52.7 52.612 52.5 52.365 52.225 52.075 51.92 51.787 51.63 51.497 51.345 51.212 51.062 50.932 50.802 50.652 50.537 50.412 50.267 50.105 49.967 49.815 49.702 49.545 49.415 49.28 49.14 49.017 48.905 48.775 48.657 48.53 48.407 48.3 48.162 48.07 47.97 47.872 47.767 47.69 47.64 47.562 47.477 47.39 47.317 47.222 47.117 46.995 46.877 46.772 46.677 46.525 46.405 46.262 46.152 46.055 45.925 45.815 45.73 45.652 45.567 45.493 45.418 45.363 45.29 45.23 45.158 45.103 45.048 45.005 44.973 44.908 44.855 44.788 44.733 44.688 44.628 44.588 44.543 44.468 44.398 44.33 44.275 44.23 44.17 44.105
38.863 38.746 38.626 38.516 38.426 38.214 38.071 37.889 37.721 37.434 37.311 37.061 36.751 36.434 36.286 36.119 35.916 35.826 35.844 35.881 35.849 35.801 35.791 35.726 35.651 35.666 35.786 35.899 35.976 36.089 36.216 36.339 36.506 36.716 36.919 37.169 37.401 37.634 37.934 38.239 38.521 38.864 39.234 39.601 39.941 40.296 40.666 40.984 41.329 41.656 42.011 42.389 42.729 43.081 43.461 43.831 44.199 44.516 44.896 45.226 45.564 45.896 46.209 46.534 46.859 47.201 47.511 47.816 48.156 48.476 48.756 49.084 49.396 49.704 50.019 50.324 50.606 50.944 51.241 51.551 51.799 52.019 52.251 52.501 52.651 52.851 53.049 53.271 53.436 54.119 55.654 54.859 53.406 53.839 54.599 54.451 54.389 54.426 54.494 54.581 54.651 54.732 54.809 54.874 54.944 54.992 55.032 55.069 55.094 55.134 55.142 55.169 55.177 55.202 55.177 55.154 55.132 55.099 55.079 55.064 55.024 54.972 54.947 54.904 54.842 54.759 54.669 54.594 54.514 54.442 54.342 54.257 54.152 54.064 53.934 53.829 53.734 53.652 53.552 53.464 53.352 53.244 53.144 53.044 52.927 52.814 52.722 52.632 52.534 52.417 52.319 52.224 52.092 51.959 51.857 51.769 51.677 51.569 51.469 51.367 51.262 51.194 51.129 51.064 50.987 50.907 50.857 50.804 50.732 50.677 50.604 50.552 50.462 50.407 50.354 50.312 50.244 50.197 50.154 50.087 50.032 49.979 49.909 49.864 49.774 49.732 49.654 49.607 49.522 49.452 49.364 49.279 49.217 49.137 49.029 48.954 48.862 48.794 48.687 48.607 48.524 48.417 48.344 48.317 48.094 47.907 47.744 47.639 47.482 47.377 47.242 47.064 46.939 46.792 46.614 46.469 46.337 46.239 46.132 46.017 45.932 45.812 45.714 45.667 45.579 45.522 45.462 45.357 45.219 45.134 45.004 45.444 47.594 46.209 46.064 46.162 46.284 46.432 46.569 46.697 46.872 47.044 47.229 47.384 47.522 47.702 47.852 48.004 48.137 48.287 48.437 48.577 48.54 49.322 49.457 50.185 51.337 51.39 50.927 50.847 51.195 50.72 51.282 51.332 51.937 53.48 51.972 51.817 51.872 52.022 51.632 51.65 51.497 51.71 51.8 52.102 52.445 52.745 52.245 52.39 52.422 52.515 52.632 54.497 56.69 58.685 53.12 53.165 53.247 53.302 53.37 53.437 53.495 53.542 53.58 53.605 53.627 53.64 53.677 53.705 53.7 53.712 53.717 53.715 53.725 53.717 53.727 53.735 53.715 53.702 53.697 53.695 53.677 53.672 53.66 53.635 53.75 53.92 53.64 53.512 53.83 53.707 53.552 53.44 53.402 53.362 53.38 53.407 53.472 53.51 53.7 54.68 54.885 54.74 53.412 53.075 53.022 52.95 52.832 52.705 52.6 52.485 52.342 52.21 52.09 51.952 51.795 51.66 51.505 51.365 51.217 51.095 50.972 50.82 50.705 50.577 50.437 50.33 50.19 50.052 49.905 49.765 49.64 49.507 49.372 49.24 49.115 48.972 48.86 48.722 48.63 48.5 48.375 48.272 48.147 48.02 47.925 47.84 47.757 47.662 47.592 47.527 47.44 47.34 47.255 47.172 47.06 46.945 46.805 46.717 46.597 46.447 46.322 46.192 46.067 45.962 45.842 45.722 45.63 45.545 45.437 45.388 45.32 45.265 45.188 45.115 45.075 45.003 44.94 44.883 44.84 44.793 44.728 44.698 44.633 44.563 44.508 44.44 44.405 44.323 44.265 44.223 44.155 44.12 44.04 43.978
38.618 38.519 38.364 38.256 38.054 37.886 37.706 37.484 37.396 37.166 36.949 36.639 36.349 36.231 36.011 35.806 35.681 35.661 35.719 35.706 35.676 35.619 35.584 35.541 35.491 35.599 35.669 35.796 35.864 35.976 36.116 36.209 36.359 36.581 36.796 37.044 37.291 37.574 37.859 38.179 38.489 38.854 39.209 39.609 39.984 40.311 40.696 41.041 41.389 41.704 42.049 42.394 42.766 43.121 43.481 43.856 44.214 44.589 44.909 45.274 45.594 45.934 46.226 46.531 46.856 47.184 47.499 47.811 48.131 48.431 48.759 49.071 49.364 49.636 49.946 50.296 50.604 50.869 51.179 51.491 51.739 51.939 52.076 52.271 52.464 52.681 52.864 53.039 53.416 56.104 56.476 53.656 53.739 54.289 54.114 54.131 54.221 54.286 54.339 54.444 54.539 54.637 54.687 54.732 54.762 54.809 54.827 54.869 54.927 54.967 54.972 54.929 54.944 54.997 54.987 54.959 54.902 54.882 54.844 54.819 54.789 54.709 54.662 54.614 54.544 54.509 54.442 54.364 54.289 54.209 54.137 54.009 53.929 53.829 53.717 53.599 53.502 53.412 53.312 53.187 53.054 52.962 52.854 52.762 52.639 52.527 52.427 52.304 52.212 52.122 51.997 51.894 51.767 51.659 51.517 51.374 51.307 51.232 51.129 51.044 50.947 50.867 50.782 50.734 50.652 50.599 50.527 50.464 50.399 50.344 50.284 50.224 50.127 50.087 50.054 49.989 49.919 49.882 49.859 49.802 49.747 49.694 49.664 49.597 49.532 49.467 49.387 49.314 49.262 49.209 49.147 49.062 48.967 48.854 48.797 48.704 48.632 48.532 48.427 48.387 48.304 48.182 48.089 48.092 47.847 47.659 47.499 47.392 47.267 47.147 46.997 46.859 46.732 46.572 46.434 46.277 46.162 46.019 45.942 45.832 45.749 45.634 45.554 45.484 45.404 45.352 45.309 45.184 45.059 44.972 44.842 46.392 47.424 46.052 45.912 46.004 46.149 46.277 46.412 46.552 46.709 46.887 47.072 47.234 47.404 47.592 47.754 47.944 48.104 48.252 48.349 48.482 48.467 48.572 48.672 48.88 49.11 49.587 49.89 49.777 51.647 50.782 51.465 50.675 50.557 50.35 50.382 50.372 50.492 50.59 50.775 50.902 51.025 51.152 51.302 51.42 51.587 51.742 51.892 52.035 52.157 52.31 52.447 52.615 52.722 52.827 52.932 53.045 53.097 53.18 53.252 53.315 53.375 53.417 53.442 53.492 53.525 53.572 53.62 53.622 53.617 53.647 53.642 53.65 53.66 53.665 53.655 53.655 53.655 53.642 53.627 53.625 53.605 53.582 53.547 53.53 53.525 53.477 53.46 53.427 53.415 53.39 53.35 53.332 53.305 53.292 53.307 53.34 53.365 53.337 53.317 53.67 54.452 54.465 53.285 52.947 52.9 52.82 52.685 52.59 52.467 52.35 52.212 52.085 51.967 51.845 51.682 51.552 51.4 51.275 51.12 50.985 50.855 50.737 50.627 50.502 50.37 50.255 50.122 49.987 49.86 49.722 49.582 49.47 49.32 49.197 49.077 48.955 48.832 48.71 48.587 48.467 48.345 48.245 48.125 48.01 47.93 47.832 47.735 47.622 47.56 47.485 47.402 47.292 47.207 47.115 47.022 46.912 46.775 46.652 46.525 46.412 46.282 46.142 45.995 45.872 45.77 45.66 45.562 45.455 45.367 45.305 45.213 45.14 45.108 45.038 44.958 44.905 44.84 44.795 44.753 44.705 44.628 44.57 44.518 44.443 44.4 44.338 44.273 44.2 44.14 44.105 44.028 43.998 43.925 43.855
38.313 38.169 38.049 37.849 37.761 37.626 37.371 37.171 36.986 36.681 36.469 36.344 36.049 35.844 35.666 35.524 35.491 35.569 35.596 35.566 35.489 35.431 35.414 35.399 35.376 35.491 35.589 35.659 35.749 35.851 35.976 36.106 36.264 36.446 36.671 36.929 37.216 37.494 37.774 38.116 38.491 38.831 39.171 39.586 39.974 40.379 40.706 41.064 41.424 41.764 42.089 42.451 42.796 43.154 43.499 43.889 44.254 44.604 44.939 45.274 45.631 45.929 46.274 46.551 46.836 47.191 47.501 47.811 48.119 48.456 48.751 49.039 49.344 49.624 49.914 50.249 50.544 50.816 51.094 51.366 51.636 51.829 51.974 52.099 52.314 52.504 52.691 53.491 54.221 54.649 52.991 53.806 53.796 53.759 53.859 53.964 54.069 54.169 54.271 54.346 54.426 54.474 54.514 54.569 54.599 54.634 54.634 54.672 54.702 54.737 54.747 54.749 54.749 54.754 54.742 54.744 54.727 54.662 54.589 54.554 54.519 54.484 54.447 54.364 54.302 54.242 54.219 54.114 54.047 53.954 53.882 53.782 53.684 53.589 53.477 53.372 53.254 53.129 53.019 52.899 52.772 52.682 52.564 52.439 52.322 52.227 52.119 52.022 51.884 51.767 51.674 51.564 51.457 51.329 51.192 51.087 50.944 50.834 50.754 50.702 50.617 50.522 50.444 50.397 50.339 50.249 50.177 50.147 50.062 49.992 49.947 49.907 49.839 49.787 49.719 49.684 49.659 49.617 49.554 49.507 49.477 49.429 49.364 49.342 49.272 49.207 49.144 49.069 48.992 48.937 48.874 48.817 48.749 48.664 48.564 48.474 48.374 48.294 48.222 48.174 48.042 47.937 47.927 47.777 47.577 47.377 47.277 47.169 47.039 46.889 46.764 46.629 46.502 46.389 46.229 46.079 45.977 45.842 45.769 45.669 45.552 45.457 45.362 45.292 45.234 45.194 45.117 45.017 44.877 44.827 44.702 46.189 46.679 45.612 45.727 45.867 46.004 46.129 46.264 46.414 46.587 46.757 46.947 47.092 47.257 47.439 47.609 47.834 47.984 48.162 48.254 48.36 48.435 48.53 48.677 48.81 48.972 49.062 49.167 49.265 49.385 49.472 49.585 49.71 49.807 49.93 50.022 50.157 50.29 50.412 50.552 50.687 50.845 51 51.142 51.282 51.447 51.577 51.71 51.85 52.005 52.14 52.302 52.437 52.552 52.67 52.787 52.892 52.962 53.03 53.11 53.182 53.242 53.28 53.322 53.35 53.4 53.442 53.497 53.532 53.55 53.582 53.567 53.58 53.58 53.59 53.59 53.56 53.567 53.565 53.565 53.545 53.512 53.5 53.497 53.467 53.452 53.42 53.41 53.38 53.305 53.28 53.277 53.305 53.282 53.267 53.257 53.232 53.195 53.177 53.19 53.285 53.975 55.257 53.467 52.807 52.785 52.717 52.585 52.457 52.34 52.237 52.142 51.985 51.86 51.715 51.575 51.427 51.307 51.175 51.02 50.887 50.79 50.67 50.54 50.44 50.287 50.18 50.047 49.955 49.802 49.665 49.545 49.415 49.31 49.18 49.04 48.917 48.805 48.687 48.56 48.452 48.332 48.205 48.075 47.982 47.877 47.785 47.702 47.61 47.522 47.46 47.367 47.28 47.155 47.07 46.965 46.827 46.7 46.587 46.465 46.345 46.21 46.08 45.922 45.807 45.697 45.595 45.482 45.392 45.31 45.218 45.125 45.055 45.005 44.94 44.858 44.82 44.76 44.705 44.655 44.605 44.548 44.493 44.455 44.39 44.303 44.25 44.178 44.118 44.063 44.008 43.94 43.875 43.813 43.76
37.956 37.824 37.666 37.529 37.436 37.246 37.059 36.891 36.504 36.291 36.046 35.909 35.661 35.526 35.404 35.319 35.391 35.451 35.444 35.354 35.314 35.276 35.254 35.234 35.269 35.344 35.476 35.554 35.651 35.739 35.876 36.011 36.184 36.381 36.629 36.891 37.151 37.451 37.759 38.086 38.454 38.834 39.179 39.536 39.966 40.381 40.741 41.099 41.451 41.801 42.144 42.499 42.836 43.184 43.546 43.929 44.301 44.631 44.954 45.304 45.634 45.961 46.271 46.569 46.881 47.191 47.514 47.826 48.136 48.441 48.709 49.046 49.309 49.639 49.934 50.204 50.494 50.761 51.051 51.284 51.484 51.681 51.844 52.024 52.219 52.371 55.246 54.656 53.609 54.961 53.366 53.409 53.469 53.561 53.679 53.799 53.909 54.036 54.101 54.169 54.239 54.287 54.317 54.357 54.417 54.444 54.459 54.489 54.504 54.504 54.532 54.549 54.559 54.567 54.529 54.522 54.489 54.472 54.427 54.352 54.289 54.234 54.197 54.134 54.069 53.999 53.927 53.889 53.794 53.712 53.649 53.559 53.459 53.359 53.217 53.107 52.969 52.852 52.727 52.607 52.484 52.379 52.259 52.139 52.012 51.909 51.787 51.672 51.564 51.427 51.327 51.224 51.107 50.984 50.894 50.754 50.649 50.534 50.394 50.304 50.254 50.197 50.119 50.052 49.997 49.917 49.867 49.799 49.739 49.692 49.614 49.579 49.507 49.479 49.437 49.392 49.364 49.322 49.272 49.227 49.184 49.142 49.117 49.084 49.007 48.954 48.917 48.817 48.757 48.712 48.634 48.569 48.542 48.419 48.369 48.292 48.167 48.094 47.997 47.902 47.802 47.744 47.624 47.469 47.304 47.169 47.099 46.929 46.847 46.702 46.562 46.427 46.309 46.164 46.024 45.874 45.774 45.679 45.572 45.479 45.387 45.269 45.154 45.122 45.074 44.972 44.924 44.847 44.774 44.689 44.604 45.792 46.444 45.497 45.604 45.737 45.872 45.997 46.154 46.309 46.479 46.654 46.804 46.967 47.124 47.322 47.477 47.689 47.852 48.022 48.114 48.245 48.355 48.482 48.585 48.695 48.825 48.927 49.025 49.115 49.197 49.305 49.405 49.517 49.657 49.787 49.93 50.047 50.157 50.307 50.437 50.555 50.702 50.872 51.007 51.157 51.29 51.417 51.55 51.677 51.837 51.967 52.12 52.245 52.375 52.502 52.63 52.72 52.792 52.89 52.957 53.037 53.1 53.12 53.185 53.2 53.26 53.295 53.365 53.407 53.43 53.46 53.465 53.46 53.47 53.5 53.48 53.47 53.472 53.467 53.442 53.415 53.407 53.395 53.402 53.375 53.377 53.342 53.327 53.275 53.227 53.195 53.197 53.232 53.202 53.197 53.152 53.122 53.077 53.06 53.067 53.157 53.932 54.915 52.89 52.672 52.685 52.587 52.46 52.337 52.242 52.12 52.025 51.905 51.76 51.637 51.487 51.352 51.21 51.092 50.957 50.832 50.715 50.57 50.465 50.352 50.245 50.14 50.002 49.892 49.757 49.632 49.512 49.377 49.265 49.145 49.017 48.892 48.78 48.68 48.55 48.41 48.302 48.187 48.07 47.957 47.857 47.77 47.672 47.597 47.515 47.39 47.31 47.232 47.112 47.007 46.892 46.78 46.67 46.55 46.415 46.275 46.145 46.025 45.875 45.745 45.645 45.52 45.425 45.3 45.23 45.15 45.065 44.975 44.915 44.833 44.79 44.72 44.653 44.598 44.54 44.493 44.445 44.403 44.335 44.27 44.223 44.165 44.09 44.045 43.963 43.905 43.855 43.798 43.72 43.645
37.573 37.426 37.284 37.141 37.136 37.001 36.721 36.481 36.229 35.981 35.879 35.509 35.339 35.211 35.191 35.244 35.294 35.269 35.244 35.189 35.129 35.104 35.086 35.106 35.151 35.266 35.346 35.449 35.536 35.664 35.769 35.911 36.131 36.351 36.574 36.849 37.146 37.441 37.766 38.069 38.461 38.834 39.236 39.564 39.929 40.399 40.754 41.159 41.511 41.856 42.189 42.554 42.891 43.231 43.606 43.961 44.324 44.639 44.949 45.281 45.639 45.986 46.299 46.614 46.899 47.216 47.546 47.844 48.149 48.444 48.721 49.001 49.314 49.599 49.904 50.201 50.459 50.749 50.989 51.204 51.384 51.539 51.721 51.939 52.069 54.811 58.634 53.506 52.659 53.134 53.149 53.214 53.291 53.396 53.516 53.656 53.746 53.819 53.876 53.944 54.004 54.067 54.139 54.187 54.229 54.269 54.272 54.294 54.309 54.332 54.332 54.317 54.352 54.314 54.299 54.289 54.267 54.239 54.194 54.159 54.097 53.994 53.917 53.869 53.789 53.747 53.687 53.607 53.519 53.452 53.369 53.287 53.214 53.084 52.977 52.864 52.727 52.582 52.467 52.344 52.219 52.079 51.972 51.839 51.667 51.549 51.419 51.319 51.207 51.087 50.977 50.894 50.789 50.647 50.539 50.427 50.339 50.187 50.107 49.969 49.847 49.809 49.752 49.697 49.624 49.574 49.504 49.472 49.384 49.342 49.292 49.257 49.189 49.162 49.119 49.087 49.052 49.017 48.972 48.947 48.927 48.862 48.799 48.772 48.739 48.722 48.659 48.587 48.527 48.474 48.412 48.342 48.289 48.194 48.137 48.064 47.974 47.884 47.799 47.697 47.604 47.514 47.337 47.209 47.057 46.962 46.867 46.739 46.637 46.479 46.314 46.209 46.067 45.942 45.789 45.657 45.579 45.489 45.399 45.287 45.217 45.119 45.004 44.962 44.894 44.802 44.742 44.669 44.627 44.544 44.669 46.099 45.667 45.337 45.499 45.614 45.729 45.879 46.039 46.194 46.374 46.514 46.697 46.849 47.029 47.189 47.399 47.549 47.734 47.899 47.999 48.122 48.232 48.367 48.48 48.595 48.71 48.83 48.93 49.005 49.08 49.19 49.31 49.412 49.535 49.705 49.825 49.927 50.032 50.142 50.3 50.427 50.607 50.777 50.94 51.047 51.162 51.3 51.447 51.557 51.687 51.847 51.975 52.11 52.202 52.345 52.475 52.532 52.622 52.717 52.807 52.877 52.93 52.96 53.002 53.057 53.105 53.16 53.232 53.292 53.302 53.322 53.327 53.327 53.347 53.365 53.355 53.335 53.332 53.33 53.312 53.285 53.292 53.285 53.295 53.277 53.245 53.232 53.195 53.157 53.105 53.09 53.107 53.142 53.095 53.107 53.065 53.017 52.975 52.957 52.97 53.047 53.73 54.177 52.562 52.575 52.555 52.46 52.347 52.217 52.105 52.015 51.91 51.817 51.695 51.545 51.402 51.25 51.12 50.982 50.87 50.757 50.635 50.51 50.397 50.29 50.195 50.065 49.94 49.835 49.705 49.557 49.442 49.347 49.207 49.077 48.965 48.845 48.732 48.63 48.512 48.38 48.267 48.155 48.047 47.917 47.817 47.727 47.625 47.522 47.42 47.325 47.242 47.127 47.04 46.96 46.832 46.755 46.622 46.552 46.397 46.297 46.16 46.015 45.87 45.742 45.637 45.512 45.412 45.297 45.192 45.105 45.035 44.953 44.88 44.808 44.745 44.683 44.62 44.553 44.493 44.46 44.423 44.353 44.305 44.228 44.17 44.115 44.053 44.003 43.945 43.873 43.805 43.745 43.68 43.603
37.201 37.001 36.904 36.814 36.711 36.569 36.356 36.074 35.824 35.846 35.646 35.109 35.054 35.014 35.026 35.134 35.126 35.079 35.036 34.981 34.969 34.934 34.971 34.971 35.054 35.166 35.269 35.344 35.466 35.631 35.761 35.901 36.109 36.321 36.586 36.844 37.159 37.436 37.769 38.101 38.454 38.846 39.241 39.646 39.961 40.379 40.789 41.184 41.541 41.879 42.256 42.604 42.954 43.266 43.609 43.976 44.344 44.686 44.996 45.339 45.656 45.989 46.319 46.619 46.924 47.246 47.529 47.844 48.134 48.439 48.719 49.001 49.269 49.576 49.889 50.191 50.461 50.684 50.896 51.084 51.221 51.429 51.634 51.799 52.574 53.899 52.034 52.369 52.909 52.914 52.946 53.049 53.161 53.249 53.366 53.444 53.536 53.624 53.671 53.734 53.781 53.854 53.929 53.987 54.049 54.077 54.102 54.107 54.124 54.129 54.122 54.114 54.099 54.079 54.082 54.064 54.037 53.992 53.962 53.922 53.854 53.792 53.682 53.607 53.512 53.432 53.374 53.304 53.229 53.172 53.064 52.979 52.922 52.807 52.694 52.587 52.434 52.309 52.157 52.042 51.917 51.789 51.694 51.554 51.367 51.229 51.097 50.972 50.844 50.732 50.632 50.517 50.447 50.302 50.179 50.084 49.959 49.864 49.747 49.639 49.557 49.424 49.364 49.327 49.287 49.234 49.162 49.137 49.057 49.004 48.984 48.922 48.889 48.837 48.807 48.794 48.767 48.727 48.692 48.664 48.634 48.587 48.557 48.519 48.464 48.417 48.379 48.337 48.289 48.232 48.169 48.114 48.057 47.982 47.904 47.832 47.757 47.674 47.584 47.472 47.387 47.292 47.097 46.967 46.844 46.752 46.597 46.524 46.377 46.239 46.114 45.979 45.857 45.729 45.592 45.472 45.389 45.304 45.212 45.122 45.057 44.937 44.882 44.789 44.709 44.639 44.567 44.509 44.459 44.387 44.457 46.249 45.254 45.217 45.354 45.472 45.607 45.774 45.934 46.092 46.264 46.412 46.584 46.742 46.909 47.067 47.259 47.447 47.629 47.759 47.857 47.995 48.105 48.21 48.335 48.487 48.61 48.742 48.815 48.9 48.975 49.09 49.182 49.285 49.425 49.58 49.697 49.817 49.94 50.067 50.205 50.317 50.502 50.695 50.83 50.942 51.065 51.21 51.302 51.445 51.545 51.69 51.857 51.98 52.08 52.217 52.322 52.39 52.467 52.572 52.67 52.75 52.78 52.83 52.852 52.912 52.962 53.05 53.117 53.162 53.18 53.195 53.187 53.2 53.227 53.235 53.227 53.235 53.22 53.212 53.182 53.147 53.165 53.172 53.19 53.18 53.137 53.122 53.085 53.045 53.007 53.002 53.025 53.03 53.037 53.012 52.95 52.91 52.902 52.89 52.88 53.115 54.03 53.435 52.422 52.447 52.395 52.295 52.182 52.07 51.957 51.857 51.77 51.675 51.557 51.405 51.275 51.135 51.017 50.9 50.75 50.65 50.53 50.41 50.305 50.205 50.105 49.985 49.862 49.757 49.605 49.5 49.375 49.275 49.137 49.027 48.902 48.787 48.662 48.545 48.437 48.332 48.222 48.107 47.965 47.862 47.752 47.635 47.565 47.462 47.377 47.267 47.175 47.06 46.985 46.887 46.792 46.692 46.592 46.53 46.412 46.295 46.18 46.045 45.887 45.757 45.632 45.54 45.422 45.297 45.18 45.108 45.008 44.935 44.873 44.793 44.725 44.648 44.58 44.538 44.473 44.44 44.388 44.315 44.26 44.198 44.153 44.093 44.035 43.983 43.92 43.848 43.765 43.735 43.643 43.598
36.803 36.666 36.546 36.394 36.316 36.101 35.854 35.621 35.736 35.726 34.924 34.854 34.849 34.866 34.944 34.969 34.954 34.876 34.826 34.789 34.784 34.834 34.859 34.839 34.964 35.074 35.184 35.309 35.424 35.566 35.749 35.906 36.086 36.334 36.609 36.879 37.181 37.496 37.791 38.126 38.494 38.866 39.244 39.664 40.059 40.391 40.809 41.209 41.586 41.934 42.296 42.659 43.011 43.334 43.654 43.989 44.356 44.694 45.019 45.361 45.674 45.999 46.341 46.651 46.924 47.251 47.546 47.861 48.139 48.441 48.731 49.036 49.274 49.591 49.899 50.184 50.436 50.619 50.774 50.971 51.119 51.334 51.519 52.409 52.941 52.159 52.064 52.809 52.666 52.674 52.746 52.896 53.001 53.106 53.179 53.239 53.319 53.361 53.439 53.526 53.619 53.679 53.744 53.792 53.834 53.879 53.919 53.894 53.932 53.917 53.909 53.897 53.894 53.862 53.834 53.829 53.787 53.727 53.699 53.632 53.579 53.502 53.469 53.357 53.269 53.134 53.092 53.042 52.959 52.874 52.792 52.694 52.637 52.502 52.404 52.279 52.134 52.029 51.864 51.709 51.619 51.479 51.369 51.229 51.069 50.914 50.784 50.639 50.499 50.362 50.239 50.137 50.014 49.914 49.819 49.714 49.592 49.504 49.402 49.312 49.219 49.107 49.017 48.949 48.889 48.849 48.822 48.789 48.712 48.682 48.664 48.609 48.554 48.534 48.532 48.514 48.459 48.434 48.409 48.397 48.369 48.342 48.292 48.242 48.204 48.159 48.124 48.109 48.072 48.009 47.949 47.882 47.832 47.779 47.684 47.599 47.514 47.452 47.364 47.267 47.232 47.069 46.889 46.764 46.624 46.504 46.389 46.249 46.139 46.024 45.887 45.762 45.652 45.517 45.394 45.297 45.197 45.114 45.037 44.964 44.892 44.807 44.709 44.632 44.554 44.482 44.414 44.367 44.334 44.252 44.669 46.339 45.019 45.087 45.227 45.369 45.504 45.654 45.809 45.957 46.154 46.307 46.464 46.627 46.797 46.972 47.157 47.334 47.512 47.629 47.724 47.835 47.987 48.092 48.227 48.367 48.497 48.612 48.712 48.75 48.845 48.96 49.052 49.145 49.292 49.475 49.6 49.715 49.847 49.95 50.067 50.202 50.38 50.56 50.69 50.807 50.952 51.062 51.155 51.247 51.402 51.565 51.692 51.817 51.952 52.065 52.16 52.237 52.347 52.44 52.54 52.6 52.635 52.68 52.742 52.795 52.85 52.945 52.98 53.03 53.052 53.072 53.072 53.095 53.112 53.12 53.135 53.125 53.107 53.107 53.047 53.047 53.075 53.087 53.092 53.07 53.047 53.037 53.005 52.925 52.93 52.93 52.955 52.955 52.962 52.932 52.867 52.82 52.82 52.812 52.847 53.087 53.835 52.577 52.307 52.322 52.242 52.157 52.06 51.947 51.83 51.725 51.645 51.542 51.405 51.272 51.152 50.997 50.872 50.757 50.652 50.54 50.42 50.287 50.192 50.072 49.985 49.88 49.777 49.67 49.542 49.422 49.305 49.18 49.057 48.957 48.835 48.72 48.605 48.472 48.375 48.262 48.142 48.03 47.91 47.782 47.675 47.58 47.477 47.382 47.295 47.185 47.075 46.945 46.865 46.79 46.712 46.632 46.595 46.517 46.542 46.382 46.235 46.077 45.98 45.97 45.635 45.605 45.48 45.325 45.215 45.098 45.02 44.985 44.87 44.775 44.745 44.688 44.553 44.538 44.495 44.433 44.338 44.298 44.245 44.195 44.123 44.078 44.018 43.98 43.89 43.823 43.735 43.798 43.625 43.713
36.441 36.346 36.159 35.979 35.811 35.651 35.376 35.351 35.046 34.704 34.669 34.656 34.709 34.781 34.826 34.806 34.729 34.656 34.661 34.669 34.649 34.679 34.676 34.756 34.879 35.014 35.131 35.294 35.429 35.549 35.721 35.911 36.134 36.351 36.624 36.949 37.226 37.566 37.879 38.201 38.544 38.909 39.284 39.674 40.116 40.484 40.849 41.276 41.636 42.006 42.351 42.721 43.081 43.381 43.686 44.031 44.391 44.724 45.051 45.374 45.704 46.021 46.334 46.664 46.956 47.259 47.576 47.859 48.161 48.451 48.724 49.019 49.304 49.584 49.869 50.151 50.379 50.544 50.691 50.834 51.051 51.336 51.821 56.584 52.784 51.719 52.414 52.431 52.459 52.501 52.584 52.706 52.841 52.894 52.964 53.051 53.101 53.174 53.244 53.319 53.419 53.507 53.554 53.597 53.627 53.662 53.707 53.699 53.699 53.707 53.694 53.644 53.662 53.627 53.569 53.554 53.534 53.497 53.454 53.377 53.294 53.249 53.147 53.094 53.054 52.937 52.822 52.774 52.702 52.604 52.499 52.414 52.294 52.172 52.049 51.944 51.817 51.717 51.587 51.422 51.302 51.129 51.007 50.879 50.709 50.589 50.439 50.304 50.162 50.029 49.889 49.754 49.634 49.529 49.474 49.329 49.244 49.129 49.047 48.969 48.879 48.767 48.689 48.622 48.537 48.472 48.439 48.414 48.384 48.339 48.304 48.282 48.274 48.244 48.209 48.192 48.172 48.154 48.117 48.089 48.097 48.077 48.029 47.997 47.952 47.897 47.889 47.864 47.817 47.794 47.712 47.674 47.624 47.562 47.479 47.412 47.339 47.232 47.129 47.064 47.027 46.827 46.667 46.514 46.397 46.277 46.177 46.057 45.904 45.802 45.677 45.532 45.427 45.299 45.202 45.127 45.019 44.912 44.869 44.797 44.734 44.627 44.547 44.457 44.392 44.327 44.259 44.209 44.197 44.092 45.569 45.949 44.797 44.964 45.112 45.234 45.384 45.509 45.692 45.852 46.024 46.179 46.347 46.494 46.697 46.884 47.034 47.214 47.392 47.489 47.584 47.72 47.835 47.967 48.11 48.23 48.35 48.482 48.562 48.612 48.742 48.835 48.915 49.025 49.195 49.352 49.477 49.607 49.715 49.837 49.937 50.07 50.23 50.427 50.55 50.665 50.81 50.92 51.005 51.1 51.252 51.437 51.565 51.697 51.83 51.935 52.022 52.09 52.195 52.282 52.4 52.46 52.507 52.545 52.582 52.657 52.737 52.81 52.862 52.925 52.962 52.952 52.987 53.002 53.045 53.005 53.002 53.012 53.007 52.997 52.957 52.957 52.995 53.017 53 52.997 52.972 52.947 52.905 52.837 52.845 52.87 52.877 52.887 52.867 52.85 52.79 52.755 52.755 52.755 52.805 53.985 53.52 52.235 52.227 52.18 52.1 52.025 51.902 51.805 51.67 51.6 51.495 51.41 51.265 51.13 51.027 50.895 50.782 50.645 50.537 50.432 50.31 50.202 50.092 49.965 49.875 49.772 49.685 49.557 49.427 49.327 49.212 49.11 48.982 48.867 48.745 48.625 48.517 48.39 48.275 48.177 48.08 47.96 47.83 47.702 47.59 47.492 47.38 47.287 47.17 47.1 46.955 46.785 46.587 46.472 46.28 46.347 46.992 46.367 46.387 46.432 46.48 45.907 46.182 46.892 45.587 45.485 46.422 46.495 46.147 46.173 45.465 45.278 45.11 45.848 45.868 46.03 44.663 45.035 44.548 44.308 44.258 44.25 44.933 45.185 44.438 44.435 43.89 44.725 43.963 43.445 44.518 44.045 43.945 43.743
36.028 35.956 35.784 35.604 35.391 35.146 34.886 34.721 34.479 34.479 34.456 34.526 34.616 34.654 34.616 34.571 34.511 34.486 34.469 34.489 34.509 34.511 34.539 34.669 34.811 34.959 35.106 35.249 35.406 35.551 35.731 35.946 36.189 36.431 36.706 37.014 37.319 37.636 37.984 38.331 38.661 38.996 39.371 39.729 40.149 40.544 40.956 41.291 41.689 42.041 42.424 42.756 43.101 43.454 43.764 44.076 44.396 44.749 45.061 45.384 45.709 46.054 46.361 46.684 46.984 47.281 47.589 47.896 48.204 48.441 48.749 49.014 49.321 49.616 49.869 50.104 50.294 50.459 50.584 50.789 50.971 51.171 53.389 55.391 51.876 52.244 52.354 52.239 52.291 52.361 52.454 52.571 52.639 52.724 52.789 52.839 52.931 53.011 53.099 53.169 53.236 53.327 53.369 53.392 53.412 53.454 53.464 53.469 53.489 53.492 53.472 53.447 53.397 53.377 53.344 53.284 53.254 53.229 53.204 53.134 53.052 52.977 52.897 52.827 52.744 52.692 52.584 52.477 52.397 52.302 52.184 52.087 51.989 51.872 51.719 51.609 51.489 51.374 51.254 51.097 50.954 50.802 50.659 50.519 50.372 50.219 50.082 49.952 49.817 49.664 49.524 49.374 49.267 49.164 49.372 48.954 48.867 48.752 48.654 48.602 48.519 48.449 48.334 48.284 48.219 48.182 48.079 48.042 48.019 48.007 47.994 47.959 47.942 47.934 47.897 47.897 47.869 47.854 47.827 47.824 47.802 47.764 47.769 47.737 47.694 47.689 47.644 47.619 47.602 47.554 47.494 47.452 47.414 47.319 47.272 47.177 47.127 47.007 46.927 46.912 46.784 46.577 46.427 46.289 46.184 46.079 45.954 45.827 45.669 45.584 45.457 45.342 45.187 45.089 44.992 44.929 44.842 44.747 44.694 44.624 44.529 44.477 44.377 44.314 44.227 44.169 44.122 44.074 44.052 43.947 45.712 45.857 44.694 44.872 44.994 45.114 45.239 45.387 45.549 45.699 45.892 46.044 46.209 46.349 46.537 46.712 46.904 47.089 47.237 47.339 47.427 47.567 47.702 47.835 47.972 48.1 48.215 48.322 48.42 48.507 48.6 48.692 48.802 48.917 49.085 49.24 49.352 49.475 49.617 49.715 49.807 49.955 50.12 50.285 50.377 50.532 50.647 50.77 50.86 50.967 51.117 51.28 51.415 51.545 51.682 51.79 51.852 51.935 52.057 52.15 52.265 52.327 52.385 52.437 52.49 52.55 52.62 52.705 52.78 52.81 52.825 52.852 52.865 52.95 52.957 52.92 52.9 52.907 52.917 52.882 52.867 52.882 52.905 52.932 52.922 52.92 52.877 52.877 52.847 52.792 52.772 52.83 52.812 52.82 52.787 52.77 52.725 52.68 52.69 52.7 53.002 54.262 52.732 52.157 52.15 52.06 51.99 51.905 51.81 51.667 51.572 51.492 51.385 51.29 51.167 51.05 50.935 50.772 50.665 50.552 50.45 50.342 50.21 50.092 50.005 49.89 49.767 49.67 49.57 49.452 49.357 49.245 49.125 49.005 48.877 48.777 48.667 48.547 48.437 48.305 48.205 48.09 47.975 47.862 47.75 47.652 47.535 47.405 47.287 47.17 47.067 46.965 46.815 46.617 46.385 46.105 45.847 45.655 45.552 45.227 45.11 44.985 44.867 44.76 44.675 44.507 44.355 44.255 44.145 44.42 44.47 44.323 43.96 43.803 43.678 44.073 45.268 45.25 44.355 44.095 43.868 43.408 43.393 44.69 45.013 44.593 44.565 43.795 42.76 43.06 42.653 42.313 42.745 42.538 42.053 41.715
35.581 35.471 35.291 35.119 35.091 34.886 34.434 34.309 34.266 34.266 34.326 34.431 34.466 34.446 34.406 34.366 34.336 34.324 34.306 34.316 34.361 34.366 34.456 34.624 34.809 34.946 35.074 35.221 35.416 35.596 35.761 35.999 36.244 36.539 36.826 37.116 37.401 37.769 38.069 38.396 38.764 39.091 39.456 39.844 40.194 40.599 41.034 41.401 41.751 42.114 42.466 42.816 43.146 43.474 43.821 44.134 44.444 44.761 45.121 45.431 45.759 46.099 46.416 46.711 46.994 47.314 47.601 47.894 48.209 48.461 48.736 49.034 49.331 49.626 49.854 50.029 50.191 50.341 50.524 50.706 50.909 51.371 51.596 51.269 51.874 52.136 52.009 52.096 52.149 52.251 52.359 52.426 52.486 52.526 52.601 52.676 52.784 52.876 52.961 53.019 53.049 53.094 53.157 53.184 53.229 53.239 53.224 53.214 53.209 53.234 53.227 53.197 53.172 53.149 53.084 53.047 53.002 52.939 52.897 52.854 52.794 52.709 52.637 52.567 52.499 52.409 52.332 52.229 52.102 51.969 51.852 51.739 51.654 51.524 51.387 51.252 51.119 50.997 50.872 50.729 50.589 50.429 50.292 50.132 49.982 49.834 49.739 49.582 49.437 49.302 49.184 49.059 48.932 48.822 48.719 48.597 48.464 48.377 48.269 48.207 48.137 48.074 48.002 47.949 47.887 47.814 47.769 47.724 47.689 47.672 47.659 47.659 47.644 47.637 47.599 47.604 47.589 47.569 47.549 47.537 47.514 47.512 47.507 47.474 47.457 47.459 47.434 47.374 47.352 47.302 47.269 47.219 47.172 47.109 47.037 46.977 46.889 46.804 46.734 46.689 46.524 46.392 46.232 46.107 45.967 45.869 45.727 45.622 45.504 45.407 45.279 45.137 45.002 44.902 44.814 44.732 44.647 44.582 44.532 44.439 44.369 44.297 44.239 44.159 44.089 44.042 43.997 43.974 43.924 44.007 45.972 45.032 44.562 44.727 44.849 44.964 45.114 45.257 45.424 45.582 45.749 45.907 46.062 46.227 46.377 46.569 46.747 46.934 47.109 47.182 47.277 47.402 47.555 47.68 47.822 47.947 48.067 48.157 48.247 48.337 48.457 48.557 48.68 48.775 48.962 49.097 49.22 49.347 49.477 49.57 49.677 49.817 50.01 50.135 50.255 50.402 50.502 50.62 50.707 50.83 50.972 51.125 51.275 51.405 51.547 51.635 51.712 51.817 51.917 52.065 52.15 52.205 52.242 52.305 52.352 52.417 52.537 52.585 52.67 52.695 52.715 52.745 52.752 52.782 52.812 52.807 52.8 52.805 52.822 52.795 52.777 52.797 52.81 52.845 52.825 52.845 52.822 52.795 52.752 52.705 52.705 52.727 52.752 52.74 52.735 52.68 52.657 52.632 52.635 52.672 53.405 53.802 52.055 52.077 52.022 51.935 51.88 51.807 51.697 51.582 51.49 51.39 51.295 51.177 51.065 50.955 50.82 50.707 50.567 50.455 50.35 50.225 50.125 50.012 49.897 49.812 49.695 49.577 49.487 49.385 49.27 49.157 49.027 48.915 48.81 48.717 48.57 48.465 48.357 48.22 48.117 48.015 47.895 47.762 47.665 47.532 47.44 47.295 47.195 47.077 46.94 46.822 46.665 46.492 46.285 46.022 45.807 45.602 45.38 45.16 45.02 44.88 44.747 44.622 44.482 44.34 44.222 44.087 43.942 43.812 43.68 43.578 43.455 43.328 43.233 43.135 43.058 42.975 42.848 42.75 42.678 42.595 42.52 42.448 42.403 42.31 42.245 42.18 42.088 42.025 41.95 41.893 41.808 41.75 41.648 41.575
35.156 35.011 34.839 34.764 34.826 34.239 34.104 34.079 34.071 34.141 34.256 34.294 34.256 34.221 34.169 34.166 34.161 34.179 34.206 34.216 34.201 34.266 34.459 34.606 34.749 34.919 35.086 35.234 35.399 35.596 35.816 36.049 36.329 36.609 36.901 37.226 37.506 37.856 38.224 38.526 38.869 39.231 39.561 39.944 40.296 40.689 41.084 41.494 41.864 42.164 42.526 42.899 43.211 43.534 43.876 44.206 44.496 44.831 45.146 45.479 45.774 46.106 46.411 46.734 47.034 47.329 47.636 47.921 48.206 48.504 48.784 49.066 49.354 49.569 49.804 49.974 50.091 50.281 50.464 50.609 50.966 53.386 51.764 51.494 52.391 51.886 51.899 51.974 52.069 52.154 52.209 52.284 52.336 52.399 52.444 52.526 52.636 52.729 52.781 52.856 52.889 52.924 52.944 52.952 52.974 52.984 52.964 52.949 52.934 52.944 52.957 52.947 52.917 52.897 52.837 52.787 52.769 52.739 52.637 52.564 52.484 52.444 52.349 52.312 52.222 52.134 52.029 51.909 51.814 51.677 51.517 51.372 51.299 51.144 51.002 50.882 50.714 50.594 50.467 50.349 50.214 50.104 49.947 49.787 49.629 49.474 49.337 49.217 49.077 48.952 48.834 48.702 48.577 48.479 48.372 48.239 48.127 48.027 47.904 47.822 47.747 47.689 47.637 47.584 47.547 47.467 47.447 47.394 47.384 47.339 47.309 47.272 47.309 47.277 47.312 47.294 47.287 47.299 47.284 47.264 47.254 47.249 47.234 47.219 47.199 47.202 47.177 47.137 47.082 47.064 47.044 46.999 46.947 46.892 46.817 46.767 46.679 46.617 46.594 46.457 46.284 46.149 45.999 45.887 45.789 45.657 45.544 45.424 45.314 45.197 45.074 44.927 44.829 44.722 44.639 44.554 44.494 44.397 44.327 44.299 44.219 44.132 44.067 44.029 43.964 43.914 43.867 43.864 43.814 43.887 45.889 44.589 44.464 44.607 44.729 44.822 44.974 45.122 45.277 45.442 45.607 45.759 45.914 46.059 46.237 46.427 46.602 46.757 46.924 47.032 47.122 47.262 47.39 47.525 47.677 47.797 47.9 48.027 48.085 48.195 48.307 48.397 48.512 48.665 48.842 48.962 49.087 49.222 49.33 49.432 49.54 49.7 49.87 50.015 50.125 50.247 50.347 50.46 50.54 50.702 50.845 50.987 51.12 51.27 51.387 51.492 51.562 51.652 51.797 51.905 52.002 52.075 52.125 52.185 52.237 52.315 52.427 52.485 52.565 52.59 52.607 52.622 52.652 52.667 52.692 52.697 52.672 52.697 52.71 52.69 52.685 52.707 52.735 52.735 52.737 52.745 52.717 52.695 52.645 52.622 52.665 52.66 52.687 52.66 52.652 52.602 52.585 52.572 52.575 52.73 53.69 52.842 52.007 51.982 51.902 51.827 51.752 51.69 51.58 51.462 51.39 51.275 51.145 51.057 50.957 50.835 50.725 50.59 50.465 50.35 50.255 50.145 50.032 49.922 49.805 49.705 49.617 49.497 49.402 49.295 49.167 49.07 48.957 48.847 48.707 48.62 48.505 48.387 48.252 48.142 48 47.92 47.8 47.667 47.555 47.46 47.307 47.197 47.092 46.955 46.825 46.702 46.555 46.377 46.162 45.892 45.73 45.557 45.317 45.142 44.985 44.855 44.707 44.577 44.457 44.302 44.162 44.032 43.9 43.77 43.645 43.533 43.4 43.283 43.19 43.085 42.985 42.89 42.785 42.683 42.61 42.525 42.443 42.358 42.295 42.235 42.143 42.098 42.02 41.95 41.885 41.82 41.75 41.63 41.59 41.538
34.693 34.564 34.689 34.401 33.946 33.896 33.856 33.831 33.944 34.044 34.081 34.069 34.039 34.001 33.996 34.016 33.994 34.034 34.049 34.041 34.106 34.254 34.436 34.576 34.754 34.909 35.094 35.254 35.441 35.636 35.884 36.159 36.421 36.719 37.036 37.351 37.684 37.984 38.351 38.679 38.994 39.349 39.706 40.079 40.454 40.784 41.156 41.581 41.964 42.276 42.589 42.951 43.291 43.609 43.906 44.246 44.601 44.884 45.191 45.499 45.829 46.144 46.441 46.764 47.074 47.346 47.659 47.939 48.224 48.504 48.776 49.081 49.351 49.546 49.734 49.904 50.036 50.246 50.379 50.601 52.621 50.951 51.134 52.061 51.844 51.764 51.804 51.881 51.979 52.016 52.061 52.116 52.184 52.256 52.324 52.386 52.479 52.566 52.646 52.691 52.701 52.727 52.722 52.739 52.722 52.732 52.724 52.712 52.687 52.669 52.659 52.654 52.619 52.592 52.554 52.544 52.469 52.442 52.382 52.319 52.212 52.149 52.044 51.974 51.894 51.787 51.707 51.567 51.447 51.344 51.194 51.049 50.907 50.779 50.632 50.494 50.339 50.194 50.052 49.949 49.789 49.689 49.537 49.397 49.252 49.117 48.982 48.849 48.699 48.577 48.479 48.339 48.239 48.109 48.004 47.889 47.779 47.664 47.549 47.457 47.384 47.312 47.262 47.212 47.184 47.144 47.104 47.067 47.039 47.007 46.997 46.979 46.967 46.962 46.954 46.969 47.009 46.987 46.989 46.972 46.972 46.984 46.967 46.967 46.969 46.952 46.932 46.897 46.867 46.839 46.802 46.782 46.724 46.684 46.624 46.567 46.489 46.399 46.374 46.207 46.069 45.907 45.829 45.679 45.594 45.454 45.332 45.187 45.097 44.957 44.849 44.754 44.632 44.539 44.429 44.384 44.317 44.237 44.174 44.112 44.052 43.977 43.909 43.887 43.844 43.804 43.759 43.764 43.689 44.154 45.424 44.299 44.372 44.472 44.594 44.714 44.834 44.994 45.157 45.309 45.459 45.624 45.772 45.924 46.092 46.267 46.437 46.627 46.752 46.852 46.972 47.127 47.24 47.385 47.522 47.657 47.772 47.847 47.922 48.04 48.152 48.262 48.36 48.512 48.705 48.82 48.962 49.072 49.175 49.26 49.39 49.557 49.732 49.86 50.005 50.122 50.205 50.307 50.407 50.557 50.737 50.865 50.987 51.13 51.24 51.325 51.41 51.537 51.642 51.76 51.865 51.935 51.982 52.042 52.107 52.235 52.307 52.352 52.422 52.472 52.482 52.517 52.567 52.602 52.595 52.6 52.587 52.607 52.597 52.592 52.597 52.605 52.63 52.662 52.667 52.655 52.632 52.612 52.557 52.555 52.582 52.605 52.6 52.585 52.567 52.515 52.507 52.497 52.505 52.892 53.16 51.985 51.952 51.875 51.797 51.72 51.642 51.555 51.46 51.352 51.255 51.152 51.052 50.947 50.822 50.727 50.6 50.475 50.35 50.252 50.142 50.012 49.932 49.805 49.705 49.622 49.512 49.407 49.297 49.187 49.082 48.965 48.845 48.725 48.612 48.5 48.397 48.27 48.165 48.032 47.917 47.797 47.692 47.572 47.46 47.342 47.2 47.102 46.97 46.85 46.717 46.585 46.447 46.27 46.065 45.8 45.625 45.475 45.295 45.117 44.955 44.817 44.655 44.547 44.415 44.265 44.15 43.997 43.885 43.735 43.617 43.49 43.363 43.245 43.145 43.045 42.945 42.843 42.735 42.645 42.565 42.485 42.388 42.31 42.25 42.183 42.123 42.045 41.998 41.9 41.82 41.775 41.683 41.63 41.553 41.475
34.261 34.181 34.229 33.726 33.666 33.621 33.619 33.744 33.864 33.911 33.854 33.836 33.851 33.846 33.849 33.851 33.859 33.899 33.901 33.929 34.061 34.229 34.404 34.539 34.719 34.904 35.094 35.284 35.499 35.699 35.976 36.256 36.536 36.829 37.141 37.486 37.824 38.144 38.471 38.834 39.154 39.509 39.864 40.214 40.581 40.946 41.294 41.649 42.029 42.399 42.711 43.016 43.344 43.699 44.011 44.331 44.639 44.981 45.271 45.571 45.879 46.201 46.521 46.799 47.104 47.391 47.676 47.966 48.256 48.539 48.811 49.111 49.326 49.504 49.666 49.824 49.999 50.166 50.536 52.846 52.396 50.819 51.511 51.856 51.626 51.646 51.694 51.779 51.849 51.914 51.951 51.999 52.049 52.116 52.201 52.269 52.336 52.396 52.469 52.516 52.529 52.522 52.522 52.527 52.517 52.494 52.467 52.459 52.407 52.367 52.372 52.357 52.309 52.289 52.232 52.214 52.169 52.114 52.067 52.007 51.922 51.847 51.754 51.627 51.532 51.427 51.307 51.234 51.127 51.017 50.867 50.677 50.537 50.414 50.239 50.102 49.949 49.809 49.669 49.539 49.379 49.249 49.132 48.984 48.869 48.734 48.614 48.492 48.354 48.219 48.087 47.977 47.869 47.767 47.652 47.514 47.407 47.299 47.197 47.107 47.019 46.939 46.889 46.844 46.794 46.767 46.764 46.729 46.712 46.699 46.672 46.664 46.667 46.649 46.639 46.642 46.669 46.677 46.687 46.707 46.694 46.714 46.729 46.717 46.714 46.727 46.704 46.667 46.647 46.607 46.589 46.564 46.512 46.472 46.442 46.349 46.287 46.239 46.192 45.969 45.847 45.719 45.614 45.499 45.359 45.264 45.119 44.987 44.867 44.742 44.624 44.552 44.454 44.384 44.292 44.217 44.154 44.072 43.989 43.952 43.872 43.847 43.787 43.769 43.709 43.704 43.657 43.662 43.594 44.377 44.714 44.154 44.259 44.357 44.499 44.612 44.734 44.872 45.022 45.162 45.334 45.477 45.627 45.797 45.954 46.124 46.307 46.469 46.614 46.707 46.817 46.945 47.1 47.252 47.395 47.517 47.625 47.712 47.79 47.91 47.99 48.087 48.23 48.387 48.555 48.702 48.807 48.935 49.03 49.137 49.262 49.415 49.587 49.74 49.88 49.977 50.077 50.162 50.277 50.432 50.582 50.712 50.847 50.992 51.102 51.187 51.262 51.382 51.517 51.63 51.725 51.815 51.852 51.895 51.985 52.095 52.18 52.235 52.287 52.345 52.355 52.387 52.442 52.465 52.48 52.487 52.5 52.51 52.49 52.512 52.517 52.525 52.572 52.567 52.552 52.567 52.555 52.497 52.475 52.472 52.52 52.525 52.527 52.517 52.482 52.437 52.415 52.445 52.487 53.142 52.357 51.88 51.887 51.765 51.697 51.612 51.532 51.427 51.35 51.242 51.152 51.027 50.925 50.84 50.702 50.597 50.492 50.37 50.237 50.107 50.04 49.927 49.827 49.717 49.585 49.502 49.397 49.305 49.202 49.087 48.975 48.872 48.757 48.635 48.51 48.412 48.292 48.175 48.047 47.942 47.82 47.687 47.575 47.482 47.382 47.245 47.122 47 46.847 46.737 46.61 46.48 46.332 46.167 45.99 45.752 45.572 45.382 45.215 45.082 44.895 44.75 44.617 44.515 44.377 44.225 44.102 43.975 43.822 43.702 43.56 43.453 43.333 43.198 43.08 42.98 42.868 42.79 42.685 42.588 42.493 42.433 42.335 42.253 42.19 42.11 42.048 42.005 41.93 41.823 41.768 41.728 41.625 41.57 41.5 41.398
33.806 33.589 33.454 33.429 33.396 33.411 33.554 33.646 33.706 33.671 33.636 33.651 33.671 33.661 33.684 33.701 33.714 33.724 33.776 33.886 34.036 34.199 34.354 34.524 34.719 34.879 35.086 35.284 35.546 35.829 36.061 36.366 36.686 37.001 37.274 37.601 37.949 38.291 38.634 38.961 39.334 39.684 40.014 40.369 40.706 41.069 41.441 41.781 42.136 42.496 42.846 43.096 43.411 43.751 44.061 44.396 44.696 45.039 45.354 45.654 45.961 46.239 46.576 46.894 47.156 47.441 47.719 47.991 48.281 48.556 48.806 49.091 49.326 49.456 49.589 49.786 49.974 50.094 51.509 52.814 51.259 51.271 52.086 51.471 51.519 51.569 51.616 51.674 51.734 51.781 51.831 51.896 51.956 52.019 52.109 52.179 52.236 52.244 52.279 52.279 52.324 52.324 52.312 52.302 52.289 52.247 52.222 52.182 52.157 52.107 52.104 52.049 52.027 51.989 51.942 51.882 51.797 51.764 51.709 51.669 51.602 51.527 51.419 51.284 51.169 51.082 50.967 50.862 50.747 50.657 50.504 50.359 50.184 50.049 49.877 49.752 49.582 49.432 49.277 49.122 48.979 48.829 48.702 48.574 48.439 48.332 48.209 48.102 47.992 47.884 47.742 47.604 47.489 47.389 47.269 47.179 47.052 46.939 46.839 46.744 46.657 46.609 46.557 46.504 46.457 46.414 46.384 46.357 46.362 46.367 46.352 46.359 46.384 46.384 46.364 46.337 46.354 46.357 46.392 46.419 46.437 46.442 46.534 46.454 46.449 46.459 46.444 46.434 46.447 46.407 46.359 46.337 46.289 46.257 46.229 46.137 46.067 46.064 45.934 45.769 45.647 45.502 45.392 45.307 45.134 45.052 44.907 44.782 44.679 44.582 44.439 44.387 44.282 44.184 44.089 44.047 43.974 43.899 43.839 43.777 43.729 43.707 43.634 43.642 43.602 43.569 43.557 43.544 43.459 44.762 44.822 44.009 44.132 44.249 44.364 44.489 44.627 44.764 44.892 45.047 45.209 45.359 45.484 45.657 45.827 46.009 46.164 46.359 46.444 46.564 46.679 46.812 46.952 47.097 47.242 47.38 47.487 47.547 47.627 47.77 47.872 47.982 48.117 48.267 48.432 48.552 48.665 48.78 48.89 49.01 49.137 49.302 49.442 49.587 49.74 49.847 49.942 50.017 50.142 50.317 50.455 50.58 50.72 50.84 50.957 51.062 51.14 51.252 51.395 51.515 51.605 51.675 51.717 51.77 51.877 51.982 52.047 52.125 52.177 52.207 52.23 52.262 52.317 52.345 52.382 52.362 52.377 52.377 52.385 52.387 52.39 52.442 52.462 52.482 52.475 52.47 52.462 52.417 52.387 52.422 52.46 52.457 52.447 52.442 52.397 52.367 52.347 52.357 52.445 52.532 51.812 51.837 51.775 51.662 51.585 51.497 51.405 51.31 51.225 51.122 51.03 50.94 50.83 50.725 50.615 50.497 50.377 50.262 50.135 50.017 49.907 49.815 49.722 49.605 49.485 49.382 49.29 49.18 49.062 48.982 48.862 48.772 48.637 48.51 48.402 48.305 48.18 48.09 47.962 47.877 47.74 47.597 47.497 47.36 47.267 47.137 47.022 46.902 46.747 46.62 46.507 46.377 46.24 46.082 45.895 45.63 45.467 45.32 45.137 44.972 44.842 44.705 44.572 44.472 44.33 44.185 44.065 43.927 43.79 43.647 43.512 43.39 43.27 43.128 43.015 42.93 42.82 42.718 42.633 42.533 42.433 42.365 42.26 42.188 42.118 42.035 41.983 41.923 41.868 41.778 41.693 41.64 41.54 41.483 41.4 41.345
33.361 33.174 33.131 33.159 33.221 33.349 33.464 33.501 33.481 33.456 33.434 33.459 33.474 33.504 33.536 33.566 33.549 33.599 33.744 33.896 34.036 34.209 34.334 34.554 34.721 34.901 35.136 35.371 35.624 35.926 36.194 36.489 36.801 37.104 37.434 37.746 38.114 38.424 38.779 39.146 39.486 39.836 40.189 40.529 40.904 41.201 41.554 41.906 42.251 42.599 42.934 43.261 43.539 43.819 44.126 44.486 44.799 45.106 45.424 45.749 46.019 46.326 46.649 46.941 47.226 47.459 47.731 48.006 48.284 48.579 48.876 49.071 49.249 49.371 49.546 49.731 49.889 50.221 53.036 51.119 50.581 51.929 51.799 51.404 51.404 51.474 51.496 51.526 51.584 51.664 51.721 51.776 51.841 51.924 51.989 52.014 52.049 52.079 52.111 52.116 52.094 52.107 52.104 52.064 52.032 52.007 51.952 51.914 51.882 51.822 51.779 51.772 51.729 51.684 51.629 51.559 51.472 51.397 51.332 51.279 51.219 51.149 51.067 50.967 50.837 50.722 50.597 50.489 50.374 50.209 50.069 49.957 49.857 49.664 49.487 49.344 49.169 49.042 48.884 48.729 48.567 48.409 48.284 48.174 48.049 47.919 47.804 47.692 47.574 47.472 47.347 47.237 47.132 47.017 46.894 46.807 46.669 46.597 46.477 46.392 46.319 46.249 46.209 46.159 46.107 46.072 46.054 46.032 46.022 46.014 46.044 46.042 46.034 46.054 46.074 46.062 46.067 46.052 46.092 46.112 46.152 46.189 46.364 46.177 46.182 46.209 46.204 46.184 46.197 46.194 46.182 46.139 46.084 46.069 45.999 45.914 45.882 45.899 45.702 45.542 45.387 45.299 45.207 45.077 44.927 44.832 44.707 44.602 44.477 44.357 44.244 44.204 44.084 44.002 43.949 43.854 43.789 43.757 43.699 43.637 43.559 43.557 43.527 43.524 43.464 43.454 43.454 43.449 43.527 45.287 44.422 43.929 44.002 44.127 44.254 44.362 44.484 44.627 44.784 44.922 45.079 45.237 45.372 45.549 45.697 45.872 46.032 46.222 46.312 46.402 46.519 46.677 46.832 46.995 47.127 47.252 47.345 47.407 47.507 47.615 47.725 47.855 48.01 48.145 48.292 48.42 48.557 48.672 48.77 48.88 49.007 49.187 49.325 49.477 49.59 49.685 49.802 49.892 50.045 50.187 50.312 50.45 50.61 50.707 50.8 50.927 51.02 51.145 51.267 51.387 51.467 51.552 51.605 51.677 51.777 51.857 51.947 52.017 52.067 52.095 52.13 52.177 52.24 52.267 52.27 52.265 52.25 52.275 52.265 52.292 52.302 52.317 52.355 52.37 52.382 52.385 52.347 52.33 52.315 52.347 52.377 52.372 52.377 52.337 52.312 52.285 52.3 52.335 52.82 52.112 51.767 51.752 51.655 51.56 51.475 51.39 51.317 51.232 51.13 51.035 50.947 50.852 50.73 50.627 50.492 50.395 50.272 50.162 50.04 49.92 49.815 49.725 49.62 49.477 49.38 49.3 49.195 49.077 48.972 48.872 48.755 48.657 48.522 48.42 48.31 48.22 48.095 47.977 47.865 47.757 47.625 47.512 47.42 47.295 47.182 47.027 46.912 46.787 46.662 46.55 46.44 46.3 46.162 45.98 45.812 45.56 45.382 45.255 45.087 44.927 44.79 44.635 44.53 44.392 44.27 44.117 43.995 43.857 43.725 43.572 43.49 43.32 43.215 43.103 42.96 42.873 42.755 42.64 42.55 42.448 42.34 42.278 42.178 42.11 42.033 41.95 41.915 41.838 41.773 41.685 41.61 41.548 41.48 41.385 41.3 41.24
32.916 32.886 32.894 33.011 33.151 33.246 33.299 33.269 33.234 33.231 33.286 33.271 33.281 33.374 33.399 33.406 33.494 33.619 33.744 33.864 34.069 34.209 34.351 34.564 34.739 34.956 35.174 35.461 35.726 35.999 36.319 36.619 36.941 37.259 37.596 37.941 38.271 38.621 38.969 39.306 39.679 39.991 40.366 40.694 41.046 41.379 41.696 42.064 42.396 42.731 43.029 43.389 43.719 43.944 44.256 44.556 44.884 45.179 45.499 45.831 46.124 46.416 46.704 46.976 47.286 47.546 47.789 48.071 48.346 48.606 48.844 49.029 49.156 49.324 49.514 49.666 49.814 50.424 52.766 50.301 51.209 51.341 51.126 51.601 51.609 51.361 51.409 51.446 51.461 51.529 51.604 51.659 51.744 51.804 51.846 51.859 51.896 51.914 51.926 51.919 51.901 51.879 51.859 51.824 51.804 51.749 51.704 51.632 51.599 51.524 51.474 51.414 51.359 51.309 51.242 51.172 51.099 51.027 50.959 50.889 50.809 50.764 50.664 50.587 50.467 50.344 50.227 50.117 49.999 49.854 49.682 49.534 49.412 49.287 49.117 48.927 48.774 48.627 48.459 48.337 48.192 48.019 47.877 47.757 47.617 47.512 47.372 47.274 47.197 47.097 46.992 46.887 46.777 46.639 46.542 46.432 46.349 46.229 46.142 46.052 45.957 45.884 45.847 45.807 45.767 45.719 45.727 45.707 45.702 45.704 45.734 45.707 45.719 45.732 45.754 45.757 45.769 45.807 45.829 45.829 45.854 45.902 45.917 45.934 45.964 45.944 45.947 45.962 45.954 45.959 45.929 45.907 45.887 45.847 45.782 45.727 45.729 45.604 45.469 45.327 45.197 45.094 44.992 44.879 44.737 44.594 44.509 44.412 44.294 44.192 44.067 44.012 43.902 43.829 43.764 43.692 43.639 43.594 43.542 43.494 43.452 43.412 43.387 43.362 43.352 43.347 43.349 43.372 43.492 45.347 43.832 43.809 43.887 43.989 44.107 44.247 44.367 44.512 44.679 44.812 44.949 45.122 45.257 45.409 45.567 45.742 45.919 46.082 46.167 46.287 46.409 46.555 46.707 46.835 46.99 47.13 47.21 47.305 47.382 47.502 47.597 47.75 47.88 48.037 48.175 48.3 48.43 48.565 48.642 48.762 48.9 49.042 49.195 49.382 49.49 49.595 49.67 49.782 49.955 50.067 50.212 50.335 50.477 50.59 50.675 50.795 50.912 51.03 51.16 51.282 51.367 51.43 51.512 51.565 51.692 51.765 51.845 51.945 51.98 51.995 52.035 52.09 52.125 52.167 52.17 52.172 52.175 52.192 52.172 52.207 52.215 52.247 52.25 52.29 52.297 52.285 52.26 52.242 52.217 52.26 52.295 52.29 52.262 52.252 52.237 52.245 52.247 52.537 52.887 51.755 51.732 51.652 51.557 51.455 51.38 51.287 51.207 51.132 51.05 50.947 50.857 50.727 50.645 50.555 50.437 50.305 50.195 50.092 49.96 49.84 49.722 49.63 49.515 49.412 49.31 49.205 49.087 48.967 48.892 48.77 48.655 48.557 48.452 48.325 48.21 48.112 48.01 47.877 47.78 47.66 47.522 47.435 47.297 47.197 47.077 46.96 46.825 46.705 46.595 46.47 46.347 46.232 46.072 45.89 45.702 45.455 45.29 45.157 45.032 44.892 44.72 44.567 44.442 44.312 44.19 44.057 43.925 43.797 43.655 43.51 43.405 43.265 43.145 43.015 42.88 42.763 42.665 42.543 42.445 42.345 42.273 42.193 42.1 42.003 41.938 41.858 41.793 41.725 41.645 41.593 41.508 41.44 41.355 41.278 41.195 41.133
32.648 32.714 32.794 32.921 33.034 33.099 33.059 33.059 33.044 33.099 33.104 33.146 33.184 33.244 33.256 33.299 33.466 33.614 33.759 33.904 34.071 34.229 34.396 34.576 34.786 35.014 35.259 35.541 35.849 36.141 36.451 36.776 37.099 37.416 37.756 38.104 38.444 38.761 39.154 39.489 39.846 40.174 40.534 40.904 41.219 41.554 41.869 42.164 42.526 42.854 43.156 43.489 43.819 44.116 44.379 44.659 44.976 45.274 45.604 45.906 46.231 46.496 46.789 47.039 47.324 47.611 47.876 48.131 48.386 48.621 48.814 48.954 49.129 49.306 49.466 49.626 51.071 52.229 50.509 50.456 51.201 50.904 50.871 50.999 51.279 51.601 51.546 51.339 51.376 51.419 51.461 51.526 51.601 51.646 51.671 51.701 51.739 51.724 51.729 51.701 51.699 51.682 51.629 51.567 51.527 51.489 51.432 51.367 51.277 51.197 51.129 51.042 50.967 50.904 50.867 50.807 50.737 50.679 50.599 50.519 50.434 50.317 50.247 50.159 50.064 49.974 49.852 49.664 49.569 49.449 49.304 49.152 49.004 48.864 48.702 48.549 48.379 48.209 48.054 47.894 47.772 47.609 47.477 47.367 47.244 47.082 46.972 46.859 46.754 46.657 46.574 46.497 46.399 46.272 46.177 46.087 45.987 45.889 45.779 45.697 45.609 45.527 45.497 45.472 45.409 45.384 45.367 45.384 45.379 45.387 45.384 45.414 45.419 45.454 45.462 45.482 45.492 45.529 45.554 45.567 45.599 45.624 45.647 45.672 45.697 45.707 45.734 45.712 45.722 45.744 45.714 45.694 45.692 45.647 45.577 45.512 45.492 45.347 45.232 45.092 44.984 44.877 44.789 44.669 44.512 44.392 44.292 44.212 44.079 44.002 43.907 43.814 43.732 43.667 43.589 43.517 43.467 43.442 43.372 43.357 43.327 43.299 43.272 43.242 43.234 43.237 43.269 43.244 44.004 44.877 43.604 43.717 43.777 43.879 43.989 44.132 44.249 44.394 44.539 44.669 44.829 44.997 45.132 45.297 45.472 45.622 45.797 45.944 46.027 46.159 46.272 46.425 46.582 46.705 46.857 47.02 47.075 47.162 47.27 47.38 47.462 47.625 47.777 47.925 48.072 48.205 48.33 48.452 48.522 48.665 48.795 48.955 49.107 49.27 49.372 49.45 49.552 49.687 49.835 49.967 50.092 50.235 50.367 50.48 50.59 50.69 50.815 50.927 51.05 51.15 51.222 51.33 51.387 51.482 51.597 51.687 51.772 51.845 51.892 51.915 51.937 52.002 52.05 52.095 52.09 52.087 52.08 52.1 52.102 52.12 52.147 52.175 52.205 52.2 52.222 52.23 52.187 52.16 52.165 52.182 52.23 52.222 52.185 52.19 52.195 52.202 52.312 53 51.95 51.677 51.645 51.537 51.452 51.362 51.297 51.197 51.1 51.027 50.96 50.872 50.792 50.677 50.567 50.452 50.36 50.232 50.125 49.992 49.88 49.755 49.65 49.562 49.447 49.31 49.215 49.117 49.005 48.905 48.82 48.69 48.577 48.467 48.352 48.25 48.127 48.02 47.91 47.79 47.7 47.582 47.455 47.362 47.227 47.11 46.982 46.867 46.73 46.612 46.505 46.382 46.25 46.145 45.98 45.822 45.622 45.37 45.217 45.135 44.945 44.795 44.642 44.505 44.38 44.257 44.112 43.982 43.842 43.695 43.587 43.44 43.32 43.193 43.05 42.928 42.793 42.665 42.568 42.453 42.343 42.235 42.138 42.055 41.975 41.905 41.828 41.755 41.675 41.618 41.535 41.473 41.398 41.313 41.208 41.17 41.093 41.018
32.516 32.611 32.729 32.799 32.879 32.866 32.874 32.874 32.919 32.931 32.946 33.004 33.041 33.116 33.181 33.344 33.521 33.644 33.786 33.916 34.076 34.251 34.414 34.606 34.859 35.076 35.341 35.646 35.951 36.259 36.584 36.896 37.271 37.594 37.919 38.261 38.604 38.966 39.311 39.706 40.036 40.376 40.731 41.064 41.384 41.666 41.994 42.326 42.641 42.999 43.321 43.609 43.916 44.274 44.536 44.776 45.089 45.381 45.699 46.009 46.309 46.611 46.894 47.146 47.381 47.631 47.909 48.169 48.419 48.604 48.756 48.894 49.089 49.261 49.414 49.604 52.196 50.756 50.094 51.011 50.939 50.784 50.799 50.854 50.934 51.041 51.206 51.319 51.371 51.321 51.351 51.406 51.446 51.524 51.546 51.556 51.541 51.544 51.554 51.514 51.466 51.427 51.409 51.339 51.257 51.184 51.127 51.064 50.989 50.894 50.784 50.707 50.624 50.539 50.439 50.372 50.319 50.252 50.187 50.099 50.039 49.927 49.809 49.699 49.632 49.562 49.437 49.317 49.159 49.012 48.887 48.749 48.604 48.452 48.277 48.137 47.994 47.857 47.649 47.492 47.359 47.212 47.074 46.942 46.827 46.697 46.577 46.447 46.349 46.239 46.127 46.052 45.972 45.892 45.812 45.732 45.642 45.537 45.437 45.354 45.272 45.204 45.162 45.127 45.094 45.087 45.059 45.049 45.062 45.084 45.094 45.104 45.104 45.154 45.164 45.202 45.222 45.269 45.282 45.329 45.344 45.382 45.397 45.432 45.437 45.434 45.474 45.487 45.484 45.507 45.497 45.502 45.487 45.427 45.364 45.392 45.229 45.104 44.954 44.864 44.779 44.644 44.557 44.397 44.324 44.202 44.082 43.984 43.919 43.814 43.749 43.669 43.579 43.504 43.424 43.357 43.297 43.274 43.224 43.204 43.194 43.154 43.122 43.144 43.122 43.132 43.167 43.097 43.974 44.432 43.482 43.604 43.669 43.782 43.892 43.999 44.147 44.302 44.437 44.577 44.714 44.854 45.024 45.177 45.354 45.504 45.702 45.799 45.919 46.022 46.164 46.322 46.447 46.597 46.76 46.887 46.952 47.05 47.135 47.24 47.367 47.51 47.665 47.807 47.975 48.085 48.21 48.29 48.422 48.572 48.707 48.827 49.022 49.15 49.262 49.35 49.435 49.577 49.73 49.857 49.987 50.137 50.27 50.37 50.465 50.595 50.717 50.837 50.955 51.05 51.137 51.207 51.257 51.39 51.507 51.57 51.69 51.775 51.812 51.85 51.862 51.917 51.97 52.03 52.01 52 52.017 52.01 52.057 52.035 52.075 52.097 52.12 52.14 52.17 52.125 52.107 52.087 52.095 52.122 52.155 52.162 52.14 52.125 52.147 52.172 52.745 52.852 51.792 51.647 51.552 51.437 51.37 51.285 51.19 51.11 51.042 50.992 50.897 50.807 50.74 50.635 50.505 50.402 50.262 50.137 50.042 49.932 49.812 49.695 49.567 49.472 49.355 49.242 49.155 49.045 48.927 48.83 48.717 48.602 48.49 48.387 48.257 48.155 48.05 47.937 47.835 47.717 47.615 47.505 47.382 47.287 47.165 47.042 46.927 46.807 46.65 46.542 46.425 46.3 46.172 46.062 45.897 45.747 45.535 45.295 45.122 45.035 44.882 44.73 44.575 44.422 44.3 44.172 44.062 43.92 43.752 43.61 43.497 43.337 43.207 43.08 42.953 42.833 42.688 42.568 42.463 42.34 42.245 42.12 42.018 41.95 41.86 41.758 41.698 41.62 41.565 41.488 41.408 41.345 41.278 41.198 41.13 41.055 40.98 40.923
32.418 32.514 32.571 32.594 32.616 32.631 32.679 32.681 32.689 32.744 32.796 32.871 32.951 33.069 33.204 33.369 33.546 33.679 33.821 33.979 34.124 34.289 34.471 34.706 34.941 35.194 35.466 35.766 36.081 36.389 36.741 37.076 37.421 37.756 38.091 38.479 38.796 39.161 39.531 39.874 40.241 40.569 40.909 41.211 41.544 41.836 42.149 42.469 42.804 43.116 43.444 43.741 44.044 44.356 44.691 44.926 45.189 45.479 45.804 46.111 46.411 46.659 46.951 47.206 47.446 47.691 47.934 48.201 48.421 48.574 48.729 48.866 49.031 49.204 49.336 50.619 50.901 50.849 50.284 50.756 50.664 50.654 50.716 50.761 50.829 50.911 50.986 51.086 51.691 51.516 51.276 51.286 51.314 51.351 51.374 51.399 51.416 51.386 51.351 51.311 51.259 51.227 51.152 51.082 50.999 50.922 50.814 50.724 50.642 50.542 50.499 50.379 50.274 50.169 50.069 49.962 49.857 49.769 49.707 49.672 49.582 49.489 49.392 49.317 49.177 49.097 49.002 48.892 48.767 48.609 48.474 48.302 48.149 48.027 47.904 47.734 47.589 47.439 47.297 47.129 46.959 46.804 46.669 46.547 46.409 46.292 46.194 46.072 45.939 45.834 45.752 45.644 45.577 45.494 45.434 45.342 45.254 45.199 45.097 45.017 44.942 44.882 44.854 44.802 44.787 44.747 44.742 44.749 44.749 44.774 44.772 44.802 44.817 44.832 44.862 44.907 44.934 44.967 45.012 45.067 45.089 45.124 45.152 45.179 45.179 45.184 45.199 45.229 45.229 45.267 45.294 45.289 45.274 45.222 45.187 45.227 45.034 44.889 44.744 44.682 44.542 44.424 44.302 44.202 44.067 43.974 43.892 43.789 43.702 43.622 43.564 43.477 43.374 43.327 43.239 43.177 43.159 43.109 43.097 43.047 43.049 43.024 43.039 43.072 42.999 43.044 43.064 43.042 44.579 44.014 43.374 43.512 43.579 43.672 43.802 43.914 44.074 44.212 44.322 44.459 44.599 44.749 44.904 45.059 45.244 45.404 45.589 45.674 45.787 45.929 46.054 46.197 46.345 46.495 46.65 46.737 46.822 46.947 47.035 47.117 47.255 47.422 47.58 47.732 47.87 47.995 48.127 48.225 48.315 48.47 48.625 48.745 48.935 49.067 49.167 49.232 49.355 49.495 49.632 49.78 49.89 50.045 50.16 50.277 50.375 50.52 50.63 50.752 50.847 50.952 51.035 51.135 51.215 51.35 51.445 51.52 51.605 51.7 51.75 51.767 51.81 51.862 51.92 51.945 51.94 51.942 51.937 51.952 51.967 51.967 52.017 52.06 52.065 52.077 52.092 52.067 52.04 52.025 52.027 52.077 52.12 52.102 52.087 52.092 52.107 52.16 52.955 52.225 51.622 51.585 51.48 51.392 51.285 51.215 51.14 51.042 50.995 50.922 50.842 50.757 50.66 50.545 50.427 50.327 50.202 50.1 49.975 49.85 49.722 49.645 49.532 49.417 49.287 49.197 49.092 48.975 48.87 48.762 48.652 48.547 48.442 48.307 48.202 48.1 47.995 47.865 47.757 47.657 47.557 47.432 47.317 47.215 47.085 46.972 46.825 46.697 46.57 46.477 46.355 46.235 46.11 45.982 45.837 45.655 45.442 45.222 45.04 44.942 44.807 44.657 44.497 44.352 44.217 44.08 43.955 43.82 43.67 43.52 43.382 43.242 43.107 42.988 42.848 42.72 42.588 42.453 42.365 42.233 42.13 42.013 41.908 41.823 41.748 41.653 41.568 41.485 41.438 41.343 41.283 41.23 41.14 41.085 41.003 40.935 40.86 40.788
32.308 32.361 32.351 32.369 32.384 32.419 32.449 32.476 32.566 32.649 32.701 32.801 32.939 33.114 33.261 33.414 33.549 33.701 33.846 34.029 34.189 34.354 34.591 34.804 35.064 35.314 35.611 35.926 36.241 36.559 36.899 37.229 37.594 37.961 38.279 38.626 39.004 39.359 39.701 40.074 40.406 40.759 41.079 41.389 41.686 42.016 42.311 42.614 42.941 43.254 43.554 43.899 44.206 44.524 44.806 45.136 45.384 45.639 45.894 46.179 46.479 46.726 46.979 47.241 47.524 47.756 47.996 48.219 48.431 48.531 48.654 48.836 49.011 49.174 49.616 51.739 50.349 51.384 51.219 50.564 50.519 50.569 50.611 50.664 50.711 50.796 50.856 50.909 50.956 51.221 51.899 51.529 51.194 51.206 51.209 51.231 51.214 51.194 51.169 51.101 51.024 50.962 50.897 50.829 50.732 50.634 50.554 50.432 50.322 50.182 50.087 50.007 49.904 49.784 49.692 49.604 49.489 49.342 49.237 49.159 49.109 49.022 48.912 48.799 48.742 48.629 48.532 48.412 48.294 48.182 48.039 47.899 47.727 47.587 47.457 47.332 47.167 47.027 46.882 46.734 46.582 46.402 46.274 46.149 46.027 45.887 45.777 45.684 45.567 45.459 45.384 45.264 45.187 45.107 45.054 44.959 44.892 44.814 44.759 44.677 44.629 44.564 44.524 44.507 44.467 44.444 44.444 44.447 44.444 44.444 44.469 44.492 44.519 44.564 44.604 44.622 44.674 44.722 44.894 44.784 44.824 44.864 44.917 44.949 44.964 44.992 44.982 44.992 44.989 45.022 45.057 45.049 45.012 44.989 45.054 44.952 44.757 44.629 44.534 44.447 44.294 44.214 44.084 43.962 43.854 43.764 43.682 43.569 43.482 43.432 43.337 43.277 43.229 43.132 43.062 43.007 43.009 42.967 42.937 42.929 42.909 42.937 42.957 42.949 42.927 42.972 42.984 43.022 44.314 43.824 43.297 43.399 43.477 43.562 43.684 43.819 43.979 44.092 44.214 44.344 44.492 44.642 44.794 44.977 45.149 45.309 45.469 45.562 45.669 45.792 45.949 46.095 46.235 46.385 46.522 46.627 46.712 46.837 46.925 47.032 47.197 47.335 47.487 47.647 47.77 47.897 48.02 48.12 48.242 48.382 48.52 48.69 48.852 48.972 49.05 49.152 49.285 49.427 49.557 49.7 49.812 49.965 50.065 50.172 50.292 50.415 50.53 50.665 50.77 50.885 50.96 51.062 51.17 51.287 51.38 51.467 51.56 51.637 51.667 51.695 51.742 51.812 51.87 51.882 51.875 51.885 51.857 51.895 51.915 51.955 51.957 52.002 52.015 52.03 52.037 51.997 51.98 51.99 52.002 52.047 52.055 52.062 52.077 52.065 52.085 52.37 52.925 51.62 51.585 51.52 51.415 51.292 51.235 51.17 51.072 50.995 50.93 50.86 50.775 50.7 50.597 50.505 50.385 50.285 50.147 50.027 49.907 49.807 49.687 49.577 49.462 49.337 49.25 49.142 49.03 48.925 48.802 48.715 48.597 48.495 48.372 48.27 48.13 48.027 47.92 47.805 47.702 47.587 47.49 47.36 47.245 47.14 47 46.887 46.767 46.63 46.515 46.417 46.285 46.167 46.047 45.912 45.75 45.59 45.377 45.152 44.945 44.84 44.692 44.545 44.38 44.225 44.095 43.987 43.852 43.712 43.582 43.427 43.292 43.152 43.005 42.89 42.73 42.625 42.475 42.36 42.23 42.113 42.008 41.9 41.778 41.685 41.61 41.515 41.435 41.345 41.295 41.218 41.155 41.083 41 40.95 40.878 40.79 40.718 40.665
32.126 32.156 32.159 32.154 32.191 32.246 32.281 32.366 32.441 32.554 32.679 32.864 33.009 33.139 33.311 33.446 33.621 33.759 33.916 34.116 34.279 34.466 34.699 34.931 35.204 35.471 35.784 36.091 36.429 36.749 37.091 37.441 37.786 38.136 38.481 38.851 39.191 39.554 39.911 40.234 40.574 40.949 41.271 41.579 41.869 42.154 42.479 42.759 43.071 43.414 43.736 44.046 44.389 44.681 44.946 45.254 45.541 45.786 46.009 46.269 46.526 46.796 47.044 47.294 47.571 47.831 48.031 48.211 48.384 48.479 48.619 48.806 49.024 49.254 50.694 50.476 49.466 50.289 50.639 50.414 50.431 50.466 50.479 50.524 50.584 50.631 50.716 50.779 50.829 50.881 50.976 51.406 51.394 51.309 51.049 51.039 50.991 50.976 50.926 50.881 50.786 50.714 50.639 50.537 50.442 50.344 50.247 50.152 50.034 49.867 49.729 49.594 49.487 49.392 49.279 49.202 49.099 48.972 48.839 48.702 48.574 48.509 48.462 48.342 48.219 48.139 48.014 47.919 47.804 47.724 47.587 47.454 47.344 47.187 47.024 46.839 46.724 46.594 46.429 46.312 46.177 46.054 45.889 45.774 45.637 45.522 45.392 45.254 45.177 45.054 44.964 44.894 44.819 44.727 44.657 44.574 44.504 44.467 44.409 44.347 44.297 44.242 44.202 44.197 44.157 44.149 44.134 44.144 44.157 44.167 44.187 44.204 44.222 44.294 44.322 44.344 44.419 44.427 44.479 44.509 44.547 44.587 44.632 44.682 44.689 44.722 44.754 44.779 44.799 44.824 44.822 44.794 44.767 44.779 44.817 44.672 44.532 44.407 44.329 44.194 44.079 43.944 43.847 43.754 43.644 43.522 43.442 43.359 43.307 43.217 43.157 43.092 43.019 42.954 42.909 42.884 42.869 42.814 42.809 42.792 42.797 42.824 42.832 42.842 42.847 42.892 42.892 42.874 44.597 43.452 43.234 43.314 43.359 43.474 43.599 43.727 43.879 44.027 44.144 44.254 44.394 44.539 44.679 44.882 45.032 45.184 45.339 45.439 45.557 45.682 45.844 45.965 46.12 46.262 46.4 46.497 46.595 46.72 46.822 46.937 47.09 47.24 47.4 47.545 47.687 47.815 47.91 48.027 48.195 48.325 48.457 48.632 48.782 48.877 48.97 49.057 49.2 49.342 49.485 49.625 49.77 49.9 50 50.125 50.22 50.34 50.47 50.597 50.725 50.82 50.895 50.98 51.127 51.225 51.325 51.425 51.512 51.575 51.587 51.635 51.695 51.737 51.807 51.822 51.82 51.835 51.822 51.85 51.875 51.892 51.932 51.965 51.987 51.985 51.985 51.962 51.935 51.94 51.985 51.987 52.007 52.005 52.03 52.032 52.09 52.852 52.122 51.587 51.55 51.457 51.34 51.247 51.202 51.1 50.997 50.92 50.857 50.807 50.725 50.64 50.547 50.43 50.35 50.225 50.097 49.975 49.87 49.777 49.647 49.527 49.415 49.322 49.212 49.102 48.997 48.885 48.772 48.68 48.552 48.462 48.337 48.21 48.08 47.985 47.872 47.757 47.655 47.535 47.402 47.28 47.177 47.077 46.94 46.85 46.722 46.587 46.482 46.34 46.202 46.097 45.957 45.835 45.67 45.497 45.285 45.082 44.865 44.765 44.625 44.452 44.28 44.135 44.01 43.892 43.752 43.617 43.472 43.315 43.19 43.045 42.902 42.763 42.63 42.493 42.36 42.243 42.113 42.013 41.88 41.76 41.653 41.553 41.465 41.373 41.285 41.213 41.153 41.09 41.015 40.943 40.853 40.79 40.74 40.66 40.583 40.52
31.931 31.911 31.939 31.979 32.014 32.081 32.151 32.271 32.421 32.604 32.714 32.879 33.054 33.201 33.349 33.524 33.689 33.846 33.996 34.186 34.391 34.616 34.851 35.111 35.389 35.651 35.979 36.294 36.591 36.959 37.284 37.624 37.994 38.354 38.694 39.066 39.406 39.771 40.111 40.411 40.756 41.086 41.411 41.749 42.016 42.334 42.621 42.939 43.246 43.549 43.904 44.199 44.514 44.821 45.119 45.406 45.661 45.946 46.131 46.354 46.596 46.829 47.094 47.366 47.606 47.869 48.069 48.174 48.336 48.454 48.594 48.784 49.096 50.901 52.399 49.621 49.551 50.769 50.299 50.281 50.331 50.361 50.371 50.434 50.436 50.511 50.581 50.639 50.691 50.754 50.791 50.794 50.901 51.174 51.241 50.874 50.816 50.766 50.699 50.619 50.551 50.472 50.367 50.274 50.182 50.052 49.929 49.807 49.699 49.557 49.419 49.284 49.127 48.977 48.857 48.752 48.644 48.519 48.397 48.282 48.127 48.004 47.917 47.842 47.739 47.637 47.552 47.442 47.342 47.242 47.139 47.014 46.889 46.757 46.622 46.457 46.339 46.187 46.039 45.894 45.762 45.642 45.512 45.389 45.257 45.122 44.984 44.867 44.769 44.662 44.572 44.504 44.454 44.374 44.289 44.214 44.164 44.092 44.044 44.022 43.967 43.922 43.899 43.887 43.857 43.849 43.842 43.857 43.867 43.897 43.909 43.937 43.952 43.997 44.034 44.072 44.129 44.177 44.197 44.247 44.289 44.349 44.354 44.377 44.432 44.469 44.492 44.517 44.579 44.614 44.612 44.562 44.547 44.592 44.554 44.417 44.287 44.167 44.094 43.979 43.872 43.742 43.632 43.539 43.444 43.319 43.239 43.147 43.079 43.019 42.952 42.894 42.839 42.774 42.724 42.709 42.714 42.684 42.687 42.662 42.669 42.689 42.707 42.729 42.792 42.814 42.792 42.879 44.397 43.437 43.147 43.219 43.272 43.394 43.517 43.632 43.787 43.914 44.037 44.149 44.277 44.432 44.584 44.757 44.914 45.112 45.242 45.337 45.454 45.589 45.724 45.872 46.03 46.182 46.315 46.402 46.5 46.625 46.72 46.85 47.017 47.162 47.34 47.48 47.617 47.752 47.845 47.97 48.105 48.235 48.362 48.575 48.695 48.797 48.895 49.01 49.145 49.265 49.397 49.54 49.71 49.83 49.93 50.042 50.145 50.26 50.417 50.567 50.662 50.737 50.827 50.94 51.067 51.192 51.272 51.37 51.46 51.53 51.57 51.6 51.652 51.707 51.75 51.785 51.767 51.765 51.782 51.822 51.83 51.857 51.91 51.917 51.93 51.952 51.927 51.885 51.9 51.92 51.935 51.96 51.985 52.005 52.012 52.007 52.607 52.855 51.602 51.535 51.482 51.36 51.262 51.2 51.13 51.032 50.965 50.9 50.837 50.767 50.675 50.595 50.487 50.412 50.287 50.2 50.055 49.952 49.84 49.735 49.602 49.492 49.37 49.27 49.16 49.067 48.952 48.84 48.727 48.632 48.51 48.407 48.29 48.187 48.062 47.962 47.835 47.712 47.622 47.497 47.37 47.247 47.135 47.03 46.89 46.787 46.662 46.517 46.397 46.26 46.13 46.027 45.892 45.76 45.59 45.422 45.207 45.005 44.77 44.655 44.515 44.35 44.175 44.015 43.917 43.787 43.65 43.505 43.357 43.202 43.062 42.942 42.797 42.665 42.493 42.373 42.245 42.125 41.988 41.888 41.763 41.653 41.525 41.433 41.333 41.23 41.15 41.073 40.998 40.948 40.868 40.803 40.713 40.663 40.595 40.528 40.453 40.375
