ncols 413
nrows 31
xllcorner    458072
yllcorner    87562
cellsize     2
NODATA_value -9999
82.07 84.072 83.262 83.022 84.07 86.045 81.17 81.427 81.682 82.687 82.18 83.085 82.777 83.822 83.075 83.078 84.323 85.748 83.828 83.938 84.163 84.21 84.348 85.283 85.203 84.863 85.04 87.973 86.563 85.733 86.153 86.518 86.568 86.428 87.17 87.583 87.26 87.475 87.725 88.323 88.735 90.468 90.193 88.905 88.953 89.475 90.198 90.388 90.66 92.383 91.508 90.258 91.075 91.09 91.353 91.808 92.355 93.98 93.155 92.855 93.405 93.383 93.493 93.798 94.138 94.62 94.835 94.955 95.1 95.25 95.438 95.57 95.733 95.915 96.108 96.27 96.485 96.725 96.89 97.088 97.33 97.568 97.803 98.045 98.288 98.528 98.805 99.075 99.31 99.555 99.778 100.028 100.24 100.495 100.753 100.95 101.145 101.303 101.44 101.565 101.693 101.8 101.923 102.04 102.133 102.278 102.413 102.563 102.678 102.76 102.878 102.99 103.065 103.15 103.248 103.318 103.373 103.468 103.555 103.635 103.713 103.773 103.87 103.948 104.015 104.093 104.193 104.268 104.308 104.375 104.445 104.535 104.605 104.65 104.715 104.788 104.868 104.925 104.98 105.038 105.088 105.12 105.183 105.213 105.253 105.265 105.313 105.338 105.358 105.375 105.4 105.423 105.435 105.465 105.478 105.51 105.53 105.52 105.535 105.543 105.56 105.585 105.595 105.61 105.641 105.643 105.661 105.701 105.738 105.758 105.773 105.811 105.821 105.828 105.836 105.843 105.826 105.798 105.796 105.771 105.756 105.706 105.683 105.638 105.606 105.548 105.518 105.463 105.411 105.361 105.266 105.201 105.141 105.073 105.001 104.926 104.846 104.776 104.683 104.571 104.513 104.421 104.313 104.201 104.086 103.993 103.871 103.743 103.603 103.488 103.358 103.211 103.058 102.943 102.796 102.611 102.433 102.286 102.131 101.953 101.801 101.608 101.448 101.271 101.078 100.901 100.716 100.536 100.363 100.176 99.973 99.763 99.558 99.346 99.106 98.863 98.591 98.391 98.133 97.888 97.668 97.428 97.151 96.863 96.611 96.323 96.053 95.788 95.501 95.223 94.896 94.633 94.348 94.081 93.831 93.601 93.363 93.186 93.016 92.826 92.701 93.861 94.391 93.588 90.384 89.694 89.159 90.424 95.816 90.516 87.736 93.776 92.096 85.616 85.646 86.591 86.304 84.929 84.799 84.616 84.399 84.154 83.891 83.611 83.334 83.034 82.759 82.446 82.164 81.909 81.654 81.421 81.174 80.926 80.666 80.439 80.186 79.934 79.656 79.364 79.104 78.804 78.524 78.244 77.951 77.674 77.399 77.111 76.824 76.569 76.289 75.984 75.721 75.431 75.164 74.879 74.611 74.289 74.026 73.754 73.484 73.236 72.939 72.674 72.436 72.146 71.899 71.614 71.366 71.136 70.886 70.611 70.381 70.146 69.919 69.676 69.444 69.231 69.026 68.814 68.606 68.396 68.199 68.014 67.781 67.549 67.311 67.069 66.834 66.616 66.361 66.201 65.954 65.801 65.876 66.339 66.194 65.284 65.091 64.594 63.989 63.691 63.471 63.261 63.096 62.936 62.756 62.589 62.449 62.301 62.134 62.021 61.824 61.664 61.554 61.399 61.269 61.134 60.981 60.866 60.779 60.694 60.629 60.551 60.506 60.449 60.364 60.254 59.851 60.171 59.846 59.771 59.689 59.654 59.659 59.736 59.856 60.029 60.176 60.301 60.414 60.524 60.661 60.781 60.861 60.954 61.044 61.084 61.166 61.294 61.439 61.589 61.761
81.325 83.797 80.862 83.33 87.777 81.822 83.417 84.74 82.212 82.44 84.37 84.06 83.317 83.645 83.618 83.783 84.435 84.075 84.318 84.49 84.663 84.755 84.973 85.32 85.343 85.803 85.82 86.558 86.568 86.293 86.533 87.425 87.478 87.213 88.86 88.7 88.308 88.725 88.53 88.805 89.208 89.598 89.74 89.965 89.595 89.75 89.96 90.065 90.808 91.205 90.795 91.185 91.425 91.84 92.123 92.433 92.68 93.035 93.178 93.86 93.783 93.753 94.063 94.498 94.903 95.075 95.18 95.323 95.495 95.638 95.803 95.95 96.138 96.338 96.548 96.73 96.92 97.18 97.395 97.593 97.75 98.02 98.263 98.513 98.795 99.043 99.28 99.518 99.768 100.008 100.223 100.458 100.678 100.915 101.138 101.328 101.518 101.663 101.808 101.97 102.073 102.198 102.338 102.425 102.523 102.65 102.823 102.913 103.023 103.108 103.175 103.253 103.355 103.47 103.53 103.595 103.693 103.77 103.84 103.89 104.003 104.088 104.14 104.233 104.3 104.385 104.475 104.555 104.618 104.69 104.753 104.823 104.905 104.945 105.028 105.078 105.14 105.215 105.273 105.318 105.358 105.415 105.453 105.505 105.525 105.565 105.575 105.603 105.615 105.638 105.64 105.66 105.7 105.685 105.72 105.735 105.733 105.748 105.75 105.743 105.765 105.805 105.808 105.825 105.868 105.883 105.886 105.933 105.953 106.003 106.003 106.021 106.038 106.056 106.036 106.051 106.033 105.998 105.996 105.948 105.926 105.908 105.866 105.818 105.786 105.746 105.696 105.626 105.576 105.523 105.453 105.353 105.293 105.243 105.178 105.086 105.016 104.936 104.851 104.768 104.683 104.578 104.481 104.376 104.266 104.143 104.018 103.883 103.768 103.631 103.503 103.371 103.211 103.078 102.936 102.786 102.616 102.431 102.278 102.133 101.953 101.771 101.588 101.391 101.243 101.068 100.881 100.696 100.466 100.303 100.138 99.913 99.711 99.496 99.308 99.078 98.801 98.556 98.323 98.068 97.833 97.623 97.346 97.071 96.788 96.518 96.248 95.961 95.686 95.411 95.126 94.843 94.576 94.281 94.028 93.781 93.533 93.281 93.108 92.953 92.788 92.858 94.008 92.666 91.181 90.094 89.474 89.034 91.019 88.469 89.929 92.499 92.999 86.286 87.374 86.421 85.376 85.221 85.054 84.869 84.656 84.374 84.114 83.856 83.559 83.239 82.944 82.664 82.374 82.104 81.841 81.611 81.364 81.144 80.864 80.616 80.364 80.111 79.841 79.581 79.311 78.996 78.709 78.436 78.121 77.841 77.539 77.256 76.989 76.721 76.446 76.161 75.854 75.579 75.309 75.021 74.736 74.469 74.206 73.921 73.651 73.374 73.114 72.854 72.584 72.331 72.036 71.786 71.526 71.276 71.016 70.761 70.511 70.254 70.006 69.731 69.476 69.269 69.014 68.784 68.571 68.336 68.126 67.909 67.706 67.486 67.269 67.061 66.841 66.626 66.366 66.111 65.861 65.651 65.456 65.281 65.101 65.176 65.281 65.339 65.254 64.271 63.714 63.531 63.251 63.061 62.811 62.664 62.504 62.361 62.224 62.081 61.956 61.829 61.679 61.524 61.366 61.231 61.094 60.974 60.891 60.834 60.751 60.676 60.609 60.579 60.491 60.314 59.669 60.161 60.009 59.926 59.866 59.811 59.851 59.906 60.071 60.226 60.351 60.469 60.609 60.726 60.869 60.971 61.051 61.171 61.234 61.289 61.389 61.521 61.646 61.819 61.951
80.895 81.172 82.527 83.63 83.392 82.3 84.63 83.465 82.805 83.115 85.532 83.525 83.872 84.552 84.258 84.293 84.675 84.718 86.408 85.495 85.11 85.893 85.708 86.118 86.26 89.095 88.86 86.828 86.79 86.953 87.68 88.22 88.628 87.765 88.303 88.603 88.853 89.028 89.105 89.423 89.798 89.558 91.315 90.803 90.623 90.413 91.6 91.128 90.98 91.228 91.903 92.425 92.383 92.665 92.848 92.97 93.248 93.773 93.62 94.238 94.098 94.453 94.958 95.21 95.328 95.44 95.573 95.733 95.905 96.018 96.18 96.368 96.568 96.773 96.968 97.18 97.393 97.613 97.858 98.08 98.315 98.56 98.763 98.983 99.243 99.503 99.773 100.015 100.238 100.5 100.705 100.873 101.125 101.325 101.51 101.7 101.878 102.025 102.18 102.31 102.435 102.57 102.693 102.76 102.883 103.035 103.16 103.248 103.348 103.43 103.483 103.558 103.655 103.745 103.825 103.908 103.968 104.043 104.123 104.228 104.26 104.35 104.43 104.525 104.603 104.678 104.758 104.838 104.92 105.005 105.055 105.135 105.185 105.238 105.315 105.355 105.445 105.49 105.538 105.583 105.635 105.683 105.72 105.758 105.783 105.818 105.825 105.858 105.87 105.878 105.895 105.895 105.945 105.923 105.945 105.93 105.958 105.955 105.978 105.965 105.96 105.995 106.02 106.018 106.068 106.106 106.133 106.161 106.181 106.221 106.231 106.248 106.238 106.258 106.253 106.231 106.226 106.191 106.158 106.121 106.123 106.076 106.036 105.998 105.963 105.891 105.861 105.798 105.733 105.686 105.618 105.548 105.466 105.398 105.326 105.261 105.176 105.091 105.016 104.921 104.848 104.741 104.631 104.531 104.413 104.308 104.153 104.041 103.928 103.793 103.651 103.508 103.368 103.228 103.078 102.918 102.758 102.608 102.438 102.263 102.078 101.901 101.718 101.533 101.378 101.221 101.023 100.841 100.626 100.441 100.241 100.078 99.866 99.666 99.488 99.251 99.013 98.741 98.503 98.261 97.988 97.763 97.531 97.268 96.976 96.691 96.438 96.161 95.891 95.618 95.348 95.051 94.771 94.486 94.231 93.956 93.731 93.468 93.246 93.093 92.888 92.723 93.128 93.383 91.869 91.246 90.259 89.111 88.521 87.974 87.426 87.111 87.039 86.724 89.836 86.899 85.616 85.471 85.324 85.126 84.894 84.601 84.309 84.051 83.746 83.461 83.171 82.899 82.611 82.346 82.086 81.836 81.586 81.331 81.054 80.796 80.551 80.264 80.011 79.729 79.479 79.164 78.904 78.616 78.331 78.049 77.746 77.456 77.179 76.861 76.599 76.311 76.026 75.744 75.446 75.156 74.886 74.604 74.329 74.071 73.804 73.554 73.271 73.004 72.739 72.471 72.189 71.909 71.681 71.416 71.156 70.916 70.641 70.424 70.154 69.891 69.619 69.374 69.111 68.846 68.611 68.389 68.134 67.881 67.641 67.419 67.179 66.954 66.729 66.541 66.319 66.126 65.894 65.661 65.441 65.216 65.024 64.846 64.676 64.471 64.369 64.321 64.406 64.361 64.254 63.624 63.136 62.874 62.646 62.456 62.306 62.191 62.059 61.921 61.796 61.636 61.496 61.346 61.186 61.094 60.964 60.911 60.891 60.809 60.759 60.706 60.579 60.164 60.076 60.284 60.206 60.106 60.011 59.976 60.026 60.121 60.261 60.429 60.531 60.661 60.814 60.934 61.049 61.161 61.241 61.346 61.414 61.504 61.589 61.729 61.849 62.011 62.124
81.967 81.772 82.24 82.23 86.38 83.335 82.967 83.257 83.472 85.475 90.342 84.802 84.565 84.967 85.945 84.973 85.655 85.33 87.17 86.245 86.058 89.805 86.683 86.86 86.73 87.23 87.438 87.293 87.663 88.473 88.548 88.413 88.67 89.308 89.355 89.475 89.635 89.655 89.818 89.943 91.108 92.133 91.48 90.928 91.673 91.27 92.888 92.14 91.975 92.238 92.443 92.783 96.188 95.403 93.325 93.923 94.143 94.173 94.29 94.79 95.148 95.173 95.455 95.568 95.698 95.825 95.98 96.16 96.305 96.433 96.603 96.813 97.008 97.238 97.445 97.665 97.873 98.098 98.345 98.585 98.815 99.08 99.278 99.51 99.743 99.988 100.218 100.493 100.715 100.958 101.16 101.343 101.538 101.74 101.918 102.07 102.215 102.375 102.525 102.658 102.793 102.91 102.99 103.103 103.248 103.395 103.51 103.595 103.665 103.728 103.773 103.873 103.958 104.035 104.095 104.22 104.283 104.335 104.41 104.515 104.59 104.63 104.745 104.818 104.875 104.98 105.078 105.14 105.208 105.283 105.35 105.428 105.48 105.523 105.6 105.65 105.698 105.765 105.808 105.86 105.91 105.955 105.983 106.018 106.065 106.083 106.073 106.108 106.108 106.133 106.143 106.143 106.14 106.153 106.168 106.165 106.18 106.168 106.22 106.2 106.198 106.225 106.24 106.26 106.273 106.321 106.346 106.393 106.406 106.406 106.441 106.436 106.443 106.436 106.436 106.451 106.418 106.383 106.368 106.321 106.283 106.261 106.231 106.173 106.138 106.081 106.028 105.971 105.896 105.848 105.768 105.698 105.638 105.568 105.486 105.416 105.333 105.258 105.168 105.076 104.993 104.901 104.781 104.671 104.553 104.453 104.318 104.163 104.061 103.941 103.796 103.633 103.493 103.371 103.211 103.068 102.891 102.746 102.563 102.388 102.218 102.048 101.871 101.696 101.501 101.343 101.138 100.951 100.788 100.591 100.408 100.186 100.003 99.803 99.573 99.383 99.158 98.921 98.658 98.418 98.171 97.936 97.678 97.421 97.146 96.873 96.618 96.341 96.076 95.811 95.558 95.291 94.973 94.688 94.433 94.161 93.916 93.656 93.428 93.216 93.036 92.851 92.686 92.968 92.829 93.069 91.951 89.629 89.804 89.581 87.991 88.381 87.226 87.171 87.704 88.019 85.956 85.751 85.569 85.359 85.104 84.804 84.521 84.249 83.959 83.679 83.386 83.106 82.871 82.589 82.306 82.034 81.761 81.536 81.266 80.979 80.721 80.461 80.171 79.929 79.644 79.364 79.084 78.794 78.491 78.229 77.951 77.641 77.356 77.061 76.774 76.474 76.186 75.906 75.596 75.339 75.041 74.761 74.489 74.219 73.934 73.671 73.409 73.139 72.874 72.609 72.346 72.074 71.824 71.564 71.294 71.054 70.799 70.526 70.279 70.011 69.736 69.496 69.251 68.989 68.691 68.459 68.191 67.926 67.669 67.411 67.176 66.916 66.666 66.456 66.236 66.031 65.821 65.619 65.409 65.204 64.981 64.799 64.599 64.416 64.219 64.071 63.916 63.806 63.804 63.761 63.861 63.771 63.186 62.761 62.469 62.251 62.136 62.024 61.866 61.766 61.636 61.489 61.379 61.229 61.106 61.056 61.024 60.951 60.884 60.814 60.686 60.179 60.366 60.419 60.329 60.221 60.156 60.129 60.199 60.286 60.459 60.594 60.694 60.861 60.971 61.139 61.231 61.361 61.404 61.516 61.614 61.679 61.809 61.921 62.091 62.219 62.304
82.135 82.512 82.605 83.812 83.862 83.342 83.815 83.84 84.282 89.942 93.152 85.95 89.58 88.67 85.328 85.455 86.175 86.28 87.505 87.228 86.308 86.335 86.525 87.295 89.048 91.643 87.945 88.235 87.98 88.265 88.673 88.985 89.488 89.933 91.018 91.07 90.8 90.145 90.248 90.943 91.285 91.118 91.54 91.555 93.933 92.14 92.735 92.638 92.765 92.913 93.275 93.69 100.5 96.065 93.848 94.243 94.493 94.58 95.318 96.71 95.553 95.703 95.813 95.965 96.075 96.22 96.37 96.513 96.693 96.845 97.033 97.213 97.425 97.668 97.913 98.125 98.35 98.59 98.838 99.083 99.288 99.543 99.768 99.983 100.233 100.47 100.695 100.918 101.15 101.35 101.553 101.773 101.95 102.133 102.288 102.45 102.575 102.725 102.865 102.98 103.13 103.195 103.29 103.445 103.608 103.733 103.855 103.925 103.958 104.028 104.108 104.185 104.255 104.348 104.418 104.5 104.595 104.643 104.723 104.778 104.883 104.968 105.025 105.103 105.175 105.268 105.368 105.425 105.483 105.563 105.645 105.695 105.765 105.823 105.873 105.928 105.985 106.02 106.073 106.105 106.168 106.223 106.23 106.255 106.305 106.313 106.345 106.363 106.368 106.368 106.38 106.37 106.393 106.363 106.383 106.415 106.41 106.395 106.405 106.383 106.43 106.443 106.47 106.478 106.496 106.526 106.568 106.591 106.601 106.616 106.631 106.626 106.626 106.626 106.611 106.606 106.583 106.561 106.541 106.501 106.476 106.416 106.381 106.363 106.278 106.241 106.183 106.123 106.061 105.993 105.916 105.841 105.786 105.743 105.633 105.551 105.476 105.403 105.306 105.208 105.121 105.036 104.936 104.808 104.691 104.591 104.468 104.326 104.193 104.051 103.926 103.783 103.623 103.511 103.361 103.201 103.046 102.881 102.716 102.523 102.366 102.193 102.008 101.828 101.631 101.453 101.283 101.103 100.913 100.726 100.536 100.321 100.116 99.906 99.726 99.511 99.303 99.093 98.838 98.583 98.321 98.078 97.851 97.593 97.346 97.058 96.788 96.513 96.251 95.998 95.741 95.461 95.213 94.918 94.643 94.386 94.106 93.841 93.588 93.328 93.146 92.981 92.796 92.711 93.071 92.386 91.561 90.179 90.346 89.821 88.506 88.094 89.781 89.169 90.296 87.706 86.201 85.999 85.816 85.591 85.324 85.004 84.696 84.446 84.184 83.896 83.629 83.341 83.061 82.796 82.534 82.241 81.954 81.684 81.436 81.159 80.904 80.634 80.376 80.094 79.831 79.544 79.261 78.986 78.671 78.381 78.089 77.791 77.531 77.241 76.944 76.639 76.356 76.056 75.769 75.494 75.206 74.914 74.636 74.366 74.091 73.826 73.539 73.274 72.994 72.744 72.466 72.214 71.959 71.681 71.431 71.181 70.929 70.676 70.421 70.121 69.866 69.604 69.351 69.084 68.829 68.559 68.271 68.011 67.746 67.496 67.246 66.944 66.694 66.441 66.191 65.964 65.754 65.524 65.309 65.104 64.899 64.741 64.556 64.384 64.199 64.044 63.851 63.661 63.539 63.426 63.314 63.574 63.761 63.691 63.521 62.739 62.354 62.154 61.956 61.879 61.751 61.601 61.494 61.391 61.256 61.191 61.164 61.074 60.984 60.909 60.739 60.319 60.666 60.556 60.494 60.379 60.269 60.301 60.359 60.494 60.636 60.759 60.896 61.029 61.151 61.311 61.384 61.484 61.586 61.664 61.779 61.899 62.011 62.131 62.286 62.429 62.466
83.117 83.23 83.212 83.74 83.59 83.805 84.115 84.347 86.512 89.012 91.695 85.937 85.79 85.655 85.78 85.985 87.718 90.123 86.633 87.1 86.8 86.928 87.848 88.258 89.223 89.183 88.205 88.443 88.603 88.92 89.408 89.24 89.955 90.263 91.07 90.908 91.8 92.27 91.748 91.44 91.603 92.683 92.28 92.33 92.61 93.078 94.135 93.485 93.34 93.545 93.76 94.278 96.91 95.225 94.368 94.608 94.888 95.158 95.46 95.803 95.928 96.075 96.2 96.333 96.46 96.6 96.76 96.915 97.085 97.293 97.45 97.673 97.89 98.13 98.355 98.568 98.843 99.09 99.345 99.583 99.81 100.04 100.268 100.483 100.72 100.978 101.213 101.393 101.585 101.768 101.94 102.138 102.335 102.515 102.655 102.79 102.908 103.043 103.188 103.315 103.42 103.505 103.64 103.793 103.928 104.035 104.13 104.188 104.26 104.345 104.435 104.508 104.555 104.65 104.718 104.818 104.88 104.958 105.048 105.11 105.205 105.27 105.338 105.398 105.478 105.56 105.65 105.723 105.788 105.83 105.908 106 106.043 106.105 106.143 106.203 106.253 106.31 106.33 106.385 106.425 106.463 106.495 106.515 106.55 106.578 106.603 106.598 106.61 106.593 106.608 106.61 106.593 106.615 106.61 106.61 106.618 106.63 106.633 106.63 106.62 106.645 106.675 106.703 106.733 106.753 106.781 106.796 106.801 106.816 106.813 106.808 106.828 106.808 106.793 106.786 106.761 106.736 106.693 106.673 106.653 106.598 106.546 106.488 106.446 106.403 106.346 106.278 106.203 106.138 106.076 105.991 105.928 105.863 105.786 105.711 105.611 105.543 105.461 105.351 105.258 105.176 105.068 104.951 104.828 104.713 104.581 104.468 104.333 104.201 104.066 103.911 103.746 103.611 103.483 103.343 103.161 103.003 102.848 102.683 102.496 102.313 102.143 101.958 101.766 101.596 101.393 101.206 101.053 100.861 100.641 100.446 100.233 100.018 99.836 99.618 99.408 99.193 98.976 98.766 98.503 98.238 97.976 97.733 97.481 97.256 96.961 96.693 96.426 96.183 95.918 95.648 95.388 95.096 94.836 94.566 94.288 93.996 93.753 93.513 93.313 93.113 92.938 92.778 92.599 92.059 91.524 90.666 90.066 89.514 89.949 91.604 90.911 89.261 87.531 86.974 86.439 86.209 86.034 85.806 85.519 85.219 84.926 84.636 84.421 84.141 83.809 83.526 83.259 82.984 82.706 82.444 82.149 81.894 81.611 81.346 81.089 80.804 80.536 80.284 79.999 79.734 79.449 79.169 78.879 78.584 78.289 77.971 77.689 77.396 77.084 76.814 76.514 76.239 75.946 75.651 75.361 75.054 74.781 74.489 74.219 73.934 73.684 73.421 73.111 72.856 72.589 72.324 72.071 71.794 71.561 71.289 71.031 70.781 70.519 70.279 69.981 69.731 69.459 69.201 68.934 68.671 68.401 68.129 67.859 67.589 67.304 67.054 66.744 66.481 66.229 65.991 65.751 65.504 65.266 65.041 64.821 64.629 64.456 64.294 64.126 63.996 63.836 63.666 63.479 63.351 63.224 63.129 63.019 63.126 63.259 63.141 62.831 62.949 62.389 62.014 61.849 61.726 61.631 61.549 61.426 61.311 61.266 61.204 61.121 61.001 60.534 60.574 60.796 60.704 60.581 60.506 60.461 60.491 60.546 60.661 60.809 60.896 61.044 61.176 61.329 61.436 61.519 61.616 61.716 61.831 61.956 62.071 62.211 62.344 62.444 62.571 62.649
83.13 87.197 84.057 84.002 84.107 84.565 84.825 84.765 85.29 85.36 86.675 85.635 85.82 86.042 86.238 86.423 87.073 87.518 87.145 87.553 87.493 87.663 88.133 88.328 88.948 90.308 88.788 89.138 89.405 89.383 89.698 90.91 91.018 90.66 90.883 91.103 91.535 91.55 91.698 91.868 92.39 92.83 92.743 93.025 93.268 93.57 94.28 94.24 94.538 93.985 94.473 97.563 98.053 95.4 94.788 95.96 95.975 95.888 96.095 96.203 96.315 96.453 96.553 96.7 96.853 96.973 97.153 97.318 97.505 97.69 97.858 98.118 98.353 98.58 98.81 99.055 99.293 99.545 99.84 100.055 100.265 100.54 100.753 100.98 101.22 101.45 101.638 101.83 102.005 102.178 102.363 102.533 102.678 102.848 102.99 103.103 103.198 103.37 103.49 103.603 103.72 103.845 103.985 104.088 104.21 104.298 104.393 104.47 104.583 104.66 104.733 104.808 104.898 104.958 105.043 105.135 105.203 105.273 105.34 105.445 105.505 105.548 105.63 105.703 105.763 105.835 105.935 106.003 106.053 106.113 106.2 106.263 106.313 106.388 106.425 106.465 106.523 106.59 106.605 106.633 106.67 106.715 106.768 106.76 106.8 106.823 106.843 106.855 106.845 106.838 106.828 106.838 106.845 106.823 106.833 106.82 106.823 106.833 106.848 106.858 106.85 106.878 106.91 106.92 106.941 106.948 106.953 106.991 106.991 106.993 106.991 106.973 106.983 106.978 106.968 106.943 106.926 106.911 106.873 106.813 106.788 106.746 106.708 106.641 106.596 106.531 106.478 106.403 106.346 106.293 106.206 106.158 106.073 106.001 105.941 105.861 105.768 105.656 105.578 105.481 105.411 105.298 105.188 105.076 104.961 104.831 104.716 104.581 104.448 104.331 104.181 104.033 103.878 103.743 103.591 103.453 103.286 103.123 102.963 102.806 102.628 102.453 102.263 102.073 101.886 101.716 101.528 101.323 101.141 100.966 100.746 100.553 100.368 100.138 99.946 99.758 99.523 99.301 99.091 98.888 98.648 98.388 98.156 97.901 97.653 97.383 97.138 96.873 96.591 96.321 96.066 95.811 95.548 95.271 95.031 94.766 94.498 94.203 93.908 93.693 93.461 93.233 93.093 92.906 92.731 92.419 91.719 90.934 91.164 92.279 91.916 90.666 88.696 88.181 87.751 87.091 86.661 86.446 86.216 85.996 85.719 85.436 85.126 84.861 84.589 84.331 84.029 83.726 83.446 83.151 82.854 82.579 82.329 82.041 81.784 81.504 81.259 80.984 80.711 80.436 80.201 79.921 79.621 79.349 79.069 78.766 78.476 78.169 77.891 77.594 77.274 76.971 76.664 76.389 76.071 75.809 75.534 75.224 74.951 74.646 74.364 74.076 73.814 73.551 73.259 72.986 72.711 72.456 72.191 71.924 71.664 71.396 71.141 70.886 70.634 70.356 70.079 69.809 69.559 69.279 68.999 68.736 68.469 68.201 67.934 67.674 67.391 67.129 66.854 66.599 66.326 66.071 65.824 65.564 65.329 65.086 64.846 64.616 64.416 64.229 64.036 63.874 63.736 63.581 63.444 63.344 63.209 63.076 62.956 62.829 62.736 62.654 62.636 62.999 63.061 62.229 62.024 61.874 61.761 61.621 61.529 61.419 61.341 61.274 61.176 61.111 60.426 60.954 60.976 60.869 60.744 60.669 60.646 60.649 60.736 60.839 60.924 61.036 61.166 61.299 61.436 61.539 61.621 61.724 61.869 61.969 62.106 62.254 62.379 62.516 62.591 62.706 62.811
84.865 87.387 87.347 84.397 84.547 84.897 85.132 85.695 85.547 85.755 85.91 86.182 86.43 86.597 88.645 87.288 87.245 87.46 87.72 88.768 88.775 88.235 88.42 88.69 89.103 90.115 89.28 89.51 89.813 90.268 90.408 90.86 91.048 91.248 91.338 91.67 91.758 92.833 92.45 92.575 93.34 94.078 93.848 94.088 96.123 95.36 94.745 93.938 94.213 94.745 96.078 97.303 96.355 95.188 95.55 96.788 96.213 96.29 96.39 96.56 96.665 96.835 96.923 97.063 97.24 97.403 97.545 97.745 97.935 98.143 98.323 98.56 98.793 99.048 99.278 99.508 99.79 99.998 100.293 100.55 100.765 101.003 101.233 101.478 101.688 101.895 102.068 102.243 102.413 102.573 102.718 102.903 103.033 103.173 103.31 103.415 103.525 103.678 103.783 103.9 103.998 104.155 104.273 104.378 104.448 104.54 104.675 104.758 104.87 104.955 105.063 105.145 105.21 105.293 105.383 105.445 105.5 105.578 105.665 105.723 105.823 105.863 105.943 106.015 106.093 106.138 106.205 106.263 106.36 106.413 106.435 106.515 106.588 106.65 106.69 106.718 106.783 106.833 106.863 106.89 106.918 106.96 107.02 107.05 107.08 107.07 107.078 107.073 107.08 107.088 107.075 107.063 107.065 107.07 107.058 107.035 107.038 107.055 107.073 107.083 107.078 107.083 107.123 107.138 107.138 107.171 107.176 107.171 107.183 107.186 107.178 107.166 107.161 107.153 107.121 107.101 107.086 107.068 107.023 106.986 106.928 106.901 106.853 106.798 106.741 106.673 106.618 106.551 106.491 106.426 106.358 106.296 106.216 106.146 106.066 105.988 105.918 105.823 105.711 105.621 105.536 105.428 105.321 105.191 105.078 104.968 104.818 104.688 104.573 104.446 104.301 104.158 103.996 103.848 103.711 103.561 103.416 103.238 103.076 102.906 102.746 102.576 102.376 102.208 102.016 101.833 101.648 101.421 101.238 101.043 100.858 100.668 100.478 100.253 100.041 99.863 99.653 99.418 99.176 98.963 98.763 98.523 98.286 98.046 97.771 97.526 97.296 97.023 96.746 96.461 96.231 95.983 95.731 95.451 95.193 94.931 94.648 94.396 94.081 93.856 93.633 93.411 93.211 93.033 92.859 92.631 91.954 91.436 90.929 90.534 89.994 89.286 89.559 90.166 88.724 87.344 86.916 86.649 86.426 86.186 85.919 85.624 85.319 85.031 84.761 84.496 84.214 83.946 83.639 83.319 83.016 82.741 82.496 82.201 81.941 81.649 81.399 81.149 80.861 80.606 80.339 80.079 79.796 79.524 79.239 78.936 78.649 78.334 78.066 77.781 77.471 77.174 76.846 76.554 76.246 75.946 75.664 75.376 75.079 74.799 74.511 74.234 73.961 73.681 73.394 73.116 72.846 72.591 72.306 72.014 71.746 71.501 71.241 70.971 70.709 70.444 70.176 69.916 69.666 69.389 69.101 68.819 68.574 68.279 67.991 67.741 67.466 67.234 66.949 66.679 66.394 66.144 65.901 65.634 65.394 65.164 64.926 64.669 64.459 64.249 64.019 63.829 63.639 63.494 63.326 63.216 63.141 63.044 62.924 62.814 62.686 62.569 62.496 62.451 62.409 62.271 62.139 62.146 61.964 61.934 61.726 61.579 61.469 61.409 61.301 61.306 61.101 61.206 61.081 60.996 60.899 60.864 60.836 60.811 60.901 60.991 61.069 61.184 61.301 61.406 61.554 61.631 61.726 61.854 61.994 62.094 62.236 62.401 62.529 62.679 62.786 62.831 62.939
84.77 84.417 84.515 84.73 85.012 85.287 85.527 85.792 85.94 86.197 87.085 87.395 87.07 87.237 87.873 87.69 92.565 90.358 88.43 88.81 88.855 88.91 89.03 89.203 89.563 89.868 89.865 90.098 90.418 91.263 91.775 91.3 91.618 91.815 91.9 92.655 93.003 92.603 93.443 93.373 93.493 94.093 94.535 94.168 95.243 94.703 94.91 94.925 94.713 97.038 96.575 95.375 95.725 96.013 96.248 96.41 96.51 96.63 96.735 96.865 97.013 97.155 97.305 97.483 97.638 97.793 97.96 98.138 98.358 98.578 98.788 99.013 99.26 99.508 99.753 99.993 100.248 100.483 100.748 101.003 101.25 101.46 101.703 101.915 102.125 102.333 102.485 102.653 102.795 102.938 103.08 103.22 103.358 103.485 103.603 103.718 103.813 103.953 104.068 104.183 104.293 104.405 104.513 104.593 104.705 104.805 104.923 105.02 105.13 105.23 105.345 105.458 105.52 105.613 105.695 105.748 105.835 105.893 105.97 106.063 106.12 106.165 106.245 106.318 106.358 106.435 106.478 106.558 106.623 106.683 106.748 106.803 106.848 106.913 106.975 106.98 107.023 107.078 107.108 107.14 107.17 107.205 107.25 107.313 107.3 107.323 107.34 107.328 107.315 107.33 107.32 107.303 107.278 107.273 107.27 107.283 107.263 107.28 107.278 107.288 107.338 107.305 107.333 107.348 107.358 107.368 107.366 107.361 107.353 107.353 107.338 107.356 107.318 107.303 107.271 107.258 107.236 107.198 107.161 107.151 107.088 107.051 106.991 106.931 106.863 106.798 106.756 106.686 106.633 106.563 106.491 106.426 106.346 106.296 106.198 106.123 106.033 105.946 105.843 105.738 105.636 105.556 105.423 105.298 105.188 105.078 104.961 104.796 104.671 104.548 104.416 104.268 104.098 103.968 103.828 103.666 103.511 103.341 103.198 103.023 102.848 102.688 102.473 102.296 102.118 101.956 101.771 101.521 101.346 101.153 100.933 100.771 100.566 100.353 100.146 99.956 99.733 99.528 99.306 99.063 98.851 98.643 98.416 98.186 97.926 97.666 97.438 97.191 96.896 96.631 96.391 96.146 95.886 95.601 95.341 95.108 94.843 94.556 94.276 94.011 93.788 93.578 93.378 93.181 93.004 92.804 92.349 91.801 91.401 90.951 90.196 89.679 90.739 89.911 88.031 87.599 87.184 86.866 86.644 86.371 86.094 85.816 85.519 85.216 84.939 84.649 84.379 84.124 83.821 83.479 83.169 82.906 82.606 82.331 82.084 81.799 81.539 81.269 81.021 80.749 80.471 80.234 79.951 79.669 79.374 79.104 78.829 78.529 78.241 77.949 77.614 77.341 77.016 76.726 76.431 76.131 75.829 75.531 75.244 74.939 74.641 74.351 74.081 73.794 73.504 73.246 72.971 72.686 72.414 72.139 71.871 71.604 71.346 71.061 70.781 70.519 70.241 69.971 69.734 69.461 69.199 68.916 68.639 68.366 68.096 67.821 67.526 67.291 67.006 66.741 66.489 66.251 65.999 65.739 65.479 65.251 65.001 64.766 64.506 64.276 64.076 63.866 63.664 63.489 63.311 63.161 63.046 62.939 62.864 62.764 62.639 62.571 62.494 62.421 62.341 62.269 62.241 62.319 62.011 61.941 61.819 61.739 61.654 61.511 61.466 61.456 61.374 61.271 61.259 61.144 61.074 60.999 61.001 61.006 61.054 61.129 61.191 61.296 61.411 61.531 61.646 61.726 61.851 61.954 62.076 62.189 62.359 62.519 62.659 62.804 62.916 62.981 63.081
85.582 84.632 84.872 87.03 85.437 85.83 85.987 86.642 86.772 87.132 88.015 87.705 87.677 87.925 88.458 89.113 97.285 89.33 88.885 89.053 89.978 90.578 89.7 92.115 90.313 90.333 90.538 90.86 91.163 91.745 92.463 92.295 92.05 92.275 92.483 92.933 93.188 93.355 94.123 93.82 94.01 94.603 96.298 96.4 95.23 94.995 94.888 95.008 96.665 96.453 95.935 96.168 96.325 96.463 96.603 96.743 96.865 96.99 97.088 97.245 97.363 97.508 97.645 97.86 98.058 98.22 98.405 98.59 98.81 99.038 99.245 99.515 99.733 99.978 100.233 100.483 100.705 100.958 101.218 101.468 101.703 101.913 102.143 102.33 102.543 102.708 102.878 103.023 103.155 103.255 103.373 103.51 103.623 103.733 103.883 103.988 104.08 104.235 104.345 104.448 104.56 104.65 104.753 104.823 104.96 105.085 105.205 105.3 105.403 105.523 105.61 105.725 105.82 105.91 105.993 106.048 106.153 106.248 106.278 106.365 106.45 106.49 106.533 106.603 106.668 106.745 106.803 106.853 106.905 106.96 107.018 107.06 107.113 107.165 107.205 107.245 107.265 107.323 107.378 107.388 107.445 107.463 107.485 107.51 107.543 107.563 107.57 107.56 107.56 107.55 107.56 107.543 107.515 107.51 107.513 107.505 107.505 107.503 107.513 107.51 107.525 107.533 107.53 107.545 107.561 107.541 107.551 107.538 107.528 107.528 107.521 107.513 107.473 107.461 107.438 107.418 107.376 107.343 107.321 107.276 107.238 107.183 107.133 107.053 106.998 106.948 106.883 106.808 106.756 106.681 106.628 106.538 106.473 106.411 106.326 106.231 106.141 106.046 105.966 105.871 105.753 105.648 105.546 105.423 105.286 105.171 105.058 104.916 104.761 104.653 104.543 104.386 104.226 104.058 103.926 103.766 103.613 103.458 103.288 103.141 102.963 102.788 102.596 102.408 102.238 102.048 101.846 101.631 101.433 101.241 101.033 100.861 100.686 100.461 100.263 100.053 99.848 99.628 99.413 99.193 98.976 98.731 98.518 98.286 98.028 97.781 97.548 97.313 97.051 96.798 96.546 96.261 96.033 95.793 95.506 95.258 95.023 94.751 94.458 94.173 93.936 93.753 93.536 93.373 93.184 92.979 92.719 92.254 91.564 91.009 90.571 90.196 90.996 92.109 88.304 87.874 87.544 87.171 86.821 86.569 86.284 86.004 85.701 85.409 85.119 84.829 84.539 84.226 83.941 83.646 83.319 83.026 82.734 82.469 82.224 81.974 81.691 81.434 81.154 80.904 80.639 80.371 80.106 79.799 79.521 79.254 78.979 78.684 78.391 78.104 77.801 77.526 77.201 76.899 76.579 76.301 75.996 75.709 75.399 75.106 74.814 74.521 74.219 73.931 73.651 73.366 73.086 72.786 72.526 72.251 71.984 71.691 71.414 71.146 70.874 70.584 70.306 70.046 69.791 69.496 69.244 68.971 68.701 68.419 68.151 67.881 67.601 67.341 67.059 66.789 66.541 66.309 66.054 65.801 65.554 65.304 65.049 64.801 64.599 64.351 64.154 63.924 63.726 63.519 63.326 63.154 62.996 62.879 62.779 62.701 62.601 62.524 62.454 62.404 62.359 62.306 62.261 62.209 62.139 62.079 61.954 61.924 61.844 61.719 61.719 61.679 61.339 61.241 61.294 61.279 61.226 61.161 61.141 61.174 61.214 61.274 61.326 61.436 61.536 61.644 61.731 61.814 61.941 62.061 62.176 62.299 62.451 62.651 62.781 62.919 62.976 63.139 63.201
86.23 85.255 85.845 87.42 87.587 91.297 87.65 89.927 89.792 87.64 87.88 89.555 88.83 88.8 88.938 89.153 92.198 89.36 89.578 89.73 92.593 90.365 90.298 91.2 90.795 91.058 91.688 92.168 91.778 91.935 92.233 92.498 92.708 92.91 93.255 93.558 93.868 93.968 94.255 94.365 94.733 95.52 95.61 96.338 95.15 96.61 95.745 95.67 96.178 96.265 96.435 96.54 96.64 96.78 96.95 97.063 97.243 97.358 97.473 97.583 97.745 97.913 98.058 98.258 98.463 98.648 98.808 99.025 99.253 99.47 99.733 99.963 100.203 100.46 100.69 100.948 101.195 101.448 101.67 101.91 102.165 102.335 102.543 102.733 102.905 103.033 103.2 103.363 103.463 103.535 103.655 103.815 103.923 104.03 104.155 104.29 104.37 104.5 104.59 104.7 104.793 104.9 105 105.125 105.263 105.355 105.465 105.595 105.68 105.785 105.9 105.988 106.08 106.195 106.283 106.375 106.428 106.508 106.57 106.648 106.743 106.81 106.848 106.91 106.995 107.048 107.093 107.133 107.188 107.24 107.27 107.32 107.353 107.41 107.448 107.515 107.543 107.558 107.613 107.65 107.66 107.683 107.723 107.725 107.768 107.79 107.813 107.798 107.783 107.795 107.778 107.773 107.755 107.755 107.735 107.738 107.738 107.728 107.728 107.735 107.718 107.765 107.748 107.733 107.726 107.713 107.706 107.713 107.701 107.686 107.688 107.658 107.633 107.628 107.576 107.543 107.518 107.471 107.451 107.413 107.358 107.323 107.246 107.196 107.156 107.081 107.028 106.948 106.868 106.813 106.746 106.673 106.581 106.516 106.433 106.348 106.258 106.161 106.083 105.978 105.853 105.773 105.641 105.533 105.396 105.288 105.146 104.996 104.863 104.743 104.613 104.468 104.318 104.143 104.003 103.866 103.698 103.558 103.378 103.218 103.063 102.903 102.713 102.501 102.336 102.138 101.943 101.756 101.551 101.333 101.131 100.956 100.766 100.558 100.363 100.148 99.928 99.733 99.516 99.296 99.096 98.861 98.623 98.413 98.163 97.913 97.683 97.438 97.171 96.938 96.683 96.428 96.183 95.943 95.653 95.391 95.151 94.898 94.636 94.338 94.098 93.896 93.701 93.506 93.304 93.099 92.916 92.771 91.861 92.604 91.701 90.686 89.669 89.109 88.924 89.041 88.666 87.404 87.109 86.769 86.476 86.201 85.919 85.609 85.296 85.006 84.689 84.394 84.074 83.776 83.494 83.189 82.894 82.619 82.361 82.106 81.854 81.584 81.326 81.061 80.794 80.524 80.249 79.969 79.689 79.391 79.109 78.851 78.554 78.284 77.961 77.664 77.361 77.076 76.774 76.479 76.164 75.874 75.546 75.234 74.951 74.671 74.361 74.066 73.799 73.499 73.204 72.894 72.629 72.346 72.051 71.779 71.506 71.244 70.941 70.659 70.399 70.124 69.839 69.566 69.279 69.004 68.706 68.461 68.179 67.901 67.626 67.376 67.116 66.841 66.574 66.351 66.104 65.866 65.596 65.374 65.126 64.891 64.654 64.424 64.211 63.981 63.789 63.596 63.401 63.211 63.006 62.896 62.756 62.681 62.579 62.464 62.381 62.324 62.289 62.269 62.241 62.201 62.159 62.141 62.081 62.094 62.051 61.961 61.909 62.051 61.694 61.224 61.299 61.356 61.359 61.329 61.279 61.279 61.346 61.459 61.516 61.574 61.661 61.731 61.811 61.906 62.014 62.131 62.244 62.411 62.551 62.721 62.874 62.996 63.066 63.214 63.331
86.365 85.302 85.797 89.095 87.54 92.095 88.662 90.6 90.317 90.677 88.575 88.8 88.88 89.162 89.363 91.038 91.07 90.433 91.875 90.48 90.665 91.068 90.965 91.468 91.565 91.81 92.223 92.33 92.448 92.653 92.89 93.043 93.52 93.79 93.915 94.8 94.943 94.455 95.093 94.858 95.018 95.463 95.543 95.405 97.018 98.65 97.645 96.315 96.498 96.603 96.74 96.878 97.035 97.155 97.29 97.435 97.573 97.66 97.803 97.968 98.178 98.293 98.468 98.653 98.853 99.06 99.26 99.475 99.723 99.928 100.17 100.44 100.693 100.933 101.19 101.438 101.683 101.928 102.16 102.33 102.55 102.753 102.92 103.065 103.203 103.35 103.513 103.625 103.745 103.835 103.938 104.073 104.173 104.27 104.393 104.52 104.61 104.745 104.855 104.953 105.078 105.183 105.295 105.413 105.553 105.638 105.748 105.875 105.955 106.065 106.175 106.273 106.37 106.455 106.575 106.653 106.743 106.8 106.895 106.945 107.023 107.1 107.19 107.233 107.285 107.328 107.398 107.45 107.47 107.515 107.56 107.588 107.615 107.655 107.68 107.743 107.798 107.83 107.863 107.865 107.89 107.938 107.95 107.973 107.973 108 108.02 108.048 108.028 108.02 108.01 107.99 107.985 107.988 107.978 107.948 107.953 107.95 107.94 107.938 107.945 107.945 107.938 107.943 107.921 107.898 107.896 107.903 107.886 107.853 107.846 107.813 107.786 107.768 107.721 107.703 107.656 107.601 107.571 107.523 107.486 107.436 107.378 107.341 107.286 107.211 107.121 107.066 107.003 106.936 106.858 106.776 106.711 106.616 106.533 106.448 106.368 106.268 106.186 106.081 105.958 105.883 105.731 105.593 105.501 105.386 105.248 105.101 104.958 104.826 104.706 104.536 104.418 104.233 104.108 103.956 103.816 103.633 103.458 103.303 103.143 102.993 102.791 102.603 102.391 102.208 102.043 101.833 101.621 101.433 101.238 101.036 100.831 100.641 100.431 100.241 100.018 99.833 99.606 99.403 99.183 98.983 98.723 98.496 98.281 98.038 97.796 97.548 97.301 97.053 96.798 96.558 96.318 96.063 95.791 95.528 95.306 95.056 94.776 94.493 94.251 94.036 93.833 93.656 93.434 93.236 92.981 92.561 92.039 91.869 96.741 91.564 89.596 89.576 89.206 89.549 89.004 87.659 87.301 86.991 86.664 86.384 86.119 85.806 85.504 85.179 84.879 84.556 84.229 83.916 83.621 83.359 83.059 82.759 82.521 82.254 81.994 81.741 81.489 81.206 80.916 80.664 80.404 80.109 79.824 79.551 79.259 78.989 78.684 78.421 78.139 77.844 77.551 77.236 76.941 76.629 76.319 76.011 75.706 75.399 75.104 74.799 74.479 74.191 73.909 73.614 73.331 73.054 72.749 72.436 72.151 71.859 71.569 71.291 71.019 70.726 70.449 70.181 69.894 69.606 69.331 69.076 68.761 68.476 68.191 67.916 67.651 67.404 67.146 66.864 66.596 66.371 66.129 65.904 65.636 65.416 65.179 64.926 64.699 64.469 64.261 64.019 63.821 63.629 63.446 63.269 63.084 62.949 62.809 62.681 62.541 62.439 62.351 62.281 62.204 62.176 62.164 62.139 62.141 62.134 62.136 62.129 62.126 62.076 62.086 62.474 62.541 61.634 61.344 61.381 61.454 61.489 61.499 61.439 61.494 61.546 61.641 61.696 61.786 61.851 61.916 62.031 62.114 62.201 62.361 62.504 62.659 62.831 62.991 63.084 63.184 63.296 63.454
87.782 86.077 88.445 89.467 90.847 94.572 92.605 88.042 88.962 90.535 89.795 89.32 89.555 89.85 90.025 95.465 94.045 91.665 93.617 91.145 93.472 92.892 93.162 92.49 92.312 94.755 93.13 93.112 93.227 93.452 93.592 93.81 94.565 94.86 94.807 97.622 96.827 95.352 96.522 95.59 95.205 96.742 97.28 95.98 96.54 96.515 96.555 96.682 96.82 96.96 97.117 97.2 97.37 97.495 97.627 97.75 97.905 98.055 98.185 98.345 98.535 98.725 98.872 99.075 99.275 99.518 99.743 99.953 100.193 100.408 100.643 100.918 101.163 101.408 101.66 101.908 102.123 102.358 102.58 102.753 102.95 103.11 103.263 103.393 103.518 103.64 103.788 103.915 104.01 104.125 104.253 104.35 104.458 104.548 104.665 104.775 104.88 104.998 105.12 105.24 105.38 105.515 105.618 105.695 105.815 105.933 106.035 106.125 106.233 106.345 106.438 106.535 106.665 106.765 106.848 106.923 107.008 107.085 107.175 107.253 107.305 107.383 107.483 107.545 107.59 107.64 107.675 107.718 107.768 107.79 107.818 107.85 107.908 107.92 107.928 107.993 108.045 108.075 108.11 108.093 108.13 108.16 108.185 108.195 108.198 108.203 108.248 108.253 108.26 108.238 108.243 108.23 108.228 108.223 108.2 108.18 108.18 108.165 108.155 108.175 108.155 108.133 108.123 108.103 108.106 108.086 108.066 108.056 108.048 108.011 107.991 107.961 107.923 107.896 107.858 107.818 107.791 107.736 107.676 107.643 107.593 107.543 107.493 107.451 107.393 107.331 107.266 107.188 107.136 107.063 106.973 106.893 106.811 106.718 106.646 106.531 106.443 106.373 106.288 106.178 106.058 105.966 105.831 105.708 105.571 105.468 105.316 105.193 105.048 104.916 104.788 104.633 104.486 104.333 104.186 104.031 103.888 103.708 103.541 103.373 103.208 103.033 102.853 102.661 102.483 102.281 102.093 101.921 101.723 101.516 101.338 101.136 100.921 100.736 100.541 100.323 100.121 99.921 99.693 99.503 99.278 99.071 98.833 98.603 98.368 98.138 97.923 97.668 97.431 97.183 96.921 96.658 96.413 96.183 95.928 95.646 95.406 95.178 94.933 94.648 94.403 94.171 93.961 93.776 93.551 93.343 93.043 92.636 92.256 92.618 90.686 90.226 90.223 89.778 89.153 88.516 88.066 87.851 87.548 87.246 86.931 86.533 86.236 85.983 85.691 85.386 85.051 84.751 84.436 84.103 83.778 83.491 83.218 82.938 82.676 82.396 82.126 81.876 81.623 81.368 81.106 80.818 80.561 80.273 79.978 79.691 79.413 79.131 78.836 78.551 78.283 77.986 77.711 77.391 77.093 76.793 76.453 76.166 75.841 75.516 75.233 74.948 74.631 74.341 74.048 73.711 73.431 73.138 72.843 72.586 72.273 71.968 71.678 71.386 71.083 70.781 70.503 70.208 69.938 69.663 69.381 69.101 68.808 68.501 68.233 67.963 67.673 67.396 67.148 66.881 66.626 66.386 66.131 65.893 65.653 65.428 65.186 64.956 64.731 64.518 64.281 64.078 63.891 63.673 63.504 63.339 63.161 63.011 62.869 62.729 62.591 62.456 62.334 62.259 62.189 62.131 62.119 62.109 62.121 62.116 62.106 62.141 62.151 62.129 62.099 62.086 62.089 62.484 62.444 61.521 61.499 61.551 61.606 61.631 61.654 61.681 61.696 61.756 61.859 61.969 62.064 62.144 62.206 62.306 62.469 62.604 62.749 62.944 63.091 63.159 63.286 63.416 63.576
87.082 86.755 88.217 89.442 89.86 88.172 88.37 88.705 89.092 90.452 89.692 89.825 90.185 90.642 91.955 94.28 92.332 91.562 91.587 91.917 94.485 93.415 92.66 95.257 95.852 100.132 94.182 93.787 94.017 94.172 94.215 94.532 95.41 95.265 95.085 98.407 95.517 95.16 95.58 95.89 96.727 101.037 102.32 96.78 96.662 96.75 96.895 97.052 97.172 97.322 97.46 97.57 97.697 97.807 97.94 98.11 98.277 98.462 98.587 98.745 98.947 99.142 99.337 99.507 99.703 99.933 100.17 100.393 100.633 100.9 101.135 101.373 101.633 101.895 102.125 102.36 102.565 102.748 102.953 103.115 103.283 103.43 103.58 103.703 103.815 103.93 104.053 104.143 104.273 104.393 104.485 104.578 104.715 104.843 104.923 105.025 105.163 105.27 105.4 105.528 105.668 105.765 105.888 105.995 106.103 106.225 106.305 106.43 106.498 106.62 106.72 106.81 106.933 107.04 107.12 107.183 107.25 107.345 107.445 107.52 107.605 107.68 107.75 107.828 107.885 107.94 107.97 108.01 108.048 108.098 108.118 108.11 108.155 108.198 108.208 108.213 108.268 108.305 108.343 108.34 108.35 108.363 108.393 108.405 108.41 108.42 108.455 108.453 108.485 108.483 108.468 108.468 108.438 108.415 108.425 108.448 108.408 108.373 108.383 108.368 108.355 108.333 108.308 108.288 108.273 108.268 108.226 108.213 108.216 108.163 108.131 108.118 108.073 108.036 108.001 107.953 107.921 107.868 107.806 107.761 107.708 107.661 107.621 107.566 107.513 107.451 107.398 107.323 107.251 107.163 107.068 107.006 106.903 106.836 106.733 106.641 106.543 106.446 106.376 106.263 106.146 106.031 105.921 105.793 105.671 105.536 105.401 105.273 105.128 104.998 104.856 104.718 104.553 104.398 104.256 104.096 103.948 103.776 103.603 103.438 103.291 103.101 102.923 102.746 102.548 102.351 102.178 101.991 101.783 101.621 101.401 101.216 101.028 100.808 100.618 100.411 100.206 100.003 99.788 99.558 99.341 99.148 98.921 98.701 98.463 98.231 97.998 97.803 97.563 97.276 97.028 96.771 96.506 96.268 96.023 95.761 95.513 95.283 95.048 94.781 94.553 94.296 94.111 93.896 93.646 93.376 93.126 95.108 98.246 92.198 90.916 91.036 90.671 89.853 89.153 88.503 88.128 88.006 87.753 87.756 87.146 86.838 86.553 86.108 85.838 85.556 85.243 84.913 84.608 84.278 83.958 83.673 83.391 83.116 82.838 82.578 82.286 82.013 81.768 81.506 81.238 80.966 80.703 80.403 80.128 79.841 79.553 79.241 78.966 78.681 78.421 78.136 77.856 77.563 77.258 76.956 76.626 76.316 75.993 75.678 75.351 75.028 74.731 74.421 74.141 73.826 73.543 73.253 72.933 72.653 72.341 72.038 71.768 71.483 71.203 70.881 70.581 70.268 69.978 69.676 69.408 69.126 68.831 68.546 68.288 68.001 67.703 67.433 67.161 66.911 66.638 66.378 66.163 65.903 65.671 65.461 65.216 64.993 64.788 64.561 64.321 64.108 63.903 63.721 63.544 63.359 63.186 63.036 62.901 62.756 62.631 62.491 62.389 62.291 62.191 62.119 62.099 62.074 62.094 62.081 62.089 62.136 62.136 62.139 62.154 62.136 62.121 62.149 62.199 61.996 61.751 61.684 61.694 61.731 61.766 61.769 61.816 61.866 61.936 62.039 62.151 62.239 62.334 62.459 62.619 62.736 62.866 63.029 63.181 63.266 63.416 63.551 63.641
87.05 87.57 89.347 95.967 92.2 89.072 89.05 89.437 89.752 90.012 90.202 90.36 90.61 91.817 94.465 91.757 91.977 92.887 92.647 92.722 94.657 93.685 94.082 95.657 96.022 95.275 94.81 95.537 94.592 94.625 97.807 95.207 94.95 95.037 95.437 97.235 95.457 95.575 96.747 97.567 97.372 97.872 96.872 96.86 96.967 97.115 97.28 97.402 97.54 97.662 97.78 97.902 98.042 98.197 98.352 98.492 98.657 98.817 98.98 99.152 99.342 99.537 99.757 99.977 100.185 100.393 100.628 100.91 101.128 101.388 101.633 101.868 102.115 102.328 102.555 102.773 102.973 103.168 103.323 103.488 103.603 103.728 103.875 103.985 104.11 104.215 104.303 104.423 104.528 104.62 104.718 104.835 104.965 105.078 105.175 105.308 105.42 105.545 105.67 105.805 105.925 106.043 106.163 106.26 106.408 106.505 106.613 106.715 106.805 106.915 106.98 107.085 107.205 107.308 107.383 107.475 107.518 107.618 107.728 107.818 107.878 107.95 108.035 108.08 108.16 108.24 108.278 108.31 108.348 108.398 108.403 108.4 108.415 108.47 108.478 108.478 108.508 108.535 108.563 108.563 108.583 108.598 108.62 108.603 108.623 108.633 108.638 108.675 108.685 108.69 108.69 108.685 108.653 108.63 108.628 108.655 108.613 108.6 108.593 108.57 108.548 108.543 108.503 108.47 108.463 108.443 108.388 108.371 108.351 108.321 108.288 108.256 108.221 108.181 108.126 108.086 108.033 107.961 107.911 107.883 107.823 107.766 107.718 107.671 107.606 107.528 107.481 107.436 107.368 107.268 107.183 107.116 106.998 106.916 106.838 106.738 106.641 106.531 106.433 106.338 106.211 106.096 105.988 105.858 105.741 105.608 105.476 105.376 105.223 105.048 104.913 104.768 104.621 104.471 104.306 104.166 104.031 103.881 103.691 103.518 103.346 103.148 102.986 102.801 102.633 102.436 102.258 102.073 101.871 101.666 101.473 101.286 101.096 100.893 100.681 100.478 100.298 100.081 99.876 99.651 99.423 99.236 99.016 98.806 98.571 98.336 98.111 97.898 97.643 97.386 97.123 96.868 96.601 96.328 96.096 95.863 95.623 95.381 95.158 94.918 94.661 94.443 94.243 94.011 93.721 93.408 93.136 93.303 93.898 91.388 91.658 91.576 90.833 90.016 89.306 88.806 88.278 88.233 88.138 88.648 87.591 87.058 86.736 86.448 85.991 85.696 85.383 85.078 84.773 84.463 84.166 83.846 83.548 83.261 83.018 82.756 82.466 82.191 81.923 81.668 81.401 81.103 80.831 80.551 80.243 79.971 79.668 79.383 79.108 78.831 78.541 78.261 77.983 77.686 77.386 77.078 76.758 76.488 76.156 75.813 75.501 75.178 74.871 74.558 74.258 73.938 73.636 73.313 73.028 72.738 72.438 72.131 71.856 71.546 71.243 70.951 70.633 70.348 70.053 69.741 69.426 69.161 68.873 68.573 68.283 68.018 67.743 67.471 67.201 66.926 66.648 66.396 66.151 65.918 65.688 65.451 65.231 64.996 64.786 64.583 64.348 64.136 63.953 63.763 63.571 63.381 63.216 63.094 62.926 62.781 62.671 62.544 62.434 62.334 62.256 62.184 62.124 62.079 62.074 62.071 62.051 62.071 62.089 62.094 62.111 62.146 62.156 62.189 62.216 62.236 62.254 62.109 61.936 61.836 61.851 61.866 61.954 61.981 62.024 62.104 62.204 62.321 62.444 62.596 62.734 62.889 62.999 63.149 63.271 63.381 63.556 63.666 63.749
88.332 91.075 89.465 91.702 94.792 89.485 89.715 90.02 90.32 90.462 90.625 90.805 91.052 91.302 91.64 91.992 92.305 92.577 93.562 93.22 93.51 94.067 94.545 94.495 95.442 94.83 94.935 94.902 95.11 95.032 101.86 96.385 95.45 95.602 96.612 97.115 96.702 96.63 96.605 96.722 96.835 96.937 97.05 97.197 97.34 97.505 97.627 97.74 97.85 97.98 98.14 98.28 98.417 98.557 98.7 98.865 99.057 99.215 99.4 99.58 99.785 99.97 100.197 100.43 100.65 100.875 101.108 101.373 101.643 101.87 102.1 102.335 102.543 102.765 102.96 103.165 103.365 103.528 103.638 103.788 103.958 104.058 104.153 104.278 104.355 104.468 104.583 104.698 104.768 104.89 105 105.098 105.225 105.333 105.448 105.57 105.708 105.828 105.97 106.108 106.228 106.343 106.47 106.57 106.665 106.78 106.895 107.003 107.085 107.193 107.27 107.353 107.438 107.558 107.655 107.743 107.815 107.895 107.988 108.09 108.143 108.243 108.285 108.348 108.425 108.458 108.565 108.595 108.63 108.655 108.678 108.705 108.703 108.713 108.72 108.725 108.76 108.79 108.8 108.818 108.815 108.833 108.843 108.82 108.835 108.84 108.86 108.885 108.88 108.883 108.895 108.87 108.878 108.855 108.82 108.84 108.828 108.788 108.775 108.77 108.73 108.723 108.688 108.655 108.626 108.591 108.551 108.538 108.513 108.473 108.446 108.396 108.338 108.296 108.246 108.188 108.166 108.096 108.036 107.986 107.908 107.851 107.828 107.761 107.698 107.638 107.586 107.521 107.456 107.361 107.268 107.198 107.106 107.023 106.911 106.813 106.721 106.621 106.511 106.396 106.306 106.186 106.056 105.926 105.806 105.661 105.551 105.423 105.286 105.128 105.003 104.811 104.683 104.526 104.361 104.236 104.091 103.928 103.766 103.583 103.413 103.218 103.046 102.886 102.681 102.496 102.311 102.133 101.918 101.731 101.543 101.353 101.176 100.978 100.766 100.558 100.353 100.151 99.936 99.696 99.491 99.296 99.066 98.868 98.636 98.411 98.183 97.958 97.726 97.478 97.231 96.948 96.676 96.423 96.178 95.943 95.698 95.466 95.273 95.041 94.781 94.578 94.336 94.086 93.776 93.366 92.831 92.488 92.113 91.791 91.853 91.658 90.996 90.488 89.636 89.596 88.491 88.318 88.898 88.723 88.251 87.916 87.131 86.651 86.341 85.866 85.543 85.241 84.938 84.611 84.326 84.018 83.708 83.431 83.156 82.926 82.656 82.363 82.071 81.801 81.533 81.273 80.991 80.718 80.411 80.136 79.838 79.541 79.226 78.958 78.656 78.378 78.096 77.803 77.498 77.198 76.901 76.588 76.263 75.943 75.626 75.313 74.988 74.688 74.373 74.078 73.743 73.403 73.088 72.786 72.478 72.208 71.913 71.603 71.288 70.988 70.683 70.371 70.093 69.791 69.506 69.193 68.916 68.596 68.333 68.038 67.733 67.451 67.193 66.928 66.668 66.423 66.156 65.918 65.673 65.431 65.213 65.016 64.768 64.563 64.358 64.156 63.958 63.768 63.591 63.434 63.254 63.116 62.956 62.831 62.671 62.566 62.466 62.389 62.294 62.226 62.179 62.124 62.104 62.064 62.046 62.021 62.064 62.076 62.061 62.064 62.099 62.151 62.214 62.231 62.274 62.324 62.336 62.204 62.071 62.009 62.071 62.131 62.181 62.239 62.269 62.394 62.509 62.669 62.809 62.996 63.174 63.306 63.411 63.496 63.646 63.774 63.846
90.73 92.695 90.917 94.885 90.637 90.965 92.027 93.87 95.992 92.77 92.035 91.467 91.972 93.1 92.447 93.047 93.11 93.692 95.995 94.89 94.257 94.642 95.285 95.682 95.332 95.22 95.37 95.897 96.005 95.71 98.155 95.75 95.75 96.237 96.165 97.07 96.87 96.842 96.912 97.03 97.175 97.287 97.427 97.587 97.715 97.865 97.935 98.047 98.192 98.342 98.492 98.652 98.78 98.957 99.1 99.275 99.465 99.64 99.81 100.007 100.197 100.407 100.65 100.857 101.115 101.36 101.588 101.84 102.093 102.33 102.555 102.785 102.965 103.173 103.355 103.505 103.683 103.853 103.995 104.105 104.198 104.333 104.44 104.538 104.655 104.748 104.853 104.953 105.035 105.158 105.253 105.37 105.495 105.603 105.728 105.858 105.988 106.108 106.245 106.37 106.515 106.62 106.733 106.84 106.943 107.078 107.168 107.288 107.368 107.47 107.553 107.645 107.72 107.815 107.918 108.035 108.073 108.168 108.258 108.315 108.395 108.473 108.54 108.615 108.658 108.73 108.81 108.848 108.903 108.955 108.978 108.973 108.98 108.998 109.005 108.995 109.015 109.03 109.053 109.055 109.055 109.048 109.048 109.058 109.055 109.04 109.058 109.085 109.063 109.09 109.08 109.073 109.083 109.045 109.035 109.023 109.015 109.003 108.963 108.948 108.925 108.895 108.85 108.835 108.796 108.763 108.723 108.711 108.671 108.606 108.563 108.513 108.476 108.393 108.366 108.296 108.248 108.206 108.158 108.091 108.018 107.968 107.923 107.858 107.798 107.741 107.668 107.601 107.531 107.468 107.366 107.263 107.178 107.096 107.011 106.898 106.803 106.681 106.583 106.466 106.353 106.228 106.106 105.986 105.861 105.726 105.581 105.471 105.326 105.183 105.051 104.891 104.741 104.588 104.421 104.281 104.131 103.976 103.813 103.658 103.448 103.281 103.101 102.951 102.758 102.576 102.373 102.183 102.001 101.778 101.586 101.416 101.228 101.033 100.833 100.623 100.443 100.261 100.033 99.773 99.558 99.361 99.126 98.911 98.698 98.491 98.261 98.016 97.783 97.538 97.301 97.028 96.768 96.511 96.268 96.013 95.766 95.538 95.358 95.148 94.896 94.648 94.398 94.116 93.821 93.388 93.001 93.328 92.706 92.118 91.933 91.813 91.426 91.336 90.658 91.138 89.103 88.478 88.336 88.028 87.876 87.788 87.383 87.296 86.741 86.216 85.713 85.368 85.096 84.776 84.473 84.166 83.898 83.608 83.321 83.041 82.796 82.533 82.221 81.938 81.673 81.398 81.126 80.866 80.593 80.301 79.973 79.683 79.406 79.091 78.786 78.491 78.198 77.893 77.601 77.293 76.988 76.706 76.393 76.061 75.751 75.393 75.101 74.771 74.468 74.156 73.841 73.521 73.188 72.871 72.553 72.238 71.928 71.636 71.351 71.043 70.736 70.461 70.143 69.861 69.551 69.248 68.926 68.638 68.383 68.088 67.806 67.498 67.211 66.918 66.631 66.406 66.141 65.913 65.686 65.453 65.243 65.016 64.801 64.568 64.376 64.183 63.966 63.793 63.634 63.461 63.281 63.129 63.004 62.851 62.709 62.589 62.484 62.376 62.316 62.259 62.211 62.164 62.144 62.116 62.109 62.061 62.049 62.064 62.056 62.054 62.079 62.096 62.149 62.226 62.271 62.314 62.379 62.464 62.526 62.434 62.296 62.259 62.299 62.361 62.414 62.479 62.539 62.686 62.871 63.076 63.259 63.429 63.531 63.671 63.751 63.849 63.924
88.897 89.14 89.957 90.245 90.225 90.657 92.54 91.797 91.627 91.71 91.98 92.427 92.687 93.107 93.192 94.342 94.4 94.222 94.765 96.31 94.847 95.042 95.357 96.675 96.217 95.595 98.12 96.807 96.485 98.937 97.487 98.2 96.61 96.757 96.832 96.94 97.027 97.135 97.262 97.402 97.515 97.655 97.795 97.927 98.035 98.13 98.262 98.407 98.562 98.702 98.85 98.987 99.155 99.315 99.482 99.66 99.842 100.032 100.232 100.417 100.655 100.897 101.117 101.365 101.588 101.843 102.093 102.295 102.548 102.783 102.995 103.203 103.38 103.535 103.7 103.86 103.985 104.13 104.27 104.408 104.503 104.595 104.705 104.833 104.928 105.003 105.115 105.23 105.33 105.428 105.523 105.615 105.758 105.873 106 106.13 106.26 106.38 106.525 106.66 106.78 106.88 107.03 107.135 107.25 107.375 107.445 107.543 107.64 107.75 107.833 107.903 108 108.095 108.193 108.288 108.348 108.433 108.503 108.575 108.66 108.725 108.78 108.858 108.915 108.97 109.038 109.09 109.158 109.208 109.228 109.24 109.248 109.27 109.285 109.275 109.283 109.293 109.3 109.305 109.3 109.305 109.273 109.278 109.275 109.253 109.25 109.268 109.258 109.26 109.248 109.255 109.248 109.23 109.22 109.215 109.195 109.183 109.143 109.113 109.108 109.065 109.023 108.98 108.946 108.928 108.883 108.841 108.801 108.736 108.708 108.631 108.611 108.538 108.463 108.423 108.353 108.311 108.253 108.198 108.133 108.063 108.021 107.946 107.908 107.828 107.753 107.681 107.606 107.536 107.436 107.356 107.278 107.178 107.086 106.978 106.858 106.726 106.646 106.528 106.416 106.281 106.168 106.023 105.898 105.763 105.661 105.523 105.376 105.223 105.093 104.948 104.791 104.631 104.468 104.328 104.201 104.033 103.853 103.673 103.503 103.343 103.163 102.981 102.796 102.613 102.436 102.256 102.053 101.868 101.666 101.466 101.276 101.098 100.911 100.683 100.483 100.293 100.071 99.853 99.613 99.398 99.196 98.961 98.766 98.556 98.333 98.103 97.861 97.611 97.368 97.116 96.863 96.608 96.361 96.101 95.838 95.626 95.431 95.226 94.983 94.738 94.451 94.141 93.813 93.448 93.233 93.026 92.586 92.248 92.078 92.001 91.786 91.371 90.661 91.858 89.143 88.646 88.436 88.651 89.048 88.986 87.868 87.453 87.458 86.758 85.978 85.576 85.213 84.938 84.628 84.323 84.036 83.756 83.473 83.186 82.916 82.673 82.376 82.063 81.808 81.521 81.236 80.968 80.721 80.421 80.131 79.836 79.548 79.246 78.943 78.636 78.311 78.003 77.686 77.401 77.091 76.771 76.476 76.153 75.826 75.518 75.186 74.868 74.531 74.226 73.908 73.566 73.271 72.941 72.628 72.328 72.021 71.696 71.366 71.038 70.763 70.446 70.143 69.863 69.566 69.278 68.953 68.673 68.403 68.106 67.818 67.551 67.273 66.968 66.663 66.403 66.133 65.901 65.656 65.458 65.208 64.998 64.806 64.583 64.376 64.193 64.013 63.818 63.636 63.481 63.319 63.171 63.049 62.899 62.769 62.634 62.524 62.446 62.364 62.301 62.256 62.231 62.184 62.161 62.166 62.131 62.089 62.079 62.074 62.066 62.081 62.119 62.124 62.189 62.274 62.324 62.404 62.484 62.549 62.634 62.739 62.636 62.504 62.486 62.541 62.616 62.674 62.754 62.919 63.114 63.299 63.476 63.644 63.786 63.889 63.941 63.956
89.825 89.937 90.17 90.592 90.717 90.945 91.31 91.53 91.725 92.15 93.22 94.132 93.33 95.922 94.04 94.257 94.475 96.287 95.892 95.29 95.93 95.315 96.65 100.037 96.28 96.04 98.305 100.172 96.95 97.625 99.062 97.457 96.89 97.02 97.12 97.245 97.38 97.515 97.632 97.762 97.905 98.005 98.112 98.215 98.365 98.515 98.622 98.782 98.945 99.08 99.25 99.372 99.537 99.697 99.845 100.055 100.26 100.467 100.682 100.9 101.13 101.34 101.582 101.832 102.075 102.308 102.55 102.778 102.973 103.195 103.393 103.543 103.733 103.883 104.048 104.163 104.29 104.393 104.533 104.678 104.765 104.865 105.008 105.098 105.185 105.265 105.375 105.518 105.618 105.695 105.808 105.928 106.04 106.16 106.288 106.408 106.535 106.655 106.788 106.935 107.06 107.193 107.31 107.415 107.52 107.603 107.718 107.838 107.948 108.028 108.108 108.198 108.303 108.378 108.45 108.545 108.618 108.7 108.783 108.815 108.89 108.988 109.065 109.108 109.175 109.228 109.283 109.325 109.4 109.443 109.488 109.503 109.533 109.553 109.558 109.563 109.548 109.545 109.533 109.53 109.525 109.51 109.515 109.493 109.49 109.463 109.465 109.458 109.443 109.435 109.41 109.43 109.415 109.41 109.393 109.388 109.368 109.343 109.31 109.278 109.265 109.218 109.193 109.153 109.111 109.078 109.023 108.981 108.956 108.891 108.828 108.763 108.726 108.638 108.578 108.523 108.466 108.406 108.348 108.298 108.236 108.176 108.111 108.066 107.986 107.923 107.853 107.776 107.683 107.628 107.526 107.436 107.358 107.228 107.126 107.051 106.936 106.803 106.691 106.596 106.453 106.326 106.203 106.081 105.951 105.803 105.678 105.571 105.423 105.276 105.138 105.011 104.833 104.683 104.528 104.388 104.221 104.066 103.901 103.726 103.563 103.396 103.213 103.041 102.848 102.646 102.483 102.311 102.108 101.931 101.728 101.556 101.343 101.141 100.946 100.731 100.528 100.338 100.128 99.901 99.666 99.473 99.241 99.023 98.801 98.576 98.346 98.161 97.958 97.681 97.433 97.181 96.941 96.696 96.461 96.213 95.941 95.728 95.541 95.323 95.066 94.803 94.511 94.161 93.836 93.533 93.253 92.916 92.621 92.413 92.333 92.016 91.971 91.716 91.223 91.713 90.701 89.053 88.553 88.408 88.228 87.778 87.786 87.703 87.086 86.636 86.213 85.833 85.443 85.058 84.786 84.483 84.191 83.908 83.631 83.336 83.053 82.776 82.538 82.263 81.976 81.686 81.406 81.138 80.848 80.561 80.293 79.978 79.671 79.396 79.093 78.786 78.466 78.153 77.826 77.516 77.186 76.856 76.536 76.223 75.923 75.591 75.271 74.908 74.608 74.273 73.963 73.643 73.298 73.001 72.671 72.353 72.038 71.748 71.431 71.128 70.803 70.461 70.141 69.828 69.551 69.288 68.993 68.691 68.411 68.126 67.833 67.591 67.301 67.026 66.738 66.451 66.171 65.908 65.711 65.468 65.211 64.986 64.791 64.576 64.396 64.176 64.016 63.843 63.679 63.506 63.339 63.189 63.041 62.906 62.791 62.659 62.559 62.484 62.411 62.339 62.306 62.254 62.211 62.211 62.194 62.196 62.146 62.139 62.116 62.106 62.111 62.131 62.179 62.204 62.256 62.329 62.421 62.506 62.579 62.669 62.726 62.819 62.914 62.836 62.749 62.754 62.816 62.909 63.046 63.169 63.359 63.516 63.711 63.864 63.936 63.994 64.039
89.715 90.825 90.707 91.052 91.05 91.28 91.585 91.847 92.042 92.31 92.652 93.007 93.822 94.132 94.135 94.892 95.247 96.05 96.657 97.127 97.492 95.98 96.832 96.905 96.187 96.287 97.785 101.27 98.06 96.872 96.92 97.057 97.212 97.32 97.48 97.59 97.73 97.88 97.987 98.082 98.212 98.325 98.457 98.59 98.732 98.882 99 99.16 99.322 99.47 99.637 99.79 99.932 100.102 100.275 100.475 100.695 100.925 101.15 101.38 101.605 101.827 102.06 102.317 102.54 102.77 103 103.208 103.398 103.585 103.743 103.908 104.07 104.2 104.348 104.455 104.57 104.658 104.79 104.925 105.053 105.16 105.263 105.365 105.465 105.568 105.663 105.785 105.9 106.003 106.118 106.235 106.315 106.435 106.578 106.708 106.833 106.95 107.08 107.21 107.35 107.48 107.62 107.713 107.785 107.883 107.993 108.083 108.205 108.308 108.4 108.478 108.54 108.643 108.745 108.828 108.883 108.955 109.063 109.083 109.125 109.22 109.308 109.353 109.408 109.46 109.523 109.563 109.623 109.683 109.708 109.738 109.765 109.803 109.818 109.818 109.805 109.795 109.77 109.775 109.755 109.748 109.74 109.703 109.688 109.685 109.653 109.643 109.635 109.623 109.615 109.608 109.615 109.585 109.585 109.573 109.548 109.513 109.49 109.453 109.443 109.39 109.358 109.32 109.271 109.213 109.153 109.133 109.086 109.011 108.941 108.888 108.843 108.758 108.696 108.633 108.563 108.533 108.441 108.371 108.328 108.278 108.241 108.153 108.096 108.018 107.936 107.858 107.771 107.683 107.593 107.483 107.416 107.306 107.176 107.076 106.963 106.861 106.748 106.633 106.503 106.376 106.261 106.108 105.998 105.861 105.716 105.598 105.488 105.338 105.181 105.041 104.891 104.743 104.603 104.406 104.253 104.113 103.941 103.758 103.611 103.438 103.271 103.086 102.898 102.703 102.533 102.353 102.161 101.951 101.776 101.568 101.386 101.193 100.981 100.788 100.561 100.361 100.166 99.948 99.726 99.511 99.308 99.076 98.843 98.626 98.406 98.186 97.986 97.756 97.501 97.246 97.011 96.763 96.536 96.298 96.053 95.831 95.626 95.393 95.113 94.818 94.553 94.183 93.853 93.553 93.236 92.921 92.708 92.511 92.331 92.068 92.178 91.931 91.818 92.063 91.246 90.796 89.281 88.531 88.341 88.363 87.996 88.041 87.733 86.793 87.373 86.011 85.616 85.226 84.888 84.593 84.316 84.031 83.781 83.473 83.196 82.886 82.651 82.416 82.108 81.826 81.543 81.286 80.983 80.726 80.453 80.126 79.833 79.521 79.221 78.928 78.598 78.286 77.968 77.626 77.306 76.961 76.638 76.301 75.988 75.661 75.333 74.983 74.656 74.321 74.006 73.691 73.361 73.056 72.743 72.406 72.088 71.743 71.441 71.136 70.816 70.503 70.208 69.883 69.566 69.266 68.968 68.686 68.396 68.123 67.856 67.588 67.308 67.036 66.763 66.491 66.198 65.958 65.721 65.491 65.253 65.038 64.788 64.583 64.396 64.193 64.021 63.881 63.699 63.549 63.389 63.226 63.101 62.944 62.801 62.696 62.601 62.516 62.426 62.389 62.344 62.314 62.269 62.241 62.254 62.226 62.221 62.184 62.199 62.174 62.176 62.186 62.234 62.266 62.311 62.351 62.404 62.484 62.564 62.674 62.756 62.824 62.929 62.976 63.096 63.066 63.421 63.334 63.199 63.344 63.476 63.604 63.734 63.826 63.961 64.024 65.186
90.31 91.13 91.177 91.322 91.5 91.625 91.882 92.215 95.197 93.58 93.177 94.73 96.93 94.185 94.955 94.667 95.015 96.407 96.225 96.08 96.07 98.22 97.577 97.41 97.917 96.932 96.772 98.99 97.135 97.062 97.235 97.387 97.532 97.67 97.807 97.962 98.072 98.172 98.3 98.45 98.59 98.717 98.84 98.977 99.105 99.265 99.42 99.542 99.68 99.85 100.017 100.17 100.365 100.54 100.725 100.922 101.15 101.38 101.605 101.84 102.087 102.335 102.56 102.762 102.973 103.208 103.415 103.61 103.775 103.95 104.108 104.24 104.385 104.505 104.618 104.735 104.848 104.948 105.065 105.193 105.325 105.425 105.515 105.62 105.75 105.833 105.963 106.058 106.185 106.288 106.38 106.503 106.62 106.75 106.87 106.995 107.108 107.24 107.378 107.505 107.658 107.77 107.865 107.96 108.083 108.173 108.253 108.36 108.488 108.57 108.648 108.748 108.823 108.913 108.99 109.063 109.14 109.198 109.25 109.335 109.39 109.458 109.498 109.593 109.658 109.678 109.723 109.783 109.823 109.85 109.94 109.97 110.01 110.038 110.073 110.085 110.053 110.033 110.03 110.05 110.003 109.985 109.973 109.925 109.928 109.913 109.86 109.855 109.825 109.81 109.82 109.81 109.795 109.778 109.765 109.753 109.735 109.695 109.67 109.628 109.585 109.558 109.51 109.473 109.426 109.371 109.303 109.251 109.213 109.143 109.081 109.021 108.953 108.883 108.816 108.746 108.661 108.618 108.561 108.496 108.443 108.393 108.333 108.276 108.198 108.131 108.033 107.956 107.858 107.761 107.666 107.548 107.458 107.341 107.228 107.116 107.021 106.896 106.778 106.661 106.546 106.411 106.291 106.153 106.038 105.928 105.763 105.626 105.511 105.383 105.211 105.068 104.933 104.793 104.648 104.468 104.306 104.156 104.006 103.821 103.651 103.461 103.298 103.141 102.958 102.751 102.571 102.383 102.206 102.006 101.803 101.628 101.426 101.228 101.036 100.796 100.596 100.396 100.191 99.993 99.761 99.546 99.318 99.091 98.886 98.671 98.446 98.211 97.998 97.806 97.556 97.291 97.068 96.826 96.608 96.388 96.156 95.931 95.686 95.408 95.138 94.846 94.538 94.211 93.903 93.591 93.291 92.986 92.718 92.491 92.283 92.051 91.881 91.791 91.751 91.696 92.103 91.756 90.706 89.161 88.366 88.128 87.756 87.696 87.413 87.353 87.193 86.283 85.778 85.453 85.108 84.718 84.423 84.161 83.868 83.601 83.343 83.056 82.758 82.486 82.253 81.988 81.691 81.398 81.126 80.823 80.553 80.263 79.976 79.683 79.373 79.063 78.748 78.413 78.086 77.746 77.431 77.088 76.723 76.401 76.051 75.731 75.383 75.051 74.701 74.363 74.046 73.708 73.371 73.066 72.766 72.436 72.128 71.783 71.468 71.131 70.836 70.503 70.191 69.896 69.588 69.303 68.996 68.708 68.396 68.108 67.831 67.591 67.306 67.043 66.766 66.516 66.248 65.983 65.733 65.496 65.271 65.058 64.826 64.623 64.451 64.243 64.041 63.883 63.704 63.574 63.411 63.279 63.124 62.989 62.846 62.731 62.629 62.571 62.496 62.456 62.374 62.344 62.321 62.304 62.274 62.264 62.254 62.241 62.239 62.241 62.294 62.309 62.309 62.326 62.361 62.434 62.461 62.529 62.584 62.656 62.761 62.866 62.959 63.034 63.114 63.214 63.351 63.979 64.446 64.286 63.766 63.681 63.754 63.824 63.901 64.019 64.859
91.002 91.167 91.39 91.595 91.87 92.047 92.45 93.962 97.687 96.52 95.235 95.932 95.627 95.222 95.84 96.562 97.905 96.18 96.452 96.21 96.445 96.472 96.565 96.642 96.787 96.915 97.035 97.147 97.285 97.415 97.585 97.717 97.867 98.002 98.14 98.252 98.402 98.56 98.687 98.825 98.982 99.132 99.2 99.337 99.5 99.625 99.79 99.935 100.09 100.252 100.422 100.605 100.79 100.977 101.185 101.415 101.632 101.877 102.105 102.34 102.555 102.802 103.02 103.22 103.418 103.623 103.82 104.003 104.145 104.318 104.425 104.55 104.668 104.785 104.903 105.008 105.133 105.243 105.365 105.46 105.588 105.685 105.795 105.91 106.04 106.115 106.243 106.343 106.455 106.578 106.685 106.823 106.928 107.033 107.158 107.298 107.398 107.528 107.663 107.8 107.91 108.033 108.145 108.24 108.358 108.47 108.553 108.645 108.743 108.82 108.92 108.993 109.073 109.17 109.26 109.338 109.385 109.473 109.518 109.585 109.648 109.7 109.765 109.813 109.858 109.918 109.968 110.005 110.048 110.063 110.123 110.183 110.218 110.258 110.293 110.29 110.298 110.305 110.27 110.253 110.24 110.205 110.18 110.173 110.14 110.13 110.085 110.068 110.035 110.01 110.013 109.998 109.97 109.958 109.93 109.93 109.888 109.873 109.848 109.783 109.755 109.713 109.653 109.605 109.563 109.546 109.453 109.401 109.318 109.268 109.198 109.131 109.053 109.006 108.923 108.833 108.741 108.698 108.643 108.593 108.573 108.478 108.418 108.363 108.318 108.251 108.141 108.046 107.936 107.823 107.721 107.598 107.498 107.373 107.278 107.148 107.056 106.956 106.826 106.688 106.563 106.463 106.328 106.186 106.068 105.938 105.821 105.673 105.526 105.401 105.261 105.096 104.951 104.816 104.658 104.513 104.343 104.178 104.013 103.833 103.686 103.491 103.341 103.156 102.963 102.776 102.591 102.393 102.248 102.038 101.838 101.641 101.461 101.251 101.058 100.836 100.638 100.446 100.208 100.003 99.813 99.578 99.351 99.146 98.913 98.701 98.468 98.246 98.036 97.828 97.608 97.373 97.138 96.906 96.706 96.486 96.233 95.988 95.721 95.438 95.136 94.846 94.513 94.271 93.941 93.686 93.403 93.133 92.836 92.516 92.233 92.018 91.838 91.706 91.603 91.506 91.316 91.026 91.398 90.531 88.766 88.236 87.881 87.613 88.136 87.738 87.201 86.438 86.133 85.623 85.286 84.923 84.513 84.258 83.986 83.713 83.443 83.171 82.908 82.588 82.326 82.096 81.838 81.521 81.246 80.968 80.688 80.373 80.078 79.796 79.481 79.168 78.861 78.528 78.196 77.868 77.536 77.186 76.843 76.486 76.138 75.803 75.446 75.106 74.763 74.423 74.068 73.746 73.428 73.076 72.776 72.436 72.108 71.761 71.488 71.163 70.856 70.523 70.223 69.878 69.578 69.288 68.993 68.711 68.418 68.143 67.878 67.573 67.298 67.033 66.758 66.511 66.258 65.986 65.738 65.493 65.283 65.066 64.858 64.648 64.458 64.293 64.088 63.888 63.756 63.609 63.439 63.281 63.156 63.021 62.921 62.794 62.684 62.614 62.546 62.466 62.411 62.381 62.351 62.324 62.331 62.311 62.291 62.311 62.316 62.324 62.336 62.371 62.399 62.426 62.454 62.524 62.556 62.626 62.651 62.696 62.769 62.849 62.959 63.064 63.151 63.234 63.314 63.464 64.039 65.174 64.576 64.454 63.841 63.869 63.904 63.969 64.954
91.627 91.472 91.725 91.902 92.225 92.757 93.637 93.4 94.48 94.682 94.857 95.787 95.49 96.727 96.697 96.187 96.267 96.292 96.395 96.485 96.622 96.715 96.802 96.947 97.075 97.2 97.357 97.465 97.592 97.745 97.897 98.032 98.172 98.315 98.487 98.637 98.79 98.93 99.075 99.265 99.37 99.515 99.6 99.715 99.875 100.007 100.157 100.31 100.46 100.677 100.852 101.042 101.237 101.432 101.645 101.897 102.115 102.362 102.595 102.8 103.022 103.225 103.44 103.655 103.838 104.028 104.173 104.343 104.503 104.633 104.738 104.848 104.963 105.08 105.17 105.273 105.418 105.508 105.605 105.71 105.84 105.973 106.063 106.183 106.29 106.393 106.51 106.635 106.753 106.868 106.983 107.095 107.198 107.338 107.453 107.593 107.7 107.81 107.953 108.075 108.185 108.3 108.42 108.515 108.593 108.708 108.798 108.875 108.973 109.085 109.165 109.25 109.335 109.425 109.51 109.59 109.628 109.718 109.78 109.833 109.868 109.938 109.98 110.03 110.093 110.13 110.188 110.233 110.265 110.308 110.343 110.368 110.42 110.475 110.5 110.503 110.515 110.535 110.523 110.495 110.465 110.453 110.433 110.408 110.388 110.345 110.31 110.29 110.243 110.22 110.213 110.173 110.193 110.153 110.108 110.085 110.06 110.03 110.01 109.95 109.908 109.863 109.813 109.768 109.713 109.641 109.571 109.531 109.461 109.371 109.318 109.246 109.168 109.106 109.018 108.936 108.883 108.793 108.758 108.693 108.661 108.593 108.516 108.458 108.413 108.368 108.253 108.146 108.028 107.903 107.768 107.643 107.546 107.386 107.301 107.188 107.076 106.961 106.866 106.731 106.628 106.491 106.353 106.228 106.101 105.953 105.826 105.701 105.551 105.401 105.263 105.136 104.993 104.831 104.698 104.528 104.371 104.221 104.036 103.873 103.698 103.528 103.353 103.156 102.988 102.806 102.608 102.418 102.251 102.061 101.876 101.661 101.461 101.268 101.066 100.886 100.638 100.438 100.238 100.036 99.816 99.591 99.386 99.143 98.941 98.726 98.506 98.286 98.076 97.866 97.638 97.416 97.218 96.971 96.741 96.536 96.313 96.031 95.731 95.416 95.141 94.838 94.533 94.243 93.933 93.673 93.473 93.183 92.898 92.631 92.316 92.051 91.756 91.561 91.443 91.321 91.251 91.123 91.626 91.176 90.183 88.313 87.941 87.798 87.611 87.241 87.026 87.001 86.511 86.446 85.558 85.108 84.716 84.351 84.068 83.811 83.558 83.288 83.023 82.736 82.451 82.206 81.963 81.678 81.378 81.096 80.806 80.511 80.201 79.908 79.601 79.276 78.968 78.626 78.326 77.971 77.641 77.286 76.926 76.586 76.226 75.873 75.513 75.153 74.771 74.441 74.106 73.758 73.421 73.116 72.783 72.451 72.111 71.801 71.466 71.151 70.838 70.523 70.206 69.893 69.611 69.303 68.988 68.693 68.413 68.136 67.863 67.611 67.313 67.048 66.763 66.503 66.241 65.971 65.746 65.518 65.263 65.038 64.866 64.643 64.461 64.263 64.106 63.943 63.784 63.621 63.479 63.321 63.171 63.056 62.954 62.849 62.751 62.636 62.616 62.531 62.464 62.416 62.386 62.379 62.359 62.351 62.366 62.389 62.381 62.404 62.426 62.449 62.474 62.534 62.571 62.616 62.656 62.716 62.744 62.804 62.844 62.884 62.954 63.046 63.171 63.244 63.386 63.476 63.564 63.699 64.499 65.509 65.034 64.481 64.351 65.066 65.096
91.977 91.777 92.007 92.582 94.492 93.09 93.77 94.857 96.492 97.317 96.067 95.505 96.745 96.035 96.035 96.19 96.34 96.452 96.567 96.71 96.84 96.96 97.125 97.27 97.395 97.542 97.682 97.797 97.947 98.062 98.19 98.385 98.542 98.705 98.867 99.022 99.175 99.332 99.48 99.602 99.727 99.897 100.037 100.122 100.277 100.435 100.585 100.745 100.922 101.115 101.297 101.505 101.68 101.895 102.132 102.362 102.587 102.83 103.062 103.262 103.467 103.672 103.85 104.042 104.24 104.39 104.505 104.645 104.785 104.928 105.033 105.14 105.253 105.36 105.468 105.595 105.688 105.773 105.878 105.985 106.108 106.22 106.32 106.463 106.578 106.678 106.778 106.933 107.07 107.153 107.26 107.39 107.498 107.625 107.763 107.88 108.005 108.105 108.23 108.365 108.458 108.56 108.675 108.788 108.883 108.955 109.065 109.15 109.255 109.348 109.438 109.485 109.6 109.653 109.738 109.83 109.918 109.97 110.023 110.09 110.13 110.163 110.233 110.255 110.32 110.37 110.403 110.463 110.495 110.54 110.565 110.573 110.598 110.648 110.7 110.713 110.72 110.75 110.738 110.718 110.708 110.678 110.67 110.66 110.605 110.563 110.53 110.498 110.465 110.445 110.385 110.38 110.373 110.338 110.293 110.248 110.245 110.2 110.163 110.093 110.055 110.008 109.935 109.915 109.846 109.786 109.711 109.633 109.591 109.506 109.428 109.358 109.271 109.213 109.118 109.033 108.983 108.893 108.846 108.781 108.726 108.683 108.616 108.573 108.486 108.413 108.341 108.206 108.111 107.973 107.826 107.683 107.551 107.436 107.303 107.196 107.088 106.983 106.871 106.741 106.631 106.513 106.383 106.253 106.131 106.001 105.853 105.718 105.576 105.423 105.268 105.151 105.013 104.868 104.706 104.536 104.378 104.243 104.063 103.876 103.726 103.551 103.373 103.168 102.998 102.808 102.636 102.451 102.251 102.068 101.883 101.678 101.488 101.301 101.078 100.861 100.663 100.453 100.243 100.028 99.828 99.596 99.413 99.166 98.948 98.753 98.546 98.313 98.093 97.896 97.686 97.463 97.236 97.036 96.793 96.553 96.306 96.041 95.718 95.381 95.121 94.858 94.513 94.261 93.958 93.726 93.488 93.223 92.933 92.638 92.358 92.096 91.843 91.583 91.348 91.151 91.056 90.938 90.766 90.878 90.561 90.386 89.038 88.021 87.766 87.856 87.841 87.248 86.786 86.926 85.841 85.206 84.873 84.526 84.198 83.913 83.661 83.383 83.111 82.856 82.571 82.306 82.038 81.803 81.503 81.213 80.923 80.618 80.298 79.996 79.708 79.358 79.066 78.716 78.411 78.063 77.711 77.381 77.006 76.658 76.308 75.931 75.576 75.208 74.821 74.491 74.131 73.781 73.423 73.098 72.768 72.456 72.118 71.781 71.443 71.128 70.801 70.506 70.173 69.876 69.588 69.326 69.031 68.718 68.426 68.146 67.866 67.578 67.288 67.036 66.778 66.516 66.256 65.996 65.743 65.483 65.288 65.048 64.858 64.651 64.478 64.313 64.116 63.958 63.819 63.654 63.511 63.361 63.239 63.114 62.999 62.906 62.826 62.739 62.664 62.614 62.526 62.489 62.459 62.424 62.424 62.406 62.439 62.439 62.429 62.486 62.499 62.511 62.574 62.616 62.661 62.719 62.781 62.814 62.869 62.919 62.954 62.979 63.026 63.059 63.151 63.239 63.381 63.474 63.576 63.719 63.809 64.011 64.626 65.506 65.549 65.599 64.279
95.852 93.802 98.25 93.34 93.22 93.26 96.635 100.05 98.277 95.84 96.5 95.712 95.92 96.1 96.242 96.387 96.575 96.73 96.87 97.032 97.132 97.277 97.442 97.56 97.707 97.852 97.977 98.095 98.26 98.422 98.595 98.78 98.942 99.09 99.252 99.4 99.582 99.737 99.862 100.017 100.107 100.23 100.357 100.515 100.675 100.817 101.007 101.19 101.362 101.567 101.762 101.93 102.135 102.357 102.607 102.825 103.077 103.27 103.487 103.687 103.88 104.052 104.255 104.417 104.588 104.705 104.843 104.958 105.093 105.205 105.33 105.42 105.533 105.653 105.753 105.855 105.925 106.025 106.133 106.29 106.385 106.475 106.605 106.723 106.838 106.973 107.063 107.2 107.338 107.44 107.58 107.678 107.793 107.928 108.038 108.15 108.28 108.415 108.513 108.623 108.718 108.815 108.94 109.03 109.1 109.193 109.31 109.393 109.513 109.595 109.683 109.753 109.84 109.885 109.993 110.078 110.135 110.19 110.255 110.315 110.388 110.42 110.468 110.495 110.55 110.583 110.633 110.66 110.713 110.738 110.763 110.788 110.793 110.81 110.845 110.908 110.91 110.898 110.918 110.93 110.905 110.905 110.875 110.86 110.838 110.798 110.748 110.71 110.698 110.643 110.628 110.59 110.568 110.523 110.465 110.42 110.398 110.348 110.308 110.268 110.218 110.163 110.11 110.048 109.973 109.911 109.841 109.773 109.693 109.616 109.556 109.458 109.378 109.311 109.218 109.123 109.061 108.988 108.936 108.858 108.801 108.773 108.696 108.626 108.543 108.483 108.381 108.263 108.176 108.011 107.866 107.738 107.586 107.453 107.321 107.203 107.108 106.986 106.868 106.763 106.633 106.531 106.393 106.268 106.148 106.016 105.866 105.703 105.603 105.456 105.296 105.146 105.001 104.883 104.748 104.561 104.396 104.241 104.081 103.876 103.691 103.551 103.371 103.218 103.018 102.838 102.651 102.463 102.268 102.066 101.888 101.698 101.496 101.293 101.086 100.856 100.641 100.421 100.238 100.041 99.836 99.613 99.413 99.218 99.001 98.801 98.571 98.371 98.138 97.936 97.731 97.508 97.276 97.021 96.778 96.511 96.308 96.046 95.678 95.373 95.088 94.831 94.528 94.273 94.031 93.768 93.543 93.231 92.951 92.643 92.401 92.118 91.856 91.626 91.391 91.178 90.951 90.738 90.623 90.481 90.668 90.406 90.553 88.181 88.078 88.376 88.131 87.598 86.706 86.128 85.893 85.356 85.006 84.691 84.341 84.008 83.758 83.488 83.236 82.958 82.691 82.406 82.148 81.886 81.623 81.331 80.993 80.723 80.388 80.093 79.786 79.458 79.143 78.813 78.486 78.143 77.788 77.433 77.078 76.716 76.373 75.976 75.603 75.226 74.873 74.531 74.166 73.796 73.451 73.068 72.753 72.426 72.091 71.778 71.443 71.126 70.821 70.498 70.168 69.891 69.561 69.286 68.978 68.691 68.426 68.138 67.871 67.588 67.328 67.038 66.741 66.488 66.238 66.013 65.748 65.513 65.271 65.043 64.846 64.653 64.478 64.326 64.148 64.003 63.856 63.701 63.554 63.411 63.284 63.169 63.074 62.966 62.856 62.791 62.731 62.669 62.634 62.581 62.531 62.506 62.476 62.489 62.489 62.534 62.529 62.541 62.594 62.654 62.684 62.731 62.779 62.859 62.911 62.966 63.011 63.034 63.079 63.089 63.119 63.186 63.224 63.261 63.336 63.461 63.601 63.716 63.854 63.969 64.064 64.261 64.876 64.516 64.324
92.99 93.647 94.917 93.572 95.732 95.2 99.152 98.167 95.06 95.397 95.652 95.882 96.065 96.31 96.547 96.752 96.932 97.072 97.195 97.332 97.432 97.582 97.717 97.877 98.017 98.167 98.307 98.482 98.655 98.797 98.975 99.132 99.305 99.467 99.647 99.792 99.935 100.067 100.205 100.35 100.475 100.6 100.752 100.912 101.105 101.26 101.45 101.637 101.825 102 102.235 102.437 102.612 102.837 103.065 103.3 103.5 103.727 103.947 104.107 104.302 104.45 104.62 104.78 104.918 105.043 105.163 105.263 105.383 105.488 105.603 105.695 105.805 105.928 106.018 106.108 106.208 106.295 106.425 106.55 106.648 106.76 106.88 106.978 107.128 107.235 107.348 107.46 107.59 107.73 107.858 107.975 108.068 108.218 108.315 108.423 108.555 108.688 108.778 108.868 109 109.093 109.223 109.308 109.39 109.47 109.553 109.648 109.76 109.83 109.905 109.983 110.058 110.14 110.225 110.313 110.373 110.428 110.498 110.543 110.588 110.645 110.68 110.745 110.778 110.815 110.845 110.903 110.923 110.953 110.98 110.97 111.005 110.998 111.005 111.06 111.075 111.088 111.103 111.105 111.098 111.093 111.098 111.065 111.03 111.013 110.973 110.958 110.92 110.855 110.833 110.803 110.748 110.7 110.658 110.613 110.563 110.523 110.46 110.42 110.36 110.303 110.223 110.168 110.096 110.011 109.941 109.881 109.801 109.711 109.648 109.563 109.468 109.393 109.308 109.236 109.146 109.053 108.998 108.926 108.893 108.831 108.756 108.681 108.591 108.516 108.408 108.271 108.196 108.068 107.876 107.783 107.593 107.473 107.346 107.221 107.106 106.988 106.878 106.753 106.636 106.518 106.386 106.253 106.148 106.021 105.871 105.728 105.586 105.463 105.313 105.153 105.018 104.868 104.743 104.593 104.398 104.211 104.086 103.898 103.693 103.528 103.353 103.191 103.013 102.843 102.636 102.456 102.263 102.073 101.873 101.681 101.491 101.273 101.073 100.853 100.636 100.416 100.226 100.028 99.843 99.626 99.416 99.221 99.008 98.806 98.591 98.358 98.146 97.941 97.726 97.496 97.266 97.013 96.753 96.486 96.228 95.986 95.668 95.336 95.098 94.858 94.583 94.326 94.028 93.783 93.548 93.258 92.973 92.693 92.438 92.158 91.868 91.616 91.368 91.151 90.948 90.751 90.526 90.336 90.221 91.976 90.333 88.461 88.708 88.631 88.381 87.641 86.916 86.533 86.006 85.578 85.156 84.811 84.481 84.173 83.856 83.588 83.328 83.063 82.798 82.538 82.278 81.981 81.703 81.423 81.123 80.813 80.481 80.178 79.881 79.546 79.221 78.888 78.536 78.186 77.848 77.486 77.133 76.758 76.403 76.018 75.636 75.271 74.893 74.523 74.158 73.816 73.451 73.083 72.748 72.411 72.086 71.763 71.443 71.103 70.791 70.471 70.193 69.876 69.588 69.263 68.971 68.671 68.416 68.128 67.853 67.558 67.306 67.038 66.753 66.516 66.263 65.986 65.761 65.526 65.316 65.098 64.906 64.686 64.513 64.301 64.158 64.026 63.874 63.736 63.601 63.449 63.346 63.231 63.126 63.054 62.964 62.866 62.819 62.764 62.666 62.644 62.661 62.611 62.586 62.599 62.594 62.591 62.614 62.654 62.684 62.741 62.816 62.841 62.896 62.941 63.019 63.081 63.156 63.171 63.246 63.239 63.266 63.279 63.316 63.366 63.396 63.454 63.581 63.684 63.836 63.951 64.061 64.171 64.236 64.299 64.341
98.1 98.007 96.605 95.145 96.032 97.21 95.852 95.152 95.39 95.597 95.872 96.165 96.442 96.705 96.902 97.052 97.217 97.36 97.472 97.625 97.75 97.925 98.092 98.24 98.382 98.567 98.705 98.88 99.067 99.227 99.347 99.505 99.665 99.835 100.012 100.155 100.325 100.462 100.565 100.727 100.862 101.027 101.16 101.322 101.545 101.695 101.895 102.05 102.25 102.47 102.66 102.907 103.11 103.312 103.512 103.73 103.945 104.142 104.322 104.505 104.677 104.815 104.95 105.08 105.23 105.34 105.433 105.535 105.645 105.753 105.87 105.945 106.055 106.178 106.265 106.373 106.465 106.563 106.67 106.798 106.92 107.035 107.17 107.258 107.398 107.503 107.62 107.745 107.865 107.973 108.11 108.258 108.355 108.46 108.6 108.728 108.86 108.938 109.048 109.153 109.24 109.338 109.453 109.548 109.628 109.74 109.825 109.905 109.988 110.078 110.15 110.218 110.29 110.355 110.468 110.533 110.6 110.635 110.703 110.768 110.835 110.865 110.893 110.975 111.013 111.015 111.048 111.093 111.128 111.128 111.165 111.18 111.198 111.203 111.22 111.218 111.22 111.253 111.268 111.273 111.293 111.303 111.275 111.263 111.243 111.225 111.185 111.163 111.153 111.088 111.058 110.99 110.948 110.898 110.84 110.785 110.728 110.67 110.623 110.555 110.515 110.435 110.358 110.288 110.216 110.131 110.056 109.971 109.906 109.828 109.741 109.658 109.563 109.473 109.388 109.286 109.216 109.153 109.096 108.991 108.936 108.876 108.796 108.726 108.646 108.526 108.433 108.313 108.218 108.063 107.891 107.778 107.608 107.476 107.353 107.223 107.093 106.966 106.858 106.728 106.616 106.513 106.376 106.248 106.118 105.988 105.861 105.711 105.586 105.431 105.303 105.146 105.018 104.856 104.718 104.553 104.381 104.218 104.056 103.863 103.693 103.526 103.328 103.166 103.008 102.836 102.633 102.443 102.258 102.068 101.871 101.696 101.463 101.266 101.078 100.868 100.661 100.421 100.216 100.001 99.843 99.638 99.408 99.216 99.018 98.816 98.598 98.381 98.146 97.926 97.711 97.471 97.241 96.983 96.708 96.443 96.191 95.898 95.616 95.383 95.093 94.841 94.611 94.321 94.073 93.766 93.548 93.268 93.026 92.778 92.506 92.216 91.903 91.651 91.391 91.141 90.928 90.721 90.528 90.331 90.081 90.318 90.098 88.853 90.328 88.423 88.468 88.008 87.028 86.261 86.273 85.703 85.426 84.896 84.606 84.283 84.006 83.686 83.428 83.171 82.896 82.638 82.368 82.061 81.786 81.476 81.218 80.903 80.586 80.241 79.963 79.608 79.281 78.963 78.618 78.256 77.893 77.516 77.161 76.793 76.416 76.061 75.663 75.296 74.913 74.521 74.178 73.808 73.433 73.083 72.723 72.373 72.073 71.753 71.428 71.106 70.791 70.471 70.163 69.858 69.551 69.271 68.996 68.706 68.396 68.106 67.823 67.531 67.286 66.991 66.728 66.473 66.211 65.986 65.743 65.511 65.296 65.093 64.891 64.733 64.551 64.346 64.178 64.008 63.881 63.784 63.621 63.509 63.406 63.276 63.184 63.106 62.999 62.951 62.906 62.866 62.786 62.741 62.729 62.686 62.689 62.699 62.686 62.709 62.691 62.751 62.771 62.814 62.879 62.949 63.026 63.081 63.136 63.201 63.256 63.286 63.364 63.409 63.421 63.441 63.481 63.481 63.519 63.569 63.611 63.684 63.781 63.909 64.039 64.146 64.251 64.289 64.349
97.647 99.247 95.987 94.855 94.845 94.92 95.125 95.362 95.632 95.937 96.242 96.512 96.815 97.02 97.205 97.37 97.517 97.685 97.84 97.99 98.145 98.287 98.457 98.64 98.792 98.93 99.11 99.257 99.432 99.58 99.717 99.855 100.042 100.202 100.38 100.492 100.662 100.81 100.955 101.112 101.277 101.425 101.58 101.752 101.955 102.132 102.347 102.515 102.702 102.935 103.17 103.35 103.53 103.737 103.95 104.145 104.352 104.53 104.715 104.865 105.005 105.137 105.252 105.36 105.488 105.603 105.725 105.795 105.903 106.01 106.11 106.223 106.31 106.445 106.513 106.638 106.73 106.85 106.965 107.07 107.205 107.333 107.445 107.548 107.658 107.788 107.893 108.008 108.138 108.263 108.403 108.533 108.64 108.728 108.858 108.988 109.098 109.2 109.29 109.43 109.523 109.635 109.71 109.813 109.893 109.985 110.075 110.168 110.225 110.295 110.39 110.45 110.51 110.6 110.673 110.75 110.818 110.873 110.933 110.99 111.035 111.088 111.138 111.183 111.213 111.253 111.263 111.298 111.31 111.35 111.353 111.38 111.365 111.41 111.405 111.403 111.39 111.42 111.42 111.44 111.448 111.448 111.46 111.448 111.425 111.398 111.403 111.383 111.368 111.335 111.278 111.208 111.145 111.075 111.04 110.953 110.905 110.835 110.79 110.705 110.635 110.575 110.505 110.418 110.328 110.281 110.171 110.081 110.016 109.941 109.833 109.746 109.668 109.553 109.463 109.378 109.283 109.203 109.146 109.041 108.983 108.928 108.848 108.743 108.658 108.538 108.441 108.323 108.181 108.066 107.901 107.763 107.606 107.451 107.338 107.218 107.088 106.966 106.871 106.726 106.598 106.491 106.366 106.231 106.088 105.978 105.846 105.668 105.556 105.431 105.273 105.136 105.011 104.856 104.668 104.526 104.368 104.203 104.041 103.838 103.676 103.493 103.328 103.143 102.968 102.818 102.616 102.418 102.233 102.061 101.871 101.643 101.448 101.246 101.051 100.861 100.646 100.421 100.233 99.993 99.818 99.631 99.416 99.218 99.003 98.801 98.573 98.356 98.128 97.896 97.658 97.428 97.168 96.931 96.656 96.353 96.078 95.863 95.603 95.363 95.093 94.851 94.601 94.331 94.076 93.801 93.531 93.313 93.068 92.798 92.533 92.256 91.966 91.698 91.416 91.143 90.908 90.683 90.478 90.313 90.071 89.838 89.611 89.208 89.206 89.663 88.971 88.023 88.103 86.908 86.236 86.008 85.386 85.028 84.818 84.508 84.138 83.798 83.508 83.251 83.008 82.731 82.473 82.176 81.863 81.553 81.253 80.983 80.666 80.338 80.013 79.666 79.341 79.028 78.656 78.303 77.933 77.538 77.186 76.798 76.431 76.068 75.663 75.298 74.908 74.521 74.171 73.801 73.433 73.056 72.701 72.366 71.998 71.698 71.386 71.068 70.778 70.466 70.153 69.838 69.533 69.246 68.953 68.693 68.411 68.121 67.823 67.513 67.261 66.988 66.711 66.451 66.198 65.973 65.743 65.548 65.323 65.121 64.911 64.728 64.536 64.358 64.228 64.073 63.936 63.814 63.666 63.544 63.449 63.361 63.266 63.179 63.111 63.034 62.986 62.949 62.909 62.856 62.829 62.776 62.771 62.789 62.799 62.796 62.804 62.826 62.876 62.941 62.981 63.064 63.106 63.171 63.249 63.306 63.376 63.429 63.471 63.536 63.579 63.631 63.644 63.644 63.659 63.699 63.729 63.791 63.851 63.924 64.014 64.134 64.249 64.314 64.354
98.802 95.192 94.597 94.737 94.932 95.12 95.395 95.697 96 96.277 96.59 96.855 97.112 97.317 97.502 97.69 97.885 98.065 98.217 98.392 98.525 98.705 98.852 99.01 99.172 99.32 99.51 99.677 99.827 99.947 100.105 100.257 100.412 100.555 100.732 100.87 101.022 101.18 101.342 101.497 101.655 101.835 102.017 102.187 102.385 102.587 102.792 103.002 103.195 103.392 103.62 103.817 104 104.177 104.342 104.535 104.74 104.897 105.052 105.177 105.31 105.432 105.547 105.637 105.743 105.863 105.955 106.043 106.15 106.25 106.363 106.478 106.575 106.66 106.77 106.893 107.015 107.123 107.23 107.378 107.49 107.59 107.7 107.813 107.918 108.065 108.185 108.278 108.435 108.528 108.635 108.763 108.883 109.013 109.125 109.24 109.36 109.453 109.555 109.668 109.768 109.863 109.97 110.085 110.145 110.238 110.303 110.405 110.475 110.555 110.623 110.678 110.75 110.828 110.905 110.958 111.033 111.098 111.14 111.208 111.24 111.3 111.348 111.393 111.425 111.445 111.455 111.508 111.51 111.54 111.543 111.568 111.563 111.585 111.583 111.6 111.59 111.573 111.565 111.593 111.613 111.605 111.62 111.625 111.613 111.585 111.558 111.553 111.555 111.543 111.488 111.418 111.36 111.285 111.218 111.153 111.09 111.005 110.933 110.855 110.775 110.703 110.62 110.528 110.466 110.391 110.288 110.181 110.106 110.018 109.923 109.826 109.738 109.631 109.536 109.458 109.351 109.278 109.188 109.096 109.018 108.961 108.883 108.753 108.656 108.538 108.438 108.318 108.188 108.051 107.888 107.746 107.601 107.466 107.316 107.181 107.073 106.953 106.826 106.718 106.568 106.451 106.328 106.196 106.066 105.933 105.791 105.663 105.548 105.398 105.263 105.108 104.948 104.806 104.646 104.501 104.341 104.178 104.001 103.828 103.648 103.471 103.313 103.113 102.938 102.786 102.601 102.401 102.201 102.036 101.841 101.638 101.433 101.223 101.008 100.821 100.633 100.428 100.206 100.006 99.816 99.603 99.406 99.203 98.998 98.791 98.561 98.343 98.106 97.853 97.603 97.338 97.083 96.848 96.596 96.293 96.058 95.801 95.546 95.321 95.103 94.848 94.611 94.358 94.073 93.793 93.571 93.321 93.078 92.831 92.558 92.261 91.961 91.723 91.478 91.161 90.908 90.661 90.421 90.246 90.036 89.783 89.541 89.316 89.263 89.096 89.018 87.906 87.968 87.738 86.601 86.036 85.413 85.093 84.861 84.686 84.316 83.961 83.638 83.348 83.101 82.831 82.556 82.251 81.968 81.641 81.318 81.016 80.758 80.428 80.071 79.718 79.388 79.051 78.698 78.333 77.946 77.566 77.193 76.818 76.423 76.061 75.666 75.298 74.901 74.518 74.128 73.766 73.408 73.063 72.688 72.368 71.961 71.633 71.326 71.013 70.718 70.421 70.143 69.843 69.518 69.251 68.938 68.673 68.368 68.093 67.781 67.516 67.236 66.983 66.726 66.451 66.208 65.958 65.746 65.533 65.318 65.123 64.926 64.761 64.561 64.411 64.263 64.081 63.961 63.841 63.719 63.601 63.509 63.406 63.329 63.266 63.201 63.126 63.091 63.049 62.991 62.969 62.951 62.899 62.876 62.901 62.871 62.866 62.921 62.949 63.001 63.039 63.096 63.149 63.201 63.261 63.336 63.394 63.474 63.516 63.589 63.624 63.699 63.721 63.784 63.834 63.844 63.854 63.846 63.886 63.929 64.019 64.096 64.154 64.254 64.311 64.349
94.567 94.66 94.795 94.987 95.215 95.485 95.755 96.087 96.36 96.64 96.912 97.175 97.422 97.665 97.897 98.097 98.3 98.462 98.637 98.77 98.892 99.102 99.272 99.407 99.56 99.72 99.87 100.022 100.187 100.337 100.465 100.595 100.77 100.915 101.057 101.24 101.437 101.582 101.742 101.922 102.097 102.275 102.445 102.645 102.835 103.017 103.242 103.48 103.652 103.87 104.055 104.252 104.432 104.587 104.785 104.92 105.08 105.235 105.362 105.487 105.587 105.7 105.81 105.907 105.985 106.098 106.2 106.295 106.39 106.5 106.62 106.72 106.833 106.928 107.038 107.17 107.273 107.385 107.523 107.663 107.763 107.878 108.008 108.103 108.198 108.35 108.485 108.563 108.69 108.78 108.905 109.018 109.123 109.26 109.385 109.503 109.603 109.718 109.83 109.933 110.038 110.138 110.258 110.353 110.415 110.485 110.548 110.658 110.71 110.778 110.865 110.925 110.975 111.035 111.095 111.183 111.23 111.29 111.35 111.42 111.47 111.503 111.538 111.603 111.64 111.63 111.665 111.703 111.703 111.73 111.703 111.753 111.743 111.75 111.763 111.775 111.768 111.735 111.748 111.743 111.76 111.773 111.78 111.77 111.765 111.75 111.74 111.715 111.72 111.7 111.673 111.62 111.573 111.468 111.4 111.32 111.24 111.165 111.078 111.005 110.908 110.845 110.73 110.663 110.573 110.478 110.406 110.286 110.196 110.098 110.008 109.921 109.806 109.698 109.618 109.501 109.396 109.323 109.223 109.138 109.043 108.971 108.871 108.758 108.683 108.536 108.426 108.288 108.158 108.041 107.883 107.741 107.593 107.446 107.306 107.176 107.041 106.948 106.836 106.688 106.551 106.436 106.288 106.148 106.056 105.913 105.776 105.641 105.513 105.381 105.238 105.068 104.908 104.783 104.613 104.441 104.318 104.136 103.968 103.813 103.623 103.441 103.286 103.093 102.906 102.741 102.573 102.368 102.191 101.978 101.811 101.603 101.388 101.196 101.003 100.801 100.601 100.416 100.176 99.978 99.793 99.598 99.383 99.158 98.963 98.748 98.523 98.298 98.056 97.806 97.541 97.276 97.016 96.711 96.493 96.243 95.988 95.733 95.511 95.293 95.053 94.826 94.631 94.333 94.061 93.828 93.578 93.316 93.056 92.811 92.563 92.278 92.008 91.731 91.476 91.216 90.943 90.651 90.383 90.171 89.943 89.716 89.518 89.266 88.958 88.591 88.116 88.758 88.776 87.766 86.611 85.803 85.416 85.251 84.916 84.666 85.323 84.083 83.788 83.456 83.158 82.911 82.633 82.316 82.011 81.696 81.386 81.068 80.773 80.478 80.136 79.778 79.451 79.091 78.741 78.341 77.971 77.583 77.188 76.823 76.431 76.053 75.668 75.273 74.906 74.491 74.123 73.753 73.388 73.038 72.681 72.303 71.983 71.618 71.281 70.981 70.671 70.358 70.083 69.763 69.501 69.221 68.946 68.661 68.351 68.038 67.781 67.501 67.196 66.938 66.708 66.463 66.233 65.973 65.763 65.516 65.328 65.116 64.931 64.753 64.603 64.431 64.298 64.153 64.006 63.896 63.756 63.646 63.586 63.496 63.421 63.349 63.279 63.209 63.181 63.161 63.106 63.074 63.056 63.011 63.004 63.009 62.994 62.989 63.021 63.041 63.111 63.159 63.204 63.254 63.321 63.376 63.436 63.484 63.566 63.624 63.676 63.724 63.779 63.829 63.901 63.944 64.004 64.039 64.009 64.031 64.039 64.096 64.156 64.219 64.246 64.319 64.351
94.68 94.827 95.08 95.295 95.55 95.83 96.14 96.422 96.69 97 97.287 97.547 97.812 98.077 98.305 98.492 98.69 98.855 99.032 99.177 99.312 99.477 99.647 99.802 99.94 100.092 100.227 100.377 100.552 100.707 100.865 101 101.132 101.315 101.462 101.635 101.82 101.992 102.172 102.35 102.547 102.715 102.905 103.09 103.287 103.51 103.69 103.902 104.09 104.282 104.485 104.66 104.815 104.972 105.11 105.24 105.385 105.55 105.647 105.73 105.837 105.965 106.042 106.142 106.243 106.343 106.445 106.558 106.655 106.745 106.845 106.968 107.085 107.19 107.325 107.433 107.563 107.693 107.803 107.93 108.05 108.165 108.283 108.385 108.51 108.63 108.73 108.855 108.955 109.06 109.158 109.29 109.388 109.505 109.62 109.75 109.855 109.943 110.055 110.175 110.28 110.385 110.48 110.57 110.658 110.713 110.808 110.88 110.963 111.038 111.09 111.135 111.208 111.27 111.338 111.405 111.458 111.503 111.545 111.59 111.633 111.695 111.735 111.748 111.81 111.843 111.86 111.888 111.9 111.925 111.913 111.91 111.923 111.925 111.945 111.938 111.968 111.94 111.938 111.893 111.905 111.935 111.923 111.928 111.913 111.913 111.91 111.885 111.855 111.863 111.843 111.785 111.745 111.66 111.59 111.483 111.413 111.338 111.243 111.128 111.05 110.985 110.863 110.76 110.666 110.586 110.493 110.398 110.296 110.183 110.088 109.996 109.888 109.781 109.688 109.576 109.461 109.366 109.253 109.196 109.071 108.953 108.881 108.746 108.646 108.531 108.403 108.266 108.136 108.018 107.861 107.706 107.566 107.423 107.306 107.163 107.033 106.908 106.798 106.691 106.538 106.393 106.291 106.138 106.001 105.868 105.741 105.608 105.468 105.338 105.181 105.033 104.878 104.718 104.571 104.406 104.283 104.111 103.926 103.753 103.586 103.421 103.226 103.071 102.881 102.708 102.518 102.318 102.153 101.941 101.753 101.553 101.361 101.168 100.956 100.773 100.561 100.391 100.163 99.978 99.776 99.573 99.353 99.146 98.923 98.683 98.461 98.223 97.976 97.738 97.446 97.173 96.898 96.668 96.451 96.161 95.928 95.668 95.461 95.243 95.003 94.803 94.573 94.338 94.048 93.816 93.541 93.261 93.016 92.763 92.548 92.291 92.026 91.761 91.488 91.198 90.968 90.673 90.356 90.106 89.856 89.621 89.406 89.191 88.881 88.616 88.326 89.148 88.891 87.351 86.398 85.948 85.591 85.298 84.971 84.723 84.931 84.238 83.903 83.601 83.283 82.966 82.691 82.391 82.081 81.768 81.461 81.128 80.793 80.481 80.148 79.816 79.423 79.108 78.733 78.366 77.983 77.588 77.186 76.813 76.411 76.031 75.643 75.241 74.853 74.471 74.076 73.733 73.361 73.011 72.633 72.288 71.966 71.591 71.243 70.936 70.633 70.326 70.031 69.751 69.468 69.181 68.911 68.616 68.336 68.053 67.763 67.466 67.201 66.946 66.681 66.436 66.208 65.981 65.756 65.541 65.343 65.136 64.958 64.766 64.618 64.461 64.313 64.198 64.049 63.941 63.826 63.699 63.626 63.539 63.506 63.426 63.371 63.314 63.261 63.241 63.221 63.196 63.174 63.146 63.134 63.141 63.141 63.149 63.149 63.156 63.196 63.254 63.319 63.379 63.426 63.479 63.526 63.591 63.646 63.701 63.754 63.829 63.889 63.934 63.981 64.021 64.076 64.134 64.154 64.159 64.161 64.201 64.241 64.269 64.311 64.381 64.411
