ncols 439
nrows 31
xllcorner    458014
yllcorner    89222
cellsize     2
NODATA_value -9999
48.2 48.06 47.95 47.905 47.735 47.667 47.545 47.442 47.325 47.23 47.137 47.067 47.017 46.895 46.807 46.737 46.662 46.565 46.48 46.38 46.285 46.452 46.37 46.517 46.445 46.38 46.447 45.925 45.83 45.187 44.747 44.35 43.657 43.357 43.147 42.975 42.797 42.622 42.415 42.265 42.077 41.835 41.607 41.405 41.242 41.06 40.9 40.705 40.557 40.437 40.292 40.142 39.992 39.782 39.545 39.325 39.102 38.885 38.672 38.437 38.197 37.962 37.74 37.49 37.235 36.992 36.755 36.467 36.25 36.05 35.892 35.72 35.562 35.385 35.26 35.032 34.847 34.697 34.505 34.355 34.215 34.107 34.012 33.96 33.972 33.932 33.907 33.602 33.487 33.32 32.852 32.865 32.807 33.09 32.792 32.735 32.637 32.595 32.54 32.437 32.377 32.295 32.147 32.02 31.897 31.767 31.597 31.422 31.32 31.237 31.14 31.06 31.002 30.935 30.882 30.792 30.71 30.662 30.602 30.517 30.455 30.352 30.262 30.195 30.075 30 29.937 29.845 29.765 29.737 29.685 29.625 29.54 29.452 29.42 29.335 29.22 29.137 29.045 28.972 28.88 28.82 28.755 28.7 28.657 28.585 28.487 28.4 28.29 28.177 28.095 28.037 27.942 27.862 27.762 27.672 27.62 27.572 27.495 27.4 27.32 27.275 27.22 27.135 27.06 27.035 26.997 26.97 26.977 27.165 26.95 26.777 26.797 26.76 26.702 26.655 26.555 26.565 26.567 26.497 26.477 26.467 26.497 26.497 26.547 26.54 26.567 26.602 26.615 26.607 26.587 26.632 26.68 26.715 26.725 26.735 26.78 26.837 26.87 26.917 26.922 26.947 26.925 26.87 26.925 26.93 26.94 26.957 26.945 26.972 26.935 26.882 26.875 26.877 26.865 26.842 26.812 26.8 26.825 26.825 26.822 26.82 26.812 26.78 26.742 26.722 26.687 26.665 26.66 26.62 26.555 26.527 26.495 26.497 26.465 26.42 26.335 26.262 26.235 26.215 26.175 26.155 26.14 26.079 26.037 25.977 25.922 25.884 25.864 25.832 25.767 25.682 25.629 25.587 25.552 25.534 25.529 25.469 25.422 25.389 25.339 25.294 25.239 25.149 25.044 24.939 24.844 24.737 24.632 24.479 24.342 24.219 24.177 24.164 24.184 24.522 25.469 24.239 24.207 24.259 24.327 24.352 24.429 24.567 24.714 24.852 24.984 25.159 25.209 25.332 25.437 25.542 25.652 25.707 25.794 25.857 25.899 25.957 25.984 26.044 26.094 26.147 26.159 26.187 26.212 26.249 26.262 26.252 26.242 26.267 26.297 26.322 26.394 26.892 26.822 26.517 26.512 26.402 26.054 25.544 25.024 24.534 24.547 24.564 24.519 24.962 26.414 28.469 28.272 26.887 26.699 26.727 26.982 29.514 30.549 30.914 31.264 31.549 31.327 30.964 30.612 29.594 28.184 27.037 27.074 26.602 26.492 26.419 26.387 26.347 26.284 26.249 26.209 27.137 26.812 26.074 26.094 26.147 26.189 26.192 26.142 26.084 26.084 26.039 25.957 25.897 25.842 25.784 25.724 25.679 25.649 25.644 25.604 25.592 25.549 25.514 25.477 25.414 25.354 25.307 25.237 25.204 25.122 25.029 24.992 24.904 24.842 24.782 24.702 24.614 24.539 24.482 24.349 24.272 24.179 24.064 23.984 23.899 23.804 23.712 23.614 23.489 23.414 23.302 23.199 23.112 23.024 22.914 22.822 22.729 22.652 22.557 22.439 22.382 22.324 22.252 22.192 22.147 22.059 21.977 21.867 21.772 21.649 21.504 21.417 21.309 21.264 21.147 21.062 20.987 20.919 20.839 20.777 20.732 20.684 20.662 20.664 20.634 20.659
48.095 47.99 48.04 47.987 47.98 47.697 47.62 47.512 47.595 47.325 47.237 48.002 47.092 46.86 46.777 46.72 47.98 48.625 46.937 46.427 46.32 46.202 46.065 45.875 45.705 45.717 45.53 45.31 45.385 45.375 45.385 45.522 45.04 44.657 43.937 43.692 43.08 42.757 42.545 42.37 42.22 41.985 41.77 41.575 41.4 41.19 41.005 40.835 40.707 40.555 40.375 40.187 40.05 39.89 39.7 39.485 39.277 39.01 38.797 38.575 38.315 38.075 37.847 37.635 37.357 37.115 36.865 36.587 36.36 36.197 36.027 35.887 35.837 35.805 35.915 35.372 35.097 34.832 34.647 34.48 34.31 34.15 34.042 33.967 33.99 33.98 34 34.15 33.605 33.162 33.03 32.987 32.95 32.907 32.875 32.817 32.767 32.735 32.685 32.6 32.512 32.435 32.315 32.17 32.005 31.88 31.7 31.525 31.375 31.282 31.187 31.115 31.047 30.952 30.91 30.837 30.72 30.675 30.615 30.5 30.46 30.365 30.25 30.195 30.067 29.997 29.935 29.867 29.805 29.747 29.66 29.625 29.547 29.45 29.407 29.325 29.217 29.135 29.025 28.94 28.86 28.782 28.722 28.7 28.615 28.56 28.47 28.35 28.28 28.155 28.117 28.045 27.947 27.827 27.752 27.672 27.625 27.525 27.472 27.397 27.342 27.262 27.202 27.127 27.072 27.035 27.025 27.045 27.002 26.917 26.857 26.865 26.835 26.8 26.737 26.667 26.632 26.607 26.622 26.555 26.515 26.51 26.537 26.56 26.585 26.592 26.602 26.61 26.647 26.647 26.64 26.662 26.722 26.757 26.775 26.78 26.82 26.872 26.915 26.957 26.965 26.982 27.01 26.93 26.922 26.992 26.967 26.995 27.01 27.002 26.977 26.957 26.945 26.952 26.937 26.907 26.877 26.867 26.865 26.855 26.867 26.862 26.845 26.83 26.802 26.782 26.747 26.69 26.68 26.662 26.61 26.567 26.535 26.555 26.527 26.452 26.375 26.347 26.292 26.245 26.225 26.202 26.175 26.119 26.079 26.019 25.964 25.929 25.937 25.872 25.787 25.709 25.654 25.597 25.552 25.532 25.512 25.472 25.442 25.402 25.362 25.297 25.234 25.142 25.032 24.977 24.854 24.754 24.634 24.477 24.354 24.259 24.222 24.204 24.239 25.097 25.132 24.264 24.237 24.269 24.329 24.367 24.444 24.579 24.719 24.852 24.997 25.104 25.237 25.374 25.464 25.577 25.667 25.749 25.797 25.869 25.897 25.984 26.017 26.084 26.132 26.182 26.194 26.219 26.224 26.257 26.264 26.259 26.262 26.277 26.327 26.429 26.594 26.534 26.862 26.532 26.454 26.152 25.547 25.032 24.592 24.577 24.582 24.579 25.087 26.222 27.752 28.157 27.579 27.649 26.899 26.797 28.572 30.412 30.772 31.109 31.444 31.447 31.102 30.747 30.392 28.707 26.854 27.294 27.592 26.857 27.179 26.464 26.382 26.329 26.327 26.297 26.532 28.112 26.304 26.122 26.154 26.207 26.209 26.214 26.169 26.134 26.077 26.029 25.974 25.907 25.837 25.799 25.722 25.739 25.724 25.677 25.647 25.619 25.607 25.557 25.509 25.447 25.414 25.362 25.277 25.227 25.149 25.069 25.029 24.939 24.879 24.799 24.742 24.647 24.569 24.479 24.367 24.282 24.222 24.124 24.032 23.949 23.887 23.757 23.652 23.554 23.437 23.344 23.272 23.154 23.034 22.952 22.859 22.772 22.672 22.569 22.479 22.399 22.349 22.254 22.237 22.142 22.087 22.007 21.937 21.842 21.687 21.584 21.502 21.379 21.262 21.187 21.124 21.034 20.949 20.887 20.812 20.752 20.719 20.704 20.667 20.644 20.627
48.307 50.125 52.442 51.892 49.94 49.747 49.332 52.81 50.895 49.702 48.775 49.27 47.837 47.465 48.982 50.02 54.817 51.837 50.012 51.197 47.267 46.807 46.647 46.782 46.56 46.145 45.87 45.412 45.015 44.847 44.582 44.345 44.205 44.297 44.287 44.385 44.497 44.387 43.682 43.212 42.72 42.447 42.15 41.885 41.645 41.36 41.117 40.952 40.835 40.685 40.477 40.27 40.1 39.955 39.79 39.602 39.402 39.165 38.932 38.705 38.435 38.192 37.945 37.735 37.487 37.255 37.082 36.865 36.545 36.307 36.225 36.487 36.47 36.295 36.31 38.09 36.497 35.845 34.847 34.69 34.49 34.352 34.307 35.035 34.672 34.152 37.812 34.21 33.577 33.252 33.172 33.107 33.057 32.925 32.877 32.865 32.83 32.805 32.77 32.7 32.64 32.562 32.442 32.29 32.087 31.962 31.785 31.582 31.415 31.302 31.217 31.135 31.085 31.012 30.957 30.88 30.795 30.725 30.63 30.537 30.537 30.355 30.252 30.205 30.1 30.037 29.947 29.892 29.83 29.75 29.675 29.62 29.55 29.495 29.412 29.302 29.22 29.13 29.017 28.945 28.847 28.787 28.71 28.642 28.587 28.52 28.42 28.35 28.232 28.155 28.102 28.02 27.92 27.827 27.727 27.677 27.62 27.542 27.487 27.405 27.35 27.285 27.207 27.135 27.092 27.055 27.042 27.005 27.015 26.917 26.892 26.91 26.892 26.82 26.755 26.702 26.66 26.687 26.672 26.62 26.577 26.557 26.595 26.595 26.59 26.655 26.67 26.677 26.68 26.677 26.682 26.76 26.76 26.795 26.812 26.83 26.875 26.932 26.922 26.957 26.992 27.02 27.08 26.99 26.967 27.025 27.047 27.042 27.052 27.042 27.007 26.99 26.997 26.992 26.97 26.935 26.932 26.94 26.937 26.927 26.91 26.905 26.89 26.852 26.802 26.772 26.75 26.752 26.685 26.657 26.625 26.587 26.57 26.577 26.545 26.515 26.432 26.375 26.332 26.295 26.27 26.242 26.242 26.169 26.107 26.042 26.019 26.002 25.982 25.932 25.842 25.762 25.722 25.617 25.582 25.562 25.514 25.457 25.432 25.397 25.332 25.287 25.229 25.129 25.049 24.974 24.837 24.757 24.644 24.502 24.377 24.279 24.227 24.222 24.254 25.254 24.619 24.202 24.237 24.282 24.344 24.397 24.464 24.597 24.717 24.867 24.999 25.124 25.269 25.394 25.509 25.617 25.692 25.782 25.789 25.887 25.932 25.984 26.032 26.097 26.172 26.192 26.224 26.252 26.242 26.292 26.264 26.267 26.284 26.324 26.417 26.982 27.034 26.527 26.552 26.509 26.207 25.727 25.062 24.577 24.667 24.607 24.629 25.097 26.392 28.329 28.389 27.719 27.507 27.092 26.834 27.507 29.829 30.659 30.969 31.349 31.552 31.232 30.887 30.527 29.937 27.582 26.689 26.609 26.872 26.942 27.547 26.459 26.387 26.399 26.402 26.454 27.854 28.197 26.207 26.204 26.257 26.292 26.279 26.227 26.199 26.149 26.079 26.032 25.964 25.932 25.869 25.829 25.792 25.782 25.772 25.734 25.704 25.682 25.609 25.582 25.524 25.487 25.427 25.372 25.332 25.234 25.182 25.117 25.037 24.969 24.912 24.839 24.787 24.667 24.554 24.474 24.377 24.334 24.249 24.179 24.094 24.029 23.917 23.797 23.679 23.622 23.504 23.409 23.282 23.184 23.069 22.972 22.867 22.807 22.717 22.604 22.512 22.437 22.364 22.319 22.242 22.167 22.102 22.027 21.972 21.854 21.754 21.667 21.564 21.442 21.344 21.247 21.172 21.092 20.972 20.879 20.824 20.764 20.704 20.692 20.664 20.659 20.634
50.54 49.622 55.04 50.915 49.02 49.035 49.96 50.827 48.787 48.365 49.91 49.957 48.232 47.965 48.572 49.127 51.782 48.487 54.632 50.28 47.147 47.09 47.27 47.057 46.837 46.527 46.702 46.75 46.805 45.87 45.617 45.405 44.817 44.215 43.68 43.462 43.302 43.25 43.227 43.475 43.405 43.322 43.052 43.105 42.972 42.61 42.205 41.882 41.655 41.242 41.102 40.94 40.487 40.232 40.152 39.91 39.702 39.585 39.237 39.057 39.105 38.89 38.852 38.56 38.452 38.487 38.377 37.96 37.622 36.895 36.545 36.997 37.06 36.682 39.69 42.865 39.125 40.3 35.365 35.172 35.097 34.652 35.27 35.447 34.57 34.957 36.557 34.412 33.497 33.357 33.29 33.19 33.105 33.015 32.977 32.95 32.89 32.84 32.795 32.77 32.687 32.625 32.515 32.365 32.237 32.055 31.877 31.67 31.497 31.352 31.245 31.18 31.097 31.04 30.962 30.895 30.84 30.752 30.647 30.547 30.437 30.347 30.277 30.182 30.097 30.045 29.992 29.897 29.827 29.755 29.687 29.62 29.55 29.485 29.407 29.305 29.215 29.14 29.04 28.937 28.872 28.79 28.722 28.637 28.56 28.497 28.407 28.31 28.24 28.15 28.062 28.015 27.907 27.825 27.722 27.652 27.607 27.527 27.465 27.415 27.36 27.282 27.202 27.13 27.097 27.055 27.052 27.022 27.002 26.97 26.937 26.897 26.877 26.832 26.787 26.742 26.7 26.732 26.717 26.672 26.647 26.64 26.672 26.67 26.665 26.692 26.735 26.74 26.73 26.72 26.75 26.8 26.827 26.83 26.852 26.902 26.937 26.952 26.965 27.005 27.037 27.05 27.115 27.04 27.005 27.082 27.08 27.117 27.137 27.1 27.082 27.047 27.045 27.052 27.032 26.99 26.972 26.967 26.982 26.977 26.945 26.95 26.935 26.867 26.817 26.805 26.802 26.765 26.722 26.702 26.67 26.635 26.605 26.597 26.6 26.52 26.467 26.425 26.36 26.332 26.305 26.277 26.257 26.199 26.132 26.082 26.049 26.029 26.002 25.934 25.857 25.797 25.744 25.679 25.639 25.587 25.557 25.494 25.444 25.397 25.339 25.289 25.217 25.094 25.032 24.937 24.839 24.704 24.607 24.512 24.394 24.304 24.254 24.232 24.319 25.334 24.499 24.242 24.247 24.324 24.382 24.414 24.497 24.594 24.737 24.869 25.024 25.197 25.327 25.454 25.562 25.664 25.727 25.799 25.847 25.912 25.947 26.004 26.089 26.149 26.197 26.212 26.252 26.252 26.289 26.304 26.294 26.319 26.342 26.434 26.667 27.847 26.662 26.572 26.514 26.289 25.767 25.212 24.657 24.664 24.697 24.657 25.109 26.617 28.639 28.412 27.667 27.404 27.557 26.872 26.872 29.002 30.479 30.852 31.204 31.544 31.409 31.049 30.667 30.287 28.347 27.657 26.714 26.607 26.547 26.504 27.012 26.429 26.417 26.449 26.402 27.227 27.397 26.262 26.259 26.304 26.332 26.352 26.304 26.254 26.217 26.137 26.112 26.042 26.019 25.942 25.902 25.852 25.822 25.807 25.784 25.764 25.722 25.707 25.634 25.612 25.579 25.504 25.437 25.372 25.334 25.277 25.224 25.137 25.089 25.024 24.954 24.864 24.767 24.677 24.584 24.512 24.404 24.339 24.274 24.212 24.127 24.047 23.967 23.849 23.742 23.639 23.522 23.427 23.317 23.219 23.092 22.992 22.897 22.822 22.727 22.634 22.529 22.484 22.422 22.322 22.252 22.164 22.144 22.024 21.952 21.869 21.784 21.677 21.594 21.477 21.394 21.309 21.249 21.139 21.019 20.899 20.832 20.777 20.702 20.704 20.689 20.669 20.664
49.63 49.185 49.087 49.035 48.982 48.917 48.985 48.752 48.645 49.802 50.182 48.565 48.532 48.29 48.59 48.807 49.605 47.812 48.552 48.33 47.145 47.05 46.947 46.842 46.695 46.517 46.34 46.155 45.957 45.867 45.945 46.217 46.352 46.227 46.097 44.902 44.097 43.347 42.887 42.68 42.477 42.612 42.435 42.237 42.02 41.842 41.837 41.765 41.765 41.26 41.102 41.127 41.117 40.827 40.302 39.875 39.832 39.667 39.32 39.282 39.082 38.89 38.782 38.445 38.037 37.882 37.602 37.355 36.982 36.78 36.565 36.41 36.257 36.192 41.57 39.585 36.262 36.287 36.135 35.677 35.18 35 35.005 34.83 35.545 35.717 35.227 34.15 33.567 33.427 33.35 33.255 33.182 33.095 33.057 33.022 32.927 32.86 32.842 32.81 32.73 32.655 32.545 32.4 32.277 32.152 31.96 31.715 31.55 31.397 31.272 31.215 31.13 31.05 30.99 30.932 30.865 30.782 30.682 30.555 30.46 30.377 30.307 30.205 30.105 30.027 29.955 29.877 29.827 29.755 29.69 29.637 29.562 29.487 29.407 29.315 29.197 29.132 29.037 28.937 28.867 28.795 28.715 28.63 28.55 28.477 28.387 28.275 28.22 28.152 28.087 27.985 27.877 27.822 27.72 27.64 27.575 27.517 27.48 27.44 27.37 27.277 27.197 27.147 27.12 27.092 27.042 27.022 26.992 27.01 26.98 26.955 26.895 26.84 26.802 26.762 26.745 26.782 26.757 26.705 26.7 26.695 26.71 26.697 26.707 26.762 26.797 26.79 26.787 26.78 26.81 26.865 26.852 26.86 26.9 26.965 26.992 27 27 27.032 27.085 27.13 27.175 27.092 27.027 27.09 27.135 27.155 27.185 27.167 27.142 27.112 27.097 27.095 27.092 27.072 27.037 27.04 27.045 27.005 26.98 27.01 26.985 26.907 26.875 26.855 26.817 26.77 26.745 26.735 26.692 26.665 26.647 26.652 26.6 26.547 26.507 26.427 26.387 26.347 26.332 26.327 26.275 26.237 26.167 26.117 26.102 26.074 26.012 25.959 25.877 25.837 25.774 25.712 25.657 25.637 25.594 25.524 25.487 25.404 25.349 25.289 25.197 25.097 24.997 24.909 24.817 24.689 24.582 24.504 24.369 24.307 24.257 24.272 24.337 25.479 24.372 24.229 24.272 24.339 24.364 24.429 24.494 24.629 24.737 24.902 25.082 25.224 25.387 25.497 25.572 25.692 25.777 25.812 25.867 25.922 25.947 26.032 26.114 26.164 26.217 26.227 26.259 26.277 26.284 26.314 26.332 26.339 26.472 27.532 28.809 26.679 26.544 26.489 26.359 25.817 25.319 24.722 24.747 24.724 24.782 25.144 26.242 28.227 28.257 27.282 27.339 27.364 26.944 26.902 27.659 30.317 30.694 31.072 31.427 31.542 31.184 30.832 30.454 30.077 26.907 26.927 26.684 26.599 26.534 26.492 26.452 26.477 26.472 26.452 26.647 27.579 26.402 26.347 26.342 26.399 26.412 26.377 26.322 26.294 26.239 26.182 26.112 26.069 26.024 25.974 25.934 25.897 25.862 25.847 25.819 25.809 25.774 25.729 25.674 25.622 25.579 25.502 25.444 25.402 25.342 25.277 25.229 25.154 25.112 25.044 24.959 24.882 24.794 24.717 24.622 24.549 24.449 24.367 24.307 24.239 24.149 24.052 23.909 23.864 23.782 23.644 23.587 23.469 23.349 23.247 23.117 23.027 22.952 22.874 22.757 22.649 22.562 22.514 22.414 22.357 22.264 22.154 22.124 22.029 21.949 21.879 21.784 21.697 21.624 21.554 21.434 21.362 21.264 21.197 21.047 20.927 20.822 20.767 20.692 20.687 20.672 20.707 20.667
49.885 50.805 49.86 49.585 52.917 49.882 49.312 49.665 51.107 51.682 49.847 49.415 49.13 48.695 49.17 49.025 48.677 47.73 47.58 47.485 50.165 47.317 47.152 47.042 46.91 46.73 46.572 46.352 46.142 45.952 45.712 45.567 45.645 45.855 46.075 46.015 45.99 45.662 44.76 43.537 42.762 42.607 42.32 42.01 41.8 41.615 41.237 40.965 40.717 40.522 40.31 40.102 39.875 39.712 39.517 39.28 39.092 38.902 38.72 38.567 38.402 38.242 38.052 37.88 37.697 37.52 37.337 37.165 36.965 36.8 36.617 36.42 36.33 36.132 36.497 36.142 35.712 36.762 36.442 35.482 35.277 34.997 34.87 34.795 34.84 35.47 35.027 33.917 33.672 33.517 33.425 33.357 33.232 33.157 33.102 33.065 32.952 32.91 32.88 32.827 32.775 32.677 32.555 32.44 32.305 32.192 32.02 31.77 31.587 31.45 31.325 31.225 31.12 31.055 30.972 30.9 30.877 30.78 30.682 30.59 30.492 30.382 30.312 30.197 30.125 30.047 29.957 29.897 29.84 29.76 29.677 29.622 29.545 29.502 29.405 29.277 29.212 29.137 29.045 28.94 28.865 28.795 28.717 28.622 28.547 28.462 28.372 28.272 28.2 28.125 28.037 27.962 27.882 27.805 27.692 27.642 27.575 27.512 27.47 27.442 27.355 27.277 27.207 27.16 27.132 27.122 27.07 27.04 27.037 27.017 26.997 26.965 26.917 26.87 26.802 26.805 26.787 26.802 26.797 26.755 26.74 26.745 26.76 26.76 26.79 26.812 26.827 26.825 26.842 26.85 26.897 26.922 26.91 26.925 26.945 26.995 27.027 27.045 27.047 27.065 27.125 27.14 27.157 27.145 27.09 27.125 27.18 27.207 27.225 27.232 27.212 27.17 27.157 27.185 27.182 27.157 27.117 27.09 27.08 27.052 27.062 27.027 27.002 26.955 26.94 26.907 26.87 26.81 26.795 26.775 26.727 26.697 26.715 26.682 26.632 26.555 26.512 26.46 26.425 26.38 26.35 26.325 26.295 26.239 26.172 26.134 26.127 26.109 26.044 25.942 25.892 25.857 25.814 25.749 25.709 25.674 25.609 25.562 25.482 25.434 25.392 25.289 25.214 25.089 24.987 24.884 24.789 24.659 24.537 24.469 24.352 24.317 24.272 24.307 24.602 25.607 24.247 24.262 24.294 24.339 24.402 24.427 24.507 24.659 24.797 24.944 25.119 25.272 25.419 25.519 25.614 25.712 25.797 25.837 25.914 25.962 26.009 26.094 26.164 26.167 26.229 26.224 26.287 26.287 26.322 26.364 26.369 26.447 26.592 27.297 26.602 26.589 26.517 26.349 25.887 25.384 24.837 24.739 24.769 24.699 25.054 26.084 28.367 28.049 27.179 27.444 27.259 26.854 26.907 26.907 30.132 30.574 30.917 31.282 31.572 31.339 30.962 30.629 30.279 28.197 26.804 26.744 26.687 26.609 26.559 26.474 26.507 26.537 26.544 26.452 27.712 26.767 26.427 26.404 26.472 26.489 26.429 26.382 26.354 26.302 26.272 26.199 26.142 26.084 26.052 25.992 25.959 25.954 25.934 25.889 25.847 25.817 25.767 25.744 25.679 25.652 25.587 25.532 25.462 25.409 25.339 25.304 25.234 25.167 25.114 25.067 24.987 24.907 24.832 24.742 24.634 24.597 24.502 24.424 24.349 24.239 24.152 24.082 23.967 23.889 23.764 23.657 23.597 23.522 23.377 23.287 23.162 23.082 22.967 22.864 22.792 22.662 22.594 22.532 22.457 22.369 22.269 22.197 22.094 22.034 21.977 21.867 21.774 21.719 21.644 21.577 21.502 21.432 21.312 21.222 21.127 20.954 20.824 20.742 20.747 20.687 20.689 20.707 20.694
50.277 50.392 50.422 50.905 51.355 49.997 51.3 52.087 50.002 49.705 49.66 49.392 48.957 49.84 51.277 48.667 48.392 48.05 47.965 47.81 47.675 47.492 47.335 47.205 47.065 46.93 46.765 46.555 46.357 46.187 46.025 45.887 45.69 45.517 45.357 45.47 45.702 45.595 45.34 44.865 43.635 43.502 44.357 45.18 43.115 43.31 42.732 42.275 41.807 41.295 40.687 40.457 40.192 40.135 40.107 40.865 40.412 41.212 40.362 39.895 39.877 39.78 39.685 39.162 38.985 37.755 37.45 37.267 37.132 36.962 36.852 36.715 36.635 36.312 36.097 35.837 35.697 35.552 35.42 35.29 35.205 35.572 35.892 34.852 35.96 36.997 36.037 33.957 33.785 33.627 33.507 33.39 33.302 33.242 33.165 33.087 33.002 32.962 32.917 32.89 32.802 32.68 32.592 32.48 32.345 32.205 32.047 31.83 31.655 31.482 31.362 31.265 31.152 31.08 30.987 30.915 30.872 30.787 30.687 30.62 30.517 30.385 30.307 30.21 30.15 30.062 29.95 29.887 29.835 29.755 29.687 29.605 29.535 29.462 29.367 29.272 29.205 29.117 29.012 28.94 28.885 28.815 28.727 28.595 28.502 28.43 28.352 28.262 28.17 28.072 28.04 28.01 28.145 27.892 27.71 27.637 27.567 27.522 27.477 27.43 27.345 27.277 27.227 27.202 27.165 27.12 27.087 27.075 27.072 27.037 26.995 26.955 26.935 26.892 26.855 26.847 26.83 26.837 26.815 26.805 26.79 26.802 26.807 26.817 26.83 26.885 26.875 26.885 26.892 26.905 26.917 26.957 26.98 27.002 27.035 27.04 27.075 27.087 27.077 27.11 27.17 27.177 27.187 27.217 27.172 27.175 27.21 27.217 27.257 27.245 27.22 27.212 27.21 27.23 27.245 27.222 27.167 27.142 27.14 27.1 27.09 27.11 27.055 27.015 26.967 26.94 26.897 26.84 26.83 26.79 26.732 26.732 26.745 26.697 26.657 26.57 26.54 26.472 26.447 26.417 26.385 26.367 26.3 26.274 26.214 26.182 26.152 26.119 26.039 25.989 25.954 25.929 25.842 25.807 25.744 25.687 25.652 25.594 25.524 25.469 25.404 25.327 25.237 25.099 25.002 24.859 24.757 24.639 24.519 24.459 24.374 24.312 24.304 24.329 24.414 25.364 24.389 24.267 24.337 24.397 24.434 24.467 24.577 24.719 24.872 25.042 25.189 25.322 25.434 25.559 25.652 25.714 25.819 25.884 25.959 26.002 26.077 26.144 26.177 26.214 26.244 26.284 26.292 26.307 26.327 26.369 26.452 26.779 29.602 26.699 26.629 26.549 26.387 25.907 25.402 24.879 24.797 24.789 24.757 24.984 25.664 27.994 28.104 28.857 27.887 27.214 26.894 26.894 26.882 27.027 28.359 30.412 31.139 31.502 31.469 31.114 30.772 30.294 28.352 26.852 27.957 26.769 26.689 26.627 26.569 26.537 26.589 26.624 26.512 27.409 27.629 26.502 26.512 26.542 26.554 26.544 26.454 26.444 26.367 26.349 26.264 26.207 26.157 26.112 26.084 26.029 25.992 25.974 25.957 25.939 25.887 25.869 25.804 25.764 25.707 25.639 25.599 25.539 25.472 25.419 25.367 25.292 25.222 25.159 25.099 25.062 24.984 24.919 24.854 24.774 24.682 24.609 24.509 24.434 24.367 24.269 24.174 24.087 24.017 23.874 23.774 23.672 23.589 23.509 23.387 23.294 23.172 23.072 23.007 22.919 22.817 22.707 22.634 22.554 22.457 22.369 22.269 22.219 22.137 22.024 21.982 21.879 21.787 21.729 21.649 21.597 21.502 21.452 21.334 21.227 21.142 20.964 20.847 20.759 20.714 20.687 20.689 20.694 20.687
50.36 50.252 50.127 50.322 50.052 50.045 49.837 49.6 49.505 49.475 49.362 49.282 49.117 49.215 49.3 50.38 49.547 48.47 48.25 48.095 47.84 47.665 47.482 47.347 47.212 47.087 46.93 46.705 46.525 46.365 46.212 46.08 45.965 45.812 45.622 45.407 45.255 45.052 45.34 45.542 44.67 45.65 46.72 44.492 42.897 42.952 42.96 43.007 42.78 42.555 42.472 43.172 42.26 42.112 42.462 42.732 43.13 43.25 42.092 39.975 39.405 39.047 38.897 38.547 38.35 38.075 37.72 37.45 37.317 37.302 37.262 37.125 36.91 36.607 36.32 36.12 35.725 35.59 35.425 35.287 35.167 35.01 36.095 35.912 35.49 37.922 36.965 35.68 34.3 33.725 33.567 33.47 33.402 33.33 33.22 33.145 33.062 33.002 32.942 32.912 32.782 32.672 32.607 32.5 32.387 32.257 32.057 31.862 31.68 31.532 31.442 31.325 31.202 31.102 31.032 30.975 30.892 30.795 30.695 30.61 30.505 30.372 30.317 30.217 30.132 30.04 29.947 29.88 29.83 29.76 29.7 29.617 29.522 29.445 29.352 29.272 29.197 29.095 29.007 28.927 28.86 28.802 28.702 28.595 28.505 28.412 28.317 28.252 28.167 28.08 28.015 30.217 29.832 27.85 27.717 27.627 27.552 27.517 27.47 27.422 27.365 27.29 27.232 27.222 27.17 27.152 27.117 27.122 27.105 27.047 27.027 26.995 26.945 26.945 26.93 26.91 26.895 26.9 26.857 26.867 26.837 26.822 26.855 26.87 26.885 26.927 26.925 26.94 26.947 26.952 26.965 27.012 27.03 27.07 27.092 27.092 27.117 27.125 27.162 27.16 27.2 27.212 27.237 27.242 27.232 27.21 27.26 27.26 27.292 27.295 27.277 27.25 27.247 27.262 27.302 27.27 27.237 27.202 27.182 27.175 27.137 27.117 27.065 27.045 27.025 26.985 26.945 26.9 26.855 26.81 26.792 26.765 26.75 26.73 26.647 26.607 26.55 26.49 26.45 26.422 26.415 26.372 26.33 26.277 26.212 26.207 26.167 26.132 26.079 26.014 25.977 25.964 25.864 25.822 25.794 25.762 25.684 25.629 25.559 25.492 25.402 25.329 25.257 25.144 25.002 24.882 24.727 24.627 24.542 24.479 24.367 24.332 24.302 24.354 24.554 25.137 24.324 24.282 24.379 24.412 24.477 24.532 24.639 24.789 24.924 25.072 25.214 25.354 25.439 25.552 25.647 25.737 25.824 25.897 25.969 26.062 26.147 26.192 26.212 26.244 26.274 26.274 26.302 26.352 26.377 26.439 26.639 28.617 29.544 26.642 26.559 26.362 25.974 25.377 24.962 24.842 24.832 24.804 25.042 25.584 26.104 28.109 27.864 29.607 29.457 28.602 27.067 26.909 26.907 26.897 26.957 27.637 29.772 31.557 31.257 30.899 30.552 30.107 26.992 27.834 31.309 29.547 27.529 26.634 26.597 26.634 26.647 26.609 26.972 28.059 26.802 26.604 26.589 26.642 26.607 26.567 26.522 26.484 26.384 26.324 26.277 26.222 26.177 26.134 26.119 26.087 26.077 26.037 26.012 25.977 25.924 25.879 25.834 25.797 25.744 25.684 25.602 25.547 25.469 25.412 25.357 25.307 25.217 25.157 25.122 25.049 25.004 24.944 24.837 24.769 24.714 24.624 24.534 24.442 24.389 24.309 24.227 24.132 23.984 23.887 23.784 23.719 23.597 23.499 23.357 23.302 23.172 23.087 23.029 22.924 22.829 22.757 22.689 22.564 22.477 22.377 22.299 22.214 22.172 22.094 22.022 21.899 21.812 21.727 21.634 21.577 21.517 21.417 21.344 21.262 21.117 21.069 20.864 20.779 20.729 20.682 20.684 20.687 20.679
50.315 50.212 50.105 50.02 49.912 49.82 49.732 49.67 49.617 49.562 49.497 49.402 49.34 49.36 49.987 49.29 49.977 48.637 49.012 48.262 47.987 47.857 47.695 47.56 47.362 47.232 47.097 46.852 46.68 46.527 46.4 46.272 46.125 46.005 45.832 45.632 45.465 45.255 44.94 44.9 45.902 44.537 43.972 43.14 43.162 43.177 42.825 42.542 42.31 42.96 44.727 44.005 41.66 41.995 42.942 43.192 42.722 41.272 40.19 40.652 41.27 39.125 39.005 38.827 38.925 38.35 37.982 37.647 37.562 37.552 37.535 37.385 37.195 36.987 36.705 36.412 35.997 35.785 35.572 35.672 35.597 35.067 34.945 34.81 35.382 38.237 34.805 35.545 35.61 35.432 34.405 33.967 33.54 33.377 33.285 33.185 33.105 33.045 32.992 32.925 32.782 32.66 32.61 32.512 32.412 32.275 32.102 31.912 31.702 31.55 31.465 31.347 31.237 31.127 31.052 31 30.92 30.807 30.695 30.622 30.5 30.382 30.292 30.22 30.127 30.042 29.965 29.865 29.812 29.74 29.697 29.61 29.502 29.45 29.352 29.265 29.197 29.077 28.995 28.947 28.875 28.815 28.7 28.587 28.467 28.392 28.302 28.225 28.107 28.05 28.037 28.73 27.915 27.842 27.7 27.62 27.555 27.53 27.472 27.43 27.355 27.317 27.26 27.23 27.195 27.165 27.152 27.162 27.137 27.067 27.04 27.02 26.992 26.985 26.967 26.955 26.932 26.93 26.9 26.882 26.882 26.89 26.895 26.922 26.95 26.977 26.965 26.97 27.005 26.985 27.02 27.042 27.1 27.142 27.182 27.162 27.175 27.182 27.232 27.215 27.257 27.27 27.292 27.315 27.287 27.265 27.27 27.327 27.33 27.312 27.272 27.247 27.282 27.29 27.287 27.29 27.275 27.25 27.212 27.212 27.202 27.162 27.122 27.085 27.045 27.012 26.977 26.917 26.88 26.847 26.815 26.812 26.802 26.765 26.685 26.62 26.582 26.517 26.485 26.442 26.39 26.392 26.337 26.277 26.274 26.212 26.169 26.147 26.099 26.047 25.999 25.949 25.894 25.862 25.814 25.774 25.707 25.664 25.549 25.497 25.404 25.334 25.259 25.159 25.047 24.904 24.794 24.689 24.584 24.464 24.374 24.349 24.337 24.374 25.107 24.559 24.309 24.307 24.409 24.457 24.512 24.617 24.752 24.882 24.969 25.132 25.267 25.367 25.464 25.564 25.694 25.797 25.862 25.954 26.024 26.102 26.152 26.207 26.237 26.289 26.282 26.307 26.342 26.377 26.454 26.602 26.747 26.759 26.614 26.497 26.237 25.907 25.494 24.987 24.889 24.844 24.807 25.044 25.624 26.249 27.314 27.364 29.177 29.352 29.569 29.404 27.747 26.909 26.897 26.887 26.902 26.912 26.902 27.637 30.429 30.704 30.319 28.182 27.379 30.822 31.304 31.314 30.349 26.664 26.677 26.709 26.717 26.669 27.852 27.287 26.692 26.684 26.662 26.692 26.647 26.589 26.534 26.489 26.414 26.354 26.314 26.269 26.214 26.189 26.144 26.122 26.104 26.072 26.044 25.984 25.982 25.917 25.879 25.819 25.774 25.699 25.637 25.577 25.479 25.444 25.362 25.294 25.242 25.169 25.094 25.042 24.987 24.927 24.824 24.772 24.684 24.607 24.534 24.467 24.407 24.327 24.249 24.129 24.012 23.897 23.822 23.734 23.604 23.487 23.417 23.292 23.194 23.102 23.037 22.924 22.862 22.759 22.694 22.594 22.499 22.387 22.304 22.254 22.149 22.072 22.017 21.882 21.837 21.732 21.644 21.577 21.524 21.437 21.347 21.264 21.144 21.039 20.889 20.782 20.722 20.712 20.707 20.679 20.684
50.432 50.295 50.19 50.092 49.985 49.872 49.82 49.772 49.697 49.612 49.557 49.535 49.49 49.63 49.47 50.902 50.41 48.832 49.292 48.5 48.262 48.07 47.935 47.767 47.582 47.462 47.292 47.067 46.902 46.747 46.625 46.48 46.34 46.197 46.02 45.807 45.605 45.405 45.185 44.932 45.932 45.927 44.715 43.352 43.505 43.702 43.162 42.757 42.5 42.387 44.647 44.615 41.662 41.01 40.862 41.657 42.555 41.622 39.93 40.345 40 39.292 39.165 38.977 39.31 39.39 38.125 37.815 37.755 37.75 37.757 37.65 37.452 37.24 36.985 36.727 36.36 36.302 36.095 35.747 36.39 36.302 35.72 34.95 34.702 34.54 34.455 34.412 34.847 35.592 35.795 35.602 35.122 34.33 33.595 33.372 33.13 33.045 32.98 32.907 32.8 32.7 32.637 32.52 32.402 32.25 32.115 31.917 31.722 31.592 31.51 31.375 31.265 31.157 31.047 31 30.912 30.815 30.707 30.615 30.495 30.387 30.265 30.197 30.102 30.05 29.962 29.867 29.802 29.727 29.657 29.56 29.497 29.417 29.335 29.26 29.165 29.08 29 28.94 28.872 28.805 28.695 28.55 28.462 28.342 28.285 28.19 28.097 28.025 27.97 27.892 27.842 27.782 27.67 27.642 27.555 27.52 27.467 27.417 27.377 27.342 27.31 27.267 27.26 27.207 27.207 27.2 27.175 27.125 27.09 27.052 27.025 27.022 27.01 27.01 26.997 26.98 26.957 26.942 26.922 26.945 26.965 26.987 27.012 27.025 27.017 27.05 27.045 27.037 27.075 27.102 27.147 27.215 27.225 27.212 27.2 27.24 27.275 27.282 27.282 27.315 27.322 27.367 27.347 27.297 27.282 27.35 27.36 27.332 27.317 27.282 27.292 27.29 27.31 27.312 27.302 27.245 27.272 27.252 27.235 27.212 27.147 27.13 27.112 27.057 27.012 26.93 26.912 26.865 26.86 26.847 26.84 26.792 26.712 26.66 26.592 26.557 26.492 26.457 26.43 26.402 26.332 26.302 26.272 26.239 26.194 26.184 26.112 26.082 26.039 25.984 25.917 25.862 25.874 25.809 25.724 25.667 25.599 25.507 25.419 25.344 25.262 25.149 25.037 24.934 24.827 24.712 24.609 24.497 24.417 24.389 24.349 24.382 24.884 24.749 24.334 24.367 24.409 24.512 24.569 24.692 24.797 24.922 25.037 25.167 25.304 25.382 25.474 25.619 25.744 25.827 25.907 25.967 26.042 26.137 26.227 26.234 26.257 26.309 26.314 26.359 26.399 26.497 26.669 27.394 29.599 27.127 26.559 26.169 25.902 25.589 25.102 24.882 24.914 24.812 25.092 25.589 26.207 26.987 27.294 28.627 29.109 29.167 29.249 28.827 26.942 26.929 26.879 26.864 26.887 26.897 26.902 26.902 27.254 28.669 28.982 27.199 29.879 31.349 31.309 30.884 27.834 26.704 26.757 26.724 26.709 27.524 27.962 26.802 26.734 26.744 26.754 26.732 26.667 26.607 26.562 26.502 26.447 26.394 26.347 26.287 26.234 26.204 26.189 26.152 26.137 26.124 26.077 26.044 26.002 25.952 25.907 25.854 25.807 25.709 25.667 25.599 25.509 25.457 25.394 25.279 25.212 25.162 25.117 25.054 25.002 24.907 24.817 24.734 24.694 24.607 24.549 24.492 24.407 24.324 24.234 24.127 24.009 23.942 23.852 23.759 23.637 23.534 23.417 23.329 23.184 23.129 23.019 22.949 22.844 22.742 22.659 22.592 22.497 22.387 22.317 22.257 22.172 22.077 21.987 21.894 21.829 21.739 21.659 21.599 21.502 21.452 21.387 21.242 21.174 20.994 20.979 20.829 20.757 20.722 20.682 20.667 20.677
50.535 50.44 50.325 50.187 50.115 50.045 49.97 49.9 49.83 49.732 49.675 49.637 49.597 50.07 50.617 50.12 49.587 49.037 48.927 48.787 48.58 48.382 48.225 48.06 47.91 47.757 47.572 47.335 47.152 46.972 46.827 46.705 46.552 46.39 46.192 45.96 45.742 45.535 45.335 45.127 45.752 44.805 44.077 43.58 43.737 43.562 43.147 43.31 42.75 42.285 42.687 42.557 41.407 41.127 40.912 44.347 46.452 43.815 44.7 43.59 40.125 39.702 39.232 39.23 40.775 39.672 38.242 38.02 37.93 37.895 37.855 37.772 37.707 37.547 37.31 37.02 36.715 36.37 35.982 35.73 35.85 35.23 35.655 36.527 34.715 34.597 34.917 34.537 34.245 34.105 34.205 35.182 35.312 35.227 34.825 34.475 34.09 33.32 32.995 32.907 32.825 32.722 32.62 32.517 32.392 32.242 32.097 31.935 31.737 31.617 31.53 31.407 31.282 31.187 31.107 31.025 30.93 30.817 30.72 30.61 30.485 30.337 30.255 30.192 30.122 30.055 29.955 29.89 29.772 29.722 29.62 29.527 29.477 29.405 29.317 29.23 29.13 29.065 28.99 28.927 28.87 28.8 28.682 28.562 28.445 28.325 28.25 28.15 28.065 28.025 27.992 27.935 27.85 27.805 27.725 27.607 27.565 27.527 27.477 27.407 27.397 27.382 27.342 27.315 27.285 27.252 27.275 27.25 27.205 27.15 27.107 27.087 27.09 27.072 27.035 27.025 27.007 27.02 26.997 26.982 26.95 26.98 27.035 27.04 27.047 27.067 27.102 27.115 27.12 27.112 27.152 27.18 27.207 27.247 27.275 27.265 27.27 27.285 27.325 27.332 27.322 27.322 27.382 27.392 27.395 27.287 27.325 27.397 27.392 27.35 27.337 27.317 27.31 27.292 27.327 27.342 27.325 27.287 27.295 27.282 27.27 27.245 27.175 27.15 27.13 27.1 27.05 27 26.955 26.917 26.91 26.887 26.862 26.84 26.767 26.717 26.652 26.592 26.545 26.505 26.455 26.4 26.355 26.322 26.299 26.249 26.232 26.194 26.132 26.132 26.062 26.007 25.942 25.892 25.882 25.819 25.744 25.687 25.602 25.522 25.474 25.387 25.259 25.154 25.057 24.929 24.887 24.774 24.659 24.572 24.457 24.417 24.379 24.404 24.649 24.677 24.347 24.369 24.464 24.554 24.652 24.744 24.847 24.982 25.092 25.227 25.332 25.389 25.504 25.649 25.769 25.832 25.924 26.004 26.094 26.172 26.199 26.227 26.274 26.324 26.369 26.404 26.487 26.832 27.297 29.089 28.652 29.304 26.252 25.884 25.657 25.172 24.939 24.929 24.854 25.089 25.647 26.142 27.742 28.497 26.902 27.309 28.454 29.099 29.117 27.067 26.942 26.927 26.924 26.884 26.889 26.882 26.902 26.912 26.924 26.919 26.852 26.879 30.249 31.014 31.357 29.737 26.762 26.779 26.782 26.762 26.847 28.419 27.287 26.807 26.804 26.817 26.767 26.744 26.682 26.612 26.569 26.524 26.464 26.404 26.372 26.334 26.272 26.234 26.209 26.197 26.172 26.134 26.104 26.064 26.009 25.967 25.937 25.854 25.799 25.754 25.674 25.607 25.562 25.459 25.389 25.327 25.254 25.187 25.122 25.044 24.977 24.889 24.819 24.722 24.662 24.607 24.547 24.484 24.387 24.322 24.207 24.132 24.042 23.962 23.854 23.759 23.664 23.549 23.452 23.327 23.239 23.127 23.047 22.954 22.872 22.749 22.647 22.584 22.482 22.409 22.332 22.249 22.174 22.092 21.969 21.932 21.872 21.767 21.704 21.602 21.542 21.447 21.364 21.244 21.174 21.054 20.969 20.894 20.767 20.734 20.712 20.672 20.649
50.68 50.597 50.485 50.365 50.267 50.192 50.142 50.077 50.005 49.895 49.802 49.735 49.747 50.555 51.055 49.732 50.812 49.262 49.125 49.02 48.855 48.682 48.567 48.405 48.225 48.07 47.87 47.615 47.417 47.217 47.072 46.915 46.725 46.557 46.372 46.112 45.875 45.657 45.48 45.237 46.24 44.327 44.08 44.085 43.912 43.72 43.985 43.17 42.845 42.455 42.092 41.817 41.545 41.225 40.712 45.375 46.462 45.45 45.547 44.082 40.05 40.67 40.005 38.887 38.907 39.252 38.272 38.16 38.097 38.012 37.947 37.812 37.747 37.68 37.56 37.43 37.177 36.772 36.375 36.012 35.597 35.245 34.992 34.815 34.7 34.667 34.827 35.52 35.577 35.182 33.985 33.832 33.77 33.83 34.177 34.782 35.227 34.855 34.462 33.905 33.265 32.762 32.592 32.477 32.337 32.21 32.07 31.922 31.77 31.63 31.522 31.467 31.312 31.215 31.107 31.03 30.935 30.825 30.702 30.615 30.467 30.347 30.27 30.192 30.13 30.035 29.942 29.87 29.775 29.705 29.602 29.54 29.477 29.387 29.287 29.217 29.122 29.055 28.997 28.922 28.865 28.775 28.665 28.577 28.44 28.327 28.202 28.125 28.052 28.017 27.987 27.887 27.787 27.73 27.69 27.617 27.595 27.535 27.507 27.44 27.422 27.407 27.362 27.36 27.32 27.305 27.29 27.267 27.242 27.2 27.175 27.145 27.12 27.107 27.075 27.045 27.04 27.05 27.022 27.03 27.03 27.062 27.1 27.087 27.087 27.135 27.17 27.167 27.15 27.165 27.212 27.242 27.272 27.332 27.31 27.29 27.327 27.342 27.352 27.385 27.345 27.375 27.427 27.422 27.41 27.337 27.355 27.405 27.427 27.39 27.387 27.355 27.355 27.357 27.355 27.342 27.327 27.307 27.32 27.297 27.297 27.287 27.232 27.192 27.155 27.112 27.06 27.042 26.987 26.967 26.945 26.935 26.932 26.887 26.802 26.74 26.677 26.617 26.587 26.55 26.497 26.447 26.382 26.342 26.307 26.289 26.257 26.212 26.137 26.134 26.097 26.022 25.952 25.912 25.899 25.849 25.757 25.702 25.622 25.502 25.429 25.397 25.304 25.182 25.084 24.974 24.909 24.794 24.699 24.592 24.492 24.444 24.387 24.442 25.497 24.522 24.364 24.417 24.507 24.617 24.697 24.792 24.902 25.032 25.149 25.279 25.359 25.432 25.562 25.672 25.784 25.879 25.979 26.047 26.147 26.177 26.204 26.249 26.309 26.367 26.417 26.502 26.689 26.927 26.812 26.779 26.952 29.587 25.989 25.704 25.177 24.982 24.992 24.904 25.067 25.672 26.332 27.847 28.487 26.984 26.982 27.062 27.647 28.467 27.842 27.002 27.072 27.482 26.964 26.942 26.949 27.457 26.954 26.927 26.927 26.937 26.919 26.909 26.894 27.562 30.134 27.189 26.842 26.814 26.827 26.739 28.054 27.922 26.852 26.874 26.854 26.837 26.799 26.704 26.662 26.614 26.572 26.512 26.457 26.437 26.384 26.344 26.339 26.297 26.267 26.222 26.207 26.172 26.127 26.097 26.042 25.997 25.934 25.867 25.829 25.739 25.669 25.597 25.519 25.449 25.384 25.344 25.269 25.197 25.112 25.042 24.967 24.887 24.804 24.732 24.667 24.624 24.519 24.447 24.387 24.312 24.219 24.122 24.067 23.954 23.852 23.762 23.652 23.534 23.479 23.332 23.252 23.137 23.054 22.954 22.867 22.749 22.654 22.602 22.457 22.429 22.322 22.264 22.147 22.054 21.997 21.944 21.864 21.792 21.734 21.619 21.549 21.447 21.352 21.257 21.174 21.092 21.007 20.892 20.834 20.742 20.717 20.687 20.669
50.822 50.735 50.64 50.522 50.412 50.33 50.27 50.23 50.15 50.045 49.935 49.877 50.005 50.837 51.692 50.207 49.572 49.435 49.275 49.197 49.075 48.94 48.837 48.675 48.517 48.352 48.145 47.875 47.665 47.46 47.275 47.097 46.91 46.7 46.467 46.255 46.007 45.827 45.632 45.585 46.067 44.48 44.337 44.245 44.035 43.727 43.53 43.3 44.482 42.922 42.305 41.94 41.66 41.252 41.507 45.677 46.387 44.73 45.535 43.992 40.275 39.657 39.215 38.95 39.12 39.74 42.492 39.107 38.175 38.12 38.322 38.83 37.795 37.725 37.677 38.247 37.467 37.152 37.277 36.445 35.96 35.34 34.877 34.837 34.845 34.795 34.595 34.525 34.697 36.155 36.675 35.087 33.837 33.637 33.527 33.422 33.865 34.147 34.812 34.352 33.89 33.81 33.487 32.907 32.325 32.172 32.05 31.897 31.765 31.652 31.582 31.482 31.347 31.227 31.092 31.037 30.932 30.82 30.722 30.602 30.437 30.31 30.237 30.18 30.09 30.012 29.96 29.895 29.785 29.715 29.59 29.492 29.44 29.377 29.265 29.195 29.125 29.065 28.997 28.912 28.847 28.747 28.655 28.557 28.447 28.327 28.217 28.125 28.047 28 27.947 27.877 27.797 27.717 27.67 27.625 27.58 27.55 27.512 27.45 27.425 27.43 27.397 27.407 27.365 27.352 27.32 27.302 27.257 27.22 27.22 27.2 27.172 27.15 27.09 27.092 27.087 27.075 27.075 27.085 27.052 27.09 27.117 27.132 27.167 27.182 27.21 27.205 27.207 27.205 27.267 27.297 27.33 27.36 27.37 27.357 27.38 27.375 27.412 27.427 27.367 27.412 27.465 27.445 27.472 27.387 27.372 27.395 27.477 27.437 27.422 27.412 27.397 27.39 27.367 27.365 27.347 27.335 27.342 27.332 27.332 27.285 27.282 27.237 27.195 27.167 27.09 27.07 27.047 27.007 27.015 27 26.992 26.932 26.84 26.78 26.715 26.68 26.637 26.595 26.56 26.477 26.442 26.359 26.329 26.294 26.279 26.232 26.157 26.124 26.097 26.052 25.969 25.939 25.924 25.844 25.759 25.679 25.607 25.517 25.467 25.422 25.312 25.214 25.122 25.024 24.939 24.812 24.729 24.622 24.539 24.449 24.424 24.457 25.942 24.592 24.374 24.454 24.547 24.659 24.719 24.804 24.914 25.077 25.194 25.317 25.374 25.517 25.609 25.737 25.859 25.904 25.992 26.084 26.149 26.172 26.179 26.279 26.322 26.394 26.502 26.637 28.792 27.317 26.827 30.969 27.084 29.449 25.682 25.199 24.992 24.992 24.947 25.122 25.652 26.239 27.739 28.527 27.104 27.009 26.972 27.002 27.692 27.387 27.867 27.102 27.177 27.072 27.692 27.239 27.714 27.919 27.642 27.044 26.927 26.937 26.929 26.934 26.904 26.894 26.849 26.822 26.862 26.859 26.827 27.162 28.424 27.014 26.882 26.902 26.912 26.854 26.792 26.719 26.667 26.624 26.572 26.537 26.467 26.447 26.419 26.372 26.369 26.354 26.294 26.262 26.229 26.204 26.142 26.094 26.074 25.997 25.954 25.862 25.834 25.747 25.677 25.594 25.519 25.437 25.387 25.344 25.279 25.217 25.102 25.039 24.954 24.864 24.807 24.729 24.672 24.589 24.514 24.412 24.362 24.264 24.204 24.134 24.049 23.934 23.839 23.749 23.634 23.554 23.432 23.337 23.224 23.129 23.062 22.944 22.852 22.769 22.682 22.587 22.509 22.429 22.339 22.234 22.147 22.067 22.019 21.924 21.857 21.822 21.702 21.664 21.557 21.442 21.327 21.242 21.152 21.099 21.042 20.972 20.867 20.772 20.729 20.719 20.687
50.977 50.897 50.772 50.687 50.605 50.502 50.425 50.355 50.292 50.18 50.037 50.01 50.082 51.877 51.267 51.197 49.67 49.555 49.462 49.347 49.26 49.157 49.047 48.907 48.745 48.57 48.365 48.095 47.87 47.67 47.487 47.28 47.07 46.847 46.61 46.385 46.172 46.02 45.795 45.877 46.08 44.537 44.365 44.312 44.067 43.857 43.765 43.372 43.16 42.735 42.392 42.017 41.725 41.17 41.255 42.185 44.282 45.317 46.457 44.455 43.05 40.515 39.277 39.05 39.09 39.987 42.467 42.187 38.32 38.225 38.26 38.77 39.515 39.23 40.88 43.535 39.925 38.257 41.007 38.177 36.372 35.862 35.027 34.752 34.897 35.525 34.635 34.455 34.287 35.907 34.272 33.99 35.155 34.312 35.615 33.627 33.285 33.2 33.182 33.28 33.327 33.832 34.2 33.99 33.442 32.53 32.235 31.867 31.757 31.655 31.607 32.232 32.08 31.23 31.132 31.025 30.917 30.815 30.687 30.572 30.427 30.312 30.222 30.145 30.06 29.987 29.927 29.852 29.765 29.672 29.57 29.485 29.417 29.325 29.237 29.16 29.1 29.027 28.942 28.892 28.815 28.702 28.632 28.527 28.44 28.332 28.227 28.135 28.072 28.035 27.945 27.862 27.797 27.73 27.687 27.647 27.602 27.567 27.53 27.495 27.487 27.48 27.43 27.422 27.372 27.347 27.367 27.32 27.29 27.277 27.26 27.217 27.21 27.182 27.147 27.137 27.142 27.082 27.097 27.092 27.095 27.13 27.14 27.165 27.207 27.235 27.277 27.257 27.275 27.282 27.342 27.36 27.392 27.41 27.41 27.445 27.427 27.422 27.425 27.437 27.457 27.485 27.472 27.47 27.455 27.462 27.41 27.407 27.5 27.455 27.43 27.465 27.43 27.43 27.432 27.402 27.382 27.362 27.37 27.375 27.347 27.335 27.32 27.25 27.235 27.187 27.127 27.112 27.087 27.072 27.055 27.082 27.032 26.98 26.9 26.83 26.765 26.735 26.682 26.645 26.585 26.542 26.5 26.409 26.374 26.324 26.302 26.234 26.202 26.122 26.077 26.054 25.999 25.967 25.924 25.884 25.784 25.714 25.622 25.537 25.469 25.372 25.302 25.207 25.132 25.027 24.969 24.879 24.772 24.627 24.554 24.472 24.462 24.529 25.334 24.627 24.439 24.502 24.594 24.654 24.767 24.857 24.969 25.102 25.222 25.329 25.429 25.577 25.682 25.774 25.884 25.954 26.037 26.097 26.127 26.164 26.187 26.289 26.347 26.457 26.824 30.082 28.484 27.169 26.827 28.722 27.352 25.644 25.122 25.007 25.044 24.972 25.082 25.609 26.284 27.594 29.304 27.482 30.994 27.729 27.024 27.064 27.054 27.134 27.814 27.934 27.162 27.364 27.337 28.394 27.477 27.404 27.842 27.647 26.984 26.917 26.944 26.947 26.937 26.892 26.859 26.899 26.902 26.872 26.844 28.239 27.777 26.937 26.927 26.924 26.914 26.854 26.777 26.694 26.667 26.647 26.579 26.529 26.487 26.454 26.432 26.394 26.377 26.357 26.364 26.292 26.257 26.227 26.182 26.149 26.107 26.012 25.964 25.897 25.824 25.747 25.682 25.614 25.519 25.464 25.384 25.327 25.234 25.182 25.112 25.017 24.949 24.889 24.807 24.732 24.679 24.597 24.489 24.407 24.329 24.252 24.164 24.119 24.019 23.937 23.814 23.732 23.629 23.512 23.437 23.334 23.257 23.164 23.069 22.942 22.867 22.777 22.704 22.609 22.542 22.459 22.342 22.252 22.144 22.067 21.992 21.919 21.862 21.827 21.749 21.679 21.592 21.434 21.342 21.247 21.169 21.114 21.059 20.997 20.894 20.859 20.789 20.742 20.704
51.14 51.02 50.985 50.87 50.782 50.695 50.592 50.515 50.432 50.325 50.24 50.185 51.057 51.83 50.765 52.705 49.935 49.722 49.62 49.545 49.412 49.32 49.195 49.075 48.912 48.772 48.555 48.297 48.055 47.855 47.672 47.46 47.232 47.015 46.765 46.527 46.362 46.182 45.912 45.977 46.185 44.735 45.24 45.08 44.19 44.025 44.01 43.357 43.147 42.687 42.405 42.075 41.747 42.377 40.755 40.147 41.257 45.212 45.692 44.442 42.932 40.425 39.447 39.3 39.667 40.125 39.392 40.912 38.63 38.27 38.307 40.39 41.54 40.937 41.062 46.045 42.772 38.272 38.547 37.427 37.21 36.475 36.26 35.137 35.767 35.52 34.862 34.635 34.342 34.17 33.9 33.697 33.615 33.55 35.115 35.09 35.532 33.77 33.322 32.977 32.822 32.85 32.98 33.535 33.502 33.92 32.877 32.372 32.035 31.675 31.575 31.562 31.422 31.29 31.142 30.997 30.905 30.782 30.675 30.535 30.39 30.292 30.202 30.107 30.037 29.932 29.89 29.807 29.722 29.642 29.552 29.462 29.39 29.317 29.205 29.17 29.085 29.01 28.95 28.89 28.765 28.667 28.582 28.522 28.432 28.325 28.232 28.15 28.097 28.01 27.955 27.877 27.82 27.752 27.752 27.722 27.64 27.605 27.592 27.552 27.532 27.507 27.445 27.437 27.42 27.392 27.425 27.34 27.322 27.292 27.287 27.26 27.227 27.205 27.17 27.16 27.165 27.135 27.16 27.13 27.152 27.18 27.175 27.222 27.275 27.315 27.332 27.33 27.33 27.352 27.395 27.417 27.427 27.475 27.502 27.482 27.462 27.457 27.485 27.485 27.53 27.535 27.525 27.495 27.502 27.52 27.462 27.432 27.515 27.5 27.5 27.492 27.502 27.45 27.457 27.44 27.477 27.437 27.43 27.422 27.407 27.37 27.355 27.307 27.29 27.23 27.157 27.16 27.102 27.102 27.07 27.095 27.06 27.005 26.915 26.862 26.815 26.802 26.732 26.692 26.655 26.59 26.55 26.469 26.419 26.382 26.357 26.317 26.239 26.162 26.117 26.079 26.019 25.967 25.944 25.839 25.782 25.679 25.614 25.527 25.467 25.384 25.297 25.204 25.127 25.044 24.974 24.877 24.814 24.674 24.582 24.504 24.499 24.734 25.477 24.359 24.419 24.532 24.634 24.712 24.807 24.899 24.997 25.144 25.262 25.374 25.514 25.634 25.739 25.814 25.889 26.012 26.069 26.114 26.147 26.189 26.237 26.292 26.404 26.549 26.982 28.387 27.777 26.809 26.702 26.244 25.579 25.064 25.027 25.069 24.982 25.122 25.667 26.302 26.844 28.619 27.697 27.064 30.034 28.529 27.062 27.092 27.104 27.092 27.097 27.057 27.064 27.169 27.912 27.877 27.439 27.762 27.929 27.957 27.317 26.979 26.954 26.957 26.972 26.917 26.902 26.932 26.939 26.874 27.717 28.444 27.102 26.987 26.969 26.942 26.904 26.844 26.784 26.732 26.677 26.634 26.584 26.549 26.494 26.479 26.454 26.452 26.397 26.407 26.392 26.322 26.297 26.249 26.224 26.189 26.102 26.054 25.997 25.922 25.837 25.787 25.694 25.629 25.542 25.472 25.384 25.307 25.242 25.157 25.072 25.002 24.929 24.857 24.784 24.732 24.649 24.544 24.479 24.402 24.302 24.217 24.169 24.082 23.999 23.894 23.794 23.682 23.594 23.492 23.394 23.312 23.267 23.152 23.062 22.972 22.902 22.794 22.697 22.662 22.529 22.407 22.342 22.257 22.149 22.064 22.029 21.929 21.879 21.794 21.729 21.657 21.554 21.487 21.349 21.247 21.174 21.107 21.052 20.984 20.942 20.839 20.822 20.809 20.732
51.322 51.245 51.132 51.035 50.937 50.88 50.757 50.69 50.602 50.5 50.4 50.355 51.452 52.29 50.557 52.452 50.665 49.872 49.79 49.712 49.58 49.455 49.35 49.192 49.067 48.917 48.707 48.445 48.212 47.98 47.805 47.63 47.425 47.18 46.907 46.69 46.505 46.327 46.08 46.145 46.29 44.912 45.175 44.922 44.192 43.95 43.65 43.42 46.997 45.112 42.385 42.147 42.33 45.387 44.985 42.235 41.487 45.405 45.477 44.742 42.805 40.24 39.6 39.437 39.292 39.687 40.165 40.617 42.587 40.197 40.132 39.69 40.965 41.292 41.642 41.955 41.017 38.287 37.485 37.517 37.802 37.35 37.122 38.665 35.83 34.91 34.855 34.802 34.545 34.217 33.987 33.74 33.592 33.502 33.365 33.272 33.442 33.425 36.452 34.542 33.392 32.822 32.627 32.495 32.387 32.422 32.57 32.55 33.512 32.992 32.412 34.257 31.5 31.785 33.005 33.03 32.667 30.797 30.645 30.51 30.382 30.3 30.18 30.065 30.002 29.912 29.857 29.782 29.695 29.615 29.53 29.435 29.342 29.275 29.2 29.137 29.08 28.982 28.922 28.852 28.76 28.677 28.577 28.492 28.412 28.287 28.205 28.13 28.075 28.015 27.94 27.877 27.845 27.79 27.717 27.7 27.682 27.655 27.66 27.617 27.572 27.517 27.487 27.472 27.437 27.422 27.41 27.375 27.342 27.345 27.322 27.267 27.232 27.212 27.195 27.207 27.197 27.155 27.177 27.192 27.217 27.232 27.245 27.297 27.36 27.375 27.367 27.382 27.377 27.427 27.427 27.452 27.485 27.572 27.58 27.535 27.522 27.522 27.545 27.547 27.567 27.585 27.57 27.565 27.542 27.577 27.532 27.477 27.505 27.532 27.515 27.515 27.517 27.487 27.477 27.505 27.517 27.477 27.462 27.457 27.452 27.402 27.375 27.35 27.34 27.255 27.227 27.18 27.135 27.115 27.115 27.13 27.1 27.037 26.947 26.92 26.872 26.822 26.765 26.742 26.687 26.635 26.595 26.509 26.457 26.437 26.399 26.369 26.277 26.192 26.157 26.092 26.059 26.014 25.942 25.869 25.802 25.672 25.604 25.537 25.452 25.372 25.289 25.197 25.132 25.057 24.969 24.892 24.819 24.697 24.627 24.552 24.539 24.857 25.732 24.502 24.432 24.569 24.689 24.757 24.849 24.939 25.049 25.169 25.327 25.424 25.572 25.722 25.792 25.889 25.977 26.072 26.097 26.152 26.209 26.244 26.294 26.377 26.514 26.802 27.544 26.767 26.777 26.734 26.322 25.669 25.102 25.034 25.092 25.054 25.117 25.699 26.302 26.784 28.889 28.114 27.089 27.089 27.467 27.079 27.134 27.107 27.169 27.142 27.157 27.149 27.184 27.504 27.684 27.142 27.137 28.204 28.814 27.557 28.022 27.304 26.974 26.967 26.959 26.909 26.959 26.957 26.949 27.149 28.472 27.544 27.012 27.002 27.027 26.964 26.932 26.864 26.794 26.749 26.707 26.639 26.599 26.567 26.512 26.499 26.469 26.487 26.442 26.444 26.402 26.362 26.319 26.299 26.244 26.199 26.164 26.074 26.002 25.929 25.857 25.792 25.724 25.647 25.549 25.487 25.394 25.302 25.217 25.127 25.049 24.997 24.919 24.844 24.777 24.702 24.619 24.549 24.454 24.374 24.302 24.229 24.157 24.052 23.942 23.872 23.757 23.672 23.554 23.479 23.364 23.342 23.259 23.169 23.092 22.997 22.897 22.784 22.699 22.597 22.519 22.392 22.327 22.254 22.192 22.094 21.994 21.932 21.834 21.809 21.722 21.644 21.537 21.444 21.357 21.272 21.194 21.119 21.054 21.007 20.952 20.899 20.852 20.847 20.782
51.44 51.37 51.285 51.195 51.127 51.007 50.975 50.885 50.785 50.687 50.57 50.665 52.72 51.507 51.21 53.395 50.465 50.035 49.927 49.845 49.742 49.585 49.485 49.362 49.22 49.065 48.87 48.61 48.392 48.167 47.952 47.787 47.575 47.335 47.077 46.84 46.647 46.487 46.252 46.602 45.66 45.872 46.6 45.91 44.492 44.035 43.755 43.397 44.112 46.83 42.402 42.2 42.987 43.657 42.39 42.845 42.872 45.76 45.397 44.287 42.28 39.965 39.652 39.495 39.437 43.115 42.63 42.615 48.845 46.307 41.31 38.542 41.105 42.002 42.09 42.207 42.235 38.995 37.495 37.537 37.315 37.077 36.927 36.85 36.69 35.907 34.84 34.642 34.637 34.432 34.12 33.847 33.642 33.527 33.43 33.322 33.175 33.03 33.407 33.32 33.532 34.347 34.94 35.067 34.685 32.257 32.152 32.01 31.952 32.332 33.872 33.967 36.24 32.722 33.677 31.242 33.302 30.8 30.697 30.532 30.4 30.292 30.18 30.077 30.005 29.935 29.862 29.777 29.692 29.62 29.545 29.44 29.365 29.282 29.21 29.147 29.082 29 28.947 28.872 28.795 28.702 28.605 28.525 28.4 28.295 28.212 28.145 28.1 28.005 27.935 27.912 27.877 27.82 27.762 27.72 27.712 27.735 27.697 27.65 27.615 27.552 27.515 27.477 27.44 27.435 27.425 27.397 27.37 27.372 27.35 27.305 27.287 27.242 27.247 27.247 27.215 27.195 27.22 27.227 27.265 27.297 27.322 27.36 27.397 27.407 27.392 27.432 27.425 27.46 27.48 27.515 27.567 27.612 27.62 27.61 27.572 27.577 27.622 27.612 27.61 27.665 27.595 27.622 27.597 27.627 27.592 27.527 27.565 27.575 27.537 27.547 27.56 27.552 27.542 27.555 27.562 27.515 27.52 27.495 27.477 27.445 27.435 27.402 27.362 27.307 27.26 27.222 27.18 27.142 27.15 27.14 27.112 27.05 26.995 26.957 26.905 26.862 26.825 26.775 26.737 26.707 26.652 26.579 26.537 26.494 26.452 26.389 26.287 26.232 26.199 26.144 26.074 26.032 25.982 25.882 25.784 25.707 25.607 25.542 25.424 25.349 25.267 25.194 25.122 25.037 24.979 24.902 24.819 24.699 24.639 24.564 24.544 24.717 24.987 24.509 24.479 24.614 24.709 24.822 24.874 24.999 25.107 25.217 25.359 25.504 25.659 25.789 25.877 25.962 26.042 26.094 26.124 26.189 26.234 26.284 26.374 26.532 26.779 26.774 26.759 26.809 26.722 26.274 25.764 25.184 25.042 25.132 25.074 25.159 25.687 26.462 27.359 27.824 27.732 27.237 27.154 27.132 27.362 27.139 27.169 27.167 27.179 27.227 27.232 27.222 27.284 29.107 28.674 27.199 27.207 27.177 28.657 27.592 27.782 27.314 26.992 26.992 26.959 26.949 26.979 26.974 26.977 28.147 27.902 27.067 27.062 27.074 27.032 26.977 26.912 26.859 26.812 26.762 26.697 26.664 26.639 26.597 26.534 26.527 26.512 26.507 26.482 26.437 26.437 26.389 26.374 26.319 26.252 26.224 26.172 26.077 25.994 25.927 25.857 25.784 25.729 25.644 25.579 25.499 25.372 25.317 25.207 25.124 25.059 24.972 24.889 24.819 24.759 24.689 24.587 24.514 24.419 24.369 24.282 24.212 24.129 24.042 23.919 23.832 23.749 23.632 23.537 23.447 23.379 23.307 23.239 23.149 23.047 22.979 22.837 22.759 22.684 22.634 22.462 22.409 22.329 22.254 22.147 22.089 21.987 21.922 21.874 21.807 21.712 21.629 21.544 21.452 21.364 21.272 21.207 21.124 21.052 21.004 20.967 20.942 20.909 20.877 20.834
51.592 51.497 51.407 51.32 51.23 51.16 51.112 51.015 50.937 50.815 50.737 50.895 52.192 51.835 51.73 52.835 50.757 50.165 50.072 50 49.865 49.725 49.625 49.477 49.34 49.192 49.02 48.797 48.575 48.37 48.122 47.915 47.707 47.487 47.25 46.985 46.802 46.602 46.43 46.67 45.58 45.932 45.937 44.807 44.382 44.11 43.757 43.357 42.99 43.795 42.505 42.27 42.372 42.152 41.642 42.682 42.15 45.447 45.195 43.752 41.867 39.957 39.695 39.572 39.442 45.375 46.9 47.427 48.47 47.347 40.332 38.655 41.86 42.46 42.412 42.442 42.367 39.275 37.58 37.752 37.565 38.417 38.025 37.235 37.097 36.922 35.675 34.507 34.475 34.48 34.272 33.99 33.74 33.605 33.457 33.335 33.21 33.087 32.965 32.827 32.695 32.535 32.685 32.607 33.125 34.727 34.235 32.182 31.93 31.795 31.88 35.317 36.195 34.63 35.135 36.932 34.675 34.492 30.785 30.52 30.422 30.297 30.187 30.107 30.012 29.937 29.86 29.785 29.68 29.622 29.545 29.435 29.357 29.31 29.227 29.15 29.092 29.015 28.932 28.857 28.8 28.737 28.627 28.53 28.422 28.317 28.265 28.165 28.102 28.037 27.957 27.935 27.907 27.842 27.812 27.762 27.785 27.75 27.71 27.627 27.635 27.58 27.555 27.5 27.475 27.467 27.452 27.4 27.377 27.377 27.362 27.32 27.312 27.292 27.262 27.292 27.267 27.275 27.322 27.297 27.325 27.35 27.377 27.415 27.45 27.455 27.455 27.485 27.492 27.517 27.525 27.57 27.64 27.672 27.657 27.625 27.58 27.61 27.637 27.645 27.677 27.657 27.642 27.677 27.647 27.65 27.627 27.562 27.562 27.615 27.587 27.577 27.605 27.6 27.602 27.582 27.595 27.552 27.567 27.527 27.515 27.507 27.48 27.44 27.4 27.365 27.317 27.255 27.212 27.197 27.187 27.187 27.122 27.062 27.015 26.98 26.93 26.882 26.857 26.817 26.797 26.755 26.712 26.634 26.574 26.539 26.502 26.429 26.352 26.242 26.202 26.139 26.092 26.072 25.977 25.917 25.812 25.734 25.619 25.527 25.412 25.334 25.257 25.147 25.097 25.024 24.972 24.882 24.804 24.719 24.649 24.577 24.557 25.182 24.567 24.469 24.517 24.662 24.757 24.854 24.942 25.029 25.159 25.297 25.432 25.572 25.727 25.852 25.932 26.044 26.102 26.147 26.192 26.237 26.274 26.347 26.537 27.359 26.984 26.767 26.804 26.732 26.294 25.729 25.222 25.072 25.149 25.127 25.182 25.707 26.212 27.537 28.859 28.399 27.662 27.274 27.204 27.159 27.154 27.182 27.207 27.217 27.217 27.404 27.677 29.007 28.644 31.257 31.297 28.357 27.209 27.224 27.827 28.207 27.879 27.447 27.012 26.984 26.974 26.997 26.999 26.992 27.629 28.567 27.259 27.089 27.124 27.107 27.054 26.984 26.919 26.872 26.842 26.762 26.717 26.664 26.642 26.597 26.589 26.589 26.552 26.554 26.499 26.469 26.444 26.407 26.369 26.332 26.262 26.239 26.167 26.077 25.969 25.922 25.849 25.807 25.704 25.632 25.579 25.477 25.402 25.302 25.209 25.132 25.042 24.972 24.867 24.794 24.734 24.634 24.552 24.474 24.424 24.329 24.287 24.202 24.109 24.004 23.899 23.804 23.702 23.619 23.514 23.432 23.372 23.322 23.224 23.109 23.009 22.917 22.814 22.762 22.672 22.559 22.469 22.379 22.297 22.229 22.142 22.077 21.999 21.919 21.854 21.754 21.697 21.609 21.527 21.447 21.354 21.272 21.182 21.127 21.052 21.004 20.969 20.969 20.934 20.884 20.874
51.705 51.652 51.545 51.475 51.377 51.302 51.232 51.192 51.07 50.977 50.945 51.45 53.355 52.23 50.872 53.252 52.202 50.305 50.212 50.15 50.027 49.88 49.775 49.652 49.512 49.335 49.155 48.975 48.817 48.61 48.35 48.127 47.877 47.652 47.392 47.117 46.927 46.7 46.487 46.187 45.695 45.462 45.39 44.902 44.577 44.272 43.91 43.572 43.137 42.855 42.517 42.262 41.977 41.665 41.66 42.112 41.18 43.125 43.227 42.157 40.985 39.967 39.78 39.647 39.487 41.097 44.927 48.127 47.57 42.302 38.455 39.205 41.237 41.745 41.705 41.625 41.562 39.24 37.715 38.157 40.14 40.547 39.97 38.672 37.587 37.272 36.282 34.91 34.207 34.337 34.3 34 33.797 33.57 33.425 33.315 33.187 33.087 32.952 32.84 32.69 32.515 32.375 32.227 32.267 33.855 35.185 33.667 33.337 33.157 32.41 36.4 34.71 31.382 31.54 36.387 37.27 33.53 32.417 31.78 31.18 30.69 30.43 30.112 30.017 29.925 29.84 29.742 29.67 29.582 29.507 29.437 29.355 29.28 29.217 29.145 29.07 29.007 28.94 28.872 28.792 28.72 28.625 28.515 28.415 28.32 28.24 28.172 28.122 28.035 27.96 27.96 27.925 27.852 27.847 27.822 27.842 27.8 27.707 27.682 27.655 27.607 27.58 27.557 27.547 27.497 27.485 27.41 27.392 27.387 27.372 27.332 27.335 27.327 27.317 27.335 27.335 27.347 27.367 27.39 27.395 27.435 27.472 27.467 27.5 27.495 27.502 27.545 27.542 27.577 27.585 27.617 27.702 27.73 27.69 27.677 27.62 27.662 27.685 27.672 27.705 27.732 27.7 27.73 27.73 27.68 27.68 27.625 27.622 27.642 27.617 27.62 27.64 27.647 27.632 27.635 27.645 27.612 27.612 27.572 27.577 27.542 27.522 27.462 27.437 27.385 27.372 27.295 27.257 27.242 27.212 27.202 27.162 27.095 27.02 26.995 26.982 26.915 26.88 26.87 26.82 26.797 26.757 26.684 26.644 26.619 26.517 26.462 26.364 26.317 26.244 26.174 26.117 26.047 25.982 25.914 25.842 25.767 25.697 25.572 25.442 25.342 25.234 25.137 25.094 25.034 24.997 24.914 24.797 24.729 24.679 24.622 24.609 25.432 24.814 24.539 24.557 24.677 24.779 24.874 24.974 25.074 25.229 25.367 25.514 25.647 25.784 25.904 26.002 26.112 26.159 26.217 26.254 26.287 26.357 26.532 26.729 27.622 26.827 26.849 26.704 26.384 25.784 25.292 25.092 25.174 25.152 25.152 25.744 26.234 26.757 27.914 27.712 27.304 27.257 27.292 27.224 27.207 27.227 27.232 27.252 27.244 27.302 27.432 29.794 32.072 32.594 32.384 30.114 27.304 27.249 27.237 27.512 28.697 28.022 27.844 27.022 26.974 26.992 27.029 27.062 27.222 28.552 27.667 27.102 27.142 27.129 27.104 27.042 26.997 26.939 26.904 26.867 26.757 26.734 26.692 26.667 26.619 26.637 26.589 26.584 26.562 26.529 26.502 26.469 26.429 26.382 26.302 26.262 26.224 26.117 26.052 25.972 25.932 25.842 25.779 25.704 25.619 25.539 25.479 25.379 25.314 25.227 25.124 25.049 24.959 24.877 24.787 24.717 24.629 24.557 24.442 24.374 24.312 24.257 24.167 24.084 23.979 23.867 23.764 23.637 23.572 23.474 23.409 23.352 23.272 23.192 23.062 22.992 22.894 22.817 22.739 22.634 22.537 22.457 22.352 22.287 22.217 22.154 22.077 21.979 21.917 21.844 21.752 21.679 21.587 21.492 21.427 21.369 21.282 21.179 21.132 21.092 21.037 21.009 20.979 20.939 20.922 20.922
51.885 51.75 51.687 51.617 51.5 51.435 51.377 51.31 51.192 51.1 51.092 51.687 53.487 53.042 51.452 53.35 52.18 50.412 50.265 50.245 50.195 50.085 49.967 49.852 49.695 49.505 49.355 49.15 48.972 48.8 48.542 48.327 48.082 47.837 47.595 47.34 47.1 46.837 46.755 47.132 46.415 45.932 45.35 45.08 44.78 44.47 44.285 43.702 44.147 43.627 42.527 42.275 42.082 43.277 41.265 41.365 40.927 41.13 41.895 41.412 40.13 39.977 39.847 39.705 39.562 39.407 46.407 46.717 46.127 41.905 38.482 38.457 39.96 41.192 41.16 41.147 41.075 39.412 37.825 39.185 39.677 40.41 40.19 39.12 37.362 37.43 36.55 38.445 35.045 34.462 34.12 33.962 33.782 33.545 33.4 33.255 33.147 33.027 32.925 32.825 32.702 32.582 32.412 32.252 32.115 31.962 31.952 32.02 33.23 33.262 33.19 32.122 31.94 32.055 35.687 41.542 33.1 32.717 31.73 31.992 32.482 32.097 31.637 31.232 30.402 29.975 29.83 29.732 29.602 29.507 29.47 29.415 29.347 29.295 29.215 29.16 29.13 29.03 28.962 28.875 28.797 28.687 28.585 28.497 28.412 28.327 28.255 28.202 28.115 28.052 28.015 27.997 27.927 27.852 27.845 27.847 28.105 27.85 27.735 27.697 27.657 27.637 27.63 27.605 27.59 27.545 27.507 27.45 27.42 27.417 27.382 27.37 27.395 27.382 27.385 27.4 27.402 27.435 27.44 27.445 27.442 27.49 27.522 27.545 27.545 27.545 27.57 27.597 27.61 27.602 27.632 27.692 27.767 27.75 27.71 27.702 27.68 27.712 27.702 27.682 27.707 27.76 27.747 27.76 27.772 27.717 27.732 27.69 27.622 27.667 27.675 27.652 27.67 27.71 27.67 27.652 27.66 27.66 27.655 27.637 27.627 27.605 27.522 27.53 27.545 27.437 27.39 27.347 27.307 27.277 27.247 27.237 27.195 27.102 27.052 27.037 26.997 26.967 26.942 26.907 26.86 26.832 26.77 26.724 26.697 26.657 26.557 26.497 26.407 26.339 26.279 26.192 26.139 26.084 26.004 25.932 25.867 25.789 25.692 25.582 25.462 25.332 25.247 25.147 25.084 25.009 24.972 24.899 24.784 24.742 24.707 24.687 24.644 25.502 24.914 24.514 24.597 24.694 24.794 24.912 25.022 25.142 25.259 25.417 25.569 25.724 25.832 25.954 26.089 26.194 26.219 26.267 26.304 26.392 26.529 26.939 26.864 26.817 26.827 26.774 26.387 25.814 25.267 25.142 25.209 25.192 25.177 25.669 26.282 26.699 27.254 28.574 28.487 28.294 28.599 27.314 27.287 27.262 27.264 27.269 27.282 27.369 28.829 28.942 31.644 33.204 34.144 32.764 30.144 27.304 27.269 27.302 27.329 28.794 28.007 27.942 27.047 27.009 27.072 27.062 27.072 28.087 28.354 27.257 27.147 27.177 27.184 27.134 27.057 26.972 26.957 26.922 26.829 26.807 26.754 26.687 26.702 26.679 26.674 26.642 26.617 26.614 26.549 26.539 26.507 26.452 26.399 26.332 26.274 26.199 26.137 26.062 25.979 25.894 25.837 25.747 25.667 25.569 25.522 25.439 25.332 25.267 25.172 25.109 25.029 24.944 24.874 24.797 24.699 24.629 24.559 24.454 24.392 24.327 24.244 24.147 24.049 23.959 23.867 23.737 23.657 23.537 23.487 23.427 23.334 23.232 23.124 23.069 22.939 22.897 22.804 22.729 22.589 22.552 22.449 22.374 22.269 22.222 22.142 22.077 21.977 21.902 21.814 21.719 21.649 21.552 21.472 21.424 21.354 21.282 21.192 21.137 21.102 21.084 21.024 20.997 20.959 20.949 20.912
51.972 51.862 51.807 51.74 51.642 51.567 51.5 51.43 51.337 51.257 51.23 51.745 52.675 52.442 51.537 53.537 52.005 50.605 50.475 50.412 50.365 50.267 50.147 49.977 49.812 49.635 49.49 49.295 49.117 48.922 48.677 48.445 48.192 47.98 47.792 47.587 47.315 46.98 46.92 47.51 46.402 45.902 45.467 45.2 44.837 44.6 45.197 43.89 43.437 43.247 42.772 42.682 42.147 41.915 41.46 41.39 40.89 40.265 40.085 40.24 40.147 40.06 39.945 39.785 39.602 40.34 45.415 43.19 43.61 40.217 38.54 38.492 39.355 40.332 40.31 40.29 39.717 38.782 37.947 38.502 39.35 40.27 40.232 39.345 37.827 36.21 35.312 35.467 37.082 36.235 34.892 33.93 33.855 33.61 33.397 33.26 33.115 32.997 32.875 32.77 32.68 32.587 32.447 32.312 32.167 32.005 31.865 31.765 31.67 31.56 31.727 31.712 32.447 34.342 34.012 34.74 31.445 30.895 30.805 30.715 31.045 31.297 31.617 32.022 31.5 31.17 30.59 29.855 29.58 29.507 29.46 29.4 29.322 29.252 29.197 29.155 29.107 29.31 28.942 28.885 28.805 28.71 28.597 28.525 28.43 28.357 28.28 28.21 28.135 28.09 28.025 28.03 27.982 27.925 27.887 27.862 27.85 27.815 27.795 27.76 27.702 27.67 27.65 27.642 27.615 27.565 27.54 27.482 27.472 27.462 27.415 27.4 27.437 27.435 27.44 27.462 27.467 27.51 27.51 27.52 27.53 27.565 27.59 27.597 27.622 27.62 27.607 27.65 27.66 27.652 27.692 27.775 27.83 27.787 27.75 27.742 27.735 27.772 27.747 27.745 27.777 27.807 27.802 27.782 27.767 27.727 27.767 27.765 27.687 27.7 27.735 27.705 27.7 27.707 27.705 27.705 27.72 27.692 27.687 27.69 27.675 27.607 27.63 27.607 27.545 27.5 27.43 27.397 27.352 27.322 27.305 27.285 27.22 27.167 27.107 27.05 27.04 26.975 26.975 26.915 26.9 26.86 26.827 26.759 26.724 26.669 26.582 26.544 26.432 26.354 26.292 26.222 26.169 26.132 26.059 25.964 25.867 25.802 25.729 25.597 25.492 25.332 25.227 25.124 25.077 25.017 24.907 24.897 24.807 24.767 24.727 24.682 24.659 25.654 24.634 24.512 24.574 24.699 24.804 24.942 25.072 25.209 25.312 25.484 25.634 25.807 25.902 26.012 26.127 26.229 26.282 26.299 26.392 26.507 26.694 27.607 27.172 26.854 26.759 26.519 25.967 25.332 25.209 25.232 25.242 25.217 25.662 26.269 26.812 27.219 27.679 27.489 27.644 29.144 29.667 28.464 27.534 28.062 27.302 27.327 27.314 28.649 30.372 30.999 32.754 34.029 33.687 32.044 29.779 27.292 27.327 27.352 27.329 28.102 27.297 27.164 27.049 27.049 27.102 27.112 27.209 28.832 27.579 27.184 27.197 27.244 27.182 27.137 27.022 26.984 26.914 26.907 26.857 26.837 26.774 26.749 26.737 26.719 26.714 26.652 26.629 26.624 26.602 26.534 26.509 26.464 26.414 26.332 26.272 26.207 26.137 26.044 25.949 25.907 25.807 25.737 25.659 25.539 25.477 25.362 25.317 25.224 25.147 25.084 25.007 24.957 24.862 24.789 24.682 24.639 24.534 24.462 24.382 24.314 24.222 24.129 24.037 23.909 23.834 23.724 23.619 23.547 23.479 23.399 23.302 23.194 23.082 23.004 22.919 22.887 22.767 22.702 22.582 22.497 22.469 22.364 22.334 22.232 22.137 22.067 21.987 21.892 21.792 21.704 21.639 21.539 21.449 21.379 21.324 21.254 21.227 21.154 21.074 21.044 21.039 21.004 20.987 20.984 20.864
52.112 52.012 51.92 51.85 51.757 51.697 51.627 51.552 51.432 51.37 51.345 51.702 53.795 53.292 53.207 53.927 51.477 50.79 50.692 50.605 50.525 50.375 50.272 50.115 49.92 49.725 49.572 49.392 49.202 49.015 48.77 48.547 48.32 48.122 47.947 47.73 47.437 47.062 47.087 47.695 46.615 45.98 45.762 45.482 45.047 44.725 44.395 44.095 43.677 43.197 42.787 42.525 42.192 41.905 41.625 41.325 41.072 40.752 40.445 41.122 44.16 43.12 39.995 40.007 41.015 46.355 44.815 40.262 40.897 40.382 38.542 38.522 38.47 38.387 38.35 38.185 38.075 37.99 37.937 38.07 38.94 39.61 39.357 38.807 37.257 35.692 35.152 34.892 34.81 34.965 34.76 33.94 33.805 33.675 33.51 33.32 33.1 32.977 32.852 32.78 32.665 32.55 32.417 32.28 32.132 32.005 31.87 31.782 31.677 31.557 31.427 31.33 32.115 32.542 32.542 33.002 32.937 32.537 31.587 31.137 30.612 30.535 30.422 30.557 31.025 31.287 30.985 31.46 30.805 29.83 29.645 29.357 29.31 29.272 29.18 29.135 29.065 29.365 28.945 28.875 28.81 28.722 28.615 28.522 28.455 28.372 28.285 28.21 28.167 28.12 28.062 28.03 27.98 27.947 27.935 27.892 27.897 27.827 27.77 27.762 27.745 27.715 27.705 27.662 27.65 27.625 27.582 27.535 27.512 27.492 27.455 27.452 27.5 27.505 27.502 27.527 27.542 27.572 27.56 27.587 27.645 27.67 27.657 27.687 27.69 27.682 27.677 27.7 27.682 27.717 27.75 27.835 27.855 27.86 27.82 27.825 27.827 27.825 27.792 27.817 27.87 27.865 27.847 27.842 27.812 27.77 27.817 27.872 27.752 27.74 27.762 27.767 27.762 27.757 27.762 27.775 27.775 27.747 27.727 27.74 27.72 27.645 27.56 27.61 27.525 27.502 27.47 27.412 27.392 27.385 27.372 27.347 27.295 27.212 27.122 27.087 27.095 27.045 27.022 26.96 26.937 26.892 26.847 26.777 26.747 26.692 26.617 26.552 26.467 26.394 26.299 26.249 26.214 26.157 26.067 25.992 25.934 25.844 25.747 25.654 25.509 25.357 25.277 25.222 25.074 24.964 24.884 24.902 24.819 24.764 24.737 24.744 24.869 25.439 24.637 24.469 24.557 24.739 24.839 24.967 25.107 25.244 25.387 25.549 25.697 25.842 25.977 26.082 26.167 26.259 26.294 26.374 26.484 26.657 26.832 26.844 26.814 26.799 26.492 26.009 25.424 25.197 25.264 25.259 25.287 25.727 26.279 26.789 27.257 27.464 27.589 27.392 27.427 27.539 27.579 28.414 28.044 29.359 28.034 27.332 27.327 28.409 30.129 31.809 33.352 34.277 33.034 31.654 29.052 27.312 27.359 27.342 27.307 27.269 27.199 27.174 27.074 27.097 27.142 27.117 28.239 28.222 27.187 27.212 27.232 27.239 27.194 27.079 27.052 27.037 26.947 26.907 26.877 26.837 26.804 26.772 26.769 26.747 26.747 26.694 26.667 26.644 26.594 26.569 26.532 26.472 26.412 26.359 26.307 26.199 26.137 26.044 25.979 25.879 25.814 25.719 25.624 25.544 25.467 25.369 25.269 25.194 25.097 25.034 24.982 24.917 24.814 24.752 24.682 24.594 24.522 24.459 24.379 24.312 24.204 24.099 24.012 23.889 23.784 23.712 23.619 23.559 23.474 23.387 23.254 23.152 23.072 22.977 22.919 22.827 22.739 22.707 22.594 22.497 22.452 22.364 22.317 22.237 22.122 22.079 21.974 21.902 21.794 21.707 21.637 21.519 21.432 21.384 21.307 21.259 21.217 21.167 21.112 21.064 21.067 21.039 20.987 20.924 20.827
52.197 52.135 52.052 51.982 51.872 51.805 51.737 51.672 51.57 51.46 51.42 51.675 54.07 54.45 52.76 54.095 51.567 50.887 50.807 50.725 50.577 50.412 50.332 50.215 50.03 49.837 49.7 49.49 49.327 49.107 48.885 48.687 48.467 48.257 48.032 47.777 47.42 47.017 46.865 47.1 47.095 46.81 46.595 46.135 45.96 45.627 45.302 44.94 44.625 44.372 44.052 43.752 42.602 42.752 42.23 41.637 41.29 41.067 40.825 41.167 44.87 43.602 39.945 41.257 42.162 40.33 44.49 42.705 41.465 40.59 38.545 38.465 38.435 38.39 38.325 38.215 38.112 38.04 37.935 37.937 38.5 38.662 38.107 36.48 35.625 35.327 35.112 34.865 34.605 34.372 34.29 35.42 34.98 33.55 33.52 33.332 33.125 32.972 32.84 32.732 32.627 32.547 32.425 32.265 32.1 31.962 31.87 31.752 31.645 31.527 31.42 31.33 31.635 31.78 31.64 31.62 31.532 31.975 31.932 32.262 32.11 31.4 30.562 30.322 30.205 30.187 30.12 30.69 31.15 31.385 30.985 30.597 30.037 29.445 29.207 29.112 29.032 28.987 28.902 28.832 28.792 28.705 28.617 28.545 28.477 28.387 28.28 28.227 28.18 28.13 28.097 28.04 28.002 27.99 27.995 27.945 27.927 27.892 27.842 27.86 27.985 27.722 27.742 27.705 27.695 27.66 27.625 27.592 27.555 27.492 27.462 27.505 27.532 27.55 27.557 27.595 27.615 27.65 27.64 27.68 27.737 27.76 27.735 27.76 27.755 27.74 27.755 27.752 27.757 27.757 27.812 27.892 27.895 27.87 27.885 27.907 27.892 27.9 27.875 27.89 27.897 27.905 27.882 27.852 27.83 27.847 27.855 27.895 27.83 27.757 27.795 27.82 27.795 27.81 27.82 27.825 27.812 27.815 27.775 27.785 27.747 27.677 27.61 27.602 27.535 27.505 27.51 27.465 27.44 27.437 27.427 27.402 27.335 27.255 27.205 27.16 27.14 27.085 27.062 27.01 26.977 26.927 26.87 26.789 26.764 26.722 26.659 26.592 26.472 26.384 26.332 26.267 26.227 26.179 26.089 25.994 25.954 25.877 25.764 25.694 25.547 25.394 25.272 25.152 25.052 24.957 24.874 25.294 24.927 24.762 24.742 24.699 24.762 24.844 24.677 24.507 24.577 24.752 24.854 25.009 25.162 25.314 25.472 25.624 25.752 25.879 26.027 26.102 26.202 26.249 26.334 26.447 26.657 27.067 26.797 26.789 26.759 27.317 26.024 25.522 25.262 25.307 25.274 25.317 25.777 26.309 26.792 27.309 27.467 27.459 27.447 27.374 27.422 27.429 27.467 27.499 27.792 28.812 29.627 29.124 28.117 27.637 30.157 32.519 34.159 33.597 32.479 29.082 27.529 27.347 27.382 27.359 27.347 27.314 27.354 28.127 27.412 27.152 27.167 27.667 28.779 27.212 27.239 27.234 27.279 27.277 27.172 27.092 27.072 27.017 26.989 26.952 26.887 26.839 26.827 26.794 26.804 26.779 26.777 26.719 26.679 26.659 26.622 26.579 26.544 26.442 26.412 26.349 26.289 26.204 26.109 26.037 25.987 25.877 25.799 25.717 25.614 25.554 25.457 25.347 25.247 25.142 25.054 24.979 24.919 24.859 24.794 24.732 24.669 24.569 24.507 24.427 24.374 24.274 24.179 24.079 23.982 23.849 23.797 23.694 23.614 23.544 23.452 23.354 23.237 23.174 23.074 22.999 22.912 22.827 22.737 22.692 22.574 22.512 22.437 22.364 22.272 22.192 22.122 22.049 21.969 21.869 21.774 21.694 21.594 21.517 21.464 21.384 21.309 21.279 21.197 21.197 21.119 21.112 21.034 21.017 20.944 20.867 20.784
52.315 52.212 52.152 52.095 51.99 51.887 51.802 51.725 51.66 51.575 51.54 51.697 53.707 53.485 52.592 54.405 51.34 50.96 50.89 50.792 50.635 50.48 50.392 50.3 50.152 49.965 49.82 49.645 49.447 49.227 49.015 48.795 48.575 48.365 48.12 47.897 47.517 47.165 46.917 46.657 46.45 46.257 45.977 45.667 45.52 45.187 44.877 44.7 44.515 44.15 43.827 43.715 43.43 43.267 42.852 42.25 41.812 41.492 41.07 40.797 40.857 40.99 40.162 39.867 40.082 40.13 40.825 41.01 40.727 39.477 38.59 38.5 38.445 38.395 38.285 38.197 38.105 37.99 37.885 37.755 37.302 36.647 36.342 36.035 35.705 35.427 35.175 34.905 34.595 34.4 34.255 34.16 35.16 36.127 33.732 33.347 33.147 32.97 32.835 32.715 32.617 32.522 32.39 32.237 32.092 31.935 31.837 31.702 31.587 31.477 31.382 31.322 31.312 31.192 31.07 30.89 30.752 30.627 30.59 30.92 31.055 31.5 31.892 31.7 31.105 30.352 30.112 30 29.947 30.272 30.71 31.317 30.585 30.697 30.015 29.622 29.137 28.955 28.93 28.84 28.757 28.71 28.635 28.55 28.487 28.4 28.32 28.237 28.19 28.147 28.09 28.065 28.02 28.04 28.017 27.977 27.955 29.477 29.64 29.837 27.825 27.735 27.765 27.73 27.73 27.707 27.68 27.637 27.617 27.567 27.547 27.555 27.572 27.607 27.625 27.632 27.68 27.7 27.727 27.78 27.807 27.8 27.812 27.81 27.807 27.79 27.822 27.797 27.785 27.822 27.877 27.945 27.962 27.945 27.967 27.975 27.95 27.97 27.967 27.95 27.957 27.942 27.94 27.935 27.897 27.907 27.905 27.907 27.897 27.805 27.827 27.85 27.857 27.845 27.867 27.875 27.84 27.857 27.815 27.815 27.765 27.712 27.65 27.595 27.577 27.545 27.557 27.545 27.512 27.49 27.482 27.45 27.387 27.315 27.235 27.21 27.172 27.142 27.107 27.04 27.012 26.977 26.882 26.819 26.792 26.749 26.679 26.622 26.479 26.419 26.372 26.307 26.244 26.202 26.094 26.029 25.969 25.892 25.789 25.724 25.579 25.439 25.297 25.154 25.059 24.964 24.844 24.977 24.777 24.737 24.694 24.682 24.969 24.562 24.597 24.549 24.622 24.754 24.862 25.017 25.212 25.362 25.544 25.687 25.829 25.967 26.087 26.147 26.237 26.307 26.419 26.589 27.242 26.922 26.759 26.689 26.452 26.082 25.552 25.259 25.312 25.302 25.324 25.809 26.402 26.809 27.239 27.412 27.412 27.557 27.424 27.409 27.402 27.384 27.414 27.462 27.497 27.494 28.534 29.614 29.617 27.957 28.974 31.804 34.209 32.642 30.367 27.677 27.334 27.387 27.362 27.352 27.344 27.302 27.287 27.384 27.204 27.177 27.172 28.664 28.089 27.264 27.262 27.277 27.314 27.252 27.167 27.102 27.069 27.022 26.994 26.937 26.897 26.894 26.859 26.834 26.834 26.832 26.812 26.777 26.727 26.689 26.652 26.587 26.549 26.442 26.427 26.337 26.259 26.174 26.104 26.032 25.937 25.849 25.784 25.702 25.604 25.539 25.437 25.334 25.204 25.122 25.027 24.984 24.899 24.842 24.774 24.707 24.629 24.537 24.514 24.424 24.364 24.249 24.157 24.052 23.957 23.839 23.747 23.654 23.609 23.527 23.447 23.309 23.259 23.162 23.074 22.984 22.884 22.807 22.697 22.639 22.562 22.449 22.402 22.309 22.234 22.172 22.094 22.037 21.917 21.849 21.764 21.697 21.617 21.504 21.452 21.369 21.347 21.282 21.214 21.199 21.149 21.099 21.057 20.994 20.879 20.802 20.807
52.392 52.337 52.237 52.177 52.072 51.995 51.907 51.81 51.737 51.67 51.6 51.747 53.125 53.105 52.097 52.737 51.377 51.07 50.982 50.877 50.745 50.612 50.507 50.4 50.262 50.097 49.945 49.805 49.582 49.362 49.16 48.925 48.71 48.497 48.26 48.057 47.72 47.335 47.522 47.052 46.507 46.25 46.04 45.752 45.44 45.067 44.73 44.475 44.207 43.875 43.445 43.087 42.832 42.57 42.367 42.087 41.81 41.54 41.2 40.817 40.615 40.522 40.335 40.005 39.785 39.8 39.867 39.715 39.762 39.292 38.585 38.48 38.455 38.37 38.257 38.18 38.05 37.92 37.837 37.692 37.23 36.56 36.287 36.022 35.732 35.475 35.175 34.935 34.687 34.502 34.315 34.192 34.06 35.905 35.447 33.535 33.18 33.037 32.842 32.695 32.577 32.487 32.34 32.217 32.062 31.91 31.787 31.675 31.555 31.435 31.347 31.28 31.205 31.117 31.01 30.935 30.785 30.697 30.567 30.465 30.34 30.28 30.355 30.957 31.202 31.467 31.79 30.87 30.565 29.86 29.757 29.722 29.715 30.305 30.732 30.935 30.892 29.9 29.287 28.94 28.812 28.705 28.642 28.592 28.497 28.44 28.362 28.297 28.237 28.19 28.127 28.067 28.06 28.097 28.052 27.977 27.97 30.227 28.885 28.632 28.23 27.83 27.81 27.792 27.77 27.785 27.71 27.682 27.657 27.642 27.617 27.607 27.627 27.645 27.647 27.697 27.74 27.752 27.805 27.867 27.882 27.88 27.875 27.902 27.875 27.875 27.867 27.855 27.847 27.88 27.947 28.015 28.032 28.02 28.055 28.055 28.03 28.035 28.03 28.042 28.042 28.02 27.985 27.95 27.967 27.98 27.987 27.967 27.97 27.887 27.872 27.9 27.897 27.877 27.917 27.92 27.862 27.882 27.837 27.825 27.78 27.76 27.69 27.63 27.622 27.622 27.6 27.572 27.585 27.585 27.55 27.515 27.455 27.407 27.32 27.267 27.24 27.182 27.15 27.082 27.042 27.007 26.937 26.862 26.814 26.769 26.654 26.584 26.499 26.437 26.377 26.342 26.259 26.212 26.119 26.039 25.967 25.912 25.844 25.732 25.584 25.472 25.344 25.172 25.049 24.934 24.822 24.772 24.754 24.739 24.687 24.689 25.352 24.842 24.604 24.559 24.657 24.764 24.912 25.062 25.244 25.409 25.614 25.752 25.909 26.022 26.097 26.197 26.274 26.364 26.547 26.937 27.082 26.802 26.662 26.497 26.112 25.614 25.299 25.367 25.344 25.367 25.872 26.424 26.872 27.252 27.402 27.417 27.394 27.409 27.382 27.377 27.384 27.419 27.412 27.487 27.454 27.449 27.832 28.952 29.584 28.389 28.524 27.799 29.862 30.254 29.114 27.379 27.399 27.392 27.349 27.357 27.319 27.322 27.342 27.324 27.224 27.197 28.074 28.437 27.292 27.287 27.297 27.319 27.299 27.224 27.179 27.109 27.064 27.039 27.007 26.977 26.927 26.899 26.907 26.887 26.864 26.834 26.827 26.794 26.759 26.717 26.659 26.614 26.524 26.467 26.412 26.319 26.247 26.164 26.059 25.989 25.927 25.837 25.757 25.684 25.619 25.512 25.397 25.307 25.199 25.119 25.042 24.967 24.907 24.797 24.764 24.689 24.612 24.554 24.482 24.392 24.302 24.217 24.137 24.027 23.952 23.859 23.764 23.672 23.609 23.497 23.412 23.314 23.247 23.137 23.022 22.962 22.897 22.802 22.684 22.639 22.554 22.462 22.327 22.309 22.222 22.129 22.067 21.979 21.907 21.804 21.739 21.664 21.574 21.472 21.424 21.344 21.339 21.289 21.234 21.222 21.172 21.074 21.007 20.919 20.819 20.832 21.657
52.475 52.42 52.327 52.232 52.137 52.07 51.995 51.872 51.802 51.772 51.672 51.69 53.525 54.03 51.977 52.462 51.652 51.142 51.1 50.99 50.89 50.737 50.627 50.5 50.377 50.222 50.065 49.922 49.722 49.507 49.29 49.067 48.837 48.617 48.41 48.192 47.927 47.547 47.925 47.15 46.535 46.317 46.107 45.832 45.52 45.137 44.79 44.545 44.317 44.04 43.75 43.332 43.052 42.77 42.465 42.192 41.835 41.557 41.302 40.997 40.7 40.442 40.247 40.085 39.847 39.66 39.465 39.302 39.087 38.86 38.615 38.537 38.46 38.417 38.23 38.217 38.075 37.865 37.7 37.597 37.137 36.53 36.277 36.035 35.78 35.515 35.245 34.97 34.73 34.535 34.377 34.242 34.32 34.57 35.792 34.507 33.112 33.095 32.892 32.697 32.577 32.46 32.322 32.177 32.097 31.942 31.79 31.652 31.527 31.427 31.33 31.262 31.195 31.075 30.967 30.902 30.8 30.707 30.62 30.532 30.39 30.29 30.19 30.09 29.96 29.895 30.347 30.952 31.31 31.25 30.255 29.842 29.662 29.595 29.532 29.657 29.835 30.39 30.425 30.432 30.477 29.632 28.945 28.565 28.497 28.45 28.38 28.347 28.282 28.23 28.157 28.097 28.08 28.09 28.102 28.037 28.002 27.972 27.96 27.942 27.9 27.887 27.882 27.86 27.822 27.797 27.752 27.737 27.715 27.692 27.65 27.655 27.677 27.702 27.742 27.77 27.832 27.862 27.892 27.94 27.937 27.927 27.95 27.96 27.927 27.927 27.902 27.897 27.907 27.927 28.002 28.067 28.08 28.097 28.112 28.107 28.082 28.077 28.092 28.105 28.1 28.075 28.027 28.007 28.01 28.032 28.03 28.02 28.022 27.972 27.94 27.927 27.94 27.9 27.907 27.942 27.9 27.9 27.867 27.892 27.837 27.805 27.74 27.687 27.68 27.687 27.67 27.64 27.627 27.62 27.62 27.57 27.505 27.457 27.357 27.29 27.265 27.217 27.18 27.122 27.067 27.02 26.97 26.879 26.844 26.789 26.699 26.602 26.514 26.459 26.392 26.337 26.287 26.204 26.104 26.032 25.972 25.892 25.842 25.747 25.627 25.479 25.357 25.194 25.047 24.927 24.807 24.754 24.682 24.642 24.654 24.662 25.737 24.882 24.672 24.634 24.727 24.809 24.952 25.122 25.302 25.492 25.697 25.829 25.974 26.057 26.142 26.227 26.324 26.434 26.727 26.839 27.549 26.657 26.574 26.172 25.679 25.359 25.397 25.384 25.339 25.809 26.429 26.922 27.234 27.454 27.427 27.394 27.432 27.437 27.394 27.339 27.352 27.377 27.469 27.482 27.452 27.449 27.467 27.422 27.632 28.767 28.922 27.939 28.267 28.084 27.394 27.399 27.419 27.439 27.359 27.347 27.324 27.329 27.432 27.267 27.257 27.417 28.764 27.602 27.307 27.312 27.349 27.334 27.277 27.242 27.152 27.127 27.077 27.047 27.002 26.979 26.957 26.924 26.942 26.879 26.859 26.864 26.832 26.767 26.759 26.737 26.669 26.604 26.527 26.454 26.399 26.289 26.222 26.122 26.064 25.987 25.889 25.814 25.714 25.669 25.592 25.499 25.419 25.287 25.209 25.104 25.049 24.972 24.877 24.869 24.754 24.662 24.584 24.534 24.439 24.352 24.259 24.169 24.104 23.997 23.934 23.847 23.772 23.687 23.567 23.459 23.394 23.334 23.209 23.134 23.047 22.959 22.849 22.802 22.699 22.597 22.509 22.429 22.372 22.289 22.204 22.114 22.032 21.974 21.894 21.807 21.707 21.609 21.534 21.459 21.407 21.349 21.324 21.304 21.249 21.219 21.167 21.067 20.969 20.847 20.967 21.862 20.637
52.547 52.492 52.417 52.332 52.227 52.165 52.065 51.957 51.882 51.815 51.737 51.735 53.505 53.195 52.172 52.212 51.36 51.277 51.202 51.097 51 50.845 50.715 50.59 50.48 50.345 50.212 50.03 49.872 49.622 49.422 49.212 48.98 48.742 48.522 48.315 48.07 47.807 48.167 47.317 46.657 46.395 46.1 45.832 45.55 45.19 44.852 44.577 44.315 44.117 43.892 43.565 43.182 42.847 42.517 42.215 41.892 41.62 41.37 41.082 40.795 40.55 40.347 40.155 39.95 39.735 39.535 39.33 39.13 38.83 38.597 38.525 38.477 39.117 40.125 40.672 41.78 40.605 37.877 37.42 37.022 36.582 36.307 36.047 35.782 35.53 35.25 35.025 34.822 34.63 34.445 34.137 34.817 35.435 36.007 35.91 33.175 32.992 32.94 32.765 32.632 32.557 32.41 32.27 32.127 31.967 31.785 31.667 31.567 31.442 31.375 31.262 31.175 31.077 30.977 30.877 30.765 30.685 30.592 30.522 30.465 30.372 30.287 30.147 30.067 29.932 29.842 29.767 29.865 30.447 30.78 31.5 31.527 30.922 30.182 29.537 29.372 29.347 29.32 29.515 30.172 30.532 30.567 29.935 29.395 28.847 28.537 28.355 28.307 28.237 28.182 28.122 28.112 28.125 28.09 28.05 28.032 27.987 27.957 27.995 27.955 27.9 27.885 27.89 27.88 27.852 27.807 27.777 27.732 27.712 27.72 27.717 27.762 27.795 27.842 27.845 27.882 27.947 27.957 27.995 27.982 27.982 27.997 27.995 27.982 27.995 27.97 27.985 27.955 27.98 28.065 28.125 28.127 28.137 28.165 28.135 28.13 28.12 28.157 28.172 28.155 28.122 28.077 28.07 28.06 28.087 28.095 28.07 28.077 28.042 27.967 27.97 27.99 27.945 27.932 27.972 27.937 27.942 27.9 27.917 27.877 27.847 27.8 27.767 27.73 27.727 27.712 27.692 27.66 27.647 27.645 27.632 27.552 27.502 27.4 27.312 27.287 27.262 27.237 27.165 27.115 27.057 26.972 26.907 26.867 26.802 26.717 26.634 26.569 26.479 26.442 26.347 26.307 26.199 26.114 26.027 25.934 25.899 25.822 25.737 25.602 25.479 25.374 25.192 25.074 24.924 24.794 24.714 24.669 24.659 24.634 24.654 25.799 24.694 24.662 24.667 24.774 24.854 25.007 25.164 25.374 25.549 25.739 25.907 25.994 26.059 26.132 26.272 26.379 27.154 26.627 26.819 27.379 26.584 26.277 25.727 25.364 25.439 25.424 25.357 25.774 26.409 26.949 27.317 27.419 27.447 27.454 27.452 27.459 27.467 27.432 27.392 27.352 27.387 27.427 27.469 27.472 27.449 27.439 27.469 27.434 27.482 27.972 28.532 28.857 28.102 27.417 27.412 27.419 27.379 27.354 27.322 27.357 27.412 27.412 27.277 27.289 28.119 28.504 27.464 27.339 27.349 27.377 27.347 27.294 27.204 27.169 27.127 27.099 27.054 27.017 26.982 26.962 26.977 26.919 26.887 26.867 26.874 26.849 26.789 26.774 26.692 26.647 26.567 26.527 26.447 26.387 26.254 26.177 26.109 26.024 25.972 25.859 25.759 25.727 25.637 25.554 25.447 25.362 25.284 25.209 25.132 25.077 24.977 24.909 24.849 24.752 24.639 24.569 24.487 24.414 24.322 24.244 24.149 24.074 23.999 23.887 23.797 23.732 23.647 23.529 23.359 23.347 23.284 23.184 23.112 23.004 22.922 22.842 22.772 22.667 22.552 22.502 22.399 22.342 22.269 22.169 22.112 22.009 21.949 21.869 21.764 21.682 21.594 21.509 21.432 21.394 21.377 21.349 21.299 21.249 21.192 21.112 21.022 20.899 21.119 21.429 20.774 20.657
52.655 52.582 52.525 52.425 52.33 52.247 52.157 52.08 52.015 51.915 51.815 51.77 52.56 53.52 52.92 52.035 51.657 51.325 51.275 51.172 51.08 50.977 50.83 50.68 50.59 50.44 50.277 50.137 49.985 49.74 49.522 49.327 49.087 48.857 48.635 48.412 48.165 47.94 49.217 48.21 46.752 46.415 46.112 45.84 45.557 45.222 44.91 44.64 44.37 44.142 43.965 43.727 43.317 42.927 42.617 42.322 42.047 41.767 41.462 41.2 40.922 40.685 40.467 40.252 40.072 39.875 39.677 39.45 39.195 38.925 38.662 38.555 38.502 39.72 41.622 42.78 42.422 41.287 38.167 37.347 37.08 36.57 36.277 36.03 35.78 35.515 35.257 35.035 34.837 34.705 34.455 34.02 33.602 34.98 33.94 35.142 35.845 33.28 32.89 32.81 32.692 32.585 32.46 32.325 32.165 32.002 31.817 31.68 31.557 31.447 31.41 31.35 31.192 31.075 30.955 30.865 30.785 30.662 30.575 30.512 30.425 30.335 30.295 30.205 30.135 30.067 29.915 29.83 29.72 29.567 29.727 30.282 30.532 31.087 31.37 31.37 30.597 29.835 29.422 29.192 29.172 29.177 29.38 29.932 30.565 30.45 30.082 29.117 28.795 28.305 28.192 28.162 28.122 28.1 28.107 28.072 28.09 28.05 28.02 27.995 27.935 27.937 27.925 27.917 27.9 27.865 27.847 27.827 27.797 27.777 27.755 27.8 27.815 27.865 27.887 27.91 27.947 27.982 28.007 28.04 28.062 28.065 28.09 28.08 28.057 28.06 28.052 28.032 28.01 28.035 28.1 28.165 28.177 28.165 28.195 28.165 28.19 28.19 28.207 28.22 28.2 28.16 28.172 28.157 28.142 28.152 28.16 28.152 28.122 28.102 28.022 28.01 28.052 28.027 28.015 28.03 27.99 27.985 27.947 27.905 27.907 27.862 27.85 27.802 27.782 27.772 27.755 27.73 27.705 27.692 27.67 27.645 27.585 27.55 27.455 27.365 27.322 27.302 27.28 27.212 27.165 27.087 27.027 26.954 26.897 26.822 26.737 26.662 26.589 26.514 26.474 26.417 26.322 26.209 26.114 26.052 25.944 25.884 25.799 25.704 25.609 25.499 25.364 25.204 25.092 24.904 24.799 24.714 24.659 24.664 24.652 24.719 25.862 24.744 24.684 24.744 24.837 24.927 25.054 25.224 25.402 25.592 25.772 25.894 26.024 26.094 26.212 26.327 27.767 27.637 26.622 26.974 26.594 26.284 25.782 25.417 25.464 25.472 25.402 25.787 26.427 26.994 27.362 27.467 27.367 27.439 27.502 27.522 27.489 27.489 27.474 27.439 27.392 27.384 27.402 27.414 27.477 27.502 27.462 27.454 27.452 27.454 27.439 27.422 27.622 28.979 29.069 28.097 27.439 27.407 27.364 27.364 27.364 27.507 27.319 27.367 27.434 28.909 27.922 27.362 27.372 27.409 27.399 27.334 27.274 27.232 27.177 27.134 27.097 27.069 27.012 26.987 27.004 26.969 26.939 26.927 26.909 26.867 26.844 26.817 26.744 26.707 26.614 26.559 26.487 26.422 26.349 26.242 26.179 26.072 26.017 25.922 25.817 25.757 25.677 25.592 25.512 25.402 25.339 25.282 25.212 25.124 25.084 24.957 24.907 24.817 24.702 24.629 24.542 24.459 24.369 24.304 24.229 24.154 24.054 23.982 23.869 23.797 23.719 23.609 23.484 23.349 23.337 23.237 23.164 23.074 22.979 22.897 22.814 22.744 22.629 22.569 22.479 22.417 22.319 22.287 22.199 22.109 22.029 21.932 21.834 21.719 21.669 21.569 21.517 21.452 21.397 21.389 21.347 21.294 21.219 21.154 21.044 20.912 21.149 21.574 20.564 20.632 20.764
52.747 52.657 52.602 52.532 52.432 52.355 52.272 52.15 52.092 52.007 51.907 51.905 51.895 53.067 53.217 53.212 52.35 51.442 51.352 51.26 51.132 51.045 50.917 50.75 50.68 50.542 50.39 50.232 50.065 49.842 49.64 49.452 49.187 48.962 48.732 48.505 48.255 48.03 51.017 49.005 47.665 46.422 46.13 45.847 45.557 45.282 45.002 44.777 44.53 44.24 43.99 43.8 43.415 42.987 42.685 42.417 42.117 41.887 41.57 41.305 41.087 40.847 40.59 40.36 40.147 39.962 39.795 39.567 39.317 39.022 38.785 38.727 38.47 39.475 41.522 42.662 42.535 41.395 38.237 37.227 37.005 36.545 36.262 36.015 35.735 35.482 35.22 35.012 34.842 34.702 34.537 34.072 33.775 33.105 33.145 33.632 35.662 35.087 32.68 32.805 32.675 32.58 32.425 32.295 32.16 31.995 31.845 31.712 31.552 31.44 31.417 31.342 31.2 31.117 30.982 30.89 30.792 30.687 30.6 30.515 30.43 30.33 30.227 30.142 30.09 30.007 29.94 29.86 29.792 29.687 29.597 29.49 29.357 29.525 29.74 30.415 30.757 30.842 30.957 30.542 29.89 29.227 29.047 29.005 29.015 29.1 29.837 29.527 30.455 30.312 29.452 28.79 28.187 28.117 28.16 28.13 28.115 28.045 28.055 28.017 27.992 27.965 27.947 27.95 27.925 27.917 27.895 27.872 27.865 27.835 27.837 27.882 27.882 27.895 27.937 27.937 28.005 28.045 28.037 28.097 28.122 28.125 28.165 28.155 28.13 28.15 28.142 28.102 28.11 28.107 28.15 28.21 28.207 28.217 28.222 28.21 28.23 28.222 28.242 28.245 28.215 28.232 28.225 28.237 28.227 28.245 28.24 28.237 28.2 28.172 28.085 28.055 28.077 28.072 28.07 28.072 28.035 28.007 27.992 27.977 27.935 27.915 27.897 27.842 27.837 27.82 27.795 27.782 27.745 27.735 27.69 27.672 27.617 27.555 27.5 27.425 27.385 27.362 27.325 27.267 27.195 27.142 27.077 27.007 26.934 26.859 26.762 26.682 26.622 26.559 26.509 26.437 26.327 26.232 26.127 26.042 25.934 25.882 25.797 25.722 25.612 25.477 25.369 25.202 25.084 24.939 24.829 24.694 24.644 24.654 24.664 24.964 25.544 24.749 24.744 24.847 24.949 25.057 25.152 25.292 25.454 25.644 25.804 25.932 26.007 26.134 26.262 26.647 28.822 26.737 26.687 26.654 27.622 25.872 25.409 25.484 25.507 25.484 25.802 26.457 27.004 27.327 27.444 27.409 27.432 27.487 27.524 27.552 27.542 27.492 27.514 27.489 27.444 27.429 27.434 27.442 27.472 27.479 27.469 27.449 27.507 27.502 27.512 27.497 27.452 27.452 27.702 28.914 29.339 28.329 27.369 27.364 27.414 27.402 27.344 27.329 28.437 28.454 27.382 27.387 27.384 27.432 27.407 27.349 27.247 27.219 27.184 27.152 27.089 27.069 27.042 27.017 27.022 27.009 26.979 26.924 26.919 26.897 26.839 26.799 26.752 26.649 26.607 26.552 26.462 26.372 26.287 26.224 26.152 26.044 25.994 25.912 25.827 25.747 25.657 25.577 25.502 25.399 25.339 25.257 25.179 25.112 25.029 24.944 24.887 24.799 24.714 24.622 24.512 24.439 24.314 24.252 24.194 24.097 24.034 23.924 23.844 23.759 23.659 23.557 23.454 23.439 23.322 23.229 23.144 23.082 22.984 22.909 22.819 22.727 22.639 22.542 22.479 22.384 22.334 22.247 22.172 22.077 22.002 21.909 21.782 21.702 21.627 21.562 21.492 21.479 21.432 21.394 21.322 21.267 21.192 21.074 20.977 21.204 21.537 20.537 20.682 20.802 20.824
52.802 52.74 52.7 52.61 52.53 52.475 52.35 52.252 52.18 52.132 52 51.97 51.957 52.12 52.35 52.175 51.93 51.495 51.42 51.33 51.235 51.13 51.01 50.852 50.737 50.612 50.467 50.302 50.147 49.922 49.72 49.54 49.287 49.035 48.82 48.59 48.345 48.112 51.412 50.102 46.762 46.482 46.172 45.82 45.547 45.297 45.082 44.89 44.692 44.435 44.06 43.757 43.467 43.075 42.73 42.452 42.152 41.897 41.625 41.39 41.217 40.952 40.697 40.457 40.215 40.007 39.842 39.662 39.422 39.16 39.917 39.375 38.492 38.652 40.94 42.532 42.6 41.515 38.372 37.212 36.96 36.58 36.31 36.012 35.737 35.47 35.207 35.015 34.87 34.737 34.572 34.21 33.715 33.135 33.52 33.332 34.335 35.557 33.145 32.89 33.097 33.132 34.092 32.345 32.152 32.005 31.885 31.732 31.56 31.55 31.437 31.335 31.192 31.1 31.002 30.925 30.835 30.735 30.617 30.502 30.425 30.327 30.235 30.132 30.052 29.99 29.907 29.832 29.772 29.73 29.63 29.527 29.452 29.37 29.285 29.212 29.102 29.212 29.71 29.91 30.837 30.745 30.287 29.822 29.415 28.935 28.922 28.887 28.99 29.857 30.905 30.042 29.922 29.245 28.457 28.205 28.102 28.085 28.08 28.042 28.015 27.992 27.985 27.977 27.975 27.94 27.93 27.915 27.905 27.862 27.897 27.937 27.95 27.972 28.015 28 28.05 28.077 28.075 28.155 28.187 28.202 28.217 28.18 28.205 28.23 28.22 28.19 28.182 28.18 28.237 28.26 28.267 28.277 28.282 28.265 28.267 28.275 28.31 28.332 28.292 28.295 28.28 28.285 28.267 28.33 28.325 28.317 28.272 28.222 28.17 28.13 28.12 28.142 28.115 28.097 28.082 28.05 28.035 28.012 27.972 27.937 27.922 27.882 27.88 27.85 27.835 27.812 27.76 27.772 27.71 27.705 27.625 27.56 27.52 27.447 27.45 27.412 27.367 27.33 27.237 27.21 27.135 27.052 26.969 26.882 26.804 26.729 26.644 26.582 26.524 26.439 26.364 26.254 26.149 26.069 25.972 25.894 25.817 25.687 25.587 25.477 25.334 25.214 25.094 24.942 24.829 24.719 24.659 24.657 24.699 25.107 25.179 24.864 24.842 24.944 25.037 25.124 25.259 25.364 25.537 25.672 25.849 25.969 26.082 26.189 26.782 27.527 26.689 26.599 26.649 26.407 25.812 25.432 25.532 25.547 25.539 25.867 26.452 26.999 27.299 27.412 27.387 27.397 27.497 27.549 27.547 27.564 27.599 27.572 27.547 27.549 27.524 27.517 27.464 27.494 27.474 27.477 27.444 27.457 27.499 27.514 27.519 27.537 27.492 27.454 27.442 27.449 27.739 28.789 29.242 28.197 27.592 27.404 27.387 27.699 28.984 27.849 27.407 27.409 27.447 27.444 27.407 27.307 27.277 27.219 27.194 27.127 27.102 27.057 27.054 27.052 27.019 27.014 26.974 26.947 26.929 26.889 26.824 26.789 26.722 26.667 26.594 26.484 26.389 26.324 26.229 26.187 26.119 26.022 25.934 25.872 25.802 25.714 25.624 25.567 25.447 25.397 25.319 25.254 25.167 25.099 25.004 24.942 24.837 24.777 24.682 24.602 24.482 24.377 24.292 24.207 24.117 24.054 23.964 23.902 23.817 23.707 23.634 23.567 23.462 23.419 23.302 23.209 23.132 23.029 22.977 22.894 22.819 22.709 22.664 22.564 22.492 22.364 22.264 22.224 22.159 22.062 21.952 21.862 21.762 21.687 21.614 21.562 21.494 21.492 21.444 21.397 21.357 21.239 21.102 21.027 21.474 21.582 20.607 20.734 20.837 20.837 20.717
52.887 52.82 52.755 52.702 52.655 52.532 52.437 52.337 52.292 52.2 52.075 52.02 52.015 52.25 52.322 53.967 52.867 51.567 51.505 51.41 51.312 51.19 51.07 50.94 50.802 50.692 50.527 50.367 50.212 50 49.8 49.597 49.362 49.125 48.925 48.68 48.437 50.312 49.522 49.965 46.905 46.572 46.19 45.795 45.51 45.302 45.132 44.987 44.765 44.542 44.227 43.792 43.525 43.147 42.737 42.475 42.172 41.915 41.715 41.53 41.37 41.085 40.785 40.5 40.265 40.06 39.88 39.712 39.495 39.25 39.355 39.015 38.567 38.385 39.64 40.197 41.67 40.895 38.465 37.195 36.937 36.642 36.327 36.022 35.742 35.462 35.202 35.032 34.877 34.737 34.585 34.275 33.722 33.172 33.16 33.082 33.347 34.695 35.285 32.292 32.47 32.415 32.767 33.042 32.202 32.01 31.91 31.767 31.615 31.532 31.432 31.357 31.2 31.097 31.005 30.897 30.82 30.732 30.645 30.55 30.447 30.335 30.22 30.117 30.05 29.957 29.907 29.84 29.777 29.685 29.602 29.55 29.427 29.42 29.345 29.247 29.15 29.052 28.982 28.935 29.065 29.337 29.707 30.3 30.895 30.995 29.887 29.11 28.895 28.85 28.85 29.325 29.785 30.53 30.602 30.002 29.222 28.687 28.232 28.12 28.082 28.04 28.04 28.017 28.012 27.982 27.965 27.962 27.942 27.917 27.937 27.995 28.027 28.037 28.06 28.052 28.117 28.125 28.127 28.17 28.387 28.282 28.285 28.257 28.262 28.312 28.3 28.255 28.247 28.255 28.3 28.332 28.292 28.33 28.317 28.312 28.327 28.35 28.337 28.367 28.355 28.367 28.372 28.39 28.345 28.387 28.397 28.387 28.327 28.305 28.23 28.152 28.152 28.182 28.142 28.135 28.132 28.105 28.075 28.06 28.037 27.992 27.94 27.925 27.915 27.897 27.892 27.835 27.792 27.772 27.737 27.685 27.627 27.577 27.535 27.49 27.46 27.462 27.375 27.372 27.272 27.227 27.155 27.084 26.994 26.919 26.852 26.764 26.702 26.644 26.572 26.492 26.424 26.299 26.207 26.112 26.022 25.904 25.792 25.717 25.599 25.474 25.364 25.222 25.107 24.952 24.857 24.739 24.704 24.662 24.754 25.667 25.239 24.874 24.937 25.052 25.167 25.224 25.332 25.464 25.599 25.704 25.869 26.004 26.144 26.439 27.344 27.102 26.554 26.624 26.387 25.797 25.487 25.549 25.572 25.592 25.922 26.442 26.977 27.657 27.377 27.339 27.404 27.469 27.532 27.579 27.592 27.587 27.592 27.604 27.594 27.604 27.592 27.577 27.534 27.514 27.517 27.517 27.477 27.477 27.494 27.512 27.537 27.532 27.499 27.462 27.434 27.464 27.459 27.419 27.824 29.069 27.697 27.414 27.412 28.202 28.579 27.429 27.407 27.437 27.469 27.437 27.384 27.347 27.274 27.242 27.182 27.157 27.107 27.077 27.059 27.017 27.019 27.019 26.984 26.964 26.922 26.892 26.842 26.789 26.702 26.642 26.552 26.467 26.359 26.277 26.209 26.147 26.069 25.977 25.884 25.844 25.762 25.674 25.587 25.547 25.422 25.374 25.312 25.237 25.134 25.064 25.029 24.909 24.824 24.757 24.664 24.592 24.477 24.384 24.287 24.182 24.082 24.012 23.894 23.819 23.779 23.699 23.604 23.532 23.449 23.387 23.309 23.194 23.124 23.022 22.964 22.872 22.814 22.727 22.632 22.549 22.467 22.367 22.292 22.217 22.137 22.024 21.912 21.842 21.754 21.672 21.594 21.579 21.507 21.509 21.477 21.392 21.302 21.199 21.162 21.644 21.387 20.572 20.859 20.917 20.857 20.719 20.629
