ncols 438
nrows 32
xllcorner    459030
yllcorner    93402
cellsize     2
NODATA_value -9999
-2.177 -2.205 -2.207 -2.19 -2.215 -2.215 -2.22 -2.205 -2.21 -2.222 -2.202 -2.235 -2.215 -2.217 -2.2 -2.195 -2.202 -2.205 -2.195 -2.192 -2.215 -2.2 -2.192 -2.182 -2.182 -2.185 -2.182 -2.157 -2.125 -2.155 -2.195 -2.195 -2.212 -2.195 -2.18 -2.182 -2.157 -2.19 -2.157 -2.147 -2.195 -2.21 -2.182 -2.17 -2.19 -2.185 -2.187 -2.175 -2.167 -2.187 -2.18 -2.172 -2.175 -2.21 -2.187 -2.16 -2.128 -2.088 -2.115 -2.024 -2.006 -1.997 -1.978 -2.004 -1.962 -1.897 -1.905 -1.826 -1.762 -1.761 -1.727 -1.726 -1.651 -1.6 -1.58 -1.537 -1.565 -1.567 -1.61 -1.657 -1.645 -1.561 -1.561 -1.608 -1.652 -1.642 -1.621 -1.653 -1.719 -1.737 -1.781 -1.835 -1.831 -1.823 -1.888 -1.874 -1.884 -1.884 -1.852 -1.86 -1.856 -1.899 -1.894 -1.861 -1.898 -1.872 -1.899 -1.917 -1.905 -1.853 -1.841 -1.823 -1.819 -1.8 -1.797 -1.752 -1.72 -1.69 -1.65 -1.695 -1.75 -1.265 -1.475 -1.79 -1.742 -1.785 -1.78 -1.76 -1.807 -1.832 0.703 4.16 4.143 3.6 -0.935 -1.702 -1.465 -1.75 -1.26 2.093 3.408 3.408 2.405 1.118 -1.872 -1.885 -1.877 -1.77 -1.655 -1.557 -1.462 -1.43 -1.432 -1.442 -1.397 -1.382 -1.35 -1.405 -1.385 -1.397 -1.395 -1.455 -1.465 -1.432 -1.447 -1.45 -1.445 -1.45 -1.457 -1.434 -1.466 -1.44 -1.435 -1.457 -1.469 -1.419 -1.389 -1.404 -1.404 -1.369 -1.381 -1.353 -1.352 -1.386 -1.415 -1.416 -1.448 -1.454 -1.458 -1.447 -1.466 -1.442 -1.439 -1.433 -1.453 -1.458 -1.481 -1.487 -1.487 -1.466 -1.449 -1.466 -1.425 -1.412 -1.417 -1.435 -1.415 -1.45 -1.427 -1.452 -1.425 -1.465 -1.472 -1.435 -1.467 -1.425 -1.46 -1.405 -1.415 -1.392 -1.402 -1.39 -1.347 -1.375 -1.36 -1.37 -1.332 -1.347 -1.365 -1.362 -1.367 -1.41 -1.402 -1.402 -1.377 -1.37 -1.38 -1.45 -1.46 -1.412 -1.447 -1.49 -1.437 -1.517 -1.447 -1.475 -1.422 -1.39 -1.385 -1.377 -1.41 -1.417 -1.415 -1.422 -1.412 -1.42 -1.422 -1.442 -1.43 -1.367 -1.395 -1.415 -1.435 -1.462 -1.455 -1.472 -1.467 -1.455 -1.499 -1.493 -1.511 -1.505 -1.533 -1.544 -1.564 -1.559 -1.595 -1.613 -1.63 -1.642 -1.678 -1.741 -1.801 -1.844 -1.826 -1.724 -1.743 -1.7 -1.625 -1.597 -1.525 -1.523 -1.514 -1.76 -1.709 -1.76 -1.526 -1.557 -1.527 -1.467 -1.507 -1.455 -1.415 -1.477 -1.499 -1.566 -1.518 -1.551 -1.552 -1.616 -1.637 -1.632 -1.71 -1.732 -1.746 -1.729 -1.761 -1.792 -1.828 -1.821 -1.775 -1.752 -1.725 -1.732 -1.71 -1.71 -1.695 -1.717 -1.686 -1.701 -1.704 -1.705 -1.682 -1.645 -1.609 -1.555 -1.551 -1.504 -1.527 -1.528 -1.534 -1.561 -1.575 -1.601 -1.624 -1.613 -1.61 -1.609 -1.618 -1.621 -1.674 -1.663 -1.71 -1.738 -1.694 -1.673 -1.622 -1.614 -1.606 -1.631 -1.629 -1.662 -1.6 -1.593 -1.83 -1.538 -1.501 -1.497 -1.462 -1.457 -1.857 -1.832 -1.875 -1.875 -1.832 -1.537 -1.571 -1.539 -1.563 -9999 -9999 -1.572 -1.497 -1.392 -1.377 -1.419 -1.497 -1.506 -1.605 -1.603 -1.605 -1.632 -1.633 -1.502 -1.574 -1.503 -1.513 -1.589 -1.556 -1.589 -1.556 -1.588 -1.906 -2.023 -1.718 -1.733 -1.718 -1.888 -1.696 -1.698 -1.678 -1.687 -1.693 -1.709 -1.684 -1.694 -1.684 -1.692 -1.726 -1.721 -1.696 -1.67 -1.665 -1.663 -1.651 -1.634 -1.627 -1.579 -1.559 -1.565 -1.524 -1.547 -1.532 -1.51 -1.483 -1.523 -1.565 -1.579
-2.195 -2.22 -2.207 -2.227 -2.232 -2.19 -2.195 -2.225 -2.235 -2.235 -2.245 -2.185 -2.177 -2.235 -2.22 -2.247 -2.235 -2.235 -2.235 -2.185 -2.222 -2.217 -2.207 -2.215 -2.212 -2.19 -2.19 -2.185 -2.195 -2.175 -2.17 -2.165 -2.15 -2.165 -2.202 -2.202 -2.182 -2.167 -2.19 -2.16 -2.162 -2.185 -2.157 -2.205 -2.195 -2.215 -2.17 -2.17 -2.17 -2.167 -2.172 -2.162 -2.165 -2.162 -2.185 -2.215 -2.171 -2.142 -2.097 -2.083 -2.018 -2.038 -2.035 -2.021 -1.9 -1.853 -1.781 -1.808 -1.779 -1.796 -1.74 -1.703 -1.615 -1.572 -1.572 -1.545 -1.582 -1.598 -1.605 -1.644 -1.617 -1.643 -1.637 -1.649 -1.688 -1.694 -1.711 -1.731 -1.737 -1.766 -1.805 -1.824 -1.841 -1.857 -1.92 -1.903 -1.903 -1.883 -1.911 -1.895 -1.886 -1.906 -1.923 -1.878 -1.892 -1.888 -1.893 -1.899 -1.875 -1.839 -1.835 -1.839 -1.83 -1.815 -1.77 -1.745 -1.7 -1.682 -1.64 -1.647 -1.712 -1.632 -1.71 -1.782 -1.767 -1.787 -0.647 -1.527 -0.775 -1.75 -1.125 2.748 4.153 4.158 0.038 -1.735 -1.72 -1.74 -1.727 1.658 3.033 3.428 3.418 3.008 -1.235 -1.87 -1.86 -1.705 -1.607 -1.535 -1.482 -1.425 -1.372 -1.405 -1.405 -1.372 -1.375 -1.405 -1.422 -1.442 -1.412 -1.392 -1.445 -1.445 -1.457 -1.43 -1.472 -1.422 -1.402 -1.405 -1.393 -1.421 -1.433 -1.419 -1.419 -1.405 -1.361 -1.342 -1.361 -1.328 -1.356 -1.322 -1.35 -1.386 -1.367 -1.394 -1.383 -1.399 -1.44 -1.428 -1.443 -1.442 -1.433 -1.445 -1.453 -1.458 -1.477 -1.45 -1.394 -1.371 -1.366 -1.362 -1.372 -1.39 -1.41 -1.422 -1.397 -1.387 -1.427 -1.455 -1.437 -1.457 -1.465 -1.51 -1.532 -1.537 -1.465 -1.505 -1.442 -1.447 -1.437 -1.382 -1.365 -1.342 -1.347 -1.355 -1.352 -1.342 -1.36 -1.357 -1.415 -1.46 -1.452 -1.395 -1.422 -1.425 -1.432 -1.427 -1.377 -1.395 -1.39 -1.427 -1.412 -1.397 -1.332 -1.397 -1.387 -1.385 -1.41 -1.432 -1.43 -1.417 -1.405 -1.4 -1.415 -1.435 -1.427 -1.437 -1.465 -1.445 -1.415 -1.445 -1.442 -1.452 -1.48 -1.477 -1.513 -1.475 -1.467 -1.513 -1.53 -1.532 -1.547 -1.548 -1.551 -1.569 -1.59 -1.615 -1.651 -1.666 -1.76 -1.761 -1.812 -1.765 -1.783 -1.726 -1.685 -1.654 -1.673 -1.606 -1.548 -1.563 -1.558 -1.789 -1.787 -9999 -9999 -1.502 -1.527 -1.492 -1.455 -1.475 -1.53 -1.47 -1.484 -1.475 -1.545 -1.532 -1.595 -1.62 -1.651 -1.658 -1.712 -1.689 -1.714 -1.763 -1.794 -1.804 -1.806 -1.798 -1.797 -1.757 -1.752 -1.712 -1.725 -1.712 -1.692 -1.68 -1.672 -1.672 -1.659 -1.654 -1.647 -1.654 -1.597 -1.555 -1.535 -1.509 -1.477 -1.493 -1.501 -1.528 -1.548 -1.573 -1.564 -1.62 -1.592 -1.589 -1.586 -1.656 -1.64 -1.64 -1.714 -1.718 -1.687 -1.644 -1.615 -1.618 -1.634 -1.639 -1.657 -1.665 -1.651 -1.549 -1.594 -1.497 -1.425 -1.52 -1.53 -1.497 -1.494 -1.847 -1.808 -1.874 -1.557 -1.483 -1.541 -1.534 -1.538 -1.495 -1.507 -1.532 -1.492 -9999 -1.767 -1.383 -1.483 -1.486 -1.568 -1.572 -1.589 -1.591 -1.633 -1.565 -1.605 -1.591 -1.552 -1.555 -1.54 -1.817 -1.652 -1.658 -1.66 -1.663 -1.693 -1.695 -1.72 -1.681 -1.668 -1.665 -1.67 -1.677 -1.686 -1.667 -1.686 -1.701 -1.707 -1.712 -1.696 -1.679 -1.662 -1.667 -1.655 -1.654 -1.637 -1.624 -1.581 -1.539 -1.535 -1.554 -1.507 -1.5 -1.536 -1.507 -1.496 -1.504 -1.493 -1.559
-2.212 -2.202 -2.215 -2.227 -2.197 -2.24 -2.25 -2.247 -2.232 -2.21 -2.227 -2.207 -2.267 -2.24 -2.242 -2.217 -2.195 -2.222 -2.227 -2.187 -2.195 -2.195 -2.217 -2.187 -2.227 -2.21 -2.227 -2.222 -2.202 -2.18 -2.195 -2.2 -2.197 -2.18 -2.18 -2.155 -2.145 -2.165 -2.152 -2.157 -2.2 -2.197 -2.177 -2.142 -2.197 -2.185 -2.19 -2.185 -2.16 -2.175 -2.167 -2.177 -2.157 -2.165 -2.172 -2.162 -2.167 -2.274 -2.158 -2.161 -2.147 -2.061 -2.078 -1.998 -1.95 -1.887 -1.892 -1.845 -1.799 -1.752 -1.707 -1.624 -1.625 -1.64 -1.615 -1.598 -1.646 -1.708 -1.644 -1.675 -1.71 -1.692 -1.673 -1.662 -1.718 -1.727 -1.759 -1.78 -1.774 -1.808 -1.822 -1.833 -1.832 -1.889 -1.929 -1.907 -1.888 -1.941 -1.915 -1.896 -1.947 -1.883 -1.904 -1.887 -1.881 -1.885 -1.899 -1.874 -1.831 -1.825 -1.795 -1.787 -1.775 -1.772 -1.757 -1.73 -1.687 -1.665 -1.632 -1.617 -1.667 -1.7 -1.707 -1.665 -0.64 -1.592 -1.74 -1.605 -1.707 -1.702 -0.602 4.138 4.135 4.175 0.405 -1.732 -1.752 -1.38 -1.67 0.245 3.015 3.413 3.433 0.61 -1.397 -1.732 -1.84 -1.675 -1.582 -1.517 -1.467 -1.415 -1.412 -1.402 -1.39 -1.402 -1.407 -1.447 -1.467 -1.47 -1.405 -1.395 -1.372 -1.38 -1.385 -1.397 -1.415 -1.377 -1.377 -1.365 -1.387 -1.404 -1.408 -1.385 -1.393 -1.394 -1.37 -1.355 -1.371 -1.355 -1.346 -1.335 -1.352 -1.378 -1.372 -1.346 -1.355 -1.377 -1.406 -1.417 -1.448 -1.46 -1.457 -1.445 -1.482 -1.443 -1.444 -1.433 -1.425 -1.371 -1.358 -1.312 -1.365 -1.38 -1.402 -1.422 -1.397 -1.385 -1.432 -1.485 -1.48 -1.492 -1.48 -1.455 -1.475 -1.517 -1.515 -1.502 -1.535 -1.417 -1.427 -1.395 -1.375 -1.327 -1.352 -1.367 -1.362 -1.385 -1.402 -1.387 -1.415 -1.465 -1.42 -1.427 -1.455 -1.38 -1.397 -1.385 -1.36 -1.382 -1.39 -1.375 -1.415 -1.38 -1.372 -1.342 -1.365 -1.39 -1.407 -1.457 -1.432 -1.43 -1.43 -1.43 -1.407 -1.422 -1.445 -1.42 -1.437 -1.415 -1.47 -1.48 -1.427 -1.445 -1.49 -1.472 -1.467 -1.491 -1.505 -1.558 -1.552 -1.56 -1.569 -1.537 -1.561 -1.56 -1.59 -1.595 -1.67 -1.697 -1.72 -1.832 -1.848 -1.895 -1.793 -1.748 -1.698 -1.681 -1.637 -1.554 -1.61 -1.566 -1.543 -1.576 -1.543 -9999 -1.427 -1.45 -1.43 -1.477 -1.437 -1.477 -1.531 -1.544 -1.517 -1.508 -1.514 -1.518 -1.551 -1.62 -1.648 -1.658 -1.695 -1.714 -1.745 -1.768 -1.826 -1.848 -1.803 -1.81 -1.795 -1.707 -1.697 -1.707 -1.715 -1.695 -1.686 -1.631 -1.636 -1.604 -1.642 -1.647 -1.627 -1.655 -1.588 -1.537 -1.516 -1.494 -1.487 -1.476 -1.526 -1.492 -1.547 -1.576 -1.568 -1.577 -1.584 -1.624 -1.623 -1.643 -1.663 -1.659 -1.672 -1.678 -1.652 -1.626 -1.601 -1.622 -1.594 -1.621 -1.616 -1.573 -1.574 -1.521 -1.572 -1.551 -1.467 -9999 -9999 -1.48 -1.455 -1.472 -1.498 -1.543 -1.528 -1.558 -1.528 -1.558 -1.56 -1.572 -1.54 -1.527 -1.522 -9999 -1.842 -1.902 -1.49 -1.482 -1.523 -1.547 -1.618 -1.568 -1.602 -1.621 -1.598 -1.539 -1.557 -1.565 -1.861 -1.852 -1.854 -1.86 -1.657 -1.658 -1.704 -1.721 -1.743 -1.719 -1.653 -1.664 -1.662 -1.692 -1.678 -1.675 -1.699 -1.716 -1.674 -1.702 -1.668 -1.668 -1.661 -1.637 -1.644 -1.642 -1.632 -1.607 -1.584 -1.533 -1.538 -1.555 -1.528 -1.521 -1.478 -1.513 -1.511 -1.524 -1.457 -1.482
-2.217 -2.2 -2.222 -2.24 -2.227 -2.225 -2.222 -2.232 -2.242 -2.232 -2.245 -2.21 -2.23 -2.217 -2.222 -2.21 -2.202 -2.21 -2.21 -2.215 -2.162 -2.215 -2.22 -2.235 -2.2 -2.212 -2.22 -2.202 -2.232 -2.235 -2.22 -2.207 -2.195 -2.172 -2.165 -2.18 -2.155 -2.16 -2.152 -2.19 -2.207 -2.152 -2.185 -2.175 -2.165 -2.172 -2.172 -2.19 -2.187 -2.197 -2.162 -2.162 -2.157 -2.157 -2.22 -2.227 -2.21 -2.277 -2.22 -2.168 -2.125 -2.119 -2.03 -2.001 -1.907 -1.932 -1.906 -1.844 -1.768 -1.717 -1.699 -1.693 -1.709 -1.657 -1.623 -1.66 -1.652 -1.731 -1.708 -1.745 -1.762 -1.722 -1.714 -1.731 -1.767 -1.778 -1.765 -1.769 -1.816 -1.816 -1.818 -1.873 -1.884 -1.877 -1.914 -1.901 -1.941 -1.922 -1.92 -1.938 -1.924 -1.928 -1.942 -1.913 -1.898 -1.885 -1.867 -1.837 -1.807 -1.805 -1.797 -1.76 -1.72 -1.72 -1.7 -1.705 -1.69 -1.612 -1.63 -1.617 -1.627 -1.64 -1.675 -1.742 -1.21 -1.612 -1.725 -1.692 -1.672 -1.687 -1.645 1.678 4.133 4.175 1.71 -0.24 -1.01 0.268 -1.5 0.023 3.418 1.25 2.358 2.538 -1.2 -1.932 -1.817 -1.69 -1.567 -1.552 -1.492 -1.462 -1.47 -1.462 -1.46 -1.495 -1.485 -1.4 -1.417 -1.412 -1.372 -1.35 -1.347 -1.365 -1.33 -1.325 -1.31 -1.332 -1.355 -1.35 -1.402 -1.403 -1.405 -1.404 -1.413 -1.407 -1.413 -1.398 -1.361 -1.372 -1.372 -1.359 -1.335 -1.369 -1.391 -1.382 -1.367 -1.374 -1.396 -1.393 -1.427 -1.479 -1.426 -1.427 -1.462 -1.422 -1.476 -1.459 -1.391 -1.361 -1.387 -1.377 -1.365 -1.39 -1.42 -1.4 -1.41 -1.42 -1.415 -1.445 -1.447 -1.472 -1.472 -1.497 -1.45 -1.49 -1.512 -1.467 -1.44 -1.395 -1.407 -1.387 -1.327 -1.325 -1.325 -1.347 -1.362 -1.355 -1.392 -1.4 -1.402 -1.415 -1.392 -1.412 -1.377 -1.355 -1.4 -1.372 -1.34 -1.365 -1.352 -1.377 -1.34 -1.335 -1.315 -1.36 -1.357 -1.375 -1.382 -1.395 -1.407 -1.39 -1.387 -1.42 -1.41 -1.417 -1.412 -1.462 -1.452 -1.45 -1.457 -1.487 -1.487 -1.48 -1.481 -1.482 -1.505 -1.515 -1.519 -1.536 -1.546 -1.539 -1.556 -1.568 -1.56 -1.55 -1.556 -1.629 -1.675 -1.662 -1.694 -1.726 -1.745 -1.764 -1.767 -1.698 -1.752 -1.716 -1.674 -1.337 -1.59 -1.555 -1.511 -1.503 -1.484 -1.442 -1.489 -1.498 -1.476 -1.501 -1.467 -1.515 -1.543 -1.548 -1.514 -1.509 -1.53 -1.576 -1.603 -1.638 -1.65 -1.65 -1.686 -1.69 -1.78 -1.787 -1.823 -1.861 -1.808 -1.805 -1.782 -1.692 -1.71 -1.685 -1.677 -1.669 -1.655 -1.638 -1.602 -1.609 -1.621 -1.651 -1.626 -1.618 -1.605 -1.553 -1.535 -1.51 -1.49 -1.461 -1.466 -1.449 -1.471 -1.528 -1.584 -1.552 -1.539 -1.655 -1.623 -1.688 -1.69 -1.696 -1.69 -1.63 -1.62 -1.623 -1.607 -1.607 -1.608 -1.65 -1.682 -1.616 -1.565 -1.557 -1.499 -1.496 -1.511 -9999 -1.542 -1.5 -1.482 -1.471 -1.47 -1.542 -1.519 -1.552 -1.496 -1.535 -1.549 -1.587 -1.54 -1.505 -1.55 -9999 -1.97 -1.861 -1.768 -1.513 -1.566 -1.634 -1.661 -1.613 -1.574 -1.578 -1.572 -1.558 -1.528 -1.797 -1.835 -1.853 -1.837 -1.825 -1.658 -1.71 -1.704 -1.691 -1.678 -1.653 -1.67 -1.66 -1.692 -1.666 -1.676 -1.68 -1.72 -1.725 -1.697 -1.693 -1.686 -1.672 -1.666 -1.626 -1.625 -1.639 -1.637 -1.598 -1.566 -1.532 -1.499 -1.508 -1.468 -1.48 -1.494 -1.518 -1.571 -1.566 -1.44 -1.445
-2.205 -2.205 -2.227 -2.205 -2.195 -2.187 -2.252 -2.207 -2.19 -2.195 -2.195 -2.207 -2.197 -2.2 -2.182 -2.172 -2.155 -2.2 -2.202 -2.21 -2.17 -2.192 -2.175 -2.192 -2.185 -2.207 -2.197 -2.17 -2.175 -2.232 -2.2 -2.192 -2.2 -2.212 -2.195 -2.19 -2.175 -2.185 -2.192 -2.175 -2.197 -2.197 -2.157 -2.16 -2.167 -2.175 -2.192 -2.157 -2.177 -2.17 -2.195 -2.192 -2.175 -2.19 -2.207 -2.18 -2.177 -2.252 -2.217 -2.182 -2.113 -2.091 -2.064 -1.94 -1.966 -1.947 -1.894 -1.86 -1.817 -1.787 -1.778 -1.785 -1.748 -1.706 -1.711 -1.715 -1.686 -1.759 -1.776 -1.737 -1.748 -1.765 -1.79 -1.794 -1.789 -1.81 -1.833 -1.814 -1.808 -1.833 -1.872 -1.884 -1.903 -1.88 -1.913 -1.913 -1.907 -1.895 -1.924 -1.914 -1.923 -1.897 -1.926 -1.911 -1.882 -1.882 -1.845 -1.797 -1.807 -1.79 -1.772 -1.735 -1.722 -1.692 -1.685 -1.652 -1.61 -1.647 -1.627 -1.622 -1.615 -1.622 -1.635 -1.517 -1.482 -1.542 -0.595 -1.185 -1.732 -1.697 -0.795 1.843 4.108 4.18 1.798 -1.71 -1.672 -1.715 -1.692 -0.925 3.125 2.733 3.373 2.885 -0.752 -1.692 -1.745 -1.665 -1.542 -1.54 -1.465 -1.49 -1.445 -1.437 -1.397 -1.422 -1.367 -1.367 -1.337 -1.372 -1.33 -1.34 -1.325 -1.315 -1.325 -1.31 -1.31 -1.345 -1.332 -1.357 -1.377 -1.4 -1.424 -1.442 -1.405 -1.408 -1.379 -1.365 -1.374 -1.362 -1.362 -1.355 -1.35 -1.369 -1.369 -1.382 -1.4 -1.388 -1.415 -1.404 -1.438 -1.445 -1.436 -1.421 -1.458 -1.397 -1.373 -1.395 -1.381 -1.37 -1.412 -1.4 -1.382 -1.4 -1.43 -1.437 -1.39 -1.405 -1.382 -1.372 -1.362 -1.382 -1.38 -1.412 -1.46 -1.495 -1.5 -1.51 -1.46 -1.385 -1.362 -1.352 -1.3 -1.33 -1.345 -1.355 -1.377 -1.37 -1.37 -1.375 -1.365 -1.357 -1.392 -1.392 -1.427 -1.367 -1.382 -1.4 -1.352 -1.345 -1.347 -1.342 -1.365 -1.342 -1.33 -1.352 -1.415 -1.407 -1.422 -1.365 -1.37 -1.395 -1.422 -1.4 -1.445 -1.427 -1.46 -1.435 -1.442 -1.467 -1.45 -1.467 -1.472 -1.481 -1.475 -1.495 -1.512 -1.509 -1.541 -1.53 -1.523 -1.529 -1.545 -1.573 -1.57 -1.577 -1.755 -1.784 -1.699 -1.647 -1.66 -1.677 -1.712 -1.769 -1.711 -1.741 -1.753 -1.702 -1.676 -1.566 -1.553 -1.459 -1.476 -1.508 -1.495 -1.472 -1.522 -1.552 -1.558 -1.521 -1.557 -1.493 -1.516 -1.612 -1.566 -1.531 -1.561 -1.606 -1.653 -1.679 -1.652 -1.657 -1.721 -1.726 -1.735 -1.782 -1.834 -1.844 -1.829 -1.752 -1.707 -1.66 -1.687 -1.647 -1.657 -1.645 -1.607 -1.58 -1.602 -1.608 -1.623 -1.613 -1.61 -1.603 -1.598 -1.562 -1.506 -1.504 -1.465 -1.471 -1.446 -1.433 -1.462 -1.542 -1.544 -1.551 -1.545 -1.556 -1.631 -1.631 -1.693 -1.608 -1.643 -1.631 -1.633 -1.619 -1.617 -1.638 -1.668 -1.683 -1.722 -1.655 -1.638 -1.579 -1.531 -1.456 -1.467 -1.842 -1.476 -1.495 -1.512 -1.502 -1.503 -1.529 -1.501 -1.532 -1.511 -1.496 -1.56 -1.495 -1.485 -1.435 -1.525 -1.535 -1.909 -1.792 -1.735 -1.784 -1.544 -1.611 -1.656 -1.658 -1.593 -1.585 -1.548 -1.576 -1.601 -1.603 -1.816 -1.843 -1.661 -1.68 -1.676 -1.752 -1.727 -1.694 -1.674 -1.67 -1.665 -1.668 -1.693 -1.685 -1.682 -1.67 -1.677 -1.669 -1.702 -1.688 -1.679 -1.679 -1.657 -1.643 -1.599 -1.621 -1.594 -1.549 -1.529 -1.508 -1.503 -1.515 -1.477 -1.526 -1.516 -1.535 -1.557 -1.499 -1.44 -1.432
-2.185 -2.215 -2.177 -2.212 -2.232 -2.207 -2.222 -2.187 -2.197 -2.16 -2.167 -2.18 -2.212 -2.205 -2.18 -2.155 -2.177 -2.19 -2.18 -2.192 -2.172 -2.187 -2.182 -2.165 -2.165 -2.162 -2.18 -2.177 -2.21 -2.19 -2.21 -2.202 -2.155 -2.17 -2.17 -2.217 -2.212 -2.197 -2.187 -2.187 -2.17 -2.187 -2.147 -2.125 -2.162 -2.152 -2.2 -2.222 -2.185 -2.192 -2.217 -2.23 -2.227 -2.23 -2.272 -2.205 -2.152 -2.237 -2.237 -2.147 -2.197 -2.14 -2.117 -2.019 -1.961 -1.922 -1.876 -1.93 -1.96 -1.867 -1.82 -1.836 -1.714 -1.716 -1.741 -1.711 -1.758 -1.773 -1.763 -1.758 -1.813 -1.826 -1.781 -1.775 -1.796 -1.838 -1.865 -1.863 -1.858 -1.853 -1.869 -1.875 -1.944 -1.893 -1.9 -1.924 -1.913 -1.926 -1.928 -1.927 -1.935 -1.933 -1.877 -1.872 -1.877 -1.847 -1.827 -1.832 -1.807 -1.76 -1.742 -1.702 -1.687 -1.677 -1.645 -1.635 -1.635 -1.587 -1.6 -1.567 -1.585 -1.585 -1.612 -1.622 -0.995 -0.305 -1.675 -1.627 -1.64 -1.647 -1.647 1.345 4.183 4.193 1.94 -1.572 -1.677 -1.72 -1.692 0.18 2.853 3.388 1.613 3.068 1.035 -1.262 -1.695 -1.602 -1.517 -1.497 -1.477 -1.47 -1.435 -1.425 -1.385 -1.36 -1.312 -1.315 -1.275 -1.267 -1.26 -1.285 -1.305 -1.362 -1.312 -1.307 -1.33 -1.352 -1.372 -1.38 -1.452 -1.477 -1.435 -1.382 -1.457 -1.38 -1.369 -1.357 -1.353 -1.385 -1.371 -1.374 -1.339 -1.327 -1.337 -1.361 -1.363 -1.386 -1.389 -1.384 -1.414 -1.42 -1.412 -1.412 -1.444 -1.392 -1.354 -1.361 -1.36 -1.382 -1.365 -1.387 -1.412 -1.417 -1.392 -1.465 -1.425 -1.375 -1.345 -1.375 -1.377 -1.372 -1.367 -1.337 -1.352 -1.385 -1.387 -1.377 -1.36 -1.34 -1.307 -1.342 -1.282 -1.335 -1.362 -1.362 -1.36 -1.387 -1.367 -1.332 -1.345 -1.347 -1.372 -1.362 -1.367 -1.37 -1.395 -1.382 -1.377 -1.39 -1.392 -1.345 -1.35 -1.327 -1.32 -1.335 -1.372 -1.347 -1.402 -1.422 -1.392 -1.45 -1.417 -1.442 -1.402 -1.47 -1.485 -1.432 -1.46 -1.447 -1.452 -1.457 -1.455 -1.483 -1.476 -1.485 -1.529 -1.502 -1.524 -1.532 -1.515 -1.508 -1.532 -1.549 -1.591 -1.605 -1.788 -1.783 -1.813 -1.642 -1.665 -1.648 -1.693 -1.682 -1.727 -1.768 -1.731 -1.708 -1.681 -1.623 -1.58 -1.524 -1.511 -1.534 -1.52 -1.481 -1.508 -1.544 -1.551 -1.526 -1.565 -1.563 -1.541 -1.541 -1.563 -1.573 -1.579 -1.582 -1.603 -1.69 -1.675 -1.712 -1.794 -1.751 -1.749 -1.795 -1.8 -1.807 -1.785 -1.765 -1.687 -1.675 -1.672 -1.667 -1.593 -1.595 -1.577 -1.581 -1.595 -1.595 -1.595 -1.622 -1.591 -1.595 -1.57 -1.545 -1.543 -1.487 -1.487 -1.504 -1.552 -1.478 -1.465 -1.544 -1.522 -1.566 -1.568 -1.623 -1.614 -1.601 -1.6 -1.609 -1.65 -1.664 -1.641 -1.645 -1.688 -1.703 -1.664 -1.67 -1.662 -1.621 -1.626 -1.555 -1.53 -1.545 -1.524 -1.478 -1.49 -1.498 -1.502 -1.51 -1.517 -1.529 -1.517 -1.539 -1.533 -1.535 -1.565 -1.513 -1.517 -1.495 -1.482 -1.557 -1.513 -1.823 -1.752 -1.726 -1.568 -1.56 -1.607 -1.643 -1.599 -1.585 -1.593 -1.611 -1.598 -1.632 -1.689 -1.64 -1.596 -1.683 -1.681 -1.742 -1.714 -1.692 -1.676 -1.657 -1.685 -1.653 -1.663 -1.685 -1.69 -1.687 -1.662 -1.651 -1.661 -1.666 -1.663 -1.635 -1.623 -1.613 -1.63 -1.593 -1.575 -1.56 -1.527 -1.506 -1.53 -1.553 -1.527 -1.536 -1.534 -1.564 -1.588 -1.579 -1.437 -1.421
-2.175 -2.187 -2.197 -2.205 -2.2 -2.182 -2.187 -2.17 -2.215 -2.192 -2.177 -2.175 -2.18 -2.167 -2.177 -2.18 -2.17 -2.18 -2.18 -2.2 -2.177 -2.18 -2.187 -2.18 -2.197 -2.187 -2.187 -2.167 -2.185 -2.205 -2.232 -2.212 -2.2 -2.18 -2.17 -2.212 -2.2 -2.227 -2.175 -2.205 -2.2 -2.192 -2.167 -2.177 -2.145 -2.172 -2.187 -2.185 -2.22 -2.202 -2.26 -2.217 -2.187 -2.192 -2.225 -2.227 -2.257 -2.242 -2.227 -2.256 -2.194 -2.169 -2.085 -2.003 -1.949 -1.966 -2.006 -1.963 -1.892 -1.866 -1.814 -1.847 -1.786 -1.769 -1.761 -1.788 -1.806 -1.79 -1.8 -1.827 -1.86 -1.839 -1.812 -1.821 -1.847 -1.856 -1.902 -1.904 -1.893 -1.89 -1.905 -1.868 -1.895 -1.901 -1.933 -1.925 -1.936 -1.911 -1.914 -1.883 -1.925 -1.89 -1.83 -1.815 -1.83 -1.807 -1.777 -1.747 -1.765 -1.745 -1.732 -1.695 -1.677 -1.662 -1.647 -1.615 -1.59 -1.57 -1.582 -1.537 -1.552 -1.557 -1.582 -1.612 -1.497 -1.452 -1.622 -1.6 -1.58 -1.595 -1.59 0.75 4.183 4.225 3.175 0.28 -1.48 0.258 -1.47 -1.232 -0.357 2.54 2.775 2.745 -0.95 -1.81 -1.69 -1.595 -1.532 -1.48 -1.462 -1.4 -1.392 -1.367 -1.335 -1.287 -1.305 -1.275 -1.24 -1.277 -1.28 -1.302 -1.285 -1.307 -1.327 -1.335 -1.357 -1.357 -1.392 -1.412 -1.497 -1.472 -1.417 -1.36 -1.355 -1.375 -1.361 -1.376 -1.349 -1.328 -1.342 -1.348 -1.336 -1.31 -1.311 -1.336 -1.328 -1.338 -1.35 -1.348 -1.379 -1.399 -1.378 -1.394 -1.362 -1.364 -1.401 -1.357 -1.33 -1.335 -1.345 -1.362 -1.375 -1.42 -1.415 -1.432 -1.41 -1.382 -1.357 -1.377 -1.335 -1.335 -1.335 -1.33 -1.322 -1.31 -1.32 -1.282 -1.307 -1.315 -1.32 -1.365 -1.29 -1.345 -1.357 -1.335 -1.345 -1.365 -1.377 -1.345 -1.342 -1.345 -1.365 -1.347 -1.352 -1.305 -1.33 -1.367 -1.35 -1.37 -1.357 -1.34 -1.367 -1.365 -1.36 -1.36 -1.38 -1.385 -1.407 -1.442 -1.445 -1.467 -1.482 -1.475 -1.452 -1.437 -1.465 -1.447 -1.485 -1.45 -1.47 -1.452 -1.455 -1.467 -1.478 -1.482 -1.507 -1.52 -1.522 -1.532 -1.527 -1.571 -1.722 -1.595 -1.611 -1.603 -1.575 -1.597 -1.601 -1.618 -1.63 -1.628 -1.66 -1.698 -1.726 -1.683 -1.684 -1.677 -1.644 -1.605 -1.594 -1.597 -1.573 -1.545 -1.495 -1.503 -1.553 -1.578 -1.529 -1.604 -1.563 -1.565 -1.562 -1.546 -1.564 -1.6 -1.631 -1.64 -1.766 -1.745 -1.672 -1.709 -1.755 -1.747 -1.776 -1.766 -1.762 -1.758 -1.705 -1.745 -1.695 -1.66 -1.64 -1.627 -1.589 -1.606 -1.585 -1.584 -1.579 -1.58 -1.574 -1.618 -1.6 -1.575 -1.55 -1.483 -1.479 -1.499 -1.569 -1.533 -1.556 -1.457 -1.525 -1.548 -1.558 -1.541 -1.555 -1.619 -1.614 -1.6 -1.668 -1.653 -1.675 -1.706 -1.707 -1.714 -1.728 -1.724 -1.676 -1.587 -1.622 -1.591 -1.595 -1.535 -1.52 -1.487 -1.481 -1.462 -1.446 -1.496 -1.479 -1.5 -1.55 -1.54 -1.532 -1.595 -1.567 -1.563 -1.554 -1.591 -1.445 -1.357 -1.445 -1.542 -1.573 -1.778 -1.797 -1.792 -1.518 -1.589 -1.601 -1.622 -1.619 -1.599 -1.606 -1.606 -1.639 -1.635 -1.643 -1.637 -1.653 -1.689 -1.7 -1.713 -1.704 -1.68 -1.665 -1.695 -1.666 -1.657 -1.692 -1.705 -1.662 -1.667 -1.69 -1.698 -1.724 -1.665 -1.632 -1.663 -1.63 -1.608 -1.605 -1.582 -1.594 -1.566 -1.554 -1.532 -1.555 -1.549 -1.567 -1.565 -1.54 -1.542 -1.523 -1.477 -1.444 -1.409
-2.177 -2.195 -2.197 -2.207 -2.187 -2.207 -2.22 -2.212 -2.167 -2.187 -2.18 -2.195 -2.21 -2.182 -2.197 -2.18 -2.172 -2.19 -2.177 -2.167 -2.197 -2.192 -2.187 -2.205 -2.177 -2.19 -2.177 -2.182 -2.172 -2.175 -2.185 -2.19 -2.19 -2.202 -2.195 -2.162 -2.175 -2.222 -2.207 -2.21 -2.225 -2.185 -2.19 -2.182 -2.195 -2.202 -2.195 -2.145 -2.185 -2.215 -2.22 -2.185 -2.215 -2.197 -2.195 -2.202 -2.202 -2.282 -2.205 -2.27 -2.205 -2.217 -2.144 -2.13 -2.035 -2.017 -2.013 -1.963 -1.928 -1.885 -1.87 -1.88 -1.86 -1.826 -1.841 -1.806 -1.835 -1.848 -1.853 -1.824 -1.839 -1.892 -1.87 -1.87 -1.878 -1.879 -1.9 -1.891 -1.911 -1.909 -1.89 -1.886 -1.903 -1.9 -1.937 -1.93 -1.94 -1.927 -1.885 -1.875 -1.892 -1.882 -1.827 -1.817 -1.802 -1.79 -1.76 -1.722 -1.72 -1.722 -1.695 -1.72 -1.697 -1.642 -1.6 -1.602 -1.582 -1.565 -1.552 -1.522 -1.52 -1.545 -1.552 -1.57 -1.625 -1.632 -1.605 -1.605 -1.65 -1.405 -0.987 1.048 4.193 4.23 3.543 -0.815 -1.642 -1.645 -1.63 -0.552 2.228 3.308 3.318 3.338 1.08 -1.815 -1.692 -1.587 -1.532 -1.467 -1.39 -1.377 -1.357 -1.325 -1.292 -1.275 -1.317 -1.325 -1.292 -1.34 -1.332 -1.295 -1.347 -1.35 -1.305 -1.31 -1.33 -1.39 -1.385 -1.432 -1.465 -1.42 -1.382 -1.367 -1.352 -1.36 -1.408 -1.38 -1.364 -1.336 -1.305 -1.306 -1.324 -1.313 -1.322 -1.333 -1.321 -1.35 -1.352 -1.354 -1.348 -1.386 -1.379 -1.351 -1.357 -1.345 -1.362 -1.33 -1.357 -1.352 -1.365 -1.36 -1.352 -1.377 -1.387 -1.367 -1.35 -1.38 -1.37 -1.372 -1.36 -1.322 -1.327 -1.357 -1.332 -1.312 -1.285 -1.275 -1.252 -1.257 -1.297 -1.315 -1.322 -1.34 -1.345 -1.38 -1.375 -1.372 -1.41 -1.387 -1.387 -1.36 -1.312 -1.325 -1.325 -1.32 -1.325 -1.315 -1.285 -1.315 -1.327 -1.322 -1.33 -1.375 -1.387 -1.362 -1.362 -1.422 -1.422 -1.442 -1.45 -1.465 -1.46 -1.462 -1.485 -1.482 -1.445 -1.447 -1.485 -1.47 -1.507 -1.491 -1.492 -1.472 -1.467 -1.48 -1.494 -1.548 -1.537 -1.566 -1.713 -1.742 -1.771 -1.785 -1.582 -1.529 -1.556 -1.575 -1.607 -1.616 -1.614 -1.641 -1.661 -1.709 -1.686 -1.67 -1.677 -1.63 -1.657 -1.641 -1.67 -1.667 -1.654 -1.626 -1.61 -1.527 -1.594 -1.597 -1.591 -1.577 -1.577 -1.551 -1.533 -1.575 -1.591 -1.622 -1.613 -1.755 -1.755 -1.792 -1.758 -1.749 -1.74 -1.743 -1.767 -1.746 -1.764 -1.752 -1.707 -1.685 -1.645 -1.68 -1.667 -1.627 -1.646 -1.629 -1.585 -1.57 -1.582 -1.584 -1.6 -1.609 -1.606 -1.538 -1.503 -1.498 -1.542 -1.575 -1.612 -1.59 -1.558 -1.542 -1.527 -1.505 -1.503 -1.553 -1.584 -1.57 -1.621 -1.636 -1.663 -1.744 -1.829 -1.82 -1.786 -1.724 -1.696 -1.724 -1.659 -1.604 -1.574 -1.603 -1.55 -1.538 -1.548 -1.513 -1.495 -1.528 -1.51 -1.506 -1.556 -1.534 -1.538 -1.542 -1.526 -1.563 -1.515 -1.536 -1.497 -1.485 -1.487 -1.45 -1.47 -1.512 -1.538 -1.574 -1.763 -1.765 -1.533 -1.584 -1.624 -1.64 -1.632 -1.645 -1.645 -1.641 -1.653 -1.648 -1.647 -1.649 -1.686 -1.709 -1.693 -1.712 -1.68 -1.692 -1.641 -1.669 -1.675 -1.673 -1.695 -1.682 -1.66 -1.637 -1.67 -1.69 -1.695 -1.67 -1.66 -1.629 -1.63 -1.595 -1.596 -1.599 -1.577 -1.582 -1.532 -1.539 -1.58 -1.669 -1.733 -1.579 -1.504 -1.426 -1.457 -1.439 -1.445 -1.428
-2.187 -2.19 -2.205 -2.197 -2.217 -2.217 -2.197 -2.18 -2.217 -2.185 -2.18 -2.18 -2.212 -2.195 -2.187 -2.197 -2.2 -2.185 -2.19 -2.18 -2.197 -2.21 -2.165 -2.18 -2.2 -2.185 -2.207 -2.19 -2.192 -2.165 -2.175 -2.217 -2.197 -2.192 -2.237 -2.19 -2.202 -2.197 -2.192 -2.21 -2.18 -2.192 -2.19 -2.23 -2.22 -2.212 -2.212 -2.237 -2.18 -2.182 -2.24 -2.187 -2.207 -2.245 -2.255 -2.212 -2.255 -2.242 -2.285 -2.255 -2.171 -2.127 -2.153 -2.177 -2.141 -2.02 -2.009 -2.003 -1.918 -1.937 -1.932 -1.9 -1.868 -1.858 -1.842 -1.845 -1.894 -1.87 -1.858 -1.904 -1.912 -1.886 -1.89 -1.883 -1.912 -1.935 -1.916 -1.936 -1.917 -1.869 -1.881 -1.895 -1.908 -1.934 -1.904 -1.915 -1.946 -1.887 -1.885 -1.857 -1.832 -1.84 -1.807 -1.787 -1.77 -1.762 -1.74 -1.717 -1.7 -1.712 -1.695 -1.685 -1.652 -1.652 -1.62 -1.61 -1.555 -1.552 -1.53 -1.515 -1.495 -1.505 -1.507 -1.537 -1.562 -1.542 -1.587 -1.57 -1.562 -1.572 -1.607 -0.467 3.335 4.215 3.633 -0.682 -1.615 -1.672 -1.65 -1.735 1.65 1.965 1.158 3.21 0.743 -1.347 -1.682 -1.58 -1.535 -1.532 -1.415 -1.375 -1.315 -1.327 -1.305 -1.322 -1.317 -1.342 -1.397 -1.405 -1.357 -1.34 -1.325 -1.342 -1.352 -1.385 -1.347 -1.397 -1.45 -1.455 -1.447 -1.442 -1.425 -1.382 -1.407 -1.382 -1.387 -1.377 -1.382 -1.315 -1.322 -1.32 -1.335 -1.328 -1.309 -1.341 -1.343 -1.358 -1.341 -1.329 -1.333 -1.365 -1.37 -1.305 -1.325 -1.325 -1.32 -1.29 -1.337 -1.327 -1.36 -1.357 -1.322 -1.345 -1.337 -1.307 -1.332 -1.342 -1.327 -1.35 -1.352 -1.375 -1.412 -1.355 -1.335 -1.347 -1.34 -1.295 -1.32 -1.297 -1.307 -1.337 -1.33 -1.37 -1.367 -1.347 -1.355 -1.365 -1.4 -1.38 -1.367 -1.327 -1.315 -1.325 -1.302 -1.272 -1.29 -1.297 -1.342 -1.337 -1.332 -1.315 -1.347 -1.357 -1.375 -1.38 -1.422 -1.41 -1.43 -1.465 -1.487 -1.497 -1.5 -1.525 -1.572 -1.525 -1.47 -1.472 -1.465 -1.452 -1.482 -1.489 -1.487 -1.503 -1.486 -1.53 -1.524 -1.562 -1.556 -1.545 -1.57 -1.815 -1.786 -1.818 -1.566 -1.518 -1.538 -1.546 -1.566 -1.577 -1.606 -1.596 -1.676 -1.644 -1.651 -1.663 -1.658 -1.636 -1.631 -1.633 -1.641 -1.67 -1.645 -1.55 -1.574 -1.568 -1.581 -1.59 -1.586 -1.587 -1.568 -1.554 -1.551 -1.59 -1.601 -1.609 -1.649 -1.656 -1.795 -1.855 -1.764 -1.747 -1.711 -1.734 -1.765 -1.773 -1.785 -1.71 -1.675 -1.665 -1.612 -1.622 -1.627 -1.652 -1.629 -1.628 -1.584 -1.591 -1.623 -1.606 -1.593 -1.608 -1.573 -1.491 -1.512 -1.544 -1.554 -1.6 -1.594 -1.574 -1.554 -1.498 -1.566 -1.536 -1.577 -1.597 -1.594 -1.539 -1.579 -1.645 -1.644 -1.728 -1.796 -1.811 -1.819 -1.763 -1.709 -1.706 -1.634 -1.584 -1.558 -1.583 -1.551 -1.542 -1.538 -1.533 -1.556 -1.567 -1.545 -1.508 -1.549 -1.561 -1.564 -1.544 -1.578 -1.582 -1.517 -1.43 -1.601 -1.53 -1.527 -1.537 -1.46 -1.537 -1.513 -1.569 -1.759 -1.792 -1.759 -1.549 -1.582 -1.622 -1.635 -1.626 -1.63 -1.626 -1.63 -1.688 -1.67 -1.67 -1.65 -1.715 -1.657 -1.708 -1.636 -1.642 -1.659 -1.68 -1.651 -1.692 -1.67 -1.66 -1.667 -1.675 -1.702 -1.655 -1.702 -1.675 -1.634 -1.62 -1.588 -1.602 -1.597 -1.591 -1.575 -1.576 -1.562 -1.553 -1.584 -1.559 -1.739 -1.597 -1.53 -1.465 -1.435 -1.442 -1.45 -1.44
-2.167 -2.185 -2.187 -2.207 -2.21 -2.205 -2.245 -2.222 -2.21 -2.195 -2.16 -2.187 -2.207 -2.197 -2.225 -2.22 -2.217 -2.202 -2.217 -2.205 -2.197 -2.205 -2.205 -2.197 -2.172 -2.182 -2.217 -2.207 -2.192 -2.205 -2.17 -2.172 -2.21 -2.21 -2.2 -2.182 -2.222 -2.237 -2.21 -2.18 -2.217 -2.242 -2.185 -2.227 -2.227 -2.225 -2.217 -2.187 -2.162 -2.202 -2.177 -2.232 -2.195 -2.215 -2.217 -2.2 -2.207 -2.23 -2.295 -2.255 -2.21 -2.2 -2.182 -2.169 -2.076 -2.06 -2.079 -1.983 -1.948 -1.945 -1.935 -1.924 -1.922 -1.905 -1.917 -1.944 -1.93 -1.901 -1.911 -1.902 -1.907 -1.919 -1.932 -1.925 -1.925 -1.921 -1.946 -1.928 -1.913 -1.89 -1.902 -1.951 -1.901 -1.919 -1.891 -1.912 -1.9 -1.89 -1.9 -1.885 -1.86 -1.832 -1.795 -1.77 -1.725 -1.742 -1.737 -1.73 -1.685 -1.707 -1.69 -1.687 -1.655 -1.662 -1.617 -1.6 -1.59 -1.575 -1.545 -1.515 -1.517 -1.482 -1.505 -1.487 -1.49 -1.507 -1.52 -1.485 -1.517 -1.595 -0.807 -0.052 3.31 4.233 4.245 1.395 -0.605 -1.63 -1.68 -1.632 0.235 1.945 0.09 3.333 1.18 -1.742 -1.657 -1.55 -1.522 -1.462 -1.38 -1.362 -1.325 -1.33 -1.32 -1.345 -1.347 -1.365 -1.34 -1.345 -1.372 -1.365 -1.355 -1.322 -1.412 -1.455 -1.467 -1.44 -1.375 -1.395 -1.462 -1.47 -1.372 -1.385 -1.342 -1.372 -1.387 -1.35 -1.335 -1.357 -1.335 -1.32 -1.36 -1.332 -1.285 -1.34 -1.337 -1.342 -1.34 -1.365 -1.337 -1.362 -1.365 -1.342 -1.332 -1.307 -1.322 -1.297 -1.302 -1.325 -1.352 -1.342 -1.32 -1.337 -1.302 -1.277 -1.332 -1.325 -1.33 -1.345 -1.387 -1.355 -1.38 -1.372 -1.317 -1.295 -1.322 -1.327 -1.3 -1.317 -1.32 -1.345 -1.37 -1.355 -1.36 -1.357 -1.357 -1.395 -1.347 -1.33 -1.335 -1.302 -1.287 -1.315 -1.297 -1.277 -1.287 -1.297 -1.305 -1.335 -1.345 -1.337 -1.357 -1.4 -1.382 -1.455 -1.435 -1.442 -1.475 -1.49 -1.522 -1.537 -1.525 -1.55 -1.575 -1.517 -1.492 -1.522 -1.505 -1.482 -1.505 -1.488 -1.491 -1.493 -1.51 -1.538 -1.565 -1.586 -1.561 -1.579 -1.506 -1.775 -1.792 -1.828 -1.543 -1.483 -1.484 -1.514 -1.563 -1.562 -1.592 -1.608 -1.619 -1.632 -1.613 -1.62 -1.659 -1.642 -1.638 -1.64 -1.655 -1.646 -1.615 -1.58 -1.569 -1.565 -1.605 -1.585 -1.6 -1.571 -1.595 -1.57 -1.558 -1.573 -1.583 -1.616 -1.659 -1.687 -1.696 -1.732 -1.767 -1.793 -1.764 -1.737 -1.754 -1.772 -1.73 -1.687 -1.645 -1.612 -1.62 -1.61 -1.637 -1.602 -1.632 -1.655 -1.643 -1.635 -1.647 -1.631 -1.601 -1.579 -1.541 -1.505 -1.546 -1.518 -1.741 -1.564 -1.588 -1.554 -1.571 -1.56 -1.573 -1.572 -1.562 -1.559 -1.577 -1.571 -1.603 -1.633 -1.674 -1.69 -1.696 -1.798 -1.756 -1.767 -1.762 -1.685 -1.637 -1.575 -1.589 -1.57 -1.603 -1.598 -1.807 -1.8 -1.592 -1.593 -1.588 -1.573 -1.616 -1.589 -1.546 -1.568 -1.572 -1.565 -1.503 -1.45 -1.525 -1.47 -1.49 -1.515 -1.427 -1.502 -1.481 -1.539 -1.828 -1.769 -1.786 -1.573 -1.586 -1.604 -1.635 -1.665 -1.663 -1.645 -1.648 -1.653 -1.659 -1.664 -1.681 -1.724 -1.689 -1.701 -1.655 -1.665 -1.664 -1.648 -1.677 -1.67 -1.672 -1.67 -1.697 -1.7 -1.68 -1.668 -1.668 -1.648 -1.607 -1.614 -1.582 -1.58 -1.55 -1.574 -1.565 -1.569 -1.589 -1.617 -1.57 -1.587 -1.544 -1.522 -1.5 -1.476 -1.437 -1.44 -1.431 -1.413
-2.162 -2.172 -2.185 -2.197 -2.22 -2.222 -2.227 -2.17 -2.217 -2.187 -2.212 -2.202 -2.18 -2.185 -2.205 -2.19 -2.185 -2.177 -2.182 -2.217 -2.152 -2.17 -2.21 -2.215 -2.182 -2.22 -2.21 -2.217 -2.19 -2.2 -2.207 -2.202 -2.22 -2.23 -2.192 -2.192 -2.172 -2.205 -2.23 -2.18 -2.237 -2.227 -2.185 -2.23 -2.212 -2.265 -2.26 -2.222 -2.222 -2.212 -2.23 -2.237 -2.172 -2.22 -2.267 -2.19 -2.19 -2.222 -2.277 -2.245 -2.195 -2.222 -2.197 -2.137 -2.132 -2.079 -2.057 -2.004 -1.962 -1.979 -1.963 -1.959 -1.952 -1.94 -1.938 -1.938 -1.922 -1.969 -1.944 -1.928 -1.949 -1.957 -1.936 -1.932 -1.926 -1.908 -1.881 -1.9 -1.901 -1.891 -1.889 -1.908 -1.898 -1.877 -1.87 -1.887 -1.87 -1.85 -1.835 -1.857 -1.852 -1.792 -1.822 -1.797 -1.745 -1.735 -1.737 -1.727 -1.712 -1.682 -1.687 -1.65 -1.67 -1.617 -1.627 -1.6 -1.575 -1.562 -1.535 -1.537 -1.522 -1.517 -1.472 -1.472 -1.492 -1.47 -1.467 -1.442 -1.527 -0.765 -1.55 -1.612 2.348 4.26 4.16 0.163 -1.595 -1.647 -1.637 -1.65 0.995 3.223 3.298 3.328 1.478 -1.375 -1.655 -1.552 -1.532 -1.492 -1.39 -1.352 -1.335 -1.38 -1.39 -1.387 -1.36 -1.352 -1.332 -1.35 -1.395 -1.382 -1.352 -1.387 -1.422 -1.457 -1.375 -1.355 -1.372 -1.33 -1.335 -1.335 -1.365 -1.347 -1.282 -1.272 -1.305 -1.317 -1.295 -1.372 -1.317 -1.362 -1.342 -1.332 -1.307 -1.312 -1.335 -1.335 -1.315 -1.367 -1.37 -1.37 -1.405 -1.312 -1.312 -1.3 -1.31 -1.297 -1.31 -1.32 -1.307 -1.307 -1.332 -1.35 -1.317 -1.332 -1.317 -1.355 -1.36 -1.355 -1.33 -1.342 -1.34 -1.332 -1.36 -1.292 -1.297 -1.315 -1.332 -1.315 -1.335 -1.34 -1.36 -1.327 -1.337 -1.345 -1.345 -1.385 -1.382 -1.345 -1.327 -1.295 -1.287 -1.307 -1.315 -1.33 -1.315 -1.33 -1.345 -1.312 -1.322 -1.325 -1.367 -1.387 -1.427 -1.485 -1.487 -1.455 -1.472 -1.465 -1.515 -1.55 -1.545 -1.59 -1.54 -1.48 -1.487 -1.487 -1.507 -1.495 -1.517 -1.512 -1.511 -1.522 -1.519 -1.547 -1.576 -1.587 -1.588 -1.596 -1.586 -1.8 -1.795 -1.796 -1.49 -1.467 -1.555 -1.581 -1.514 -1.52 -1.56 -1.569 -1.601 -1.618 -1.588 -1.594 -1.636 -1.647 -1.672 -1.678 -1.668 -1.654 -1.662 -1.644 -1.635 -1.6 -1.623 -1.599 -1.593 -1.56 -1.586 -1.593 -1.558 -1.572 -1.589 -1.655 -1.683 -1.695 -1.738 -1.743 -1.767 -1.75 -1.775 -1.757 -1.718 -1.715 -1.727 -1.687 -1.657 -1.645 -1.642 -1.592 -1.602 -1.615 -1.638 -1.608 -1.656 -1.674 -1.645 -1.627 -1.612 -1.575 -1.528 -1.499 -1.513 -1.735 -1.775 -1.514 -1.532 -1.547 -1.556 -1.561 -1.555 -1.546 -1.557 -1.531 -1.525 -1.603 -1.606 -1.627 -1.706 -1.682 -1.663 -1.682 -1.669 -1.712 -1.714 -1.656 -1.624 -1.607 -1.594 -1.632 -1.673 -1.745 -1.805 -1.764 -1.614 -1.585 -1.623 -1.585 -1.573 -1.591 -1.58 -1.604 -1.523 -1.508 -1.464 -1.426 -1.4 -1.382 -1.385 -1.512 -1.435 -1.442 -1.484 -1.526 -1.572 -1.574 -1.737 -1.608 -1.625 -1.607 -1.619 -1.691 -1.659 -1.691 -1.681 -1.708 -1.675 -1.693 -1.733 -1.738 -1.727 -1.693 -1.639 -1.668 -1.642 -1.65 -1.667 -1.685 -1.697 -1.722 -1.73 -1.697 -1.675 -1.684 -1.651 -1.61 -1.591 -1.57 -1.558 -1.58 -1.579 -1.572 -1.599 -1.588 -1.59 -1.763 -1.757 -1.563 -1.532 -1.494 -1.474 -1.455 -1.438 -1.435 -1.45 -1.439
-2.175 -2.165 -2.175 -2.197 -2.222 -2.232 -2.237 -2.217 -2.195 -2.207 -2.215 -2.192 -2.182 -2.177 -2.17 -2.21 -2.192 -2.18 -2.205 -2.217 -2.185 -2.197 -2.2 -2.187 -2.202 -2.182 -2.175 -2.207 -2.225 -2.205 -2.205 -2.185 -2.272 -2.235 -2.222 -2.217 -2.21 -2.205 -2.27 -2.202 -2.212 -2.207 -2.265 -2.242 -2.275 -2.237 -2.247 -2.235 -2.222 -2.27 -2.23 -2.242 -2.24 -2.177 -2.222 -2.2 -2.207 -2.207 -2.232 -2.22 -2.21 -2.247 -2.174 -2.136 -2.122 -2.102 -2.046 -2.018 -1.987 -1.997 -1.963 -1.963 -1.989 -1.955 -1.956 -1.965 -1.968 -1.966 -1.94 -1.938 -1.888 -1.944 -1.98 -1.947 -1.932 -1.909 -1.889 -1.889 -1.901 -1.907 -1.888 -1.899 -1.88 -1.887 -1.865 -1.847 -1.847 -1.832 -1.827 -1.81 -1.827 -1.83 -1.795 -1.805 -1.767 -1.745 -1.767 -1.737 -1.715 -1.7 -1.652 -1.632 -1.657 -1.602 -1.552 -1.572 -1.545 -1.52 -1.51 -1.495 -1.487 -1.49 -1.467 -1.452 -1.447 -1.427 -1.47 -1.475 -1.58 -1.572 -1.52 -1.55 2.693 4.265 4.295 1.805 -0.99 -1.592 -1.662 -1.707 -1.06 2.438 2.62 3.353 2.4 -0.95 -1.577 -1.53 -1.51 -1.475 -1.41 -1.362 -1.357 -1.4 -1.387 -1.387 -1.367 -1.352 -1.335 -1.317 -1.36 -1.337 -1.322 -1.317 -1.422 -1.45 -1.407 -1.322 -1.31 -1.3 -1.305 -1.262 -1.297 -1.297 -1.33 -1.29 -1.25 -1.237 -1.307 -1.315 -1.327 -1.312 -1.33 -1.342 -1.32 -1.31 -1.317 -1.32 -1.357 -1.355 -1.365 -1.36 -1.37 -1.382 -1.34 -1.3 -1.295 -1.3 -1.317 -1.315 -1.302 -1.27 -1.31 -1.31 -1.345 -1.34 -1.342 -1.385 -1.38 -1.365 -1.352 -1.33 -1.322 -1.31 -1.332 -1.32 -1.312 -1.307 -1.33 -1.335 -1.345 -1.377 -1.342 -1.337 -1.345 -1.32 -1.38 -1.297 -1.377 -1.372 -1.385 -1.387 -1.352 -1.322 -1.325 -1.35 -1.337 -1.34 -1.335 -1.36 -1.372 -1.367 -1.41 -1.382 -1.425 -1.427 -1.477 -1.497 -1.505 -1.497 -1.53 -1.547 -1.55 -1.547 -1.525 -1.492 -1.497 -1.475 -1.497 -1.487 -1.504 -1.532 -1.516 -1.548 -1.565 -1.601 -1.622 -1.65 -1.609 -1.581 -1.585 -1.749 -1.807 -1.83 -1.425 -1.467 -1.55 -1.518 -1.506 -1.511 -1.53 -1.571 -1.588 -1.57 -1.577 -1.617 -1.606 -1.639 -1.673 -1.632 -1.669 -1.663 -1.677 -1.657 -1.657 -1.612 -1.588 -1.592 -1.588 -1.597 -1.611 -1.604 -1.593 -1.599 -1.622 -1.668 -1.71 -1.696 -1.715 -1.79 -1.802 -1.748 -1.798 -1.752 -1.747 -1.687 -1.675 -1.657 -1.642 -1.642 -1.65 -1.607 -1.627 -1.655 -1.665 -1.638 -1.654 -1.678 -1.626 -1.6 -1.615 -1.56 -1.545 -1.539 -1.755 -1.795 -1.759 -1.82 -1.55 -1.597 -1.548 -1.558 -1.585 -1.552 -1.583 -1.577 -1.612 -1.584 -1.631 -1.703 -1.697 -1.678 -1.712 -1.757 -1.798 -1.72 -1.697 -1.697 -1.669 -1.666 -1.712 -1.74 -1.684 -1.706 -1.795 -1.761 -1.645 -1.612 -1.62 -1.609 -1.626 -1.595 -1.635 -1.561 -1.537 -1.535 -1.467 -1.451 -1.392 -1.412 -1.47 -1.49 -1.395 -1.405 -1.453 -1.51 -1.565 -1.776 -1.735 -1.746 -1.552 -1.589 -1.641 -1.705 -1.675 -1.682 -1.699 -1.709 -1.667 -1.711 -1.726 -1.724 -1.701 -1.663 -1.665 -1.63 -1.675 -1.72 -1.652 -1.645 -1.675 -1.695 -1.687 -1.667 -1.688 -1.707 -1.648 -1.584 -1.592 -1.569 -1.599 -1.594 -1.557 -1.54 -1.631 -1.545 -1.743 -1.788 -1.776 -1.694 -1.467 -1.474 -1.489 -1.447 -1.472 -1.467 -1.45 -1.459
-2.18 -2.19 -2.197 -2.175 -2.197 -2.192 -2.212 -2.225 -2.202 -2.217 -2.215 -2.2 -2.185 -2.175 -2.187 -2.215 -2.19 -2.18 -2.202 -2.212 -2.195 -2.197 -2.185 -2.215 -2.207 -2.19 -2.175 -2.162 -2.225 -2.217 -2.235 -2.195 -2.205 -2.182 -2.185 -2.172 -2.15 -2.215 -2.227 -2.227 -2.215 -2.2 -2.28 -2.335 -2.28 -2.212 -2.217 -2.272 -2.24 -2.23 -2.247 -2.245 -2.24 -2.187 -2.197 -2.23 -2.202 -2.18 -2.175 -2.175 -2.187 -2.225 -2.19 -2.177 -2.147 -2.094 -2.031 -2.001 -2.006 -1.983 -1.978 -1.98 -1.989 -1.963 -1.976 -1.973 -1.965 -1.96 -1.95 -1.936 -1.961 -1.97 -1.959 -1.947 -1.944 -1.946 -1.934 -1.907 -1.907 -1.914 -1.884 -1.872 -1.852 -1.85 -1.827 -1.815 -1.802 -1.79 -1.825 -1.805 -1.805 -1.815 -1.782 -1.772 -1.765 -1.747 -1.762 -1.74 -1.695 -1.662 -1.62 -1.632 -1.637 -1.58 -1.547 -1.545 -1.532 -1.55 -1.532 -1.527 -1.49 -1.48 -1.475 -1.49 -1.45 -1.462 -1.455 -1.505 -1.62 -1.602 -1.545 -1.54 1.845 4.295 4.323 2.243 -0.967 -0.575 -0.722 -1.58 0.538 1.72 3.053 3.28 1.575 -1.73 -1.587 -1.51 -1.45 -1.45 -1.435 -1.41 -1.375 -1.412 -1.462 -1.397 -1.37 -1.372 -1.365 -1.32 -1.292 -1.322 -1.302 -1.32 -1.302 -1.332 -1.33 -1.292 -1.24 -1.237 -1.26 -1.265 -1.282 -1.297 -1.267 -1.282 -1.285 -1.26 -1.287 -1.295 -1.29 -1.31 -1.357 -1.335 -1.36 -1.397 -1.362 -1.337 -1.332 -1.342 -1.367 -1.38 -1.34 -1.332 -1.327 -1.317 -1.302 -1.307 -1.315 -1.332 -1.327 -1.335 -1.307 -1.285 -1.3 -1.37 -1.415 -1.415 -1.37 -1.352 -1.357 -1.325 -1.325 -1.335 -1.315 -1.36 -1.32 -1.342 -1.337 -1.33 -1.325 -1.372 -1.327 -1.357 -1.352 -1.332 -1.37 -1.362 -1.352 -1.327 -1.345 -1.38 -1.385 -1.362 -1.35 -1.37 -1.362 -1.382 -1.372 -1.417 -1.407 -1.415 -1.397 -1.415 -1.405 -1.462 -1.457 -1.482 -1.5 -1.542 -1.55 -1.582 -1.545 -1.475 -1.507 -1.492 -1.502 -1.515 -1.502 -1.502 -1.534 -1.555 -1.542 -1.569 -1.565 -1.595 -1.635 -1.647 -1.608 -1.561 -1.524 -1.49 -1.511 -1.518 -1.496 -1.467 -1.487 -1.471 -1.494 -1.474 -1.534 -1.543 -1.561 -1.542 -1.587 -1.602 -1.598 -1.624 -1.654 -1.663 -1.677 -1.7 -1.727 -1.677 -1.647 -1.619 -1.593 -1.588 -1.564 -1.585 -1.584 -1.59 -1.591 -1.61 -1.646 -1.685 -1.702 -1.714 -1.714 -1.731 -1.795 -1.828 -1.83 -1.755 -1.737 -1.662 -1.68 -1.62 -1.612 -1.595 -1.607 -1.635 -1.657 -1.687 -1.651 -1.676 -1.695 -1.656 -1.633 -1.604 -1.592 -1.56 -1.561 -1.58 -1.579 -1.835 -1.797 -1.487 -1.544 -1.556 -1.553 -1.57 -1.57 -1.568 -1.549 -1.603 -1.577 -1.614 -1.624 -1.643 -1.631 -1.657 -1.702 -1.74 -1.688 -1.679 -1.691 -1.693 -1.706 -1.713 -1.71 -1.671 -1.697 -1.662 -1.682 -1.651 -1.63 -1.621 -1.619 -1.661 -1.652 -1.622 -1.636 -1.579 -1.555 -1.76 -1.803 -1.482 -1.417 -1.42 -1.437 -1.475 -1.425 -1.377 -1.485 -1.462 -1.541 -1.557 -1.802 -1.468 -1.565 -1.578 -1.611 -1.654 -1.669 -1.65 -1.69 -1.682 -1.689 -1.736 -1.754 -1.758 -1.701 -1.665 -1.7 -1.68 -1.682 -1.657 -1.662 -1.662 -1.65 -1.63 -1.645 -1.647 -1.666 -1.716 -1.665 -1.598 -1.582 -1.583 -1.58 -1.579 -1.544 -1.547 -1.53 -1.505 -1.807 -1.76 -1.722 -1.779 -1.466 -1.451 -1.472 -1.447 -1.475 -1.503 -1.481 -1.467
-2.205 -2.17 -2.177 -2.185 -2.202 -2.207 -2.207 -2.21 -2.24 -2.2 -2.195 -2.195 -2.197 -2.22 -2.205 -2.187 -2.187 -2.172 -2.187 -2.185 -2.202 -2.217 -2.205 -2.21 -2.23 -2.165 -2.192 -2.205 -2.202 -2.155 -2.217 -2.2 -2.202 -2.185 -2.21 -2.185 -2.177 -2.2 -2.215 -2.22 -2.197 -2.237 -2.242 -2.302 -2.207 -2.18 -2.202 -2.197 -2.242 -2.2 -2.215 -2.215 -2.242 -2.217 -2.19 -2.182 -2.157 -2.177 -2.155 -2.18 -2.207 -2.177 -2.185 -2.155 -2.142 -2.125 -2.064 -2.062 -2.002 -2.001 -2.01 -2.03 -2.015 -2.018 -1.985 -1.962 -1.977 -1.977 -1.978 -1.957 -1.978 -1.962 -1.969 -1.978 -1.965 -1.949 -1.943 -1.956 -1.92 -1.93 -1.887 -1.84 -1.845 -1.832 -1.827 -1.825 -1.825 -1.802 -1.79 -1.79 -1.832 -1.78 -1.735 -1.762 -1.737 -1.74 -1.735 -1.712 -1.7 -1.667 -1.64 -1.625 -1.552 -1.56 -1.545 -1.56 -1.565 -1.565 -1.505 -1.457 -1.452 -1.445 -1.437 -1.455 -1.475 -1.505 -1.502 -1.195 -1.307 -1.145 -0.925 -1.482 -1.072 4.315 4.315 3.198 -1.62 -1.597 -0.22 -1.547 -0.702 2.113 3.273 3.288 0.598 -1.775 -1.61 -1.54 -1.482 -1.43 -1.407 -1.38 -1.387 -1.337 -1.375 -1.355 -1.35 -1.38 -1.352 -1.34 -1.307 -1.292 -1.325 -1.322 -1.34 -1.312 -1.28 -1.267 -1.247 -1.237 -1.27 -1.302 -1.295 -1.285 -1.262 -1.25 -1.255 -1.277 -1.327 -1.305 -1.28 -1.27 -1.325 -1.345 -1.335 -1.387 -1.38 -1.367 -1.36 -1.34 -1.327 -1.387 -1.43 -1.36 -1.307 -1.307 -1.29 -1.312 -1.317 -1.3 -1.322 -1.317 -1.325 -1.315 -1.265 -1.287 -1.29 -1.302 -1.352 -1.345 -1.327 -1.33 -1.34 -1.337 -1.312 -1.32 -1.34 -1.292 -1.325 -1.342 -1.335 -1.365 -1.36 -1.335 -1.342 -1.38 -1.372 -1.35 -1.375 -1.367 -1.367 -1.41 -1.44 -1.412 -1.355 -1.36 -1.367 -1.362 -1.385 -1.387 -1.43 -1.422 -1.43 -1.437 -1.412 -1.445 -1.457 -1.497 -1.522 -1.527 -1.545 -1.57 -1.49 -1.497 -1.487 -1.477 -1.492 -1.525 -1.56 -1.542 -1.564 -1.585 -1.612 -1.61 -1.591 -1.597 -1.596 -1.585 -1.599 -1.578 -1.513 -1.49 -1.491 -1.487 -1.525 -1.485 -1.464 -1.486 -1.498 -1.506 -1.521 -1.524 -1.547 -1.558 -1.609 -1.628 -1.642 -1.646 -1.66 -1.691 -1.684 -1.702 -1.73 -1.716 -1.667 -1.635 -1.62 -1.61 -1.589 -1.626 -1.589 -1.608 -1.601 -1.645 -1.7 -1.709 -1.692 -1.69 -1.727 -1.751 -1.837 -1.852 -1.8 -1.737 -1.69 -1.69 -1.672 -1.625 -1.62 -1.61 -1.6 -1.647 -1.647 -1.682 -1.694 -1.703 -1.708 -1.666 -1.63 -1.588 -1.58 -1.575 -1.611 -1.581 -1.593 -1.578 -1.545 -1.501 -1.521 -1.521 -1.517 -1.528 -1.512 -1.528 -1.541 -1.553 -1.569 -1.591 -1.637 -1.623 -1.638 -1.628 -1.621 -1.646 -1.673 -1.688 -1.693 -1.706 -1.703 -1.718 -1.653 -1.683 -1.692 -1.655 -1.668 -1.666 -1.639 -1.635 -1.642 -1.622 -1.798 -1.794 -1.795 -1.802 -1.769 -1.765 -1.8 -1.521 -1.472 -1.443 -1.407 -1.43 -1.425 -1.427 -1.435 -1.494 -1.531 -1.534 -1.532 -1.529 -1.581 -1.591 -1.607 -1.645 -1.663 -1.667 -1.661 -1.673 -1.713 -1.73 -1.732 -1.733 -1.7 -1.71 -1.695 -1.712 -1.695 -1.662 -1.627 -1.602 -1.62 -1.635 -1.622 -1.625 -1.637 -1.642 -1.597 -1.557 -1.558 -1.565 -1.543 -1.557 -1.549 -1.508 -1.501 -1.47 -1.811 -1.702 -1.682 -1.539 -1.49 -1.446 -1.457 -1.461 -1.478 -1.471 -1.486 -1.49
-2.19 -2.16 -2.17 -2.157 -2.175 -2.162 -2.197 -2.17 -2.185 -2.145 -2.175 -2.19 -2.222 -2.212 -2.19 -2.192 -2.195 -2.18 -2.157 -2.192 -2.157 -2.19 -2.185 -2.195 -2.17 -2.16 -2.195 -2.172 -2.197 -2.187 -2.175 -2.192 -2.205 -2.21 -2.192 -2.205 -2.192 -2.2 -2.19 -2.207 -2.212 -2.217 -2.257 -2.215 -2.22 -2.217 -2.267 -2.275 -2.275 -2.21 -2.205 -2.192 -2.207 -2.202 -2.207 -2.185 -2.17 -2.155 -2.142 -2.145 -2.127 -2.102 -2.145 -2.132 -2.117 -2.122 -2.103 -2.062 -2.033 -2.047 -2.048 -2.102 -2.091 -2.038 -2.01 -2.023 -1.986 -1.979 -1.97 -1.955 -1.952 -1.955 -1.96 -1.96 -1.96 -1.947 -1.95 -1.937 -1.905 -1.882 -1.867 -1.85 -1.852 -1.817 -1.845 -1.832 -1.84 -1.8 -1.782 -1.777 -1.757 -1.715 -1.715 -1.715 -1.7 -1.692 -1.667 -1.655 -1.685 -1.657 -1.627 -1.62 -1.562 -1.592 -1.587 -1.62 -1.652 -1.59 -1.515 -1.46 -1.435 -1.425 -1.415 -1.435 -1.522 -1.57 -1.557 -1.36 -1.362 -1.492 -1.542 -1.557 -0.507 4.293 4.325 3.568 -0.022 -1.61 -1.62 -1.632 -1.57 1.618 3.31 3.308 2.81 -0.975 -1.582 -1.515 -1.447 -1.427 -1.395 -1.37 -1.382 -1.36 -1.35 -1.31 -1.295 -1.32 -1.335 -1.357 -1.367 -1.312 -1.42 -1.327 -1.277 -1.277 -1.277 -1.24 -1.255 -1.287 -1.315 -1.367 -1.345 -1.312 -1.275 -1.262 -1.257 -1.302 -1.287 -1.32 -1.297 -1.282 -1.225 -1.292 -1.285 -1.33 -1.342 -1.35 -1.362 -1.345 -1.332 -1.332 -1.302 -1.292 -1.267 -1.277 -1.275 -1.302 -1.287 -1.265 -1.297 -1.3 -1.282 -1.287 -1.297 -1.272 -1.27 -1.302 -1.255 -1.272 -1.27 -1.322 -1.335 -1.31 -1.332 -1.307 -1.297 -1.295 -1.315 -1.355 -1.36 -1.36 -1.367 -1.36 -1.365 -1.367 -1.38 -1.405 -1.41 -1.382 -1.415 -1.445 -1.382 -1.402 -1.375 -1.405 -1.377 -1.372 -1.38 -1.407 -1.422 -1.452 -1.477 -1.472 -1.445 -1.495 -1.465 -1.512 -1.557 -1.575 -1.55 -1.495 -1.46 -1.502 -1.492 -1.495 -1.515 -1.53 -1.53 -1.572 -1.631 -1.634 -1.619 -1.621 -1.63 -1.592 -1.594 -1.616 -1.619 -1.594 -1.555 -1.526 -1.498 -1.468 -1.45 -1.46 -1.462 -1.489 -1.489 -1.537 -1.556 -1.589 -1.576 -1.577 -1.646 -1.599 -1.631 -1.763 -1.777 -1.794 -1.675 -1.736 -1.717 -1.693 -1.644 -1.643 -1.621 -1.602 -1.61 -1.612 -1.619 -1.623 -1.644 -1.711 -1.738 -1.757 -1.724 -1.728 -1.762 -1.787 -1.812 -1.82 -1.785 -1.695 -1.682 -1.685 -1.655 -1.63 -1.652 -1.63 -1.647 -1.657 -1.687 -1.642 -1.671 -1.713 -1.725 -1.669 -1.637 -1.604 -1.582 -1.628 -1.69 -1.627 -1.566 -1.585 -1.589 -1.558 -1.54 -1.526 -1.478 -1.458 -1.466 -1.49 -1.517 -1.496 -1.542 -1.564 -1.602 -1.665 -1.688 -1.675 -1.631 -1.66 -1.668 -1.705 -1.695 -1.663 -1.695 -1.666 -1.679 -1.645 -1.645 -1.645 -1.641 -1.636 -1.681 -1.688 -1.669 -1.644 -1.825 -1.844 -1.802 -1.82 -1.746 -1.842 -1.503 -1.505 -1.441 -1.446 -1.377 -1.407 -1.415 -1.425 -1.46 -1.506 -1.527 -1.559 -1.544 -1.533 -1.566 -1.606 -1.591 -1.614 -1.61 -1.638 -1.643 -1.645 -1.663 -1.727 -1.74 -1.724 -1.735 -1.672 -1.682 -1.67 -1.645 -1.645 -1.627 -1.62 -1.615 -1.642 -1.651 -1.639 -1.623 -1.598 -1.586 -1.574 -1.557 -1.57 -1.519 -1.509 -1.491 -1.469 -1.466 -1.461 -1.83 -1.805 -1.82 -1.474 -1.435 -1.401 -1.415 -1.442 -1.449 -1.462 -1.487 -1.478
-2.19 -2.202 -2.17 -2.197 -2.212 -2.17 -2.17 -2.19 -2.19 -2.152 -2.127 -2.165 -2.182 -2.202 -2.202 -2.22 -2.19 -2.187 -2.177 -2.192 -2.197 -2.177 -2.197 -2.242 -2.152 -2.18 -2.247 -2.237 -2.255 -2.217 -2.207 -2.2 -2.197 -2.21 -2.217 -2.175 -2.175 -2.162 -2.14 -2.19 -2.185 -2.215 -2.232 -2.21 -2.212 -2.215 -2.24 -2.172 -2.215 -2.217 -2.207 -2.2 -2.17 -2.16 -2.165 -2.187 -2.165 -2.15 -2.155 -2.15 -2.137 -2.14 -2.142 -2.127 -2.11 -2.14 -2.13 -2.085 -2.085 -2.096 -2.072 -2.096 -2.081 -2.061 -2.024 -2.034 -2.003 -2.027 -2.016 -1.994 -1.958 -1.932 -1.96 -1.952 -1.915 -1.915 -1.96 -1.917 -1.905 -1.915 -1.857 -1.882 -1.862 -1.85 -1.84 -1.812 -1.81 -1.787 -1.775 -1.73 -1.727 -1.73 -1.722 -1.7 -1.682 -1.645 -1.655 -1.622 -1.62 -1.6 -1.592 -1.57 -1.592 -1.552 -1.59 -1.542 -1.562 -1.535 -1.495 -1.455 -1.43 -1.387 -1.422 -1.43 -1.492 -1.575 -1.54 -1.542 -1.485 -1.482 -1.5 -1.5 -0.467 3.933 4.28 4.12 1.025 0.135 -0.55 -0.972 -0.647 2.273 3.313 3.31 2.97 -1.042 -1.567 -1.51 -1.427 -1.417 -1.407 -1.412 -1.382 -1.335 -1.332 -1.32 -1.322 -1.37 -1.382 -1.432 -1.427 -1.37 -1.277 -1.262 -1.29 -1.295 -1.257 -1.282 -1.302 -1.3 -1.325 -1.395 -1.33 -1.335 -1.285 -1.252 -1.25 -1.232 -1.25 -1.235 -1.25 -1.262 -1.267 -1.307 -1.285 -1.262 -1.252 -1.255 -1.267 -1.292 -1.307 -1.282 -1.27 -1.282 -1.272 -1.245 -1.28 -1.272 -1.272 -1.282 -1.277 -1.25 -1.247 -1.235 -1.25 -1.262 -1.28 -1.27 -1.225 -1.217 -1.22 -1.295 -1.312 -1.297 -1.277 -1.3 -1.31 -1.302 -1.33 -1.337 -1.3 -1.34 -1.345 -1.352 -1.397 -1.38 -1.437 -1.41 -1.412 -1.352 -1.42 -1.417 -1.347 -1.337 -1.355 -1.377 -1.345 -1.35 -1.407 -1.38 -1.422 -1.467 -1.49 -1.46 -1.447 -1.49 -1.542 -1.577 -1.572 -1.495 -1.48 -1.46 -1.492 -1.47 -1.49 -1.53 -1.512 -1.562 -1.542 -1.6 -1.598 -1.656 -1.644 -1.654 -1.628 -1.591 -1.602 -1.646 -1.635 -1.562 -1.532 -1.522 -1.464 -1.454 -1.44 -1.43 -1.488 -1.521 -1.561 -1.528 -1.56 -1.571 -1.56 -1.512 -1.598 -1.614 -1.767 -1.743 -1.733 -1.78 -1.675 -1.709 -1.73 -1.666 -1.619 -1.627 -1.608 -1.634 -1.614 -1.632 -1.661 -1.663 -1.679 -1.72 -1.731 -1.742 -1.764 -1.808 -1.862 -1.837 -1.882 -1.782 -1.74 -1.655 -1.66 -1.65 -1.662 -1.675 -1.677 -1.67 -1.637 -1.65 -1.672 -1.705 -1.699 -1.709 -1.687 -1.62 -1.612 -1.602 -1.612 -1.653 -1.642 -1.643 -1.582 -1.593 -1.598 -1.566 -1.532 -1.54 -1.477 -1.467 -1.498 -1.505 -1.511 -1.537 -1.541 -1.598 -1.616 -1.663 -1.681 -1.677 -1.669 -1.695 -1.682 -1.692 -1.7 -1.667 -1.697 -1.677 -1.669 -1.66 -1.658 -1.66 -1.643 -1.656 -1.691 -1.714 -1.664 -1.643 -1.636 -1.8 -1.787 -1.81 -1.78 -1.811 -1.54 -1.502 -1.459 -1.433 -1.4 -1.397 -1.397 -1.442 -1.47 -1.559 -1.511 -1.578 -1.559 -1.549 -1.59 -1.62 -1.753 -1.584 -1.591 -1.585 -1.617 -1.656 -1.671 -1.696 -1.699 -1.699 -1.699 -1.7 -1.66 -1.675 -1.637 -1.667 -1.63 -1.637 -1.632 -1.63 -1.609 -1.618 -1.594 -1.592 -1.58 -1.545 -1.519 -1.509 -1.526 -1.507 -1.475 -1.435 -1.391 -1.467 -1.84 -1.831 -1.81 -9999 -1.375 -1.395 -1.419 -1.43 -1.479 -1.469 -1.473 -1.484
-2.187 -2.187 -2.197 -2.187 -2.177 -2.167 -2.142 -2.13 -2.16 -2.13 -2.145 -2.155 -2.165 -2.152 -2.157 -2.222 -2.207 -2.212 -2.215 -2.195 -2.157 -2.202 -2.2 -2.227 -2.167 -2.217 -2.275 -2.247 -2.19 -2.172 -2.207 -2.217 -2.187 -2.195 -2.205 -2.152 -2.165 -2.16 -2.192 -2.17 -2.202 -2.232 -2.232 -2.227 -2.23 -2.202 -2.2 -2.215 -2.235 -2.212 -2.212 -2.175 -2.165 -2.155 -2.11 -2.086 -2.096 -2.089 -2.121 -2.136 -2.111 -2.13 -2.141 -2.142 -2.182 -2.165 -2.12 -2.127 -2.115 -2.142 -2.155 -2.122 -2.12 -2.09 -2.075 -2.055 -2.03 -2.047 -2.06 -2.002 -1.967 -1.952 -1.945 -1.945 -1.935 -1.92 -1.92 -1.892 -1.91 -1.922 -1.897 -1.865 -1.855 -1.857 -1.855 -1.845 -1.795 -1.757 -1.742 -1.727 -1.727 -1.712 -1.665 -1.69 -1.655 -1.635 -1.617 -1.605 -1.605 -1.565 -1.562 -1.555 -1.597 -1.572 -1.577 -1.51 -1.485 -1.472 -1.45 -1.432 -1.4 -1.39 -1.435 -1.425 -1.45 -1.55 -1.5 -1.497 -1.522 -1.517 -1.457 -1.462 -0.945 3.513 4.303 4.315 0.765 -1.632 -1.17 -0.542 -0.095 1.328 3.278 3.323 2.505 -1.507 -1.552 -1.445 -1.425 -1.395 -1.377 -1.397 -1.367 -1.372 -1.4 -1.375 -1.395 -1.337 -1.402 -1.405 -1.462 -1.41 -1.35 -1.29 -1.302 -1.272 -1.287 -1.297 -1.287 -1.312 -1.312 -1.357 -1.36 -1.297 -1.277 -1.265 -1.29 -1.235 -1.255 -1.257 -1.24 -1.292 -1.245 -1.282 -1.29 -1.25 -1.225 -1.25 -1.25 -1.255 -1.277 -1.272 -1.265 -1.277 -1.25 -1.275 -1.267 -1.237 -1.255 -1.275 -1.257 -1.265 -1.272 -1.26 -1.26 -1.25 -1.26 -1.26 -1.255 -1.25 -1.225 -1.275 -1.272 -1.26 -1.282 -1.267 -1.275 -1.277 -1.285 -1.307 -1.29 -1.305 -1.362 -1.355 -1.382 -1.41 -1.37 -1.427 -1.425 -1.39 -1.362 -1.37 -1.4 -1.367 -1.39 -1.38 -1.367 -1.392 -1.407 -1.432 -1.432 -1.447 -1.45 -1.48 -1.475 -1.545 -1.55 -1.54 -1.535 -1.497 -1.482 -1.472 -1.485 -1.505 -1.492 -1.512 -1.537 -1.592 -1.59 -1.6 -1.613 -1.64 -1.676 -1.633 -1.637 -1.616 -1.598 -1.621 -1.627 -1.567 -1.541 -1.773 -1.815 -1.457 -1.458 -1.404 -1.453 -1.536 -1.548 -1.545 -1.539 -1.497 -1.548 -1.552 -1.561 -1.574 -1.788 -1.783 -1.784 -1.731 -1.654 -1.667 -1.687 -1.668 -1.68 -1.655 -1.649 -1.638 -1.606 -1.631 -1.662 -1.701 -1.752 -1.745 -1.814 -1.757 -1.827 -1.847 -1.847 -1.845 -1.827 -1.745 -1.66 -1.672 -1.647 -1.662 -1.622 -1.632 -1.63 -1.63 -1.667 -1.672 -1.705 -1.725 -1.692 -1.703 -1.687 -1.65 -1.611 -1.646 -1.645 -1.649 -1.679 -1.652 -1.595 -1.615 -1.609 -1.595 -1.553 -1.551 -1.489 -1.549 -1.524 -1.519 -1.528 -1.588 -1.609 -1.619 -1.639 -1.663 -1.674 -1.676 -1.685 -1.661 -1.647 -1.667 -1.7 -1.652 -1.662 -1.69 -1.633 -1.676 -1.684 -1.681 -1.644 -1.669 -1.676 -1.707 -1.691 -1.657 -1.673 -1.632 -1.567 -1.509 -1.603 -1.57 -1.53 -1.484 -1.463 -1.433 -1.425 -1.422 -1.415 -1.492 -1.584 -1.563 -1.539 -1.575 -1.542 -1.539 -1.589 -1.751 -1.726 -1.631 -1.58 -1.575 -1.617 -1.611 -1.61 -1.665 -1.672 -1.709 -1.726 -1.75 -1.717 -1.662 -1.667 -1.652 -1.642 -1.617 -1.65 -1.619 -1.629 -1.639 -1.592 -1.617 -1.6 -1.543 -1.513 -1.504 -1.498 -1.464 -1.452 -1.422 -1.433 -1.419 -1.853 -1.745 -9999 -1.431 -1.407 -1.394 -1.403 -1.451 -1.454 -1.462 -1.459 -1.439
-2.177 -2.175 -2.202 -2.185 -2.175 -2.157 -2.137 -2.125 -2.127 -2.152 -2.14 -2.135 -2.162 -2.152 -2.2 -2.235 -2.212 -2.19 -2.192 -2.195 -2.235 -2.21 -2.235 -2.212 -2.195 -2.22 -2.21 -2.205 -2.247 -2.2 -2.212 -2.187 -2.175 -2.192 -2.202 -2.147 -2.15 -2.152 -2.155 -2.177 -2.21 -2.21 -2.225 -2.21 -2.235 -2.202 -2.192 -2.19 -2.22 -2.222 -2.18 -2.152 -2.09 -2.09 -2.084 -2.075 -2.048 -2.081 -2.051 -2.082 -2.071 -2.087 -2.113 -2.129 -2.129 -2.12 -2.11 -2.1 -2.12 -2.165 -2.137 -2.092 -2.102 -2.057 -2.047 -2.02 -2.015 -2.002 -2.002 -1.987 -1.95 -1.967 -1.957 -1.937 -1.945 -1.927 -1.927 -1.89 -1.897 -1.867 -1.852 -1.83 -1.835 -1.852 -1.832 -1.835 -1.79 -1.762 -1.69 -1.695 -1.685 -1.685 -1.65 -1.632 -1.617 -1.607 -1.607 -1.58 -1.577 -1.557 -1.522 -1.53 -1.527 -1.547 -1.57 -1.485 -1.44 -1.47 -1.462 -1.412 -1.392 -1.362 -1.355 -1.382 -1.435 -1.447 -1.467 -1.472 -1.527 -1.565 -1.57 -1.52 -1.472 3.313 4.323 4.345 1.765 -1.57 -1.615 -1.207 -1.555 1.48 3.27 3.34 2.513 0.528 -1.557 -1.447 -1.46 -1.427 -1.407 -1.387 -1.357 -1.377 -1.4 -1.407 -1.425 -1.427 -1.495 -1.382 -1.42 -1.385 -1.317 -1.277 -1.295 -1.312 -1.34 -1.305 -1.275 -1.282 -1.297 -1.307 -1.293 -1.258 -1.243 -1.248 -1.233 -1.288 -1.252 -1.254 -1.224 -1.24 -1.238 -1.255 -1.277 -1.267 -1.24 -1.245 -1.222 -1.227 -1.257 -1.25 -1.252 -1.272 -1.285 -1.275 -1.247 -1.262 -1.26 -1.225 -1.267 -1.252 -1.252 -1.275 -1.302 -1.302 -1.262 -1.245 -1.217 -1.245 -1.27 -1.277 -1.24 -1.237 -1.252 -1.25 -1.25 -1.287 -1.272 -1.257 -1.272 -1.275 -1.335 -1.315 -1.405 -1.39 -1.352 -1.35 -1.347 -1.375 -1.365 -1.337 -1.387 -1.387 -1.407 -1.357 -1.37 -1.432 -1.415 -1.432 -1.462 -1.462 -1.475 -1.52 -1.557 -1.522 -1.572 -1.562 -1.507 -1.462 -1.472 -1.492 -1.542 -1.505 -1.51 -1.542 -1.575 -1.54 -1.627 -1.627 -1.637 -1.663 -1.638 -1.62 -1.662 -1.627 -1.618 -1.604 -1.588 -1.587 -1.575 -1.774 -1.803 -1.491 -1.507 -1.48 -1.468 -1.522 -1.527 -1.535 -1.568 -1.549 -1.551 -1.565 -1.567 -1.588 -1.572 -1.604 -1.606 -1.624 -1.583 -1.614 -1.623 -1.639 -1.671 -1.663 -1.646 -1.642 -1.655 -1.63 -1.665 -1.705 -1.757 -1.805 -1.8 -1.857 -1.82 -1.782 -1.875 -1.84 -1.77 -1.722 -1.697 -1.62 -1.652 -1.627 -1.617 -1.63 -1.585 -1.6 -1.67 -1.677 -1.71 -1.71 -1.702 -1.693 -1.693 -1.67 -1.643 -1.683 -1.671 -1.671 -1.683 -1.658 -1.624 -1.625 -1.6 -1.57 -1.577 -1.562 -1.567 -1.571 -1.624 -1.595 -1.612 -1.621 -1.612 -1.641 -1.672 -1.699 -1.701 -1.74 -1.752 -1.668 -1.63 -1.665 -1.662 -1.672 -1.647 -1.697 -1.667 -1.695 -1.729 -1.689 -1.685 -1.74 -1.73 -1.69 -1.689 -1.675 -1.714 -1.648 -1.634 -1.817 -1.629 -1.538 -1.536 -1.477 -1.503 -1.523 -1.516 -1.465 -1.527 -1.472 -1.562 -1.5 -1.514 -1.513 -1.573 -1.593 -1.575 -1.711 -1.766 -1.751 -1.622 -1.598 -1.577 -1.619 -1.601 -1.652 -1.655 -1.672 -1.712 -1.774 -1.725 -1.68 -1.687 -1.682 -1.655 -1.662 -1.67 -1.671 -1.633 -1.601 -1.596 -1.616 -1.577 -1.531 -1.516 -1.48 -1.477 -1.44 -1.388 -1.432 -1.453 -1.728 -1.799 -1.731 -1.804 -1.486 -1.452 -1.415 -1.414 -1.448 -1.46 -1.493 -1.452 -1.486
-2.185 -2.19 -2.19 -2.182 -2.185 -2.162 -2.172 -2.135 -2.125 -2.155 -2.15 -2.182 -2.182 -2.18 -2.212 -2.225 -2.2 -2.18 -2.207 -2.205 -2.217 -2.247 -2.225 -2.235 -2.28 -2.272 -2.237 -2.19 -2.195 -2.202 -2.21 -2.207 -2.222 -2.177 -2.16 -2.132 -2.155 -2.122 -2.115 -2.15 -2.172 -2.167 -2.207 -2.192 -2.205 -2.182 -2.215 -2.222 -2.202 -2.165 -2.113 -2.102 -2.088 -2.047 -2.011 -2.01 -2.002 -2.012 -2.009 -2.008 -2.009 -2.012 -2.028 -2.045 -2.138 -2.129 -2.125 -2.115 -2.087 -2.112 -2.097 -2.077 -2.035 -2.012 -2.032 -1.992 -1.99 -1.947 -1.952 -1.965 -1.955 -1.975 -1.932 -1.925 -1.932 -1.917 -1.892 -1.875 -1.895 -1.88 -1.83 -1.835 -1.797 -1.835 -1.812 -1.8 -1.777 -1.727 -1.71 -1.692 -1.69 -1.682 -1.63 -1.612 -1.585 -1.597 -1.565 -1.515 -1.565 -1.517 -1.51 -1.475 -1.48 -1.455 -1.47 -1.45 -1.432 -1.43 -1.412 -1.38 -1.387 -1.375 -1.362 -1.39 -1.425 -1.437 -1.445 -1.442 -1.45 -1.55 -1.585 -1.555 -1.592 1.978 4.35 4.333 2.215 -0.322 -1.577 -1.595 -1.645 -0.287 2.195 3.295 3.203 0.918 -1.607 -1.522 -1.472 -1.435 -1.415 -1.375 -1.377 -1.35 -1.382 -1.402 -1.37 -1.437 -1.377 -1.36 -1.355 -1.292 -1.252 -1.262 -1.28 -1.307 -1.315 -1.29 -1.262 -1.25 -1.275 -1.28 -1.265 -1.252 -1.231 -1.24 -1.245 -1.228 -1.25 -1.259 -1.233 -1.261 -1.288 -1.252 -1.269 -1.276 -1.232 -1.257 -1.222 -1.21 -1.207 -1.207 -1.205 -1.202 -1.232 -1.277 -1.237 -1.277 -1.24 -1.245 -1.242 -1.245 -1.242 -1.25 -1.267 -1.295 -1.242 -1.252 -1.192 -1.237 -1.265 -1.245 -1.26 -1.275 -1.247 -1.245 -1.22 -1.262 -1.26 -1.28 -1.282 -1.285 -1.277 -1.28 -1.297 -1.3 -1.3 -1.307 -1.325 -1.317 -1.33 -1.347 -1.325 -1.36 -1.415 -1.377 -1.37 -1.39 -1.415 -1.455 -1.462 -1.487 -1.5 -1.532 -1.542 -1.522 -1.575 -1.497 -1.477 -1.477 -1.455 -1.467 -1.53 -1.517 -1.535 -1.6 -1.59 -1.592 -1.572 -1.65 -1.65 -1.7 -1.677 -1.692 -1.676 -1.67 -1.609 -1.639 -1.6 -1.599 -1.604 -1.551 -1.469 -1.526 -1.517 -1.506 -1.477 -1.514 -1.548 -1.511 -1.522 -1.506 -1.503 -1.521 -1.543 -1.539 -1.532 -1.588 -1.605 -1.595 -1.611 -1.592 -1.625 -1.628 -1.64 -1.686 -1.657 -1.647 -1.68 -1.67 -1.657 -1.72 -1.747 -1.8 -1.865 -1.852 -1.815 -1.807 -1.822 -1.785 -1.73 -1.66 -1.657 -1.637 -1.66 -1.642 -1.605 -1.62 -1.575 -1.642 -1.655 -1.69 -1.735 -1.737 -1.722 -1.74 -1.722 -1.705 -1.699 -1.709 -1.685 -1.662 -1.674 -1.646 -1.601 -1.61 -1.609 -1.604 -1.586 -1.556 -1.592 -1.575 -1.643 -1.652 -1.621 -1.611 -1.672 -1.67 -1.682 -1.664 -1.711 -1.789 -1.828 -1.68 -1.675 -1.665 -1.645 -1.655 -1.692 -1.732 -1.697 -1.69 -1.711 -1.707 -1.679 -1.743 -1.734 -1.717 -1.73 -1.716 -1.693 -1.674 -1.804 -1.79 -1.594 -1.562 -1.469 -1.495 -1.464 -1.445 -1.461 -1.49 -1.39 -1.437 -1.492 -1.542 -1.533 -1.503 -1.471 -1.513 -1.545 -1.711 -1.717 -1.733 -1.577 -1.585 -1.606 -1.593 -1.598 -1.705 -1.71 -1.674 -1.652 -1.696 -1.699 -1.65 -1.66 -1.672 -1.692 -1.685 -1.657 -1.666 -1.66 -1.589 -1.604 -1.614 -1.565 -1.524 -1.503 -1.485 -1.496 -1.495 -1.47 -1.437 -1.427 -1.508 -1.866 -1.327 -1.485 -1.717 -1.696 -1.458 -1.416 -1.441 -1.487 -1.472 -1.455 -1.515
-2.207 -2.172 -2.22 -2.225 -2.225 -2.15 -2.172 -2.15 -2.137 -2.145 -2.157 -2.17 -2.192 -2.205 -2.257 -2.237 -2.275 -2.24 -2.23 -2.26 -2.225 -2.19 -2.227 -2.21 -2.305 -2.327 -2.26 -2.18 -2.185 -2.18 -2.222 -2.195 -2.185 -2.132 -2.157 -2.147 -2.167 -2.132 -2.182 -2.185 -2.162 -2.16 -2.197 -2.18 -2.152 -2.145 -2.19 -2.157 -2.128 -2.064 -2.06 -2.046 -2.019 -2.026 -1.986 -1.958 -1.937 -1.952 -1.949 -1.969 -1.976 -1.987 -1.997 -2.035 -2.055 -2.034 -2.092 -2.098 -2.107 -2.09 -2.087 -2.072 -2.012 -2 -1.98 -1.94 -1.972 -1.905 -1.925 -1.925 -1.932 -1.927 -1.915 -1.95 -1.937 -1.93 -1.91 -1.875 -1.86 -1.83 -1.82 -1.847 -1.82 -1.802 -1.765 -1.727 -1.737 -1.672 -1.71 -1.672 -1.637 -1.68 -1.69 -1.627 -1.622 -1.585 -1.532 -1.527 -1.507 -1.485 -1.472 -1.467 -1.437 -1.395 -1.407 -1.427 -1.42 -1.405 -1.4 -1.382 -1.392 -1.4 -1.355 -1.38 -1.402 -1.422 -1.427 -1.412 -1.46 -1.505 -1.55 -1.587 -1.592 3.083 4.383 4.36 3.168 -1.282 -1.587 -1.63 -1.63 -1.53 3.148 3.218 3.298 2.033 -1.565 -1.535 -1.472 -1.412 -1.382 -1.392 -1.372 -1.39 -1.395 -1.397 -1.33 -1.362 -1.292 -1.29 -1.252 -1.267 -1.225 -1.23 -1.267 -1.27 -1.267 -1.252 -1.26 -1.265 -1.265 -1.273 -1.258 -1.228 -1.218 -1.213 -1.219 -1.233 -1.254 -1.252 -1.243 -1.25 -1.239 -1.241 -1.236 -1.238 -1.223 -1.247 -1.245 -1.247 -1.217 -1.19 -1.152 -1.187 -1.182 -1.21 -1.232 -1.257 -1.275 -1.265 -1.21 -1.225 -1.245 -1.232 -1.192 -1.235 -1.252 -1.217 -1.237 -1.227 -1.235 -1.225 -1.21 -1.225 -1.26 -1.287 -1.292 -1.267 -1.297 -1.257 -1.295 -1.267 -1.25 -1.275 -1.285 -1.277 -1.235 -1.255 -1.305 -1.305 -1.33 -1.355 -1.352 -1.342 -1.38 -1.385 -1.39 -1.437 -1.42 -1.462 -1.48 -1.5 -1.54 -1.567 -1.52 -1.512 -1.467 -1.495 -1.455 -1.47 -1.487 -1.492 -1.48 -1.502 -1.532 -1.58 -1.595 -1.62 -1.652 -1.675 -1.682 -1.701 -1.722 -1.696 -1.673 -1.701 -1.67 -1.66 -1.62 -1.591 -1.553 -1.582 -1.577 -1.536 -1.519 -1.508 -1.47 -1.486 -1.487 -1.501 -1.547 -1.473 -1.546 -1.518 -1.531 -1.498 -1.501 -1.609 -1.604 -1.57 -1.6 -1.57 -1.611 -1.628 -1.641 -1.649 -1.663 -1.687 -1.697 -1.702 -1.732 -1.74 -1.805 -1.822 -1.857 -1.825 -1.905 -1.802 -1.782 -1.735 -1.662 -1.652 -1.602 -1.602 -1.607 -1.607 -1.625 -1.612 -1.632 -1.642 -1.655 -1.685 -1.717 -1.745 -1.707 -1.702 -1.745 -1.745 -1.761 -1.773 -1.701 -1.688 -1.654 -1.664 -1.64 -1.606 -1.594 -1.604 -1.594 -1.57 -1.589 -1.633 -1.691 -1.62 -1.607 -1.607 -1.635 -1.656 -1.708 -1.711 -1.769 -1.727 -1.72 -1.71 -1.78 -1.735 -1.66 -1.673 -1.692 -1.688 -1.705 -1.721 -1.734 -1.71 -1.712 -1.75 -1.744 -1.714 -1.732 -1.732 -1.72 -1.663 -1.744 -1.765 -1.599 -1.539 -1.507 -1.507 -1.496 -1.461 -1.522 -1.527 -1.415 -1.417 -1.442 -1.482 -1.5 -1.531 -1.466 -1.488 -1.536 -1.539 -1.72 -1.68 -1.552 -1.58 -1.565 -1.603 -1.589 -1.671 -1.694 -1.689 -1.657 -1.688 -1.637 -1.66 -1.668 -1.675 -1.66 -1.65 -1.631 -1.699 -1.656 -1.616 -1.637 -1.616 -1.541 -1.528 -1.533 -1.518 -1.518 -1.482 -1.483 -1.479 -1.535 -1.546 -1.467 -1.367 -1.415 -1.704 -1.458 -1.475 -1.497 -1.534 -1.501 -1.519 -1.492 -1.539
-2.217 -2.19 -2.222 -2.242 -2.237 -2.167 -2.197 -2.2 -2.172 -2.17 -2.167 -2.17 -2.202 -2.2 -2.232 -2.255 -2.265 -2.227 -2.262 -2.24 -2.29 -2.18 -2.197 -2.195 -2.242 -2.325 -2.285 -2.19 -2.152 -2.142 -2.172 -2.16 -2.172 -2.145 -2.105 -2.117 -2.117 -2.135 -2.162 -2.115 -2.147 -2.145 -2.125 -2.122 -2.15 -2.117 -2.12 -2.07 -2.034 -2.002 -1.99 -1.983 -1.966 -1.941 -1.913 -1.901 -1.895 -1.883 -1.93 -1.929 -1.927 -1.98 -2.004 -2.019 -1.979 -1.991 -2.013 -2.022 -2.03 -2.037 -2.057 -2.027 -2.002 -1.995 -1.95 -1.957 -1.93 -1.912 -1.9 -1.915 -1.932 -1.932 -1.915 -1.912 -1.942 -1.907 -1.88 -1.855 -1.832 -1.815 -1.805 -1.78 -1.74 -1.717 -1.73 -1.695 -1.677 -1.66 -1.642 -1.62 -1.637 -1.647 -1.627 -1.617 -1.647 -1.58 -1.55 -1.532 -1.487 -1.472 -1.442 -1.455 -1.44 -1.415 -1.405 -1.382 -1.37 -1.382 -1.39 -1.377 -1.362 -1.375 -1.365 -1.367 -1.385 -1.43 -1.43 -1.382 -1.385 -1.435 -1.455 -1.51 -1.58 0.875 4.398 4.408 3.45 -1.427 -1.585 -1.592 -1.605 -0.89 3.22 3.34 3.27 2.315 -1.597 -1.53 -1.49 -1.47 -1.442 -1.425 -1.337 -1.35 -1.377 -1.367 -1.337 -1.275 -1.302 -1.28 -1.235 -1.282 -1.26 -1.235 -1.222 -1.262 -1.216 -1.226 -1.244 -1.23 -1.254 -1.272 -1.265 -1.252 -1.239 -1.213 -1.209 -1.231 -1.245 -1.259 -1.26 -1.254 -1.259 -1.225 -1.203 -1.219 -1.234 -1.223 -1.205 -1.23 -1.267 -1.22 -1.185 -1.162 -1.152 -1.182 -1.22 -1.205 -1.232 -1.255 -1.227 -1.215 -1.257 -1.212 -1.197 -1.182 -1.197 -1.23 -1.212 -1.222 -1.237 -1.265 -1.24 -1.265 -1.23 -1.257 -1.237 -1.292 -1.282 -1.2 -1.247 -1.257 -1.24 -1.24 -1.28 -1.28 -1.267 -1.267 -1.277 -1.31 -1.345 -1.342 -1.392 -1.347 -1.39 -1.417 -1.44 -1.462 -1.44 -1.51 -1.487 -1.492 -1.512 -1.575 -1.577 -1.495 -1.47 -1.45 -1.477 -1.475 -1.48 -1.507 -1.537 -1.537 -1.567 -1.602 -1.575 -1.602 -1.64 -1.667 -1.693 -1.726 -1.745 -1.714 -1.705 -1.734 -1.676 -1.668 -1.588 -1.576 -1.582 -1.571 -1.566 -1.552 -1.511 -1.498 -1.489 -1.467 -1.466 -1.462 -1.475 -1.487 -1.525 -1.551 -1.512 -1.519 -1.521 -1.563 -1.565 -1.559 -1.585 -1.584 -1.622 -1.636 -1.635 -1.656 -1.641 -1.707 -1.72 -1.717 -1.797 -1.83 -1.857 -1.84 -1.8 -1.83 -1.752 -1.692 -1.72 -1.677 -1.677 -1.63 -1.587 -1.6 -1.612 -1.575 -1.592 -1.602 -1.645 -1.685 -1.7 -1.737 -1.74 -1.74 -1.747 -1.747 -1.787 -1.761 -1.738 -1.734 -1.721 -1.67 -1.666 -1.693 -1.696 -1.667 -1.613 -1.603 -1.626 -1.627 -1.625 -1.631 -1.61 -1.595 -1.568 -1.604 -1.61 -1.66 -1.691 -1.701 -1.736 -1.747 -1.735 -1.747 -1.719 -1.653 -1.658 -1.638 -1.694 -1.674 -1.656 -1.681 -1.694 -1.684 -1.745 -1.727 -1.797 -1.727 -1.756 -1.681 -1.648 -1.754 -1.779 -1.616 -1.567 -1.519 -1.522 -1.464 -1.501 -1.492 -1.467 -1.436 -1.43 -1.432 -1.39 -1.486 -1.455 -1.486 -1.491 -1.471 -1.496 -1.468 -1.501 -1.53 -1.511 -1.492 -1.567 -1.576 -1.686 -1.704 -1.699 -1.701 -1.663 -1.657 -1.624 -1.634 -1.611 -1.617 -1.672 -1.646 -1.652 -1.634 -1.626 -1.6 -1.634 -1.631 -1.582 -1.558 -1.559 -1.574 -1.541 -1.527 -1.471 -1.457 -1.522 -1.44 -1.455 -1.471 -1.455 -1.446 -1.432 -1.46 -1.516 -1.546 -1.557 -1.586 -1.522 -1.538
-2.212 -2.197 -2.217 -2.23 -2.217 -2.17 -2.172 -2.212 -2.197 -2.205 -2.175 -2.2 -2.25 -2.192 -2.195 -2.245 -2.247 -2.257 -2.25 -2.282 -2.185 -2.162 -2.152 -2.17 -2.172 -2.23 -2.225 -2.147 -2.137 -2.12 -2.142 -2.145 -2.137 -2.092 -2.112 -2.087 -2.11 -2.115 -2.107 -2.122 -2.137 -2.097 -2.105 -2.122 -2.097 -2.059 -2.043 -2.027 -1.986 -1.95 -1.941 -1.915 -1.879 -1.893 -1.858 -1.863 -1.863 -1.863 -1.895 -1.914 -1.955 -1.939 -1.97 -1.971 -1.993 -1.95 -1.946 -1.964 -1.98 -2.022 -1.995 -1.992 -1.995 -2.002 -2.002 -1.982 -1.945 -1.93 -1.905 -1.902 -1.887 -1.925 -1.905 -1.905 -1.895 -1.862 -1.84 -1.82 -1.787 -1.792 -1.777 -1.737 -1.735 -1.697 -1.692 -1.642 -1.655 -1.637 -1.662 -1.625 -1.6 -1.62 -1.637 -1.59 -1.592 -1.555 -1.54 -1.53 -1.49 -1.45 -1.447 -1.447 -1.42 -1.372 -1.395 -1.39 -1.39 -1.387 -1.422 -1.395 -1.377 -1.34 -1.347 -1.37 -1.41 -1.42 -1.442 -1.44 -1.452 -1.422 -1.41 -1.47 -1.525 -0.755 4.163 4.435 3.888 0.505 -1.045 -1.532 -1.585 -1.537 1.06 3.325 2.623 0.945 -1.107 -1.542 -1.51 -1.465 -1.475 -1.467 -1.382 -1.372 -1.345 -1.34 -1.345 -1.332 -1.32 -1.325 -1.325 -1.305 -1.285 -1.277 -1.264 -1.261 -1.251 -1.235 -1.253 -1.252 -1.225 -1.276 -1.279 -1.314 -1.291 -1.264 -1.259 -1.273 -1.246 -1.258 -1.27 -1.243 -1.228 -1.225 -1.217 -1.212 -1.189 -1.207 -1.168 -1.185 -1.195 -1.195 -1.2 -1.185 -1.195 -1.205 -1.205 -1.217 -1.21 -1.217 -1.217 -1.227 -1.237 -1.207 -1.197 -1.18 -1.23 -1.222 -1.22 -1.217 -1.262 -1.242 -1.23 -1.247 -1.24 -1.247 -1.202 -1.245 -1.257 -1.26 -1.242 -1.255 -1.26 -1.307 -1.282 -1.285 -1.302 -1.322 -1.307 -1.292 -1.3 -1.36 -1.387 -1.432 -1.405 -1.435 -1.417 -1.467 -1.467 -1.487 -1.537 -1.542 -1.572 -1.547 -1.51 -1.46 -1.457 -1.5 -1.452 -1.51 -1.505 -1.522 -1.557 -1.587 -1.615 -1.632 -1.63 -1.63 -1.639 -1.672 -1.709 -1.748 -1.725 -1.77 -1.765 -1.771 -1.746 -1.656 -1.58 -1.579 -1.607 -1.757 -1.762 -1.518 -1.526 -1.509 -1.486 -1.45 -1.417 -1.452 -1.467 -1.485 -1.485 -1.509 -1.559 -1.552 -1.53 -1.54 -1.556 -1.562 -1.588 -1.593 -1.588 -1.608 -1.652 -1.668 -1.671 -1.725 -1.745 -1.75 -1.825 -1.86 -1.805 -1.825 -1.86 -1.822 -1.787 -1.707 -1.665 -1.627 -1.62 -1.597 -1.63 -1.595 -1.605 -1.582 -1.607 -1.637 -1.642 -1.7 -1.695 -1.752 -1.787 -1.772 -1.752 -1.722 -1.775 -1.757 -1.774 -1.752 -1.708 -1.661 -1.681 -1.682 -1.665 -1.657 -1.638 -1.625 -1.645 -1.657 -1.669 -1.603 -1.582 -1.593 -1.59 -1.63 -1.662 -1.674 -1.697 -1.766 -1.708 -1.702 -1.715 -1.714 -1.68 -1.665 -1.641 -1.672 -1.7 -1.675 -1.636 -1.667 -1.676 -1.656 -1.751 -1.797 -1.788 -1.741 -1.708 -1.723 -1.679 -1.765 -1.78 -1.582 -1.539 -1.499 -1.508 -1.487 -1.491 -1.475 -1.424 -1.394 -1.412 -1.42 -1.4 -1.442 -1.436 -1.45 -1.467 -1.429 -1.443 -1.433 -1.451 -1.502 -1.561 -1.565 -1.561 -1.568 -1.694 -1.695 -1.653 -1.704 -1.624 -1.621 -1.591 -1.589 -1.588 -1.629 -1.605 -1.596 -1.646 -1.652 -1.646 -1.642 -1.667 -1.647 -1.632 -1.581 -1.543 -1.568 -1.503 -1.51 -1.472 -1.485 -1.504 -1.443 -1.473 -1.419 -1.489 -1.485 -1.469 -1.447 -1.504 -1.479 -1.494 -1.498 -1.525 -1.56
-2.25 -2.2 -2.172 -2.19 -2.175 -2.147 -2.167 -2.18 -2.157 -2.195 -2.212 -2.167 -2.147 -2.15 -2.182 -2.215 -2.23 -2.252 -2.237 -2.257 -2.217 -2.145 -2.162 -2.135 -2.122 -2.145 -2.135 -2.15 -2.11 -2.102 -2.105 -2.092 -2.092 -2.097 -2.082 -2.077 -2.09 -2.125 -2.135 -2.127 -2.12 -2.11 -2.092 -2.082 -2.065 -2.05 -2.037 -1.991 -1.959 -1.935 -1.91 -1.9 -1.873 -1.88 -1.836 -1.842 -1.833 -1.825 -1.867 -1.867 -1.933 -1.92 -1.899 -1.924 -1.954 -1.932 -1.911 -1.949 -1.946 -1.973 -1.972 -1.95 -1.922 -1.9 -1.957 -1.92 -1.917 -1.945 -1.9 -1.907 -1.885 -1.907 -1.892 -1.875 -1.847 -1.857 -1.807 -1.782 -1.75 -1.725 -1.715 -1.72 -1.7 -1.692 -1.675 -1.66 -1.64 -1.61 -1.615 -1.627 -1.63 -1.612 -1.622 -1.59 -1.56 -1.545 -1.547 -1.515 -1.497 -1.47 -1.47 -1.44 -1.377 -1.385 -1.417 -1.407 -1.407 -1.402 -1.375 -1.412 -1.387 -1.372 -1.377 -1.387 -1.417 -1.45 -1.422 -1.452 -1.447 -1.475 -1.422 -1.4 -1.445 -0.79 4.153 4.428 4.435 -0.147 -1.282 -1.387 -0.772 -1.625 0.85 3.293 3.285 1.803 -0.937 -1.535 -1.517 -1.49 -1.425 -1.397 -1.387 -1.355 -1.32 -1.357 -1.377 -1.38 -1.395 -1.387 -1.39 -1.302 -1.31 -1.278 -1.286 -1.284 -1.267 -1.236 -1.234 -1.266 -1.235 -1.247 -1.262 -1.307 -1.273 -1.284 -1.303 -1.261 -1.243 -1.242 -1.247 -1.255 -1.219 -1.226 -1.225 -1.225 -1.193 -1.213 -1.172 -1.171 -1.182 -1.15 -1.145 -1.15 -1.207 -1.227 -1.232 -1.215 -1.232 -1.22 -1.195 -1.215 -1.217 -1.197 -1.172 -1.2 -1.21 -1.212 -1.207 -1.24 -1.237 -1.255 -1.252 -1.262 -1.23 -1.257 -1.212 -1.24 -1.225 -1.21 -1.232 -1.242 -1.29 -1.247 -1.272 -1.307 -1.327 -1.325 -1.34 -1.34 -1.355 -1.34 -1.37 -1.402 -1.44 -1.477 -1.417 -1.457 -1.467 -1.517 -1.512 -1.595 -1.62 -1.592 -1.472 -1.467 -1.462 -1.48 -1.487 -1.54 -1.537 -1.53 -1.577 -1.57 -1.582 -1.62 -1.623 -1.657 -1.681 -1.7 -1.696 -1.72 -1.783 -1.842 -1.763 -1.718 -1.682 -1.625 -1.609 -1.596 -1.618 -1.738 -1.746 -1.557 -1.523 -1.494 -1.498 -1.452 -1.412 -1.445 -1.47 -1.44 -1.465 -1.492 -1.52 -1.532 -1.511 -1.504 -1.534 -1.568 -1.572 -1.578 -1.588 -1.626 -1.642 -1.655 -1.692 -1.687 -1.75 -1.77 -1.78 -1.85 -1.807 -1.835 -1.89 -1.822 -1.74 -1.665 -1.632 -1.592 -1.59 -1.59 -1.59 -1.56 -1.592 -1.612 -1.63 -1.67 -1.677 -1.735 -1.725 -1.707 -1.755 -1.755 -1.752 -1.792 -1.777 -1.83 -1.768 -1.685 -1.654 -1.671 -1.68 -1.673 -1.691 -1.67 -1.675 -1.69 -1.655 -1.668 -1.653 -1.597 -1.579 -1.616 -1.681 -1.696 -1.652 -1.692 -1.674 -1.697 -1.737 -1.703 -1.668 -1.685 -1.662 -1.652 -1.647 -1.664 -1.688 -1.682 -1.675 -1.655 -1.634 -1.682 -1.796 -1.801 -1.734 -1.688 -1.695 -1.677 -1.708 -1.677 -1.658 -1.582 -1.53 -1.51 -1.481 -1.509 -1.496 -1.495 -1.443 -1.388 -1.39 -1.382 -1.44 -1.484 -1.468 -1.45 -1.44 -1.482 -1.434 -1.438 -1.457 -1.509 -1.51 -1.576 -1.517 -1.536 -1.662 -1.701 -1.689 -1.72 -1.581 -1.575 -1.57 -1.569 -1.579 -1.593 -1.574 -1.617 -1.615 -1.627 -1.648 -1.645 -1.672 -1.614 -1.608 -1.654 -1.544 -1.495 -1.483 -1.474 -1.466 -1.474 -1.435 -1.419 -1.458 -1.455 -1.491 -1.502 -1.473 -1.425 -1.465 -1.501 -1.501 -1.543 -1.523 -1.499
-2.215 -2.18 -2.185 -2.19 -2.175 -2.185 -2.177 -2.177 -2.14 -2.16 -2.177 -2.16 -2.145 -2.13 -2.145 -2.202 -2.19 -2.19 -2.205 -2.217 -2.207 -2.16 -2.15 -2.14 -2.137 -2.122 -2.142 -2.11 -2.09 -2.055 -2.097 -2.055 -2.1 -2.085 -2.072 -2.092 -2.097 -2.115 -2.112 -2.085 -2.13 -2.127 -2.1 -2.082 -2.044 -2.022 -1.977 -1.947 -1.902 -1.93 -1.888 -1.883 -1.857 -1.816 -1.819 -1.807 -1.812 -1.823 -1.852 -1.863 -1.823 -1.866 -1.864 -1.852 -1.884 -1.882 -1.888 -1.904 -1.893 -1.921 -1.951 -1.922 -1.932 -1.917 -1.902 -1.897 -1.915 -1.967 -1.95 -1.935 -1.91 -1.877 -1.897 -1.832 -1.82 -1.785 -1.777 -1.757 -1.747 -1.735 -1.745 -1.7 -1.662 -1.64 -1.652 -1.625 -1.612 -1.63 -1.62 -1.597 -1.622 -1.667 -1.6 -1.55 -1.567 -1.53 -1.492 -1.487 -1.46 -1.445 -1.457 -1.457 -1.432 -1.415 -1.455 -1.492 -1.475 -1.44 -1.412 -1.457 -1.4 -1.385 -1.342 -1.362 -1.402 -1.397 -1.457 -1.51 -1.487 -1.452 -1.43 -1.377 -1.362 -0.107 4.42 4.413 5.078 2.405 -0.702 -1.135 1.955 0.715 2.625 3.288 3.278 3.095 -0.292 -1.53 -1.432 -1.375 -1.357 -1.337 -1.317 -1.305 -1.315 -1.347 -1.387 -1.462 -1.415 -1.415 -1.335 -1.285 -1.292 -1.272 -1.285 -1.305 -1.272 -1.242 -1.268 -1.253 -1.247 -1.237 -1.268 -1.275 -1.262 -1.26 -1.266 -1.265 -1.232 -1.243 -1.217 -1.259 -1.229 -1.239 -1.224 -1.207 -1.204 -1.218 -1.164 -1.182 -1.166 -1.1 -1.155 -1.147 -1.177 -1.202 -1.217 -1.23 -1.227 -1.187 -1.152 -1.157 -1.185 -1.165 -1.16 -1.202 -1.197 -1.2 -1.192 -1.202 -1.212 -1.205 -1.245 -1.24 -1.285 -1.24 -1.235 -1.217 -1.24 -1.237 -1.222 -1.255 -1.265 -1.287 -1.277 -1.305 -1.277 -1.28 -1.315 -1.352 -1.375 -1.387 -1.377 -1.4 -1.415 -1.445 -1.465 -1.515 -1.512 -1.53 -1.547 -1.592 -1.592 -1.6 -1.5 -1.472 -1.48 -1.477 -1.482 -1.52 -1.57 -1.545 -1.597 -1.58 -1.605 -1.673 -1.681 -1.711 -1.693 -1.751 -1.735 -1.785 -1.759 -1.856 -1.756 -1.664 -1.645 -1.626 -1.606 -1.623 -1.639 -1.619 -1.739 -1.553 -1.519 -1.478 -1.459 -1.426 -1.382 -1.402 -1.417 -1.42 -1.449 -1.485 -1.502 -1.503 -1.509 -1.54 -1.55 -1.561 -1.566 -1.584 -1.582 -1.595 -1.616 -1.653 -1.652 -1.702 -1.782 -1.812 -1.812 -1.822 -1.79 -1.83 -1.842 -1.767 -1.697 -1.675 -1.617 -1.572 -1.587 -1.575 -1.565 -1.567 -1.587 -1.57 -1.657 -1.71 -1.675 -1.682 -1.687 -1.725 -1.717 -1.722 -1.73 -1.785 -1.815 -1.822 -1.742 -1.692 -1.661 -1.723 -1.688 -1.681 -1.675 -1.672 -1.683 -1.67 -1.696 -1.716 -1.723 -1.636 -1.6 -1.637 -1.713 -1.668 -1.679 -1.711 -1.74 -1.7 -1.648 -1.659 -1.649 -1.644 -1.631 -1.671 -1.695 -1.685 -1.682 -1.692 -1.691 -1.682 -1.642 -1.615 -1.668 -1.676 -1.653 -1.648 -1.666 -1.665 -1.664 -1.641 -1.63 -1.553 -1.53 -1.556 -1.526 -1.527 -1.495 -1.51 -1.464 -1.435 -1.4 -1.467 -1.46 -1.492 -1.451 -1.49 -1.447 -1.412 -1.411 -1.445 -1.422 -1.494 -1.486 -1.514 -1.474 -1.516 -1.687 -1.679 -1.706 -1.582 -1.577 -1.552 -1.556 -1.535 -1.575 -1.57 -1.574 -1.598 -1.597 -1.601 -1.623 -1.642 -1.653 -1.726 -1.654 -1.642 -1.529 -1.501 -1.471 -1.475 -1.512 -1.483 -1.426 -1.49 -1.434 -1.45 -1.504 -1.453 -1.508 -1.461 -1.474 -1.466 -1.471 -1.49 -1.434 -1.488
-2.202 -2.202 -2.215 -2.16 -2.16 -2.182 -2.157 -2.162 -2.13 -2.135 -2.16 -2.157 -2.13 -2.15 -2.12 -2.17 -2.2 -2.2 -2.185 -2.202 -2.18 -2.142 -2.182 -2.15 -2.157 -2.137 -2.132 -2.107 -2.082 -2.095 -2.08 -2.11 -2.08 -2.11 -2.112 -2.08 -2.117 -2.137 -2.137 -2.085 -2.092 -2.07 -2.075 -2.07 -2.023 -1.999 -1.972 -1.886 -1.899 -1.885 -1.858 -1.849 -1.847 -1.796 -1.78 -1.751 -1.801 -1.795 -1.81 -1.807 -1.778 -1.804 -1.798 -1.816 -1.844 -1.837 -1.865 -1.877 -1.867 -1.889 -1.872 -1.903 -1.927 -1.925 -1.922 -1.9 -1.907 -1.927 -1.907 -1.905 -1.89 -1.86 -1.875 -1.857 -1.825 -1.817 -1.765 -1.73 -1.74 -1.727 -1.672 -1.64 -1.672 -1.632 -1.642 -1.615 -1.592 -1.592 -1.602 -1.602 -1.635 -1.627 -1.582 -1.57 -1.537 -1.49 -1.522 -1.492 -1.517 -1.48 -1.455 -1.425 -1.445 -1.47 -1.485 -1.58 -1.51 -1.432 -1.41 -1.425 -1.4 -1.415 -1.387 -1.365 -1.362 -1.387 -1.477 -1.507 -1.532 -1.502 -1.47 -1.432 -1.382 -1.435 4.175 4.418 4.513 1.405 -1.007 -0.357 1.095 2.063 2.235 1.54 2.553 1.793 0.083 -1.525 -1.47 -1.392 -1.332 -1.335 -1.305 -1.317 -1.352 -1.389 -1.425 -1.429 -1.435 -1.342 -1.297 -1.277 -1.276 -1.28 -1.294 -1.282 -1.287 -1.287 -1.261 -1.257 -1.253 -1.252 -1.245 -1.24 -1.242 -1.23 -1.226 -1.219 -1.235 -1.228 -1.227 -1.216 -1.216 -1.231 -1.228 -1.218 -1.205 -1.221 -1.209 -1.223 -1.208 -1.184 -1.185 -1.197 -1.19 -1.182 -1.16 -1.195 -1.195 -1.165 -1.167 -1.15 -1.137 -1.147 -1.172 -1.18 -1.227 -1.2 -1.197 -1.215 -1.19 -1.212 -1.21 -1.205 -1.22 -1.215 -1.267 -1.237 -1.245 -1.237 -1.235 -1.242 -1.227 -1.267 -1.28 -1.285 -1.277 -1.302 -1.355 -1.362 -1.37 -1.372 -1.41 -1.432 -1.41 -1.435 -1.495 -1.535 -1.525 -1.58 -1.577 -1.605 -1.595 -1.492 -1.492 -1.512 -1.492 -1.53 -1.545 -1.567 -1.562 -1.557 -1.605 -1.618 -1.668 -1.677 -1.698 -1.703 -1.689 -1.708 -1.689 -1.733 -1.759 -1.706 -1.638 -1.666 -1.647 -1.671 -1.649 -1.65 -1.642 -1.637 -1.558 -1.538 -1.497 -1.477 -1.479 -1.447 -1.437 -1.44 -1.492 -1.47 -1.475 -1.477 -1.496 -1.494 -1.495 -1.519 -1.536 -1.591 -1.564 -1.591 -1.591 -1.57 -1.598 -1.644 -1.701 -1.72 -1.732 -1.782 -1.82 -1.797 -1.827 -1.795 -1.79 -1.717 -1.672 -1.63 -1.607 -1.617 -1.595 -1.577 -1.54 -1.55 -1.595 -1.637 -1.647 -1.662 -1.702 -1.697 -1.702 -1.71 -1.705 -1.737 -1.747 -1.75 -1.772 -1.737 -1.7 -1.725 -1.702 -1.684 -1.67 -1.667 -1.679 -1.66 -1.675 -1.732 -1.724 -1.674 -1.704 -1.644 -1.614 -1.686 -1.641 -1.611 -1.632 -1.708 -1.68 -1.66 -1.632 -1.656 -1.696 -1.679 -1.696 -1.667 -1.659 -1.683 -1.703 -1.663 -1.674 -1.666 -1.622 -1.655 -1.633 -1.628 -1.645 -1.59 -1.586 -1.592 -1.581 -1.592 -1.561 -1.548 -1.547 -1.551 -1.535 -1.515 -1.476 -1.473 -1.445 -1.423 -1.375 -1.462 -1.447 -1.438 -1.429 -1.512 -1.405 -1.322 -1.372 -1.42 -1.416 -1.471 -1.467 -1.437 -1.468 -1.641 -1.684 -1.687 -1.744 -1.582 -1.554 -1.51 -1.543 -1.534 -1.534 -1.562 -1.569 -1.619 -1.588 -1.611 -1.657 -1.706 -1.666 -1.624 -1.601 -1.573 -1.524 -1.564 -1.534 -1.494 -1.482 -1.485 -1.476 -1.493 -1.496 -1.475 -1.478 -1.512 -1.481 -1.466 -1.442 -1.485 -1.481 -1.448 -1.457 -1.476
-2.25 -2.197 -2.22 -2.17 -2.172 -2.155 -2.13 -2.132 -2.137 -2.102 -2.157 -2.152 -2.12 -2.165 -2.127 -2.16 -2.212 -2.165 -2.162 -2.175 -2.165 -2.162 -2.2 -2.182 -2.16 -2.137 -2.122 -2.117 -2.115 -2.14 -2.117 -2.097 -2.115 -2.145 -2.16 -2.15 -2.125 -2.135 -2.142 -2.12 -2.065 -2.065 -2.067 -2.051 -2.012 -1.998 -1.957 -1.89 -1.887 -1.867 -1.844 -1.819 -1.83 -1.774 -1.764 -1.756 -1.746 -1.734 -1.769 -1.759 -1.754 -1.774 -1.739 -1.774 -1.77 -1.807 -1.814 -1.821 -1.825 -1.85 -1.863 -1.895 -1.91 -1.91 -1.94 -1.907 -1.895 -1.897 -1.872 -1.875 -1.88 -1.862 -1.835 -1.857 -1.79 -1.785 -1.73 -1.73 -1.717 -1.692 -1.68 -1.647 -1.61 -1.632 -1.61 -1.615 -1.607 -1.592 -1.622 -1.62 -1.645 -1.612 -1.572 -1.535 -1.502 -1.48 -1.48 -1.51 -1.557 -1.467 -1.54 -1.492 -1.5 -1.512 -1.51 -1.53 -1.48 -1.417 -1.405 -1.412 -1.382 -1.385 -1.345 -1.322 -1.33 -1.422 -1.487 -1.522 -1.507 -1.592 -1.555 -1.502 -1.457 -1.457 2.755 4.463 4.473 3.403 -0.17 -1.537 -0.522 0.77 2.548 0.265 1.365 1.273 1.105 -1.502 -1.415 -1.342 -1.337 -1.33 -1.371 -1.368 -1.358 -1.392 -1.417 -1.412 -1.402 -1.351 -1.311 -1.267 -1.29 -1.285 -1.303 -1.291 -1.309 -1.296 -1.274 -1.288 -1.287 -1.26 -1.257 -1.241 -1.245 -1.226 -1.235 -1.234 -1.216 -1.225 -1.218 -1.228 -1.228 -1.199 -1.202 -1.218 -1.198 -1.224 -1.218 -1.208 -1.245 -1.224 -1.198 -1.172 -1.165 -1.165 -1.147 -1.152 -1.175 -1.13 -1.17 -1.177 -1.17 -1.145 -1.16 -1.185 -1.207 -1.165 -1.177 -1.195 -1.197 -1.177 -1.197 -1.202 -1.187 -1.207 -1.23 -1.235 -1.255 -1.235 -1.247 -1.255 -1.262 -1.277 -1.25 -1.272 -1.327 -1.372 -1.365 -1.347 -1.375 -1.38 -1.42 -1.45 -1.475 -1.485 -1.505 -1.517 -1.52 -1.585 -1.605 -1.652 -1.65 -1.505 -1.492 -1.512 -1.517 -1.545 -1.585 -1.58 -1.602 -1.615 -1.59 -1.618 -1.691 -1.706 -1.707 -1.672 -1.706 -1.678 -1.681 -1.697 -1.648 -1.678 -1.612 -1.662 -1.668 -1.69 -1.65 -1.654 -1.62 -1.61 -1.538 -1.525 -1.517 -1.49 -1.52 -1.517 -1.457 -1.44 -1.494 -1.467 -1.46 -1.461 -1.476 -1.51 -1.481 -1.482 -1.513 -1.565 -1.578 -1.591 -1.581 -1.586 -1.591 -1.621 -1.668 -1.73 -1.777 -1.755 -1.747 -1.737 -1.872 -1.86 -1.742 -1.705 -1.63 -1.58 -1.557 -1.57 -1.587 -1.6 -1.55 -1.6 -1.607 -1.632 -1.652 -1.675 -1.717 -1.705 -1.712 -1.73 -1.742 -1.71 -1.712 -1.782 -1.75 -1.69 -1.67 -1.684 -1.719 -1.694 -1.687 -1.655 -1.651 -1.64 -1.658 -1.72 -1.673 -1.644 -1.669 -1.668 -1.639 -1.634 -1.597 -1.607 -1.594 -1.607 -1.605 -1.658 -1.636 -1.644 -1.739 -1.725 -1.694 -1.665 -1.617 -1.676 -1.695 -1.655 -1.639 -1.641 -1.58 -1.621 -1.594 -1.583 -1.564 -1.546 -1.53 -1.529 -1.534 -1.552 -1.555 -1.546 -1.578 -1.556 -1.543 -1.518 -1.521 -1.483 -1.469 -1.444 -1.455 -1.417 -1.407 -1.387 -1.473 -1.507 -1.487 -1.34 -1.327 -1.396 -1.461 -1.468 -1.474 -1.434 -1.453 -1.656 -1.702 -1.7 -1.598 -1.562 -1.531 -1.494 -1.519 -1.52 -1.518 -1.539 -1.56 -1.572 -1.645 -1.673 -1.741 -1.707 -1.666 -1.618 -1.611 -1.573 -1.506 -1.584 -1.597 -1.553 -1.5 -1.516 -1.504 -1.485 -1.507 -1.467 -1.467 -1.479 -1.483 -1.462 -1.432 -1.412 -1.459 -1.451 -1.437 -1.421
-2.225 -2.207 -2.202 -2.175 -2.185 -2.135 -2.132 -2.165 -2.142 -2.15 -2.182 -2.122 -2.137 -2.157 -2.125 -2.145 -2.165 -2.187 -2.195 -2.18 -2.145 -2.16 -2.192 -2.2 -2.2 -2.15 -2.142 -2.13 -2.127 -2.13 -2.115 -2.112 -2.112 -2.16 -2.172 -2.19 -2.165 -2.125 -2.11 -2.12 -2.095 -2.065 -2.061 -2.019 -2.01 -1.978 -1.926 -1.884 -1.86 -1.832 -1.829 -1.814 -1.804 -1.758 -1.73 -1.732 -1.739 -1.712 -1.688 -1.708 -1.718 -1.716 -1.777 -1.763 -1.796 -1.792 -1.783 -1.799 -1.803 -1.838 -1.849 -1.849 -1.875 -1.89 -1.9 -1.895 -1.892 -1.882 -1.875 -1.867 -1.847 -1.837 -1.807 -1.795 -1.775 -1.747 -1.732 -1.75 -1.725 -1.7 -1.695 -1.662 -1.647 -1.6 -1.602 -1.617 -1.615 -1.632 -1.63 -1.637 -1.625 -1.625 -1.555 -1.545 -1.525 -1.505 -1.52 -1.522 -1.51 -1.515 -1.515 -1.475 -1.447 -1.517 -1.485 -1.51 -1.452 -1.42 -1.377 -1.355 -1.35 -1.387 -1.345 -1.332 -1.345 -1.387 -1.415 -1.502 -1.47 -1.475 -1.605 -1.582 -1.507 -1.365 2.943 4.493 4.508 2.695 -0.417 -1.387 1.448 1.19 -0.477 3.293 3.33 3.255 1.538 -1.527 -1.437 -1.395 -1.337 -1.327 -1.381 -1.352 -1.375 -1.384 -1.419 -1.375 -1.355 -1.335 -1.345 -1.321 -1.296 -1.251 -1.271 -1.265 -1.274 -1.3 -1.283 -1.283 -1.295 -1.279 -1.26 -1.256 -1.279 -1.258 -1.244 -1.219 -1.223 -1.226 -1.197 -1.187 -1.203 -1.198 -1.203 -1.199 -1.184 -1.187 -1.19 -1.177 -1.202 -1.192 -1.196 -1.192 -1.182 -1.207 -1.177 -1.152 -1.172 -1.145 -1.127 -1.155 -1.162 -1.167 -1.175 -1.167 -1.167 -1.172 -1.185 -1.172 -1.192 -1.19 -1.177 -1.182 -1.195 -1.167 -1.212 -1.202 -1.245 -1.262 -1.292 -1.257 -1.24 -1.285 -1.307 -1.3 -1.327 -1.367 -1.382 -1.39 -1.35 -1.422 -1.445 -1.43 -1.472 -1.472 -1.522 -1.507 -1.542 -1.587 -1.6 -1.602 -1.582 -1.535 -1.547 -1.525 -1.527 -1.575 -1.582 -1.605 -1.603 -1.614 -1.653 -1.714 -1.679 -1.684 -1.689 -1.629 -1.666 -1.694 -1.683 -1.664 -1.607 -1.595 -1.619 -1.639 -1.662 -1.667 -1.641 -1.612 -1.585 -1.567 -1.544 -1.494 -1.532 -1.535 -1.51 -1.497 -1.476 -1.433 -1.452 -1.471 -1.476 -1.469 -1.481 -1.517 -1.492 -1.5 -1.525 -1.542 -1.566 -1.552 -1.552 -1.549 -1.577 -1.647 -1.679 -1.732 -1.79 -1.747 -1.797 -1.785 -1.845 -1.747 -1.73 -1.695 -1.667 -1.625 -1.59 -1.597 -1.545 -1.572 -1.555 -1.62 -1.62 -1.65 -1.645 -1.657 -1.727 -1.737 -1.705 -1.675 -1.695 -1.712 -1.712 -1.732 -1.71 -1.68 -1.707 -1.669 -1.672 -1.675 -1.677 -1.638 -1.674 -1.64 -1.619 -1.648 -1.64 -1.629 -1.636 -1.608 -1.622 -1.589 -1.595 -1.608 -1.62 -1.583 -1.582 -1.622 -1.635 -1.615 -1.666 -1.675 -1.702 -1.663 -1.624 -1.607 -1.647 -1.613 -1.611 -1.592 -1.574 -1.605 -1.602 -1.568 -1.519 -1.515 -1.485 -1.504 -1.52 -1.5 -1.526 -1.532 -1.577 -1.606 -1.559 -1.517 -1.558 -1.473 -1.46 -1.447 -1.445 -1.42 -1.425 -1.408 -1.443 -1.504 -1.477 -1.393 -1.377 -1.427 -1.405 -1.427 -1.419 -1.477 -1.472 -1.522 -1.558 -1.578 -1.58 -1.518 -1.497 -1.498 -1.513 -1.522 -1.551 -1.53 -1.539 -1.594 -1.664 -1.75 -1.767 -1.705 -1.673 -1.615 -1.594 -1.593 -1.592 -1.602 -1.62 -1.569 -1.57 -1.536 -1.569 -1.505 -1.513 -1.501 -1.48 -1.478 -1.489 -1.459 -1.425 -1.442 -1.387 -1.4 -1.464 -1.424
-2.212 -2.175 -2.157 -2.167 -2.17 -2.18 -2.175 -2.125 -2.135 -2.14 -2.125 -2.137 -2.13 -2.18 -2.157 -2.16 -2.165 -2.19 -2.175 -2.162 -2.15 -2.175 -2.17 -2.175 -2.18 -2.147 -2.167 -2.182 -2.152 -2.13 -2.117 -2.162 -2.102 -2.115 -2.125 -2.14 -2.08 -2.08 -2.1 -2.042 -2.027 -2.042 -2.012 -1.999 -1.976 -1.917 -1.918 -1.864 -1.837 -1.83 -1.802 -1.781 -1.745 -1.738 -1.735 -1.714 -1.68 -1.662 -1.689 -1.738 -1.723 -1.76 -1.747 -1.715 -1.748 -1.743 -1.737 -1.749 -1.757 -1.798 -1.825 -1.824 -1.835 -1.837 -1.832 -1.832 -1.84 -1.825 -1.777 -1.777 -1.78 -1.772 -1.792 -1.79 -1.77 -1.75 -1.695 -1.692 -1.682 -1.692 -1.67 -1.677 -1.645 -1.635 -1.652 -1.64 -1.635 -1.707 -1.647 -1.612 -1.61 -1.617 -1.557 -1.542 -1.53 -1.497 -1.477 -1.48 -1.455 -1.457 -1.467 -1.447 -1.42 -1.477 -1.457 -1.425 -1.39 -1.407 -1.382 -1.37 -1.36 -1.385 -1.375 -1.312 -1.355 -1.355 -1.392 -1.4 -1.44 -1.447 -1.435 -1.527 -1.537 -1.55 0.855 4.52 4.498 3.59 0.14 -0.937 -0.057 0.183 -0.132 1.635 3.325 3.01 0.998 -1.547 -1.477 -1.42 -1.357 -1.408 -1.413 -1.338 -1.347 -1.326 -1.347 -1.335 -1.36 -1.354 -1.343 -1.345 -1.332 -1.257 -1.259 -1.255 -1.28 -1.271 -1.26 -1.26 -1.257 -1.264 -1.279 -1.27 -1.282 -1.268 -1.281 -1.235 -1.227 -1.213 -1.198 -1.186 -1.202 -1.208 -1.209 -1.213 -1.19 -1.193 -1.194 -1.162 -1.191 -1.189 -1.21 -1.187 -1.192 -1.192 -1.195 -1.155 -1.152 -1.162 -1.16 -1.147 -1.162 -1.137 -1.16 -1.16 -1.187 -1.157 -1.19 -1.177 -1.212 -1.147 -1.21 -1.167 -1.2 -1.207 -1.23 -1.22 -1.242 -1.262 -1.272 -1.302 -1.3 -1.32 -1.282 -1.297 -1.37 -1.4 -1.415 -1.397 -1.395 -1.42 -1.447 -1.42 -1.47 -1.52 -1.52 -1.51 -1.542 -1.537 -1.58 -1.587 -1.585 -1.56 -1.582 -1.592 -1.585 -1.592 -1.6 -1.607 -1.613 -1.654 -1.685 -1.73 -1.755 -1.673 -1.679 -1.673 -1.639 -1.641 -1.64 -1.59 -1.573 -1.6 -1.62 -1.642 -1.595 -1.637 -1.717 -1.779 -1.763 -1.554 -1.567 -1.565 -1.562 -1.571 -1.49 -1.536 -1.502 -1.462 -1.468 -1.453 -1.474 -1.478 -1.491 -1.507 -1.512 -1.555 -1.542 -1.539 -1.566 -1.559 -1.544 -1.549 -1.6 -1.633 -1.677 -1.717 -1.807 -1.745 -1.762 -1.772 -1.82 -1.797 -1.727 -1.677 -1.635 -1.615 -1.602 -1.595 -1.58 -1.57 -1.612 -1.595 -1.665 -1.665 -1.702 -1.67 -1.745 -1.727 -1.7 -1.662 -1.662 -1.657 -1.617 -1.677 -1.682 -1.675 -1.67 -1.684 -1.647 -1.712 -1.699 -1.64 -1.645 -1.627 -1.6 -1.572 -1.607 -1.59 -1.628 -1.596 -1.568 -1.561 -1.579 -1.569 -1.59 -1.614 -1.649 -1.64 -1.624 -1.62 -1.61 -1.658 -1.671 -1.644 -1.607 -1.582 -1.577 -1.558 -1.556 -1.542 -1.524 -1.528 -1.538 -1.519 -1.491 -1.483 -1.474 -1.477 -1.466 -1.474 -1.499 -1.535 -1.546 -1.565 -1.539 -1.521 -1.509 -1.479 -1.446 -1.445 -1.416 -1.463 -1.417 -1.368 -1.507 -1.508 -1.465 -1.443 -1.392 -1.352 -1.34 -1.395 -1.426 -1.471 -1.692 -1.525 -1.523 -1.456 -1.525 -1.47 -1.438 -1.459 -1.477 -1.488 -1.531 -1.537 -1.564 -1.62 -1.736 -1.772 -1.765 -1.718 -1.702 -1.592 -1.629 -1.645 -1.672 -1.689 -1.655 -1.613 -1.646 -1.602 -1.533 -1.508 -1.537 -1.53 -1.518 -1.523 -1.456 -1.408 -1.417 -1.462 -1.385 -1.357 -1.399 -1.424
-2.225 -2.192 -2.175 -2.162 -2.175 -2.147 -2.19 -2.152 -2.137 -2.117 -2.137 -2.13 -2.137 -2.16 -2.18 -2.135 -2.185 -2.167 -2.142 -2.132 -2.142 -2.125 -2.115 -2.135 -2.16 -2.172 -2.15 -2.155 -2.12 -2.102 -2.07 -2.102 -2.07 -2.11 -2.097 -2.087 -2.067 -2.08 -2.057 -2.005 -2.015 -2.012 -2.022 -1.961 -1.962 -1.909 -1.914 -1.834 -1.809 -1.775 -1.732 -1.755 -1.737 -1.673 -1.627 -1.609 -1.659 -1.647 -1.672 -1.695 -1.655 -1.691 -1.691 -1.703 -1.701 -1.718 -1.698 -1.707 -1.713 -1.72 -1.759 -1.794 -1.797 -1.83 -1.807 -1.83 -1.795 -1.77 -1.73 -1.747 -1.722 -1.737 -1.747 -1.797 -1.772 -1.762 -1.712 -1.695 -1.672 -1.68 -1.685 -1.715 -1.687 -1.685 -1.687 -1.652 -1.645 -1.682 -1.657 -1.637 -1.595 -1.555 -1.53 -1.507 -1.505 -1.49 -1.477 -1.477 -1.46 -1.435 -1.445 -1.45 -1.46 -1.422 -1.44 -1.402 -1.37 -1.397 -1.465 -1.427 -1.38 -1.355 -1.34 -1.29 -1.31 -1.325 -1.327 -1.365 -1.375 -1.407 -1.387 -1.395 -1.405 -1.475 0.065 4.54 4.518 3.675 -0.972 -1.497 -0.215 1.143 -0.78 0.525 3.195 3.285 2.178 -1.34 -1.535 -1.488 -1.44 -1.478 -1.407 -1.376 -1.353 -1.351 -1.35 -1.303 -1.341 -1.336 -1.35 -1.319 -1.275 -1.284 -1.26 -1.268 -1.254 -1.263 -1.272 -1.246 -1.254 -1.26 -1.263 -1.275 -1.271 -1.248 -1.233 -1.228 -1.227 -1.216 -1.206 -1.195 -1.197 -1.185 -1.187 -1.187 -1.197 -1.209 -1.192 -1.203 -1.182 -1.227 -1.202 -1.163 -1.165 -1.17 -1.192 -1.182 -1.175 -1.155 -1.157 -1.195 -1.172 -1.16 -1.12 -1.145 -1.157 -1.16 -1.147 -1.137 -1.145 -1.175 -1.197 -1.17 -1.177 -1.215 -1.232 -1.25 -1.24 -1.262 -1.265 -1.28 -1.305 -1.342 -1.32 -1.335 -1.35 -1.362 -1.407 -1.407 -1.417 -1.425 -1.457 -1.475 -1.507 -1.54 -1.527 -1.542 -1.585 -1.577 -1.58 -1.58 -1.6 -1.615 -1.617 -1.652 -1.687 -1.652 -1.685 -1.613 -1.605 -1.639 -1.689 -1.746 -1.661 -1.648 -1.632 -1.61 -1.611 -1.611 -1.606 -1.573 -1.595 -1.592 -1.611 -1.605 -1.588 -1.616 -1.72 -1.738 -1.734 -1.555 -1.587 -1.591 -1.581 -1.579 -1.502 -1.493 -1.502 -1.468 -1.433 -1.445 -1.464 -1.531 -1.544 -1.56 -1.542 -1.56 -1.53 -1.524 -1.525 -1.502 -1.534 -1.548 -1.583 -1.628 -1.687 -1.73 -1.785 -1.73 -1.755 -1.802 -1.777 -1.787 -1.7 -1.685 -1.65 -1.592 -1.587 -1.602 -1.592 -1.59 -1.602 -1.637 -1.632 -1.672 -1.685 -1.685 -1.707 -1.717 -1.717 -1.705 -1.65 -1.622 -1.622 -1.645 -1.655 -1.696 -1.696 -1.687 -1.653 -1.661 -1.645 -1.594 -1.594 -1.581 -1.575 -1.528 -1.584 -1.582 -1.614 -1.594 -1.572 -1.562 -1.573 -1.619 -1.603 -1.674 -1.695 -1.731 -1.683 -1.664 -1.619 -1.628 -1.661 -1.665 -1.574 -1.541 -1.518 -1.512 -1.501 -1.476 -1.463 -1.465 -1.442 -1.467 -1.47 -1.458 -1.449 -1.437 -1.455 -1.473 -1.451 -1.501 -1.506 -1.541 -1.516 -1.515 -1.501 -1.474 -1.457 -1.477 -1.444 -1.47 -1.473 -1.454 -1.5 -1.544 -1.469 -1.71 -1.299 -1.315 -1.345 -1.365 -1.424 -1.393 -1.752 -1.723 -1.569 -1.569 -1.508 -1.412 -1.422 -1.442 -1.458 -1.471 -1.504 -1.568 -1.603 -1.663 -1.752 -1.745 -1.71 -1.745 -1.667 -1.605 -1.613 -1.67 -1.661 -1.624 -1.655 -1.656 -1.584 -1.549 -1.621 -1.579 -1.574 -1.569 -1.55 -1.505 -1.462 -1.398 -1.401 -1.412 -1.398 -1.389 -1.391 -1.363
-2.215 -2.187 -2.157 -2.162 -2.17 -2.167 -2.12 -2.127 -2.13 -2.14 -2.15 -2.102 -2.097 -2.13 -2.162 -2.127 -2.135 -2.15 -2.127 -2.135 -2.107 -2.057 -2.08 -2.1 -2.107 -2.127 -2.15 -2.092 -2.075 -2.067 -2.087 -2.065 -2.092 -2.102 -2.077 -2.025 -2.06 -2.052 -2.002 -2.01 -2.002 -2.002 -1.967 -1.938 -1.892 -1.883 -1.87 -1.813 -1.825 -1.733 -1.734 -1.743 -1.716 -1.687 -1.66 -1.657 -1.616 -1.626 -1.634 -1.636 -1.643 -1.667 -1.658 -1.657 -1.658 -1.703 -1.69 -1.709 -1.7 -1.705 -1.705 -1.752 -1.794 -1.755 -1.765 -1.772 -1.775 -1.757 -1.74 -1.73 -1.707 -1.715 -1.735 -1.76 -1.785 -1.732 -1.715 -1.74 -1.73 -1.71 -1.73 -1.727 -1.722 -1.72 -1.687 -1.66 -1.65 -1.665 -1.655 -1.617 -1.58 -1.555 -1.585 -1.517 -1.48 -1.46 -1.45 -1.442 -1.365 -1.405 -1.415 -1.395 -1.407 -1.37 -1.397 -1.352 -1.33 -1.347 -1.44 -1.372 -1.345 -1.335 -1.335 -1.315 -1.29 -1.315 -1.33 -1.312 -1.302 -1.325 -1.335 -1.337 -1.367 -1.387 -0.437 4.565 4.545 4.555 1.728 -1.455 0.313 -0.385 -1.527 1.798 3.348 3.28 3.195 -0.76 -1.563 -1.541 -1.502 -1.51 -1.49 -1.439 -1.405 -1.362 -1.333 -1.341 -1.351 -1.395 -1.346 -1.292 -1.265 -1.274 -1.26 -1.251 -1.253 -1.231 -1.256 -1.241 -1.248 -1.227 -1.234 -1.234 -1.22 -1.211 -1.193 -1.184 -1.189 -1.193 -1.19 -1.183 -1.172 -1.183 -1.182 -1.176 -1.17 -1.171 -1.161 -1.182 -1.186 -1.195 -1.196 -1.181 -1.162 -1.167 -1.172 -1.18 -1.165 -1.172 -1.182 -1.137 -1.155 -1.147 -1.155 -1.12 -1.14 -1.15 -1.177 -1.177 -1.17 -1.145 -1.2 -1.202 -1.18 -1.22 -1.247 -1.242 -1.257 -1.25 -1.245 -1.26 -1.282 -1.327 -1.375 -1.395 -1.4 -1.392 -1.375 -1.415 -1.45 -1.5 -1.497 -1.472 -1.515 -1.537 -1.5 -1.555 -1.597 -1.615 -1.602 -1.597 -1.575 -1.617 -1.637 -1.707 -1.755 -1.772 -1.726 -1.626 -1.62 -1.671 -1.717 -1.742 -1.668 -1.635 -1.622 -1.594 -1.572 -1.578 -1.571 -1.563 -1.571 -1.57 -1.553 -1.564 -1.6 -1.715 -1.713 -1.758 -1.763 -1.628 -1.588 -1.57 -1.552 -1.56 -1.497 -1.494 -1.5 -1.464 -1.461 -1.452 -1.481 -1.507 -1.52 -1.557 -1.55 -1.563 -1.545 -1.493 -1.514 -1.495 -1.516 -1.548 -1.588 -1.637 -1.662 -1.7 -1.78 -1.767 -1.822 -1.817 -1.802 -1.757 -1.697 -1.697 -1.637 -1.627 -1.582 -1.577 -1.597 -1.617 -1.67 -1.645 -1.7 -1.657 -1.682 -1.695 -1.697 -1.707 -1.727 -1.717 -1.687 -1.632 -1.667 -1.663 -1.655 -1.691 -1.661 -1.683 -1.675 -1.638 -1.586 -1.558 -1.548 -1.518 -1.515 -1.551 -1.562 -1.57 -1.56 -1.569 -1.553 -1.583 -1.59 -1.651 -1.605 -1.628 -1.651 -1.745 -1.704 -1.629 -1.654 -1.609 -1.646 -1.638 -1.569 -1.512 -1.48 -1.469 -1.444 -1.442 -1.472 -1.459 -1.449 -1.44 -1.446 -1.433 -1.427 -1.422 -1.409 -1.435 -1.438 -1.464 -1.48 -1.521 -1.516 -1.521 -1.521 -1.503 -1.484 -1.46 -1.453 -1.442 -1.468 -1.444 -1.463 -1.502 -1.735 -1.755 -1.742 -1.415 -1.407 -1.442 -1.407 -1.395 -1.604 -1.464 -1.49 -1.511 -1.462 -1.437 -1.407 -1.435 -1.443 -1.459 -1.482 -1.534 -1.597 -1.61 -1.656 -1.705 -1.677 -1.665 -1.658 -1.626 -1.673 -1.704 -1.634 -1.618 -1.647 -1.667 -1.644 -1.568 -1.614 -1.63 -1.639 -1.536 -1.487 -1.467 -1.416 -1.415 -1.386 -1.363 -1.359 -1.335 -1.377 -1.362
-2.17 -2.185 -2.192 -2.157 -2.135 -2.147 -2.172 -2.127 -2.132 -2.127 -2.09 -2.1 -2.105 -2.147 -2.14 -2.145 -2.12 -2.137 -2.127 -2.13 -2.057 -2.075 -2.042 -2.042 -2.075 -2.097 -2.102 -2.082 -2.085 -2.04 -2.052 -2.035 -2.032 -2.055 -2.07 -2.06 -2.045 -2.022 -1.985 -1.987 -1.97 -1.982 -1.955 -1.912 -1.878 -1.857 -1.856 -1.836 -1.805 -1.769 -1.766 -1.735 -1.711 -1.689 -1.636 -1.605 -1.602 -1.57 -1.638 -1.714 -1.663 -1.662 -1.682 -1.665 -1.655 -1.685 -1.698 -1.702 -1.707 -1.715 -1.723 -1.69 -1.713 -1.71 -1.727 -1.68 -1.702 -1.672 -1.672 -1.722 -1.727 -1.712 -1.705 -1.702 -1.76 -1.732 -1.737 -1.685 -1.715 -1.735 -1.69 -1.68 -1.722 -1.737 -1.672 -1.675 -1.652 -1.637 -1.595 -1.567 -1.52 -1.507 -1.55 -1.462 -1.437 -1.447 -1.407 -1.397 -1.388 -1.4 -1.447 -1.446 -1.41 -1.394 -1.416 -1.407 -1.367 -1.383 -1.354 -1.352 -1.333 -1.305 -1.342 -1.347 -1.33 -1.31 -1.317 -1.29 -1.292 -1.297 -1.27 -1.327 -1.315 -1.322 -1.29 3.013 4.54 4.56 0.203 -1.007 1.008 0.293 -1.48 1.985 3.35 3.325 2.395 -0.564 -1.549 -1.524 -1.487 -1.453 -1.422 -1.352 -1.355 -1.376 -1.37 -1.373 -1.31 -1.293 -1.292 -1.266 -1.251 -1.215 -1.243 -1.228 -1.222 -1.23 -1.256 -1.239 -1.226 -1.217 -1.221 -1.186 -1.167 -1.156 -1.154 -1.155 -1.148 -1.159 -1.168 -1.155 -1.173 -1.18 -1.2 -1.166 -1.156 -1.158 -1.177 -1.176 -1.157 -1.18 -1.18 -1.189 -1.157 -1.177 -1.172 -1.155 -1.175 -1.172 -1.18 -1.17 -1.185 -1.152 -1.147 -1.112 -1.105 -1.152 -1.127 -1.18 -1.17 -1.18 -1.187 -1.195 -1.187 -1.19 -1.225 -1.23 -1.262 -1.235 -1.27 -1.277 -1.245 -1.305 -1.372 -1.375 -1.382 -1.41 -1.43 -1.437 -1.452 -1.472 -1.507 -1.537 -1.552 -1.542 -1.545 -1.53 -1.59 -1.57 -1.592 -1.62 -1.652 -1.637 -1.64 -1.672 -1.74 -1.73 -1.691 -1.635 -1.644 -1.661 -1.684 -1.677 -1.655 -1.632 -1.605 -1.6 -1.596 -1.553 -1.497 -1.505 -1.555 -1.508 -1.53 -1.573 -1.595 -1.733 -1.713 -1.739 -1.649 -1.64 -1.622 -1.582 -1.542 -1.502 -1.503 -1.531 -1.558 -1.497 -1.467 -1.5 -1.534 -1.548 -1.551 -1.534 -1.568 -1.544 -1.491 -1.484 -1.486 -1.47 -1.515 -1.548 -1.567 -1.652 -1.707 -1.725 -1.762 -1.802 -1.782 -1.8 -1.765 -1.732 -1.667 -1.64 -1.632 -1.597 -1.562 -1.6 -1.61 -1.6 -1.645 -1.672 -1.672 -1.657 -1.71 -1.715 -1.712 -1.662 -1.66 -1.655 -1.66 -1.647 -1.68 -1.638 -1.663 -1.67 -1.639 -1.658 -1.634 -1.624 -1.538 -1.545 -1.516 -1.478 -1.501 -1.504 -1.535 -1.551 -1.557 -1.559 -1.543 -1.58 -1.601 -1.575 -1.583 -1.649 -1.646 -1.663 -1.654 -1.614 -1.612 -1.578 -1.578 -1.603 -1.512 -1.469 -1.426 -1.414 -1.422 -1.472 -1.47 -1.471 -1.468 -1.471 -1.49 -1.45 -1.456 -1.407 -1.37 -1.406 -1.431 -1.473 -1.503 -1.512 -1.557 -1.55 -1.528 -1.538 -1.528 -1.517 -1.472 -1.508 -1.482 -1.48 -1.462 -1.436 -1.744 -1.729 -1.514 -1.424 -1.373 -1.365 -1.415 -1.395 -1.469 -1.508 -1.493 -1.489 -1.411 -1.419 -1.392 -1.397 -1.437 -1.447 -1.477 -1.522 -1.557 -1.601 -1.588 -1.613 -1.659 -1.689 -1.688 -1.653 -1.696 -1.745 -1.696 -1.712 -1.693 -1.705 -1.671 -1.659 -1.644 -1.617 -1.571 -1.536 -1.45 -1.454 -1.396 -1.393 -1.379 -1.319 -1.336 -1.343 -1.357 -1.4
-2.147 -2.172 -2.167 -2.175 -2.137 -2.147 -2.167 -2.112 -2.07 -2.085 -2.13 -2.105 -2.102 -2.102 -2.12 -2.125 -2.112 -2.132 -2.095 -2.085 -2.085 -2.057 -2.027 -1.992 -2.022 -2.04 -2.032 -2.057 -2.065 -2.032 -2.005 -2.025 -2.002 -2.01 -2.032 -2.017 -2.035 -2.017 -2.007 -1.992 -1.965 -1.985 -1.941 -1.924 -1.915 -1.872 -1.858 -1.798 -1.791 -1.789 -1.773 -1.735 -1.698 -1.667 -1.628 -1.628 -1.625 -1.665 -1.627 -1.621 -1.637 -1.642 -1.672 -1.66 -1.678 -1.707 -1.73 -1.743 -1.731 -1.718 -1.721 -1.698 -1.691 -1.74 -1.682 -1.69 -1.66 -1.657 -1.672 -1.707 -1.75 -1.712 -1.725 -1.717 -1.725 -1.715 -1.675 -1.667 -1.72 -1.702 -1.692 -1.7 -1.69 -1.675 -1.665 -1.665 -1.645 -1.617 -1.587 -1.595 -1.542 -1.505 -1.47 -1.457 -1.42 -1.405 -1.393 -1.39 -1.392 -1.388 -1.394 -1.403 -1.415 -1.427 -1.376 -1.374 -1.369 -1.372 -1.376 -1.39 -1.355 -1.336 -1.345 -1.347 -1.385 -1.407 -1.38 -1.365 -1.362 -1.332 -1.297 -1.302 -1.332 -1.307 -1.345 3.213 4.54 4.55 2.228 -0.277 0.843 1.343 -1.47 1.363 3.34 2.278 0.946 0.364 -1.515 -1.496 -1.398 -1.351 -1.318 -1.284 -1.258 -1.298 -1.298 -1.303 -1.26 -1.26 -1.267 -1.237 -1.205 -1.201 -1.181 -1.196 -1.226 -1.226 -1.251 -1.225 -1.203 -1.196 -1.19 -1.161 -1.14 -1.14 -1.128 -1.122 -1.109 -1.132 -1.155 -1.17 -1.163 -1.168 -1.155 -1.172 -1.16 -1.162 -1.171 -1.151 -1.135 -1.155 -1.168 -1.182 -1.197 -1.157 -1.18 -1.182 -1.165 -1.157 -1.18 -1.177 -1.17 -1.167 -1.152 -1.152 -1.12 -1.152 -1.152 -1.167 -1.162 -1.195 -1.205 -1.207 -1.222 -1.232 -1.235 -1.252 -1.295 -1.26 -1.285 -1.332 -1.272 -1.312 -1.337 -1.375 -1.402 -1.4 -1.452 -1.475 -1.47 -1.487 -1.51 -1.5 -1.535 -1.562 -1.602 -1.52 -1.557 -1.577 -1.572 -1.642 -1.675 -1.667 -1.667 -1.717 -1.775 -1.756 -1.695 -1.683 -1.666 -1.673 -1.672 -1.621 -1.639 -1.6 -1.57 -1.529 -1.557 -1.534 -1.515 -1.517 -1.526 -1.486 -1.498 -1.524 -1.564 -1.567 -1.743 -1.678 -1.666 -1.644 -1.635 -1.583 -1.553 -1.531 -1.512 -1.511 -1.513 -1.5 -1.509 -1.495 -1.559 -1.544 -1.542 -1.564 -1.55 -1.501 -1.502 -1.48 -1.491 -1.5 -1.517 -1.568 -1.614 -1.637 -1.685 -1.717 -1.772 -1.815 -1.812 -1.782 -1.707 -1.687 -1.695 -1.657 -1.627 -1.625 -1.587 -1.635 -1.615 -1.617 -1.677 -1.667 -1.65 -1.645 -1.712 -1.7 -1.695 -1.615 -1.635 -1.627 -1.687 -1.637 -1.68 -1.654 -1.657 -1.681 -1.631 -1.584 -1.617 -1.589 -1.519 -1.504 -1.468 -1.453 -1.464 -1.47 -1.467 -1.524 -1.535 -1.541 -1.605 -1.592 -1.55 -1.57 -1.574 -1.57 -1.618 -1.635 -1.638 -1.605 -1.591 -1.589 -1.571 -1.523 -1.474 -1.473 -1.454 -1.439 -1.432 -1.45 -1.428 -1.527 -1.545 -1.517 -1.504 -1.457 -1.462 -1.384 -1.373 -1.377 -1.486 -1.558 -1.531 -1.521 -1.558 -1.577 -1.533 -1.493 -1.486 -1.561 -1.52 -1.544 -1.728 -1.762 -1.517 -1.47 -1.481 -1.47 -1.458 -1.447 -1.372 -1.337 -1.325 -1.412 -1.463 -1.438 -1.441 -1.415 -1.405 -1.37 -1.372 -1.395 -1.438 -1.44 -1.493 -1.503 -1.549 -1.541 -1.55 -1.598 -1.589 -1.663 -1.668 -1.652 -1.767 -1.753 -1.822 -1.702 -1.642 -1.628 -1.648 -1.657 -1.616 -1.645 -1.604 -1.522 -1.428 -1.418 -1.376 -1.406 -1.349 -1.267 -1.352 -1.319 -1.31 -1.352
