ncols 473
nrows 32
xllcorner    459008
yllcorner    85690
cellsize     2
NODATA_value -9999
20.275 19.075 18.873 18.85 18.683 18.583 18.44 18.345 18.278 18.168 18.053 17.945 17.88 17.785 17.705 17.638 17.583 17.53 17.44 17.383 17.318 17.253 17.2 17.135 17.08 17.013 16.97 16.928 16.93 17.375 18.655 18.23 17.385 16.643 16.525 16.423 16.35 16.283 16.203 16.11 16.043 15.975 15.9 15.79 15.7 15.645 15.595 15.478 15.395 15.395 15.318 15.213 15.125 15.055 14.985 14.923 14.853 14.773 14.735 14.675 14.578 14.475 14.37 14.245 14.125 14.015 13.838 13.61 13.365 13.47 13.663 12.848 12.015 11.843 11.763 11.658 11.785 12.388 12.588 12.09 11.753 11.638 11.488 11.343 11.203 11.09 10.97 10.858 10.743 10.658 10.56 10.478 10.393 10.318 10.25 10.135 10.026 9.908 9.786 9.661 9.526 9.406 9.281 9.171 9.063 8.963 8.841 8.736 8.643 8.538 8.441 8.341 8.241 8.141 8.043 7.978 7.871 7.778 7.643 7.556 7.428 7.346 7.253 7.171 7.141 7.448 7.618 8.603 7.343 7.481 7.523 7.541 7.568 7.623 7.696 7.733 7.781 7.833 7.876 7.931 7.951 7.946 7.951 7.981 7.966 7.948 7.968 7.896 7.866 7.988 7.778 7.713 7.706 7.591 7.508 7.413 7.313 7.183 7.063 6.878 6.766 6.613 6.476 6.336 6.181 6.048 5.923 5.773 5.696 5.571 5.443 5.363 5.313 5.283 5.561 6.878 7.133 6.061 5.998 6.111 6.211 6.371 6.541 6.668 6.813 6.973 7.108 7.246 7.363 7.498 7.616 7.698 7.801 7.893 7.983 8.048 8.158 8.226 8.291 8.391 8.436 8.443 8.528 8.576 8.613 8.663 8.693 8.728 8.753 8.771 8.783 8.813 8.841 8.863 8.863 8.873 8.893 8.906 8.891 8.906 8.893 8.893 8.898 8.881 8.886 8.868 8.831 8.828 8.786 8.768 8.741 8.726 8.703 8.968 10.706 9.923 8.678 8.558 8.566 8.538 8.488 8.456 8.443 8.381 8.336 8.313 8.253 8.208 8.166 8.158 8.141 8.103 8.033 8.006 7.991 7.956 7.923 7.923 7.891 7.836 7.803 7.753 7.723 7.726 7.688 7.628 7.606 7.553 7.533 7.476 7.396 7.276 7.246 7.158 7.073 7.016 6.923 6.786 6.663 6.561 6.418 6.296 6.176 5.991 5.818 5.666 5.506 5.373 5.226 5.171 5.093 5.023 6.431 8.048 5.088 5.791 4.711 4.148 4.616 5.573 6.831 6.828 5.848 5.783 5.176 5.026 5.083 5.176 5.303 5.471 5.581 5.758 5.963 6.163 6.363 6.536 6.738 6.943 7.141 7.301 7.513 7.706 7.901 8.096 8.296 8.491 8.656 8.841 8.983 9.158 9.303 9.441 9.546 9.666 9.786 9.851 9.933 10.041 10.063 10.123 10.151 10.201 10.243 10.323 10.381 10.423 10.461 10.494 10.511 10.524 10.549 10.589 10.654 10.661 10.694 10.901 11.299 10.826 10.831 10.849 10.901 10.866 10.886 10.829 10.859 10.859 10.876 10.846 10.874 10.851 10.851 10.834 10.804 10.836 10.836 10.826 10.799 10.749 10.741 10.724 10.706 10.656 10.641 10.646 10.664 10.636 10.619 10.601 10.566 10.546 10.551 10.529 10.546 10.539 10.546 10.516 10.474 10.446 10.401 10.359 10.321 10.309 10.291 10.279 10.269 10.226 10.259 10.181 10.156 10.079 10.064 9.966 9.919 9.856 9.846 9.769 9.731 9.709 9.699 9.704 9.676 9.596 9.536 9.479 9.424 9.381 9.314 9.286 9.286 9.204 9.184 9.096 9.036 8.971 8.906 8.909 8.836 8.796 8.791 8.766 8.726 8.696 8.584 8.551 8.454 8.376 8.376 8.291 8.246 8.454 8.981 8.234 8.474 9.041 7.876 7.804 7.726 7.626 7.556 7.526 7.444 7.339 7.259 7.189 7.141 7.101 7.044 6.986 6.926 6.901 6.864 6.781 6.731
18.965 18.883 18.79 18.688 18.603 18.49 18.39 18.3 18.188 18.105 17.995 17.88 17.788 17.718 17.635 17.545 17.495 17.438 17.35 17.308 17.25 17.173 17.113 17.065 17 16.92 16.883 16.845 16.83 16.773 16.783 16.665 16.605 16.59 16.458 16.338 16.295 16.225 16.14 16.065 15.99 15.903 15.835 15.718 15.64 15.545 15.513 15.455 15.325 15.265 15.203 15.09 15.01 14.945 14.88 14.793 14.733 14.68 14.628 14.568 14.473 14.363 14.29 14.208 14.07 13.9 13.778 13.863 13.513 12.623 12.243 12.005 11.96 11.858 11.803 12.333 13.038 12.423 12.088 11.935 11.783 11.603 11.47 11.348 11.188 11.07 10.955 10.85 10.725 10.628 10.56 10.465 10.385 10.293 10.2 10.11 10.018 9.891 9.748 9.618 9.501 9.386 9.236 9.128 9.006 8.911 8.798 8.693 8.586 8.488 8.373 8.278 8.198 8.103 8.011 7.931 7.813 7.711 7.611 7.498 7.391 7.281 7.196 7.113 7.071 7.071 7.373 8.606 7.326 7.286 7.351 7.403 7.441 7.488 7.521 7.586 7.638 7.686 7.728 7.781 7.803 7.793 7.803 7.833 7.826 7.828 7.813 7.771 8.186 7.703 7.646 7.598 7.586 7.466 7.381 7.288 7.186 7.058 6.926 6.786 6.648 6.498 6.373 6.231 6.078 5.938 5.811 5.676 5.578 5.451 5.301 5.266 5.256 5.191 5.273 6.501 6.991 6.006 5.898 6.006 6.131 6.258 6.433 6.586 6.701 6.861 7.001 7.126 7.261 7.378 7.478 7.583 7.661 7.768 7.853 7.926 8.013 8.091 8.148 8.203 8.273 8.303 8.368 8.411 8.433 8.486 8.531 8.563 8.591 8.593 8.611 8.628 8.661 8.681 8.678 8.683 8.701 8.688 8.696 8.708 8.708 8.703 8.693 8.693 8.681 8.666 8.646 8.603 8.608 8.586 8.541 8.533 8.476 8.826 10.013 10.768 8.501 8.348 8.368 8.341 8.291 8.276 8.236 8.218 8.133 8.123 8.071 8.011 7.968 7.988 7.998 7.898 7.838 7.843 7.816 7.793 7.741 7.748 7.723 7.663 7.631 7.578 7.561 7.568 7.541 7.468 7.446 7.401 7.363 7.308 7.221 7.108 7.086 6.991 6.908 6.836 6.733 6.623 6.496 6.391 6.273 6.136 6.033 5.851 5.678 5.521 5.371 5.256 5.103 5.068 5.001 4.903 6.351 7.478 7.101 6.216 4.941 4.123 4.806 5.523 6.338 7.216 5.796 5.456 4.941 4.928 5.048 5.146 5.301 5.463 5.588 5.763 5.986 6.193 6.396 6.581 6.793 6.976 7.186 7.378 7.558 7.771 7.966 8.123 8.323 8.506 8.681 8.798 8.953 9.101 9.201 9.346 9.441 9.526 9.596 9.676 9.766 9.836 9.918 9.966 10.008 10.033 10.083 10.128 10.173 10.218 10.276 10.314 10.344 10.341 10.359 10.406 10.471 10.466 10.511 11.474 11.829 10.676 10.659 10.694 10.719 10.691 10.704 10.664 10.669 10.674 10.691 10.709 10.756 10.681 10.651 10.659 10.654 10.634 10.641 10.646 10.606 10.604 10.564 10.559 10.544 10.539 10.496 10.509 10.534 10.509 10.509 10.494 10.471 10.444 10.449 10.409 10.414 10.396 10.419 10.409 10.364 10.324 10.309 10.246 10.199 10.174 10.181 10.176 10.154 10.131 10.134 10.071 10.009 9.944 9.874 9.824 9.779 9.761 9.739 9.644 9.611 9.584 9.554 9.556 9.516 9.454 9.399 9.354 9.261 9.216 9.141 9.104 9.101 9.076 9.001 8.916 8.869 8.811 8.766 8.739 8.671 8.616 8.629 8.559 8.551 8.486 8.409 8.369 8.251 8.179 8.154 8.099 8.049 8.161 9.109 8.504 8.016 9.301 7.891 7.669 7.606 7.526 7.421 7.361 7.311 7.196 7.099 7.031 6.984 6.966 6.909 6.836 6.794 6.771 6.696 6.659 6.604
18.853 18.815 18.728 18.648 18.555 18.433 18.31 18.22 18.1 18 17.913 17.8 17.723 17.653 17.593 17.5 17.42 17.35 17.293 17.233 17.16 17.095 17.038 16.958 16.905 16.85 16.81 16.765 16.71 16.68 16.65 16.623 16.485 16.463 16.368 16.293 16.235 16.18 16.1 16.02 15.923 15.843 15.763 15.63 15.543 15.488 15.443 15.335 15.233 15.13 15.115 14.998 14.918 14.825 14.753 14.675 14.635 14.578 14.52 14.458 14.353 14.303 14.258 14.125 13.975 13.983 13.88 13.115 12.268 12.115 12.043 11.973 12.083 12.795 13.14 12.998 12.418 12.18 12.053 11.93 11.78 11.623 11.483 11.34 11.175 11.075 10.96 10.835 10.698 10.583 10.523 10.443 10.363 10.275 10.155 10.085 9.988 9.858 9.713 9.603 9.463 9.328 9.191 9.086 8.946 8.851 8.753 8.628 8.523 8.446 8.341 8.233 8.156 8.056 7.941 7.853 7.771 7.666 7.566 7.448 7.331 7.231 7.133 7.031 6.976 6.946 7.091 8.046 7.378 7.133 7.221 7.271 7.298 7.336 7.398 7.426 7.476 7.556 7.616 7.646 7.633 7.663 7.686 7.703 7.726 7.681 7.681 7.648 7.611 7.583 7.546 7.463 7.388 7.311 7.228 7.156 7.066 6.928 6.806 6.671 6.536 6.403 6.241 6.083 5.951 5.818 5.701 5.573 5.478 5.333 5.193 5.148 5.123 5.096 5.093 6.366 6.691 5.638 5.778 5.896 6.043 6.171 6.303 6.478 6.616 6.748 6.888 7.028 7.153 7.268 7.346 7.463 7.551 7.638 7.731 7.791 7.871 7.938 7.996 8.048 8.111 8.141 8.183 8.236 8.291 8.323 8.366 8.383 8.398 8.428 8.438 8.458 8.463 8.493 8.498 8.491 8.488 8.506 8.508 8.518 8.518 8.523 8.508 8.513 8.506 8.448 8.436 8.428 8.426 8.381 8.363 8.331 8.293 8.978 11.001 10.763 8.151 8.171 8.181 8.141 8.091 8.076 8.056 8.021 7.958 7.938 7.901 7.846 7.808 7.801 7.806 7.723 7.683 7.673 7.658 7.623 7.578 7.578 7.566 7.533 7.456 7.416 7.413 7.378 7.346 7.316 7.276 7.233 7.188 7.123 7.036 6.943 6.896 6.793 6.741 6.681 6.578 6.463 6.341 6.241 6.123 5.981 5.848 5.696 5.531 5.403 5.251 5.138 5.013 4.948 4.898 5.568 6.756 6.376 6.118 5.213 4.466 4.388 5.158 5.376 5.568 7.071 7.016 6.026 4.878 4.908 5.018 5.178 5.288 5.476 5.603 5.798 6.008 6.218 6.386 6.598 6.828 7.013 7.203 7.403 7.573 7.788 7.971 8.153 8.331 8.521 8.661 8.781 8.938 9.063 9.186 9.261 9.371 9.458 9.551 9.581 9.648 9.708 9.751 9.788 9.841 9.861 9.888 9.923 9.993 10.033 10.079 10.171 10.134 10.164 10.191 10.249 10.319 10.296 10.364 10.386 10.444 10.474 10.524 10.541 10.519 10.479 10.489 10.509 10.501 10.519 10.526 10.534 10.561 10.499 10.464 10.451 10.456 10.476 10.466 10.461 10.409 10.431 10.411 10.406 10.391 10.361 10.361 10.386 10.399 10.399 10.379 10.364 10.339 10.304 10.264 10.256 10.286 10.284 10.251 10.269 10.244 10.201 10.174 10.114 10.084 10.026 10.046 10.034 10.036 10.031 9.981 9.951 9.889 9.844 9.761 9.721 9.649 9.619 9.601 9.536 9.451 9.411 9.381 9.371 9.339 9.304 9.241 9.184 9.129 9.049 8.984 8.954 8.929 8.914 8.836 8.769 8.744 8.656 8.614 8.579 8.536 8.494 8.476 8.436 8.391 8.334 8.239 8.181 8.074 8.006 7.924 7.906 7.849 7.834 8.756 8.916 7.861 8.376 8.699 7.529 7.481 7.404 7.309 7.239 7.179 7.074 6.991 6.906 6.861 6.826 6.771 6.724 6.694 6.664 6.609 6.509 6.481
18.73 18.718 18.635 18.538 18.443 18.358 18.268 18.15 18.05 17.93 17.865 17.755 17.678 17.605 17.523 17.445 17.363 17.29 17.228 17.17 17.09 17.033 16.975 16.883 16.813 16.76 16.698 16.64 16.583 16.548 16.533 16.493 16.348 16.293 16.305 16.253 16.203 16.133 16.065 15.975 15.853 15.743 15.678 15.583 15.505 15.428 15.298 15.208 15.113 15.01 14.995 14.903 14.803 14.738 14.675 14.605 14.538 14.448 14.39 14.34 14.213 14.183 14.145 14.12 13.853 13.313 12.49 12.273 12.208 12.11 12.185 12.795 13.898 13.398 12.573 12.398 12.235 12.13 12.038 11.923 11.768 11.618 11.503 11.378 11.198 11.05 10.948 10.813 10.678 10.55 10.5 10.413 10.34 10.26 10.15 10.055 9.961 9.818 9.683 9.563 9.426 9.298 9.151 9.033 8.913 8.801 8.693 8.588 8.463 8.398 8.268 8.171 8.093 7.996 7.901 7.958 7.751 7.621 7.513 7.403 7.261 7.168 7.076 6.978 6.916 6.851 6.961 8.841 8.651 7.023 7.063 7.121 7.133 7.196 7.276 7.311 7.353 7.411 7.476 7.481 7.483 7.538 7.511 7.548 7.578 7.538 7.556 7.636 7.721 7.463 7.396 7.318 7.241 7.186 7.106 7.021 6.921 6.803 6.686 6.561 6.423 6.283 6.156 5.991 5.856 5.713 5.603 5.488 5.393 5.278 5.116 5.036 5.003 5.061 5.081 6.518 6.386 5.446 5.666 5.818 5.948 6.076 6.228 6.356 6.513 6.646 6.786 6.921 7.051 7.163 7.243 7.313 7.396 7.496 7.593 7.661 7.733 7.826 7.863 7.911 7.951 7.986 8.023 8.073 8.108 8.141 8.198 8.206 8.231 8.243 8.258 8.266 8.276 8.296 8.316 8.318 8.308 8.326 8.321 8.331 8.341 8.316 8.316 8.311 8.291 8.263 8.253 8.203 8.216 8.208 8.156 8.153 8.108 8.776 11.203 9.651 8.461 7.986 7.991 7.943 7.928 7.903 7.868 7.833 7.786 7.756 7.756 7.681 7.631 7.658 7.643 7.573 7.533 7.513 7.493 7.446 7.423 7.433 7.401 7.368 7.316 7.278 7.256 7.228 7.206 7.141 7.093 7.076 7.031 6.933 6.866 6.786 6.721 6.646 6.576 6.543 6.418 6.293 6.191 6.091 5.986 5.841 5.701 5.561 5.381 5.263 5.148 5.011 4.913 4.836 4.786 4.878 5.316 5.813 5.786 4.523 4.061 4.978 5.446 5.193 5.391 6.646 5.958 4.891 4.863 4.921 5.011 5.153 5.296 5.441 5.608 5.836 6.058 6.266 6.448 6.628 6.848 7.053 7.236 7.421 7.621 7.821 7.981 8.148 8.306 8.523 8.641 8.753 8.926 9.046 9.126 9.226 9.346 9.396 9.506 9.536 9.606 9.638 9.683 9.706 9.743 9.771 9.803 9.843 9.873 9.883 9.921 9.979 9.974 9.971 10.031 10.081 10.151 10.136 10.194 10.304 10.534 10.279 10.364 10.356 10.349 10.304 10.339 10.326 10.346 10.366 10.356 10.326 10.346 10.331 10.291 10.294 10.296 10.276 10.276 10.269 10.239 10.244 10.249 10.221 10.214 10.229 10.214 10.236 10.261 10.251 10.231 10.209 10.179 10.164 10.146 10.166 10.149 10.149 10.139 10.111 10.101 10.056 10.029 10.004 9.951 9.921 9.906 9.901 9.934 9.884 9.881 9.826 9.746 9.686 9.646 9.589 9.519 9.479 9.431 9.389 9.331 9.276 9.219 9.199 9.181 9.129 9.084 9.036 8.994 8.914 8.866 8.786 8.764 8.744 8.681 8.616 8.554 8.516 8.459 8.446 8.419 8.349 8.306 8.294 8.261 8.189 8.064 7.991 7.876 7.819 7.734 7.691 7.624 7.631 8.099 9.056 7.984 7.781 8.874 7.489 7.364 7.296 7.191 7.106 7.044 6.936 6.864 6.809 6.761 6.709 6.644 6.601 6.534 6.494 6.434 6.349 6.319
18.655 18.643 18.578 18.485 18.383 18.275 18.2 18.083 17.985 17.89 17.795 17.7 17.61 17.52 17.445 17.358 17.308 17.238 17.145 17.063 17 16.935 16.85 16.783 16.723 16.653 16.605 16.52 16.458 16.405 16.383 16.375 16.26 16.19 16.208 16.17 16.13 16.078 15.99 15.873 15.773 15.673 15.585 15.483 15.4 15.305 15.198 15.085 14.973 14.88 14.868 14.783 14.678 14.588 14.553 14.48 14.405 14.35 14.243 14.185 14.113 15.218 13.935 13.315 12.59 12.425 12.315 12.253 12.308 12.873 13.765 13.87 12.885 12.563 12.438 12.318 12.213 12.113 12.005 11.895 11.763 11.65 11.51 11.36 11.208 11.005 10.908 10.79 10.673 10.558 10.5 10.405 10.315 10.22 10.12 10.033 9.918 9.806 9.668 9.546 9.396 9.238 9.118 8.986 8.866 8.743 8.643 8.526 8.406 8.316 8.218 8.131 8.023 7.918 7.846 7.756 7.668 7.566 7.461 7.333 7.211 7.123 7.028 6.928 6.831 6.781 6.776 7.846 8.371 7.388 6.908 6.978 7.028 7.071 7.096 7.163 7.213 7.251 7.301 7.333 7.356 7.381 7.388 7.396 7.396 7.426 7.426 7.408 7.363 7.318 7.248 7.186 7.116 7.068 6.961 6.903 6.806 6.696 6.566 6.421 6.301 6.176 6.058 5.923 5.771 5.651 5.533 5.406 5.346 5.236 5.086 5.008 5.003 5.006 5.053 5.323 5.333 5.448 5.581 5.733 5.863 5.991 6.113 6.263 6.411 6.556 6.686 6.816 6.936 7.033 7.131 7.208 7.283 7.378 7.436 7.516 7.583 7.653 7.708 7.741 7.798 7.843 7.866 7.901 7.941 7.978 8.016 8.028 8.056 8.061 8.083 8.093 8.108 8.128 8.133 8.131 8.116 8.146 8.146 8.163 8.136 8.131 8.138 8.131 8.116 8.098 8.043 8.031 8.033 8.001 7.971 7.971 7.911 8.981 10.413 10.043 7.846 7.813 7.828 7.793 7.763 7.746 7.703 7.666 7.608 7.596 7.576 7.508 7.478 7.483 7.476 7.388 7.358 7.358 7.323 7.298 7.273 7.263 7.236 7.218 7.121 7.098 7.093 7.061 7.008 6.981 6.918 6.876 6.868 6.791 6.713 6.616 6.561 6.506 6.433 6.393 6.271 6.141 6.023 5.938 5.853 5.693 5.578 5.428 5.258 5.138 5.016 4.908 4.793 4.731 4.698 6.483 7.431 7.326 5.981 4.423 4.191 4.968 5.323 5.153 5.833 5.473 5.118 4.751 4.861 4.928 5.036 5.176 5.308 5.486 5.653 5.868 6.123 6.293 6.491 6.661 6.898 7.106 7.266 7.446 7.628 7.816 7.996 8.168 8.308 8.503 8.611 8.731 8.893 9.016 9.081 9.161 9.271 9.333 9.406 9.451 9.523 9.606 9.621 9.641 9.651 9.668 9.706 9.763 9.803 9.796 9.831 9.861 9.864 9.891 9.921 9.961 9.999 9.966 10.159 11.919 12.411 10.209 10.164 10.181 10.179 10.154 10.179 10.146 10.171 10.194 10.196 10.184 10.161 10.176 10.144 10.186 10.164 10.159 10.149 10.144 10.114 10.111 10.091 10.061 10.084 10.074 10.064 10.089 10.121 10.116 10.086 10.071 10.034 10.019 10.014 9.996 10.011 10.021 10.016 10.019 9.969 9.939 9.904 9.864 9.814 9.816 9.789 9.759 9.794 9.786 9.729 9.691 9.649 9.576 9.529 9.426 9.401 9.329 9.306 9.269 9.214 9.159 9.106 9.089 9.034 9.001 8.934 8.901 8.869 8.771 8.716 8.674 8.626 8.614 8.549 8.451 8.454 8.396 8.331 8.361 8.304 8.214 8.139 8.121 8.111 8.049 7.916 7.861 7.759 7.674 7.589 7.486 7.441 7.436 7.566 9.161 8.364 7.521 8.414 7.936 7.246 7.176 7.084 6.984 6.931 6.819 6.724 6.656 6.636 6.564 6.496 6.414 6.376 6.346 6.276 6.206 6.179
18.585 18.57 18.528 18.45 18.328 18.198 18.123 18.025 17.953 17.835 17.735 17.623 17.53 17.438 17.373 17.273 17.2 17.153 17.08 16.973 16.933 16.865 16.76 16.695 16.62 16.555 16.495 16.428 16.385 16.328 16.275 16.25 16.15 16.028 16.083 16.088 16.05 15.993 15.908 15.793 15.688 15.585 15.505 15.395 15.305 15.218 15.115 15.018 14.913 14.815 14.753 14.703 14.58 14.453 14.388 14.303 14.258 14.208 14.59 14.885 14.205 13.373 12.76 12.598 12.503 12.43 12.725 13.828 14.148 13.865 13.085 12.73 12.61 12.488 12.388 12.28 12.185 12.063 11.975 11.91 11.778 11.648 11.5 11.348 11.21 11.028 10.86 10.775 10.66 10.54 10.458 10.378 10.273 10.205 10.105 10.003 9.891 9.756 9.621 9.488 9.346 9.211 9.063 8.928 8.793 8.688 8.581 8.481 8.378 8.266 8.163 8.078 7.986 7.876 7.768 7.713 7.616 7.513 7.438 7.308 7.186 7.058 6.958 6.843 6.771 6.716 6.683 7.188 8.293 7.618 6.763 6.868 6.906 6.928 6.981 7.033 7.066 7.133 7.173 7.213 7.231 7.228 7.238 7.258 7.273 7.286 7.283 7.341 7.346 7.228 7.108 7.031 6.971 6.908 6.836 6.761 6.681 6.563 6.453 6.328 6.216 6.088 5.958 5.863 5.736 5.618 5.511 5.398 5.298 5.216 5.133 5.031 5.008 5.023 5.046 5.391 5.713 5.403 5.501 5.666 5.788 5.923 6.033 6.158 6.298 6.471 6.573 6.693 6.818 6.921 7.003 7.093 7.168 7.251 7.313 7.376 7.453 7.516 7.563 7.603 7.663 7.688 7.731 7.748 7.781 7.818 7.846 7.871 7.883 7.901 7.901 7.916 7.928 7.948 7.961 7.963 7.973 7.981 7.976 7.988 7.976 7.966 7.948 7.953 7.953 7.926 7.896 7.873 7.861 7.821 7.773 7.796 7.753 8.821 10.263 8.988 7.721 7.623 7.643 7.601 7.588 7.586 7.546 7.513 7.461 7.426 7.391 7.351 7.336 7.348 7.303 7.218 7.206 7.196 7.146 7.121 7.106 7.091 7.043 7.001 6.961 6.928 6.921 6.883 6.836 6.796 6.756 6.718 6.693 6.626 6.543 6.458 6.398 6.328 6.278 6.208 6.103 5.986 5.883 5.773 5.673 5.568 5.458 5.291 5.136 5.011 4.901 4.796 4.696 4.653 4.713 6.518 7.811 6.996 5.266 4.061 4.241 4.931 5.216 5.018 4.888 5.151 4.861 4.748 4.846 4.953 5.056 7.016 8.721 6.416 5.698 5.956 6.193 6.468 6.951 7.158 7.206 7.116 7.303 7.491 7.661 7.811 7.978 8.191 8.348 8.503 8.601 8.716 8.843 8.958 9.056 9.118 9.221 9.293 9.328 9.396 9.408 9.523 9.516 9.538 9.568 9.593 9.641 9.661 9.676 9.718 9.771 9.791 9.786 9.781 9.791 9.824 9.854 9.824 9.956 12.129 11.124 9.961 10.021 10.019 10.006 10.011 9.961 10.009 10.011 10.031 10.039 10.049 10.039 10.036 10.009 10.034 10.044 9.974 10.016 10.039 10.019 9.961 9.964 9.951 9.924 9.916 9.934 9.974 9.994 9.976 9.976 9.934 9.919 9.909 9.889 9.906 9.901 9.886 9.869 9.866 9.844 9.819 9.781 9.766 9.721 9.676 9.694 9.651 9.651 9.684 9.606 9.571 9.504 9.464 9.396 9.309 9.264 9.209 9.149 9.124 9.074 9.054 8.971 8.929 8.904 8.866 8.814 8.776 8.701 8.621 8.566 8.534 8.506 8.431 8.381 8.299 8.309 8.246 8.231 8.239 8.179 8.081 8.009 7.951 7.916 7.881 7.814 7.746 7.631 7.526 7.419 7.346 7.291 7.259 7.259 8.581 8.656 7.576 7.556 8.421 7.144 7.066 7.009 6.864 6.776 6.691 6.591 6.514 6.464 6.416 6.329 6.276 6.231 6.206 6.144 6.046 6.046
18.535 18.48 18.438 18.335 18.245 18.125 18.035 17.935 17.853 17.733 17.638 17.528 17.405 17.36 17.26 17.203 17.058 17.025 16.995 16.91 16.845 16.75 16.683 16.61 16.543 16.463 16.403 16.35 16.298 16.22 16.18 16.148 16.055 15.905 15.908 15.953 15.958 15.898 15.82 15.72 15.605 15.498 15.413 15.315 15.215 15.125 15.02 14.948 14.865 14.733 14.668 14.603 14.435 14.32 14.258 14.205 14.143 14.34 15.233 14.625 12.905 12.728 12.69 12.658 12.828 14.203 15.003 14.515 13.423 12.925 12.778 12.65 12.555 12.44 12.338 12.233 12.175 12.08 11.968 11.88 11.753 11.618 11.48 11.318 11.18 11.015 10.85 10.75 10.648 10.52 10.408 10.348 10.235 10.163 10.068 9.955 9.838 9.708 9.586 9.451 9.286 9.151 9.003 8.881 8.741 8.631 8.528 8.418 8.316 8.216 8.131 8.018 7.928 7.846 7.721 7.643 7.558 7.463 7.373 7.268 7.126 7.008 6.906 6.798 6.703 6.648 6.596 6.658 8.408 7.783 6.603 6.666 6.758 6.781 6.818 6.866 6.901 6.946 7.011 7.028 7.053 7.076 7.063 7.093 7.143 7.146 7.183 7.278 7.148 7.001 6.963 6.906 6.843 6.781 6.723 6.648 6.546 6.456 6.361 6.261 6.133 6.046 5.893 5.811 5.693 5.588 5.461 5.353 5.233 5.146 5.048 5.003 5.091 5.086 5.113 6.306 6.503 5.611 5.441 5.606 5.718 5.828 5.946 6.076 6.218 6.351 6.463 6.601 6.708 6.803 6.876 6.981 7.028 7.106 7.181 7.256 7.316 7.373 7.423 7.461 7.513 7.533 7.571 7.616 7.653 7.676 7.703 7.716 7.728 7.753 7.758 7.776 7.776 7.803 7.801 7.791 7.798 7.816 7.788 7.811 7.808 7.796 7.798 7.776 7.771 7.751 7.718 7.698 7.691 7.648 7.636 7.643 7.623 8.961 8.861 8.856 7.773 7.473 7.476 7.436 7.423 7.413 7.383 7.306 7.296 7.271 7.231 7.183 7.166 7.171 7.133 7.063 7.023 7.016 6.983 6.946 6.938 6.913 6.878 6.831 6.788 6.743 6.763 6.718 6.676 6.621 6.578 6.566 6.528 6.471 6.383 6.311 6.266 6.171 6.148 6.053 5.968 5.833 5.731 5.661 5.536 5.423 5.298 5.141 4.986 4.878 4.793 4.671 4.591 4.566 4.623 6.353 5.923 5.101 4.456 3.928 4.588 4.823 5.023 5.131 5.216 5.031 4.698 4.723 4.811 4.911 5.018 6.148 8.473 6.221 5.741 6.021 6.318 6.823 8.231 9.043 7.998 7.433 7.388 7.531 7.746 7.868 8.286 8.213 8.326 8.486 8.606 8.676 8.831 8.923 8.983 9.056 9.138 9.231 9.271 9.301 9.366 9.441 9.433 9.443 9.453 9.508 9.543 9.571 9.598 9.601 9.654 9.676 9.651 9.661 9.691 9.719 9.711 9.704 9.839 10.214 9.821 9.796 9.851 9.904 9.876 9.869 9.846 9.854 9.876 9.871 9.874 9.874 9.896 9.874 9.856 9.851 9.856 9.866 9.866 9.876 9.834 9.804 9.816 9.821 9.796 9.814 9.819 9.846 9.891 9.881 9.861 9.811 9.814 9.779 9.779 9.801 9.764 9.766 9.756 9.711 9.711 9.676 9.651 9.636 9.596 9.586 9.559 9.574 9.534 9.554 9.541 9.451 9.416 9.369 9.259 9.181 9.121 9.086 9.031 8.976 8.936 8.909 8.856 8.849 8.801 8.759 8.724 8.679 8.584 8.516 8.424 8.379 8.374 8.309 8.226 8.159 8.159 8.101 8.066 8.044 8.001 7.949 7.891 7.834 7.756 7.696 7.621 7.546 7.471 7.374 7.256 7.184 7.099 7.084 7.081 7.429 8.741 7.886 7.184 7.876 7.569 6.934 6.856 6.754 6.669 6.541 6.456 6.391 6.344 6.276 6.176 6.109 6.066 6.036 5.961 5.901 5.854
18.45 18.425 18.375 18.26 18.148 18.053 17.97 17.858 17.73 17.63 17.565 17.45 17.328 17.26 17.183 17.015 16.955 16.938 16.935 16.825 16.765 16.673 16.588 16.52 16.455 16.395 16.318 16.235 16.163 16.113 16.085 16.03 15.958 15.83 15.785 15.815 15.868 15.845 15.758 15.633 15.528 15.448 15.34 15.228 15.125 15.025 14.938 14.865 14.783 14.668 14.568 14.485 14.32 14.18 14.128 14.058 14.17 14.12 13.328 12.89 12.868 12.893 13.178 14.355 14.658 14.593 13.568 13.145 13 12.868 12.738 12.638 12.503 12.413 12.305 12.218 12.148 12.053 11.938 11.853 11.715 11.565 11.415 11.303 11.155 11.003 10.835 10.725 10.623 10.493 10.38 10.31 10.195 10.1 10.025 9.895 9.768 9.643 9.516 9.373 9.218 9.093 8.936 8.813 8.681 8.571 8.468 8.363 8.251 8.166 8.091 7.986 7.883 7.783 7.688 7.588 7.506 7.426 7.328 7.193 7.091 6.953 6.863 6.758 6.646 6.576 6.571 7.208 7.556 7.796 6.606 6.471 6.561 6.648 6.698 6.713 6.756 6.813 6.856 6.886 6.898 6.921 6.941 6.933 6.961 6.983 6.986 6.958 6.931 6.871 6.826 6.786 6.728 6.646 6.603 6.521 6.461 6.376 6.286 6.183 6.086 5.966 5.871 5.773 5.643 5.473 5.336 5.198 5.066 4.976 4.928 4.966 5.018 5.078 5.123 5.918 6.568 5.801 5.391 5.513 5.638 5.738 5.871 5.968 6.121 6.258 6.366 6.483 6.598 6.691 6.763 6.843 6.913 6.991 7.061 7.131 7.188 7.246 7.298 7.341 7.368 7.408 7.431 7.458 7.488 7.528 7.571 7.566 7.578 7.583 7.618 7.613 7.613 7.636 7.633 7.631 7.628 7.643 7.636 7.643 7.651 7.628 7.633 7.611 7.596 7.588 7.561 7.536 7.523 7.498 7.466 7.473 7.433 8.793 9.496 9.763 7.368 7.333 7.341 7.291 7.266 7.256 7.228 7.171 7.143 7.143 7.083 7.021 7.006 7.021 6.968 6.888 6.876 6.861 6.798 6.773 6.778 6.753 6.708 6.643 6.613 6.558 6.583 6.558 6.503 6.438 6.438 6.403 6.378 6.298 6.233 6.131 6.098 6.018 5.981 5.901 5.803 5.691 5.578 5.483 5.393 5.256 5.158 5.001 4.873 4.731 4.668 4.573 4.498 4.621 5.738 6.386 6.123 5.311 4.576 3.853 4.811 4.946 4.988 5.298 5.328 4.898 4.688 4.736 4.826 4.956 5.101 5.291 5.446 5.591 5.788 6.046 6.243 6.411 6.653 6.888 7.076 7.211 7.376 7.536 8.218 7.876 10.281 11.156 8.558 8.818 8.888 8.771 9.126 9.491 8.948 9.201 9.131 9.143 9.176 9.208 9.286 9.313 9.341 9.371 9.378 9.411 9.443 9.436 9.446 9.496 9.546 9.559 9.569 9.566 9.559 9.584 9.579 9.549 10.411 10.799 9.636 9.679 9.731 9.779 9.734 9.709 9.724 9.754 9.739 9.726 9.766 9.746 9.749 9.736 9.726 9.709 9.731 9.749 9.734 9.774 9.734 9.681 9.671 9.659 9.679 9.709 9.704 9.744 9.761 9.761 9.729 9.704 9.711 9.681 9.656 9.661 9.656 9.674 9.621 9.596 9.584 9.556 9.546 9.529 9.511 9.504 9.434 9.461 9.434 9.421 9.409 9.316 9.291 9.239 9.154 9.091 9.016 8.954 8.901 8.864 8.839 8.809 8.781 8.756 8.704 8.651 8.596 8.511 8.471 8.394 8.331 8.286 8.246 8.181 8.099 8.026 7.991 7.966 7.951 7.889 7.841 7.816 7.786 7.716 7.609 7.556 7.454 7.454 7.279 7.214 7.139 7.031 6.966 6.936 6.931 6.919 7.839 8.226 7.211 7.331 8.041 6.864 6.724 6.631 6.541 6.409 6.314 6.241 6.171 6.109 6.016 5.954 5.904 5.884 5.839 5.779 5.716
18.355 18.315 18.265 18.18 18.065 17.97 17.84 17.743 17.66 17.563 17.483 17.348 17.268 17.213 17.1 16.975 16.97 16.898 16.895 16.78 16.705 16.608 16.523 16.423 16.37 16.315 16.233 16.138 16.07 15.99 15.96 15.898 15.845 15.745 15.725 15.735 15.75 15.758 15.698 15.583 15.483 15.36 15.245 15.128 15.038 14.895 14.743 14.718 14.708 14.613 14.49 14.35 14.133 14.195 14.053 13.855 13.498 13 12.908 12.968 13.533 14.355 14.8 14.393 13.67 13.295 13.158 13.043 12.943 12.828 12.725 12.593 12.47 12.38 12.285 12.198 12.113 12.005 11.893 11.815 11.68 11.563 11.42 11.27 11.128 10.973 10.813 10.678 10.585 10.453 10.34 10.253 10.15 10.035 9.96 9.863 9.728 9.593 9.451 9.313 9.171 9.031 8.881 8.751 8.608 8.508 8.398 8.301 8.216 8.103 8.043 7.931 7.823 7.728 7.646 7.546 7.461 7.361 7.266 7.176 7.066 6.926 6.806 6.716 6.571 6.766 6.853 6.468 6.728 7.703 7.606 6.313 6.376 6.471 6.553 6.581 6.616 6.653 6.708 6.731 6.743 6.773 6.776 6.803 6.841 6.848 6.841 6.813 6.793 6.751 6.718 6.671 6.611 6.566 6.506 6.443 6.391 6.313 6.228 6.126 6.018 5.903 5.771 5.643 5.481 5.263 5.111 4.956 4.821 4.818 4.878 4.913 4.938 4.986 5.066 5.543 6.563 5.936 5.338 5.461 5.558 5.646 5.773 5.888 6.023 6.133 6.273 6.391 6.488 6.591 6.676 6.741 6.808 6.881 6.956 7.021 7.056 7.121 7.156 7.203 7.246 7.268 7.301 7.326 7.366 7.373 7.396 7.406 7.441 7.443 7.458 7.476 7.471 7.478 7.486 7.478 7.488 7.486 7.473 7.478 7.488 7.478 7.461 7.448 7.426 7.411 7.403 7.366 7.363 7.333 7.313 7.308 7.271 8.191 8.451 8.363 7.158 7.173 7.186 7.143 7.136 7.093 7.068 7.003 6.988 6.946 6.913 6.828 6.826 6.828 6.778 6.721 6.698 6.676 6.628 6.593 6.591 6.566 6.523 6.501 6.436 6.408 6.421 6.383 6.336 6.311 6.293 6.263 6.233 6.161 6.076 6.001 5.943 5.871 5.866 5.756 5.653 5.536 5.433 5.353 5.238 5.118 5.003 4.871 4.748 4.636 4.578 4.473 4.396 4.813 6.248 5.543 5.951 5.393 4.171 3.818 4.898 5.043 4.946 5.166 5.166 4.711 4.618 4.733 4.848 4.941 5.071 5.261 5.448 5.618 5.851 6.096 6.293 6.503 6.653 6.856 7.056 7.221 7.378 7.541 7.736 7.851 8.148 9.068 8.321 8.476 8.776 10.291 10.846 11.226 10.538 11.741 11.618 10.496 10.591 9.548 9.193 9.266 9.288 9.301 9.323 9.318 9.298 9.318 9.333 9.356 9.419 9.454 9.436 9.461 9.481 9.491 9.426 9.399 9.981 10.251 9.534 9.611 9.649 9.681 9.661 9.609 9.614 9.629 9.639 9.626 9.624 9.656 9.661 9.629 9.614 9.601 9.619 9.631 9.621 9.626 9.586 9.531 9.541 9.569 9.519 9.561 9.596 9.631 9.651 9.659 9.634 9.599 9.581 9.576 9.551 9.564 9.564 9.549 9.501 9.481 9.494 9.461 9.456 9.421 9.414 9.371 9.344 9.341 9.341 9.319 9.296 9.239 9.181 9.151 9.046 8.999 8.929 8.881 8.816 8.756 8.714 8.644 8.639 8.606 8.571 8.529 8.474 8.381 8.326 8.259 8.204 8.156 8.116 8.074 7.991 7.944 7.921 7.871 7.851 7.789 7.714 7.656 7.609 7.561 7.476 7.411 7.324 7.279 7.174 7.086 7.031 6.956 6.884 6.864 6.824 6.794 7.234 8.456 7.559 6.856 7.674 7.386 6.611 6.499 6.409 6.291 6.186 6.069 6.031 5.966 5.879 5.831 5.784 5.746 5.691 5.646 5.609
18.308 18.255 18.188 18.09 17.985 17.915 17.768 17.738 17.603 17.515 17.42 17.305 17.223 17.158 17.043 16.95 16.905 16.898 16.823 16.695 16.575 16.525 16.43 16.348 16.27 16.195 16.135 16.06 15.97 15.898 15.845 15.793 15.75 15.665 15.603 15.613 15.67 15.7 15.645 15.525 15.413 15.273 15.158 15.043 14.958 14.778 14.748 14.678 14.7 14.603 14.423 14.53 15.118 16.378 15.885 13.288 12.993 12.893 12.838 13.783 14.87 14.43 13.643 13.398 13.293 13.188 13.095 12.995 12.883 12.795 12.675 12.563 12.473 12.365 12.245 12.163 12.07 11.97 11.878 11.785 11.658 11.53 11.408 11.258 11.088 10.96 10.803 10.625 10.52 10.433 10.288 10.188 10.108 9.97 9.898 9.805 9.671 9.536 9.403 9.261 9.111 8.971 8.821 8.688 8.573 8.448 8.353 8.251 8.158 8.061 7.981 7.888 7.773 7.703 7.606 7.508 7.426 7.311 7.218 7.123 7.011 6.881 6.783 6.678 6.556 6.473 6.388 6.406 6.651 7.488 7.273 6.263 6.203 6.308 6.381 6.458 6.468 6.486 6.546 6.563 6.608 6.616 6.641 6.673 6.696 6.703 6.721 6.703 6.698 6.661 6.623 6.576 6.533 6.491 6.451 6.386 6.303 6.233 6.146 6.023 5.901 5.763 5.603 5.381 5.211 5.028 4.898 4.788 4.718 4.761 4.796 4.811 4.846 4.868 4.936 5.306 6.406 5.996 5.246 5.376 5.446 5.566 5.681 5.813 5.926 6.051 6.186 6.296 6.391 6.481 6.561 6.631 6.703 6.778 6.836 6.903 6.938 6.991 7.053 7.078 7.121 7.133 7.163 7.173 7.211 7.233 7.261 7.273 7.283 7.298 7.333 7.348 7.333 7.336 7.321 7.316 7.323 7.326 7.316 7.333 7.333 7.326 7.313 7.321 7.273 7.258 7.236 7.228 7.226 7.188 7.153 7.148 7.116 7.973 8.183 7.806 7.186 7.026 7.028 6.996 6.971 6.943 6.891 6.838 6.828 6.801 6.758 6.693 6.663 6.653 6.606 6.551 6.526 6.493 6.453 6.433 6.433 6.403 6.371 6.338 6.288 6.286 6.268 6.238 6.218 6.191 6.156 6.108 6.088 6.018 5.923 5.876 5.831 5.733 5.718 5.621 5.513 5.401 5.308 5.208 5.113 5.001 4.888 4.748 4.648 4.528 4.468 4.398 4.323 4.966 6.141 5.646 6.618 4.933 3.816 3.746 4.741 4.888 4.801 5.058 5.136 4.568 4.628 4.726 4.851 4.923 5.086 5.241 5.441 5.636 5.868 6.086 6.286 6.458 6.668 6.841 7.036 7.193 7.373 7.523 7.676 7.818 7.951 8.143 8.263 8.373 8.461 8.561 8.781 9.563 9.891 10.266 10.731 10.621 9.233 10.756 9.153 9.166 9.203 9.926 9.893 9.403 9.286 9.268 9.271 9.276 9.306 9.331 9.344 9.351 9.369 9.379 9.281 9.236 9.414 9.349 9.429 9.529 9.519 9.511 9.551 9.499 9.506 9.526 9.511 9.546 9.559 9.546 9.566 9.514 9.506 9.476 9.511 9.541 9.509 9.514 9.486 9.471 9.479 9.486 9.441 9.466 9.511 9.574 9.544 9.596 9.579 9.531 9.514 9.494 9.471 9.466 9.476 9.466 9.434 9.409 9.391 9.386 9.364 9.314 9.319 9.284 9.249 9.266 9.266 9.211 9.211 9.124 9.091 9.026 8.954 8.861 8.831 8.744 8.696 8.616 8.571 8.539 8.531 8.479 8.454 8.401 8.349 8.286 8.194 8.116 8.066 8.041 7.969 7.939 7.874 7.811 7.786 7.776 7.724 7.634 7.636 7.581 7.496 7.429 7.356 7.299 7.201 7.131 7.039 6.974 6.914 6.866 6.821 6.786 6.721 6.659 6.726 7.599 8.164 6.879 6.951 7.764 6.736 6.371 6.296 6.169 6.071 5.974 5.894 5.854 5.749 5.684 5.659 5.616 5.574 5.521 5.474
18.258 18.165 18.115 18.028 17.935 17.863 17.758 17.658 17.56 17.443 17.343 17.258 17.168 17.093 17.02 16.943 16.873 16.81 16.715 16.625 16.55 16.44 16.35 16.278 16.185 16.125 16.055 15.978 15.903 15.82 15.758 15.71 15.668 15.56 15.483 15.45 15.543 15.598 15.563 15.453 15.285 15.155 15.03 14.943 14.84 14.715 14.64 14.595 14.613 14.453 14.26 15.005 16.14 15.313 15.545 12.935 12.88 12.813 13.615 14.655 13.835 13.443 13.363 13.29 13.215 13.133 13.053 12.955 12.858 12.755 12.673 12.575 12.44 12.333 12.24 12.145 12.05 11.95 11.85 11.738 11.615 11.508 11.38 11.238 11.068 10.938 10.785 10.613 10.468 10.378 10.26 10.13 10.045 9.933 9.833 9.733 9.603 9.483 9.358 9.206 9.051 8.928 8.791 8.658 8.523 8.413 8.308 8.218 8.108 8.006 7.933 7.833 7.741 7.653 7.556 7.471 7.373 7.273 7.173 7.076 6.986 6.856 6.731 6.623 6.513 6.406 6.688 6.276 6.338 6.543 6.793 6.336 6.153 6.198 6.241 6.318 6.308 6.348 6.396 6.426 6.463 6.498 6.538 6.538 6.591 6.581 6.613 6.608 6.603 6.573 6.543 6.526 6.478 6.418 6.356 6.283 6.188 6.068 5.958 5.771 5.661 5.533 5.356 5.166 5.033 4.918 4.806 4.741 4.688 4.686 4.718 4.743 4.736 4.751 4.818 5.061 5.943 5.691 5.178 5.291 5.363 5.436 5.586 5.708 5.848 5.956 6.086 6.193 6.298 6.391 6.448 6.538 6.623 6.663 6.738 6.781 6.828 6.888 6.931 6.966 6.996 7.006 7.033 7.063 7.093 7.106 7.146 7.166 7.168 7.146 7.181 7.173 7.191 7.198 7.211 7.203 7.188 7.211 7.173 7.168 7.173 7.183 7.186 7.161 7.121 7.106 7.098 7.081 7.066 7.043 7.001 6.991 6.956 8.086 9.128 8.381 6.958 6.868 6.853 6.818 6.801 6.783 6.723 6.678 6.663 6.628 6.556 6.501 6.516 6.498 6.476 6.398 6.371 6.351 6.303 6.278 6.288 6.261 6.246 6.211 6.153 6.116 6.143 6.091 6.061 6.031 5.988 5.983 5.948 5.893 5.808 5.761 5.691 5.588 5.573 5.466 5.356 5.258 5.168 5.101 4.988 4.886 4.743 4.643 4.526 4.443 4.371 4.293 4.236 5.771 6.048 4.583 4.641 4.026 3.538 3.933 4.693 4.381 4.686 5.136 4.921 4.488 4.608 4.723 4.813 4.951 5.093 5.243 5.448 5.661 5.866 6.108 6.291 6.473 6.673 6.836 7.018 7.183 7.318 7.506 7.636 7.793 7.921 8.048 8.203 8.296 8.356 8.438 8.541 8.626 8.678 8.748 8.801 8.841 8.896 8.931 8.961 9.003 9.016 9.498 9.598 9.278 9.098 9.081 9.128 9.173 9.181 9.194 9.214 9.229 9.239 9.181 9.034 9.301 10.409 9.459 9.299 9.319 9.321 9.316 9.354 9.344 9.379 9.331 9.359 9.354 9.364 9.366 9.406 9.374 9.356 9.361 9.349 9.359 9.381 9.384 9.396 9.386 9.361 9.356 9.349 9.354 9.414 9.471 9.486 9.521 9.511 9.524 9.464 9.424 9.416 9.424 9.429 9.391 9.394 9.356 9.356 9.331 9.271 9.244 9.221 9.161 9.159 9.136 9.104 9.094 9.091 9.021 8.991 8.939 8.881 8.759 8.726 8.639 8.606 8.509 8.469 8.446 8.389 8.399 8.326 8.279 8.211 8.194 8.084 8.016 7.961 7.916 7.921 7.851 7.781 7.679 7.686 7.646 7.604 7.516 7.441 7.439 7.386 7.316 7.214 7.184 7.099 7.019 6.899 6.874 6.819 6.786 6.766 6.706 6.636 6.576 6.524 6.491 7.851 7.184 6.551 7.134 6.969 6.264 6.206 6.054 5.936 5.856 5.781 5.724 5.644 5.554 5.519 5.509 5.434 5.371 5.366
18.21 18.083 18.028 17.948 17.858 17.773 17.64 17.545 17.48 17.378 17.28 17.208 17.088 17.02 16.913 16.845 16.8 16.698 16.64 16.57 16.48 16.363 16.28 16.213 16.115 16.055 15.978 15.913 15.835 15.748 15.625 15.583 15.54 15.475 15.375 15.325 15.34 15.408 15.408 15.29 15.108 14.985 14.838 14.74 14.653 14.573 14.513 14.473 14.378 14.243 14.138 15.028 16.68 16.015 13.545 12.815 12.79 13.418 14.683 13.64 13.378 13.34 13.293 13.225 13.158 13.068 13.008 12.93 12.845 12.703 12.638 12.54 12.418 12.285 12.19 12.09 11.995 11.903 11.81 11.7 11.585 11.473 11.358 11.213 11.055 10.893 10.775 10.588 10.408 10.33 10.195 10.088 9.965 9.885 9.78 9.673 9.538 9.416 9.291 9.146 8.998 8.873 8.756 8.596 8.488 8.376 8.268 8.181 8.076 7.991 7.911 7.801 7.688 7.621 7.516 7.418 7.338 7.236 7.151 7.026 6.948 6.796 6.703 6.586 6.466 6.353 6.333 6.193 6.118 6.548 6.228 6.088 6.086 6.143 6.173 6.208 6.198 6.218 6.253 6.321 6.353 6.383 6.426 6.433 6.456 6.491 6.508 6.511 6.543 6.506 6.481 6.443 6.406 6.301 6.231 6.101 5.996 5.896 5.726 5.526 5.433 5.341 5.211 5.098 4.971 4.878 4.761 4.678 4.638 4.623 4.636 4.668 4.673 4.663 4.723 4.878 5.703 5.561 5.091 5.198 5.296 5.378 5.498 5.613 5.756 5.866 6.008 6.111 6.216 6.296 6.363 6.446 6.523 6.576 6.626 6.666 6.713 6.763 6.823 6.848 6.876 6.891 6.916 6.943 6.986 6.998 7.023 7.013 7.018 7.033 7.038 7.081 7.058 7.086 7.078 7.056 7.031 7.043 7.028 7.033 7.053 7.031 7.013 7.018 6.998 6.986 6.948 6.911 6.901 6.883 6.876 6.856 6.843 7.868 9.376 7.746 6.688 6.741 6.701 6.641 6.626 6.626 6.576 6.506 6.483 6.473 6.393 6.366 6.366 6.358 6.316 6.241 6.226 6.201 6.166 6.141 6.153 6.111 6.088 6.063 6.006 5.981 5.981 5.973 5.931 5.923 5.901 5.866 5.828 5.753 5.656 5.603 5.523 5.468 5.418 5.326 5.221 5.118 5.038 4.973 4.833 4.738 4.626 4.533 4.441 4.373 4.296 4.206 4.138 5.273 5.488 4.281 3.521 3.398 3.611 4.183 4.568 4.148 4.843 5.193 4.688 4.436 4.573 4.711 4.808 4.931 5.063 5.251 5.481 5.668 5.871 6.101 6.276 6.481 6.661 6.838 7.008 7.143 7.313 7.471 7.588 7.746 7.868 7.988 8.131 8.206 8.283 8.368 8.441 8.498 8.548 8.596 8.661 8.668 8.751 8.786 8.838 8.896 8.878 8.911 8.948 8.946 8.943 8.938 8.953 8.976 9.006 9.029 9.016 9.056 9.029 8.869 8.864 10.539 11.829 9.821 9.241 9.199 9.246 9.371 9.166 9.114 9.144 9.141 9.231 9.244 9.149 9.329 9.154 9.201 9.201 9.229 9.201 9.244 9.221 9.191 9.206 9.174 9.186 9.216 9.201 9.224 9.264 9.289 9.339 9.369 9.379 9.364 9.321 9.339 9.301 9.326 9.299 9.321 9.329 9.351 9.304 9.296 9.274 9.261 9.214 9.171 9.139 9.079 9.071 9.041 9.016 8.956 8.911 8.849 8.776 8.676 8.616 8.556 8.491 8.434 8.399 8.341 8.324 8.284 8.226 8.159 8.089 8.064 8.011 7.906 7.859 7.811 7.769 7.746 7.686 7.589 7.529 7.454 7.409 7.366 7.329 7.291 7.239 7.121 7.046 7.016 6.939 6.896 6.786 6.746 6.724 6.704 6.671 6.634 6.579 6.506 6.431 6.354 6.916 7.844 6.451 6.449 7.459 6.324 6.039 5.959 5.844 5.736 5.659 5.604 5.536 5.434 5.381 5.389 5.324 5.271 5.241
18.113 18.045 17.96 17.878 17.755 17.668 17.59 17.478 17.413 17.32 17.223 17.128 17.058 16.973 16.92 16.815 16.72 16.643 16.578 16.515 16.433 16.323 16.235 16.148 16.033 15.958 15.9 15.835 15.74 15.65 15.545 15.465 15.42 15.363 15.263 15.165 15.085 15.088 15.098 14.955 14.82 14.723 14.615 14.52 14.418 14.348 14.328 14.305 14.24 14.19 14.05 14.538 15.703 15.543 12.763 12.67 12.68 13.988 14.385 13.345 13.305 13.285 13.215 13.185 13.1 13.038 12.968 12.893 12.8 12.698 12.583 12.503 12.385 12.268 12.173 12.055 11.955 11.873 11.785 11.668 11.575 11.463 11.325 11.195 11.005 10.858 10.723 10.56 10.35 10.26 10.143 10.028 9.905 9.818 9.708 9.615 9.463 9.356 9.238 9.103 8.963 8.813 8.711 8.566 8.453 8.358 8.221 8.148 8.033 7.943 7.853 7.763 7.661 7.566 7.478 7.383 7.308 7.213 7.113 7.016 6.916 6.786 6.656 6.533 6.433 6.328 6.241 6.158 6.103 6.378 7.048 6.328 6.081 6.108 6.098 6.103 6.103 6.111 6.141 6.216 6.241 6.286 6.318 6.321 6.368 6.403 6.416 6.416 6.428 6.393 6.333 6.278 6.193 6.096 6.011 5.868 5.753 5.661 5.563 5.446 5.351 5.263 5.151 5.023 4.898 4.803 4.686 4.613 4.561 4.566 4.566 4.586 4.581 4.583 4.623 4.768 5.881 5.791 5.036 5.116 5.221 5.296 5.393 5.533 5.668 5.796 5.936 6.026 6.118 6.223 6.271 6.336 6.398 6.481 6.518 6.596 6.628 6.666 6.706 6.746 6.768 6.796 6.826 6.836 6.866 6.883 6.891 6.911 6.916 6.921 6.908 6.951 6.946 6.936 6.943 6.946 6.913 6.921 6.913 6.913 6.901 6.888 6.873 6.888 6.873 6.866 6.818 6.788 6.783 6.748 6.726 6.691 6.696 7.743 9.558 7.353 6.563 6.586 6.548 6.506 6.496 6.486 6.431 6.368 6.331 6.333 6.241 6.206 6.203 6.206 6.158 6.101 6.078 6.063 6.031 6.006 6.001 5.978 5.963 5.918 5.873 5.843 5.853 5.843 5.793 5.781 5.771 5.736 5.696 5.606 5.513 5.466 5.386 5.331 5.288 5.198 5.101 4.988 4.901 4.828 4.748 4.638 4.551 4.438 4.338 4.266 4.216 4.118 3.988 3.908 4.126 3.693 3.483 3.388 3.588 4.338 4.773 4.648 4.631 4.826 4.438 4.431 4.551 4.686 4.816 4.923 5.053 5.281 5.463 5.653 5.898 6.086 6.281 6.463 6.636 6.838 6.963 7.103 7.276 7.413 7.556 7.693 7.798 7.903 8.028 8.126 8.213 8.291 8.341 8.436 8.436 8.511 8.551 8.588 8.646 8.676 8.718 8.746 8.743 8.761 8.778 8.806 8.821 8.806 8.851 8.888 8.931 8.931 8.939 8.949 8.876 8.779 8.851 9.926 10.794 11.214 10.011 9.426 10.866 12.304 11.681 11.496 10.701 10.534 12.539 11.196 12.031 11.416 11.196 11.311 9.346 10.249 9.369 9.466 8.991 8.989 9.011 9.296 9.589 8.974 9.004 9.034 9.056 9.131 9.179 9.186 9.179 9.149 9.146 9.144 9.156 9.159 9.161 9.159 9.144 9.166 9.201 9.191 9.191 9.186 9.169 9.121 9.074 9.026 8.994 8.991 8.966 8.934 8.901 8.841 8.744 8.671 8.614 8.534 8.431 8.379 8.349 8.284 8.231 8.189 8.129 8.061 8.006 7.959 7.889 7.811 7.754 7.699 7.684 7.624 7.541 7.496 7.431 7.374 7.326 7.271 7.234 7.146 7.121 7.029 6.971 6.899 6.836 6.759 6.681 6.621 6.591 6.586 6.569 6.519 6.484 6.426 6.369 6.261 6.254 7.549 6.866 6.244 6.659 6.799 5.921 5.849 5.744 5.624 5.561 5.484 5.419 5.339 5.296 5.301 5.224 5.156 5.139
18.088 17.99 17.93 17.823 17.715 17.62 17.503 17.423 17.343 17.243 17.178 17.075 16.965 16.905 16.823 16.745 16.64 16.543 16.475 16.413 16.325 16.235 16.128 16.053 15.938 15.858 15.81 15.75 15.63 15.553 15.438 15.365 15.343 15.278 15.198 15.083 14.965 14.875 14.835 14.743 14.663 14.59 14.51 14.41 14.3 14.285 14.258 14.243 14.15 14.09 13.963 14.308 15.245 14.76 12.61 12.528 12.67 14.308 13.893 13.265 13.23 13.18 13.135 13.12 13.068 12.963 12.9 12.843 12.733 12.63 12.56 12.445 12.348 12.24 12.128 12.013 11.93 11.833 11.725 11.645 11.528 11.44 11.298 11.168 10.988 10.825 10.683 10.525 10.348 10.195 10.085 9.965 9.878 9.775 9.643 9.548 9.458 9.316 9.186 9.071 8.921 8.788 8.663 8.523 8.406 8.311 8.186 8.103 8.023 7.901 7.816 7.706 7.633 7.511 7.441 7.338 7.256 7.158 7.068 6.961 6.893 6.776 6.636 6.501 6.396 6.278 6.213 6.133 6.058 6.196 6.073 6.608 6.131 6.058 6.043 6.043 6.018 6.056 6.106 6.166 6.193 6.231 6.226 6.238 6.246 6.278 6.288 6.243 6.223 6.186 6.146 6.033 5.921 5.858 5.766 5.708 5.623 5.553 5.478 5.383 5.293 5.188 5.071 4.933 4.833 4.708 4.598 4.513 4.471 4.488 4.498 4.488 4.503 4.508 4.543 4.821 6.106 5.686 4.966 5.046 5.146 5.208 5.308 5.453 5.593 5.696 5.821 5.931 6.031 6.123 6.161 6.238 6.328 6.383 6.428 6.483 6.521 6.571 6.613 6.651 6.661 6.693 6.726 6.728 6.761 6.761 6.778 6.791 6.808 6.803 6.801 6.831 6.828 6.816 6.843 6.821 6.793 6.778 6.801 6.796 6.776 6.758 6.763 6.766 6.743 6.703 6.678 6.666 6.641 6.623 6.583 6.553 6.561 7.618 9.248 6.621 6.413 6.441 6.418 6.366 6.351 6.331 6.281 6.196 6.193 6.161 6.091 6.061 6.076 6.066 6.001 5.961 5.931 5.936 5.871 5.843 5.853 5.838 5.798 5.788 5.731 5.718 5.718 5.716 5.651 5.638 5.616 5.601 5.573 5.466 5.401 5.331 5.268 5.211 5.176 5.078 4.973 4.881 4.783 4.728 4.646 4.528 4.438 4.321 4.248 4.176 4.113 4.011 3.761 4.901 3.866 3.388 3.438 3.393 3.791 4.311 5.093 6.466 4.661 4.666 4.406 4.443 4.541 4.686 4.828 4.903 5.051 5.291 5.496 5.693 5.898 6.096 6.268 6.463 6.621 6.811 6.961 7.091 7.223 7.371 7.496 7.608 7.711 7.821 7.966 8.041 8.121 8.186 8.266 8.318 8.378 8.431 8.466 8.501 8.536 8.561 8.598 8.656 8.661 8.666 8.673 8.708 8.696 8.688 8.718 8.721 8.729 8.754 8.771 8.794 8.819 8.731 8.746 10.504 11.729 11.469 10.339 8.884 8.939 9.866 10.401 11.064 11.624 13.099 12.076 12.806 12.916 12.829 12.589 11.959 11.646 11.064 12.514 10.061 10.056 12.376 10.851 11.626 10.724 11.256 9.089 9.051 8.771 9.099 10.529 9.651 11.186 10.646 9.211 8.904 9.279 9.009 8.954 9.501 8.979 8.986 8.989 8.999 9.019 9.029 8.999 8.999 8.941 8.914 8.934 8.879 8.851 8.844 8.829 8.766 8.694 8.644 8.606 8.539 8.476 8.414 8.326 8.249 8.201 8.154 8.091 7.981 7.916 7.876 7.806 7.759 7.694 7.651 7.596 7.544 7.476 7.436 7.354 7.269 7.246 7.159 7.111 7.056 6.996 6.966 6.886 6.801 6.741 6.659 6.596 6.549 6.509 6.481 6.476 6.441 6.411 6.366 6.276 6.144 6.079 6.669 7.484 6.116 6.074 7.174 5.926 5.739 5.616 5.514 5.444 5.356 5.294 5.206 5.181 5.134 5.076 5.046 5.014
18.008 17.92 17.865 17.75 17.653 17.58 17.468 17.365 17.27 17.175 17.095 16.968 16.868 16.805 16.73 16.635 16.53 16.455 16.368 16.328 16.223 16.123 16.013 15.943 15.84 15.758 15.728 15.67 15.57 15.47 15.368 15.313 15.27 15.183 15.118 15.033 14.93 14.825 14.74 14.663 14.605 14.538 14.468 14.385 14.28 14.263 14.21 14.203 14.105 13.993 13.885 13.738 14.978 14.328 12.328 12.395 12.548 14.345 13.418 13.165 13.14 13.103 13.07 13.038 12.978 12.895 12.838 12.765 12.685 12.595 12.493 12.395 12.313 12.18 12.093 12.003 11.855 11.773 11.685 11.595 11.505 11.398 11.273 11.143 10.978 10.808 10.643 10.473 10.325 10.155 10.038 9.918 9.83 9.723 9.605 9.503 9.408 9.296 9.163 9.026 8.893 8.761 8.633 8.506 8.381 8.273 8.158 8.053 7.981 7.878 7.781 7.698 7.586 7.503 7.413 7.326 7.216 7.111 7.036 6.943 6.846 6.743 6.623 6.486 6.383 6.271 6.161 6.081 6.021 6.086 6.538 7.458 6.278 6.036 5.983 5.961 6.001 6.001 6.033 6.086 6.091 6.098 6.093 6.093 6.051 6.063 6.033 5.996 5.951 5.916 5.916 5.853 5.818 5.746 5.681 5.606 5.508 5.443 5.363 5.311 5.201 5.081 4.966 4.851 4.728 4.613 4.523 4.423 4.421 4.416 4.418 4.433 4.446 4.446 4.478 4.871 6.183 5.998 4.956 4.968 5.063 5.136 5.231 5.376 5.481 5.631 5.761 5.856 5.933 6.021 6.093 6.141 6.226 6.281 6.331 6.401 6.438 6.481 6.531 6.543 6.561 6.591 6.626 6.638 6.648 6.648 6.683 6.691 6.703 6.693 6.698 6.716 6.703 6.713 6.726 6.683 6.671 6.658 6.656 6.676 6.656 6.658 6.648 6.643 6.606 6.578 6.571 6.526 6.513 6.493 6.463 6.448 6.426 7.408 7.981 6.248 6.278 6.291 6.268 6.228 6.208 6.181 6.121 6.081 6.048 6.036 5.943 5.903 5.928 5.923 5.868 5.826 5.796 5.771 5.731 5.728 5.746 5.718 5.688 5.658 5.623 5.603 5.616 5.586 5.528 5.513 5.498 5.481 5.418 5.336 5.248 5.191 5.133 5.088 5.051 4.948 4.838 4.763 4.661 4.591 4.498 4.431 4.331 4.231 4.158 4.101 4.033 3.898 5.043 8.106 3.878 3.323 3.446 3.278 3.711 4.723 5.666 6.773 5.391 4.583 4.348 4.398 4.518 4.651 4.763 4.893 5.071 5.296 5.501 5.678 5.898 6.101 6.296 6.453 6.616 6.798 6.938 7.063 7.201 7.328 7.433 7.548 7.638 7.733 7.881 7.958 8.046 8.096 8.173 8.211 8.266 8.306 8.353 8.393 8.403 8.471 8.486 8.518 8.511 8.501 8.561 8.561 8.553 8.591 8.601 8.611 8.604 8.619 8.624 8.666 8.686 8.601 8.629 10.954 10.864 10.624 9.214 8.786 8.804 8.776 8.701 8.704 8.721 8.844 8.739 8.921 8.779 9.854 9.491 10.364 10.331 10.379 10.674 11.476 11.674 12.476 11.909 11.021 12.571 10.406 9.774 11.736 9.934 10.529 10.074 10.301 11.524 10.039 11.659 9.564 10.304 8.804 9.974 11.184 8.551 8.981 8.951 8.694 8.736 8.791 8.774 8.774 8.779 8.776 8.764 8.759 8.736 8.709 8.676 8.621 8.581 8.551 8.501 8.434 8.394 8.334 8.241 8.216 8.141 8.109 8.056 7.989 7.926 7.864 7.796 7.734 7.689 7.611 7.569 7.506 7.436 7.374 7.329 7.256 7.181 7.119 7.069 7.016 6.946 6.904 6.846 6.774 6.704 6.646 6.586 6.554 6.509 6.466 6.434 6.399 6.359 6.306 6.184 6.039 5.881 5.859 6.479 5.964 5.799 6.444 6.461 5.641 5.494 5.349 5.321 5.226 5.154 5.054 5.039 5.019 4.944 4.911 4.906
17.94 17.85 17.775 17.683 17.593 17.465 17.358 17.275 17.175 17.063 16.985 16.88 16.795 16.72 16.633 16.55 16.443 16.353 16.283 16.21 16.153 16.04 15.965 15.863 15.765 15.68 15.633 15.555 15.465 15.385 15.295 15.255 15.21 15.14 15.08 14.98 14.873 14.788 14.723 14.643 14.573 14.508 14.433 14.385 14.313 14.27 14.233 14.143 14.028 13.9 13.77 13.633 14.345 13.853 12.25 12.208 12.458 14.158 13.368 13.063 13.053 13.01 12.968 12.933 12.895 12.815 12.77 12.7 12.633 12.545 12.458 12.375 12.278 12.173 12.06 11.943 11.828 11.74 11.67 11.56 11.463 11.363 11.238 11.103 10.96 10.788 10.618 10.465 10.305 10.14 9.97 9.865 9.748 9.643 9.56 9.455 9.376 9.248 9.143 9.008 8.886 8.753 8.621 8.486 8.376 8.246 8.121 8.016 7.928 7.823 7.746 7.666 7.573 7.483 7.376 7.283 7.176 7.098 6.986 6.903 6.811 6.706 6.596 6.463 6.336 6.236 6.118 6.051 6.011 5.986 6.621 8.261 7.341 6.328 5.906 5.906 5.926 5.933 5.948 5.951 5.951 5.908 5.886 5.876 5.823 5.773 5.771 5.751 5.753 5.758 5.771 5.726 5.713 5.651 5.593 5.511 5.431 5.356 5.291 5.203 5.126 4.976 4.848 4.758 4.636 4.508 4.403 4.366 4.346 4.356 4.348 4.353 4.383 4.381 4.421 4.671 6.011 6.013 4.988 4.898 4.976 5.076 5.153 5.308 5.423 5.553 5.676 5.756 5.836 5.968 6.011 6.078 6.141 6.203 6.248 6.313 6.343 6.391 6.431 6.461 6.486 6.483 6.506 6.551 6.556 6.568 6.588 6.596 6.576 6.601 6.593 6.601 6.598 6.588 6.598 6.573 6.533 6.538 6.563 6.556 6.546 6.531 6.516 6.526 6.496 6.473 6.426 6.408 6.401 6.368 6.346 6.316 6.283 6.873 6.803 6.093 6.163 6.181 6.163 6.098 6.073 6.058 6.001 5.918 5.916 5.878 5.811 5.788 5.803 5.801 5.733 5.701 5.701 5.653 5.621 5.623 5.621 5.573 5.558 5.511 5.473 5.466 5.481 5.448 5.398 5.361 5.353 5.353 5.286 5.196 5.133 5.073 5.018 4.956 4.928 4.811 4.723 4.641 4.561 4.491 4.413 4.323 4.248 4.151 4.083 4.013 3.911 3.748 5.256 5.828 3.693 3.436 3.228 3.273 3.978 4.641 5.101 5.358 4.923 4.336 4.253 4.336 4.468 4.603 4.718 4.868 5.053 5.271 5.446 5.646 5.851 6.098 6.273 6.428 6.603 6.786 6.923 7.051 7.163 7.293 7.401 7.498 7.586 7.683 7.798 7.878 7.943 8.011 8.058 8.091 8.146 8.188 8.221 8.251 8.293 8.328 8.363 8.383 8.378 8.381 8.428 8.438 8.451 8.443 8.481 8.496 8.501 8.499 8.506 8.529 8.539 8.491 8.679 10.719 11.284 10.784 9.441 8.684 8.656 8.646 8.636 8.639 8.641 8.619 8.631 8.639 8.631 8.636 8.651 8.621 8.601 8.604 8.609 8.596 8.606 8.604 8.546 8.981 8.624 8.591 8.461 9.301 9.299 8.861 9.556 9.919 10.524 9.639 11.621 11.366 10.431 9.824 11.114 9.619 8.286 9.654 8.571 8.416 9.176 8.666 9.541 9.329 8.416 8.411 8.501 8.489 8.531 8.519 8.481 8.469 8.449 8.419 8.386 8.316 8.281 8.254 8.151 8.109 8.041 8.014 7.954 7.894 7.804 7.766 7.706 7.639 7.604 7.536 7.499 7.441 7.369 7.306 7.244 7.166 7.096 7.041 7.031 6.974 6.921 6.874 6.786 6.739 6.694 6.594 6.529 6.494 6.421 6.399 6.364 6.299 6.226 6.144 6.034 5.899 5.749 5.674 5.814 5.726 5.616 5.631 6.839 5.544 5.394 5.229 5.161 5.131 5.056 4.984 4.944 4.889 4.831 4.786 4.759
17.875 17.778 17.703 17.603 17.468 17.353 17.27 17.143 17.063 16.973 16.885 16.79 16.708 16.618 16.565 16.47 16.36 16.28 16.188 16.08 16.053 15.975 15.9 15.818 15.72 15.633 15.545 15.49 15.415 15.325 15.238 15.185 15.118 15.068 15 14.905 14.833 14.755 14.695 14.618 14.538 14.488 14.443 14.385 14.313 14.263 14.168 14.068 13.945 13.8 13.628 13.485 13.643 13.8 12.13 12.06 12.405 13.803 13.185 12.978 12.95 12.92 12.888 12.84 12.79 12.75 12.695 12.63 12.555 12.498 12.408 12.318 12.208 12.118 12.01 11.883 11.788 11.705 11.61 11.515 11.428 11.333 11.203 11.07 10.935 10.79 10.595 10.455 10.29 10.11 9.928 9.82 9.733 9.62 9.5 9.428 9.323 9.203 9.106 8.971 8.858 8.733 8.616 8.448 8.328 8.226 8.101 7.996 7.891 7.818 7.716 7.631 7.531 7.451 7.351 7.253 7.161 7.043 6.933 6.861 6.768 6.673 6.583 6.476 6.313 6.203 6.108 6.038 5.953 5.906 6.056 6.811 7.316 6.418 5.851 5.841 5.843 5.821 5.816 5.786 5.766 5.703 5.696 5.656 5.638 5.591 5.568 5.583 5.613 5.651 5.653 5.648 5.611 5.548 5.476 5.451 5.351 5.258 5.226 5.126 5.008 4.871 4.728 4.618 4.501 4.403 4.286 4.276 4.298 4.296 4.308 4.306 4.311 4.336 4.353 4.458 5.598 5.851 5.046 4.858 4.916 5.011 5.096 5.208 5.353 5.493 5.568 5.671 5.758 5.866 5.941 5.993 6.058 6.116 6.186 6.223 6.263 6.303 6.331 6.381 6.393 6.403 6.426 6.446 6.458 6.473 6.473 6.476 6.478 6.493 6.498 6.508 6.513 6.496 6.493 6.463 6.448 6.421 6.441 6.451 6.428 6.416 6.413 6.416 6.386 6.343 6.311 6.301 6.261 6.251 6.231 6.206 6.193 6.708 8.226 9.031 6.056 6.043 6.021 5.976 5.966 5.923 5.873 5.798 5.791 5.776 5.683 5.673 5.671 5.678 5.596 5.571 5.551 5.498 5.501 5.486 5.471 5.461 5.428 5.386 5.316 5.338 5.328 5.306 5.258 5.273 5.226 5.203 5.138 5.066 4.993 4.951 4.871 4.843 4.786 4.698 4.593 4.511 4.458 4.386 4.293 4.223 4.136 4.061 3.983 3.898 3.813 4.106 5.756 4.676 3.273 3.386 3.171 3.261 3.931 4.451 4.491 4.708 4.848 4.306 4.233 4.308 4.461 4.563 4.696 4.853 5.051 5.241 5.413 5.618 5.823 6.073 6.226 6.398 6.566 6.743 6.846 6.973 7.093 7.191 7.321 7.408 7.498 7.616 7.736 7.806 7.833 7.883 7.968 7.998 8.018 8.061 8.103 8.136 8.196 8.181 8.211 8.223 8.236 8.251 8.278 8.278 8.296 8.308 8.353 8.361 8.331 8.369 8.354 8.381 8.396 8.326 8.474 10.521 11.356 10.444 8.721 8.461 8.476 8.511 8.519 8.496 8.496 8.511 8.516 8.541 8.544 8.559 8.576 8.511 8.476 8.509 8.499 8.526 8.484 8.464 8.439 8.356 8.366 8.316 8.264 8.211 8.149 8.106 8.056 7.954 7.961 8.011 8.059 8.236 8.026 8.146 8.021 9.421 7.779 8.849 7.914 8.121 9.346 8.906 10.349 10.479 9.081 8.741 9.439 9.229 9.184 8.614 8.211 8.174 8.089 8.136 8.129 8.111 8.441 8.029 8.021 8.376 7.819 7.866 7.859 7.794 7.724 7.654 7.564 7.551 7.479 7.411 7.356 7.291 7.259 7.166 7.099 7.026 7.001 6.931 6.886 6.841 6.789 6.739 6.666 6.616 6.531 6.456 6.356 6.299 6.256 6.186 6.126 6.054 5.979 5.919 5.896 6.356 5.804 5.546 6.189 6.901 5.554 5.279 6.116 6.149 5.264 5.141 5.046 5.006 4.959 4.876 4.824 4.779 4.724 4.651 4.656
17.785 17.705 17.645 17.53 17.415 17.29 17.18 17.053 16.978 16.888 16.798 16.715 16.625 16.565 16.485 16.403 16.33 16.248 16.148 16.053 16.005 15.903 15.84 15.763 15.685 15.583 15.5 15.443 15.368 15.285 15.215 15.158 15.105 14.995 14.925 14.828 14.733 14.643 14.575 14.56 14.525 14.453 14.4 14.348 14.265 14.158 14.043 13.96 13.845 13.7 13.523 13.308 13.14 14.978 12.783 11.948 12.375 13.785 13.025 12.858 12.823 12.813 12.8 12.765 12.715 12.663 12.643 12.563 12.488 12.425 12.343 12.253 12.173 12.073 11.97 11.858 11.748 11.635 11.56 11.46 11.368 11.273 11.18 11.043 10.913 10.758 10.57 10.405 10.255 10.083 9.915 9.785 9.7 9.588 9.488 9.383 9.283 9.178 9.073 8.968 8.821 8.696 8.586 8.441 8.321 8.178 8.081 7.983 7.881 7.788 7.696 7.608 7.511 7.418 7.333 7.211 7.108 6.998 6.913 6.823 6.741 6.673 6.531 6.458 6.318 6.193 6.076 5.996 5.916 5.853 5.888 6.643 7.046 6.581 5.768 5.728 5.708 5.656 5.611 5.581 5.578 5.548 5.543 5.521 5.468 5.451 5.436 5.451 5.463 5.486 5.506 5.496 5.473 5.411 5.363 5.313 5.253 5.176 5.096 5.018 4.881 4.753 4.648 4.546 4.408 4.303 4.203 4.178 4.213 4.218 4.213 4.228 4.231 4.258 4.296 4.421 5.071 5.478 4.906 4.778 4.876 4.951 5.028 5.143 5.293 5.401 5.503 5.588 5.691 5.788 5.848 5.931 5.973 6.041 6.103 6.143 6.176 6.231 6.256 6.291 6.291 6.311 6.336 6.368 6.381 6.383 6.393 6.361 6.388 6.396 6.393 6.401 6.408 6.388 6.378 6.376 6.353 6.341 6.333 6.341 6.336 6.316 6.311 6.301 6.258 6.233 6.196 6.188 6.136 6.128 6.101 6.078 8.578 13.646 16.881 17.003 9.003 5.946 5.878 5.851 5.838 5.778 5.728 5.658 5.666 5.621 5.531 5.536 5.541 5.526 5.473 5.433 5.426 5.381 5.368 5.351 5.356 5.328 5.311 5.263 5.216 5.208 5.201 5.166 5.123 5.106 5.111 5.066 4.996 4.941 4.873 4.843 4.766 4.711 4.676 4.566 4.481 4.403 4.336 4.288 4.196 4.126 4.028 3.946 3.891 3.818 3.736 4.261 3.496 3.143 3.041 3.156 3.061 3.401 4.068 4.423 4.403 4.356 4.306 4.146 4.208 4.311 4.431 4.546 4.673 4.831 5.036 5.233 5.411 5.593 5.828 6.036 6.206 6.353 6.528 6.673 6.816 6.908 7.033 7.143 7.228 7.323 7.403 7.516 7.631 7.696 7.733 7.781 7.848 7.881 7.926 7.968 7.996 8.026 8.038 8.061 8.098 8.088 8.101 8.138 8.186 8.173 8.176 8.208 8.191 8.211 8.196 8.211 8.221 8.219 8.216 8.184 8.624 10.619 11.129 9.356 8.301 8.334 8.369 8.351 8.366 8.369 8.369 8.419 8.399 8.381 8.376 8.389 8.416 8.429 8.426 8.384 8.336 8.361 8.324 8.321 8.286 8.241 8.209 8.201 8.141 8.116 8.086 8.056 8.001 7.964 7.916 7.921 7.889 7.846 7.819 7.814 7.774 7.741 7.694 7.666 7.639 7.619 7.541 7.521 7.914 9.134 10.096 10.329 10.909 9.971 9.226 7.904 7.791 9.499 8.296 8.174 8.094 8.241 10.296 10.509 11.006 11.191 9.141 7.716 8.059 8.779 7.494 7.446 7.369 7.434 7.266 7.161 7.171 7.184 7.089 7.211 6.974 6.876 6.814 6.759 6.734 6.686 6.584 6.534 6.479 6.409 6.329 6.239 6.196 6.226 6.096 6.054 5.899 5.896 5.936 5.944 8.791 7.411 5.614 5.361 5.404 6.011 6.346 5.194 5.511 6.426 5.166 5.069 4.979 4.914 4.849 4.761 4.716 4.664 4.606 4.569 4.534
17.775 17.628 17.545 17.433 17.313 17.203 17.105 16.983 16.88 16.813 16.738 16.643 16.563 16.488 16.425 16.368 16.293 16.23 16.115 16.005 15.923 15.853 15.793 15.723 15.675 15.548 15.453 15.435 15.345 15.258 15.2 15.148 15.045 14.98 14.91 14.763 14.698 14.628 14.523 14.435 14.418 14.353 14.315 14.263 14.118 14.005 13.95 13.828 13.708 13.545 13.5 13.213 13.323 16.163 13.058 11.858 12.113 13.575 13.063 12.718 12.698 12.685 12.678 12.67 12.628 12.59 12.555 12.52 12.408 12.353 12.293 12.208 12.118 12.018 11.903 11.8 11.7 11.59 11.508 11.403 11.333 11.26 11.12 11.003 10.88 10.733 10.59 10.378 10.248 10.085 9.888 9.748 9.68 9.553 9.443 9.36 9.263 9.168 9.038 8.931 8.803 8.663 8.548 8.431 8.311 8.171 8.073 7.948 7.846 7.741 7.666 7.576 7.478 7.388 7.283 7.181 7.078 6.981 6.881 6.786 6.696 6.631 6.531 6.418 6.296 6.178 6.053 5.946 5.868 5.808 5.788 5.963 6.943 6.673 5.688 5.618 5.563 5.541 5.498 5.488 5.456 5.448 5.403 5.341 5.298 5.303 5.313 5.318 5.311 5.331 5.346 5.336 5.308 5.273 5.223 5.186 5.131 5.066 5.041 4.941 4.798 4.678 4.543 4.411 4.308 4.188 4.121 4.131 4.141 4.156 4.128 4.141 4.168 4.186 4.233 4.351 5.046 5.483 4.893 4.743 4.818 4.903 4.981 5.086 5.221 5.341 5.433 5.531 5.611 5.696 5.791 5.878 5.913 5.953 6.021 6.061 6.106 6.153 6.168 6.208 6.211 6.221 6.241 6.258 6.293 6.306 6.296 6.298 6.301 6.291 6.306 6.301 6.286 6.301 6.283 6.288 6.253 6.236 6.251 6.228 6.223 6.211 6.188 6.188 6.153 6.141 6.096 6.068 6.053 6.016 5.973 5.948 15.136 15.181 16.443 18.488 10.286 5.828 5.773 5.711 5.696 5.661 5.591 5.531 5.536 5.511 5.451 5.418 5.441 5.408 5.331 5.326 5.298 5.256 5.228 5.218 5.213 5.193 5.178 5.106 5.093 5.091 5.086 5.066 5.013 4.993 4.986 4.958 4.883 4.803 4.728 4.731 4.646 4.611 4.543 4.453 4.376 4.308 4.213 4.148 4.086 4.016 3.923 3.843 3.813 3.743 3.688 7.506 3.783 3.038 3.056 3.006 2.908 3.511 4.273 4.238 4.163 4.213 4.113 4.091 4.191 4.286 4.401 4.491 4.631 4.813 5.023 5.203 5.378 5.581 5.803 5.976 6.148 6.301 6.471 6.621 6.728 6.838 6.953 7.061 7.126 7.211 7.293 7.393 7.518 7.546 7.583 7.643 7.708 7.743 7.783 7.823 7.848 7.858 7.891 7.956 7.966 7.981 7.986 7.998 8.033 8.046 8.041 8.041 8.068 8.083 8.069 8.086 8.086 8.096 8.099 8.034 8.696 9.334 8.466 8.126 8.179 8.186 8.199 8.236 8.226 8.271 8.271 8.279 8.281 8.229 8.234 8.191 8.286 8.284 8.299 8.299 8.254 8.249 8.214 8.236 8.156 8.081 8.086 8.071 8.041 7.996 7.986 7.929 7.894 7.834 7.789 7.784 7.794 7.756 7.751 7.719 7.706 7.674 7.644 7.611 7.566 7.546 7.501 7.464 7.484 7.526 7.644 7.501 8.409 8.119 7.854 9.144 8.989 11.534 10.024 8.719 9.746 10.816 11.379 9.311 9.906 8.334 9.436 8.304 8.414 10.196 7.894 8.386 7.679 9.001 9.516 8.196 8.491 8.639 7.919 7.836 7.561 7.089 6.771 6.841 6.621 6.489 6.379 6.321 6.466 6.584 6.534 7.374 7.951 8.101 7.769 6.954 5.754 5.824 5.414 5.421 6.636 5.451 5.204 5.189 5.254 5.366 6.024 5.206 5.086 6.116 5.484 4.971 4.896 4.849 4.739 4.644 4.614 4.559 4.501 4.454 4.419
17.66 17.558 17.485 17.368 17.248 17.14 17.06 16.933 16.84 16.738 16.663 16.593 16.515 16.47 16.393 16.345 16.268 16.185 16.095 16.008 15.945 15.863 15.81 15.745 15.658 15.53 15.448 15.375 15.265 15.238 15.135 15.058 14.938 14.858 14.753 14.715 14.598 14.495 14.398 14.37 15.09 14.61 14.368 14.048 13.963 13.88 13.748 13.58 13.433 13.233 14.123 13.785 18.293 15.523 11.76 11.755 11.828 13.16 12.855 12.598 12.593 12.573 12.56 12.578 12.538 12.52 12.46 12.415 12.335 12.283 12.223 12.158 12.068 11.95 11.835 11.75 11.648 11.545 11.463 11.368 11.285 11.223 11.085 10.965 10.873 10.728 10.558 10.385 10.23 10.078 9.903 9.715 9.64 9.535 9.433 9.315 9.218 9.131 9.021 8.916 8.786 8.653 8.533 8.396 8.286 8.183 8.066 7.928 7.823 7.723 7.638 7.563 7.443 7.366 7.273 7.198 7.061 6.961 6.861 6.763 6.693 6.598 6.501 6.401 6.268 6.151 6.041 5.926 5.826 5.748 5.721 5.751 6.268 6.821 5.823 5.556 5.501 5.433 5.411 5.391 5.363 5.373 5.301 5.231 5.191 5.173 5.181 5.168 5.136 5.153 5.186 5.176 5.126 5.143 5.098 5.056 5.046 4.998 4.918 4.811 4.691 4.543 4.413 4.278 4.171 4.086 4.061 4.078 4.103 4.101 4.091 4.088 4.103 4.121 4.166 4.226 5.038 5.811 4.943 4.693 4.748 4.848 4.911 4.988 5.151 5.263 5.368 5.461 5.533 5.646 5.728 5.783 5.846 5.896 5.928 5.981 6.036 6.063 6.096 6.116 6.121 6.148 6.176 6.163 6.201 6.233 6.221 6.218 6.191 6.203 6.211 6.206 6.196 6.178 6.176 6.163 6.133 6.138 6.146 6.108 6.116 6.101 6.081 6.076 6.028 5.983 5.983 5.933 5.926 5.891 5.856 5.813 10.511 15.376 17.466 11.611 5.666 5.701 5.643 5.596 5.596 5.531 5.483 5.443 5.416 5.388 5.331 5.313 5.308 5.288 5.218 5.181 5.171 5.123 5.101 5.116 5.091 5.098 5.066 4.998 4.981 4.978 4.988 4.908 4.898 4.883 4.878 4.853 4.783 4.673 4.626 4.608 4.538 4.498 4.448 4.351 4.263 4.181 4.106 4.036 3.981 3.898 3.831 3.776 3.731 3.673 3.681 4.818 4.638 5.253 3.228 2.946 2.898 3.346 4.448 4.528 4.393 4.276 3.981 4.023 4.111 4.226 4.326 4.438 4.578 4.751 4.973 5.163 5.346 5.536 5.741 5.936 6.081 6.253 6.411 6.556 6.653 6.763 6.878 6.976 7.068 7.111 7.193 7.291 7.383 7.398 7.473 7.543 7.571 7.596 7.661 7.688 7.683 7.726 7.743 7.778 7.791 7.801 7.808 7.856 7.888 7.916 7.913 7.936 7.926 7.953 7.934 7.966 7.969 7.959 7.911 7.884 9.271 10.999 8.059 7.994 8.054 8.056 8.071 8.084 8.111 8.156 8.136 8.139 8.119 8.076 8.084 8.079 8.051 8.121 8.159 8.149 8.146 8.116 8.099 8.109 8.011 7.936 7.944 7.926 7.899 7.874 7.864 7.819 7.784 7.721 7.671 7.661 7.704 7.679 7.659 7.629 7.576 7.536 7.519 7.496 7.479 7.451 7.434 7.409 7.381 7.406 7.371 7.326 7.331 7.264 7.259 7.226 7.169 7.126 7.819 7.046 7.554 8.604 9.976 9.556 7.186 9.316 11.766 9.496 7.551 9.309 9.006 10.424 9.029 9.886 10.239 9.694 9.836 9.614 9.094 8.874 9.254 9.246 7.606 8.914 10.271 7.966 6.946 6.334 7.179 7.551 6.961 7.246 6.759 6.776 6.371 5.689 5.166 5.136 5.031 5.029 5.026 5.039 5.086 5.096 5.056 5.126 5.794 5.846 4.899 5.436 5.971 4.809 4.769 4.714 4.631 4.536 4.491 4.444 4.391 4.331 4.279
17.598 17.46 17.388 17.31 17.188 17.075 16.99 16.88 16.795 16.733 16.64 16.57 16.495 16.458 16.39 16.343 16.233 16.148 16.083 15.963 15.86 15.835 15.773 15.693 15.618 15.528 15.388 15.285 15.205 15.265 15.078 14.908 14.815 14.688 14.59 14.608 14.51 14.575 14.193 14.653 16.21 15.555 14.59 14.253 13.708 13.465 13.205 13.06 12.913 12.838 13.898 13.218 13.92 13.028 11.728 11.603 11.595 13.033 12.678 12.493 12.473 12.475 12.47 12.453 12.44 12.398 12.385 12.328 12.258 12.205 12.145 12.068 12.013 11.888 11.808 11.7 11.593 11.508 11.395 11.308 11.213 11.145 11.055 10.94 10.835 10.703 10.548 10.378 10.208 10.05 9.9 9.703 9.588 9.523 9.405 9.28 9.198 9.096 8.986 8.881 8.763 8.658 8.521 8.378 8.268 8.151 8.043 7.921 7.798 7.681 7.608 7.558 7.441 7.331 7.256 7.151 7.048 6.953 6.843 6.748 6.638 6.566 6.471 6.361 6.253 6.133 6.018 5.893 5.806 5.706 5.651 5.638 5.751 6.793 6.411 5.471 5.456 5.376 5.351 5.323 5.306 5.281 5.213 5.163 5.098 5.031 5.011 4.976 4.976 4.981 5.013 4.998 4.998 5.008 4.978 4.976 4.958 4.878 4.781 4.668 4.543 4.406 4.278 4.173 4.083 4.018 3.966 3.978 4.018 4.026 4.026 4.036 4.033 4.068 4.083 4.146 4.828 5.506 4.978 4.611 4.706 4.781 4.851 4.943 5.073 5.206 5.298 5.368 5.471 5.573 5.641 5.706 5.766 5.828 5.866 5.898 5.948 6.006 6.031 6.048 6.053 6.076 6.096 6.113 6.121 6.146 6.128 6.123 6.098 6.111 6.126 6.111 6.103 6.098 6.086 6.063 6.056 6.043 6.033 6.016 6.023 6.006 5.968 5.961 5.931 5.886 5.853 5.811 5.801 5.768 5.743 5.718 5.801 6.971 8.058 5.523 5.536 5.563 5.501 5.501 5.483 5.428 5.388 5.351 5.331 5.263 5.208 5.183 5.196 5.161 5.091 5.066 5.053 5.006 4.968 4.971 4.966 4.948 4.921 4.888 4.833 4.863 4.858 4.808 4.781 4.761 4.761 4.736 4.668 4.591 4.531 4.506 4.408 4.393 4.336 4.251 4.156 4.083 4.003 3.938 3.886 3.841 3.743 3.711 3.646 3.601 4.593 4.138 3.763 5.258 3.436 2.881 2.916 3.183 5.033 4.618 4.368 4.126 3.946 3.996 4.101 4.203 4.308 4.403 4.546 4.743 4.946 5.126 5.311 5.508 5.706 5.893 6.018 6.173 6.351 6.486 6.573 6.701 6.798 6.886 6.956 7.018 7.101 7.193 7.276 7.293 7.341 7.416 7.453 7.488 7.546 7.566 7.588 7.596 7.628 7.661 7.656 7.671 7.666 7.703 7.731 7.728 7.748 7.758 7.776 7.791 7.796 7.796 7.801 7.789 7.739 7.709 7.861 11.139 7.956 7.841 7.846 7.849 7.911 7.941 7.964 8.011 7.986 7.966 7.949 7.931 7.941 7.906 7.896 7.959 8.004 7.974 7.981 7.976 7.976 7.941 7.854 7.796 7.796 7.761 7.736 7.731 7.706 7.681 7.636 7.596 7.571 7.536 7.551 7.546 7.516 7.496 7.461 7.421 7.376 7.364 7.366 7.331 7.329 7.274 7.266 7.301 7.236 7.216 7.211 7.159 7.124 7.126 7.094 7.131 6.989 6.956 6.929 6.904 6.834 6.769 6.764 7.624 7.729 7.539 6.646 7.306 10.441 10.699 7.819 7.751 8.061 7.919 7.634 6.311 6.784 7.886 8.596 8.579 7.031 7.914 9.406 8.286 6.296 5.649 6.311 6.651 5.921 5.721 5.251 5.149 5.101 5.076 5.049 4.999 5.049 4.951 4.974 4.994 5.021 5.011 4.919 4.934 5.201 5.846 4.819 4.914 5.749 4.721 4.621 4.569 4.496 4.434 4.364 4.326 4.259 4.224 4.196
17.883 17.343 17.3 17.253 17.16 17.063 16.968 16.893 16.803 16.72 16.608 16.513 16.46 16.398 16.373 16.305 16.188 16.085 15.99 15.873 15.81 15.735 15.71 15.63 15.553 15.405 15.33 15.265 15.185 15.33 15.078 14.763 15.103 14.88 15.175 15.34 16.298 17.025 14.503 13.955 13.78 14.423 13.673 13.24 13.123 13.073 13.053 13.073 13.07 12.955 12.94 12.878 13.2 13.41 11.638 11.493 11.418 13.25 12.74 12.393 12.373 12.378 12.375 12.365 12.348 12.32 12.293 12.228 12.173 12.13 12.045 12.01 11.923 11.82 11.748 11.638 11.548 11.433 11.34 11.255 11.165 11.09 11.005 10.9 10.798 10.69 10.51 10.348 10.2 10.03 9.898 9.725 9.558 9.48 9.383 9.255 9.183 9.073 8.968 8.856 8.768 8.636 8.541 8.391 8.253 8.143 8.026 7.896 7.798 7.678 7.588 7.518 7.426 7.311 7.233 7.128 7.033 6.936 6.841 6.728 6.618 6.551 6.451 6.353 6.238 6.106 5.983 5.856 5.763 5.648 5.606 5.581 5.556 6.946 6.491 5.461 5.376 5.313 5.251 5.201 5.188 5.121 5.046 5.006 4.971 4.918 4.846 4.818 4.801 4.838 4.848 4.858 4.861 4.883 4.858 4.858 4.831 4.753 4.661 4.543 4.443 4.316 4.201 4.086 3.993 3.921 3.911 3.923 3.926 3.928 3.938 3.973 3.961 3.976 3.998 4.078 4.653 5.846 5.088 4.576 4.651 4.723 4.803 4.878 4.991 5.141 5.223 5.316 5.388 5.501 5.588 5.638 5.696 5.748 5.798 5.826 5.863 5.921 5.943 5.973 6.003 5.998 5.986 6.018 6.031 6.033 6.028 6.026 6.018 6.018 6.018 5.991 5.996 5.968 5.961 5.941 5.951 5.926 5.918 5.901 5.878 5.878 5.873 5.828 5.798 5.776 5.743 5.711 5.693 5.648 5.611 5.603 5.828 7.146 6.111 5.393 5.421 5.438 5.401 5.396 5.373 5.318 5.253 5.216 5.213 5.153 5.091 5.046 5.066 5.031 4.971 4.938 4.913 4.886 4.843 4.871 4.851 4.843 4.821 4.763 4.713 4.746 4.731 4.683 4.676 4.648 4.641 4.611 4.546 4.456 4.426 4.373 4.311 4.293 4.238 4.126 4.063 3.961 3.896 3.876 3.808 3.743 3.671 3.618 3.596 3.501 4.578 3.146 4.138 5.536 3.236 2.771 2.878 3.316 4.188 4.361 4.251 4.106 3.926 3.968 4.061 4.173 4.278 4.396 4.541 4.711 4.913 5.096 5.281 5.463 5.646 5.808 5.978 6.106 6.256 6.381 6.476 6.591 6.696 6.796 6.861 6.923 7.026 7.098 7.178 7.176 7.248 7.306 7.326 7.351 7.396 7.438 7.471 7.461 7.491 7.523 7.523 7.526 7.531 7.568 7.581 7.583 7.601 7.591 7.611 7.636 7.616 7.611 7.624 7.629 7.526 7.529 8.596 9.659 8.334 7.679 7.706 7.724 7.751 7.781 7.799 7.816 7.794 7.821 7.816 7.799 7.779 7.751 7.751 7.729 7.746 7.754 7.759 7.744 7.749 7.724 7.664 7.636 7.869 7.621 7.594 7.589 7.579 7.564 7.524 7.471 7.436 7.421 7.426 7.421 7.389 7.359 7.326 7.286 7.244 7.226 7.199 7.196 7.186 7.171 7.139 7.144 7.096 7.066 7.049 7.004 6.981 6.949 6.941 6.916 6.884 6.859 6.819 6.779 6.734 6.651 6.634 6.591 6.586 6.544 6.461 6.371 6.694 6.286 6.164 6.131 6.104 6.011 6.004 5.989 5.979 5.961 5.899 5.831 5.811 5.751 5.921 5.699 5.581 5.716 7.771 8.159 5.899 5.156 5.106 5.079 5.056 5.034 5.014 4.961 5.164 4.889 4.904 4.919 4.876 4.876 4.809 4.779 4.846 5.599 5.324 4.694 5.334 5.476 4.494 4.416 4.386 4.319 4.279 4.226 4.154 4.139 4.099
17.723 17.245 17.275 17.253 17.155 17.038 16.953 16.82 16.76 16.68 16.588 16.49 16.43 16.348 16.288 16.223 16.115 16.033 15.905 15.848 15.698 15.69 15.633 15.593 15.5 15.325 15.28 15.133 15.033 15.008 15.05 14.563 14.948 14.308 14.503 13.968 14.32 13.833 13.77 13.668 13.548 13.51 13.413 13.318 13.238 13.178 13.135 13.035 12.95 12.948 12.905 12.81 12.78 13.42 11.633 11.318 11.318 12.923 12.728 12.323 12.28 12.273 12.248 12.26 12.228 12.228 12.203 12.15 12.09 12.04 11.963 11.91 11.85 11.755 11.668 11.56 11.445 11.373 11.27 11.198 11.1 11.028 10.945 10.848 10.743 10.638 10.488 10.34 10.178 9.993 9.858 9.71 9.538 9.453 9.358 9.248 9.143 9.033 8.951 8.843 8.738 8.613 8.503 8.383 8.243 8.123 8.026 7.883 7.771 7.673 7.583 7.508 7.413 7.293 7.216 7.126 7.018 6.921 6.828 6.703 6.598 6.516 6.431 6.318 6.208 6.083 5.933 5.846 5.706 5.606 5.541 5.496 5.511 6.288 6.301 5.513 5.283 5.218 5.151 5.073 5.046 4.966 4.913 4.871 4.858 4.798 4.743 4.673 4.656 4.676 4.703 4.728 4.736 4.768 4.788 4.758 4.708 4.638 4.546 4.433 4.338 4.203 4.103 3.988 3.908 3.833 3.813 3.821 3.833 3.841 3.881 3.896 3.898 3.901 3.926 4.011 4.446 5.711 4.968 4.508 4.601 4.671 4.711 4.828 4.958 5.068 5.156 5.243 5.316 5.403 5.506 5.568 5.628 5.678 5.708 5.756 5.798 5.831 5.858 5.898 5.886 5.896 5.916 5.931 5.928 5.941 5.948 5.921 5.908 5.898 5.911 5.886 5.896 5.891 5.886 5.838 5.811 5.821 5.811 5.801 5.783 5.781 5.758 5.736 5.716 5.671 5.638 5.616 5.581 5.533 5.508 5.483 5.816 6.413 5.868 5.311 5.321 5.318 5.298 5.281 5.268 5.193 5.136 5.088 5.088 5.018 4.958 4.931 4.946 4.881 4.856 4.811 4.813 4.768 4.741 4.746 4.743 4.718 4.708 4.651 4.611 4.613 4.608 4.586 4.553 4.558 4.533 4.488 4.446 4.323 4.316 4.268 4.213 4.183 4.133 4.046 3.978 3.896 3.808 3.798 3.746 3.681 3.611 3.556 3.533 3.388 4.796 4.831 5.181 3.606 2.706 2.718 2.953 3.601 4.201 4.058 4.108 4.133 3.873 3.938 4.026 4.133 4.246 4.376 4.506 4.698 4.861 5.058 5.208 5.426 5.616 5.781 5.901 6.053 6.183 6.306 6.383 6.491 6.606 6.676 6.728 6.803 6.881 6.978 7.018 7.051 7.086 7.126 7.168 7.196 7.223 7.273 7.288 7.306 7.333 7.366 7.361 7.368 7.378 7.401 7.423 7.421 7.446 7.441 7.458 7.466 7.451 7.476 7.474 7.439 7.371 7.634 9.234 7.816 7.544 7.516 7.554 7.544 7.556 7.589 7.629 7.649 7.651 7.641 7.634 7.634 7.584 7.596 7.561 7.571 7.631 7.604 7.596 7.581 7.576 7.536 7.429 7.439 7.439 7.431 7.426 7.406 7.389 7.379 7.364 7.309 7.309 7.286 7.276 7.279 7.261 7.236 7.209 7.151 7.109 7.084 7.064 7.071 7.056 7.011 6.989 6.994 6.939 6.909 6.896 6.864 6.826 6.796 6.801 6.746 6.751 6.714 6.651 6.626 6.604 6.541 6.514 6.464 6.414 6.399 6.351 6.284 6.231 6.169 6.129 6.096 6.049 5.969 5.959 5.931 5.889 5.884 5.846 5.804 5.766 5.714 5.644 5.566 5.489 5.509 7.344 8.199 6.356 5.111 5.024 5.006 4.971 4.969 4.934 4.899 4.866 4.754 4.751 4.779 4.734 4.724 4.706 4.611 4.689 5.241 5.591 4.584 4.859 5.686 4.446 4.401 4.326 4.256 4.186 4.126 4.044 4.026 3.996
17.668 17.358 17.283 17.248 17.155 17.038 16.933 16.83 16.688 16.585 16.515 16.39 16.305 16.263 16.203 16.135 16.075 16 15.87 15.693 15.638 15.548 15.463 15.415 15.208 15.05 14.888 14.745 14.693 14.62 14.68 14.48 14.738 14.725 13.95 13.808 13.718 13.668 13.58 13.513 13.455 13.433 13.385 13.28 13.185 13.133 13.055 12.968 12.948 12.935 12.84 12.795 12.67 13.098 11.758 11.218 11.21 12.175 12.785 12.235 12.195 12.175 12.168 12.165 12.128 12.123 12.095 12.043 11.993 11.923 11.853 11.785 11.745 11.66 11.588 11.473 11.385 11.293 11.205 11.13 11.038 10.965 10.888 10.798 10.698 10.583 10.44 10.283 10.14 9.98 9.843 9.698 9.535 9.403 9.328 9.208 9.126 9.023 8.938 8.841 8.748 8.613 8.508 8.388 8.236 8.113 8.008 7.893 7.761 7.648 7.571 7.483 7.411 7.296 7.183 7.101 7.008 6.891 6.793 6.693 6.578 6.488 6.396 6.276 6.173 6.063 5.933 5.813 5.686 5.583 5.496 5.436 5.441 5.521 6.358 5.981 5.226 5.188 5.136 5.063 4.996 4.928 4.856 4.826 4.766 4.696 4.633 4.601 4.543 4.573 4.596 4.628 4.661 4.666 4.638 4.611 4.561 4.501 4.438 4.311 4.213 4.088 3.996 3.898 3.793 3.738 3.751 3.756 3.771 3.768 3.801 3.801 3.823 3.861 3.873 3.966 4.413 5.618 5.308 4.481 4.541 4.598 4.656 4.766 4.868 5.008 5.088 5.183 5.266 5.318 5.433 5.493 5.543 5.601 5.623 5.658 5.711 5.748 5.773 5.788 5.818 5.831 5.816 5.836 5.823 5.841 5.851 5.828 5.818 5.806 5.818 5.788 5.806 5.778 5.768 5.726 5.726 5.706 5.706 5.708 5.673 5.658 5.648 5.616 5.598 5.586 5.548 5.533 5.488 5.436 5.406 5.391 5.606 7.041 6.113 5.188 5.231 5.226 5.201 5.188 5.156 5.091 5.038 4.963 4.958 4.898 4.833 4.821 4.808 4.778 4.728 4.701 4.706 4.661 4.628 4.638 4.638 4.623 4.588 4.531 4.506 4.521 4.503 4.466 4.433 4.433 4.438 4.396 4.363 4.238 4.191 4.146 4.083 4.073 4.033 3.951 3.893 3.806 3.736 3.708 3.673 3.618 3.558 3.498 3.433 3.336 3.508 3.651 3.408 2.721 2.653 2.726 2.821 3.383 4.178 4.398 4.476 4.361 3.916 3.926 3.978 4.078 4.183 4.313 4.466 4.658 4.828 4.981 5.168 5.396 5.536 5.688 5.856 5.983 6.118 6.211 6.303 6.421 6.503 6.573 6.641 6.703 6.768 6.843 6.868 6.898 6.948 6.978 7.011 7.026 7.078 7.123 7.123 7.151 7.176 7.196 7.193 7.201 7.213 7.233 7.263 7.238 7.278 7.283 7.303 7.286 7.274 7.281 7.309 7.281 7.201 7.246 9.611 7.439 7.346 7.399 7.376 7.361 7.344 7.416 7.421 7.446 7.476 7.494 7.466 7.429 7.439 7.421 7.381 7.404 7.466 7.436 7.411 7.421 7.439 7.339 7.251 7.239 7.259 7.256 7.261 7.246 7.246 7.221 7.194 7.174 7.149 7.144 7.134 7.114 7.111 7.086 7.071 7.024 6.979 6.956 6.946 6.914 6.886 6.879 6.881 6.866 6.811 6.789 6.774 6.724 6.674 6.654 6.669 6.649 6.589 6.586 6.566 6.511 6.479 6.411 6.369 6.344 6.299 6.279 6.236 6.164 6.136 6.071 6.039 6.016 5.924 5.849 5.856 5.824 5.789 5.741 5.711 5.666 5.649 5.624 5.534 5.504 5.411 5.294 6.524 8.156 7.164 5.309 4.989 4.961 4.914 4.851 4.814 4.776 4.709 4.636 4.624 4.629 4.576 4.574 4.571 4.504 4.516 4.726 5.381 4.494 4.466 5.459 4.464 4.319 4.214 4.161 4.094 4.021 3.954 3.931 3.901
18.153 17.478 17.258 17.188 17.08 16.95 16.82 16.71 16.64 16.513 16.435 16.315 16.293 16.233 16.38 16.333 16.27 15.953 15.625 15.45 15.29 15.203 15.145 15.07 14.99 14.898 14.808 14.733 14.65 14.583 14.6 14.63 14.96 15.23 13.94 13.843 13.695 13.65 13.515 13.398 13.335 13.27 13.21 13.153 13.09 13.005 12.975 12.935 12.918 12.895 12.82 12.728 12.64 13.393 12.14 11.188 11.158 11.788 12.998 12.16 12.093 12.095 12.06 12.07 12.048 12.003 11.98 11.935 11.883 11.855 11.76 11.698 11.64 11.573 11.493 11.383 11.308 11.198 11.123 11.04 10.948 10.885 10.79 10.735 10.645 10.525 10.403 10.258 10.118 9.958 9.828 9.688 9.528 9.353 9.295 9.193 9.088 9.003 8.911 8.828 8.726 8.593 8.486 8.386 8.231 8.108 7.993 7.878 7.746 7.661 7.543 7.461 7.376 7.271 7.181 7.088 6.993 6.886 6.761 6.661 6.566 6.451 6.371 6.281 6.153 6.041 5.893 5.771 5.686 5.561 5.468 5.423 5.398 5.383 6.091 6.288 5.221 5.158 5.103 5.013 4.968 4.901 4.831 4.783 4.703 4.616 4.548 4.528 4.471 4.483 4.531 4.556 4.548 4.536 4.523 4.471 4.441 4.376 4.298 4.213 4.096 3.961 3.891 3.793 3.716 3.656 3.691 3.686 3.708 3.733 3.746 3.748 3.766 3.786 3.808 3.883 4.363 5.488 4.978 4.403 4.488 4.563 4.611 4.708 4.833 4.941 5.028 5.143 5.178 5.243 5.358 5.416 5.458 5.536 5.568 5.578 5.636 5.663 5.703 5.696 5.723 5.721 5.721 5.731 5.753 5.756 5.763 5.743 5.721 5.718 5.708 5.706 5.696 5.688 5.688 5.643 5.636 5.606 5.623 5.588 5.581 5.563 5.556 5.538 5.496 5.488 5.433 5.426 5.391 5.336 5.336 5.288 5.496 6.998 6.656 5.261 5.131 5.126 5.078 5.071 5.036 4.961 4.883 4.853 4.856 4.768 4.713 4.711 4.708 4.681 4.601 4.586 4.596 4.556 4.518 4.531 4.526 4.503 4.468 4.421 4.418 4.418 4.408 4.371 4.336 4.343 4.316 4.276 4.246 4.151 4.113 4.061 4.008 4.003 3.948 3.851 3.801 3.741 3.676 3.633 3.598 3.553 3.498 3.446 3.346 3.336 4.851 4.813 2.761 2.656 2.603 2.693 2.741 3.753 4.586 4.953 4.761 4.321 3.776 3.851 3.918 3.988 4.121 4.261 4.426 4.613 4.801 4.948 5.121 5.318 5.481 5.608 5.786 5.918 6.051 6.153 6.231 6.343 6.416 6.491 6.528 6.606 6.681 6.746 6.776 6.776 6.833 6.858 6.878 6.918 6.948 6.966 6.966 7.008 7.031 7.021 7.048 7.051 7.068 7.063 7.096 7.088 7.101 7.103 7.131 7.141 7.126 7.121 7.126 7.106 7.036 7.126 7.301 7.499 7.194 7.244 7.219 7.209 7.229 7.246 7.261 7.259 7.301 7.269 7.284 7.236 7.216 7.254 7.226 7.229 7.294 7.284 7.236 7.219 7.241 7.179 7.109 7.101 7.109 7.099 7.086 7.099 7.066 7.059 7.034 7.009 6.994 6.981 6.991 6.976 6.969 6.954 6.926 6.881 6.849 6.809 6.799 6.784 6.766 6.761 6.749 6.706 6.646 6.609 6.606 6.586 6.541 6.511 6.519 6.476 6.464 6.464 6.441 6.399 6.341 6.274 6.254 6.219 6.176 6.151 6.104 6.024 5.986 5.941 5.916 5.879 5.786 5.711 5.691 5.674 5.661 5.636 5.586 5.504 5.461 5.481 5.411 5.366 5.306 5.189 5.674 6.581 5.679 4.896 4.779 4.714 4.701 4.719 4.679 4.634 4.564 4.469 4.471 4.481 4.439 4.406 4.411 4.389 4.376 4.491 5.151 4.811 4.371 4.801 4.871 4.176 4.114 4.071 3.999 3.921 3.876 3.836 3.811
17.718 17.85 17.195 17.07 16.968 16.873 16.77 16.678 16.578 16.435 16.43 16.478 17.053 16 16.15 15.955 15.873 15.578 15.443 15.405 16.125 15.533 15.165 15.08 14.995 14.893 14.805 14.693 14.58 14.508 14.463 14.865 14.873 15.525 13.89 13.778 13.618 13.508 13.385 13.29 13.233 13.203 13.12 13.053 13.05 12.995 12.948 12.908 12.87 12.825 12.745 12.668 12.633 13.383 13.675 11.37 11.045 11.288 12.763 12.373 12.008 11.995 11.955 11.96 11.923 11.888 11.863 11.84 11.763 11.738 11.683 11.595 11.54 11.483 11.408 11.308 11.228 11.135 11.045 10.965 10.883 10.82 10.728 10.673 10.58 10.453 10.348 10.235 10.078 9.928 9.788 9.665 9.535 9.368 9.25 9.203 9.086 9.001 8.903 8.811 8.711 8.598 8.468 8.378 8.241 8.096 7.973 7.878 7.741 7.648 7.523 7.443 7.361 7.243 7.156 7.078 6.983 6.878 6.743 6.661 6.531 6.428 6.338 6.241 6.133 6.028 5.898 5.776 5.663 5.546 5.431 5.376 5.333 5.331 5.643 6.281 5.216 5.138 5.051 4.966 4.918 4.841 4.778 4.696 4.616 4.556 4.486 4.451 4.383 4.391 4.463 4.458 4.431 4.433 4.383 4.366 4.306 4.241 4.183 4.088 3.978 3.878 3.761 3.688 3.613 3.581 3.616 3.651 3.638 3.661 3.693 3.688 3.713 3.733 3.748 3.811 4.151 5.403 5.056 4.383 4.446 4.513 4.556 4.656 4.748 4.871 4.946 5.048 5.101 5.178 5.281 5.338 5.396 5.461 5.491 5.528 5.556 5.588 5.633 5.621 5.653 5.616 5.626 5.648 5.663 5.663 5.678 5.658 5.626 5.628 5.611 5.616 5.596 5.586 5.571 5.546 5.546 5.518 5.516 5.508 5.471 5.473 5.458 5.431 5.418 5.381 5.371 5.346 5.311 5.253 5.233 5.191 5.753 7.128 7.201 5.716 5.023 5.003 4.978 4.956 4.931 4.851 4.783 4.748 4.721 4.658 4.606 4.581 4.606 4.576 4.516 4.473 4.473 4.441 4.416 4.448 4.431 4.411 4.381 4.311 4.313 4.293 4.308 4.258 4.233 4.241 4.221 4.186 4.136 4.068 4.023 3.978 3.936 3.928 3.866 3.796 3.728 3.658 3.588 3.576 3.538 3.526 3.418 3.373 3.261 3.608 5.201 5.283 2.926 2.756 2.578 2.666 2.971 3.906 4.593 4.851 4.561 3.941 3.701 3.781 3.863 3.926 4.038 4.181 4.348 4.536 4.718 4.868 5.048 5.233 5.396 5.546 5.688 5.858 5.988 6.081 6.171 6.263 6.338 6.386 6.463 6.516 6.556 6.633 6.666 6.703 6.733 6.761 6.783 6.811 6.833 6.876 6.863 6.881 6.926 6.916 6.911 6.918 6.928 6.951 6.938 6.921 6.963 6.976 6.986 6.983 6.966 6.959 6.979 6.954 6.886 7.424 7.856 7.794 7.041 7.054 7.051 7.066 7.084 7.084 7.129 7.111 7.126 7.129 7.091 7.126 7.056 7.099 7.106 7.106 7.139 7.119 7.091 7.061 7.036 6.959 6.949 6.981 6.989 6.956 6.959 6.969 6.951 6.929 6.914 6.879 6.859 6.864 6.849 6.826 6.849 6.851 6.801 6.759 6.711 6.674 6.636 6.649 6.636 6.609 6.591 6.561 6.509 6.469 6.446 6.461 6.384 6.354 6.339 6.301 6.304 6.319 6.301 6.239 6.221 6.159 6.126 6.084 6.034 5.991 5.936 5.879 5.834 5.771 5.759 5.719 5.659 5.574 5.556 5.549 5.519 5.514 5.451 5.366 5.326 5.336 5.274 5.221 5.136 5.084 4.971 4.879 4.769 4.704 4.651 4.599 4.566 4.574 4.549 4.486 4.429 4.341 4.321 4.346 4.284 4.281 4.294 4.244 4.226 4.299 4.661 5.244 4.264 4.389 5.506 4.109 3.994 3.956 3.936 3.864 3.796 3.746 3.741
18.708 17.803 17.07 17.035 16.858 16.768 16.97 16.663 16.683 16.49 16.125 16.215 16.055 15.858 15.79 15.685 15.675 15.598 15.6 16.19 15.25 15.223 15.128 15.055 14.96 14.875 14.773 14.63 14.51 14.44 14.345 14.375 14.055 14.385 13.765 13.675 13.475 13.363 13.265 13.205 13.145 13.093 13.043 13.013 12.993 12.99 12.92 12.85 12.83 12.75 12.678 12.613 12.573 12.913 13.763 11.695 10.938 10.988 12.11 12.433 11.905 11.853 11.84 11.84 11.81 11.77 11.745 11.73 11.65 11.615 11.54 11.483 11.43 11.388 11.293 11.215 11.143 11.06 10.965 10.885 10.803 10.753 10.66 10.578 10.503 10.408 10.3 10.178 10.03 9.875 9.75 9.628 9.498 9.368 9.213 9.165 9.063 8.961 8.861 8.786 8.686 8.571 8.473 8.346 8.226 8.093 7.963 7.871 7.748 7.646 7.536 7.436 7.353 7.241 7.141 7.041 6.981 6.861 6.768 6.643 6.511 6.406 6.326 6.241 6.123 6.016 5.898 5.761 5.641 5.513 5.418 5.348 5.293 5.303 5.466 6.678 5.871 5.106 5.013 4.921 4.836 4.798 4.736 4.631 4.566 4.471 4.411 4.383 4.326 4.316 4.338 4.318 4.288 4.288 4.266 4.238 4.201 4.146 4.076 3.983 3.871 3.758 3.658 3.596 3.563 3.546 3.571 3.576 3.596 3.601 3.636 3.661 3.658 3.661 3.701 3.746 3.983 5.451 5.091 4.338 4.378 4.448 4.496 4.596 4.681 4.793 4.893 4.961 5.026 5.098 5.221 5.273 5.328 5.378 5.413 5.438 5.473 5.516 5.538 5.546 5.568 5.558 5.563 5.568 5.566 5.588 5.578 5.571 5.543 5.523 5.536 5.521 5.516 5.506 5.473 5.448 5.471 5.426 5.428 5.423 5.383 5.373 5.376 5.358 5.318 5.281 5.266 5.253 5.226 5.191 5.141 5.111 5.741 7.286 7.013 5.561 4.923 4.888 4.858 4.836 4.798 4.733 4.651 4.633 4.611 4.546 4.498 4.473 4.483 4.453 4.396 4.373 4.353 4.318 4.316 4.333 4.316 4.328 4.283 4.216 4.213 4.216 4.186 4.176 4.153 4.166 4.136 4.088 4.033 3.968 3.953 3.903 3.858 3.846 3.766 3.713 3.651 3.593 3.523 3.513 3.463 3.416 3.353 3.298 3.143 3.831 5.086 4.548 3.066 2.681 2.503 2.623 2.878 3.878 5.031 4.981 4.461 3.766 3.633 3.738 3.806 3.868 4.001 4.118 4.286 4.456 4.633 4.798 4.971 5.156 5.321 5.458 5.596 5.748 5.868 5.971 6.053 6.153 6.233 6.281 6.336 6.403 6.473 6.551 6.551 6.603 6.628 6.636 6.673 6.686 6.721 6.741 6.758 6.771 6.781 6.793 6.791 6.778 6.813 6.823 6.811 6.803 6.801 6.816 6.833 6.811 6.784 6.786 6.799 6.789 6.746 6.911 8.751 7.821 6.899 6.926 6.909 6.889 6.931 6.969 7.006 6.991 6.964 6.986 6.966 6.984 6.954 6.996 6.976 6.936 6.994 7.006 6.946 6.916 6.874 6.809 6.804 6.801 6.819 6.824 6.811 6.836 6.814 6.776 6.764 6.739 6.691 6.704 6.706 6.716 6.726 6.701 6.679 6.619 6.579 6.554 6.529 6.521 6.489 6.461 6.426 6.394 6.351 6.301 6.291 6.279 6.241 6.194 6.164 6.151 6.124 6.126 6.136 6.089 6.049 6.001 5.954 5.924 5.876 5.839 5.776 5.729 5.691 5.631 5.594 5.586 5.499 5.444 5.429 5.391 5.391 5.381 5.314 5.251 5.179 5.179 5.114 5.046 4.994 4.929 4.849 4.759 4.689 4.584 4.526 4.456 4.406 4.401 4.386 4.334 4.299 4.206 4.171 4.201 4.164 4.124 4.139 4.131 4.111 4.106 4.276 5.471 4.201 4.104 5.389 4.201 3.911 3.856 3.829 3.791 3.694 3.641 3.651
17.683 17.048 16.808 16.77 16.63 16.565 16.485 16.298 16.24 16.14 16.03 15.958 15.885 15.818 15.743 15.64 15.555 15.555 15.575 16.038 15.783 15.118 15.055 14.983 14.883 14.785 14.678 14.573 14.445 14.335 14.245 14.073 13.98 13.82 13.71 13.563 13.383 13.285 13.193 13.13 13.095 13.025 12.985 12.98 12.99 12.958 12.901 12.823 12.743 12.693 12.613 12.513 12.443 12.443 13.138 12.083 10.861 10.901 11.493 12.588 11.831 11.738 11.718 11.711 11.691 11.656 11.646 11.596 11.546 11.511 11.461 11.386 11.318 11.261 11.198 11.118 11.043 10.971 10.866 10.806 10.746 10.658 10.593 10.498 10.431 10.343 10.216 10.111 10.001 9.856 9.706 9.606 9.478 9.351 9.193 9.113 9.033 8.943 8.861 8.768 8.686 8.568 8.453 8.348 8.213 8.068 7.953 7.856 7.723 7.641 7.516 7.413 7.313 7.231 7.133 7.033 6.958 6.858 6.746 6.618 6.503 6.401 6.303 6.196 6.101 6.001 5.876 5.758 5.651 5.523 5.416 5.318 5.271 5.226 5.246 6.611 6.263 5.063 4.961 4.888 4.816 4.726 4.671 4.593 4.526 4.441 4.388 4.331 4.253 4.213 4.223 4.208 4.183 4.158 4.148 4.126 4.088 4.026 3.943 3.856 3.748 3.651 3.566 3.516 3.503 3.491 3.518 3.533 3.553 3.586 3.578 3.586 3.613 3.611 3.651 3.681 3.863 4.863 4.863 4.403 4.318 4.408 4.466 4.531 4.638 4.756 4.821 4.901 4.991 5.053 5.131 5.193 5.268 5.306 5.338 5.373 5.376 5.436 5.438 5.458 5.481 5.468 5.476 5.501 5.493 5.486 5.511 5.478 5.438 5.456 5.458 5.433 5.406 5.393 5.381 5.363 5.351 5.338 5.351 5.336 5.303 5.311 5.268 5.253 5.243 5.203 5.183 5.166 5.138 5.106 5.058 5.041 5.896 7.461 5.936 4.856 4.811 4.801 4.743 4.731 4.678 4.618 4.558 4.528 4.513 4.436 4.386 4.373 4.371 4.333 4.296 4.278 4.278 4.223 4.218 4.233 4.226 4.221 4.191 4.138 4.126 4.123 4.098 4.078 4.071 4.083 4.076 4.028 3.938 3.878 3.878 3.828 3.801 3.773 3.693 3.646 3.566 3.491 3.448 3.433 3.393 3.348 3.278 3.183 2.956 3.016 3.518 3.433 2.878 2.603 2.491 2.576 3.013 4.288 4.436 4.258 4.054 3.484 3.574 3.696 3.756 3.816 3.926 4.059 4.236 4.396 4.559 4.729 4.906 5.094 5.241 5.349 5.516 5.654 5.749 5.861 5.949 6.041 6.114 6.161 6.199 6.269 6.351 6.396 6.426 6.466 6.519 6.514 6.544 6.566 6.604 6.606 6.609 6.636 6.681 6.686 6.664 6.666 6.681 6.671 6.689 6.669 6.689 6.721 6.684 6.681 6.659 6.691 6.679 6.666 6.631 6.736 7.116 6.779 6.714 6.749 6.709 6.711 6.751 6.801 6.839 6.861 6.856 6.824 6.816 6.816 6.776 6.824 6.796 6.796 6.796 6.839 6.809 6.744 6.701 6.649 6.601 6.629 6.659 6.654 6.646 6.659 6.626 6.626 6.616 6.566 6.544 6.559 6.569 6.544 6.574 6.531 6.526 6.484 6.436 6.399 6.384 6.369 6.339 6.301 6.281 6.251 6.226 6.174 6.164 6.154 6.121 6.074 6.034 5.994 5.991 5.994 5.964 5.929 5.904 5.826 5.806 5.781 5.754 5.689 5.666 5.586 5.546 5.484 5.471 5.436 5.376 5.316 5.299 5.264 5.226 5.226 5.181 5.099 5.031 5.039 4.981 4.914 4.864 4.791 4.711 4.719 4.554 4.471 4.394 4.316 4.241 4.259 4.254 4.216 4.179 4.094 4.034 4.054 3.999 3.986 4.004 4.011 3.994 3.974 4.054 5.056 4.309 4.046 4.776 4.471 3.806 3.761 3.734 3.686 3.634 3.596 3.579
17.085 16.93 16.705 16.555 16.45 16.373 16.26 16.22 16.163 16.113 16.033 15.96 15.878 15.775 15.725 15.608 15.555 15.448 15.383 15.438 15.678 15.09 15.003 14.938 14.82 14.72 14.633 14.483 14.35 14.235 14.113 14.01 13.968 13.958 13.91 13.473 13.328 13.21 13.125 13.035 13.015 12.96 12.935 12.918 12.905 12.89 12.826 12.753 12.673 12.651 12.541 12.458 12.378 12.301 12.626 12.651 11.073 10.753 10.761 12.096 11.726 11.651 11.583 11.571 11.576 11.543 11.518 11.476 11.431 11.393 11.361 11.273 11.218 11.166 11.108 11.023 10.971 10.878 10.768 10.711 10.656 10.563 10.526 10.433 10.361 10.273 10.171 10.081 9.956 9.806 9.681 9.568 9.446 9.331 9.193 9.078 8.996 8.893 8.836 8.748 8.628 8.538 8.423 8.336 8.203 8.063 7.941 7.851 7.711 7.628 7.506 7.388 7.288 7.221 7.118 7.041 6.938 6.846 6.741 6.608 6.503 6.398 6.278 6.208 6.103 5.986 5.881 5.746 5.618 5.531 5.423 5.303 5.233 5.193 5.171 5.916 6.283 5.433 4.941 4.841 4.768 4.693 4.646 4.563 4.488 4.381 4.321 4.288 4.223 4.123 4.126 4.108 4.091 4.046 4.036 3.998 3.958 3.903 3.806 3.748 3.638 3.541 3.481 3.453 3.431 3.436 3.466 3.453 3.476 3.486 3.516 3.508 3.548 3.588 3.611 3.648 3.808 4.978 5.198 4.263 4.266 4.318 4.396 4.488 4.588 4.673 4.771 4.851 4.921 4.983 5.068 5.118 5.178 5.233 5.261 5.273 5.318 5.363 5.356 5.386 5.396 5.408 5.406 5.396 5.408 5.428 5.438 5.401 5.366 5.381 5.378 5.363 5.331 5.331 5.318 5.283 5.263 5.263 5.258 5.246 5.226 5.211 5.173 5.171 5.153 5.113 5.101 5.093 5.048 5.026 5.001 4.968 5.758 7.428 4.696 4.691 4.698 4.676 4.651 4.651 4.621 4.548 4.488 4.481 4.426 4.353 4.298 4.286 4.311 4.241 4.193 4.208 4.193 4.151 4.161 4.158 4.148 4.138 4.098 4.066 4.063 4.056 4.016 4.013 4.003 3.988 3.966 3.951 3.861 3.813 3.776 3.726 3.693 3.691 3.596 3.543 3.491 3.403 3.358 3.356 3.328 3.298 3.196 3.086 3.036 3.131 3.431 3.246 2.811 2.493 2.413 2.581 3.636 4.676 4.518 4.311 3.636 3.429 3.549 3.606 3.691 3.776 3.876 4.039 4.176 4.334 4.504 4.669 4.819 5.011 5.171 5.266 5.429 5.566 5.671 5.759 5.851 5.939 6.004 6.041 6.091 6.141 6.214 6.264 6.284 6.314 6.354 6.344 6.384 6.414 6.459 6.484 6.476 6.481 6.519 6.529 6.506 6.506 6.556 6.554 6.549 6.561 6.556 6.551 6.546 6.519 6.514 6.539 6.534 6.506 6.481 8.794 7.004 6.574 6.539 6.586 6.549 6.549 6.589 6.636 6.654 6.696 6.716 6.741 6.624 6.611 6.626 6.606 6.609 6.619 6.586 6.586 6.556 6.549 6.496 6.424 6.421 6.436 6.449 6.449 6.464 6.474 6.454 6.431 6.391 6.391 6.386 6.376 6.394 6.381 6.401 6.381 6.366 6.324 6.276 6.239 6.229 6.214 6.186 6.154 6.126 6.109 6.081 6.061 6.024 6.021 5.984 5.926 5.884 5.866 5.846 5.851 5.804 5.776 5.776 5.711 5.644 5.656 5.621 5.579 5.521 5.476 5.436 5.354 5.344 5.309 5.279 5.199 5.189 5.144 5.099 5.084 5.051 4.964 4.904 4.896 4.859 4.771 4.736 4.661 4.571 4.636 4.474 4.329 4.271 4.184 4.144 4.154 4.139 4.099 4.061 3.974 3.926 3.921 3.871 3.846 3.874 3.879 3.891 3.829 3.874 4.179 5.036 3.941 4.024 5.274 3.876 3.679 3.636 3.594 3.546 3.526 3.509
16.963 16.845 16.703 16.575 16.475 16.383 16.295 16.205 16.15 16.078 16.005 15.91 15.823 15.725 15.66 15.533 15.453 15.328 15.258 15.268 15.465 15.01 14.935 14.845 14.745 14.625 14.505 14.375 14.218 14.103 13.993 13.873 13.8 13.93 14.308 13.59 13.333 13.14 13.073 13.015 12.933 12.883 12.848 12.83 12.788 12.755 12.703 12.661 12.596 12.578 12.548 12.451 12.378 12.291 12.216 12.848 11.256 10.623 10.621 11.441 12.011 11.546 11.483 11.456 11.458 11.413 11.388 11.361 11.311 11.263 11.241 11.171 11.096 11.071 11.008 10.931 10.843 10.761 10.678 10.628 10.573 10.483 10.423 10.358 10.273 10.201 10.121 10.036 9.901 9.771 9.628 9.526 9.403 9.278 9.163 9.016 8.976 8.866 8.753 8.693 8.606 8.508 8.386 8.303 8.203 8.078 7.921 7.818 7.721 7.606 7.473 7.371 7.276 7.196 7.101 7.011 6.906 6.826 6.718 6.606 6.493 6.391 6.278 6.183 6.098 5.993 5.888 5.761 5.626 5.513 5.413 5.283 5.223 5.163 5.128 5.231 6.173 5.996 4.911 4.801 4.733 4.666 4.598 4.526 4.443 4.351 4.281 4.246 4.168 4.091 4.026 3.998 3.953 3.893 3.883 3.831 3.813 3.768 3.713 3.641 3.538 3.471 3.411 3.368 3.358 3.376 3.393 3.408 3.413 3.413 3.423 3.431 3.491 3.523 3.561 3.593 3.761 4.783 5.271 4.343 4.213 4.306 4.338 4.418 4.513 4.611 4.703 4.778 4.858 4.931 4.981 5.043 5.116 5.153 5.186 5.216 5.268 5.281 5.316 5.333 5.321 5.336 5.351 5.326 5.321 5.348 5.353 5.323 5.316 5.301 5.306 5.291 5.266 5.241 5.243 5.221 5.193 5.203 5.198 5.173 5.136 5.143 5.108 5.088 5.073 5.056 5.031 4.993 4.983 4.951 4.948 4.898 5.588 7.886 5.111 4.616 4.633 4.608 4.571 4.563 4.531 4.451 4.406 4.383 4.348 4.278 4.203 4.203 4.208 4.166 4.106 4.136 4.116 4.071 4.076 4.061 4.058 4.046 3.998 3.973 3.966 3.973 3.956 3.911 3.908 3.906 3.886 3.856 3.778 3.721 3.688 3.641 3.626 3.603 3.526 3.468 3.411 3.318 3.281 3.288 3.266 3.221 3.136 3.003 4.901 4.691 4.003 3.418 2.681 2.421 2.436 2.618 4.916 5.853 5.433 4.588 3.426 3.379 3.494 3.544 3.611 3.714 3.811 3.961 4.111 4.249 4.434 4.589 4.746 4.946 5.079 5.179 5.334 5.476 5.561 5.651 5.726 5.809 5.891 5.924 5.964 6.029 6.114 6.161 6.161 6.201 6.219 6.229 6.274 6.294 6.296 6.336 6.351 6.346 6.379 6.384 6.361 6.379 6.406 6.411 6.404 6.411 6.421 6.439 6.436 6.411 6.419 6.431 6.406 6.361 6.349 7.996 8.734 6.414 6.381 6.366 6.376 6.394 6.391 6.406 6.466 6.491 6.531 6.476 6.476 6.414 6.444 6.446 6.419 6.426 6.414 6.391 6.349 6.324 6.286 6.241 6.209 6.246 6.256 6.249 6.266 6.276 6.261 6.241 6.226 6.206 6.191 6.206 6.191 6.184 6.206 6.221 6.186 6.146 6.106 6.079 6.071 6.041 6.011 5.979 5.961 5.939 5.909 5.891 5.874 5.864 5.829 5.766 5.724 5.721 5.691 5.691 5.656 5.634 5.649 5.591 5.541 5.511 5.481 5.471 5.404 5.354 5.314 5.239 5.211 5.211 5.144 5.104 5.051 5.006 4.959 4.936 4.901 4.844 4.754 4.771 4.689 4.619 4.599 4.524 4.466 4.446 4.399 4.226 4.131 4.091 4.034 4.006 4.009 3.984 3.936 3.819 3.786 3.779 3.726 3.714 3.746 3.741 3.734 3.704 3.724 3.834 5.156 4.039 3.874 5.106 4.061 3.616 3.541 3.496 3.469 3.471 3.459
16.93 16.805 16.668 16.563 16.438 16.353 16.24 16.165 16.07 16.003 15.898 15.788 15.693 15.613 15.543 15.435 15.345 15.263 15.165 15.098 15.43 15.07 14.9 14.77 14.655 14.558 14.408 14.273 14.125 13.983 13.855 13.703 13.62 13.565 13.758 13.28 13.153 13.033 12.995 12.955 12.873 12.833 12.79 12.728 12.713 12.68 12.608 12.583 12.556 12.528 12.523 12.453 12.378 12.343 12.186 12.111 11.366 10.501 10.503 10.988 12.296 11.418 11.351 11.301 11.293 11.298 11.296 11.261 11.206 11.166 11.116 11.061 11.008 10.946 10.888 10.823 10.748 10.681 10.593 10.536 10.481 10.401 10.333 10.298 10.211 10.158 10.071 9.991 9.863 9.741 9.603 9.491 9.373 9.266 9.123 8.986 8.888 8.818 8.708 8.641 8.568 8.501 8.366 8.293 8.183 8.053 7.921 7.813 7.703 7.591 7.471 7.378 7.276 7.176 7.098 7.008 6.901 6.831 6.723 6.621 6.501 6.393 6.308 6.188 6.096 5.996 5.893 5.786 5.638 5.513 5.398 5.271 5.203 5.128 5.106 5.103 6.361 6.003 4.851 4.796 4.711 4.598 4.533 4.471 4.391 4.321 4.256 4.193 4.133 4.076 3.941 3.898 3.831 3.791 3.776 3.738 3.708 3.646 3.578 3.516 3.443 3.378 3.311 3.311 3.303 3.348 3.353 3.336 3.358 3.368 3.381 3.401 3.431 3.473 3.486 3.533 3.688 4.498 5.063 4.393 4.158 4.231 4.293 4.373 4.461 4.571 4.678 4.726 4.791 4.853 4.926 4.978 5.053 5.093 5.141 5.151 5.183 5.231 5.246 5.276 5.273 5.268 5.281 5.256 5.283 5.283 5.273 5.271 5.236 5.228 5.238 5.203 5.206 5.203 5.161 5.158 5.123 5.123 5.126 5.091 5.076 5.093 5.041 5.026 5.001 4.973 4.943 4.916 4.923 4.861 4.858 4.821 5.878 7.228 4.463 4.506 4.546 4.531 4.488 4.503 4.458 4.383 4.331 4.296 4.251 4.183 4.111 4.128 4.133 4.063 4.021 4.031 4.011 3.978 3.958 3.973 3.958 3.956 3.933 3.883 3.891 3.883 3.858 3.846 3.836 3.838 3.821 3.793 3.696 3.651 3.621 3.548 3.541 3.511 3.448 3.378 3.328 3.253 3.208 3.208 3.206 3.151 3.063 3.073 4.213 3.956 3.531 3.316 2.798 2.408 2.408 2.856 4.911 6.016 5.596 4.511 3.421 3.296 3.424 3.451 3.536 3.641 3.716 3.874 4.034 4.174 4.341 4.491 4.654 4.846 4.986 5.086 5.221 5.336 5.436 5.509 5.619 5.684 5.769 5.829 5.854 5.894 6.006 6.029 6.024 6.054 6.099 6.099 6.124 6.181 6.191 6.189 6.204 6.201 6.231 6.246 6.221 6.239 6.269 6.236 6.279 6.269 6.269 6.286 6.274 6.259 6.274 6.289 6.256 6.181 6.481 9.161 9.276 6.786 6.251 6.216 6.269 6.219 6.271 6.249 6.316 6.286 6.314 6.296 6.269 6.276 6.291 6.256 6.209 6.189 6.189 6.166 6.161 6.134 6.074 6.041 6.014 6.036 6.059 6.056 6.081 6.074 6.076 6.054 6.036 6.031 6.001 6.006 5.999 5.991 5.994 6.019 5.991 5.951 5.924 5.909 5.866 5.849 5.836 5.799 5.771 5.746 5.736 5.704 5.709 5.669 5.649 5.584 5.581 5.544 5.516 5.519 5.511 5.489 5.479 5.426 5.386 5.374 5.366 5.331 5.269 5.219 5.166 5.104 5.094 5.069 5.026 4.971 4.921 4.874 4.824 4.794 4.771 4.716 4.619 4.629 4.586 4.509 4.456 4.391 4.344 4.274 4.246 4.084 4.026 3.949 3.891 3.884 3.899 3.849 3.791 3.714 3.651 3.629 3.611 3.601 3.621 3.619 3.644 3.594 3.586 3.701 4.694 4.189 3.751 4.206 4.286 3.504 3.474 3.404 3.434 3.404 3.399
16.85 16.718 16.613 16.485 16.365 16.253 16.138 16.055 15.955 15.863 15.79 15.703 15.605 15.51 15.445 15.368 15.273 15.175 15.06 14.968 15.203 15.055 14.795 14.68 14.563 14.418 14.288 14.125 13.988 13.853 13.673 13.53 13.418 13.273 13.15 13.053 12.97 12.905 12.875 12.838 12.768 12.745 12.673 12.643 12.643 12.638 12.606 12.551 12.546 12.511 12.616 12.441 12.336 12.318 12.181 12.058 11.876 10.503 10.356 10.443 11.723 11.406 11.241 11.188 11.193 11.178 11.176 11.131 11.078 11.061 10.996 10.958 10.908 10.841 10.783 10.736 10.673 10.596 10.531 10.458 10.391 10.326 10.266 10.211 10.128 10.088 10.006 9.901 9.816 9.693 9.571 9.443 9.333 9.203 9.093 8.963 8.818 8.786 8.673 8.581 8.513 8.446 8.356 8.256 8.141 8.033 7.898 7.788 7.691 7.581 7.478 7.336 7.248 7.156 7.078 6.978 6.896 6.808 6.718 6.606 6.491 6.401 6.278 6.186 6.076 5.976 5.893 5.778 5.661 5.543 5.398 5.281 5.173 5.096 5.043 5.021 6.186 6.176 4.851 4.693 4.628 4.543 4.486 4.428 4.361 4.283 4.196 4.161 4.116 4.026 3.886 3.846 3.791 3.728 3.683 3.651 3.573 3.521 3.468 3.421 3.348 3.303 3.256 3.246 3.256 3.291 3.283 3.261 3.278 3.303 3.303 3.321 3.346 3.393 3.451 3.471 3.596 4.208 4.761 4.413 4.096 4.148 4.238 4.316 4.403 4.526 4.631 4.666 4.741 4.816 4.863 4.926 4.983 5.036 5.088 5.093 5.158 5.176 5.198 5.198 5.218 5.213 5.213 5.206 5.206 5.226 5.226 5.208 5.188 5.176 5.173 5.156 5.151 5.128 5.096 5.078 5.043 5.043 5.038 5.021 4.998 5.006 4.976 4.943 4.906 4.901 4.868 4.851 4.831 4.806 4.783 4.743 5.533 6.401 4.523 4.413 4.453 4.448 4.396 4.403 4.361 4.281 4.218 4.196 4.136 4.098 4.028 4.041 4.041 3.983 3.941 3.966 3.921 3.891 3.891 3.888 3.876 3.871 3.851 3.823 3.811 3.813 3.766 3.738 3.738 3.743 3.741 3.676 3.603 3.546 3.531 3.466 3.478 3.433 3.376 3.333 3.263 3.191 3.146 3.133 3.133 3.098 2.983 2.941 3.633 3.791 3.741 3.298 2.543 2.363 2.368 2.898 4.081 4.913 4.486 3.776 3.171 3.274 3.406 3.454 3.491 3.614 3.684 3.809 3.961 4.091 4.259 4.409 4.566 4.726 4.871 4.971 5.096 5.251 5.329 5.404 5.491 5.574 5.641 5.674 5.744 5.779 5.861 5.906 5.894 5.916 5.966 5.956 5.991 6.016 6.036 6.064 6.081 6.081 6.111 6.106 6.081 6.104 6.151 6.146 6.121 6.126 6.136 6.141 6.124 6.096 6.109 6.124 6.079 6.031 6.964 9.141 9.174 6.441 6.119 6.096 6.159 6.094 6.086 6.119 6.129 6.116 6.111 6.114 6.139 6.124 6.096 6.084 6.074 6.021 6.011 6.001 5.976 5.944 5.846 5.849 5.831 5.816 5.829 5.829 5.841 5.874 5.876 5.849 5.829 5.841 5.796 5.829 5.796 5.784 5.811 5.804 5.799 5.769 5.751 5.714 5.706 5.674 5.651 5.611 5.616 5.579 5.546 5.529 5.516 5.496 5.496 5.439 5.394 5.376 5.354 5.364 5.354 5.334 5.356 5.289 5.239 5.214 5.204 5.166 5.124 5.064 5.016 4.974 4.959 4.941 4.899 4.854 4.794 4.726 4.716 4.671 4.639 4.571 4.484 4.489 4.434 4.369 4.324 4.246 4.191 4.134 4.104 3.986 3.896 3.819 3.776 3.741 3.734 3.711 3.676 3.581 3.541 3.534 3.509 3.481 3.509 3.511 3.511 3.509 3.469 3.529 4.229 4.319 3.711 3.729 4.741 3.536 3.386 3.414 3.404 3.339 3.341
