ncols 443
nrows 32
xllcorner    459040
yllcorner    90080
cellsize     2
NODATA_value -9999
25.482 25.44 26.357 25.72 25.412 25.27 25.345 25.25 26.875 27.082 27.125 25.25 25.055 24.93 24.905 24.8 24.72 24.667 24.59 24.565 24.545 24.517 24.492 24.457 24.417 24.407 24.352 24.307 24.275 24.27 24.162 24.075 24.05 23.962 23.922 23.89 23.892 23.837 23.755 23.752 23.725 23.67 23.627 23.612 23.585 23.5 23.462 23.447 23.42 23.327 23.317 23.292 23.24 23.192 23.195 23.15 23.075 23.057 22.987 22.935 22.92 22.9 22.825 22.797 22.77 22.722 22.667 22.655 22.61 22.55 22.535 22.487 22.402 22.315 22.33 22.257 22.182 22.18 22.14 22.05 21.977 21.952 21.887 21.817 21.78 21.742 21.627 21.605 21.607 21.487 21.482 21.44 21.452 21.425 21.36 21.297 21.185 21.017 20.892 20.847 21.205 22.285 20.892 20.735 20.712 20.67 20.71 20.685 20.667 20.705 20.765 20.767 20.787 20.792 20.742 20.68 20.675 20.66 20.662 20.632 20.632 20.607 20.625 20.617 20.64 20.677 20.58 20.545 20.517 20.467 20.427 20.45 20.442 20.38 20.442 20.482 20.477 20.435 20.362 20.325 20.327 20.23 20.235 20.177 20.195 20.19 20.192 20.167 20.02 20.012 19.947 19.972 19.96 19.94 19.91 19.85 19.875 19.845 19.8 19.732 19.715 19.637 19.59 19.51 19.472 19.442 19.357 19.295 19.295 19.25 19.187 19.11 19.08 19.062 19.012 18.952 18.92 18.91 18.845 18.792 18.732 18.717 18.637 18.545 18.455 18.432 18.39 18.327 18.317 18.3 18.272 18.322 21.215 22.315 18.687 18.072 17.977 17.94 17.825 17.882 17.92 17.815 17.597 17.542 17.377 17.345 17.342 17.275 17.21 17.197 17.085 16.98 16.94 16.882 16.925 16.765 16.725 16.732 16.672 16.6 16.6 16.575 16.557 16.51 16.422 16.345 16.287 16.232 16.2 16.122 16.03 15.965 15.877 15.805 15.702 15.64 15.56 15.485 15.377 15.33 15.217 15.152 15.102 15.085 15.025 15.107 15.622 15.362 14.847 14.69 14.345 14.542 14.702 14.925 16.072 15.515 14.68 14.747 14.82 14.83 14.917 14.992 14.92 14.945 15.002 14.877 18.937 24.825 22.8 23.39 14.547 14.667 19.902 21.132 13.997 13.56 13.557 13.49 14.22 17.225 16.305 14.825 15.227 15.61 15.795 16.062 16.332 16.34 16.117 15.582 15.085 14.685 14.4 14.222 14.417 15.86 13.955 13.88 14.377 16.925 14.41 14.31 13.715 14.002 13.682 13.505 13.475 13.55 13.417 13.43 13.645 13.597 13.63 13.55 13.54 13.467 13.202 13.262 13.41 12.915 12.802 13.657 13.087 12.882 13.695 12.937 12.832 12.787 14.38 12.702 15.707 12.4 15.525 24.955 28.802 19.89 27.755 15.937 15.482 21.217 12.68 13.025 14.972 14.392 13.775 14.397 15.997 15.7 14.765 14.662 14.647 14.75 15.09 19.267 22.332 21.905 17.242 14.695 14.267 14.365 14.195 15.035 14.407 14.697 14.57 14.5 14.555 14.67 14.717 14.855 14.987 14.525 14.365 14.322 14.525 14.552 14.337 14.942 15.16 14.6 13.88 13.817 13.937 13.802 14.945 15.565 13.395 14.772 14.25 13.785 13.617 14.475 15.632 13.73 14.4 14.207 14.322 14.157 14.167 15.952 15.837 14.555 14.562 14.682 14.8 14.94 15.05 15.142 15.242 15.292 15.38 15.48 15.575 15.665 15.755 15.812 15.892 15.955 16.022 16.077 16.195 16.297 16.34 16.957 16.862 16.725 16.745 16.925 17.045 17.355 17.645 17.682 17.755 17.895 17.915 18.527 20.352 20.052 19.505 20.095 19.775 26.037 23.322
25.555 25.532 26.355 25.792 25.487 25.362 25.365 25.29 27.082 26.375 26.815 25.812 25.732 25.662 25.605 25.52 25.342 25.19 25.035 24.757 24.642 24.58 24.545 24.515 24.465 24.467 24.425 24.35 24.315 24.28 24.19 24.105 24.097 24.02 23.982 23.96 23.935 23.87 23.82 23.812 23.765 23.722 23.672 23.662 23.642 23.545 23.507 23.512 23.462 23.387 23.38 23.327 23.287 23.245 23.267 23.21 23.14 23.105 23.045 22.997 22.967 22.972 22.877 22.87 22.835 22.772 22.727 22.702 22.665 22.597 22.59 22.54 22.495 22.412 22.407 22.335 22.265 22.242 22.205 22.135 22.07 22.04 21.945 21.887 21.86 21.81 21.715 21.665 21.652 21.565 21.572 21.507 21.515 21.477 21.43 21.312 21.2 21.035 20.945 20.902 21.65 22.407 20.885 20.805 20.772 20.755 20.772 20.77 20.745 20.77 20.837 20.845 20.862 20.845 20.792 20.73 20.71 20.707 20.712 20.705 20.687 20.695 20.667 20.66 20.655 20.675 20.61 20.6 20.577 20.525 20.49 20.495 20.487 20.465 20.48 20.532 20.515 20.47 20.382 20.385 20.327 20.285 20.305 20.232 20.2 20.19 20.175 20.12 20.052 20.045 19.955 20.04 20.04 19.99 19.957 19.9 19.88 19.822 19.767 19.727 19.705 19.642 19.565 19.517 19.492 19.447 19.37 19.32 19.317 19.282 19.225 19.147 19.115 19.085 19.047 18.995 18.96 18.917 18.872 18.825 18.755 18.697 18.617 18.535 18.465 18.44 18.43 18.387 18.35 18.315 18.62 18.792 19.012 18.502 18.132 17.947 17.9 17.91 17.8 17.792 17.732 17.672 17.512 17.595 17.355 17.3 17.307 17.222 17.155 17.135 17.067 16.975 16.977 16.855 16.83 16.757 16.732 16.7 16.68 16.625 16.602 16.552 16.532 16.542 16.415 16.402 16.25 16.21 16.157 16.095 16.03 15.992 15.895 15.845 15.72 15.69 15.58 15.527 15.39 15.34 15.255 15.19 15.125 15.062 15.015 14.967 15.002 16.195 15.527 14.755 15.02 15.317 14.69 14.745 14.755 14.63 14.585 14.525 14.625 14.717 14.752 14.78 14.825 14.772 15.107 14.747 18.387 22.14 20.967 20.142 15.467 16.342 14.287 15.335 14.097 13.392 13.345 13.352 19.462 19.017 14.725 15.117 15.565 15.835 16.08 16.367 16.36 16.172 15.617 15.082 14.547 14.312 16.257 13.975 14.255 15.912 18.58 13.655 13.727 15.23 13.772 13.47 13.592 14.077 13.45 13.297 13.192 13.242 13.197 13.285 13.425 13.342 13.355 13.44 13.47 13.402 13.112 13.515 13.242 12.652 12.722 12.99 13.33 13.027 12.925 12.797 12.875 14.172 15.71 12.735 15.28 13.057 14.152 22.277 22.522 23.412 17.952 12.82 13.022 13.43 13.495 18.042 14.967 15.55 17.007 14.405 14.807 14.77 14.665 14.622 14.697 14.75 14.81 15.08 18.832 23.017 22.625 18.792 14.742 14.53 14.59 14.392 14.262 14.542 14.705 14.685 14.812 14.842 14.985 14.682 14.467 15.12 14.432 14.442 14.417 14.412 14.365 15.14 14.93 14.517 14 13.887 14.417 14.362 14.59 14.58 15.965 16.042 14.137 13.855 14.6 15.255 15.86 13.95 14.802 14.152 14.322 14.265 14.275 16.265 16.147 14.562 14.495 14.615 14.732 14.845 14.945 15.055 15.177 15.252 15.335 15.465 15.532 15.645 15.735 15.827 15.885 15.972 16.035 16.065 16.182 16.29 16.317 17.307 17.01 16.697 16.767 16.832 17.08 18.32 17.42 17.5 18.495 18.672 17.887 18.577 24.267 20.677 18.352 18.502 19.68 25.985 20.337
25.625 25.605 26.395 25.672 25.51 25.442 25.44 25.387 26.62 26.505 26.102 25.85 25.907 25.91 25.875 25.887 25.825 25.752 25.64 24.96 24.67 24.592 24.577 24.545 24.495 24.465 24.435 24.392 24.365 24.337 24.282 24.237 24.182 24.13 24.057 24.042 24.015 23.915 23.862 23.862 23.8 23.76 23.697 23.695 23.66 23.565 23.55 23.545 23.49 23.45 23.442 23.365 23.325 23.32 23.297 23.24 23.192 23.157 23.092 23.035 23.037 23.032 22.94 22.93 22.905 22.842 22.805 22.807 22.725 22.68 22.665 22.637 22.562 22.515 22.485 22.402 22.355 22.327 22.257 22.192 22.137 22.137 22.025 21.99 21.972 21.91 21.777 21.792 21.725 21.655 21.65 21.595 21.615 21.545 21.482 21.352 21.265 21.102 21.025 21.207 22.522 22.632 20.975 20.875 20.86 20.83 20.845 20.837 20.84 20.877 20.912 20.892 20.89 20.925 20.867 20.82 20.785 20.802 20.782 20.76 20.755 20.747 20.74 20.732 20.727 20.752 20.672 20.645 20.645 20.61 20.51 20.522 20.55 20.497 20.515 20.545 20.532 20.5 20.44 20.427 20.387 20.315 20.365 20.257 20.21 20.207 20.275 20.187 20.092 20.087 20.032 20.057 20.017 19.982 19.937 19.89 19.855 19.82 19.76 19.725 19.717 19.657 19.575 19.54 19.51 19.46 19.392 19.37 19.325 19.267 19.187 19.122 19.09 19.077 19.042 19.002 18.982 18.91 18.872 18.825 18.755 18.697 18.665 18.58 18.53 18.485 18.46 18.415 18.697 19.607 20.17 19.62 18.26 18.137 17.975 17.992 17.987 17.922 17.737 17.685 17.602 17.592 17.49 17.597 17.407 17.285 17.252 17.172 17.112 17.055 16.98 16.927 16.9 16.815 16.81 16.745 16.722 16.737 16.737 16.665 16.59 16.54 16.495 16.457 16.387 16.325 16.207 16.165 16.127 16.067 16.047 16.002 15.945 15.88 15.747 15.677 15.622 15.56 15.465 15.377 15.257 15.197 15.137 15.075 15.012 14.937 14.882 15.31 14.967 14.972 15.067 14.48 16.562 16.617 14.717 14.515 14.45 14.345 14.487 14.59 14.59 14.637 14.737 14.64 14.657 14.605 14.835 18.172 19.865 14.435 18.522 18.81 14.585 14.172 13.462 13.235 13.142 15.527 19.187 15.915 14.97 15.427 15.83 16.087 16.37 16.362 16.175 15.747 15.157 14.47 14.305 14.38 14.072 13.945 14.327 15.925 13.745 13.48 13.345 13.292 13.26 13.542 13.475 13.302 13.237 13.185 13.172 13.625 13.432 13.057 13.187 13.165 13.235 13.335 13.467 13.275 13.06 13.397 14.41 15.207 12.77 12.437 13.722 15.802 12.755 13.765 12.71 12.597 12.332 12.627 12.777 13.105 16.432 23.897 22.825 14.075 12.68 12.937 13.405 12.89 20.08 20.552 16.115 21.495 16.705 15.51 14.947 14.89 14.745 14.71 14.752 14.825 14.865 14.945 15.012 15.057 15.287 17.052 16.09 16.56 15.512 14.37 14.28 14.3 14.432 15.407 21.782 14.787 14.757 14.592 14.585 15.075 15.407 14.412 14.88 16.502 14.535 14.872 14.192 14.11 14.012 13.91 14.105 13.772 15.1 16.207 17.54 14.56 15.377 13.897 14.647 14.75 15.127 13.127 14.852 14.1 14.322 14.33 14.22 15.287 15.912 14.62 14.407 14.535 14.652 14.767 14.887 14.995 15.11 15.227 15.305 15.432 15.53 15.637 15.707 15.8 15.882 15.98 16.037 16.03 16.107 16.212 16.265 16.822 17.425 16.912 16.685 16.725 16.94 17.105 17.342 17.49 17.67 17.775 17.882 18.002 18.132 18.79 21.287 19.35 18.607 20.915 25.457
25.682 25.84 26.635 25.622 25.515 25.495 25.48 25.502 26.922 26.257 25.307 25.342 25.42 25.512 25.59 25.652 25.682 25.675 25.505 24.882 24.682 24.605 24.592 24.547 24.532 24.487 24.44 24.397 24.362 24.322 24.252 24.217 24.162 24.165 24.092 24.092 24.075 23.972 23.957 23.937 23.897 23.852 23.802 23.777 23.72 23.65 23.635 23.607 23.52 23.495 23.487 23.412 23.39 23.367 23.342 23.29 23.257 23.222 23.157 23.117 23.112 23.077 23.01 22.997 22.965 22.927 22.855 22.867 22.805 22.757 22.727 22.707 22.617 22.577 22.545 22.452 22.417 22.382 22.357 22.247 22.215 22.172 22.1 22.065 22.012 21.955 21.872 21.855 21.775 21.722 21.712 21.67 21.675 21.587 21.557 21.435 21.317 21.18 21.11 21.297 22.775 22.837 21.047 20.975 20.952 20.925 20.932 20.935 20.925 20.945 20.977 20.962 20.99 20.985 20.95 20.89 20.852 20.875 20.842 20.842 20.83 20.822 20.807 20.81 20.84 20.815 20.69 20.692 20.662 20.62 20.585 20.56 20.58 20.55 20.582 20.6 20.582 20.547 20.505 20.497 20.442 20.357 20.347 20.315 20.28 20.285 20.287 20.227 20.142 20.097 20.087 20.102 20.072 20.012 19.955 19.91 19.89 19.867 19.8 19.747 19.715 19.665 19.61 19.555 19.527 19.46 19.4 19.36 19.332 19.287 19.195 19.137 19.11 19.08 19.032 19.007 18.967 18.922 18.895 18.837 18.777 18.72 18.65 18.592 18.54 18.515 18.455 19.035 20.015 20.882 20.002 18.76 18.157 18.017 17.972 17.925 17.97 17.9 17.82 17.722 17.665 17.605 17.5 17.507 17.407 17.265 17.207 17.075 17.04 16.965 17.077 16.907 16.822 16.752 16.77 16.735 16.73 16.72 16.795 16.622 16.635 16.5 16.44 16.435 16.355 16.332 16.207 16.18 16.115 16.112 16.065 16.005 15.947 15.912 15.862 15.697 15.615 15.57 15.475 15.382 15.29 15.207 15.132 15.037 14.962 14.927 14.867 14.772 14.777 14.955 15.082 14.5 17.302 18.107 14.747 14.402 14.435 14.337 14.335 15.225 14.467 14.575 14.547 14.565 14.512 14.537 14.457 14.33 14.297 14.862 17.772 14.597 13.685 13.682 13.4 14.022 14.39 14.512 15.055 14.922 15.357 15.785 16.08 16.372 16.38 16.222 15.795 15.227 14.47 14.207 15.027 14.29 13.987 13.925 13.697 13.477 13.447 13.357 13.312 13.39 13.215 13.297 13.535 13.345 13.11 13.042 13.895 12.962 13.012 15.737 13.04 13.17 15.68 13.165 13.147 13.047 12.912 12.785 12.752 12.937 12.69 14.107 12.255 13.42 14.627 14.582 13.99 12.602 12.015 12.57 12.712 13.352 14.455 14.05 16.21 12.582 12.602 12.727 13.35 15.49 16.695 13.817 18.052 24.19 15.72 14.795 14.777 14.872 14.77 14.802 14.837 14.87 14.915 14.92 14.975 14.997 15.11 15.112 16.415 19.057 15.485 15.012 14.837 14.495 14.412 16.532 18.202 14.725 14.685 14.627 14.602 15.485 15.217 14.925 20.077 17.89 16.455 15.065 14.502 14.302 14.047 13.925 14.4 14.312 13.767 14.205 15.282 19.14 17.447 14.492 14.802 14.972 15.692 15.762 15.665 13.952 14.31 14.355 14.23 15.987 15.94 14.557 14.31 14.487 14.602 14.705 14.847 14.96 15.102 15.232 15.297 15.402 15.485 15.565 15.675 15.795 15.825 15.937 16.017 16.042 16.06 16.16 16.265 16.397 17.05 16.752 16.62 16.802 17.002 17.11 17.365 17.505 17.657 17.73 17.865 18.932 19.552 23.25 21.71 19.905 19.052 21.822 27.447
25.76 26.045 26.552 25.612 25.545 25.532 25.537 25.987 27.437 25.932 25.227 25.195 25.12 25.055 25.015 25.012 25.01 24.937 24.862 24.75 24.692 24.672 24.66 24.627 24.592 24.552 24.492 24.447 24.427 24.385 24.297 24.22 24.167 24.165 24.107 24.075 24.01 23.957 23.96 23.95 23.92 23.867 23.822 23.827 23.762 23.705 23.695 23.71 23.617 23.575 23.565 23.502 23.445 23.445 23.422 23.362 23.292 23.267 23.212 23.157 23.157 23.13 23.067 23.042 22.997 22.957 22.927 22.925 22.835 22.81 22.775 22.735 22.635 22.62 22.585 22.495 22.465 22.422 22.357 22.282 22.267 22.237 22.17 22.16 22.12 22.037 21.947 21.932 21.842 21.82 21.772 21.727 21.705 21.64 21.605 21.497 21.357 21.26 21.217 21.192 22.975 22.5 21.127 21.045 21.005 21 20.975 20.965 20.987 21.012 21.06 21.025 21.042 21.03 20.995 20.94 20.917 20.905 20.892 20.907 20.885 20.905 20.872 20.887 20.905 20.815 20.765 20.752 20.725 20.662 20.632 20.577 20.64 20.617 20.635 20.642 20.637 20.582 20.52 20.477 20.42 20.367 20.375 20.337 20.307 20.33 20.322 20.29 20.197 20.167 20.125 20.14 20.09 20.025 19.957 19.925 19.91 19.877 19.82 19.775 19.732 19.665 19.605 19.552 19.547 19.505 19.425 19.39 19.375 19.29 19.24 19.155 19.142 19.087 19.045 19.002 18.975 18.932 18.857 18.825 18.757 18.712 18.657 18.6 18.547 18.515 18.592 20.195 20.06 21.187 19.85 18.492 18.04 17.985 18.112 18.035 17.87 17.825 17.642 17.637 17.687 17.58 17.46 17.48 17.4 17.232 17.187 17.06 16.97 16.955 16.905 16.852 16.82 16.81 16.785 16.702 16.722 16.65 16.635 16.565 16.537 16.597 16.455 16.405 16.34 16.267 16.197 16.145 16.072 16.047 16.032 15.985 15.932 15.925 15.865 15.755 15.64 15.585 15.5 15.45 15.312 15.222 15.127 15.067 14.985 14.9 14.875 14.762 14.71 14.75 14.955 14.562 15.71 15.29 14.587 14.382 14.412 14.172 14.48 17.71 14.372 14.445 14.487 14.407 14.44 14.31 14.945 14.277 14.012 15.855 15.312 13.625 15.865 15.485 13.195 14.892 14.427 13.257 14.997 15.435 15.717 16.06 16.342 16.402 16.23 15.762 15.227 15.535 14.12 14.045 14.1 13.922 13.967 13.665 13.735 13.352 13.267 13.235 13.182 13.137 13.032 13.022 13.057 13.147 13.11 13.097 12.997 12.937 13.022 13.63 14.775 13.002 13.345 13.077 13.037 13.317 14.655 13.595 13.4 12.685 12.592 15.065 15.722 14.455 14.295 15.157 12.727 13.512 12.9 13.837 13.187 13.07 12.685 12.62 12.575 12.435 12.557 12.7 12.897 16.51 16.777 20.995 22.847 20.47 14.512 14.89 14.837 14.922 14.882 14.875 14.942 14.992 14.98 14.987 15.002 15.032 15.092 15.08 15.102 15.372 15.212 15.202 15.137 16.465 17.662 15.257 14.85 14.612 14.72 14.647 14.61 14.84 14.545 14.385 16.2 15.027 18.385 14.927 14.197 14.08 14.057 13.992 13.887 13.81 13.717 15.04 19.972 19.912 15.34 14.317 13.895 14.545 15.507 16.152 14.922 13.915 14.332 14.385 14.23 14.557 15.102 14.412 14.247 14.435 14.602 14.665 14.807 14.922 15.062 15.167 15.257 15.39 15.49 15.552 15.665 15.782 15.817 15.875 15.947 15.992 15.97 16.142 16.28 16.282 16.917 16.797 16.602 16.707 17.237 17.14 17.312 17.472 17.527 17.705 17.817 19.407 20.755 19.287 18.79 19.805 21.86 26.112 27
25.82 26.27 26.187 25.615 25.57 25.625 25.62 26.067 27.475 26.315 25.24 25.217 25.137 25.082 25.045 24.99 24.915 24.857 24.842 24.79 24.77 24.752 24.745 24.687 24.652 24.61 24.575 24.527 24.492 24.43 24.36 24.302 24.242 24.22 24.227 24.177 24.122 24.052 24.017 23.985 23.957 23.875 23.862 23.84 23.797 23.762 23.717 23.7 23.637 23.59 23.565 23.522 23.485 23.51 23.45 23.415 23.372 23.335 23.292 23.27 23.28 23.197 23.147 23.117 23.057 23.005 22.987 22.987 22.857 22.865 22.8 22.752 22.662 22.66 22.615 22.54 22.52 22.467 22.402 22.337 22.317 22.267 22.215 22.192 22.157 22.075 22 21.992 21.882 21.852 21.82 21.797 21.762 21.687 21.665 21.547 21.405 21.34 21.297 21.275 23.16 22.835 21.172 21.087 21.065 21.035 21.042 21.057 21.072 21.105 21.11 21.11 21.112 21.102 21.072 21.017 20.977 20.985 20.957 20.937 20.93 20.96 20.972 20.94 20.925 20.865 20.795 20.787 20.755 20.717 20.68 20.647 20.67 20.655 20.652 20.677 20.627 20.592 20.535 20.515 20.485 20.427 20.445 20.402 20.375 20.387 20.367 20.302 20.197 20.167 20.145 20.137 20.085 20.045 19.99 19.927 19.912 19.9 19.865 19.817 19.767 19.717 19.645 19.605 19.595 19.522 19.482 19.425 19.402 19.335 19.26 19.21 19.162 19.115 19.065 19.012 18.977 18.907 18.84 18.815 18.777 18.73 18.677 18.615 18.56 18.577 19.162 20.515 20.29 20.402 18.81 18.25 18.127 17.962 18.09 17.915 17.907 17.855 17.625 17.762 17.655 17.562 17.45 17.4 17.277 17.172 17.125 17.072 16.97 16.94 16.847 16.805 16.84 16.785 16.775 16.657 16.652 16.61 16.597 16.512 16.505 16.47 16.425 16.342 16.28 16.235 16.177 16.13 16.087 16.052 16.035 15.975 15.937 15.922 15.855 15.78 15.692 15.64 15.57 15.482 15.325 15.19 15.137 15.07 15.015 14.89 14.87 14.782 14.66 14.672 14.945 15.327 14.257 14.04 14.652 14.342 14.292 14.897 17.427 14.277 14.217 14.24 14.19 14.175 14.052 13.99 13.947 13.842 13.572 16.065 18.487 18.01 17.012 14.44 15.022 13.762 13.54 13.817 15.655 15.85 16.107 16.372 16.405 16.247 15.785 15.347 15.382 22.6 20.375 13.832 13.922 13.697 13.62 13.5 13.407 13.235 13.152 13.61 13.855 13.582 13.14 13.287 13.645 13.93 13.09 13.882 14.005 13.267 15.697 16.585 13.2 12.557 13.007 13.07 13.055 12.987 13.125 13.55 12.91 12.692 12.542 12.177 12.777 12.925 13.88 12.375 13.035 12.56 13.005 20.477 22.465 12.687 12.615 12.672 12.83 12.522 12.59 12.937 13.135 24.002 20.452 17.895 19.71 16.937 14.565 14.987 14.957 14.982 14.952 14.975 15.05 15.1 15.065 15.07 15.092 15.092 15.12 15.097 15.092 15.117 15.17 15.205 15.2 15.25 15.445 17.412 16.517 14.977 14.605 14.63 15.057 14.877 14.467 14.44 14.387 14.28 15.835 14.337 14.23 14.12 14.062 14.6 14.25 13.912 13.845 13.69 17.532 17.54 13.262 13.172 14.682 14.775 14.202 15.007 15.377 13.965 14.345 14.402 14.225 13.96 14.05 14.125 14.155 14.377 14.557 14.642 14.762 14.882 15.03 15.122 15.227 15.34 15.47 15.565 15.635 15.72 15.79 15.81 15.915 15.95 15.955 16.097 16.247 16.29 16.837 16.922 16.602 16.602 17.265 17.312 17.122 17.395 17.647 17.747 19.537 24.02 19.637 18.2 19.377 25.012 24.292 26.12 27.207
25.892 26.412 26.227 25.877 25.71 25.72 25.692 26.107 27.035 25.777 25.272 25.27 25.175 25.122 25.057 25.05 24.962 24.892 24.855 24.887 24.837 24.8 24.757 24.745 24.695 24.657 24.632 24.575 24.535 24.48 24.407 24.33 24.287 24.272 24.267 24.235 24.185 24.122 24.09 24.047 24 23.967 23.937 23.927 23.862 23.82 23.795 23.767 23.712 23.682 23.635 23.572 23.545 23.52 23.482 23.425 23.385 23.337 23.3 23.282 23.275 23.237 23.187 23.17 23.145 23.072 23.115 23.035 22.985 22.975 22.94 22.85 22.787 22.742 22.675 22.62 22.572 22.525 22.442 22.39 22.37 22.29 22.262 22.21 22.167 22.11 22.052 22.017 21.945 21.922 21.875 21.832 21.8 21.757 21.707 21.617 21.49 21.402 21.377 21.312 23.4 23.145 21.192 21.132 21.09 21.1 21.155 21.12 21.162 21.187 21.185 21.18 21.222 21.182 21.117 21.09 21.042 21.037 21.015 20.987 20.95 20.952 20.982 20.937 20.945 20.885 20.855 20.845 20.835 20.792 20.752 20.725 20.717 20.715 20.74 20.737 20.677 20.647 20.612 20.57 20.545 20.53 20.512 20.452 20.432 20.432 20.42 20.34 20.235 20.167 20.182 20.155 20.122 20.082 20.025 19.985 19.962 19.917 19.895 19.857 19.807 19.75 19.705 19.677 19.64 19.58 19.515 19.48 19.465 19.39 19.3 19.205 19.152 19.115 19.06 19.01 18.99 18.94 18.867 18.827 18.787 18.737 18.665 18.617 18.945 21.457 21.21 19.917 19.377 18.442 18.345 18.927 18.527 17.91 17.985 17.812 17.812 17.792 17.665 17.62 17.59 17.445 17.395 17.322 17.222 17.152 17.047 17.002 16.96 16.905 16.935 16.815 16.845 16.76 16.782 16.67 16.632 16.54 16.617 16.49 16.425 16.382 16.31 16.245 16.235 16.242 16.147 16.147 16.082 16.03 16.005 15.965 15.942 15.91 15.867 15.782 15.7 15.65 15.595 15.525 15.387 15.242 15.147 15.072 15.012 14.882 14.802 14.75 14.69 14.6 14.692 14.777 14.435 14.06 15.622 14.622 14.887 17.102 17.727 13.745 13.865 13.895 14.492 13.785 13.785 13.595 13.247 13.087 13.622 18.365 18.025 17.52 17.412 15.502 14.28 14.327 15.08 15.59 15.94 16.165 16.415 16.42 16.3 15.785 15.24 14.675 18.302 21.085 15.645 14.017 13.6 13.462 13.4 13.382 13.24 13.31 13.595 15.9 13.717 13.69 13.542 13.355 13.545 12.79 12.315 13.547 15.395 15.915 16.977 17.4 12.622 12.43 12.892 12.97 13.225 17.74 13.02 14.802 16.867 16.42 12.912 15.072 13.057 15.855 17.58 12.777 13.387 13.047 14.95 30.1 21.39 12.712 12.647 12.715 12.955 15.8 14.087 12.69 12.965 14.735 14.765 16.107 15.875 14.472 15.417 18.15 15.23 15.142 15.54 15.102 15.15 15.177 15.167 15.152 15.16 15.122 15.157 15.147 15.132 15.14 15.12 15.187 15.737 15.197 15.21 15.365 15.307 15.582 16.02 14.757 14.532 14.545 14.447 14.615 15.245 14.84 14.722 14.287 14.27 14.122 14.105 14.555 13.975 13.905 13.797 13.757 14.19 13.837 13.395 14.235 15.145 14.165 14.127 15.502 15.045 14.002 14.347 14.432 14.287 13.947 13.802 14.065 14.12 14.295 14.497 14.595 14.732 14.887 14.99 15.082 15.182 15.285 15.422 15.567 15.657 15.717 15.735 15.787 15.872 15.947 15.955 16.06 16.217 16.282 16.755 16.922 16.722 16.672 16.78 17.46 17.11 17.895 19.36 17.63 18.91 22.44 21.685 19.015 18.617 20 22.5 26.9 26.645
25.975 26.857 26.145 25.905 25.732 25.717 25.7 26.285 26.915 25.555 25.365 25.297 25.207 25.17 25.115 25.11 25.022 24.98 24.93 24.945 24.887 24.842 24.81 24.805 24.76 24.712 24.662 24.637 24.625 24.537 24.487 24.39 24.335 24.342 24.307 24.27 24.22 24.195 24.157 24.107 24.055 24.022 24.002 23.96 23.907 23.865 23.837 23.835 23.777 23.76 23.722 23.635 23.63 23.58 23.55 23.435 23.632 23.902 23.355 23.342 23.337 23.265 23.24 23.182 23.132 23.112 23.117 23.057 23.002 22.97 22.927 22.877 22.82 22.805 22.777 22.74 22.705 22.657 22.577 22.512 22.5 22.425 22.352 22.32 22.23 22.167 22.135 22.102 22.015 21.97 21.887 21.872 21.837 21.822 21.805 21.68 21.515 21.45 21.415 21.382 23.297 22.007 21.275 21.192 21.152 21.162 21.215 21.242 21.242 21.257 21.272 21.26 21.29 21.227 21.177 21.11 21.072 21.027 21.02 20.985 20.945 20.97 20.997 20.992 20.98 20.947 20.905 20.895 20.87 20.847 20.835 20.795 20.787 20.795 20.797 20.797 20.745 20.712 20.665 20.642 20.592 20.575 20.56 20.537 20.487 20.492 20.445 20.37 20.28 20.217 20.225 20.212 20.185 20.1 20.027 19.987 19.997 19.955 19.952 19.912 19.857 19.782 19.71 19.707 19.675 19.612 19.54 19.52 19.49 19.4 19.315 19.235 19.155 19.152 19.08 19.042 19.052 19.025 18.927 18.845 18.782 18.732 18.687 20.377 20.527 21.505 22.637 19.467 18.29 18.262 18.62 18.587 18.137 17.93 17.932 17.755 17.742 17.737 17.737 17.667 17.582 17.487 17.315 17.242 17.14 17.105 17.025 17.02 16.895 16.812 16.887 16.785 16.77 16.712 16.707 16.625 16.572 16.515 16.475 16.39 16.337 16.292 16.24 16.207 16.172 16.185 16.13 16.11 16.055 16.037 15.972 15.985 15.935 15.885 15.827 15.792 15.7 15.637 15.557 15.52 15.46 15.34 15.185 15.055 14.992 14.845 14.755 14.702 14.645 14.595 14.587 14.712 15.077 14.237 14.917 14.607 13.892 14.197 14.875 14.647 13.225 14.027 14.157 13.997 13.94 13.732 13.087 12.795 13.002 13.452 15.342 14.677 14.76 14.17 14.432 15.102 15.77 16.052 16.23 16.427 16.437 16.375 15.83 15.212 14.702 14.142 13.8 13.822 14.262 15.11 13.66 13.922 13.415 13.282 13.242 15.797 13.045 14.11 13.01 13.11 13.232 13.087 13.14 13.017 12.937 13.997 12.757 12.567 13.607 13.115 13.077 12.85 12.945 14.047 13 13.032 14.08 16.085 17.91 17.212 13.077 12.542 13.93 19.245 12.937 12.877 13.13 12.982 19.595 26.51 15.107 12.827 12.842 12.845 16.082 20.02 16.3 12.607 12.86 13.32 17.032 21.852 14.105 14.25 15.012 15.875 15.615 15.522 15.252 15.17 15.227 15.27 15.242 15.267 15.237 15.2 15.222 15.2 15.17 15.152 15.135 15.14 15.18 15.18 15.185 15.212 15.18 15.192 15.422 15.317 15.017 14.68 14.36 14.617 14.822 14.51 14.382 14.362 14.217 14.145 14.11 14.05 14.06 14.025 15.742 14.065 14.09 13.907 13.492 14.155 15.087 14.532 13.967 14.73 15.775 14.505 14.335 14.417 14.312 14.04 13.785 14.122 14.06 14.215 14.397 14.575 14.69 14.827 14.957 15.072 15.18 15.282 15.442 15.572 15.64 15.73 15.735 15.785 15.857 15.957 15.977 16.02 16.157 16.197 16.407 17.57 17.3 16.757 16.822 17.13 17.055 19.745 19.302 19.527 19.232 23.682 24.687 25.27 22.227 20.897 22.532 27.087 27.342
26.122 26.902 26.025 25.965 25.787 25.807 25.772 26.93 26.055 25.52 25.432 25.347 25.287 25.227 25.17 25.132 25.1 25.022 24.98 24.985 24.96 24.912 24.86 24.857 24.842 24.755 24.74 24.697 24.687 24.605 24.512 24.437 24.382 24.4 24.355 24.32 24.287 24.225 24.2 24.16 24.105 24.075 24.055 24.002 23.945 23.935 23.892 23.857 23.807 23.762 23.76 23.692 23.667 23.632 23.542 23.442 24.417 23.475 23.385 23.497 23.435 23.355 23.367 23.295 23.267 23.192 23.18 23.122 23.07 23.017 22.932 22.855 22.822 22.8 22.737 22.697 22.66 22.62 22.572 22.52 22.5 22.467 22.417 22.41 22.377 22.277 22.255 22.177 22.1 22.095 22.017 22 21.952 21.942 21.855 21.757 21.595 21.525 21.49 21.482 23.327 21.5 21.342 21.282 21.257 21.287 21.32 21.327 21.287 21.31 21.305 21.297 21.27 21.245 21.195 21.125 21.11 21.08 21.037 21.025 21.045 21.075 21.085 21.092 21.105 21.075 21.042 21.017 20.937 20.88 20.855 20.847 20.842 20.825 20.842 20.822 20.787 20.772 20.747 20.715 20.645 20.63 20.595 20.557 20.55 20.552 20.472 20.402 20.342 20.262 20.255 20.357 20.642 20.7 20.42 20.077 20.02 20.015 19.995 19.942 19.885 19.81 19.76 19.737 19.697 19.66 19.59 19.56 19.495 19.392 19.315 19.242 19.212 19.177 19.152 19.097 19.075 19.002 18.94 18.862 18.777 18.77 19.75 21.177 22.045 20.927 19.432 18.415 18.285 18.737 18.572 18.172 18.21 17.907 18.205 17.91 17.85 17.697 17.662 17.59 17.46 17.465 17.3 17.17 17.14 17.17 17.017 16.97 16.895 16.877 16.9 16.795 16.795 16.732 16.687 16.58 16.54 16.457 16.402 16.36 16.33 16.235 16.197 16.152 16.137 16.147 16.127 16.08 16.05 16.05 15.995 15.955 15.93 15.892 15.792 15.74 15.69 15.605 15.547 15.58 15.472 15.387 15.205 15.045 14.962 14.827 14.75 14.647 14.63 14.602 14.55 14.577 14.825 14.042 14.392 13.797 13.95 15.325 13.43 14.267 13.697 13.747 14.172 14.735 14.065 13.632 13.555 13.617 14.225 13.52 15.52 14.79 14.3 14.467 16.915 18.202 16.092 16.242 16.42 16.467 16.397 15.897 14.5 14.452 14.067 13.767 13.605 13.637 13.67 13.49 13.507 13.365 13.29 13.177 13.14 14.59 15.327 13.145 13.195 13.175 13.175 13.1 13.13 13.05 12.997 13.015 13.067 13.047 13.092 13.032 12.925 13.067 14.862 15.127 14.497 13.017 12.982 14.175 19.022 24.825 12.017 12.685 14.692 16.445 13.047 13.147 13.275 13.352 13.372 13.155 13.085 15.822 14.465 13.485 14.02 14.57 14.09 12.852 13.107 13.615 18.462 17.447 14.23 14.352 14.88 19.015 18.3 15.262 15.175 15.255 15.307 15.347 15.33 15.337 15.295 15.255 15.27 15.26 15.262 15.232 15.192 15.157 15.127 15.115 15.115 15.13 15.157 15.18 15.22 15.152 15.112 15.025 14.74 14.502 15.407 14.782 14.372 14.397 14.27 14.225 14.135 14.162 14.015 14.027 14.037 14.487 16.567 14.687 13.92 13.792 14.072 15.46 14.765 14.545 14.967 13.967 14.27 14.432 14.247 14.072 13.905 13.887 14.042 14.182 14.382 14.555 14.677 14.785 14.89 15.045 15.147 15.21 15.417 15.557 15.632 15.71 15.732 15.765 15.837 15.922 15.977 16.022 16.107 16.217 16.415 17.49 16.77 16.712 16.755 16.85 17.08 20.535 18.495 20.067 17.6 25.62 26.967 25.14 27.885 24.635 25.942 26.287 26.195
26.472 27 25.997 26.077 25.872 25.852 25.837 26.407 26.472 25.542 25.45 25.412 25.342 25.285 25.237 25.2 25.15 25.052 25.047 25.037 25.015 24.982 24.96 24.922 24.887 24.815 24.8 24.75 24.732 24.667 24.577 24.497 24.425 24.43 24.397 24.387 24.322 24.287 24.227 24.19 24.14 24.12 24.1 24.032 23.98 23.962 23.942 23.925 23.867 23.825 23.797 23.745 23.75 23.637 23.587 23.64 24.685 23.392 23.412 23.85 23.57 23.38 23.377 23.31 23.287 23.25 23.205 23.185 23.122 23.077 23.022 22.927 22.89 22.867 22.825 22.777 22.737 22.66 22.585 22.545 22.51 22.457 22.405 22.367 22.307 22.237 22.232 22.175 22.125 22.082 22.03 22.035 22.022 22.012 21.952 21.857 21.722 21.662 21.58 21.57 21.69 21.552 21.392 21.34 21.38 21.372 21.39 21.392 21.37 21.4 21.397 21.365 21.36 21.337 21.277 21.242 21.23 21.192 21.17 21.18 21.26 21.195 21.197 21.155 21.195 21.137 21.13 21.422 21.475 20.99 20.9 20.912 20.9 20.912 20.907 20.887 20.877 20.85 20.795 20.767 20.692 20.677 20.657 20.607 20.592 20.57 20.525 20.452 20.372 20.3 20.305 20.617 21.295 21.25 20.847 20.302 20.092 20.07 20.025 19.985 19.922 19.847 19.787 19.74 19.715 19.65 19.585 19.55 19.507 19.405 19.33 19.295 19.25 19.207 19.175 19.142 19.095 19.04 18.937 18.877 18.832 20.507 22.135 21.725 20.935 18.672 18.357 18.347 18.397 18.545 18.285 18.137 18.015 17.95 17.955 17.877 17.862 17.71 17.585 17.495 17.397 17.402 17.27 17.207 17.135 17.152 16.977 16.957 16.932 16.882 16.88 16.717 16.695 16.657 16.645 16.51 16.435 16.395 16.34 16.29 16.282 16.182 16.17 16.155 16.087 16.117 16.077 16.09 16.042 16.027 15.94 15.907 15.91 15.827 15.812 15.73 15.647 15.612 15.577 15.54 15.475 15.385 15.227 15.037 14.937 14.84 14.762 14.64 14.62 14.577 14.54 14.525 15.08 14.655 14.102 14.655 13.505 13.66 13.825 14.387 13.712 14.12 14.675 14.452 14.077 14.297 13.625 13.48 13.685 13.437 14.03 13.925 14.492 15.185 15.807 16.107 16.225 16.425 16.47 16.375 15.817 13.722 13.21 13.527 13.6 13.582 13.495 13.497 13.545 13.65 14.287 13.272 13.197 13.177 13.165 13.067 14.885 13.197 13.125 14.605 14.372 13.1 13.15 13.107 13.08 13.077 13.125 13.01 13.015 12.92 12.97 12.87 13.28 21.742 17.79 13.092 13.027 13.032 20.042 16.02 12.815 16.59 13.037 15.89 13.492 13.442 13.485 13.63 13.55 13.342 13.187 17.4 16.207 14.017 14.802 13.752 13.802 13.65 13.822 14.21 16.547 15.445 15.945 14.465 15.472 17.392 17.647 15.357 15.305 15.405 15.38 15.377 15.365 15.375 15.372 15.362 15.427 15.345 15.422 15.3 15.3 15.277 15.232 15.172 15.135 15.095 15.092 15.117 15.15 15.147 15.085 15.03 15.042 15.002 14.822 15.02 14.352 14.325 14.47 14.325 14.617 14.16 14.007 13.995 14.067 17.12 15.557 15.28 14.115 13.655 14.015 15.572 14.732 14.565 17.267 14.182 14.272 14.445 14.34 14.09 14.072 13.955 14.13 14.18 14.367 14.537 14.677 14.757 14.84 15 15.135 15.205 15.362 15.567 15.617 15.682 15.735 15.75 15.792 15.89 15.912 15.965 16.11 16.21 16.282 20.54 17.467 16.69 16.865 16.88 17.86 21.142 18.947 17.512 17.777 22.385 27.165 24.487 25.972 24.695 24.95 26.275 23.282
26.475 26.96 26.1 26.065 25.955 25.895 25.93 29.277 26.69 25.535 25.497 25.46 25.4 25.32 25.28 25.247 25.21 25.142 25.115 25.097 25.097 25.047 25.022 24.99 24.927 24.895 24.832 24.787 24.78 24.732 24.63 24.547 24.505 24.485 24.46 24.43 24.357 24.33 24.29 24.245 24.207 24.177 24.142 24.115 24.07 24.035 24.012 23.955 23.915 23.872 23.83 23.785 23.757 23.697 23.65 23.71 24.895 23.41 23.502 23.987 23.582 23.435 23.425 23.34 23.345 23.31 23.265 23.22 23.162 23.11 23.052 23.002 22.937 22.91 22.882 22.842 22.777 22.71 22.66 22.65 22.572 22.532 22.51 22.45 22.345 22.32 22.277 22.217 22.182 22.135 22.1 22.08 22.015 22.017 21.96 21.882 21.805 21.702 21.642 21.607 21.575 21.542 21.48 21.44 21.45 21.437 21.46 21.44 21.447 21.47 21.495 21.517 21.477 21.427 21.362 21.335 21.335 21.305 21.272 21.26 21.24 21.255 21.262 21.257 21.262 21.24 21.257 21.68 21.817 21.16 20.965 20.957 20.962 20.977 20.98 20.952 20.935 20.907 20.85 20.815 20.755 20.73 20.71 20.652 20.652 20.632 20.587 20.507 20.427 20.352 20.34 20.677 21.747 21.797 21.135 20.422 20.11 20.08 20.055 19.997 19.935 19.872 19.807 19.732 19.72 19.672 19.58 19.58 19.545 19.462 19.41 19.37 19.29 19.252 19.202 19.165 19.115 19.04 18.955 19.047 21.065 22.285 21.457 20.5 19.11 18.42 18.375 18.545 18.247 18.21 18.09 18.125 17.955 17.917 18.027 17.865 17.777 17.732 17.61 17.485 17.517 17.385 17.22 17.165 17.082 17.122 16.965 16.99 16.887 16.825 16.812 16.707 16.685 16.605 16.595 16.437 16.425 16.337 16.315 16.252 16.222 16.157 16.152 16.11 16.08 16.072 16.087 16.087 16.04 16.005 15.925 15.892 15.855 15.805 15.755 15.685 15.62 15.62 15.57 15.487 15.422 15.405 15.262 15.035 14.932 14.812 14.712 14.63 14.585 14.587 14.56 14.507 14.55 14.362 14.137 13.727 13.29 13.53 13.827 13.765 14.18 13.87 14.125 13.97 13.847 14.08 13.717 13.427 13.23 13.767 13.81 14.56 15.3 15.775 16.027 16.207 16.407 16.505 16.407 16.09 15.235 13.655 13.025 12.972 13.502 13.635 13.832 13.412 13.46 13.46 13.315 13.33 13.197 13.165 12.805 13.497 13.215 15.67 14.267 19.987 14.857 13.282 13.21 13.22 13.21 13.135 13.125 13.132 13.055 13.02 12.985 13.142 13.18 16.307 13.27 12.827 13.002 14.252 17.155 14.99 13.84 15.072 12.985 17.737 16.43 13.657 13.692 13.967 13.685 13.582 13.507 14.867 14.562 13.795 14.502 14.015 14.457 14.595 14.685 14.995 15.305 20.007 19.855 15.222 16.307 17.622 16.77 15.545 15.4 15.455 15.47 15.547 15.752 15.502 15.435 15.392 15.392 15.387 15.412 15.357 15.347 15.285 15.247 15.292 15.227 15.155 15.115 15.095 15.085 15.075 15.11 15.027 15.012 14.955 14.89 14.977 15.022 14.32 14.377 14.415 14.477 14.28 14.147 14.007 14.387 16.88 14.68 14.957 16.41 14.52 14.102 14.962 14.74 17.597 17.96 15.705 14.21 14.437 14.437 14.252 14.342 14.155 14.12 14.195 14.337 14.507 14.612 14.72 14.812 14.92 15.055 15.165 15.295 15.512 15.615 15.647 15.722 15.722 15.782 15.832 15.907 15.977 16.07 16.212 16.22 18.25 17.072 16.545 16.79 16.825 17.22 18.085 17.405 17.427 17.555 21.272 24.482 23.817 23.947 20.005 23.445 27.117 26.1
26.605 27.005 26.267 26.125 26.015 25.98 27.277 28.812 27.797 25.562 25.537 25.47 25.43 25.36 25.332 25.272 25.247 25.207 25.15 25.15 25.135 25.097 25.07 25.042 24.992 24.94 24.897 24.86 24.83 24.76 24.695 24.617 24.575 24.545 24.522 24.49 24.42 24.382 24.345 24.305 24.257 24.232 24.195 24.157 24.122 24.077 24.057 24.03 23.987 23.925 23.865 23.822 23.79 23.717 23.755 24.875 24.807 23.425 23.537 23.847 23.565 23.452 23.44 23.4 23.345 23.327 23.312 23.267 23.222 23.17 23.127 23.062 23.032 22.947 22.912 22.87 22.837 22.77 22.71 22.685 22.655 22.585 22.562 22.495 22.437 22.37 22.352 22.305 22.26 22.21 22.175 22.162 22.127 22.1 22.035 21.96 21.895 21.837 21.777 21.742 21.717 21.67 21.595 21.582 21.52 21.487 21.787 25.63 22.965 21.617 21.57 21.575 21.555 21.502 21.46 21.435 21.412 21.397 21.395 21.36 21.325 21.307 21.362 21.337 21.345 21.31 21.307 21.672 21.705 21.212 21.07 21.022 21.017 21.052 21.09 21.052 21.017 20.972 20.937 20.865 20.82 20.805 20.757 20.725 20.687 20.662 20.64 20.58 20.465 20.415 20.39 20.452 21.045 21.217 20.835 20.337 20.17 20.135 20.1 20.045 19.965 19.872 19.82 19.782 19.75 19.697 19.652 19.625 19.597 19.497 19.447 19.395 19.345 19.307 19.23 19.182 19.105 19.08 19.057 21.32 22.367 21.392 19.702 18.702 18.577 18.775 18.68 18.435 18.282 18.185 18.067 17.987 17.937 17.937 17.925 17.8 17.79 17.747 17.587 17.445 17.382 17.385 17.192 17.082 17.017 17.032 16.955 16.957 16.925 16.83 16.74 16.685 16.602 16.542 16.552 16.432 16.372 16.305 16.265 16.237 16.227 16.15 16.095 16.065 16.06 16.03 16.047 16.037 16.005 15.98 15.9 15.875 15.815 15.81 15.712 15.702 15.612 15.635 15.532 15.482 15.387 15.32 15.235 15.007 14.922 14.815 14.727 14.635 14.597 14.635 14.87 14.587 14.69 14.542 14.875 13.815 13.762 13.667 13.872 13.775 13.83 14.047 13.987 13.96 13.862 13.83 13.935 13.572 13.225 13.625 14.182 15.237 15.775 15.992 16.135 16.417 16.502 16.442 16.1 15.665 14.862 13.922 13.412 13.815 14.057 13.475 13.48 13.415 13.42 13.45 14.597 13.19 13.915 14.07 13.397 12.897 16.35 16.4 16.035 14.052 13.27 13.39 13.312 13.337 13.242 13.267 13.242 13.297 13.242 16.055 13.097 15.187 13.002 13.435 12.375 12.432 13.262 14.587 13.505 13.552 14.125 14.032 13.79 15.165 13.932 13.77 13.84 13.89 13.872 14.142 14.005 13.952 13.925 14.002 14.195 14.487 15.13 15.235 15.235 15.047 16.272 20.402 18.98 15.182 16.392 16.925 15.73 15.48 15.492 15.527 15.552 15.7 15.99 15.492 15.437 15.442 15.477 15.442 15.442 15.44 15.447 15.355 15.287 15.245 15.307 15.24 15.232 15.14 15.102 15.065 15.027 15.017 14.982 15.032 14.967 14.89 15.275 14.76 14.447 14.53 14.38 14.315 14.315 14.152 14.082 13.94 14.41 16.2 15.55 16.015 15.655 14.987 14 17.392 16.795 16.215 14.14 14.467 14.445 14.21 14.47 14.657 14.175 14.195 14.337 14.477 14.6 14.702 14.81 14.89 14.987 15.117 15.237 15.455 15.572 15.652 15.735 15.722 15.805 15.807 15.912 15.977 16.055 16.175 16.187 17.215 16.93 16.79 16.672 16.74 16.91 16.977 17.172 17.415 20.3 26.59 27.19 18.492 18.927 18.165 19.702 23.402 27.885
26.922 26.685 26.362 26.122 26.067 26.05 26.142 27.292 27.655 25.625 25.567 25.482 25.43 25.422 25.39 25.372 25.322 25.245 25.19 25.205 25.18 25.167 25.115 25.08 25.035 25.005 24.967 24.93 24.89 24.835 24.775 24.697 24.65 24.63 24.592 24.537 24.487 24.442 24.407 24.35 24.312 24.272 24.255 24.177 24.152 24.122 24.087 24.065 24.055 23.985 23.957 23.89 23.815 23.745 23.877 24.892 23.642 23.49 23.6 23.855 23.58 23.485 23.46 23.432 23.385 23.387 23.362 23.31 23.24 23.202 23.132 23.085 23.062 22.987 22.957 22.907 22.872 22.827 22.74 22.725 22.68 22.62 22.595 22.54 22.502 22.427 22.41 22.347 22.34 22.285 22.257 22.24 22.19 22.145 22.102 22.032 21.932 21.895 21.887 21.827 21.795 21.75 21.692 21.637 21.595 21.562 21.922 25.677 21.557 21.627 21.712 21.645 21.647 21.612 21.562 21.522 21.502 21.422 21.427 21.385 21.445 21.392 21.457 21.372 21.472 21.35 21.432 21.837 21.815 21.17 21.157 21.1 21.092 21.12 21.145 21.122 21.087 21.055 20.987 20.922 20.867 20.825 20.845 20.825 20.75 20.742 20.697 20.612 20.53 20.487 20.455 20.47 20.527 20.545 20.512 20.275 20.19 20.162 20.135 20.062 19.982 19.897 19.86 19.815 19.805 19.752 19.697 19.69 19.627 19.542 19.477 19.452 19.397 19.297 19.247 19.202 19.155 19.072 20.89 21.967 21.3 19.692 18.747 18.687 19.065 18.92 18.412 18.372 18.28 18.222 18.107 18.005 17.977 17.95 17.9 17.857 17.727 17.707 17.552 17.417 17.385 17.407 17.272 17.177 17.057 17.017 16.952 16.917 16.85 16.795 16.725 16.615 16.59 16.532 16.51 16.412 16.337 16.275 16.212 16.177 16.147 16.12 16.095 16.072 16.085 16.027 15.987 15.975 15.955 15.93 15.865 15.822 15.747 15.755 15.702 15.697 15.65 15.587 15.53 15.467 15.357 15.287 15.195 15.02 14.942 14.802 14.73 14.695 14.632 14.597 14.55 14.65 14.687 14.272 14.032 13.735 17.84 14.015 14.037 13.825 13.822 13.907 14.022 13.96 13.975 14.01 13.835 13.565 13.582 14.082 14.955 16.597 15.932 16.1 16.422 16.5 16.422 16.115 15.772 15.285 14.495 15.002 13.442 14.14 13.32 13.425 13.635 14.71 13.392 13.815 16.985 13.507 15.595 14.307 13.66 13.107 13.332 13.312 13.335 13.365 13.387 13.387 13.43 13.432 13.387 13.645 13.392 13.387 15.177 21.255 13.197 13.08 13.427 13.06 12.685 13.512 19.235 13.855 12.422 12.657 12.99 17.97 16.247 13.8 13.845 14.875 14.137 14.21 14.427 14.45 14.275 14.145 14.25 14.445 14.727 15.687 15.427 15.712 15.327 15.122 15.535 16.097 15.215 15.265 17.847 17.185 15.705 15.552 15.562 15.63 15.735 15.942 15.58 15.575 15.562 15.627 15.512 15.502 15.495 15.51 15.465 15.412 15.37 15.292 15.287 15.245 15.23 15.23 15.18 15.137 15.022 14.96 14.952 14.927 14.997 14.962 14.91 14.825 14.852 14.837 14.557 14.352 14.307 14.337 14.14 14.715 15.692 15.117 15.12 14.477 15.14 14.82 14.902 18.94 18.797 17.247 14.115 14.487 14.455 14.202 14.117 14.75 14.332 14.195 14.325 14.48 14.602 14.687 14.81 14.87 14.945 15.08 15.21 15.4 15.54 15.617 15.675 15.697 15.81 15.835 15.877 15.982 16.017 16.16 16.187 16.922 16.91 16.767 16.617 16.687 16.887 17.002 17.1 17.767 20.15 19.567 18.162 17.805 17.935 18.827 23.792 26.17 27.112
27.1 26.807 26.387 26.092 26.117 26.072 26.707 27.417 27.377 25.652 25.577 25.517 25.515 25.537 25.545 25.54 25.425 25.307 25.275 25.265 25.235 25.202 25.165 25.147 25.105 25.04 24.995 24.962 24.915 24.877 24.802 24.737 24.707 24.675 24.622 24.59 24.552 24.517 24.462 24.405 24.372 24.362 24.327 24.26 24.207 24.177 24.137 24.117 24.077 24.03 23.97 23.917 23.87 23.792 23.835 24.347 24.127 23.52 23.66 23.887 23.61 23.535 23.52 23.48 23.447 23.44 23.392 23.317 23.302 23.212 23.14 23.147 23.08 23.027 22.947 22.927 22.885 22.82 22.795 22.752 22.692 22.675 22.632 22.582 22.53 22.502 22.48 22.437 22.4 22.362 22.367 22.317 22.277 22.232 22.19 22.11 22.015 21.997 21.955 21.935 21.877 21.827 21.747 21.697 21.667 21.642 22.502 25.675 21.655 21.69 21.757 21.725 21.722 21.682 21.702 21.575 21.632 21.532 21.555 21.49 21.547 21.46 21.505 21.457 21.45 21.387 21.547 21.912 21.657 21.247 21.21 21.192 21.17 21.192 21.222 21.195 21.142 21.122 21.057 20.987 20.935 20.925 20.905 20.86 20.822 20.815 20.737 20.67 20.605 20.532 20.535 20.522 20.487 20.415 20.362 20.282 20.235 20.187 20.16 20.11 20.007 19.92 19.9 19.86 19.857 19.847 19.8 19.767 19.707 19.632 19.56 19.5 19.397 19.335 19.297 19.235 19.69 21.825 21.107 20.205 19.345 18.765 18.917 19.002 18.862 18.605 18.422 18.3 18.322 18.192 18.07 18 17.912 17.83 17.82 17.745 17.652 17.597 17.52 17.522 17.372 17.385 17.172 17.17 17.062 17.012 16.925 16.945 16.867 16.792 16.71 16.635 16.532 16.485 16.45 16.355 16.282 16.257 16.195 16.16 16.12 16.097 16.097 16.072 16.03 15.992 15.952 15.957 15.927 15.865 15.832 15.79 15.717 15.69 15.65 15.645 15.6 15.52 15.502 15.442 15.357 15.25 15.11 15 14.912 14.827 14.725 14.705 14.637 14.595 14.605 14.67 14.49 14.192 13.815 18.215 14.282 14 14.075 18.212 14.802 19.455 14.067 14.007 13.967 13.892 13.855 13.662 14.075 14.85 15.64 16.027 16.12 16.38 16.515 16.452 16.127 15.877 15.497 15.015 16.032 18.945 15.73 15.047 15.652 19.22 14.762 16.23 15.212 13.275 13.395 13.16 13.932 13.207 13.305 13.35 13.315 13.517 13.467 13.505 13.542 13.625 13.71 13.682 13.745 13.685 13.702 13.495 20.522 17.48 15.025 13.24 13.032 12.965 12.845 13.97 16.767 13.775 14.862 12.865 15.335 20.93 15.405 13.735 15.37 19.87 14.307 14.332 14.387 14.497 14.477 14.587 14.812 15.092 15.322 15.465 15.365 15.145 14.925 14.99 14.91 14.982 15.185 17.58 19.052 17.03 15.875 15.645 15.655 15.77 15.805 15.682 15.65 15.61 15.61 15.605 15.58 15.545 15.582 15.515 15.525 15.455 15.325 15.285 15.28 15.262 15.242 15.227 15.207 15.16 15.082 14.99 14.93 14.915 14.93 14.937 14.925 14.89 14.817 14.77 14.792 14.887 14.475 14.075 14.08 14.712 14.012 14.66 13.895 14.027 14.055 13.715 14.112 17.15 18.975 18.162 14.037 14.46 14.462 14.267 14.095 15.795 15.705 14.385 14.325 14.465 14.582 14.687 14.785 14.887 14.975 15.067 15.2 15.36 15.532 15.602 15.667 15.735 15.832 15.86 15.887 15.972 15.992 16.137 16.237 16.407 16.847 16.972 16.63 16.702 16.862 16.987 17.147 17.345 17.537 17.675 17.662 17.85 18.012 18.337 21.817 26.925 23.08
27.205 26.502 26.362 26.162 26.155 26.162 29.16 26.39 26.485 25.672 25.615 25.59 25.69 27.86 27.33 26.992 25.55 25.395 25.347 25.315 25.28 25.242 25.25 25.172 25.115 25.057 25.03 25.01 24.977 24.925 24.855 24.765 24.722 24.7 24.68 24.627 24.572 24.522 24.475 24.462 24.425 24.4 24.355 24.307 24.28 24.245 24.192 24.185 24.127 24.062 24.012 23.992 23.897 23.875 23.967 25.01 24.242 23.565 23.742 24.087 23.707 23.595 23.56 23.53 23.477 23.47 23.38 23.35 23.305 23.257 23.195 23.18 23.097 23.02 23 22.957 22.907 22.855 22.832 22.782 22.717 22.697 22.65 22.605 22.567 22.54 22.517 22.48 22.467 22.43 22.407 22.377 22.347 22.292 22.26 22.172 22.085 22.08 22.02 21.997 21.962 21.877 21.822 21.815 21.705 21.697 24.16 25.067 21.737 21.77 21.857 21.83 21.877 21.742 21.78 21.657 21.682 21.625 21.622 21.577 21.572 21.495 21.557 21.53 21.505 21.47 21.812 21.98 21.585 21.33 21.3 21.275 21.257 21.267 21.285 21.255 21.2 21.167 21.132 21.067 20.997 20.965 20.947 20.91 20.88 20.867 20.807 20.712 20.65 20.6 20.582 20.57 20.49 20.43 20.372 20.315 20.28 20.255 20.22 20.145 20.072 20.022 19.967 19.942 19.93 19.932 19.852 19.795 19.71 19.632 19.562 19.5 19.45 19.39 19.32 21.547 22.41 21.835 20.067 19.085 18.84 18.957 18.887 18.63 18.525 18.395 18.377 18.352 18.217 18.162 18.005 17.965 17.895 17.862 17.78 17.717 17.72 17.552 17.52 17.432 17.31 17.362 17.202 17.25 17.072 17.015 16.907 16.882 16.837 16.787 16.702 16.612 16.492 16.41 16.405 16.3 16.275 16.215 16.172 16.115 16.125 16.067 16.097 16.067 16.005 15.987 15.902 15.935 15.877 15.825 15.78 15.735 15.702 15.682 15.64 15.59 15.552 15.467 15.41 15.355 15.305 15.167 15.032 14.97 14.912 14.777 14.787 14.715 14.655 14.63 14.667 14.697 14.737 13.92 13.585 18.152 13.875 14.067 14.442 19.14 16.305 14.91 14.157 14.192 14.017 13.9 14.267 14.195 15.012 15.587 15.985 16.14 16.367 16.505 16.452 16.215 16.002 15.59 15.185 14.657 14.637 14.582 15.292 15.677 14.255 18.135 15.482 13.94 14.142 15.695 16.397 13.055 13.042 13.185 13.537 13.387 13.505 13.67 13.665 13.902 13.972 13.77 13.83 13.832 13.8 13.867 14.342 13.62 13.597 13.677 13.56 15.017 13.71 13.135 14.192 12.745 14.617 14.02 14.225 12.777 13.357 13.43 13.72 13.91 14.15 14.55 14.412 14.492 14.61 14.74 14.877 15.1 15.36 15.552 15.59 15.345 15.045 14.95 14.97 17.94 20.112 14.962 15.217 16.022 18.405 15.925 15.86 15.692 15.76 15.812 15.83 15.745 15.707 15.722 15.7 15.72 15.685 15.65 15.622 15.562 15.555 15.49 15.39 15.345 15.342 15.335 15.335 15.282 15.227 15.21 15.14 15.13 15.022 14.93 14.887 14.88 14.872 14.832 14.842 14.755 14.68 14.705 15.27 14.58 15.915 14.095 14.235 13.905 13.55 14.24 14.23 14.365 15.705 14.93 15.167 16.092 13.975 14.427 14.482 14.352 14.457 16.46 17.06 15.345 14.335 14.492 14.57 14.7 14.797 14.912 14.975 15.057 15.177 15.345 15.507 15.627 15.657 15.715 15.827 15.917 15.94 15.932 15.97 16.105 16.26 16.31 17.08 16.772 16.735 16.675 16.807 16.952 17.067 17.27 17.46 17.732 17.625 17.8 18.267 18.38 18.242 22.05 23.327
26.937 26.6 26.317 26.225 26.2 26.152 27.83 26.615 25.78 25.715 25.672 25.627 25.715 29.075 30.045 29.407 26.9 25.455 25.387 25.34 25.295 25.257 25.235 25.207 25.14 25.09 25.037 25.005 24.967 24.94 24.88 24.787 24.76 24.772 24.725 24.67 24.607 24.585 24.542 24.502 24.477 24.435 24.4 24.347 24.31 24.272 24.247 24.222 24.167 24.122 24.085 24.022 23.94 23.942 24.127 24.942 24.162 23.64 23.897 24.07 23.715 23.675 23.602 23.577 23.517 23.487 23.412 23.387 23.34 23.265 23.22 23.197 23.142 23.092 23.017 23.002 22.942 22.9 22.872 22.827 22.777 22.73 22.715 22.64 22.62 22.59 22.517 22.5 22.492 22.487 22.442 22.422 22.39 22.36 22.292 22.217 22.145 22.145 22.097 22.05 22.047 21.98 21.925 21.865 21.795 21.802 24.36 23.342 21.82 21.87 21.91 21.865 21.875 21.85 21.85 21.77 21.752 21.687 21.707 21.675 21.637 21.642 21.617 21.602 21.595 21.572 21.955 22.095 21.562 21.405 21.382 21.35 21.34 21.34 21.33 21.315 21.262 21.235 21.177 21.117 21.072 21.017 21.002 20.945 20.915 20.902 20.832 20.775 20.697 20.657 20.635 20.61 20.55 20.485 20.425 20.357 20.33 20.297 20.275 20.22 20.162 20.095 20.025 20.017 19.985 19.922 19.867 19.817 19.735 19.635 19.562 19.535 19.48 19.697 22.032 21.155 21.407 19.642 18.967 18.932 18.93 18.757 18.655 18.557 18.52 18.387 18.307 18.28 18.17 18.115 18.067 18.025 17.952 17.852 17.687 17.685 17.637 17.582 17.517 17.44 17.32 17.345 17.247 17.23 17.12 17.047 16.915 16.942 16.775 16.68 16.722 16.592 16.475 16.385 16.375 16.285 16.265 16.225 16.147 16.1 16.092 16.062 16.095 16.07 16.012 16 15.87 15.825 15.805 15.792 15.722 15.707 15.682 15.632 15.592 15.557 15.5 15.465 15.382 15.322 15.242 15.147 15.04 14.952 14.882 14.795 14.767 14.722 14.707 14.705 14.735 15.792 14.785 13.872 14.027 15.477 14.062 14.327 15.54 17.62 15.76 14.8 14.682 14.597 14.01 13.967 14.265 14.935 15.6 15.855 16.057 16.392 16.515 16.447 16.162 16.032 15.84 15.5 15.04 14.245 13.667 13.302 14.37 18.695 16.922 17.882 13.4 13.205 13.447 14.482 13.3 13.162 13.187 13.287 13.585 13.542 13.672 13.735 13.915 13.915 15.69 13.992 14.04 13.97 13.897 13.952 13.847 13.82 13.805 13.89 15.98 19.435 16.187 13.547 13.752 13.072 12.7 12.802 12.587 13.002 13.247 13.557 13.847 14.03 14.2 14.392 14.545 15.135 15.74 15.065 15.405 15.595 15.705 15.602 15.487 15.202 15.14 14.88 14.965 16.112 17.37 15.142 15.745 18.275 16.822 16.017 15.862 15.772 15.87 15.995 15.865 15.845 15.772 15.767 15.75 15.73 15.717 15.735 15.645 15.6 15.572 15.547 15.467 15.402 15.412 15.342 15.42 15.31 15.245 15.245 15.107 15.032 15.045 14.982 14.947 14.87 14.825 14.815 14.76 14.755 14.685 14.737 14.667 14.507 16.285 15.25 15.207 13.68 13.585 13.55 13.587 13.492 13.572 13.585 15.355 17.855 14.462 14.335 14.482 14.397 14.855 16.615 17.227 15.9 14.35 14.535 14.625 14.727 14.852 14.92 15.005 15.07 15.16 15.317 15.457 15.58 15.652 15.682 15.782 15.927 15.965 15.947 15.977 16.085 16.205 16.29 17.045 16.745 16.795 16.665 16.832 16.932 17.09 17.227 17.565 18.015 17.647 17.787 18.01 18.13 18.257 19.352 19.572
27.625 27.267 26.332 26.282 26.25 26.357 28.062 27.835 25.812 25.752 25.71 25.685 27.22 29.302 29.982 29.192 26.302 25.49 25.42 25.37 25.337 25.295 25.247 25.222 25.172 25.135 25.085 25.045 25.012 24.975 24.87 24.795 24.79 24.805 24.737 24.692 24.66 24.637 24.577 24.517 24.51 24.497 24.442 24.38 24.337 24.315 24.262 24.24 24.19 24.172 24.107 24.057 23.965 24.007 24.2 25.287 23.692 23.72 24.09 24.032 23.745 23.71 23.652 23.6 23.56 23.507 23.45 23.405 23.39 23.302 23.237 23.207 23.152 23.115 23.077 23.01 22.97 22.915 22.887 22.845 22.835 22.807 22.775 22.73 22.675 22.635 22.57 22.525 22.527 22.515 22.472 22.455 22.435 22.402 22.332 22.292 22.217 22.182 22.165 22.12 22.12 22.035 21.985 21.915 21.885 21.875 24.53 23.387 21.94 21.942 21.97 21.962 21.97 21.94 21.905 21.847 21.797 21.777 21.757 21.73 21.71 21.697 21.685 21.732 21.675 21.667 22.115 22.082 21.635 21.462 21.457 21.422 21.412 21.427 21.39 21.355 21.312 21.272 21.21 21.167 21.105 21.067 21.052 21.015 20.977 20.935 20.887 20.807 20.74 20.705 20.695 20.665 20.62 20.55 20.475 20.405 20.382 20.385 20.317 20.297 20.232 20.14 20.087 20.05 19.99 19.965 19.895 19.812 19.717 19.647 19.59 19.545 20.217 22.34 22.162 20.507 19.347 19.057 19.075 19.012 18.947 18.685 18.627 18.515 18.46 18.362 18.287 18.21 18.15 18.107 18.017 17.947 17.817 17.82 17.692 17.682 17.642 17.507 17.475 17.395 17.37 17.38 17.26 17.227 17.055 17.047 16.855 16.867 16.8 16.765 16.69 16.61 16.465 16.36 16.327 16.285 16.287 16.195 16.192 16.147 16.1 16.037 16.045 16.015 15.94 15.942 15.912 15.807 15.762 15.73 15.695 15.702 15.642 15.572 15.532 15.482 15.422 15.35 15.345 15.257 15.162 15.07 14.965 14.897 14.867 14.787 14.75 14.72 14.695 14.705 14.58 14.357 14.047 13.69 14.465 15.502 14.16 14.33 14.737 14.575 16.347 14.21 14.297 14.192 14.08 14.44 15.047 15.365 15.765 16.02 16.365 16.52 16.482 16.187 16.007 16.007 15.49 15.115 14.495 14.242 14.592 15.692 13.777 16.047 14.34 14.117 15.54 13.352 13.415 13.34 13.332 13.352 13.36 13.472 13.657 13.69 13.945 13.93 13.995 14.557 16.102 14.087 14.11 14.08 14.097 14.09 13.922 14.125 13.987 14.037 14.342 15.802 16.68 14.79 13.677 13.482 13.247 13.217 13.07 13.127 13.21 14.14 14.785 14.087 14.327 14.577 14.812 15.875 17.927 18.067 18.49 16.407 15.57 15.367 15.145 15.112 15.175 14.967 15.13 15.285 15.35 15.225 15.815 17.787 16.082 15.917 15.815 15.885 15.975 15.995 15.925 15.862 15.855 15.83 15.79 15.805 15.807 15.772 15.705 15.697 15.655 15.645 15.497 15.482 15.425 15.46 15.39 15.362 15.29 15.255 15.137 15.05 15.032 15.005 14.98 14.925 14.852 14.77 14.707 14.675 14.63 14.612 14.605 14.44 14.942 14.86 14.38 13.735 13.602 13.475 13.582 13.805 14.102 14.617 17.102 16.195 14.572 14.31 14.517 14.627 15.102 16.482 16.622 16.017 14.35 14.522 14.645 14.752 14.832 14.9 14.997 15.067 15.177 15.277 15.41 15.525 15.59 15.66 15.742 15.867 15.955 15.945 15.98 16.072 16.19 16.24 17.022 16.962 16.852 16.735 16.745 16.95 17.175 17.322 18.192 17.88 17.632 17.802 18.037 18.09 18.267 18.42 19.752
27.737 27.01 26.322 26.322 26.28 26.787 27.837 28.747 25.872 25.807 25.772 25.71 27.41 29.527 29.927 29.012 26.16 25.527 25.445 25.412 25.36 25.3 25.27 25.235 25.21 25.19 25.16 25.077 25.04 25.007 24.937 24.877 24.822 24.842 24.767 24.727 24.695 24.65 24.615 24.57 24.527 24.507 24.46 24.442 24.417 24.365 24.302 24.277 24.235 24.195 24.125 24.065 24.057 24.145 25.257 25.475 23.692 23.76 24.197 23.882 23.765 23.71 23.657 23.677 23.617 23.557 23.507 23.477 23.4 23.35 23.297 23.25 23.192 23.167 23.075 23.055 22.997 22.932 22.917 22.865 22.842 22.807 22.762 22.745 22.675 22.66 22.595 22.585 22.552 22.545 22.52 22.485 22.487 22.43 22.367 22.317 22.257 22.25 22.247 22.212 22.205 22.14 22.062 22.015 21.99 21.98 24.44 23.277 21.997 22.002 22.015 22.01 21.99 21.982 21.957 21.892 21.857 21.837 21.822 21.797 21.79 21.782 21.787 21.802 21.775 21.797 22.22 22.327 21.69 21.57 21.525 21.487 21.477 21.472 21.43 21.382 21.335 21.32 21.262 21.212 21.167 21.142 21.095 21.052 21.042 21.01 20.94 20.897 20.83 20.792 20.745 20.72 20.655 20.615 20.515 20.48 20.432 20.417 20.407 20.35 20.29 20.202 20.092 20.035 20.017 19.955 19.88 19.782 19.72 19.667 19.612 20.427 22.102 22.27 19.972 19.255 19.097 19.255 19.245 18.912 18.82 18.675 18.592 18.54 18.445 18.375 18.277 18.172 18.14 18.055 18.002 17.937 17.805 17.755 17.635 17.597 17.53 17.492 17.405 17.45 17.342 17.332 17.175 17.15 16.995 16.992 16.822 16.817 16.722 16.677 16.642 16.547 16.422 16.347 16.337 16.28 16.237 16.17 16.197 16.125 16.082 16.02 16.012 15.957 15.877 15.832 15.795 15.792 15.737 15.682 15.677 15.682 15.6 15.567 15.505 15.435 15.362 15.34 15.315 15.19 15.202 15.06 14.942 14.83 14.822 14.797 14.767 14.757 15.007 15.517 14.762 14.047 14.345 15.342 13.62 14.175 14.362 15.145 16.84 18.73 16.4 15.227 14.36 14.16 14.35 15.147 15.617 15.767 16.01 16.327 16.542 16.472 16.155 16.035 15.937 15.685 14.93 14.23 13.78 13.925 14.042 13.642 14.217 17.567 13.847 13.61 13.46 13.43 13.455 13.42 13.522 13.522 13.615 13.645 13.795 13.852 14.007 14.037 14.162 14.125 14.147 14.227 14.235 14.245 14.29 16.547 14.157 14.195 14.27 14.3 14.245 14.942 16.015 14.217 13.965 13.8 13.67 13.897 14.4 13.277 13.35 13.87 14.022 14.125 14.315 14.585 14.905 16.027 17.515 20.075 19.52 16.46 15.28 15.167 15.017 14.995 15.07 15.235 15.59 15.742 17.932 15.382 16.825 16.46 16.01 15.91 15.91 16.002 16.107 16.012 16.052 15.97 15.937 15.882 15.885 15.897 15.86 15.815 15.775 15.772 15.727 15.647 15.565 15.577 15.487 15.485 15.457 15.425 15.35 15.297 15.172 15.102 15.075 15.022 14.967 14.93 14.91 14.83 14.717 14.622 14.58 14.555 14.552 14.432 14.335 14.252 14.145 14.652 15.102 13.702 13.672 13.995 14.555 14.357 14.97 16.117 14.467 14.297 14.515 14.417 14.697 16.78 16.915 15.837 14.347 14.487 14.62 14.727 14.79 14.865 14.95 15.02 15.127 15.242 15.372 15.48 15.527 15.62 15.715 15.84 15.905 15.945 15.997 16.062 16.157 16.267 17 16.792 16.735 16.72 16.84 16.892 16.982 17.187 17.377 17.477 17.615 17.782 17.982 18.04 18.272 18.397 18.895
27.312 26.537 26.332 26.34 26.307 27.157 28.147 27.63 25.927 25.877 25.797 25.737 28.297 29.702 29.832 27.917 25.932 25.592 25.497 25.445 25.422 25.36 25.307 25.26 25.25 25.205 25.185 25.127 25.09 25.047 24.975 24.922 24.877 24.832 24.777 24.762 24.745 24.71 24.63 24.595 24.567 24.537 24.472 24.417 24.417 24.367 24.325 24.305 24.257 24.197 24.17 24.135 24.055 24.19 25.032 24.692 23.75 23.887 24.302 23.867 23.79 23.772 23.735 23.702 23.675 23.592 23.56 23.497 23.445 23.357 23.335 23.302 23.237 23.197 23.14 23.067 23.03 22.947 22.935 22.89 22.865 22.837 22.812 22.737 22.727 22.685 22.617 22.635 22.57 22.587 22.557 22.532 22.522 22.477 22.42 22.367 22.32 22.322 22.302 22.27 22.275 22.217 22.222 22.127 22.065 22.442 25.525 22.632 22.065 22.09 22.095 22.105 22.06 22.05 21.99 21.967 21.917 21.9 21.865 21.877 21.87 21.852 21.875 21.935 21.84 21.902 22.352 22.197 21.732 21.612 21.572 21.52 21.492 21.502 21.46 21.4 21.39 21.365 21.317 21.27 21.215 21.192 21.157 21.11 21.092 21.065 21.01 20.945 20.865 20.832 20.805 20.757 20.732 20.675 20.605 20.56 20.487 20.467 20.46 20.385 20.26 20.157 20.125 20.08 20.002 19.947 19.845 19.815 19.75 19.785 22.405 23.112 21.975 19.637 19.262 19.302 19.5 19.197 19.095 18.982 18.792 18.68 18.625 18.53 18.465 18.38 18.295 18.242 18.11 17.992 17.945 17.89 17.782 17.755 17.665 17.567 17.5 17.455 17.405 17.355 17.327 17.297 17.137 17.14 16.982 17.035 16.767 16.715 16.622 16.65 16.597 16.48 16.442 16.337 16.352 16.26 16.195 16.152 16.165 16.11 16.117 15.982 15.965 15.897 15.847 15.797 15.732 15.712 15.712 15.645 15.602 15.61 15.542 15.517 15.425 15.357 15.342 15.31 15.24 15.202 15.14 15.015 14.965 14.825 14.797 14.762 14.765 14.8 15.867 14.475 14.03 14.935 16.887 14.645 14.13 14.872 14.635 15.522 14.577 17.64 14.432 14.58 14.785 14.45 15.092 15.535 15.745 15.98 16.382 16.59 16.515 16.137 15.857 15.83 15.627 15.012 14.962 13.68 13.607 14.167 15.09 14.427 14.31 13.6 13.595 13.57 13.487 13.537 13.54 13.662 13.612 13.692 13.78 13.787 14.072 17.325 15.382 14.105 14.162 14.77 16.012 14.34 14.38 14.46 14.482 15.042 14.46 14.47 14.525 15.097 15.155 14.4 14.4 15.372 14.272 14.137 14.26 13.847 14.01 13.842 13.612 13.64 13.935 14.195 14.365 15.462 15.115 15.42 16.46 16.862 16.98 15.472 15.112 15.077 15.05 15.21 15.43 15.79 18.547 19.617 23.27 16.615 18.562 16.195 16.1 15.967 16.012 16.112 16.11 16.075 16.017 15.985 15.972 15.952 15.94 15.997 16.03 15.952 15.835 15.805 15.785 15.702 15.637 15.585 15.637 15.565 15.535 15.47 15.415 15.337 15.242 15.167 15.11 15.092 15.02 14.962 14.892 14.845 14.75 14.667 14.532 14.475 14.475 14.387 14.335 14.285 14.175 13.987 14.18 14.547 13.712 14.077 15.027 15.26 15.312 15.457 14.415 14.235 14.54 14.455 14.59 16.66 16.455 15.742 14.332 14.445 14.572 14.665 14.742 14.817 14.882 14.96 15.065 15.162 15.297 15.42 15.517 15.612 15.712 15.845 15.895 15.937 16 16.077 16.15 16.235 16.802 17.37 16.79 16.79 16.795 16.757 16.865 16.995 17.277 17.387 17.64 17.81 17.907 18.012 18.215 18.34 19.755
27.46 26.452 26.39 26.362 26.345 28.052 27.487 26.472 25.995 25.922 25.86 26.875 29.425 30.287 29.865 27.895 25.762 25.595 25.535 25.515 25.452 25.392 25.35 25.33 25.295 25.257 25.2 25.152 25.14 25.085 25.042 25.007 24.94 24.872 24.825 24.807 24.785 24.732 24.655 24.607 24.605 24.552 24.482 24.47 24.445 24.402 24.352 24.34 24.297 24.235 24.197 24.165 24.277 24.17 24.697 24.417 23.792 24.042 24.16 23.855 23.837 23.79 23.78 23.735 23.692 23.632 23.605 23.53 23.472 23.397 23.357 23.322 23.282 23.21 23.14 23.095 23.042 22.992 22.937 22.915 22.902 22.89 22.832 22.775 22.75 22.7 22.65 22.662 22.617 22.625 22.602 22.587 22.557 22.52 22.47 22.405 22.345 22.355 22.365 22.322 22.292 22.277 22.48 22.195 22.112 22.532 25.125 22.082 22.115 22.157 22.125 22.13 22.102 22.082 22.055 22.01 21.97 21.977 21.935 22.022 21.942 21.94 21.962 21.942 21.91 22.007 22.385 22.227 21.685 21.652 21.612 21.57 21.562 21.545 21.497 21.447 21.442 21.422 21.362 21.32 21.275 21.227 21.235 21.197 21.152 21.135 21.075 20.97 20.927 20.907 20.857 20.832 20.76 20.757 20.705 20.605 20.542 20.487 20.457 20.367 20.277 20.19 20.127 20.097 20.002 19.952 19.882 19.82 20.28 20.977 22.3 20.745 19.492 19.332 19.317 19.57 19.415 19.132 18.97 18.925 18.852 18.66 18.667 18.517 18.49 18.365 18.267 18.22 18.06 18.015 17.952 17.907 17.787 17.685 17.555 17.582 17.51 17.425 17.34 17.285 17.212 17.197 17.055 17.01 16.93 16.917 16.772 16.772 16.735 16.67 16.537 16.432 16.447 16.347 16.312 16.24 16.177 16.147 16.122 16.05 16.105 15.94 15.882 15.802 15.805 15.78 15.762 15.73 15.65 15.59 15.562 15.515 15.507 15.437 15.367 15.31 15.242 15.205 15.182 15.165 15.102 15.015 14.912 14.837 14.772 14.817 15.207 14.897 14.442 14.487 14.865 14.047 14.13 14.327 14.302 15.235 16.125 17.545 14.452 15.192 14.307 14.305 14.45 15.187 15.667 15.84 15.957 16.342 16.61 16.55 16.21 15.932 15.735 15.457 14.997 14.327 13.737 13.59 13.572 13.86 14.087 13.69 13.587 13.63 13.602 13.587 13.582 13.697 13.705 13.827 13.822 13.98 13.942 13.925 14.135 19.752 23.102 20.397 14.295 14.667 14.757 14.43 14.73 14.59 14.59 14.537 14.577 14.62 14.61 14.667 14.852 14.847 15.31 14.645 14.38 14.262 14.25 14.167 14.177 14.045 14.235 14.317 13.952 14.23 14.407 14.717 15.25 15.517 15.6 15.512 15.27 17.605 15.227 15.27 15.412 15.71 16.082 16.265 23.417 20.14 18.352 17.03 16.305 16.237 16.097 16.077 16.535 16.68 16.18 16.207 16.102 16.152 16.097 15.995 16.01 16.075 15.965 15.92 15.88 15.837 15.835 15.76 15.642 15.65 15.652 15.63 15.595 15.495 15.467 15.427 15.315 15.25 15.195 15.185 15.075 15.007 14.915 14.845 14.782 14.73 14.595 14.512 14.395 14.327 14.322 14.282 14.217 14.085 15.035 13.995 14.522 14.91 14.71 15.697 15.812 15.432 14.657 14.187 14.542 14.485 14.557 16.917 16.602 16.137 14.35 14.402 14.515 14.59 14.622 14.712 14.797 14.905 14.997 15.09 15.207 15.355 15.497 15.597 15.677 15.807 15.867 15.905 16.005 16.047 16.145 16.337 18.095 18.162 17.812 16.692 16.687 16.675 16.787 16.902 17.13 17.332 17.657 17.797 17.937 18.107 18.752 18.412 18.527
27.362 26.48 26.385 26.355 26.36 27.527 26.755 26.105 26.075 25.97 25.907 27.277 29.775 30.637 30.022 28.645 25.862 25.652 25.605 25.545 25.497 25.442 25.395 25.365 25.362 25.295 25.27 25.2 25.147 25.097 25.012 24.997 24.957 24.927 24.857 24.852 24.822 24.767 24.707 24.655 24.65 24.575 24.505 24.492 24.47 24.437 24.405 24.362 24.332 24.272 24.225 24.187 24.227 24.385 24.752 24.442 23.857 24.095 24.095 23.892 23.84 23.805 23.77 23.742 23.7 23.65 23.642 23.57 23.492 23.415 23.36 23.317 23.257 23.215 23.157 23.092 23.04 22.972 22.957 22.917 22.91 22.89 22.86 22.815 22.765 22.777 22.73 22.705 22.665 22.655 22.642 22.622 22.602 22.557 22.525 22.452 22.422 22.41 22.392 22.387 22.37 22.302 22.282 22.21 22.162 24.415 23.585 22.122 22.155 22.19 22.182 22.19 22.125 22.112 22.085 22.065 22.02 22.047 22.005 22.022 21.997 22 22.022 22.027 21.997 22.092 22.41 22.192 21.732 21.715 21.635 21.602 21.612 21.602 21.575 21.512 21.497 21.482 21.43 21.357 21.342 21.33 21.297 21.237 21.232 21.175 21.132 21.007 20.975 20.947 20.92 20.897 20.835 20.775 20.7 20.62 20.525 20.49 20.447 20.38 20.287 20.21 20.12 20.062 20.017 19.972 20.312 21.65 23.795 23.227 20.062 19.467 19.397 19.51 19.46 19.6 19.17 19.015 18.942 18.91 18.867 18.695 18.61 18.487 18.407 18.355 18.262 18.152 18.05 18 17.955 17.8 17.705 17.665 17.54 17.47 17.445 17.415 17.29 17.255 17.15 17.082 16.997 16.985 16.885 16.852 16.747 16.75 16.617 16.62 16.48 16.42 16.392 16.362 16.355 16.235 16.197 16.127 16.082 16.022 16.02 15.895 15.832 15.747 15.747 15.785 15.722 15.697 15.622 15.535 15.515 15.437 15.447 15.392 15.345 15.277 15.182 15.175 15.12 15.122 15.097 15.022 14.89 14.79 14.802 16.035 16.1 14.76 14.075 16.26 17.267 15.077 17.035 14.372 14.497 14.835 17.452 17.645 14.387 14.597 14.27 14.555 15.205 15.605 15.805 16.055 16.365 16.615 16.567 16.322 16.002 15.755 15.482 14.87 14.13 13.595 13.465 14.837 14.075 13.747 13.79 13.682 13.642 13.642 13.665 13.655 13.755 13.867 13.862 13.927 13.932 14.037 14.045 14.122 14.192 14.39 21.047 17.572 14.382 14.505 14.535 14.655 15.24 15.397 14.635 14.712 14.757 14.725 14.7 14.962 14.802 15.07 15.207 14.845 14.682 14.682 15.307 14.46 14.45 14.222 13.992 15.015 14.607 14.22 14.435 14.77 15.162 15.447 15.602 15.29 15.732 17.095 15.615 15.78 16.032 16.285 16.485 17.547 24.135 17.05 18.21 16.947 16.472 16.355 16.18 16.2 16.555 16.595 16.247 16.48 16.195 16.182 16.13 16.107 16.102 16.142 16.01 15.975 15.962 15.925 15.892 15.792 15.705 15.732 15.705 15.7 15.602 15.557 15.537 15.455 15.377 15.322 15.29 15.232 15.157 15.12 14.99 14.922 14.83 14.75 14.637 14.532 14.41 14.332 14.255 14.237 14.175 18.312 19.617 17.072 13.792 14.192 15.522 15.665 16.835 16.78 15.587 14.172 14.552 14.55 15.195 16.51 17.292 16.327 14.385 14.357 14.455 14.53 14.562 14.637 14.702 14.797 14.895 14.987 15.112 15.272 15.45 15.585 15.665 15.77 15.855 15.882 15.952 16.017 16.12 16.285 16.412 22.132 17.627 16.71 16.812 16.63 16.715 16.865 17.047 17.315 17.607 17.74 17.877 18.055 18.12 18.27 18.45
27.182 26.475 26.425 26.405 26.427 27.007 26.277 26.275 26.092 26.02 25.967 28.847 29.945 30.667 29.855 27.812 25.702 25.705 25.647 25.602 25.542 25.502 25.465 25.417 25.425 25.35 25.33 25.237 25.185 25.127 25.075 25.002 24.995 24.987 24.89 24.882 24.835 24.772 24.735 24.727 24.69 24.612 24.542 24.54 24.542 24.48 24.492 24.42 24.39 24.327 24.25 24.197 24.215 24.557 25.752 24.515 23.922 24.312 24.1 23.902 23.857 23.845 23.785 23.775 23.755 23.68 23.637 23.58 23.532 23.427 23.4 23.347 23.312 23.242 23.182 23.117 23.06 23.02 22.967 22.935 22.927 22.94 22.885 22.862 22.84 22.807 22.775 22.755 22.717 22.69 22.647 22.66 22.635 22.62 22.555 22.495 22.485 22.465 22.482 22.455 22.405 22.34 22.305 22.237 22.175 24.317 23.127 22.177 22.187 22.197 22.172 22.202 22.167 22.222 22.132 22.095 22.07 22.085 22.055 22.092 22.065 22.045 22.077 22.052 22.01 22.162 22.437 22.082 21.777 21.775 21.705 21.667 21.695 21.667 21.655 21.602 21.572 21.535 21.475 21.405 21.38 21.36 21.345 21.322 21.282 21.23 21.145 21.102 21.045 20.982 20.955 20.932 20.862 20.76 20.692 20.625 20.535 20.495 20.46 20.355 20.267 20.23 20.165 20.095 20.177 21.387 22.957 22.887 21.492 19.675 19.495 19.567 19.5 19.45 19.332 19.125 19.04 19.06 18.945 18.865 18.862 18.772 18.687 18.445 18.435 18.312 18.205 18.105 18.017 17.987 17.835 17.742 17.705 17.63 17.572 17.502 17.435 17.417 17.285 17.205 17.122 17.117 16.952 16.97 16.862 16.812 16.725 16.72 16.57 16.527 16.44 16.402 16.385 16.365 16.36 16.217 16.187 16.092 16.025 15.987 15.927 15.815 15.802 15.725 15.712 15.712 15.675 15.617 15.602 15.472 15.455 15.412 15.402 15.36 15.272 15.232 15.18 15.115 15.09 15.115 15.035 14.96 14.82 14.805 14.905 15.65 14.597 14.22 14.927 14.53 15.38 14.602 14.432 15.075 14.39 14.8 14.327 14.505 14.662 14.292 14.495 15.215 15.792 15.852 16.025 16.392 16.625 16.612 16.377 16 15.455 14.96 14.555 14.025 13.607 13.475 13.46 14.315 14 14.372 13.882 13.835 13.777 13.715 13.795 13.855 13.885 13.935 14.072 14.155 14.08 14.135 14.165 14.26 14.665 18.115 22.95 16.772 14.58 14.612 14.642 14.847 15.08 15.032 14.72 14.777 14.842 15.13 20.347 22.687 15.065 15.287 15.747 15.19 14.97 15.01 14.885 14.627 14.722 14.71 15.007 14.79 14.667 14.452 14.445 14.847 15.005 15.26 15.297 15.28 15.452 15.707 16.102 16.247 16.495 16.49 16.56 16.837 16.51 16.797 18.605 17.03 16.725 16.29 16.272 16.307 16.567 16.33 16.367 16.285 16.24 16.217 16.232 16.165 16.2 16.175 16.08 16.032 16.04 16.005 15.952 15.842 15.792 15.845 15.8 15.727 15.677 15.665 15.585 15.52 15.41 15.39 15.352 15.297 15.25 15.177 15.09 15.002 14.912 14.81 14.662 14.545 14.46 14.37 14.265 14.167 14.122 15.275 15.62 14.265 15.487 13.81 14.54 14.995 15.407 17.26 15.91 14.177 14.552 14.647 14.832 15.615 16.175 15.76 14.357 14.292 14.37 14.427 14.497 14.552 14.595 14.67 14.79 14.92 15.05 15.207 15.42 15.55 15.635 15.76 15.815 15.89 15.945 16.01 17.507 16.2 16.737 17.99 20.432 16.802 16.705 16.707 16.752 16.862 17.07 17.332 17.555 17.755 17.855 17.995 19.99 19.072 19.392
26.77 26.445 26.475 26.452 26.525 26.907 26.337 26.62 26.277 26.035 26.482 29.005 30.195 30.597 29.61 27.65 25.737 25.73 25.72 25.675 25.582 25.557 25.48 25.46 25.442 25.407 25.345 25.265 25.217 25.187 25.14 25.08 25.067 25.002 24.922 24.92 24.877 24.832 24.78 24.755 24.71 24.667 24.615 24.595 24.597 24.527 24.505 24.447 24.437 24.365 24.285 24.207 24.367 24.535 24.995 24.315 23.972 24.322 24.147 23.907 23.882 23.815 23.802 23.782 23.767 23.687 23.667 23.622 23.542 23.457 23.417 23.362 23.285 23.235 23.212 23.117 23.04 23.005 22.99 22.965 22.967 22.955 22.915 22.897 22.857 22.827 22.815 22.78 22.762 22.75 22.702 22.687 22.665 22.627 22.597 22.53 22.52 22.48 22.49 22.447 22.412 22.377 22.322 22.262 22.342 24.392 23.11 22.287 22.252 22.235 22.207 22.21 22.212 22.242 22.21 22.165 22.137 22.14 22.185 22.12 22.085 22.087 22.105 22.075 22.065 22.472 22.51 22.007 21.812 21.765 21.735 21.702 21.747 21.762 21.705 21.645 21.6 21.595 21.535 21.465 21.427 21.425 21.402 21.365 21.327 21.275 21.207 21.145 21.085 21.035 20.97 20.902 20.815 20.737 20.715 20.61 20.57 20.512 20.46 20.38 20.322 20.285 20.237 20.917 22.692 22.795 22.887 20.472 19.675 19.577 19.615 20.452 19.61 19.405 19.187 19.6 19.97 18.992 18.957 18.877 18.802 18.657 18.562 18.455 18.392 18.255 18.215 18.087 17.99 17.94 17.842 17.742 17.69 17.632 17.58 17.552 17.37 17.325 17.235 17.112 17.04 17.027 16.95 16.915 16.802 16.747 16.66 16.692 16.557 16.535 16.415 16.422 16.445 16.35 16.307 16.23 16.202 16.007 15.942 15.902 15.917 15.797 15.78 15.72 15.68 15.665 15.592 15.54 15.507 15.47 15.445 15.41 15.392 15.3 15.232 15.182 15.13 15.11 15.147 15.06 14.962 14.907 14.897 14.985 14.722 14.37 14.01 15.847 13.997 14.417 14.292 14.457 15.915 16.412 14.667 14.335 14.365 14.595 14.462 14.585 15.14 15.692 15.965 16.052 16.432 16.68 16.625 16.402 15.942 15.262 14.5 13.91 13.885 13.775 13.605 13.485 13.467 13.507 13.71 13.832 14.017 13.832 13.852 13.945 13.885 13.915 14.045 14.112 14.115 14.155 14.19 14.227 14.235 14.855 15.042 15.465 15.35 14.605 14.572 14.63 15.077 15.077 14.995 14.792 14.855 14.895 16.667 17.18 27.252 16.7 15.257 15.657 15.562 15.927 15.81 15.437 15.165 15.067 15.095 15.195 15.042 14.93 14.972 14.912 14.752 14.93 15.132 15.36 15.48 15.815 16.1 16.237 16.407 16.47 16.737 16.857 16.535 16.295 16.252 19.152 17.82 17.185 16.61 16.302 16.382 16.437 16.427 16.425 16.39 16.347 16.31 16.272 16.27 16.232 16.255 16.235 16.145 16.072 16.067 16.075 16.027 15.915 15.885 15.872 15.842 15.777 15.702 15.675 15.612 15.545 15.47 15.44 15.4 15.392 15.335 15.235 15.165 15.105 14.982 14.877 14.78 14.62 14.525 14.435 14.347 14.207 14.127 14.152 14.042 14.15 15.12 13.862 14.695 14.1 16.145 16.612 15.522 14.097 14.535 14.58 14.497 15.402 15.752 15.662 14.275 14.202 14.307 14.33 14.417 14.482 14.515 14.592 14.695 14.82 14.962 15.165 15.412 15.507 15.617 15.725 15.797 15.862 15.955 16.035 16.092 16.207 16.312 16.545 16.872 16.522 16.76 16.785 16.812 16.892 17.235 17.485 17.647 18.082 17.882 19.74 25.702 21.07 24.142
26.62 26.502 26.482 26.425 26.425 26.91 26.835 26.25 26.157 26.102 25.997 26.702 28.73 29.3 29.142 26.56 26.005 25.78 25.83 25.812 25.662 25.607 25.535 25.487 25.477 25.422 25.385 25.305 25.26 25.217 25.17 25.142 25.077 25.007 24.957 24.952 24.882 24.832 24.835 24.792 24.765 24.685 24.645 24.61 24.597 24.557 24.527 24.485 24.447 24.385 24.327 24.225 24.537 25.642 25.382 23.9 24.01 24.262 24.022 23.942 23.927 23.882 23.83 23.79 23.77 23.707 23.677 23.617 23.54 23.472 23.425 23.355 23.337 23.247 23.187 23.112 23.055 23.022 22.977 22.982 22.972 22.975 22.935 22.927 22.9 22.865 22.812 22.792 22.74 22.767 22.75 22.727 22.705 22.677 22.677 22.602 22.552 22.505 22.485 22.495 22.45 22.402 22.327 22.25 22.677 25.302 23.11 22.262 22.27 22.257 22.285 22.27 22.28 22.29 22.235 22.217 22.2 22.15 22.167 22.142 22.137 22.13 22.152 22.135 22.055 22.535 22.57 22.087 21.862 21.832 21.817 21.797 21.842 21.847 21.78 21.712 21.655 21.622 21.587 21.522 21.477 21.465 21.44 21.377 21.345 21.292 21.215 21.15 21.085 21.025 20.955 20.897 20.815 20.765 20.727 20.652 20.592 20.515 20.467 20.417 20.357 20.4 22.407 23.22 23.825 22.452 19.997 19.742 19.757 19.695 19.55 19.562 19.4 19.335 19.157 22.817 23.845 19.327 18.91 18.83 18.792 18.65 18.557 18.467 18.367 18.23 18.122 18.047 17.962 17.912 17.807 17.765 17.617 17.587 17.575 17.572 17.495 17.372 17.252 17.065 17.04 16.95 16.882 16.825 16.73 16.707 16.64 16.637 16.54 16.51 16.492 16.525 16.377 16.315 16.24 16.162 16.117 15.982 15.937 15.86 15.8 15.747 15.755 15.702 15.64 15.612 15.582 15.507 15.47 15.437 15.39 15.37 15.337 15.23 15.23 15.17 15.077 15.052 14.992 14.967 14.882 14.977 14.915 15.007 14.4 15.08 15.407 14.577 14.075 14.157 14.3 14.627 14.935 15.07 16.627 14.315 14.397 14.37 14.487 15.27 15.822 15.977 16.082 16.377 16.655 16.607 16.455 16.067 15.21 14.387 13.95 13.925 13.897 13.78 13.592 13.465 13.505 13.547 13.627 13.717 13.845 13.985 13.965 13.967 13.997 13.985 14.042 14.16 14.18 14.277 14.307 14.377 14.38 14.512 14.685 14.635 14.735 14.682 14.75 14.882 15.435 14.997 14.865 14.952 15.17 16.092 19.762 15.805 16.697 15.522 15.96 16.11 15.535 15.712 16.29 15.655 15.977 16.237 15.522 15.537 16.28 15.495 15.647 15.165 14.92 15.052 15.282 15.57 15.835 16.162 16.457 16.792 16.877 16.617 16.547 16.557 16.465 16.325 18.76 18.677 17.812 16.99 16.467 16.43 16.49 16.595 16.51 16.447 16.45 16.477 16.395 16.36 16.372 16.332 16.315 16.322 16.212 16.245 16.142 16.117 16.082 15.952 15.955 15.937 15.897 15.832 15.745 15.69 15.655 15.605 15.487 15.477 15.467 15.465 15.395 15.292 15.23 15.162 15.035 14.95 14.85 14.715 14.587 14.47 14.372 14.252 14.155 14.102 14.047 14.055 14.622 15.915 13.83 16.192 16.525 15.765 15.572 13.84 14.487 14.592 14.152 15.55 16.107 15.952 14.492 14.057 14.165 14.237 14.322 14.41 14.455 14.517 14.61 14.762 14.925 15.122 15.36 15.475 15.627 15.737 15.772 15.86 15.94 15.997 16.072 16.19 16.312 16.392 17.632 17.025 16.732 16.98 16.827 16.995 17.317 19.385 21.125 19.912 22.642 26.71 31.955 31.512 31.747
26.597 26.517 26.482 26.44 26.447 26.417 26.39 26.257 26.182 26.16 26.102 26.017 25.972 25.927 25.995 27 29.08 28.99 27.59 28.015 26.805 25.73 25.582 25.54 25.537 25.515 25.422 25.342 25.342 25.287 25.23 25.17 25.13 25.067 25.02 25.01 24.952 24.885 24.83 24.815 24.77 24.705 24.677 24.645 24.62 24.582 24.537 24.512 24.462 24.415 24.402 24.227 24.492 25.47 25.505 23.93 24.05 24.337 24.062 24.01 23.945 23.915 23.875 23.837 23.79 23.725 23.707 23.64 23.557 23.527 23.467 23.41 23.327 23.275 23.2 23.11 23.055 23.032 22.99 22.972 22.977 22.977 22.965 22.965 22.925 22.895 22.835 22.812 22.797 22.79 22.775 22.742 22.757 22.682 22.665 22.652 22.595 22.567 22.527 22.527 22.495 22.42 22.35 22.28 22.737 24.84 22.305 22.285 22.367 22.332 22.357 22.335 22.342 22.3 22.262 22.255 22.25 22.187 22.162 22.14 22.147 22.177 22.195 22.16 22.127 22.567 22.522 22.107 21.967 21.892 21.877 21.855 21.892 21.887 21.852 21.792 21.707 21.672 21.615 21.552 21.502 21.492 21.46 21.397 21.36 21.32 21.235 21.14 21.082 21.022 20.97 20.91 20.837 20.79 20.73 20.657 20.582 20.532 20.522 20.44 20.7 23.075 23.547 22.102 21.317 19.9 19.84 19.82 19.765 19.622 19.555 19.43 19.385 19.27 19.127 21.46 20.395 18.972 18.905 18.795 18.767 18.67 18.537 18.397 18.32 18.202 18.09 17.997 17.942 17.912 17.842 17.73 17.64 17.585 17.545 17.482 17.362 17.232 17.145 17.105 17.002 16.907 16.797 16.752 16.712 16.667 16.602 16.605 16.552 16.58 16.46 16.47 16.48 16.315 16.175 16.122 16.097 15.92 15.867 15.827 15.787 15.742 15.687 15.64 15.595 15.625 15.565 15.47 15.402 15.35 15.355 15.295 15.235 15.182 15.145 15.082 15.05 15.03 14.947 14.87 15.077 14.955 14.692 14.017 13.597 15.402 14.155 14.277 14.247 14.315 14.37 14.357 14.22 14.15 14.392 14.4 14.257 14.545 15.277 15.85 16.017 16.045 16.367 16.65 16.665 16.442 16.082 15.275 14.412 14.127 14.12 13.99 13.93 13.772 13.55 13.477 13.515 13.602 13.667 13.812 13.89 13.907 13.915 13.997 14.027 14.035 14.18 14.21 14.305 14.375 14.685 14.717 15.492 14.67 14.65 14.682 14.842 14.775 14.842 14.92 15.162 15.047 14.962 15.01 15.517 15.435 15.527 15.347 15.375 15.462 15.957 16.117 16.095 16.417 15.88 15.825 17.335 16.13 15.737 15.697 17.892 15.84 16.897 15.512 15.355 15.41 15.502 15.755 16.005 16.285 16.51 16.765 16.677 16.837 16.775 16.625 16.815 17.537 19.257 18.372 17.425 16.88 16.512 16.542 16.657 16.587 16.502 16.492 16.52 16.525 16.457 16.43 16.442 16.39 16.387 16.387 16.285 16.232 16.23 16.187 16.09 16.08 16.012 16.005 15.94 15.882 15.822 15.762 15.722 15.637 15.552 15.52 15.512 15.497 15.432 15.34 15.255 15.205 15.127 15.01 14.87 14.775 14.645 14.54 14.41 14.287 14.205 14.112 14.07 14.052 14.227 17.607 16.357 16.947 15.57 16.777 16.537 14.277 14.447 14.622 14.627 14.927 14.822 16.257 14.61 13.89 14.015 14.15 14.247 14.34 14.397 14.45 14.58 14.725 14.887 15.117 15.322 15.457 15.585 15.717 15.785 15.862 15.94 15.982 16.042 16.172 16.307 16.39 17.087 17.135 16.667 16.775 16.95 17.03 17.262 20.41 21.747 18.01 24.337 29.11 26.602 25.595 26.997
26.53 26.555 26.52 26.427 26.427 26.447 26.392 26.317 26.242 26.185 26.102 26.05 26.012 25.98 25.902 27.04 29.405 29.817 29.752 29.327 27.032 25.752 25.605 25.585 25.552 25.515 25.452 25.387 25.362 25.307 25.225 25.15 25.155 25.08 25.085 25.037 24.995 24.93 24.88 24.872 24.822 24.737 24.69 24.682 24.65 24.587 24.592 24.52 24.485 24.432 24.437 24.76 24.772 24.967 24.715 23.972 24.095 24.352 24.065 24.03 23.992 23.94 23.925 23.902 23.835 23.772 23.737 23.687 23.63 23.542 23.515 23.42 23.352 23.312 23.215 23.13 23.055 23.027 23.007 23.01 23.03 22.992 22.972 22.965 22.932 22.902 22.872 22.827 22.847 22.802 22.8 22.77 22.755 22.742 22.722 22.682 22.62 22.54 22.537 22.527 22.477 22.405 22.342 22.275 24.395 24.92 22.26 22.335 22.365 22.362 22.375 22.38 22.392 22.335 22.33 22.312 22.245 22.225 22.207 22.195 22.277 22.187 22.21 22.205 22.267 22.737 22.535 22.082 22.01 21.947 21.925 21.907 21.925 21.92 21.857 21.817 21.76 21.692 21.627 21.627 21.562 21.52 21.472 21.432 21.43 21.33 21.242 21.155 21.082 21.052 20.965 20.927 20.852 20.785 20.742 20.667 20.635 20.595 20.92 21.742 22.042 21.265 22.332 20.72 20.027 19.965 19.947 19.917 19.727 19.625 19.535 19.412 19.332 19.235 19.202 19.11 19.005 19.012 18.885 18.762 18.765 18.617 18.522 18.41 18.297 18.167 18.08 17.987 17.935 17.855 17.755 17.732 17.697 17.642 17.477 17.54 17.34 17.147 17.035 16.952 16.925 16.822 16.727 16.727 16.655 16.677 16.617 16.585 16.505 16.477 16.43 16.35 16.36 16.195 16.137 16.065 16.055 15.927 15.84 15.777 15.717 15.685 15.625 15.585 15.52 15.542 15.465 15.455 15.372 15.335 15.395 15.282 15.142 15.072 15.055 15.065 15.037 14.967 15.195 15.395 15.262 14.445 14.447 17.94 14.87 14.147 14.327 14.54 14.322 14.275 14.39 14.895 14.012 14.35 14.21 14.24 14.365 15.11 15.912 16.067 16.06 16.355 16.69 16.675 16.44 16.03 15.277 14.502 14.04 14.005 14.152 13.97 13.927 13.805 13.595 13.497 13.522 13.647 13.68 13.752 13.802 13.847 13.985 14.035 14.05 14.077 14.13 14.17 14.3 14.417 18.182 19.012 17.912 14.85 14.747 14.792 14.917 15.712 18.105 15.752 15.027 15.022 15.157 15.217 15.367 15.545 15.705 15.385 15.562 15.732 15.795 15.935 16.02 16.367 16.032 15.862 17.095 16.307 16.24 15.687 15.78 15.712 16.377 16.077 16.012 15.9 15.91 15.955 16.292 16.377 16.477 16.587 16.68 17.202 16.872 16.875 17.96 19.207 17.3 17.012 16.832 16.625 16.622 16.712 16.68 16.595 16.562 16.56 16.585 16.567 16.522 16.495 16.522 16.475 16.467 16.405 16.362 16.302 16.347 16.197 16.167 16.122 16.117 16.062 16.085 16.075 15.875 15.805 15.782 15.68 15.647 15.587 15.575 15.547 15.445 15.34 15.305 15.245 15.145 15.042 14.912 14.832 14.717 14.61 14.492 14.37 14.29 14.19 14.105 14.075 14.075 14.742 16.98 15.065 16.235 15.875 15.932 14.45 14.387 14.597 14.577 16.705 16.347 16.045 15.097 13.922 13.922 14.072 14.2 14.29 14.377 14.44 14.56 14.68 14.85 15.08 15.312 15.46 15.562 15.667 15.745 15.842 15.895 15.95 16 16.125 16.3 16.382 17.382 17.43 16.842 16.77 16.91 17.477 22.927 17.502 19.777 17.8 24.31 21.78 20.655 18.465 20.545
26.567 26.602 26.512 26.482 26.982 26.687 26.407 26.352 26.287 26.182 26.115 26.055 26.025 25.965 25.902 28.46 29.512 29.902 29.695 29.075 26.847 25.857 25.61 25.555 25.552 25.502 25.447 25.402 25.372 25.305 25.21 25.145 25.195 25.092 25.1 25.047 24.997 24.955 24.91 24.892 24.817 24.76 24.725 24.705 24.665 24.597 24.61 24.532 24.485 24.45 24.382 24.57 24.71 25.177 24.437 24.052 24.202 24.347 24.09 24.05 24.007 23.99 23.975 23.925 23.87 23.81 23.775 23.725 23.665 23.617 23.55 23.465 23.402 23.36 23.282 23.17 23.1 23.045 23.025 23.02 23.022 23.017 23.005 22.965 22.952 22.907 22.88 22.862 22.862 22.832 22.842 22.825 22.8 22.76 22.732 22.68 22.64 22.572 22.537 22.54 22.502 22.417 22.375 22.322 24.575 24.865 22.32 22.407 22.447 22.43 22.43 22.435 22.43 22.377 22.34 22.32 22.272 22.235 22.252 22.23 22.242 22.21 22.255 22.242 22.347 22.775 22.47 22.12 22.042 21.942 21.96 21.935 21.962 21.942 21.892 21.802 21.78 21.705 21.65 21.62 21.575 21.532 21.477 21.46 21.437 21.355 21.242 21.152 21.087 21.07 21.007 20.96 20.862 20.782 20.747 20.72 20.677 21.512 23.52 21.605 23.822 21.372 20.375 20.122 20.12 20.022 19.925 19.782 19.702 19.682 19.562 19.43 19.322 19.245 19.202 19.097 19.027 18.955 18.895 18.737 18.712 18.55 18.552 18.377 18.252 18.127 18.025 17.99 17.922 17.845 17.722 17.635 17.56 17.735 17.495 17.415 17.272 17.102 17.042 16.917 16.88 16.79 16.75 16.69 16.607 16.637 16.577 16.577 16.472 16.415 16.36 16.302 16.25 16.147 16.072 16.022 15.967 15.872 15.832 15.727 15.695 15.632 15.615 15.532 15.49 15.542 15.432 15.422 15.337 15.32 15.25 15.225 15.13 15.04 15.052 15.15 15.035 15.09 15.947 19.87 16.36 15.565 13.51 17.445 14.272 14.342 14.397 14.342 14.535 14.38 14.172 14.075 14.182 14.39 14.297 14.372 14.99 15.812 16.172 16.145 16.387 16.672 16.717 16.5 15.99 16.59 14.652 14.057 14.102 13.962 13.902 13.955 13.875 13.762 13.61 13.55 13.555 13.59 13.597 13.682 13.755 13.95 13.887 13.982 14.03 14.072 14.507 14.365 14.377 14.475 14.56 15.252 19.045 14.787 14.817 14.845 14.965 15.702 16.225 14.98 15.117 15.237 15.555 15.537 15.425 15.687 15.892 15.642 15.81 15.677 15.722 16.185 16.395 16.82 16 16.287 15.765 16.12 15.987 16.062 16.195 15.9 16.535 16.825 16.655 16.83 16.152 16.092 16.392 16.475 16.61 16.722 16.722 17.157 16.65 16.975 17.797 17.012 16.8 16.772 16.705 16.71 16.712 16.857 16.79 16.685 16.672 16.66 16.677 16.642 16.62 16.642 16.625 16.552 16.6 16.477 16.387 16.387 16.34 16.265 16.245 16.2 16.185 16.14 16.06 16.027 15.917 15.89 15.837 15.76 15.675 15.657 15.625 15.55 15.48 15.41 15.352 15.285 15.26 15.097 14.977 14.877 14.815 14.715 14.597 14.457 14.347 14.227 14.152 14.112 14.095 14.105 14.715 15.947 16.085 15.342 15.442 14.602 14.337 14.562 14.445 16.482 16.277 16.13 15.572 13.877 13.87 13.99 14.115 14.237 14.382 14.462 14.557 14.665 14.817 15.027 15.242 15.415 15.532 15.65 15.762 15.807 15.87 15.912 15.985 16.095 16.255 16.327 17.352 17.862 16.892 16.827 17.035 16.957 21.105 18.55 17.92 18.715 18.052 18.077 18.387 18.367 18.552
26.632 26.632 26.542 26.665 27.912 27.147 26.59 26.322 26.22 26.185 26.155 26.08 26.222 26.145 25.922 28.632 29.585 29.927 29.602 28.42 25.725 25.67 25.582 25.582 25.535 25.492 25.435 25.395 25.36 25.3 25.22 25.157 25.155 25.102 25.1 25.05 25.04 24.967 24.91 24.887 24.82 24.79 24.765 24.737 24.67 24.627 24.62 24.555 24.522 24.497 24.43 24.385 24.777 26.1 24.77 24.1 24.367 24.36 24.112 24.092 24.06 24.022 23.987 23.95 23.895 23.847 23.82 23.76 23.67 23.617 23.55 23.502 23.437 23.367 23.275 23.2 23.12 23.07 23.025 23.06 23.05 23.047 23.027 23.002 22.985 22.927 22.907 22.9 22.875 22.865 22.867 22.865 22.8 22.782 22.747 22.702 22.662 22.575 22.53 22.535 22.51 22.455 22.39 22.347 24.602 23.277 22.41 22.445 22.457 22.452 22.477 22.46 22.435 22.352 22.352 22.327 22.292 22.282 22.31 22.255 22.252 22.227 22.247 22.267 22.492 22.79 22.355 22.13 22.05 21.995 21.982 21.985 21.96 21.937 21.882 21.832 21.765 21.697 21.68 21.632 21.582 21.557 21.542 21.515 21.485 21.395 21.265 21.155 21.1 21.082 21.015 20.957 20.875 20.82 20.82 21.492 21.9 22.545 23.43 22.402 20.747 20.27 20.382 20.902 20.257 19.917 19.832 19.722 19.705 19.592 19.495 19.37 19.305 19.217 19.157 19.132 19.07 18.945 18.792 18.722 18.637 18.507 18.525 18.317 18.182 18.1 18.012 17.932 17.88 17.837 17.7 17.617 17.477 17.402 17.332 17.255 17.155 17.042 16.997 16.86 16.802 16.732 16.732 16.71 16.61 16.645 16.537 16.557 16.432 16.397 16.342 16.252 16.212 16.107 16.06 15.97 15.925 15.84 15.802 15.68 15.66 15.582 15.515 15.452 15.442 15.375 15.277 15.202 15.307 15.297 15.105 15.035 15.252 15.192 17.047 17.25 15.122 15.172 14.612 15.095 15.677 15.315 14.265 18.21 14.65 14.965 14.63 14.4 14.662 14.465 14.305 14.31 14.352 14.31 14.385 14.897 15.577 16.12 16.235 16.407 16.697 16.725 16.497 15.995 15.282 16.705 17.175 13.997 13.937 13.867 13.86 13.927 13.925 13.697 13.73 13.605 13.53 13.57 13.57 13.72 13.727 13.85 13.905 14.04 14.042 14.185 14.3 14.432 14.537 14.61 14.745 14.805 15.457 14.807 14.895 15.6 15.315 15.58 15.69 15.35 16.037 16.335 15.8 15.687 15.44 15.555 15.602 15.705 15.952 15.947 16.032 15.977 16.047 16.035 15.737 16.807 16.1 15.932 16.185 16.177 16.237 16.277 16.3 16.362 16.412 17.345 16.635 16.367 16.477 16.657 16.74 16.745 16.81 16.815 17.632 18.105 16.96 16.872 18.855 16.762 16.787 16.817 16.835 16.865 16.83 16.76 16.742 16.72 16.742 16.777 16.702 16.707 16.712 16.61 16.582 16.535 16.447 16.407 16.385 16.335 16.335 16.28 16.292 16.187 16.087 16.01 15.992 15.94 15.922 15.815 15.737 15.705 15.675 15.59 15.547 15.455 15.39 15.285 15.207 15.12 15.027 14.922 14.885 14.802 14.685 14.56 14.447 14.332 14.26 14.15 14.135 14.132 14.07 14.18 14.887 15.122 18.332 15.325 14.32 14.567 14.502 14.802 15.912 16.56 16.125 13.84 13.89 13.987 14.095 14.265 14.4 14.507 14.587 14.67 14.787 14.972 15.17 15.337 15.475 15.587 15.71 15.782 15.847 15.88 15.992 16.1 16.207 16.332 16.515 17.105 17.157 17.522 17.292 16.942 17.207 17.567 19.355 18.095 17.972 18.005 18.242 18.372 18.595
26.652 26.625 26.637 26.79 28.142 26.492 27.157 26.25 26.212 26.152 26.115 26.085 26.505 26.73 26.415 28.937 29.682 29.917 29.51 28.327 25.737 25.655 25.57 25.582 25.532 25.49 25.442 25.372 25.337 25.29 25.215 25.167 25.125 25.102 25.077 25.055 25.04 24.955 24.945 24.91 24.827 24.802 24.747 24.712 24.685 24.655 24.615 24.565 24.527 24.535 24.385 24.605 24.845 25.495 24.595 24.147 24.475 24.252 24.142 24.092 24.087 24.057 24.012 23.957 23.917 23.885 23.84 23.782 23.7 23.652 23.585 23.527 23.462 23.39 23.297 23.207 23.135 23.082 23.065 23.067 23.065 23.047 23.067 23.027 23.002 22.957 22.94 22.92 22.9 22.882 22.89 22.872 22.825 22.797 22.77 22.71 22.677 22.597 22.56 22.557 22.57 22.505 22.402 22.387 24.77 23.267 22.437 22.482 22.472 22.457 22.465 22.465 22.455 22.397 22.357 22.352 22.327 22.262 22.287 22.25 22.26 22.262 22.305 22.275 22.642 22.76 22.272 22.122 22.06 22.002 21.982 21.967 21.96 21.937 21.912 21.862 21.82 21.77 21.71 21.655 21.6 21.6 21.565 21.527 21.517 21.387 21.26 21.175 21.107 21.05 20.997 20.962 20.902 20.847 21.487 22.85 23.387 22.99 21.165 20.515 20.277 20.407 20.882 20.74 20.152 19.897 19.855 19.76 19.64 19.535 19.48 19.377 19.292 19.245 19.182 19.17 19.202 18.935 18.802 18.69 18.595 18.505 18.395 18.287 18.225 18.16 18.045 17.885 17.842 17.805 17.675 17.557 17.485 17.417 17.277 17.177 17.12 17.017 16.955 16.852 16.767 16.715 16.705 16.72 16.585 16.6 16.51 16.502 16.405 16.38 16.342 16.202 16.13 16.047 16.025 15.925 15.905 15.822 15.745 15.697 15.607 15.515 15.465 15.442 15.387 15.277 15.297 15.12 15.072 15.17 15.125 15.36 15.375 17.225 15.22 17.517 15.32 14.712 14.327 14.245 14.147 14.542 14.29 15.925 14.505 15.542 14.99 14.995 14.417 14.725 15.332 14.73 14.857 14.512 15.152 15.795 16.057 16.3 16.44 16.727 16.747 16.61 15.977 15.302 16.362 13.935 14.047 13.88 13.84 13.775 13.755 13.742 13.725 13.812 13.812 13.702 13.6 13.57 13.56 13.725 13.672 13.817 13.835 14.095 14.105 14.207 14.362 14.462 15.227 14.89 14.952 15.292 15.137 14.887 16.447 15.187 15.962 15.317 15.702 16.257 17.572 16.61 16.255 15.6 15.912 16.125 16.137 16.075 16.025 16.135 16.002 16.192 16.032 15.887 15.827 15.772 15.922 15.932 16.037 16.362 16.54 16.53 16.615 16.635 16.9 16.872 16.55 16.81 16.592 16.672 16.785 16.91 16.897 17.715 20.532 21.442 17.782 18.042 16.907 16.86 16.91 16.922 16.882 16.917 16.875 16.877 16.847 16.825 16.83 16.837 16.837 16.835 16.785 16.675 16.707 16.617 16.555 16.472 16.43 16.415 16.397 16.375 16.37 16.227 16.13 16.047 16.042 16.04 16.057 15.837 15.81 15.772 15.72 15.69 15.59 15.495 15.435 15.347 15.242 15.147 15.055 14.997 14.912 14.89 14.74 14.645 14.532 14.455 14.32 14.237 14.165 14.135 14.135 14.025 13.915 15.02 16.845 14.702 14.327 14.585 14.555 14.55 14.927 15.902 15.925 14.665 13.927 14.002 14.125 14.26 14.385 14.517 14.58 14.672 14.782 14.92 15.097 15.267 15.385 15.505 15.645 15.742 15.777 15.875 15.965 16.097 16.21 16.315 16.347 17.327 17.41 16.86 17.035 17.12 17.215 17.437 18.042 17.717 17.837 17.922 20.865 18.797 18.41
26.642 26.65 26.662 27.752 27.142 26.282 26.285 26.237 26.225 26.172 26.115 26.085 26.675 26.275 27.082 29.332 29.762 29.865 29.435 27.97 25.717 25.632 25.545 25.555 25.52 25.452 25.4 25.365 25.335 25.265 25.202 25.16 25.132 25.092 25.062 25.04 25 24.952 24.92 24.887 24.83 24.782 24.752 24.702 24.68 24.657 24.602 24.585 24.545 24.497 24.502 25.157 25.072 25.422 24.165 24.23 24.445 24.205 24.13 24.11 24.11 24.047 24.047 24 23.942 23.927 23.84 23.767 23.74 23.69 23.635 23.565 23.52 23.455 23.345 23.265 23.187 23.132 23.13 23.102 23.095 23.077 23.082 23.042 23 22.98 22.957 22.957 22.935 22.915 22.917 22.895 22.855 22.82 22.775 22.722 22.68 22.607 22.585 22.57 22.685 22.5 22.407 22.757 25.77 23.457 22.512 22.495 22.492 22.482 22.472 22.482 22.46 22.4 22.402 22.335 22.312 22.272 22.262 22.28 22.27 22.285 22.292 22.27 22.745 22.942 22.28 22.152 22.07 21.982 21.962 21.96 21.975 21.965 21.93 21.88 21.832 21.777 21.717 21.677 21.65 21.61 21.59 21.567 21.485 21.387 21.275 21.165 21.107 21.055 20.992 20.957 21.055 22.525 22.505 23.02 22.5 20.877 20.392 20.377 20.695 20.612 20.32 20.295 20.042 20.015 19.862 19.72 19.61 19.535 19.457 19.332 19.277 19.205 19.197 19.225 19.045 18.952 18.892 18.652 18.565 18.427 18.352 18.275 18.237 18.112 17.985 17.875 17.792 17.717 17.625 17.522 17.457 17.372 17.205 17.142 17.087 16.957 16.907 16.89 16.792 16.697 16.707 16.757 16.597 16.567 16.47 16.455 16.362 16.322 16.262 16.205 16.077 15.997 15.912 15.867 15.882 15.812 15.717 15.612 15.6 15.45 15.365 15.355 15.295 15.21 15.275 15.792 16.065 17.73 16.76 15.642 15.96 15.122 14.897 16.162 15.82 14.417 14.05 13.967 14.415 14.46 14.742 14.372 14.397 14.467 14.565 14.43 14.462 14.482 14.67 15.47 14.702 15.187 15.88 16.205 16.252 16.45 16.75 16.745 16.667 16.17 15.257 14.59 13.995 13.82 16.372 13.827 13.837 15.222 15.247 13.845 13.857 13.885 13.905 13.825 13.74 13.77 13.792 13.725 13.722 13.725 13.78 13.997 14.08 14.267 14.572 15.882 17.462 14.925 14.802 14.797 14.897 15.055 15.655 15.565 15.275 15.297 16.707 17.195 17.352 17.675 16.37 15.81 16.017 16.82 16.5 16.385 16.187 16.042 15.977 15.955 16.387 16.147 15.862 16.987 16.182 16.395 16.49 16.505 16.78 16.84 16.837 18.562 18 16.845 16.925 16.805 16.752 16.817 17.027 17.365 17.09 17.3 17.6 18.34 17.442 19.09 16.952 16.962 17.012 16.995 16.992 17.012 16.975 16.985 16.932 16.92 16.942 16.932 16.982 16.955 16.835 16.8 16.722 16.695 16.57 16.502 16.485 16.47 16.465 16.437 16.425 16.285 16.185 16.122 16.092 16.067 16.027 15.915 15.875 15.877 15.787 15.725 15.695 15.61 15.5 15.39 15.3 15.21 15.122 15.027 14.975 14.93 14.82 14.675 14.555 14.667 14.36 14.302 14.207 14.132 14.13 14.152 14.037 13.895 13.92 14.107 14.287 14.597 14.632 14.82 14.807 15.69 16.24 14.46 13.975 14.055 14.152 14.26 14.375 14.465 14.56 14.655 14.735 14.862 15.035 15.2 15.317 15.42 15.557 15.66 15.71 15.837 15.94 16.065 16.192 16.327 16.4 17.16 17.247 16.845 16.967 17.052 17.132 17.365 17.535 20.642 17.825 17.935 18.697 18.367 18.835
26.74 26.667 26.847 28.56 26.727 26.295 26.295 26.252 26.197 26.152 26.14 26.157 26.932 26.92 27.757 29.257 29.627 29.687 29.32 26.8 25.712 25.6 25.575 25.547 25.512 25.442 25.387 25.352 25.312 25.232 25.145 25.13 25.107 25.082 25.115 25.035 24.972 24.925 24.9 24.877 24.785 24.755 24.752 24.71 24.657 24.637 24.6 24.592 24.55 24.492 24.427 24.967 25.92 25.675 24.152 24.225 24.417 24.197 24.137 24.13 24.107 24.067 24.05 24.01 23.957 23.91 23.865 23.79 23.752 23.72 23.662 23.595 23.56 23.457 23.377 23.292 23.227 23.177 23.17 23.17 23.125 23.08 23.08 23.037 23.027 23.002 22.975 22.95 22.95 22.955 22.907 22.892 22.865 22.847 22.822 22.74 22.645 22.58 22.585 22.567 22.567 22.47 22.43 23.152 26.17 23.375 22.512 22.5 22.49 22.532 22.467 22.49 22.422 22.397 22.385 22.347 22.32 22.327 22.275 22.26 22.277 22.287 22.285 22.265 22.787 22.8 22.245 22.117 22.057 21.992 21.97 21.995 21.995 21.99 21.93 21.892 21.855 21.805 21.765 21.707 21.647 21.632 21.585 21.522 21.447 21.337 21.235 21.14 21.1 21.035 21.072 21.345 23.267 22.642 22.36 21.66 20.605 20.467 20.647 20.807 20.382 20.32 20.127 20.105 20.03 19.88 19.77 19.677 19.62 19.52 19.425 19.347 19.337 19.217 19.62 19.625 19.292 19.265 18.982 18.642 18.505 18.38 18.38 18.245 18.177 18.09 17.912 17.802 17.76 17.71 17.552 17.47 17.442 17.292 17.167 17.085 17.037 16.937 16.89 16.865 16.762 16.677 16.672 16.657 16.572 16.527 16.397 16.342 16.23 16.207 16.22 16.175 16.057 15.96 15.885 15.825 15.852 15.725 15.682 15.605 15.532 15.38 15.265 15.22 15.242 15.29 15.227 16.13 15.162 16.705 15.225 15.415 15.117 14.747 15.097 14.672 14.287 14.2 15.18 15.39 14.457 14.557 14.707 14.337 14.352 14.355 14.715 14.365 14.46 14.465 14.91 14.412 15.05 15.95 16.27 16.342 16.475 16.752 16.772 16.69 16.08 15.345 14.497 14.025 15.517 14.595 19.195 14.852 15.882 17.542 17.262 13.887 13.817 13.852 13.81 13.862 13.89 13.95 13.822 13.715 13.697 13.68 13.74 13.907 14.015 14.222 16.792 16.902 24.772 17.857 14.97 15.03 14.98 15.16 15.212 15.277 15.3 16.615 15.86 15.812 15.785 16.087 16.2 16.405 16.467 17.117 16.962 16.587 16.822 16.247 16.96 15.92 16.025 16.307 16.275 17.542 16.602 16.567 16.64 16.717 16.662 17.102 16.847 18.197 17.97 17.345 17.22 17.362 17.135 18.162 18.205 17.757 17.262 17.227 17.187 17.12 17.045 17.822 17.072 17.08 17.15 17.092 17.117 17.11 17.092 17.065 17.035 17.095 17.057 17.045 17.022 16.977 16.905 16.95 16.827 16.74 16.627 16.555 16.55 16.517 16.512 16.465 16.477 16.37 16.252 16.172 16.15 16.127 16.1 15.985 15.935 15.925 15.867 15.78 15.722 15.625 15.555 15.47 15.365 15.275 15.165 15.085 15.055 14.98 14.867 14.75 14.625 14.645 14.522 14.335 14.25 14.16 14.152 14.132 14.09 13.952 13.835 14.405 14.282 14.625 14.652 14.382 14.155 16.657 16.19 15.667 13.945 14.047 14.125 14.245 14.322 14.442 14.502 14.64 14.72 14.825 14.977 15.145 15.272 15.397 15.527 15.64 16.375 15.955 15.925 16.052 16.152 16.315 16.42 16.712 17.17 16.957 17.12 16.987 17.042 17.282 17.532 20.245 17.855 17.932 18.087 21.167 27.71
26.742 26.702 27.61 28.32 26.507 26.315 26.292 26.26 26.177 26.195 26.185 27.49 27.365 26.17 27.017 28.442 26.537 26.88 27.12 26.22 25.697 25.592 25.555 25.56 25.495 25.432 25.405 25.35 25.322 25.222 25.157 25.117 25.09 25.04 25.047 25.012 24.947 24.905 24.91 24.85 24.792 24.765 24.732 24.715 24.67 24.665 24.582 24.582 24.54 24.505 24.37 24.677 25.782 25.717 24.17 24.352 24.412 24.185 24.157 24.132 24.072 24.075 24.04 23.987 23.957 23.927 23.882 23.81 23.787 23.725 23.667 23.617 23.572 23.51 23.415 23.34 23.27 23.215 23.2 23.19 23.18 23.147 23.12 23.095 23.052 23.025 22.995 22.967 22.955 22.947 22.937 22.907 22.895 22.872 22.82 22.705 22.63 22.587 22.575 22.56 22.54 22.452 22.392 24.01 25.865 22.872 22.49 22.452 22.46 22.47 22.472 22.467 22.43 22.415 22.382 22.355 22.317 22.325 22.287 22.282 22.272 22.315 22.26 22.335 22.882 22.63 22.195 22.132 22.052 22.002 21.987 21.992 22.005 21.98 21.93 21.88 21.835 21.782 21.765 21.702 21.627 21.597 21.54 21.49 21.39 21.305 21.225 21.125 21.297 22.277 23.805 22.03 23.147 22.36 21.03 20.57 20.58 20.707 21.142 20.762 20.305 20.24 20.172 20.042 19.917 19.837 19.717 19.622 19.585 19.495 19.415 19.427 19.297 19.182 20.742 24.58 21.432 19.3 18.855 18.612 18.462 18.355 18.312 18.202 18.125 17.985 17.907 17.905 17.76 17.632 17.56 17.482 17.297 17.242 17.1 17.067 16.967 16.967 16.885 16.86 16.775 16.732 16.672 16.74 16.577 16.472 16.37 16.252 16.177 16.152 16.137 16.072 15.992 15.93 15.867 15.772 15.712 15.67 15.66 15.5 15.507 15.217 15.13 15.035 15.69 15.322 15.602 18.515 15.79 15.78 16.722 14.5 14.725 14.625 14.612 14.387 14.555 14.22 14.582 14.307 14.482 15.502 14.495 14.42 14.382 14.38 14.347 14.157 14.627 14.682 14.517 14.912 15.77 16.255 16.357 16.525 16.77 16.767 16.73 16.16 15.452 14.65 14.137 14.05 13.985 15.957 19.702 14.565 23.832 19.112 24.94 13.787 13.9 13.902 13.822 13.87 13.85 13.875 13.807 13.712 13.895 13.75 13.762 13.895 14.11 14.26 14.472 15.067 22.41 16.815 15.067 15.245 15.142 15.182 15.35 15.245 15.575 15.722 15.96 16.07 15.832 15.917 16.145 16.415 16.955 17.355 17.132 16.902 16.422 16.057 17.415 17.79 16.727 16.517 16.455 16.512 18.365 17.16 16.792 17.377 18.185 17.842 17.24 17.167 17.31 17.397 17.38 17.545 20.417 21.992 18.915 17.995 20.827 17.915 17.35 18.21 17.33 17.117 17.165 17.285 17.182 17.227 17.212 17.175 17.182 17.2 17.127 17.15 17.13 17.157 17.087 17.027 16.99 17.002 16.935 16.79 16.697 16.647 16.615 16.595 16.645 16.562 16.527 16.38 16.335 16.235 16.187 16.272 16.157 16.085 16.022 15.967 15.927 15.847 15.762 15.69 15.595 15.512 15.437 15.32 15.212 15.152 15.127 15.095 14.957 14.797 14.715 14.595 14.465 14.407 14.355 14.237 14.152 14.142 14.087 13.967 13.877 14.177 14.2 14.592 14.685 15.342 15.047 15.622 17.46 16.96 13.897 13.965 14.055 14.212 14.312 14.422 14.562 14.682 14.767 14.882 15.037 15.217 15.352 15.475 15.577 15.642 15.835 15.85 15.962 16.067 16.295 16.452 16.377 16.472 18.607 19.692 17.65 17.002 17.017 17.232 17.562 17.662 19.565 21.582 23.937 26.862 26.315
