ncols 428
nrows 31
xllcorner    459138
yllcorner    88478
cellsize     2
NODATA_value -9999
30.752 30.754 30.824 30.854 30.844 30.677 30.607 30.629 30.624 30.639 30.652 30.677 30.689 30.702 30.694 30.722 30.754 30.767 30.809 30.807 30.852 30.834 30.892 30.917 31.009 31.052 30.999 31.032 31.077 31.599 31.969 31.539 32.414 31.624 31.466 31.961 32.876 32.009 31.514 31.539 31.351 31.339 31.386 31.559 31.574 35.714 34.036 31.586 33.151 41.256 40.629 39.511 36.339 47.414 36.611 31.969 33.579 36.706 41.244 48.586 50.981 40.274 39.599 32.576 32.719 32.939 33.061 37.294 44.854 33.881 36.316 33.971 34.011 33.999 33.871 34.054 34.101 34.334 34.524 34.534 34.546 34.699 34.771 34.921 35.119 35.356 35.606 36.034 35.246 35.139 35.091 35.154 35.326 35.289 35.309 35.839 35.874 35.504 35.294 35.286 35.301 35.311 35.309 35.291 35.256 35.219 39.026 38.306 40.031 36.136 35.649 35.049 35.026 35.014 34.994 34.979 34.946 34.931 34.879 34.859 34.856 34.814 34.819 34.766 34.746 34.674 34.581 34.471 34.366 34.281 34.216 34.164 34.106 34.071 34.026 33.991 33.901 33.836 33.749 33.696 33.659 33.584 33.534 33.464 33.369 33.281 33.191 33.084 33.024 32.989 32.956 32.889 32.834 32.721 32.636 32.544 32.441 32.354 32.306 32.514 32.336 32.139 32.094 31.966 31.939 31.889 31.731 31.581 31.449 31.329 31.211 31.136 31.194 31.204 31.166 31.104 31.019 30.926 30.901 30.949 30.909 30.856 30.826 30.784 30.704 30.711 30.684 30.591 30.524 30.421 30.361 30.284 30.196 30.144 30.039 29.954 29.881 29.844 29.769 29.691 29.684 29.621 29.586 29.559 29.454 29.431 29.366 29.324 29.319 29.324 29.264 29.244 29.224 29.166 29.091 29.071 29.084 29.084 29.124 29.226 29.089 28.921 28.751 29.476 31.324 29.901 28.714 28.724 28.709 28.724 28.716 28.629 28.644 28.671 28.664 28.766 28.821 28.716 28.579 28.374 29.056 29.406 28.684 28.501 28.509 28.484 28.541 28.474 28.394 28.341 28.346 28.419 28.421 28.389 28.406 28.374 28.381 28.381 28.341 28.386 28.384 28.329 28.391 28.359 28.249 28.246 28.324 28.289 28.271 28.266 28.239 28.231 28.226 28.219 28.196 28.184 28.091 28.099 28.086 28.079 28.116 28.062 28.049 28.082 28.094 28.109 28.099 28.084 28.099 28.032 27.954 27.994 28.077 28.017 28.107 28.047 27.929 27.904 27.904 27.897 27.947 27.987 27.914 27.937 28.022 28.037 28.009 27.989 28.024 28.012 27.984 28.019 28.034 28.057 28.037 27.999 28.082 28.109 28.104 28.114 28.087 28.079 28.069 28.034 28.047 27.977 27.977 27.924 27.892 27.947 27.994 28.007 27.954 27.904 27.904 27.862 27.812 27.759 27.769 27.702 27.724 27.674 27.782 27.747 27.734 27.724 27.714 27.664 27.587 27.512 27.517 27.494 27.452 27.457 27.412 27.429 27.404 27.394 27.382 27.352 27.314 27.274 27.222 27.159 27.114 27.079 27.072 27.072 27.142 27.204 27.347 27.662 27.514 27.462 27.354 27.309 27.472 27.379 27.402 27.342 27.309 27.814 27.574 27.444 27.244 27.417 27.364 27.284 27.242 27.197 27.114 26.987 27.009 26.987 26.934 26.892 26.834 26.882 26.877 26.884 27.319 27.214 27.472 27.122 26.919 27.144 27.137 27.059 27.169 27.064 27.067 27.029 26.897 26.779 26.677 26.669 27.047 27.024 27.319 27.409 26.767 26.664 26.687 26.617 26.457 26.484 26.344 26.312
30.819 30.759 30.809 30.807 30.759 30.817 30.684 30.682 30.669 30.704 30.694 30.689 30.707 30.754 30.767 30.782 30.809 30.834 30.852 30.872 30.897 30.917 30.979 31.044 31.129 31.117 31.074 31.104 31.172 32.402 32.467 32.411 32.421 31.494 32.119 33.031 31.984 31.754 31.479 31.469 31.884 31.594 31.609 32.711 31.541 41.329 44.429 36.074 32.816 34.359 36.856 43.259 39.219 41.224 32.394 32.579 37.931 33.506 46.266 48.981 51.924 32.466 35.436 33.549 39.176 37.959 33.139 41.141 34.979 33.561 34.021 33.751 33.876 35.599 33.859 33.609 33.859 34.239 34.491 34.604 34.599 34.714 34.859 35.109 35.619 35.471 35.661 36.209 35.301 35.181 35.131 35.196 35.266 35.314 35.296 35.349 35.424 35.824 36.041 35.586 35.381 35.351 35.371 35.391 35.361 36.324 39.846 40.126 42.001 40.139 35.629 35.021 34.991 34.949 34.904 34.906 34.881 34.866 34.851 34.796 34.751 34.729 34.734 34.729 34.704 34.631 34.619 34.506 34.434 34.324 34.246 34.129 34.066 33.991 33.946 33.894 33.846 33.791 33.749 33.669 33.599 33.546 33.479 33.406 33.329 33.231 33.111 33.071 33.016 32.994 32.999 32.921 32.804 32.746 32.659 32.504 32.491 32.544 32.469 32.944 32.626 32.214 32.294 32.169 31.909 31.886 31.864 31.759 31.644 31.431 31.316 31.209 31.136 31.099 31.044 31.039 31.014 30.976 30.851 30.856 30.849 30.799 30.754 30.759 30.716 30.714 30.676 30.574 30.524 30.439 30.356 30.274 30.189 30.124 30.051 29.994 29.894 29.819 29.756 29.674 29.651 29.596 29.539 29.509 29.451 29.429 29.391 29.316 29.266 29.226 29.216 29.196 29.151 29.111 29.071 29.051 29.036 29.036 29.026 29.104 29.069 28.941 28.709 28.674 28.784 30.524 29.424 28.726 28.754 28.776 28.714 28.681 28.689 28.729 28.826 28.869 28.784 28.581 28.356 29.089 29.476 28.709 28.486 28.519 28.494 28.504 28.536 28.521 28.391 28.379 28.476 28.449 28.439 28.444 28.456 28.424 28.461 28.396 28.359 28.384 28.341 28.386 28.404 28.279 28.286 28.351 28.359 28.329 28.306 28.294 28.266 28.266 28.246 28.214 28.196 28.184 28.086 28.079 28.144 28.164 28.134 28.052 28.102 28.122 28.119 28.129 28.109 28.034 28.074 27.959 28.019 28.067 28.102 28.137 28.104 27.994 27.952 27.929 27.942 27.987 28.057 27.947 27.922 28.027 28.052 28.069 28.032 28.054 28.049 28.037 28.054 28.062 28.059 28.054 28.029 28.052 28.127 28.149 28.147 28.164 28.114 28.064 28.082 28.087 28.072 28.037 27.989 27.964 27.972 28.014 28.022 28.007 27.932 27.944 27.939 27.877 27.842 27.804 27.789 27.747 27.802 27.819 27.852 27.819 27.797 27.757 27.737 27.662 27.592 27.572 27.539 27.542 27.507 27.487 27.464 27.457 27.437 27.412 27.389 27.347 27.329 27.272 27.202 27.157 27.109 27.087 27.052 27.127 27.217 27.282 27.439 27.824 27.574 27.637 27.274 27.312 27.422 27.424 27.437 27.362 27.377 27.524 27.404 27.169 27.177 27.372 27.327 27.274 27.229 27.202 27.139 27.039 27.047 27.074 27.144 26.997 26.882 26.824 26.889 26.862 26.884 26.904 27.019 27.352 26.924 27.024 27.077 27.139 27.204 27.029 27.049 26.924 26.804 26.669 26.694 26.914 26.954 26.999 26.754 26.682 26.692 26.684 26.599 26.474 26.389 26.322 26.384 26.244
30.882 30.889 30.794 30.784 30.864 30.837 30.779 30.719 30.744 30.744 30.749 30.744 30.757 30.767 30.804 30.852 30.849 30.882 30.907 30.922 30.929 30.994 31.077 31.177 31.187 31.162 31.169 31.194 31.619 33.284 32.384 33.394 33.184 32.234 32.881 33.411 32.404 31.664 32.354 32.344 31.601 39.749 44.291 36.866 31.616 42.916 41.639 34.761 32.804 43.064 47.526 42.541 47.829 46.761 46.541 32.271 32.446 35.514 46.671 55.021 52.084 36.654 33.326 44.009 51.634 47.861 41.034 38.166 38.431 37.044 37.314 37.164 33.724 34.286 33.696 33.591 33.561 33.781 34.441 34.724 34.576 34.674 34.864 35.074 35.184 35.766 36.929 35.486 35.404 35.271 35.241 35.264 35.269 35.331 35.351 35.396 35.374 35.321 35.474 36.024 36.114 36.024 35.719 35.671 36.379 36.704 41.974 43.474 44.904 40.729 36.226 35.061 35.009 34.931 34.876 34.846 34.821 34.789 34.779 34.779 34.749 34.694 34.674 34.616 34.591 34.544 34.531 34.456 34.401 34.326 34.269 34.159 34.079 33.964 33.886 33.824 33.774 33.754 33.694 33.629 33.541 33.504 33.414 33.346 33.244 33.171 33.104 33.146 33.066 33.051 33.004 32.921 32.829 32.724 33.009 32.761 33.119 32.896 32.419 32.974 32.681 32.526 32.829 32.084 31.814 31.756 31.744 31.719 31.699 31.641 31.496 31.264 31.201 31.144 31.081 31.026 31.029 30.911 30.869 30.794 30.774 30.769 30.746 30.739 30.776 30.724 30.606 30.554 30.496 30.436 30.369 30.279 30.181 30.091 30.019 29.966 29.894 29.834 29.759 29.686 29.599 29.534 29.494 29.464 29.416 29.389 29.359 29.321 29.251 29.211 29.169 29.126 29.101 29.054 29.049 28.974 28.979 28.979 28.991 28.956 28.954 28.911 28.796 28.604 28.536 29.261 31.704 30.479 28.856 28.804 28.684 28.739 28.771 28.871 28.896 28.814 28.661 28.644 29.431 29.611 28.604 28.526 28.494 28.514 28.566 28.561 28.564 28.414 28.439 28.484 28.471 28.421 28.461 28.449 28.419 28.426 28.419 28.386 28.394 28.399 28.366 28.389 28.316 28.281 28.326 28.399 28.359 28.336 28.339 28.301 28.299 28.281 28.249 28.204 28.214 28.101 28.101 28.169 28.189 28.146 28.096 28.137 28.127 28.099 28.104 28.099 27.989 28.909 29.314 28.079 28.064 28.109 28.097 28.067 28.037 27.987 27.957 27.959 28.027 28.057 27.987 27.974 28.007 28.074 28.114 28.049 28.082 28.099 28.074 28.059 28.067 28.087 28.084 28.069 28.089 28.139 28.179 28.169 28.154 28.179 28.149 28.112 28.129 28.092 28.064 28.042 27.992 28.009 28.082 28.089 28.084 27.989 27.989 27.979 27.904 27.882 27.877 27.862 27.824 27.792 27.839 27.854 27.882 27.854 27.829 27.789 27.759 27.667 27.624 27.612 27.579 27.567 27.547 27.519 27.542 27.494 27.487 27.442 27.394 27.369 27.329 27.274 27.212 27.154 27.094 27.092 27.127 27.187 27.254 27.384 27.529 27.407 27.529 27.507 27.482 27.447 27.567 27.549 27.522 27.474 27.524 27.547 27.427 27.252 27.137 27.409 27.339 27.184 27.119 27.104 27.139 27.037 27.079 27.119 27.039 27.002 26.919 26.824 26.782 26.799 26.837 26.912 27.139 27.017 26.984 27.012 27.072 27.229 27.047 27.074 26.889 26.714 26.644 26.817 27.007 27.069 26.892 26.799 26.677 26.647 26.539 26.492 26.444 26.379 26.344 26.272 26.167 26.304
30.822 30.859 30.892 30.847 30.892 30.909 30.812 30.804 30.812 30.807 30.819 30.802 30.794 30.817 30.874 30.897 30.912 30.944 30.987 30.994 31.017 31.109 31.214 31.287 31.247 31.242 31.269 31.439 31.747 33.594 31.732 31.976 31.781 32.934 32.074 34.306 32.099 31.789 32.414 32.064 36.536 44.021 46.289 44.856 33.489 39.904 38.146 45.254 48.899 48.689 47.161 49.411 40.834 35.629 36.461 32.344 37.759 43.021 46.404 53.131 54.616 33.189 36.281 39.291 44.516 45.716 40.824 38.854 38.854 39.659 37.819 35.749 34.009 33.674 33.541 33.566 33.556 33.599 34.284 34.511 34.571 34.686 34.849 35.079 35.394 36.564 35.551 35.489 35.451 35.349 35.314 35.291 35.294 35.296 35.321 35.366 35.416 35.434 35.406 35.399 35.436 35.611 35.851 37.449 37.686 35.656 42.899 43.421 41.096 42.596 36.046 35.169 35.111 35.039 34.959 34.879 34.784 34.774 34.724 34.684 34.646 34.649 34.641 34.631 34.564 34.516 34.426 34.351 34.319 34.319 34.246 34.154 34.089 34.026 33.901 33.811 33.771 33.706 33.646 33.589 33.511 33.454 33.384 33.311 33.206 33.201 33.121 33.091 33.091 33.019 32.999 32.881 32.729 32.689 36.029 36.436 33.901 32.461 32.264 32.446 32.149 32.174 32.309 31.929 31.761 31.726 31.681 31.639 31.601 31.591 31.599 31.581 31.386 31.214 31.134 31.016 30.984 30.924 30.879 30.821 30.716 30.699 30.726 30.809 30.771 30.709 30.591 30.541 30.459 30.411 30.351 30.289 30.189 30.094 30.016 29.954 29.904 29.851 29.764 29.699 29.589 29.524 29.484 29.419 29.359 29.321 29.254 29.261 29.244 29.196 29.129 29.104 29.054 29.046 29.019 28.976 28.926 28.919 28.946 28.909 28.899 28.864 28.774 28.661 28.566 28.516 29.704 30.581 29.086 28.746 28.731 28.756 28.899 28.934 28.911 28.761 28.569 29.329 29.141 28.706 28.539 28.549 28.554 28.619 28.591 28.564 28.464 28.421 28.456 28.451 28.476 28.491 28.519 28.471 28.466 28.479 28.404 28.414 28.431 28.404 28.384 28.374 28.321 28.319 28.381 28.361 28.364 28.404 28.364 28.326 28.316 28.314 28.249 28.216 28.144 28.119 28.234 28.226 28.174 28.149 28.174 28.162 28.132 28.139 28.094 27.974 29.114 30.504 28.749 28.869 28.037 28.114 28.142 28.069 28.044 27.997 27.959 27.994 28.104 28.109 28.059 28.019 28.117 28.142 28.104 28.099 28.107 28.099 28.112 28.144 28.107 28.099 28.084 28.122 28.134 28.209 28.237 28.194 28.167 28.204 28.159 28.139 28.109 28.094 28.099 28.019 28.024 28.099 28.114 28.112 28.059 28.002 28.027 27.997 27.964 27.919 27.909 27.879 27.867 27.824 27.912 27.919 27.927 27.867 27.817 27.812 27.767 27.694 27.682 27.654 27.617 27.597 27.607 27.599 27.564 27.534 27.484 27.464 27.417 27.399 27.352 27.289 27.217 27.177 27.127 27.139 27.177 27.242 27.337 27.709 28.049 27.417 27.547 27.309 27.494 27.442 27.592 27.567 27.644 27.584 27.589 27.504 27.497 27.204 27.159 27.364 27.414 27.197 26.962 27.047 27.144 27.104 27.254 27.177 27.127 27.074 27.049 26.927 26.759 26.682 26.844 26.934 26.912 26.944 26.909 26.999 27.227 27.099 27.002 26.999 26.752 26.587 26.837 27.974 28.287 26.942 26.687 26.619 26.574 26.662 26.552 26.457 26.529 26.324 26.234 26.109 26.122 26.132
30.932 30.864 30.887 30.894 30.889 30.929 30.897 30.857 30.852 30.839 30.862 30.877 30.872 30.877 30.917 30.952 30.984 30.997 31.004 31.032 31.132 31.269 31.369 31.304 31.292 31.317 31.372 31.759 32.504 34.119 33.067 33.249 32.044 31.884 32.199 32.839 32.611 31.901 32.169 36.281 35.919 45.514 45.644 38.031 38.839 32.054 40.236 44.206 46.986 51.779 52.774 49.804 45.551 40.039 42.951 43.961 40.936 42.661 45.951 49.496 42.901 33.144 39.146 48.229 48.486 45.466 38.901 34.206 33.914 35.746 36.786 34.344 34.281 33.764 33.564 33.544 33.571 33.616 33.846 34.661 34.491 34.719 34.934 35.099 36.064 35.786 35.531 35.491 35.481 35.406 35.386 35.329 35.299 35.321 35.329 35.334 35.356 35.399 35.426 35.439 35.499 35.499 35.501 36.776 38.219 37.084 41.461 45.496 43.736 38.764 35.281 35.224 35.169 35.111 35.051 34.969 34.881 34.811 34.734 34.644 34.611 34.551 34.469 34.474 34.494 34.484 34.431 34.311 34.251 34.164 34.146 34.089 34.049 33.991 33.921 33.884 33.784 33.679 33.624 33.566 33.504 33.401 33.349 33.299 33.181 33.204 33.131 33.131 33.096 33.014 32.989 32.781 32.691 35.096 37.734 38.306 37.506 32.956 32.159 32.041 31.979 31.886 31.809 31.736 31.689 31.659 31.661 31.606 31.576 31.571 31.564 31.611 31.634 31.431 31.231 31.046 30.929 30.879 30.871 30.839 30.749 30.691 30.631 30.616 30.679 30.684 30.626 30.544 30.474 30.414 30.361 30.266 30.186 30.126 30.019 29.956 29.891 29.836 29.741 29.689 29.621 29.544 29.469 29.409 29.346 29.281 29.231 29.226 29.156 29.129 29.124 29.104 29.051 29.031 28.974 28.936 28.934 28.949 28.909 28.906 28.921 28.824 28.789 28.686 28.554 28.746 30.019 29.611 28.776 28.776 28.776 28.896 28.999 28.941 28.846 28.489 29.301 29.051 28.671 28.606 28.589 28.599 28.631 28.616 28.599 28.504 28.491 28.504 28.536 28.526 28.491 28.539 28.526 28.486 28.499 28.461 28.454 28.444 28.444 28.439 28.404 28.279 28.301 28.361 28.374 28.364 28.404 28.376 28.371 28.346 28.361 28.344 28.286 28.231 28.179 28.144 28.279 28.229 28.186 28.201 28.199 28.159 28.137 28.109 28.062 29.124 32.022 28.204 28.042 28.069 28.094 28.129 28.119 28.082 28.079 28.087 28.047 28.077 28.124 28.057 28.022 28.132 28.117 28.157 28.124 28.104 28.104 28.112 28.172 28.152 28.169 28.144 28.099 28.147 28.212 28.247 28.232 28.209 28.189 28.207 28.219 28.209 28.157 28.134 28.109 28.042 28.082 28.149 28.184 28.157 28.059 28.084 28.084 27.999 27.954 27.934 27.942 27.904 27.927 27.944 27.987 27.992 27.954 27.932 27.854 27.827 27.754 27.754 27.702 27.682 27.657 27.629 27.627 27.617 27.574 27.577 27.532 27.474 27.452 27.387 27.337 27.264 27.212 27.174 27.152 27.209 27.279 27.337 27.454 29.157 27.467 27.619 27.359 27.439 27.614 27.597 27.607 27.757 27.577 27.582 27.812 27.477 27.804 27.217 27.174 27.397 27.664 27.262 27.037 27.004 27.144 27.164 27.179 27.207 27.199 27.164 27.112 26.969 26.824 26.722 26.669 27.079 27.152 26.909 26.859 26.854 26.974 26.847 26.782 26.892 26.719 27.017 27.269 28.379 31.692 28.387 27.312 26.717 26.544 26.397 26.394 26.352 26.347 26.249 26.174 26.494 25.989 25.959
30.934 30.902 30.929 30.942 30.979 30.992 30.982 30.907 30.907 30.894 30.904 30.942 30.934 30.932 30.959 31.007 31.047 31.064 31.054 31.127 31.247 31.349 31.379 31.329 31.397 31.399 31.814 31.974 31.812 32.262 33.587 33.269 31.971 32.616 32.339 32.589 32.621 32.069 32.099 31.916 40.011 46.656 43.924 43.876 34.651 32.141 40.356 43.779 46.696 53.991 53.539 46.481 34.734 43.644 39.134 40.854 34.204 44.386 53.786 46.156 43.154 35.616 34.981 42.826 50.554 51.101 45.911 38.769 34.024 34.241 34.269 34.576 35.736 34.154 33.761 33.549 33.541 33.544 33.676 34.509 34.524 34.726 34.959 35.204 35.869 36.614 35.539 35.561 35.501 35.449 35.406 35.349 35.334 35.354 35.346 35.366 35.346 35.376 35.414 35.436 35.456 35.484 35.516 35.474 35.476 35.409 38.869 43.989 37.874 36.294 35.679 35.341 35.184 35.134 35.096 35.044 34.984 34.921 34.846 34.741 34.646 34.579 34.536 34.414 34.341 34.299 34.319 34.289 34.241 34.156 34.066 34.036 33.949 33.884 33.864 33.819 33.741 33.696 33.606 33.564 33.469 33.379 33.314 33.234 33.219 33.166 33.159 33.141 33.074 33.036 32.864 32.716 34.384 37.661 38.259 38.466 37.941 35.941 32.316 32.026 31.944 31.884 31.809 31.736 31.656 31.626 31.581 31.509 31.524 31.511 31.496 31.531 31.544 31.551 31.401 31.149 31.074 30.841 30.756 30.741 30.741 30.681 30.614 30.581 30.569 30.611 30.591 30.539 30.506 30.434 30.354 30.276 30.224 30.154 30.059 29.984 29.899 29.819 29.729 29.684 29.606 29.559 29.486 29.401 29.346 29.279 29.184 29.186 29.126 29.104 29.036 29.036 29.021 28.979 28.954 28.929 28.944 28.961 28.889 28.949 28.946 28.889 28.839 28.761 28.751 29.951 29.559 28.799 28.781 28.806 28.874 28.974 28.986 28.801 28.556 29.344 29.256 28.719 28.639 28.604 28.631 28.691 28.634 28.694 28.556 28.546 28.549 28.599 28.586 28.501 28.561 28.514 28.509 28.529 28.506 28.469 28.484 28.441 28.441 28.429 28.321 28.319 28.424 28.411 28.406 28.416 28.399 28.389 28.366 28.359 28.354 28.306 28.301 28.216 28.171 28.249 28.259 28.256 28.264 28.236 28.214 28.187 28.182 28.222 28.302 29.974 30.477 29.054 28.207 28.172 28.189 28.184 28.149 28.054 28.134 28.149 28.159 28.167 28.082 28.072 28.147 28.179 28.149 28.169 28.159 28.124 28.154 28.174 28.157 28.202 28.154 28.174 28.104 28.227 28.264 28.307 28.262 28.199 28.222 28.259 28.279 28.229 28.174 28.134 28.119 28.147 28.169 28.209 28.204 28.162 28.097 28.102 28.067 28.012 28.004 27.972 27.949 27.937 28.017 28.034 28.049 28.024 27.979 27.947 27.899 27.839 27.797 27.772 27.754 27.714 27.724 27.709 27.667 27.624 27.607 27.579 27.552 27.519 27.452 27.384 27.309 27.254 27.209 27.199 27.227 27.267 27.312 27.434 29.542 28.402 27.709 27.942 27.459 27.627 27.722 27.652 27.647 27.564 27.657 27.577 27.607 27.524 27.664 27.389 27.252 27.479 27.364 27.339 27.322 27.182 27.092 27.082 27.149 27.197 27.257 27.349 27.362 27.157 26.972 26.812 26.709 26.637 26.639 26.682 26.737 26.832 26.929 26.749 26.592 26.632 26.834 26.787 26.742 27.882 28.872 28.329 26.522 26.609 26.422 26.352 26.319 26.239 26.172 26.474 26.144 26.227 25.949 25.867
31.024 30.989 30.967 30.982 31.049 30.992 31.017 31.002 30.994 30.972 30.999 30.992 31.009 30.977 31.017 31.057 31.087 31.114 31.142 31.287 31.439 31.434 31.379 31.382 31.427 31.679 31.987 31.847 31.794 32.169 33.192 33.591 32.091 32.321 32.306 32.996 32.251 32.546 33.016 32.064 31.936 40.339 41.659 39.264 32.269 32.859 40.926 52.774 48.106 54.924 56.044 48.884 32.579 32.614 35.239 38.211 41.131 45.044 55.139 53.439 45.781 36.444 36.996 49.101 46.494 39.496 45.676 47.431 40.474 34.346 34.451 34.571 37.981 35.021 37.011 35.226 33.539 33.529 33.566 33.931 34.569 34.884 35.174 35.386 35.989 35.941 35.546 35.579 35.546 35.509 35.456 35.411 35.344 35.369 35.336 35.346 35.344 35.376 35.436 35.436 35.451 35.459 35.479 35.444 35.441 35.426 35.459 35.821 35.289 35.389 35.676 35.714 36.109 35.599 35.344 35.206 34.946 34.961 34.944 34.824 34.694 34.659 34.564 34.446 34.369 34.284 34.209 34.144 34.114 34.091 34.071 34.004 33.919 33.851 33.776 33.716 33.656 33.614 33.549 33.489 33.426 33.346 33.269 33.259 33.199 33.164 33.159 33.131 33.081 32.911 32.764 33.464 37.406 38.216 38.461 38.069 36.559 33.419 32.281 32.016 31.949 31.936 31.814 31.769 31.716 31.641 31.579 31.494 31.474 31.464 31.451 31.456 31.464 31.476 31.491 31.289 31.141 30.996 30.799 30.699 30.716 30.689 30.624 30.571 30.504 30.531 30.536 30.504 30.486 30.464 30.381 30.316 30.214 30.171 30.064 29.994 29.899 29.826 29.751 29.684 29.626 29.531 29.464 29.371 29.324 29.294 29.221 29.181 29.144 29.089 29.031 28.989 28.976 28.939 28.906 28.921 28.941 28.976 28.981 28.976 28.964 28.911 28.836 28.764 29.796 29.761 28.916 28.819 28.846 28.859 28.914 28.966 28.786 29.046 29.959 29.369 28.769 28.699 28.649 28.646 28.699 28.666 28.669 28.584 28.561 28.589 28.646 28.579 28.524 28.596 28.586 28.576 28.584 28.544 28.519 28.501 28.504 28.496 28.461 28.406 28.386 28.434 28.471 28.429 28.394 28.434 28.424 28.409 28.399 28.381 28.361 28.331 28.234 28.256 28.289 28.271 28.276 28.284 28.319 28.296 28.259 28.219 28.204 28.274 28.212 28.157 28.092 28.107 28.189 28.142 28.212 28.162 28.109 28.134 28.139 28.149 28.167 28.159 28.119 28.104 28.214 28.167 28.199 28.162 28.132 28.152 28.174 28.234 28.204 28.202 28.167 28.139 28.237 28.257 28.289 28.309 28.262 28.274 28.269 28.297 28.232 28.267 28.217 28.177 28.132 28.202 28.237 28.252 28.192 28.147 28.157 28.119 28.089 28.067 28.052 28.007 27.994 27.992 28.069 28.079 28.057 28.019 27.987 27.957 27.889 27.862 27.812 27.824 27.797 27.762 27.737 27.767 27.727 27.677 27.649 27.604 27.572 27.499 27.449 27.372 27.317 27.279 27.214 27.239 27.294 27.314 27.409 28.514 28.597 27.484 27.749 27.879 27.609 27.624 27.742 27.519 27.492 27.472 27.534 27.574 27.537 28.739 27.772 35.509 31.462 27.349 27.367 27.382 27.327 27.262 27.189 27.052 27.002 27.199 27.309 27.419 27.297 27.337 27.337 27.147 26.884 26.749 26.634 26.429 26.579 26.682 26.842 26.724 26.564 26.737 26.702 26.637 26.602 26.504 26.797 26.432 26.509 26.357 26.372 26.279 26.632 26.222 26.112 26.089 26.032 26.054 25.947 26.017
31.064 31.054 31.024 31.017 31.034 31.052 31.059 31.052 31.057 31.094 31.102 31.059 31.054 31.094 31.104 31.134 31.124 31.159 31.279 31.394 31.542 31.487 31.434 31.437 31.684 31.917 31.899 31.849 31.889 32.409 32.749 32.399 32.169 32.666 32.559 32.544 32.321 32.264 32.106 32.079 32.086 32.066 32.806 34.114 33.419 33.661 46.884 54.744 53.749 50.469 52.624 48.839 32.609 34.561 38.291 37.699 39.799 43.869 51.656 49.176 36.124 40.114 41.014 44.129 48.101 40.974 53.089 44.934 46.571 34.526 35.164 34.854 34.851 33.626 34.506 33.606 33.551 33.536 33.534 33.866 36.766 37.371 35.151 35.629 36.099 35.604 35.614 35.591 35.549 35.554 35.529 35.496 35.419 35.419 35.379 35.376 35.334 35.356 35.404 35.419 35.441 35.444 35.446 35.471 35.469 35.469 35.421 35.386 35.339 35.294 35.224 35.161 35.179 35.434 35.729 36.959 37.219 36.499 35.241 34.849 34.734 34.709 34.624 34.539 34.491 34.359 34.284 34.189 34.091 34.006 33.949 33.909 33.854 33.796 33.689 33.641 33.586 33.546 33.496 33.444 33.344 33.256 33.249 33.256 33.261 33.226 33.151 33.144 33.019 32.874 33.784 37.416 38.116 38.496 38.124 37.166 33.881 32.461 32.036 31.974 31.986 31.929 31.836 31.761 31.689 31.624 31.564 31.504 31.416 31.389 31.419 31.411 31.419 31.386 31.691 31.771 31.159 30.971 30.919 30.704 30.636 30.636 30.601 30.604 30.511 30.456 30.459 30.449 30.474 30.431 30.431 30.354 30.264 30.201 30.139 30.036 29.961 29.814 29.726 29.661 29.606 29.519 29.451 29.389 29.344 29.299 29.219 29.174 29.164 29.086 29.026 28.981 28.914 28.939 28.934 28.941 28.926 28.956 28.999 28.981 28.959 28.899 28.876 29.601 29.916 28.936 28.821 28.834 28.859 28.864 28.884 28.711 28.894 29.824 29.296 28.789 28.719 28.739 28.741 28.731 28.719 28.726 28.656 28.621 28.634 28.711 28.651 28.584 28.611 28.596 28.584 28.589 28.566 28.569 28.544 28.509 28.514 28.519 28.469 28.431 28.439 28.504 28.474 28.436 28.434 28.446 28.411 28.451 28.396 28.376 28.376 28.334 28.281 28.276 28.314 28.276 28.366 28.334 28.346 28.309 28.339 28.234 28.247 28.184 28.164 28.094 28.154 28.147 28.182 28.144 28.194 28.124 28.149 28.172 28.144 28.157 28.149 28.114 28.124 28.187 28.229 28.199 28.217 28.182 28.182 28.227 28.252 28.244 28.234 28.194 28.192 28.219 28.262 28.302 28.302 28.297 28.277 28.344 28.342 28.319 28.294 28.234 28.194 28.189 28.254 28.277 28.297 28.267 28.199 28.214 28.194 28.132 28.104 28.084 28.082 28.047 28.087 28.104 28.117 28.137 28.069 28.032 27.994 27.939 27.904 27.904 27.889 27.844 27.819 27.787 27.822 27.779 27.744 27.719 27.669 27.629 27.564 27.507 27.457 27.364 27.314 27.272 27.267 27.304 27.357 27.409 27.972 29.787 27.519 27.792 27.584 27.722 27.744 27.769 27.652 27.642 27.484 27.537 27.502 27.542 27.439 29.257 35.809 37.909 29.587 27.377 27.357 27.357 27.312 27.227 27.199 27.124 27.107 26.999 27.232 27.167 27.219 27.192 27.294 27.439 27.367 27.294 27.022 26.452 26.449 26.629 26.537 26.802 26.784 26.627 26.559 26.607 26.629 26.477 26.449 26.382 26.284 26.259 26.409 26.412 26.134 26.204 26.022 25.959 26.364 26.117 25.887 25.807
31.117 31.137 31.084 31.102 31.114 31.107 31.087 31.092 31.107 31.262 31.152 31.119 31.137 31.129 31.182 31.177 31.219 31.239 31.372 31.522 31.572 31.517 31.474 31.614 31.964 31.994 31.959 31.962 31.992 32.299 32.694 32.371 32.241 32.701 32.779 32.581 32.234 32.166 32.199 32.201 33.386 32.791 32.439 32.621 32.669 36.079 45.296 49.411 48.369 41.389 52.564 46.544 35.609 36.039 45.659 44.461 46.341 49.651 47.004 44.064 35.814 37.904 40.189 41.776 33.636 34.714 51.416 44.659 40.321 34.576 34.631 34.691 34.096 34.594 34.924 35.691 33.619 33.554 33.579 33.944 40.501 40.191 35.301 36.006 37.181 35.644 35.666 35.639 35.629 35.604 35.546 35.524 35.469 35.456 35.486 35.481 35.441 35.404 35.406 35.396 35.414 35.426 35.456 35.421 35.396 35.386 35.386 35.354 35.326 35.281 35.241 35.209 35.159 35.109 35.054 35.604 39.094 39.724 37.766 36.176 34.966 34.731 34.646 34.586 35.184 37.451 34.319 34.279 34.176 34.041 33.966 33.911 33.846 33.721 33.589 33.546 33.504 33.464 33.409 33.379 33.281 33.231 33.231 33.261 33.276 33.211 33.149 33.086 32.956 33.399 35.871 37.976 38.476 38.229 37.251 34.086 32.561 32.146 32.011 31.996 31.944 31.904 31.844 31.816 31.749 31.609 31.519 31.529 31.456 31.376 31.331 31.336 31.341 31.351 31.881 32.184 31.326 31.116 30.939 30.831 30.639 30.524 30.551 30.541 30.511 30.444 30.389 30.376 30.411 30.441 30.404 30.379 30.319 30.274 30.191 30.086 29.989 29.839 29.769 29.666 29.596 29.489 29.421 29.354 29.321 29.271 29.206 29.189 29.099 29.079 29.031 28.931 28.926 28.909 28.961 28.941 28.961 28.974 28.991 28.989 28.931 28.839 29.679 29.816 28.951 28.849 28.841 28.856 28.896 28.901 28.659 28.841 29.744 29.324 28.829 28.739 28.779 28.764 28.826 28.786 28.724 28.706 28.664 28.739 28.796 28.741 28.589 28.596 28.626 28.604 28.631 28.644 28.601 28.584 28.554 28.511 28.516 28.529 28.474 28.456 28.534 28.514 28.481 28.481 28.454 28.384 28.444 28.424 28.381 28.374 28.374 28.339 28.309 28.361 28.311 28.339 28.349 28.354 28.326 28.286 28.319 28.297 28.342 28.169 28.132 28.142 28.182 28.232 28.257 28.202 28.182 28.129 28.154 28.162 28.177 28.159 28.122 28.094 28.167 28.204 28.252 28.249 28.247 28.227 28.252 28.257 28.257 28.257 28.252 28.269 28.194 28.277 28.319 28.349 28.314 28.312 28.329 28.367 28.344 28.352 28.322 28.259 28.294 28.232 28.292 28.349 28.282 28.254 28.282 28.249 28.182 28.167 28.172 28.104 28.072 28.124 28.102 28.152 28.157 28.144 28.089 28.054 28.014 27.977 27.959 27.969 27.974 27.902 27.904 27.912 27.874 27.852 27.792 27.737 27.697 27.659 27.584 27.487 27.447 27.372 27.314 27.319 27.362 27.384 27.454 27.522 28.759 27.957 27.797 27.984 27.894 27.854 27.859 27.659 27.599 27.579 27.527 27.582 27.527 27.544 27.502 30.042 29.832 33.244 30.134 27.352 27.364 27.309 27.212 27.244 27.237 27.187 27.129 27.084 27.424 27.109 27.032 27.172 27.404 27.682 27.689 27.339 27.284 26.732 26.514 27.249 26.704 26.837 26.594 26.522 26.482 26.454 26.479 26.477 26.407 26.324 26.359 26.184 26.299 27.152 26.074 26.007 26.037 25.992 25.919 26.002 25.812 25.719
31.264 31.224 31.174 31.159 31.152 31.162 31.172 31.149 31.224 31.257 31.224 31.197 31.187 31.222 31.257 31.264 31.292 31.397 31.457 31.507 31.514 31.527 32.269 33.109 32.054 32.049 32.079 32.087 32.132 32.202 32.632 32.484 32.329 32.566 32.849 33.696 32.454 32.399 32.289 32.994 39.396 33.871 32.646 32.869 33.231 34.049 33.376 39.901 32.689 40.401 47.241 42.439 37.436 39.539 46.036 53.511 48.329 48.884 53.446 37.474 38.964 47.564 43.856 42.969 33.579 33.784 35.414 39.734 35.171 34.661 34.514 33.911 36.249 33.646 36.484 34.289 33.561 33.551 33.564 34.371 37.734 38.601 35.269 38.064 37.946 35.654 35.656 35.681 35.631 35.634 35.591 35.566 35.539 35.546 35.581 35.556 35.531 35.474 35.459 35.411 35.451 35.409 35.436 35.459 35.401 35.376 35.344 35.284 35.249 35.234 35.206 35.154 35.121 35.096 35.526 36.079 41.954 40.199 36.314 35.014 34.821 34.916 35.674 37.771 36.454 34.839 34.364 34.274 34.211 34.096 34.006 33.944 33.866 33.744 33.616 33.526 33.444 33.394 33.339 33.289 33.236 33.219 33.271 33.324 33.224 33.226 33.119 33.029 33.119 35.151 36.954 37.634 38.121 37.706 34.959 32.669 32.164 32.089 31.971 31.951 31.959 31.989 32.011 31.814 31.694 31.634 31.584 31.579 31.481 31.396 31.351 31.284 31.271 31.306 31.359 31.406 31.299 31.171 30.874 30.794 30.719 30.594 30.496 30.469 30.454 30.411 30.399 30.306 30.319 30.329 30.384 30.359 30.319 30.274 30.189 30.096 30.019 29.906 29.826 29.671 29.564 29.471 29.444 29.369 29.296 29.199 29.174 29.116 29.089 29.019 28.949 28.949 28.979 28.964 28.971 28.964 28.989 28.964 28.971 28.914 28.856 29.426 29.879 28.954 28.869 28.861 28.884 28.916 28.891 28.591 29.261 29.804 29.366 28.841 28.801 28.806 28.804 28.811 28.801 28.766 28.666 28.716 28.736 28.874 28.794 28.684 28.631 28.649 28.649 28.669 28.629 28.651 28.621 28.594 28.601 28.566 28.559 28.504 28.504 28.524 28.554 28.499 28.534 28.521 28.449 28.454 28.431 28.406 28.394 28.404 28.329 28.336 28.386 28.339 28.359 28.354 28.321 28.306 28.309 28.274 28.281 28.319 28.289 28.227 28.187 28.314 28.302 28.302 28.259 28.242 28.244 28.187 28.187 28.159 28.179 28.149 28.182 28.229 28.244 28.264 28.232 28.249 28.269 28.282 28.307 28.262 28.269 28.267 28.224 28.224 28.274 28.329 28.354 28.334 28.324 28.334 28.337 28.352 28.319 28.309 28.317 28.289 28.287 28.319 28.339 28.347 28.274 28.292 28.299 28.237 28.247 28.229 28.159 28.147 28.174 28.169 28.207 28.204 28.199 28.142 28.127 28.044 28.032 28.034 28.009 28.012 27.964 27.949 27.952 27.967 27.937 27.874 27.789 27.729 27.692 27.629 27.549 27.477 27.429 27.382 27.342 27.379 27.429 27.447 27.542 27.997 27.632 27.802 28.252 28.122 28.067 27.782 27.702 27.629 27.652 27.712 27.714 27.617 27.554 27.847 27.324 27.269 29.439 29.402 28.507 27.489 27.459 27.479 27.422 27.322 27.214 27.192 27.209 27.169 28.054 27.437 27.019 27.427 27.674 27.744 28.469 27.784 27.972 27.177 26.634 27.602 26.924 26.869 26.544 26.482 26.454 26.367 26.642 26.632 27.507 26.334 26.192 26.119 26.134 26.079 26.267 26.097 25.967 25.897 25.937 26.817 26.149 25.874
31.284 31.264 31.242 31.324 31.264 31.249 31.259 31.242 31.249 31.282 31.299 31.287 31.279 31.304 31.322 31.347 31.434 31.564 31.629 31.579 31.549 31.589 32.859 35.744 32.169 32.127 32.179 32.182 32.267 32.252 32.852 32.561 32.531 32.561 32.844 34.521 32.484 32.346 32.631 37.201 42.474 42.769 34.449 33.156 33.884 33.781 33.154 32.844 34.589 33.634 33.096 37.816 42.306 45.319 48.509 50.441 53.486 51.884 50.449 35.054 45.601 51.806 39.641 47.751 41.071 41.879 38.456 34.281 34.504 34.664 36.594 34.474 39.386 37.866 33.606 33.594 33.554 33.566 33.606 34.074 34.396 35.319 35.479 38.259 38.234 35.691 35.716 35.681 35.679 35.669 35.594 35.601 35.606 35.619 35.634 35.601 35.609 35.576 35.546 35.496 35.486 35.509 35.449 35.431 35.379 35.339 35.311 35.286 35.236 35.206 35.171 35.119 35.084 35.049 35.049 37.209 39.246 40.354 36.381 34.791 34.724 34.661 36.006 37.334 38.761 36.534 34.411 34.296 34.226 34.161 34.076 33.966 33.866 33.759 33.699 33.596 33.529 33.416 33.341 33.311 33.246 33.199 33.241 33.276 33.241 33.204 33.079 33.134 35.244 36.899 37.439 37.376 36.804 34.984 32.744 32.261 32.141 32.059 31.989 31.961 32.011 32.164 31.939 33.889 32.409 31.556 31.524 31.526 31.411 31.389 31.334 31.256 31.224 31.221 31.261 31.231 31.196 31.124 30.841 30.784 30.706 30.644 30.511 30.384 30.379 30.376 30.339 30.334 30.279 30.266 30.296 30.321 30.339 30.291 30.239 30.156 30.034 29.941 29.836 29.741 29.596 29.491 29.409 29.354 29.271 29.236 29.154 29.101 29.054 28.991 28.994 28.946 29.011 29.034 28.979 28.994 28.959 28.941 28.946 28.846 29.574 29.971 29.069 28.859 28.874 28.911 28.916 28.931 28.671 29.024 30.071 29.371 28.856 28.801 28.874 28.904 28.891 28.871 28.809 28.716 28.689 28.784 28.874 28.819 28.749 28.676 28.729 28.684 28.676 28.651 28.656 28.631 28.626 28.634 28.591 28.601 28.571 28.554 28.536 28.621 28.576 28.559 28.526 28.466 28.474 28.479 28.456 28.431 28.401 28.371 28.316 28.379 28.344 28.364 28.384 28.354 28.309 28.281 28.309 28.329 28.339 28.307 28.272 28.249 28.364 28.434 28.387 28.329 28.272 28.242 28.277 28.239 28.232 28.219 28.207 28.227 28.242 28.337 28.344 28.339 28.297 28.302 28.272 28.324 28.287 28.264 28.287 28.272 28.279 28.262 28.352 28.382 28.367 28.384 28.349 28.369 28.392 28.342 28.322 28.337 28.317 28.299 28.397 28.369 28.372 28.352 28.339 28.319 28.289 28.294 28.274 28.232 28.197 28.199 28.229 28.259 28.249 28.227 28.179 28.144 28.149 28.089 28.072 28.044 28.057 28.042 28.012 28.024 28.089 28.062 27.987 27.882 27.812 27.754 27.702 27.607 27.519 27.474 27.427 27.392 27.414 27.507 27.497 28.177 27.747 28.222 27.737 27.824 27.767 28.099 28.024 27.917 27.744 27.659 28.099 28.102 27.757 27.702 27.669 27.539 27.439 27.419 29.172 27.274 27.349 27.392 27.544 27.554 27.492 27.494 27.387 27.154 27.282 27.354 27.339 27.542 27.392 28.542 28.037 27.739 27.912 27.447 27.937 27.889 27.337 27.064 26.807 26.724 26.559 26.529 26.412 26.344 26.752 26.267 26.369 26.289 26.142 26.164 26.029 26.039 25.897 26.419 26.092 25.834 25.942 25.927 25.657 25.617
31.382 31.322 31.357 31.407 31.352 31.284 31.322 31.342 31.427 31.384 31.347 31.349 31.367 31.379 31.394 31.467 31.539 31.677 31.669 31.599 31.622 32.122 32.344 33.152 32.192 32.229 32.179 32.242 32.322 32.312 32.527 32.656 32.601 32.546 32.664 32.674 32.479 32.509 32.536 38.381 44.334 40.381 34.126 33.131 33.639 33.706 32.931 33.286 32.909 33.011 33.141 36.874 39.474 40.536 46.461 49.254 50.094 53.811 42.491 33.339 41.126 47.766 51.324 45.544 34.011 41.249 35.966 34.446 34.881 36.206 38.961 37.579 38.709 35.084 33.566 33.556 33.549 33.574 33.694 34.081 34.256 34.944 35.706 36.974 36.274 35.739 35.746 35.711 35.706 35.709 35.686 35.656 35.659 35.674 35.676 35.676 35.724 35.621 35.634 35.586 35.569 35.549 35.529 35.476 35.406 35.344 35.311 35.269 35.251 35.204 35.161 35.154 35.081 35.031 35.041 35.004 34.961 35.841 34.874 34.831 34.706 34.616 35.721 37.684 37.049 34.296 34.636 34.581 34.226 34.219 34.096 33.984 33.916 33.804 33.719 33.654 33.599 33.506 33.371 33.331 33.319 33.276 33.249 33.291 33.179 33.114 33.181 34.954 36.804 37.394 37.471 36.871 35.501 32.551 32.334 32.186 32.131 32.059 32.096 32.046 32.036 32.064 33.314 37.109 35.736 32.986 31.659 31.399 31.349 31.319 31.244 31.201 31.171 31.124 31.119 31.144 31.159 31.126 30.989 30.849 30.696 30.639 30.531 30.464 30.339 30.311 30.324 30.291 30.284 30.244 30.221 30.246 30.249 30.279 30.239 30.196 30.119 29.999 29.859 29.761 29.661 29.574 29.434 29.336 29.279 29.206 29.144 29.109 29.016 28.999 29.016 29.036 29.039 28.986 29.009 28.976 28.954 28.934 28.874 29.326 29.974 29.109 28.904 28.891 28.951 28.959 28.986 28.789 28.966 30.131 29.546 28.911 28.869 28.891 28.931 28.924 28.919 28.876 28.739 28.736 28.784 28.901 28.879 28.799 28.711 28.751 28.759 28.756 28.721 28.701 28.704 28.674 28.664 28.649 28.634 28.619 28.541 28.556 28.646 28.621 28.604 28.554 28.554 28.526 28.501 28.471 28.464 28.481 28.436 28.321 28.376 28.366 28.389 28.389 28.399 28.369 28.324 28.311 28.381 28.359 28.351 28.327 28.334 28.442 28.509 28.459 28.442 28.337 28.297 28.299 28.332 28.302 28.259 28.259 28.239 28.232 28.359 28.377 28.389 28.364 28.349 28.337 28.362 28.354 28.322 28.309 28.309 28.264 28.322 28.377 28.414 28.434 28.427 28.419 28.437 28.412 28.424 28.392 28.364 28.372 28.347 28.382 28.427 28.437 28.397 28.412 28.369 28.349 28.322 28.334 28.314 28.237 28.249 28.259 28.299 28.292 28.257 28.259 28.189 28.192 28.157 28.117 28.092 28.102 28.109 28.064 28.059 28.134 28.132 28.114 27.997 27.892 27.824 27.772 27.712 27.597 27.524 27.464 27.429 27.437 27.487 27.552 27.569 27.717 27.892 27.787 27.834 28.034 27.927 27.819 27.844 27.849 28.147 28.589 28.197 27.917 27.757 27.664 27.707 27.669 27.584 27.484 27.414 27.339 27.367 27.342 27.399 27.499 27.454 27.429 27.529 27.339 27.424 27.824 27.374 27.309 27.602 28.629 28.747 28.352 27.202 28.224 27.834 27.709 27.179 26.927 26.709 26.682 26.592 26.527 26.427 26.289 26.182 26.164 26.059 26.039 26.004 26.049 26.032 26.017 26.032 25.872 25.792 25.854 25.794 25.724 25.409 25.209
31.454 31.429 31.472 31.457 31.479 31.427 31.404 31.422 31.459 31.419 31.409 31.397 31.447 31.462 31.474 31.602 31.684 31.774 31.674 31.629 31.747 32.259 32.292 32.212 32.247 32.237 32.219 32.312 32.389 32.352 32.609 33.484 32.696 32.559 32.664 32.899 32.684 32.691 32.826 35.684 37.016 35.814 32.869 33.109 33.416 35.024 33.436 32.904 33.069 33.136 33.091 34.006 36.639 34.866 34.899 46.299 52.954 46.784 39.709 33.646 40.469 49.186 48.234 34.306 34.029 34.171 34.486 34.669 34.791 38.969 39.546 39.409 38.526 33.529 33.624 33.616 33.564 33.576 34.431 34.079 34.556 34.934 36.084 36.759 35.779 35.791 35.764 35.756 35.814 35.751 35.791 35.724 35.751 35.726 35.766 35.809 35.806 35.721 35.711 35.659 35.664 35.636 35.586 35.546 35.506 35.441 35.354 35.311 35.276 35.229 35.189 35.136 35.119 35.064 35.066 35.016 34.931 34.841 34.834 34.756 34.691 34.661 34.556 36.011 34.421 34.301 34.196 34.114 34.099 34.106 34.169 34.049 34.011 33.824 33.774 33.704 33.666 33.574 33.451 33.346 33.289 33.309 33.279 33.186 33.119 33.234 34.151 36.721 37.329 37.506 36.979 35.716 32.644 32.456 32.316 32.204 32.186 32.149 32.236 32.279 32.099 32.589 36.574 38.524 38.839 36.424 32.294 31.514 31.371 31.296 31.226 31.154 31.066 31.011 31.044 31.059 31.164 31.041 31.026 30.916 30.724 30.624 30.581 30.471 30.414 30.341 30.236 30.194 30.221 30.196 30.204 30.154 30.171 30.204 30.211 30.191 30.171 30.046 29.949 29.814 29.691 29.594 29.506 29.396 29.294 29.229 29.144 29.056 29.011 29.014 29.054 29.041 29.046 29.029 29.011 28.954 28.939 28.841 29.201 29.869 29.199 28.921 28.916 28.926 29.009 29.021 28.956 28.984 29.866 30.051 29.074 28.921 28.996 28.979 28.974 28.944 28.941 28.829 28.766 28.791 28.921 28.926 28.859 28.794 28.774 28.789 28.759 28.744 28.734 28.714 28.699 28.711 28.726 28.699 28.676 28.621 28.619 28.686 28.649 28.659 28.629 28.564 28.529 28.534 28.551 28.546 28.511 28.496 28.319 28.319 28.341 28.406 28.399 28.404 28.396 28.351 28.336 28.406 28.381 28.361 28.339 28.347 28.452 28.539 28.532 28.482 28.417 28.379 28.364 28.327 28.357 28.344 28.302 28.282 28.299 28.362 28.407 28.422 28.377 28.379 28.367 28.392 28.392 28.344 28.364 28.369 28.282 28.302 28.389 28.439 28.429 28.472 28.459 28.469 28.469 28.442 28.439 28.399 28.359 28.412 28.359 28.459 28.469 28.449 28.432 28.439 28.402 28.334 28.389 28.347 28.302 28.277 28.322 28.309 28.322 28.309 28.309 28.237 28.222 28.229 28.204 28.172 28.129 28.179 28.177 28.122 28.137 28.177 28.184 28.137 27.922 27.887 27.794 27.752 27.659 27.564 27.494 27.457 27.474 27.507 27.567 27.577 27.707 27.974 28.097 27.917 27.587 27.867 27.724 27.782 27.737 27.554 27.514 27.602 28.454 27.717 27.724 27.469 27.482 27.702 27.662 27.534 27.439 27.342 27.392 27.469 27.397 27.427 27.402 27.442 27.439 27.447 27.499 27.444 27.319 27.292 27.202 27.387 28.814 28.244 27.929 28.444 28.027 27.257 26.952 26.864 26.739 26.684 26.609 26.544 26.379 26.297 26.219 26.129 25.967 25.977 25.852 25.829 25.899 27.114 26.362 25.794 25.727 25.777 25.494 25.182 25.072 25.099
31.574 31.522 31.597 31.569 31.572 31.589 31.487 31.487 31.464 31.487 31.474 31.517 31.524 31.554 31.654 31.742 31.799 31.777 31.732 31.787 32.257 32.319 32.234 32.264 32.272 32.267 32.277 32.352 32.452 32.432 32.734 32.896 32.729 32.671 32.896 32.974 33.041 32.899 32.684 33.694 34.009 34.209 33.156 33.436 38.584 40.231 35.174 33.999 33.201 33.166 33.354 33.799 33.141 33.316 36.624 50.984 52.949 51.469 40.561 37.321 49.174 45.101 46.264 48.416 34.509 34.421 34.866 34.824 34.939 34.971 36.459 35.506 35.411 33.594 33.666 33.604 33.559 33.581 34.544 35.436 34.939 35.316 39.091 37.489 35.809 35.821 35.816 35.846 35.824 35.766 35.821 35.776 35.749 35.811 35.894 35.939 35.904 35.926 35.884 35.879 35.846 35.664 35.654 35.636 35.666 35.639 35.494 35.434 35.314 35.244 35.174 35.109 35.101 35.104 35.011 34.976 34.901 34.844 34.764 34.704 34.641 34.586 34.561 34.546 34.494 34.364 34.261 34.169 34.106 33.986 33.934 33.896 34.039 34.021 33.994 33.691 33.596 33.579 33.491 33.429 33.299 33.211 33.164 33.106 33.156 34.149 36.639 37.236 37.561 37.079 36.044 33.611 32.616 32.496 32.369 32.259 32.219 32.231 32.274 32.184 33.146 36.534 38.354 38.909 37.411 35.784 34.049 31.899 31.389 31.291 31.206 31.141 31.054 30.971 30.929 30.941 30.941 30.979 30.936 30.864 30.769 30.681 30.584 30.486 30.416 30.311 30.229 30.174 30.149 30.141 30.129 30.119 30.129 30.116 30.104 30.139 30.111 30.034 29.989 29.881 29.759 29.614 29.541 29.414 29.339 29.231 29.121 29.084 29.094 29.094 29.054 29.031 29.051 29.034 28.981 28.951 28.991 29.399 29.954 29.116 28.939 28.951 28.936 28.974 29.006 28.994 28.766 29.636 29.986 29.286 28.971 29.036 29.089 28.969 28.971 28.971 28.839 28.826 28.829 28.916 28.944 28.931 28.814 28.794 28.824 28.819 28.786 28.814 28.771 28.766 28.761 28.736 28.721 28.716 28.714 28.684 28.719 28.734 28.709 28.659 28.629 28.601 28.559 28.576 28.564 28.571 28.521 28.391 28.331 28.374 28.444 28.459 28.411 28.434 28.401 28.371 28.409 28.434 28.359 28.409 28.431 28.477 28.612 28.562 28.564 28.504 28.427 28.404 28.412 28.397 28.399 28.384 28.327 28.314 28.319 28.384 28.444 28.424 28.412 28.409 28.419 28.434 28.412 28.389 28.389 28.327 28.304 28.399 28.462 28.487 28.489 28.479 28.482 28.469 28.464 28.437 28.409 28.422 28.374 28.407 28.457 28.497 28.517 28.484 28.467 28.437 28.392 28.387 28.397 28.372 28.334 28.319 28.324 28.357 28.379 28.367 28.312 28.262 28.242 28.264 28.252 28.219 28.207 28.157 28.197 28.209 28.204 28.194 28.202 28.049 27.934 27.839 27.809 27.732 27.652 27.562 27.517 27.499 27.514 27.562 27.612 27.687 29.734 28.274 27.949 27.782 27.679 27.957 27.779 27.899 27.629 27.422 27.357 27.392 27.469 27.512 27.552 27.569 27.684 27.687 27.819 27.662 27.467 27.424 27.554 27.607 27.382 27.394 27.442 27.384 27.374 27.437 27.529 27.372 27.327 27.462 27.697 27.284 27.539 28.514 29.107 28.629 29.092 28.222 27.747 27.479 26.929 26.587 26.557 26.514 26.304 26.249 26.172 26.074 25.899 25.899 25.812 25.717 25.662 26.917 25.837 25.674 25.589 25.232 25.119 25.092 24.949 24.897
31.707 31.634 31.572 31.667 31.664 31.679 31.654 31.539 31.542 31.557 31.577 31.567 31.644 31.662 31.787 31.822 31.842 31.802 31.794 32.167 32.572 32.267 32.312 32.302 32.314 32.302 32.352 32.439 32.527 32.524 33.402 33.051 33.286 32.794 33.394 33.804 33.196 33.144 32.879 32.906 33.026 33.531 34.476 37.014 39.206 39.556 36.334 35.844 33.349 33.249 34.156 33.316 33.466 33.991 33.954 46.961 52.049 41.161 45.886 50.449 54.334 55.601 47.294 53.994 39.694 34.579 34.876 34.924 35.114 35.084 34.969 34.474 35.736 33.556 33.831 33.586 33.554 35.619 34.464 34.861 37.771 40.356 41.026 35.956 35.881 35.899 35.886 35.846 35.794 35.796 35.804 35.831 35.766 35.846 35.939 35.954 35.941 36.004 36.004 36.001 35.906 35.729 35.671 35.714 35.696 35.676 35.616 35.561 35.484 35.349 35.229 35.186 35.109 35.061 34.986 34.964 34.924 34.796 34.741 34.644 34.614 34.531 34.461 34.419 34.389 34.296 34.244 34.189 34.156 34.051 33.979 33.866 33.774 33.679 33.611 33.599 33.539 34.194 34.266 33.556 33.331 33.244 33.121 33.096 33.201 36.061 37.166 37.591 37.141 36.501 34.181 32.794 32.566 32.446 32.326 32.241 32.274 32.384 32.236 33.064 36.046 38.164 39.036 37.911 37.141 35.526 32.674 31.566 31.414 31.261 31.229 31.166 31.049 30.941 30.849 30.791 30.854 30.826 30.826 30.811 30.764 30.664 30.549 30.426 30.341 30.334 30.261 30.224 30.126 30.084 30.084 30.089 30.081 30.096 30.059 30.039 30.019 30.009 29.949 29.874 29.769 29.716 29.574 29.471 29.354 29.191 29.151 29.166 29.201 29.139 29.086 29.074 29.066 29.011 28.984 28.961 29.524 30.191 29.216 28.976 28.964 28.961 28.964 28.964 28.964 28.764 29.366 30.121 29.466 29.004 29.024 29.136 29.061 29.029 29.046 28.934 28.819 28.869 28.964 28.979 28.996 28.871 28.809 28.836 28.849 28.829 28.849 28.841 28.809 28.831 28.799 28.746 28.759 28.744 28.674 28.746 28.761 28.721 28.729 28.654 28.639 28.611 28.644 28.636 28.581 28.541 28.469 28.384 28.369 28.466 28.484 28.499 28.504 28.471 28.446 28.449 28.471 28.424 28.431 28.449 28.554 28.692 28.597 28.592 28.544 28.459 28.462 28.462 28.472 28.434 28.424 28.404 28.362 28.369 28.437 28.469 28.439 28.447 28.432 28.459 28.457 28.452 28.419 28.402 28.344 28.357 28.392 28.489 28.502 28.494 28.507 28.519 28.487 28.484 28.489 28.462 28.439 28.414 28.442 28.474 28.527 28.549 28.499 28.534 28.484 28.434 28.397 28.404 28.384 28.359 28.339 28.359 28.402 28.414 28.392 28.369 28.324 28.319 28.324 28.324 28.289 28.247 28.239 28.207 28.219 28.269 28.247 28.259 28.152 28.069 27.957 27.867 27.802 27.719 27.632 27.567 27.542 27.559 27.602 27.629 27.724 27.952 28.464 28.007 27.699 27.692 27.759 27.714 27.662 27.707 27.572 27.549 27.412 27.432 27.579 27.542 27.637 27.717 27.737 27.782 27.719 28.002 27.727 27.524 27.594 27.452 27.364 27.347 27.432 27.342 27.377 27.419 27.297 27.242 27.364 27.342 27.614 27.824 28.447 28.527 28.782 28.327 28.912 28.904 28.432 28.097 26.769 26.684 26.534 26.487 26.282 26.044 26.039 26.024 25.929 25.924 25.749 25.627 25.557 25.499 25.534 25.614 25.174 25.177 25.007 24.882 24.844 25.082
31.652 31.722 31.632 31.712 31.734 31.742 31.694 31.597 31.609 31.634 31.634 31.679 31.702 31.794 31.877 31.897 31.869 31.859 32.002 32.519 32.307 32.324 32.364 32.334 32.309 32.342 32.399 32.502 32.629 32.664 33.574 33.739 33.671 33.104 33.311 33.526 33.481 33.459 33.256 33.101 32.999 32.944 33.481 33.379 37.121 36.289 33.356 33.219 33.279 33.406 33.646 33.459 33.796 33.916 33.589 37.196 47.066 42.461 44.496 45.024 53.374 46.336 38.896 46.134 36.514 34.644 34.841 35.011 35.231 34.891 34.671 34.609 34.899 33.566 33.561 33.666 33.851 34.051 34.589 35.151 35.596 38.526 39.156 36.069 35.931 35.936 35.914 35.916 35.831 35.861 35.854 35.886 35.944 35.899 35.934 36.026 36.091 35.974 36.006 36.001 35.924 35.874 35.876 35.791 35.781 35.729 35.654 35.631 35.529 35.441 35.289 35.284 35.234 35.081 35.004 34.939 34.876 34.786 34.724 34.609 34.566 34.514 34.441 34.344 34.321 34.246 34.174 34.114 34.101 34.089 34.016 33.921 33.851 33.794 33.676 33.581 33.464 33.444 33.731 33.764 33.271 33.186 33.134 33.164 33.186 35.816 37.566 37.226 36.661 34.526 32.934 32.529 32.459 32.379 32.296 32.406 32.441 32.296 32.794 35.736 37.999 39.136 37.834 36.674 36.796 32.959 31.706 31.486 31.346 31.311 31.281 31.079 31.004 30.926 30.756 30.706 30.789 30.771 30.776 30.796 30.729 30.666 30.561 30.351 30.234 30.201 30.256 30.221 30.164 30.106 30.066 30.046 30.059 30.044 30.024 29.979 29.979 29.919 29.909 29.829 29.764 29.681 29.561 29.436 29.309 29.241 29.274 29.291 29.186 29.129 29.154 29.109 29.056 29.016 29.009 29.506 30.099 29.101 28.959 28.989 29.006 28.979 28.941 28.934 28.836 29.134 29.976 29.669 29.079 28.991 29.039 29.126 29.031 29.049 28.981 28.891 28.839 29.021 29.001 29.024 28.899 28.824 28.866 28.926 28.886 28.889 28.869 28.856 28.881 28.894 28.796 28.829 28.834 28.716 28.729 28.829 28.771 28.751 28.724 28.676 28.684 28.671 28.676 28.616 28.554 28.504 28.434 28.419 28.516 28.554 28.519 28.571 28.589 28.566 28.554 28.541 28.439 28.466 28.481 28.581 28.624 28.687 28.664 28.609 28.547 28.509 28.517 28.514 28.492 28.459 28.447 28.424 28.397 28.462 28.519 28.539 28.504 28.514 28.512 28.492 28.477 28.452 28.429 28.399 28.412 28.427 28.484 28.514 28.532 28.564 28.524 28.509 28.494 28.512 28.469 28.439 28.449 28.454 28.477 28.497 28.567 28.564 28.567 28.557 28.477 28.444 28.449 28.454 28.427 28.389 28.364 28.409 28.447 28.457 28.432 28.352 28.347 28.369 28.317 28.319 28.322 28.317 28.257 28.219 28.322 28.292 28.314 28.279 28.127 28.034 27.969 27.867 27.764 27.694 27.619 27.612 27.614 27.629 27.667 27.747 27.994 28.982 28.617 27.859 27.827 27.759 27.764 27.717 27.684 27.579 27.627 27.532 27.772 27.797 27.664 27.594 27.749 27.702 27.844 27.702 27.569 27.827 27.579 27.529 27.597 27.449 27.329 27.342 27.347 27.382 27.377 27.309 27.219 27.367 27.307 27.274 27.264 27.282 27.217 27.337 27.307 27.169 27.704 28.164 27.354 26.697 26.357 26.702 26.507 26.887 26.274 25.979 25.874 25.804 25.769 25.854 25.699 25.627 25.444 25.327 25.419 25.257 24.952 24.899 24.752 24.672 24.604 24.982
31.677 31.697 31.757 31.754 31.757 31.777 31.739 31.682 31.684 31.697 31.737 31.772 31.852 31.917 31.947 31.959 31.944 31.974 32.587 32.502 32.369 32.422 32.387 32.374 32.372 32.432 32.492 32.604 32.732 33.457 34.467 34.959 34.809 33.079 33.479 33.676 33.679 33.344 33.391 33.826 33.109 33.079 33.131 33.136 35.899 33.319 33.351 34.359 33.856 33.911 34.506 33.749 34.396 33.681 33.591 35.239 47.676 45.211 44.219 48.189 46.819 44.589 35.911 34.291 34.544 34.756 34.916 35.024 35.044 34.814 34.484 33.754 33.551 33.554 33.571 34.351 34.111 34.376 34.816 35.899 36.001 39.181 38.019 35.966 35.981 36.006 36.016 35.856 35.839 35.861 35.869 35.949 35.981 35.991 36.054 36.031 36.061 36.006 36.029 35.986 35.846 35.869 35.896 35.846 35.866 35.806 35.664 35.679 35.606 35.504 35.351 35.239 35.286 35.194 35.074 34.971 34.959 34.866 34.754 34.656 34.569 34.486 34.371 34.309 34.261 34.201 34.166 34.116 34.071 34.026 33.951 33.934 33.861 33.819 33.739 33.656 33.561 33.499 33.401 33.309 33.251 33.171 33.184 33.121 33.069 33.071 35.589 36.524 34.226 32.799 32.576 32.446 32.386 32.386 32.321 32.901 32.501 32.259 34.529 37.759 39.051 37.989 36.376 35.664 33.544 31.801 31.561 31.376 31.366 31.269 31.141 31.156 31.159 30.919 30.721 30.769 30.774 30.661 30.624 30.596 30.606 30.584 30.529 30.409 30.256 30.124 30.071 30.134 30.146 30.119 30.084 30.044 29.984 30.009 29.986 29.984 29.964 29.889 29.819 29.769 29.721 29.666 29.536 29.416 29.296 29.346 29.369 29.319 29.194 29.181 29.191 29.136 29.089 29.024 29.134 30.089 29.179 29.001 29.029 29.006 29.001 29.006 28.986 28.916 28.874 29.666 29.879 29.181 29.064 29.059 29.176 29.109 29.079 29.026 28.924 28.944 29.021 29.064 29.051 29.004 28.906 28.889 28.911 28.956 28.911 28.924 28.951 28.929 28.921 28.886 28.876 28.874 28.784 28.764 28.879 28.836 28.831 28.759 28.724 28.691 28.724 28.714 28.626 28.609 28.586 28.521 28.501 28.621 28.659 28.641 28.654 28.691 28.684 28.634 28.601 28.524 28.524 28.576 28.634 28.624 28.721 28.727 28.682 28.637 28.594 28.592 28.592 28.522 28.489 28.462 28.469 28.449 28.487 28.537 28.599 28.547 28.542 28.522 28.542 28.529 28.509 28.464 28.412 28.414 28.447 28.524 28.514 28.569 28.589 28.564 28.569 28.544 28.507 28.512 28.459 28.447 28.474 28.492 28.537 28.574 28.599 28.617 28.597 28.544 28.517 28.484 28.477 28.462 28.459 28.442 28.449 28.499 28.477 28.469 28.447 28.402 28.377 28.342 28.364 28.347 28.379 28.327 28.302 28.349 28.399 28.362 28.334 28.227 28.137 28.044 27.929 27.839 27.764 27.684 27.647 27.654 27.667 27.707 27.767 28.047 29.407 28.632 28.019 27.872 28.189 28.012 27.802 27.869 27.812 27.642 27.577 27.612 27.784 27.742 27.717 27.639 28.157 28.262 27.584 27.547 27.519 27.537 27.407 27.452 27.504 27.439 27.389 27.344 27.334 27.264 27.247 27.202 27.334 27.174 27.159 27.279 27.624 28.247 27.159 26.987 27.039 27.099 27.424 27.224 26.872 26.692 27.067 26.947 26.614 26.332 26.024 25.897 25.839 25.597 25.579 25.679 25.604 25.469 25.297 25.202 25.282 25.292 24.754 24.682 24.572 24.539 24.392 24.162
31.744 31.749 31.837 31.769 31.752 31.769 31.819 31.787 31.777 31.812 31.859 31.917 32.012 31.979 32.009 32.002 32.032 32.549 32.782 32.447 32.479 32.509 32.439 32.432 32.442 32.487 32.584 32.687 32.797 32.847 34.562 34.891 34.059 33.179 33.521 33.404 33.626 33.664 33.424 33.351 33.159 33.346 33.256 33.316 33.294 33.486 34.696 35.859 33.929 33.631 33.661 33.864 33.744 33.724 33.704 34.679 45.651 49.959 47.889 44.054 40.581 34.091 34.191 34.519 34.666 34.809 35.476 35.696 35.074 35.364 34.544 33.951 33.551 33.579 33.649 34.126 34.669 34.524 36.354 37.439 36.639 36.886 36.121 36.029 36.031 36.016 36.001 35.899 35.851 35.896 36.014 36.046 35.996 36.041 36.046 36.164 36.044 36.071 36.071 35.986 35.894 35.874 35.899 35.891 35.826 35.824 35.744 35.679 35.619 35.516 35.346 35.291 35.329 35.231 35.096 35.001 35.031 34.951 34.824 34.684 34.581 34.501 34.366 34.296 34.209 34.136 34.071 34.004 33.989 34.004 33.909 33.834 33.796 33.721 33.724 33.661 33.631 33.559 33.454 33.419 33.434 33.321 33.174 33.054 32.999 32.964 33.056 33.444 32.759 32.706 32.599 32.459 32.381 32.359 32.389 32.314 31.984 33.946 35.111 35.826 37.914 36.564 35.694 35.376 34.959 32.571 31.539 31.389 31.261 31.116 30.981 30.969 31.111 30.864 30.771 30.771 30.709 30.651 30.561 30.486 30.434 30.446 30.434 30.421 30.344 30.184 30.061 30.011 30.056 30.101 30.079 30.039 29.951 29.921 29.914 29.919 29.866 29.859 29.791 29.739 29.651 29.621 29.524 29.416 29.414 29.399 29.341 29.324 29.279 29.239 29.146 29.154 29.034 29.149 30.131 29.361 29.059 29.071 29.056 29.039 29.064 29.061 29.054 28.811 29.201 29.951 29.319 29.119 29.079 29.171 29.209 29.109 29.081 28.979 28.949 29.034 29.096 29.126 29.029 28.916 28.896 29.006 28.959 28.949 28.934 28.939 28.966 28.994 28.956 28.896 28.931 28.881 28.836 28.844 28.891 28.879 28.824 28.756 28.776 28.724 28.696 28.709 28.664 28.636 28.576 28.569 28.666 28.701 28.726 28.711 28.776 28.751 28.689 28.604 28.619 28.644 28.689 28.686 28.634 28.724 28.764 28.739 28.737 28.727 28.694 28.694 28.619 28.547 28.519 28.507 28.524 28.544 28.589 28.584 28.579 28.579 28.552 28.567 28.532 28.527 28.514 28.462 28.444 28.472 28.529 28.609 28.607 28.637 28.637 28.612 28.579 28.569 28.554 28.524 28.499 28.477 28.519 28.574 28.579 28.629 28.644 28.634 28.609 28.557 28.532 28.512 28.519 28.499 28.469 28.479 28.537 28.569 28.569 28.484 28.439 28.452 28.422 28.402 28.399 28.402 28.347 28.314 28.364 28.424 28.442 28.402 28.347 28.242 28.084 28.017 27.922 27.804 27.754 27.699 27.679 27.699 27.752 27.804 27.892 29.417 29.859 28.807 27.817 28.052 27.872 27.874 27.797 27.719 27.692 27.694 27.674 27.789 27.722 27.772 27.787 27.717 27.959 28.002 27.607 27.522 27.597 27.549 27.322 27.377 27.344 27.289 27.379 27.384 27.424 27.467 27.452 27.294 27.387 27.319 27.099 28.072 27.532 29.804 26.957 26.972 26.999 26.982 26.977 26.927 26.799 26.662 26.787 26.192 26.427 26.077 25.909 25.694 25.589 25.527 25.397 25.902 26.149 25.232 25.049 24.972 24.682 24.477 24.489 24.394 24.337 24.164 24.107 23.857
31.749 31.794 31.889 31.832 31.794 31.819 31.839 31.862 31.864 31.892 31.934 32.049 32.047 32.092 32.074 32.087 32.314 33.277 32.494 32.547 32.569 32.524 32.504 32.494 32.504 32.569 32.654 32.767 32.904 32.949 33.254 33.534 33.524 33.356 33.531 33.549 33.446 34.479 33.931 34.171 33.514 33.291 33.359 34.069 33.494 35.514 34.259 33.881 33.706 33.731 33.844 33.789 33.866 33.864 33.749 39.526 35.981 42.606 37.651 34.996 34.154 34.314 40.024 38.269 34.996 34.996 38.629 35.346 34.984 34.421 33.989 33.576 33.591 33.614 33.696 34.771 34.421 34.856 35.421 35.996 36.924 37.246 36.039 36.059 36.096 36.111 36.036 35.966 35.986 36.031 36.081 36.101 36.066 36.081 36.151 36.169 36.039 36.121 36.091 35.924 35.899 35.969 35.896 35.916 35.881 35.776 35.719 35.721 35.634 35.479 35.356 35.409 35.361 35.271 35.106 35.071 35.011 34.941 34.869 34.779 34.584 34.494 34.356 34.274 34.266 34.139 34.029 33.971 33.899 33.844 33.816 33.781 33.774 33.674 33.699 33.636 33.609 33.554 33.436 33.396 33.296 33.281 33.156 33.044 32.904 32.911 32.884 32.901 32.954 32.831 32.599 32.476 32.364 32.381 32.479 32.089 33.346 35.104 35.224 35.354 35.589 35.714 35.426 35.154 34.866 34.576 32.879 31.366 31.211 31.094 30.996 30.934 30.936 30.804 30.796 30.764 30.721 30.761 31.359 30.719 30.466 30.414 30.344 30.354 30.326 30.239 30.161 30.056 29.969 30.009 30.074 30.096 30.064 29.949 29.904 29.844 29.779 29.719 29.741 29.721 29.686 29.604 29.506 29.451 29.436 29.444 29.371 29.386 29.301 29.216 29.189 29.106 29.236 30.054 29.351 29.114 29.104 29.071 29.071 29.101 29.101 29.129 28.924 29.024 29.741 29.419 29.189 29.139 29.209 29.274 29.189 29.171 29.026 29.019 29.066 29.116 29.129 29.169 28.971 28.886 28.984 28.991 28.999 28.986 28.961 28.964 29.044 29.004 28.961 28.966 28.941 28.891 28.844 28.981 28.921 28.879 28.829 28.794 28.796 28.746 28.746 28.694 28.659 28.646 28.626 28.684 28.751 28.751 28.736 28.794 28.821 28.751 28.716 28.696 28.694 28.749 28.711 28.716 28.716 28.769 28.771 28.792 28.754 28.739 28.747 28.684 28.584 28.567 28.597 28.579 28.559 28.652 28.679 28.629 28.649 28.637 28.604 28.592 28.592 28.547 28.542 28.527 28.487 28.589 28.624 28.669 28.679 28.662 28.689 28.629 28.612 28.599 28.587 28.539 28.527 28.544 28.604 28.627 28.647 28.669 28.684 28.692 28.602 28.577 28.532 28.584 28.564 28.544 28.492 28.567 28.574 28.607 28.572 28.517 28.482 28.487 28.469 28.437 28.479 28.454 28.392 28.399 28.434 28.467 28.462 28.407 28.324 28.219 28.094 27.964 27.927 27.832 27.764 27.722 27.737 27.822 27.827 27.899 28.629 29.964 28.482 27.999 28.724 28.512 28.199 28.069 27.762 27.707 27.709 27.747 27.667 27.674 27.689 27.667 27.687 27.714 27.894 27.819 27.937 27.689 27.624 28.204 27.537 27.382 27.367 27.287 27.329 27.402 27.439 27.632 27.627 28.067 27.404 27.904 27.862 27.167 28.039 27.017 26.877 26.939 27.102 27.029 26.987 26.854 26.737 26.557 26.274 26.374 26.489 26.012 25.722 25.614 25.417 25.399 25.182 25.032 25.092 25.004 24.862 24.784 24.552 24.219 24.274 24.857 24.084 23.939 23.857 23.727
31.819 31.877 31.924 31.899 31.912 31.869 31.924 31.952 31.944 31.967 32.069 32.172 32.134 32.144 32.132 32.274 33.314 32.777 32.624 32.642 32.622 32.564 32.587 32.564 32.564 32.659 32.762 32.857 32.989 33.027 33.687 34.064 34.521 33.544 33.581 34.284 34.916 34.891 33.754 33.764 33.464 33.419 33.669 33.756 34.474 34.366 33.881 33.981 34.076 33.946 33.896 33.906 33.981 34.061 33.819 38.171 40.599 40.689 34.066 35.776 34.314 34.426 52.944 46.399 34.934 37.666 37.844 37.866 35.056 34.551 34.431 33.696 33.621 33.629 33.886 34.609 34.746 35.326 36.311 36.181 37.556 36.186 36.101 36.121 36.131 36.119 36.036 35.989 36.051 36.151 36.109 36.041 36.076 36.116 36.154 36.196 36.139 36.124 36.026 35.896 35.956 35.916 35.919 35.874 35.891 35.779 35.749 35.669 35.626 35.449 35.424 35.454 35.361 35.246 35.119 35.111 35.054 34.969 34.841 34.689 34.604 34.479 34.459 34.424 34.356 34.176 34.051 33.979 33.889 33.826 33.779 33.674 33.679 33.631 33.594 33.579 33.501 33.526 33.404 33.286 33.234 33.169 33.066 32.976 32.871 32.834 32.896 33.101 34.921 35.846 33.171 32.449 32.406 32.454 32.449 33.409 35.099 35.229 35.349 35.541 35.684 35.459 35.184 34.926 34.634 34.169 32.206 31.279 31.171 31.054 30.989 31.016 30.894 30.824 30.776 30.801 31.204 31.051 31.066 30.814 30.569 30.481 30.406 30.321 30.249 30.236 30.209 30.076 30.011 30.001 29.994 30.074 30.106 30.071 29.951 29.889 29.794 29.734 29.694 29.624 29.596 29.549 29.506 29.471 29.449 29.446 29.466 29.401 29.301 29.229 29.136 29.319 30.326 29.411 29.154 29.156 29.109 29.079 29.086 29.096 29.139 29.074 28.954 29.619 29.744 29.241 29.181 29.189 29.286 29.274 29.249 29.096 29.071 29.104 29.176 29.194 29.146 29.104 28.989 28.986 29.021 29.006 28.981 28.981 29.026 29.004 29.009 28.981 28.986 29.044 28.939 28.944 28.991 28.979 28.939 28.874 28.859 28.871 28.804 28.776 28.754 28.749 28.714 28.681 28.696 28.801 28.799 28.789 28.796 28.801 28.769 28.759 28.764 28.734 28.794 28.744 28.714 28.701 28.796 28.794 28.796 28.832 28.822 28.772 28.722 28.667 28.599 28.622 28.594 28.619 28.664 28.694 28.692 28.684 28.682 28.659 28.629 28.632 28.582 28.564 28.564 28.562 28.617 28.697 28.697 28.739 28.739 28.704 28.677 28.629 28.637 28.642 28.584 28.554 28.552 28.589 28.627 28.669 28.694 28.714 28.702 28.669 28.637 28.642 28.607 28.602 28.547 28.567 28.594 28.594 28.639 28.647 28.572 28.532 28.534 28.507 28.499 28.534 28.532 28.449 28.462 28.502 28.479 28.487 28.447 28.359 28.259 28.172 28.052 27.972 27.907 27.844 27.807 27.777 27.849 27.857 27.944 28.262 30.247 28.239 27.937 28.264 27.912 27.979 28.044 27.864 27.882 27.907 27.722 27.819 27.734 27.664 27.587 27.697 27.639 27.702 28.237 28.299 28.037 27.664 27.572 28.324 27.419 27.567 28.454 27.594 27.277 27.357 27.517 27.494 27.507 27.477 27.227 27.204 27.059 27.177 27.172 26.909 26.854 26.944 26.932 26.969 26.889 27.662 26.709 26.472 26.297 26.964 26.124 26.417 26.002 25.494 25.312 25.259 25.047 24.792 24.772 24.642 25.047 24.517 24.504 24.117 23.882 24.392 24.004 23.704 23.714 23.614
31.894 31.937 31.977 31.969 32.002 32.002 31.992 31.967 32.009 32.082 32.207 32.202 32.192 32.177 32.207 32.854 33.272 32.699 32.737 32.722 32.709 32.662 32.679 32.647 32.659 32.732 32.839 32.932 33.059 33.117 33.219 33.649 34.002 33.704 33.622 34.552 35.142 34.829 33.982 33.659 33.534 33.559 33.737 33.819 33.959 33.802 33.772 34.064 34.364 33.967 33.932 34.727 34.759 34.109 33.917 34.154 34.467 40.289 35.394 34.522 34.394 34.502 47.364 47.602 34.964 35.164 36.677 37.772 36.064 34.457 34.254 33.952 33.927 34.229 34.502 34.969 35.394 35.747 36.107 36.574 36.584 36.179 36.184 36.209 36.216 36.151 36.079 36.099 36.074 36.189 36.209 36.119 36.159 36.236 36.199 36.124 36.116 36.111 35.989 35.981 36.036 35.979 35.944 35.926 35.884 35.766 35.724 35.714 35.581 35.436 35.434 35.409 35.334 35.184 35.134 35.154 35.056 35.014 34.859 34.669 34.551 34.519 34.431 34.416 34.344 34.201 34.089 34.014 33.894 33.824 33.754 33.711 33.634 33.606 33.529 33.494 33.446 33.416 33.324 33.281 33.196 33.136 33.096 33.071 32.916 32.879 32.979 34.041 38.631 38.044 36.239 32.961 32.441 32.484 32.849 35.081 35.221 35.386 35.541 35.684 35.491 35.206 34.914 34.659 34.404 32.101 31.344 31.266 31.151 31.046 31.041 30.991 30.861 30.811 30.799 31.091 31.526 31.186 30.636 30.646 30.589 30.646 30.471 30.369 30.284 30.211 30.149 30.151 30.081 30.031 29.986 30.084 30.061 30.049 30.031 29.969 29.886 29.789 29.721 29.634 29.606 29.499 29.484 29.464 29.491 29.524 29.471 29.379 29.331 29.256 29.306 30.299 29.579 29.199 29.176 29.169 29.119 29.096 29.094 29.099 29.104 29.161 29.646 30.099 29.359 29.224 29.209 29.209 29.289 29.286 29.149 29.121 29.109 29.226 29.241 29.209 29.126 29.024 29.034 29.094 29.066 29.024 28.966 28.949 29.046 29.066 29.049 29.061 29.064 29.001 28.959 29.001 29.034 28.999 28.949 28.914 28.891 28.846 28.791 28.776 28.759 28.706 28.689 28.721 28.674 28.774 28.771 28.821 28.861 28.834 28.819 28.836 28.824 28.864 28.839 28.749 28.754 28.831 28.836 28.834 28.886 28.866 28.826 28.786 28.709 28.624 28.656 28.636 28.619 28.711 28.729 28.711 28.721 28.716 28.716 28.661 28.651 28.646 28.619 28.589 28.561 28.629 28.684 28.726 28.746 28.766 28.759 28.719 28.654 28.651 28.659 28.639 28.621 28.591 28.586 28.624 28.694 28.731 28.726 28.706 28.659 28.664 28.696 28.686 28.654 28.579 28.596 28.624 28.631 28.696 28.704 28.689 28.602 28.564 28.579 28.557 28.567 28.619 28.527 28.482 28.529 28.542 28.494 28.504 28.422 28.324 28.234 28.139 28.052 27.989 27.924 27.857 27.817 27.862 27.907 27.974 28.369 28.572 29.259 28.864 27.922 28.064 27.879 27.939 27.757 27.759 27.804 27.727 27.749 27.862 27.709 27.614 27.562 27.592 28.649 28.157 27.737 27.807 27.704 27.769 27.737 27.404 27.422 29.162 28.384 27.392 27.349 27.282 27.382 27.474 27.577 27.379 27.309 27.442 27.267 27.157 27.687 27.629 27.207 27.647 26.762 26.747 26.722 27.519 26.397 26.399 26.452 26.074 25.819 25.679 25.559 25.559 25.174 25.344 24.879 24.744 24.489 24.372 24.492 24.377 24.207 24.817 23.852 23.622 23.654 23.682 23.504 23.382
31.964 32.022 32.049 32.062 32.069 32.069 32.052 32.054 32.119 32.177 32.202 32.252 32.227 32.227 32.532 33.694 32.702 32.782 32.789 32.812 32.857 32.747 32.794 32.747 32.777 32.842 32.942 33.022 33.129 33.207 33.444 34.202 34.877 36.014 35.142 34.082 34.244 34.264 34.027 33.729 33.692 33.742 33.852 33.857 34.192 34.147 34.537 33.922 33.939 34.072 34.029 36.142 34.104 34.139 34.089 34.512 34.337 39.474 35.297 34.447 34.539 34.684 46.284 53.379 38.827 35.314 36.477 43.297 34.907 34.632 34.389 34.312 34.337 34.739 35.029 35.649 36.127 35.917 36.312 37.104 36.297 36.196 36.259 36.246 36.279 36.194 36.114 36.124 36.204 36.189 36.196 36.204 36.169 36.196 36.246 36.216 36.144 36.196 35.989 35.966 35.999 35.931 35.989 35.941 35.846 35.786 35.766 35.744 35.556 35.459 35.486 35.396 35.334 35.214 35.171 35.139 35.039 34.956 34.816 34.661 34.626 34.546 34.471 34.416 34.296 34.219 34.139 34.056 33.971 33.804 33.761 33.779 33.701 33.629 33.566 33.459 33.381 33.309 33.224 33.201 33.209 33.156 33.189 33.161 33.031 32.999 33.794 39.129 39.199 38.689 38.144 37.111 32.989 32.481 32.704 34.654 35.361 35.539 35.764 35.511 35.244 34.959 34.681 34.421 32.309 31.464 31.339 31.244 31.136 31.031 31.051 30.929 30.914 30.839 30.819 30.854 31.089 31.259 30.874 30.911 31.144 30.916 30.489 30.531 30.406 30.254 30.169 30.161 30.134 30.071 30.121 30.086 29.936 29.934 30.131 30.029 29.984 29.909 29.814 29.694 29.629 29.586 29.491 29.494 29.566 29.571 29.486 29.376 29.246 29.519 30.416 29.584 29.254 29.226 29.184 29.164 29.139 29.126 29.126 29.074 29.146 29.891 29.661 29.404 29.266 29.246 29.234 29.271 29.309 29.221 29.141 29.156 29.269 29.274 29.256 29.204 29.096 29.034 29.119 29.106 29.084 29.031 29.066 29.034 29.109 29.064 29.064 29.076 29.064 28.979 29.011 29.064 29.076 29.009 28.961 28.939 28.921 28.896 28.826 28.801 28.764 28.724 28.746 28.639 28.789 28.894 28.739 28.886 28.916 28.876 28.906 28.914 28.909 28.949 28.851 28.799 28.906 28.886 28.924 28.949 28.931 28.861 28.816 28.779 28.691 28.681 28.704 28.671 28.699 28.776 28.749 28.764 28.759 28.734 28.736 28.714 28.679 28.649 28.634 28.614 28.656 28.706 28.774 28.776 28.796 28.794 28.766 28.699 28.666 28.679 28.674 28.646 28.619 28.614 28.704 28.734 28.749 28.761 28.719 28.721 28.664 28.676 28.699 28.716 28.694 28.606 28.636 28.689 28.729 28.744 28.746 28.684 28.644 28.637 28.632 28.654 28.674 28.614 28.542 28.617 28.609 28.559 28.532 28.519 28.397 28.302 28.217 28.112 28.057 27.984 27.907 27.884 27.912 27.949 27.999 28.369 29.609 28.522 28.522 29.254 27.932 27.884 27.839 27.844 27.744 27.832 27.867 27.732 27.739 27.797 27.837 27.714 27.682 27.662 27.897 28.144 27.962 27.767 27.689 27.879 27.514 27.474 28.117 35.494 39.552 27.559 30.949 28.439 27.449 27.799 27.437 27.189 27.032 27.192 27.232 27.222 27.107 28.507 27.667 26.889 26.669 26.684 28.609 28.152 26.284 26.287 26.187 25.987 25.699 25.537 25.407 25.282 25.072 24.892 24.777 24.604 24.382 24.262 24.397 24.499 24.949 26.024 24.194 23.419 23.477 23.567 23.449 23.087
32.029 32.044 32.094 32.099 32.167 32.114 32.119 32.232 32.322 32.304 32.312 32.309 32.284 32.382 32.919 32.967 32.774 32.849 32.887 32.914 32.814 32.824 32.852 32.857 32.874 32.942 33.024 33.122 33.209 33.307 33.639 34.687 34.012 35.737 36.399 34.112 34.249 34.639 35.727 34.064 33.792 33.852 33.914 34.069 34.799 34.239 34.594 33.989 33.999 34.077 34.142 34.344 34.204 34.247 35.112 34.537 34.427 35.952 34.499 38.059 44.212 45.637 52.914 56.874 44.577 35.667 36.287 35.474 35.127 34.972 34.864 34.902 34.932 35.262 35.612 36.214 36.562 36.082 36.464 36.392 36.244 36.246 36.344 36.294 36.326 36.221 36.174 36.141 36.244 36.306 36.224 36.274 36.301 36.274 36.249 36.219 36.209 36.084 36.061 36.049 36.009 35.959 35.979 35.931 35.811 35.814 35.786 35.696 35.556 35.534 35.461 35.379 35.274 35.229 35.176 35.086 35.024 34.961 34.796 34.704 34.646 34.549 34.494 34.406 34.316 34.171 34.116 34.029 33.921 33.821 33.771 33.796 33.811 33.714 33.594 33.519 33.386 33.304 33.224 33.179 33.201 33.246 33.314 33.234 33.074 33.619 37.261 38.659 39.194 39.176 38.759 38.221 37.024 33.676 32.356 32.406 34.406 35.671 35.591 35.286 34.994 34.736 34.471 33.179 31.584 31.916 31.506 31.226 31.116 31.094 31.044 30.956 30.936 30.841 30.834 31.446 30.884 31.369 33.316 31.879 30.931 30.784 30.379 30.436 30.749 30.579 30.251 30.186 30.129 30.079 30.111 30.214 30.109 29.781 29.889 30.116 30.026 30.009 29.884 29.791 29.706 29.616 29.564 29.531 29.496 29.451 29.414 29.361 29.294 30.571 29.806 29.341 29.296 29.249 29.189 29.169 29.156 29.134 29.071 28.829 29.871 30.134 29.444 29.324 29.304 29.256 29.246 29.299 29.211 29.134 29.201 29.304 29.319 29.271 29.244 29.179 29.109 29.129 29.126 29.121 29.141 29.096 29.099 29.131 29.149 29.114 29.099 29.086 29.019 29.031 29.099 29.111 29.086 29.036 29.001 28.979 28.924 28.899 28.874 28.806 28.756 28.721 28.711 28.696 28.806 28.754 28.889 28.949 28.951 28.959 28.999 29.009 29.019 28.896 28.859 28.881 28.961 28.956 28.964 28.961 28.931 28.871 28.804 28.791 28.736 28.751 28.731 28.744 28.839 28.831 28.779 28.781 28.791 28.759 28.761 28.724 28.669 28.649 28.671 28.694 28.691 28.811 28.806 28.839 28.799 28.804 28.759 28.736 28.704 28.734 28.679 28.671 28.641 28.761 28.784 28.766 28.771 28.756 28.719 28.711 28.689 28.716 28.726 28.711 28.671 28.701 28.751 28.771 28.781 28.791 28.731 28.722 28.717 28.704 28.689 28.744 28.689 28.614 28.614 28.647 28.639 28.624 28.544 28.447 28.382 28.279 28.262 28.142 28.052 27.984 27.912 27.954 28.007 28.019 28.132 29.494 28.967 28.572 28.014 28.142 28.047 28.109 27.942 27.984 27.817 27.864 27.782 27.857 28.104 27.752 27.824 27.769 27.799 27.999 28.424 28.144 28.144 28.517 27.722 27.829 28.514 27.402 29.954 30.742 33.534 32.327 35.539 27.984 27.457 27.459 27.359 27.227 27.079 27.177 27.317 27.202 27.047 28.207 27.044 26.974 26.732 28.129 27.134 26.269 26.247 26.134 25.897 25.682 25.492 25.312 25.167 25.092 24.862 24.642 24.504 24.532 24.317 24.084 24.684 24.459 24.824 25.362 24.122 23.532 23.209 23.332 23.027 22.829
32.099 32.087 32.129 32.164 32.179 32.197 32.244 32.337 32.352 32.397 32.364 32.359 32.389 32.709 32.937 32.804 32.859 32.947 33.054 32.937 32.897 32.877 32.912 32.937 32.997 33.082 33.149 33.217 33.287 33.447 36.689 38.169 36.414 39.582 37.224 34.192 34.372 34.749 35.152 34.392 34.159 34.064 34.069 34.469 34.012 34.172 34.657 34.167 34.252 34.304 34.634 34.532 34.432 35.617 34.597 34.827 34.602 34.622 34.689 51.772 49.382 44.674 57.147 49.902 39.204 35.529 37.102 37.199 35.429 35.372 35.924 35.439 35.544 35.732 36.134 36.139 37.039 36.319 36.784 36.649 36.267 36.381 36.431 36.416 36.409 36.219 36.234 36.234 36.321 36.344 36.246 36.259 36.299 36.374 36.329 36.244 36.276 36.134 36.116 36.096 35.999 36.026 36.064 36.001 35.884 35.829 35.791 35.711 35.524 35.481 35.509 35.364 35.306 35.244 35.169 35.069 34.981 34.884 34.699 34.769 34.636 34.589 34.489 34.401 34.284 34.174 34.146 34.071 33.996 33.826 33.811 33.789 33.706 33.644 33.514 33.524 33.416 33.311 33.261 33.184 33.194 33.269 33.369 33.194 33.339 35.704 37.484 38.011 38.581 39.146 39.301 38.829 38.306 37.571 34.846 32.349 32.191 32.686 34.544 35.054 34.776 34.514 32.944 31.681 31.841 32.026 31.744 31.441 31.116 31.121 30.979 30.959 30.959 30.901 30.841 31.686 31.494 32.746 36.024 34.386 31.116 30.464 30.389 30.339 30.356 30.561 30.829 30.694 30.184 30.119 30.041 30.041 30.054 29.896 29.621 29.624 29.906 29.964 29.886 29.819 29.734 29.649 29.604 29.624 29.471 29.434 29.366 29.536 30.454 29.704 29.396 29.376 29.346 29.269 29.206 29.199 29.199 29.106 28.904 29.756 30.586 29.581 29.381 29.319 29.294 29.281 29.239 29.239 29.159 29.199 29.336 29.359 29.344 29.299 29.254 29.184 29.179 29.176 29.181 29.104 29.129 29.146 29.174 29.186 29.151 29.134 29.094 29.054 29.041 29.096 29.101 29.081 29.069 29.034 29.026 28.954 28.919 28.851 28.804 28.764 28.726 28.736 28.744 28.749 28.714 28.824 29.019 29.016 29.001 29.024 29.051 29.076 29.004 28.904 28.924 29.006 28.999 29.006 28.989 28.986 28.906 28.861 28.836 28.814 28.806 28.771 28.764 28.841 28.884 28.876 28.869 28.854 28.811 28.759 28.766 28.714 28.689 28.696 28.701 28.684 28.821 28.844 28.836 28.834 28.824 28.784 28.781 28.759 28.721 28.724 28.714 28.691 28.709 28.801 28.874 28.816 28.796 28.749 28.754 28.734 28.736 28.796 28.766 28.711 28.716 28.746 28.816 28.824 28.846 28.824 28.744 28.764 28.764 28.747 28.802 28.794 28.722 28.684 28.737 28.689 28.664 28.632 28.542 28.422 28.369 28.279 28.184 28.127 28.049 27.994 27.982 28.039 28.084 28.107 29.669 28.337 28.579 28.072 28.049 28.037 28.004 27.974 27.952 27.842 27.912 27.857 27.829 27.799 27.839 27.777 28.039 27.962 27.872 27.784 27.774 28.762 27.774 28.714 27.477 27.517 27.479 29.569 28.969 29.584 30.357 30.704 34.122 31.017 30.837 27.339 27.214 27.124 27.142 27.184 27.232 27.077 27.049 27.169 27.004 26.822 26.584 26.309 26.272 26.209 26.104 25.972 25.777 25.524 25.314 25.109 24.909 24.789 24.614 24.549 24.339 24.869 24.202 23.987 24.332 24.049 23.812 23.997 23.679 23.439 22.944 22.757 22.684 22.589
32.174 32.152 32.209 32.204 32.242 32.274 32.447 32.412 32.402 32.459 32.422 32.439 32.567 32.909 32.857 32.892 32.942 33.097 33.119 33.027 33.027 32.982 33.009 33.072 33.119 33.169 33.247 33.304 33.374 33.512 34.497 38.307 36.149 40.039 34.719 34.084 34.887 35.354 35.279 34.992 34.619 34.139 34.299 34.924 34.914 34.432 34.269 35.872 35.177 35.582 34.657 34.467 34.652 37.159 34.617 34.669 34.579 34.737 35.639 44.979 44.882 41.904 52.562 38.349 35.584 35.652 41.564 38.924 37.332 35.634 35.982 35.799 36.014 36.052 36.267 36.217 36.222 36.439 36.927 36.387 36.329 36.499 36.454 36.446 36.381 36.259 36.241 36.344 36.329 36.314 36.319 36.424 36.366 36.379 36.309 36.394 36.261 36.171 36.126 36.141 36.046 36.061 36.029 35.954 35.839 35.851 35.779 35.566 35.564 35.514 35.434 35.416 35.339 35.249 35.214 35.081 34.989 34.839 34.754 34.759 34.641 34.521 34.469 34.379 34.259 34.199 34.176 34.091 33.919 33.849 33.911 33.869 33.691 33.591 33.536 33.494 33.386 33.334 33.359 33.249 33.279 33.326 33.286 33.156 34.976 36.836 36.901 37.419 37.959 38.504 39.049 39.366 38.906 38.414 37.834 34.516 32.411 32.066 32.544 33.501 34.446 33.581 31.579 31.511 31.809 31.996 32.119 31.251 31.171 31.074 30.971 30.996 30.989 30.971 30.919 31.044 32.004 34.976 36.164 33.686 31.451 30.559 30.456 30.381 30.324 30.274 30.154 30.509 31.274 30.279 30.066 30.014 29.966 29.924 29.849 29.624 29.491 29.571 29.694 29.661 29.664 29.629 29.526 29.421 29.456 29.461 29.504 30.354 29.866 29.409 29.414 29.411 29.336 29.271 29.249 29.251 29.209 28.834 29.699 30.519 29.694 29.394 29.376 29.326 29.294 29.316 29.284 29.204 29.221 29.351 29.426 29.386 29.326 29.296 29.169 29.226 29.246 29.211 29.189 29.214 29.196 29.194 29.234 29.251 29.199 29.226 29.156 29.096 29.124 29.176 29.161 29.094 29.119 29.076 29.006 28.916 28.849 28.866 28.804 28.814 28.771 29.219 30.089 28.809 28.804 28.969 29.059 29.016 29.061 29.081 29.044 29.036 28.899 28.931 29.046 29.046 29.056 29.034 29.011 28.984 28.939 28.889 28.844 28.839 28.829 28.836 28.854 28.891 28.916 28.919 28.904 28.889 28.821 28.774 28.749 28.731 28.734 28.704 28.716 28.786 28.899 28.884 28.866 28.874 28.814 28.796 28.784 28.781 28.766 28.734 28.724 28.729 28.804 28.869 28.914 28.831 28.756 28.771 28.769 28.791 28.804 28.809 28.791 28.786 28.771 28.889 28.884 28.891 28.884 28.799 28.786 28.809 28.787 28.804 28.842 28.794 28.734 28.789 28.762 28.727 28.684 28.629 28.552 28.457 28.374 28.287 28.202 28.144 28.054 28.012 28.054 28.104 28.167 30.469 33.207 28.439 28.097 28.117 28.194 28.189 28.169 28.054 27.902 27.969 27.927 28.007 27.904 27.914 27.992 28.067 28.487 27.782 29.092 27.727 27.747 27.664 27.507 27.389 27.379 27.382 27.459 30.207 30.867 27.649 29.972 30.127 30.324 31.659 32.624 27.222 27.362 27.739 28.207 27.059 26.957 26.879 30.009 27.149 26.864 26.654 26.399 26.259 26.327 26.084 25.892 25.697 25.504 25.497 25.074 24.834 24.639 24.549 24.402 24.284 24.137 24.019 24.864 24.729 24.297 24.042 23.844 23.757 24.144 24.584 22.917 22.634 22.487 22.734
32.239 32.264 32.292 32.292 32.309 32.392 32.484 32.462 32.487 32.522 32.472 32.577 32.872 32.917 32.924 32.992 33.079 33.194 33.162 33.142 33.112 33.092 33.167 33.239 33.282 33.259 33.359 33.387 33.452 33.584 33.639 34.477 37.939 36.572 34.744 34.704 34.389 35.059 34.862 34.987 35.024 34.494 34.262 34.359 34.939 34.264 34.342 36.412 36.799 36.724 35.074 34.569 34.772 38.457 38.017 34.939 34.782 34.904 35.077 52.644 55.399 48.849 57.572 47.604 39.499 37.629 48.507 44.269 37.007 35.844 35.947 36.084 36.247 36.279 36.379 36.434 36.614 37.217 37.927 36.399 36.444 36.596 36.526 36.506 36.356 36.309 36.299 36.441 36.414 36.281 36.344 36.486 36.429 36.336 36.329 36.376 36.239 36.229 36.211 36.141 36.139 36.114 36.049 35.959 35.839 35.874 35.756 35.564 35.504 35.561 35.416 35.384 35.341 35.301 35.214 35.089 35.004 34.806 34.769 34.771 34.594 34.571 34.431 34.326 34.259 34.166 34.161 34.079 33.944 33.849 33.934 33.894 33.716 33.611 33.516 33.444 33.344 33.356 33.459 33.366 33.276 33.316 33.196 33.509 36.509 36.659 36.744 36.936 37.304 37.904 38.431 38.941 39.324 39.001 38.451 34.496 32.271 31.964 31.911 31.814 33.244 32.076 31.569 31.521 31.429 31.379 31.319 31.231 31.194 31.044 31.009 31.019 31.046 31.014 30.999 31.016 31.416 32.319 32.459 31.966 31.209 30.569 30.466 30.416 30.316 30.219 30.116 30.634 31.786 32.081 31.436 30.316 29.984 29.931 29.904 29.819 29.709 29.556 29.384 29.196 29.279 29.324 29.314 29.404 29.354 29.816 30.804 29.974 29.451 29.436 29.449 29.416 29.359 29.316 29.316 29.259 28.984 29.246 30.409 29.774 29.449 29.396 29.394 29.344 29.299 29.321 29.269 29.251 29.336 29.381 29.436 29.404 29.341 29.239 29.236 29.276 29.291 29.226 29.219 29.276 29.244 29.269 29.241 29.254 29.241 29.229 29.166 29.119 29.241 29.206 29.179 29.141 29.129 29.036 28.966 28.889 28.844 28.811 28.829 28.841 28.916 33.139 29.824 28.844 28.954 28.979 29.016 29.069 29.119 29.101 29.091 29.019 28.941 29.059 29.106 29.081 29.084 29.054 28.999 28.999 28.956 28.941 28.884 28.906 28.894 28.914 28.944 28.979 28.954 28.969 28.971 28.861 28.829 28.769 28.771 28.769 28.779 28.786 28.811 28.884 28.894 28.851 28.906 28.879 28.826 28.806 28.824 28.809 28.786 28.759 28.769 28.836 28.899 28.946 28.909 28.851 28.819 28.796 28.829 28.849 28.849 28.856 28.769 28.819 28.909 28.924 28.956 28.906 28.876 28.866 28.869 28.842 28.869 28.862 28.857 28.824 28.819 28.872 28.772 28.749 28.687 28.619 28.552 28.454 28.384 28.299 28.224 28.129 28.072 28.084 28.152 28.187 28.427 29.889 29.047 28.252 28.219 28.342 28.287 28.407 28.192 28.167 28.034 27.962 28.017 28.029 28.072 28.557 28.039 28.237 27.919 28.289 27.757 27.679 27.719 27.669 27.589 27.514 27.529 27.369 27.332 27.534 31.434 27.527 27.502 28.187 28.037 30.232 30.364 27.482 28.607 26.987 27.177 27.834 27.257 26.872 27.554 26.882 26.677 26.397 26.257 26.347 26.067 25.907 25.707 25.707 25.344 25.217 24.892 24.727 24.472 24.329 24.177 24.122 23.949 23.902 24.037 24.244 23.597 23.494 23.897 23.687 23.064 22.782 22.797 22.509 22.429 22.897
32.297 32.342 32.389 32.352 32.382 32.467 32.534 32.562 32.569 32.572 32.619 33.044 33.132 32.957 33.037 33.067 33.197 33.172 33.192 33.214 33.202 33.184 33.242 33.364 33.327 33.387 33.434 33.469 33.572 33.659 33.719 34.377 38.022 34.989 34.589 35.132 34.367 35.477 35.114 34.544 34.542 34.439 34.327 34.324 34.309 34.397 34.462 36.499 34.692 34.772 34.574 34.667 35.439 40.754 39.084 35.052 34.982 40.399 43.384 54.344 49.594 53.487 48.182 47.894 38.169 44.449 47.687 38.997 36.007 35.959 36.802 36.132 36.312 36.379 36.462 36.584 36.682 37.422 36.932 36.437 36.519 36.524 36.514 36.511 36.369 36.349 36.366 36.366 36.384 36.384 36.471 36.436 36.471 36.391 36.381 36.389 36.179 36.144 36.194 36.149 36.141 36.124 35.984 35.936 35.856 35.846 35.701 35.584 35.586 35.556 35.486 35.399 35.356 35.324 35.176 35.086 34.889 34.819 34.834 34.761 34.636 34.529 34.374 34.316 34.254 34.164 34.119 34.046 33.859 33.906 33.916 33.819 33.719 33.606 33.526 33.461 33.384 33.406 33.456 33.306 33.256 33.241 33.189 33.086 33.751 35.591 36.604 36.724 36.831 37.241 37.789 38.331 38.884 39.319 37.114 32.146 32.074 31.989 31.911 31.809 31.824 31.724 31.621 31.534 31.461 31.399 31.316 31.284 31.126 31.056 31.034 31.069 31.044 31.079 31.056 31.106 34.859 35.519 33.584 32.796 31.026 30.634 30.544 30.449 30.319 30.166 30.074 30.139 31.099 31.951 32.156 31.946 30.474 30.151 29.911 29.856 29.849 29.764 29.756 29.756 30.036 30.361 30.386 30.356 30.469 30.919 29.891 29.489 29.491 29.461 29.486 29.454 29.404 29.359 29.276 29.084 29.031 30.024 29.876 29.486 29.446 29.441 29.399 29.386 29.369 29.316 29.289 29.344 29.379 29.464 29.424 29.389 29.279 29.336 29.289 29.321 29.339 29.276 29.274 29.309 29.326 29.319 29.264 29.276 29.281 29.194 29.176 29.271 29.256 29.194 29.196 29.156 29.119 29.046 28.981 28.916 28.886 28.956 28.896 28.866 29.006 29.381 28.869 28.936 28.991 28.976 29.026 29.091 29.109 29.119 29.071 28.994 29.046 29.129 29.126 29.144 29.086 29.056 29.004 28.994 28.979 28.926 28.961 28.949 28.909 29.011 29.044 29.034 29.016 28.994 28.951 28.879 28.844 28.806 28.809 28.831 28.799 28.809 28.934 28.984 28.971 28.924 28.916 28.854 28.866 28.851 28.849 28.811 28.806 28.796 28.839 28.926 28.971 28.961 28.911 28.866 28.846 28.891 28.884 28.909 28.894 28.851 28.854 28.941 28.956 28.951 29.004 28.929 28.891 28.926 28.906 28.919 28.954 28.919 28.857 28.834 28.912 28.877 28.794 28.747 28.674 28.607 28.574 28.459 28.367 28.292 28.209 28.152 28.124 28.157 28.234 28.324 28.724 29.072 28.377 28.259 28.299 28.302 28.322 28.232 28.149 28.144 28.154 28.102 28.082 28.107 28.099 28.147 28.117 28.079 27.969 27.854 28.459 28.292 27.724 27.702 27.627 27.632 27.684 27.404 27.352 27.962 27.492 27.497 27.517 27.524 27.492 27.317 27.234 27.509 27.994 28.732 26.787 28.034 29.329 26.897 26.739 26.664 26.462 26.337 26.372 26.109 25.857 25.674 25.449 25.324 25.057 24.894 24.727 24.529 24.329 24.274 24.034 23.957 23.832 23.827 23.557 23.574 24.267 24.014 23.567 23.382 22.644 22.724 22.517 22.269 22.147 25.184
32.439 32.432 32.434 32.442 32.499 32.549 32.609 32.629 32.614 32.657 32.872 33.242 33.044 33.024 33.147 33.149 33.322 33.227 33.294 33.209 33.252 33.302 33.347 33.484 33.469 33.489 33.494 33.542 33.624 33.737 33.829 34.019 36.254 34.362 34.764 35.262 34.367 35.334 35.489 35.044 34.614 34.317 34.717 34.564 34.574 34.542 34.569 34.949 34.687 34.674 34.769 34.894 34.794 47.954 40.337 37.547 34.887 38.897 48.914 52.654 48.154 52.299 48.587 50.314 48.129 42.694 45.612 36.062 35.999 36.047 36.139 36.252 36.387 36.462 36.519 39.757 36.882 39.052 38.014 36.524 36.659 36.596 36.591 36.476 36.409 36.371 36.484 36.489 36.389 36.451 36.546 36.464 36.434 36.484 36.446 36.349 36.239 36.209 36.181 36.181 36.184 36.136 36.051 35.941 35.939 35.851 35.661 35.611 35.619 35.539 35.486 35.449 35.401 35.286 35.166 35.104 34.879 34.774 34.819 34.684 34.616 34.529 34.401 34.359 34.231 34.144 34.136 33.946 33.876 33.964 33.846 33.801 33.699 33.616 33.539 33.429 33.341 33.339 33.406 33.274 33.184 33.136 33.114 33.156 33.059 33.021 35.919 36.399 36.699 36.789 37.199 37.726 38.291 37.256 32.309 32.176 32.109 32.509 33.709 32.264 31.804 31.726 31.699 31.624 31.504 31.434 31.334 31.354 31.236 31.119 31.081 31.111 31.376 31.109 31.351 33.721 36.991 37.296 36.046 36.779 34.259 30.926 30.606 30.494 30.346 30.146 30.096 30.086 30.019 30.194 31.176 31.724 31.621 31.209 30.101 29.901 29.834 29.781 29.749 29.779 29.839 30.339 30.871 31.081 30.881 30.129 29.501 29.501 29.509 29.526 29.536 29.529 29.474 29.391 29.201 28.851 29.959 30.059 29.561 29.481 29.451 29.431 29.421 29.409 29.359 29.341 29.424 29.596 29.486 29.454 29.459 29.351 29.341 29.366 29.399 29.341 29.349 29.329 29.351 29.331 29.366 29.351 29.326 29.326 29.266 29.251 29.274 29.274 29.251 29.264 29.226 29.194 29.156 29.109 29.036 28.921 28.911 28.974 29.251 35.406 29.004 28.936 28.959 28.926 28.964 29.034 29.124 29.116 29.106 29.076 29.046 29.026 29.139 29.159 29.131 29.129 29.031 29.021 29.021 28.971 28.994 29.049 28.964 28.961 29.024 29.121 29.054 29.016 28.996 29.019 28.949 28.896 28.871 28.866 28.874 28.851 28.829 28.936 28.996 28.986 28.979 28.924 28.876 28.856 28.881 28.879 28.851 28.844 28.839 28.836 28.931 29.021 28.996 28.971 28.941 28.914 28.929 28.906 28.916 28.929 28.931 28.901 28.981 29.029 29.019 29.034 28.989 28.929 28.939 28.969 28.926 28.969 29.007 28.924 28.864 28.934 28.939 28.902 28.857 28.747 28.694 28.659 28.564 28.444 28.389 28.294 28.209 28.172 28.182 28.237 28.332 28.762 29.597 28.467 28.404 28.372 28.377 28.367 28.312 28.277 28.247 28.447 28.212 28.139 28.139 28.109 28.109 28.092 28.089 28.117 28.029 28.574 31.437 28.487 27.889 27.727 27.647 27.614 27.587 27.297 27.267 27.724 27.607 27.449 27.414 27.472 27.387 27.327 27.257 27.222 27.219 27.029 30.644 27.907 26.694 26.789 26.727 26.449 26.272 26.392 26.202 25.824 25.669 25.509 25.314 25.049 24.914 24.697 24.502 24.374 24.164 24.184 23.844 23.679 23.579 23.517 23.679 23.737 23.814 23.139 22.684 22.619 22.554 23.747 22.302 22.147 21.939 27.704
32.532 32.522 32.529 32.559 32.644 32.682 32.727 32.734 32.687 32.784 33.594 33.177 33.057 33.154 33.182 33.294 33.362 33.409 33.262 33.282 33.427 33.474 33.534 33.552 33.617 33.597 33.554 33.689 33.719 33.812 33.899 33.964 34.994 35.279 34.814 34.837 34.569 34.859 35.647 35.482 34.652 34.477 35.472 34.662 35.147 34.842 34.774 34.727 34.757 34.667 35.624 36.584 37.222 49.187 43.607 41.307 35.032 36.447 47.229 45.467 50.537 53.287 46.882 45.357 43.534 48.697 55.004 41.114 36.139 36.164 36.182 36.277 37.702 38.777 43.529 44.887 42.252 39.859 37.657 36.629 36.669 36.636 36.581 36.514 36.454 36.446 36.416 36.501 36.481 36.534 36.566 36.516 36.424 36.434 36.496 36.331 36.229 36.301 36.229 36.219 36.211 36.154 36.019 35.939 35.921 35.854 35.664 35.601 35.609 35.571 35.494 35.441 35.399 35.296 35.141 35.024 34.914 34.831 34.796 34.709 34.591 34.469 34.409 34.341 34.256 34.151 34.081 33.936 33.886 33.916 33.861 33.784 33.661 33.609 33.576 33.456 33.346 33.264 33.319 33.231 33.156 33.034 33.049 33.041 33.084 33.026 32.809 35.389 36.534 36.524 36.771 37.169 36.574 32.299 32.259 32.196 32.214 35.596 36.164 34.536 32.909 31.809 31.701 31.621 31.591 31.456 31.399 31.329 31.226 31.151 31.104 31.484 31.976 31.264 32.104 35.899 37.564 36.371 36.646 37.739 36.441 32.651 31.056 30.466 30.291 30.171 30.159 30.164 30.099 30.024 29.981 30.094 30.709 30.119 30.621 30.409 29.949 29.816 29.761 29.681 29.666 29.651 29.654 29.609 29.534 29.544 29.511 29.536 29.586 29.594 29.586 29.529 29.471 29.309 29.154 29.864 30.079 29.651 29.496 29.479 29.449 29.434 29.479 29.414 29.366 29.419 29.521 29.616 29.559 29.476 29.451 29.314 29.321 29.406 29.371 29.361 29.321 29.381 29.339 29.371 29.416 29.364 29.369 29.324 29.246 29.251 29.346 29.314 29.291 29.256 29.266 29.231 29.131 29.064 29.011 28.976 28.971 28.979 32.114 31.754 29.084 28.896 28.946 28.981 29.071 29.159 29.176 29.131 29.111 29.059 29.011 29.086 29.194 29.171 29.156 29.129 29.031 29.004 28.986 28.984 29.026 29.066 29.021 29.031 29.126 29.129 29.056 29.021 29.036 28.979 28.954 28.946 28.906 28.899 28.884 28.939 28.959 29.041 29.039 29.011 29.001 28.936 28.871 28.931 28.946 28.891 28.871 28.871 28.891 28.979 29.036 29.031 28.994 29.014 28.966 28.984 28.981 28.929 28.959 28.944 28.954 28.971 29.039 29.049 29.076 29.046 29.004 28.994 29.001 28.971 28.981 29.009 28.982 28.979 28.932 28.972 28.967 28.904 28.869 28.774 28.669 28.669 28.552 28.449 28.369 28.304 28.234 28.222 28.272 28.329 28.454 28.674 29.322 28.562 28.452 28.499 28.429 28.374 28.362 28.332 28.292 28.527 28.334 28.229 28.209 28.129 28.082 28.059 28.049 27.992 28.017 27.997 28.994 27.922 27.807 27.752 27.672 27.567 27.439 27.217 27.259 28.679 30.537 31.747 27.397 28.762 27.397 27.324 27.277 27.232 27.034 26.969 26.897 26.959 26.934 26.707 26.514 26.262 26.424 26.172 25.844 25.662 25.472 25.237 25.107 24.872 24.634 24.582 24.332 24.124 24.434 23.814 23.679 23.507 24.087 23.364 24.057 23.617 22.887 22.777 22.782 23.134 22.142 21.987 21.932 22.034 21.829 23.774
32.589 32.597 32.639 32.747 32.849 32.812 32.799 32.789 32.772 33.627 33.814 33.099 33.187 33.217 33.299 33.457 33.454 33.427 33.332 33.402 33.649 33.687 33.684 33.619 33.729 33.632 33.634 33.739 33.799 33.862 33.947 34.077 34.359 34.957 36.007 34.614 34.969 34.702 35.272 35.172 35.424 34.572 35.084 34.627 34.612 35.009 35.714 35.009 34.834 34.899 35.094 34.934 37.294 46.882 39.867 36.794 35.404 45.404 48.769 55.349 53.617 45.482 46.247 48.532 40.257 54.019 55.534 50.199 37.019 36.187 36.287 37.097 38.869 44.199 43.827 43.299 44.679 45.354 36.564 36.702 36.749 36.709 36.634 36.496 36.466 36.579 36.576 36.486 36.541 36.629 36.629 36.601 36.554 36.519 36.456 36.394 36.346 36.321 36.269 36.249 36.186 36.154 36.029 36.031 35.946 35.804 35.771 35.744 35.656 35.544 35.514 35.481 35.364 35.269 35.161 34.964 34.866 34.859 34.771 34.676 34.626 34.529 34.436 34.326 34.246 34.154 34.016 33.921 33.979 33.871 33.806 33.766 33.676 33.619 33.546 33.414 33.289 33.234 33.191 33.159 33.081 33.014 32.999 32.996 32.949 32.939 32.931 32.746 34.334 36.474 36.596 36.334 32.726 32.299 32.221 32.224 32.344 34.044 36.221 36.426 35.284 33.766 33.249 32.256 31.666 31.551 31.484 31.431 31.289 31.166 31.501 31.631 31.376 31.151 34.006 37.186 37.301 36.166 37.351 37.379 34.276 30.734 30.594 30.454 30.249 30.199 30.214 30.181 30.151 30.106 30.041 29.981 29.906 29.856 29.864 30.501 31.414 30.151 29.751 29.711 29.649 29.606 29.579 29.584 29.576 29.566 29.516 29.614 29.639 29.554 29.429 29.466 29.404 29.141 29.621 30.229 29.689 29.571 29.506 29.504 29.471 29.504 29.529 29.451 29.464 29.576 29.594 29.561 29.541 29.464 29.256 29.386 29.434 29.404 29.404 29.406 29.416 29.386 29.364 29.366 29.379 29.376 29.369 29.316 29.319 29.394 29.349 29.309 29.299 29.279 29.281 29.249 29.121 29.041 29.004 29.004 29.036 29.071 29.309 30.074 29.121 28.999 29.034 29.084 29.186 29.231 29.166 29.159 29.104 29.064 29.119 29.206 29.186 29.171 29.171 29.104 29.064 28.996 28.989 29.026 29.054 29.014 29.094 29.166 29.189 29.156 29.086 29.061 29.034 29.006 28.971 28.949 28.944 28.929 28.941 29.009 29.069 29.084 29.044 29.039 28.994 28.936 28.929 28.926 28.946 28.921 28.934 28.944 28.976 29.071 29.074 29.036 29.046 29.021 29.031 29.024 28.996 28.961 29.019 28.989 29.014 29.079 29.086 29.104 29.094 29.076 29.051 29.056 29.034 29.024 29.064 29.039 28.987 29.029 29.014 28.982 28.967 28.927 28.867 28.764 28.752 28.647 28.537 28.434 28.372 28.297 28.292 28.307 28.339 28.397 28.712 29.589 29.054 28.519 28.634 28.534 28.427 28.354 28.304 28.477 28.439 28.302 28.239 28.242 28.289 28.104 28.032 27.969 27.944 28.039 28.009 27.907 31.882 29.119 27.837 27.902 27.764 27.577 27.377 27.232 27.304 28.664 35.429 30.054 32.394 27.409 27.297 27.234 27.327 27.134 27.054 27.292 27.072 27.487 26.799 26.609 26.262 26.384 26.229 26.007 25.719 25.492 25.182 24.979 24.854 24.664 24.639 24.354 24.114 24.369 25.499 23.569 23.507 23.392 23.312 23.334 22.927 22.764 22.874 23.157 23.094 22.724 22.017 22.059 21.744 21.912 21.342 21.214
32.639 32.677 32.794 32.877 32.852 32.877 32.854 32.847 33.034 33.972 33.162 33.184 33.322 33.429 33.494 33.484 33.537 33.397 33.424 33.484 33.732 33.777 33.787 33.722 33.819 33.744 33.697 33.752 33.932 33.949 34.027 34.144 34.244 34.507 35.249 34.659 34.789 34.689 35.429 35.564 35.514 34.817 34.634 34.682 34.894 35.077 34.989 34.992 35.112 35.662 36.054 35.839 41.429 51.404 35.214 35.347 35.304 44.939 55.089 52.487 56.154 47.282 47.082 48.159 47.002 54.382 50.879 50.127 36.604 36.212 37.109 40.202 42.784 46.924 40.192 41.219 46.072 40.584 36.682 36.827 36.747 36.734 36.611 36.571 36.549 36.561 36.614 36.546 36.606 36.709 36.646 36.549 36.569 36.631 36.441 36.354 36.356 36.296 36.269 36.294 36.229 36.134 36.066 36.074 35.954 35.796 35.749 35.731 35.674 35.566 35.559 35.511 35.419 35.301 35.146 34.941 34.899 34.894 34.799 34.694 34.611 34.466 34.406 34.349 34.221 34.154 33.986 33.909 33.946 33.794 33.759 33.729 33.631 33.559 33.464 33.429 33.419 33.309 33.184 33.096 33.069 33.039 33.064 32.964 32.936 32.926 32.894 32.856 32.779 34.359 35.711 33.221 32.304 32.269 32.214 32.246 32.244 32.454 33.349 35.721 36.501 35.771 34.886 34.361 33.726 32.641 31.521 31.516 31.321 31.389 32.591 32.196 31.219 31.171 35.399 37.684 36.566 36.624 37.731 36.184 31.881 30.754 30.669 30.514 30.381 30.271 30.196 30.196 30.199 30.139 30.089 30.024 29.969 29.901 29.829 31.546 31.411 30.959 30.089 29.711 29.679 29.669 29.681 29.644 29.614 29.566 29.634 29.774 29.849 29.686 29.546 29.406 29.231 29.806 30.631 29.801 29.606 29.569 29.561 29.524 29.514 29.504 29.451 29.506 29.624 29.679 29.624 29.574 29.494 29.411 29.431 29.426 29.464 29.449 29.424 29.414 29.426 29.391 29.401 29.446 29.511 29.429 29.381 29.334 29.381 29.409 29.374 29.369 29.356 29.294 29.266 29.196 29.104 29.039 28.991 29.011 29.036 29.106 29.086 29.101 29.226 29.091 29.124 29.191 29.161 29.166 29.151 29.136 29.156 29.181 29.201 29.219 29.164 29.154 29.149 29.084 29.089 29.029 29.039 29.074 29.049 29.084 29.184 29.216 29.221 29.181 29.134 29.076 29.036 29.039 29.001 29.029 29.011 28.961 29.029 29.091 29.139 29.081 29.094 29.046 29.006 28.971 28.966 28.966 28.956 28.969 28.954 28.971 29.104 29.116 29.089 29.086 29.081 29.079 29.086 29.079 29.061 29.054 29.029 29.074 29.121 29.119 29.134 29.179 29.139 29.109 29.101 29.086 29.041 29.084 29.099 29.044 28.997 29.079 29.074 28.994 28.974 28.919 28.852 28.799 28.747 28.654 28.547 28.454 28.377 28.349 28.342 28.374 28.419 28.514 29.064 29.622 29.242 29.164 28.574 28.517 28.719 28.462 28.282 28.524 28.447 28.534 28.227 28.177 28.229 28.089 28.037 27.982 27.917 27.889 27.927 28.657 28.952 27.882 28.347 27.809 27.744 28.164 27.599 27.379 28.932 32.004 37.359 33.882 32.622 27.294 27.477 27.412 27.349 27.007 28.047 28.982 29.289 30.347 26.667 26.367 26.529 26.214 26.002 25.739 25.529 25.222 24.944 24.824 24.717 24.589 24.454 24.334 24.074 23.844 23.629 23.399 23.307 23.224 23.247 22.907 22.802 23.094 24.277 23.517 22.749 22.129 22.302 21.592 21.449 21.967 21.074 21.042
