ncols 427
nrows 31
xllcorner    459012
yllcorner    86610
cellsize     2
NODATA_value -9999
73.11 72.84 72.56 72.295 72.018 71.705 71.44 71.183 70.958 70.718 70.455 70.195 69.923 69.658 69.41 69.175 68.943 68.678 68.46 68.23 68 67.77 67.505 67.283 67.02 66.808 66.533 66.308 66.063 65.818 65.585 65.358 65.118 64.913 64.67 64.428 64.185 63.973 63.735 63.485 63.233 63.018 62.828 62.57 62.355 62.133 61.928 61.715 61.533 61.285 61.093 60.903 60.693 60.475 60.275 60.05 59.888 59.73 59.593 59.448 59.305 59.163 59.02 58.895 58.778 58.643 58.548 58.438 58.283 58.07 57.91 57.683 57.383 57.088 56.843 56.793 57.178 56.405 55.105 54.853 54.61 54.423 54.16 53.913 53.67 53.453 53.218 52.98 52.755 52.533 52.29 52.068 51.855 51.64 51.425 51.223 51.028 50.853 50.673 50.478 50.325 50.145 49.968 49.82 49.65 49.478 49.333 49.165 49.013 48.865 48.753 48.623 48.495 48.38 48.243 48.093 47.958 47.813 47.678 47.535 47.41 47.268 47.105 46.978 46.825 46.668 46.548 46.41 46.288 46.168 46.05 45.918 45.783 45.675 45.553 45.408 45.263 45.118 44.998 44.883 44.775 44.655 44.558 44.453 44.343 44.245 44.148 44.015 43.91 43.785 43.703 43.593 43.485 43.395 43.313 43.248 43.13 43.073 42.98 42.918 42.893 42.85 42.833 42.84 42.843 42.868 42.883 42.933 42.938 42.958 42.973 42.983 43.013 43.048 43.09 43.093 43.09 43.128 43.115 43.108 43.128 43.143 43.11 43.11 43.1 43.123 43.14 43.223 43.3 43.445 43.6 43.778 44.03 44.3 44.583 44.876 45.166 45.501 45.798 46.148 46.496 46.756 46.988 48.766 50.238 51.183 51.381 52.046 50.758 50.706 50.743 50.761 50.783 50.828 50.868 50.938 51.013 50.931 50.946 50.971 50.978 50.928 50.901 50.836 50.791 50.813 50.808 50.796 50.783 50.698 50.651 50.611 50.561 50.528 50.498 50.448 50.403 50.383 50.316 50.276 50.243 50.171 50.151 50.093 50.043 50.013 49.991 49.948 49.906 49.856 49.811 49.861 49.856 49.836 49.853 49.893 49.916 49.998 50.091 50.211 50.328 50.471 50.593 50.786 50.978 51.193 51.396 51.596 51.818 52.023 52.208 52.461 52.673 52.941 53.206 53.478 53.801 54.423 54.946 54.688 54.921 55.238 55.506 55.808 56.076 56.353 56.648 56.886 57.153 57.413 57.676 57.896 58.083 58.273 58.406 58.546 58.633 58.746 58.861 58.971 59.051 59.126 59.168 59.151 59.203 59.241 59.271 59.301 59.321 59.306 59.346 59.431 60.008 59.748 59.183 59.213 61.678 58.701 58.041 57.978 57.906 57.873 57.893 57.898 57.858 57.828 57.791 57.793 57.791 57.796 57.778 57.783 57.813 57.846 57.916 57.968 57.998 58.041 58.096 58.136 58.196 58.246 58.306 58.403 58.448 58.516 58.606 58.651 58.711 58.766 58.816 58.831 58.903 58.968 59.038 59.136 59.181 59.201 59.231 59.286 59.283 59.276 59.318 59.373 59.393 59.433 59.516 59.538 59.533 59.561 59.576 59.633 59.668 59.701 59.713 59.723 59.761 59.808 59.863 59.881 59.916 59.946 59.966 60.016 60.056 60.086 60.103 60.128 60.161 60.163 60.183 60.213 60.226 60.206 60.196 60.186 60.208 60.213 60.233 60.186 60.151 60.126 60.096 60.088 60.081 60.048 59.943 59.871 59.798 59.633 59.443 59.273 59.136 59.081 59.108 59.108 58.533 58.238 57.828 58.038 56.598 58.521 57.771 55.581 55.753 58.208 59.051
73.19 72.923 72.638 72.358 72.088 71.795 71.543 71.268 71.035 70.795 70.535 70.253 69.97 69.693 69.438 69.22 68.97 68.73 68.48 68.243 68.025 67.788 67.543 67.288 67.038 66.825 66.548 66.315 66.055 65.82 65.588 65.363 65.13 64.905 64.665 64.403 64.183 63.953 63.725 63.493 63.228 63.02 62.83 62.58 62.37 62.153 61.955 61.755 61.54 61.328 61.14 60.953 60.753 60.543 60.333 60.12 59.94 59.775 59.63 59.498 59.345 59.193 59.07 58.918 58.795 58.668 58.54 58.413 58.25 58.095 57.905 57.675 57.398 57.083 56.76 56.513 56.553 57.61 56.565 54.943 54.615 54.415 54.203 53.995 53.753 53.538 53.328 53.108 52.853 52.64 52.403 52.188 51.963 51.755 51.525 51.318 51.105 50.928 50.755 50.573 50.398 50.243 50.08 49.92 49.74 49.588 49.428 49.265 49.12 48.985 48.83 48.683 48.558 48.428 48.303 48.178 48.03 47.913 47.76 47.64 47.508 47.355 47.203 47.055 46.888 46.758 46.618 46.488 46.383 46.26 46.128 46 45.875 45.75 45.63 45.463 45.32 45.188 45.038 44.93 44.818 44.703 44.603 44.483 44.363 44.255 44.15 44.045 43.93 43.805 43.69 43.59 43.45 43.36 43.27 43.188 43.083 43.005 42.938 42.848 42.773 42.738 42.708 42.685 42.678 42.645 42.645 42.678 42.703 42.72 42.733 42.768 42.805 42.808 42.853 42.87 42.903 42.905 42.883 42.91 42.915 42.923 42.923 42.915 42.913 42.925 42.943 42.995 43.078 43.213 43.358 43.523 43.785 44.045 44.328 44.606 44.886 45.201 45.493 45.838 46.166 46.428 46.688 48.701 48.778 51.153 52.266 52.286 50.441 50.366 50.396 50.446 50.508 50.608 50.586 50.581 50.611 50.586 50.603 50.613 50.593 50.558 50.541 50.498 50.468 50.438 50.441 50.416 50.363 50.303 50.256 50.238 50.148 50.136 50.118 50.106 50.028 50.013 49.958 49.926 49.873 49.826 49.768 49.721 49.716 49.663 49.653 49.628 49.623 49.558 49.536 49.536 49.528 49.538 49.571 49.588 49.651 49.738 49.818 49.933 50.071 50.231 50.371 50.536 50.713 50.933 51.111 51.338 51.553 51.766 51.978 52.281 52.516 52.748 53.006 53.298 53.618 54.361 54.368 54.493 54.748 55.056 55.353 55.631 55.941 56.193 56.468 56.741 56.986 57.233 57.468 57.691 57.908 58.033 58.166 58.281 58.381 58.486 58.638 58.718 58.771 58.846 58.858 58.876 58.926 58.986 59.028 59.056 59.058 59.066 59.113 59.446 59.673 59.493 58.813 59.226 60.243 57.961 57.718 57.641 57.606 57.581 57.586 57.588 57.558 57.513 57.498 57.491 57.493 57.473 57.451 57.461 57.511 57.528 57.618 57.663 57.691 57.713 57.763 57.808 57.868 57.916 57.983 58.051 58.113 58.186 58.266 58.313 58.363 58.428 58.466 58.518 58.576 58.638 58.703 58.796 58.828 58.858 58.891 58.928 58.931 58.933 58.996 59.046 59.061 59.068 59.136 59.156 59.166 59.171 59.211 59.243 59.303 59.308 59.323 59.338 59.411 59.428 59.488 59.521 59.543 59.571 59.598 59.646 59.676 59.701 59.718 59.743 59.781 59.808 59.803 59.816 59.848 59.826 59.796 59.811 59.833 59.833 59.823 59.791 59.768 59.753 59.718 59.718 59.721 59.708 59.646 59.593 59.533 59.448 59.298 59.108 59.001 58.923 58.951 58.971 60.811 60.351 61.171 60.381 57.218 57.131 57.953 57.273 57.771 57.831 60.296
73.293 73.008 72.735 72.453 72.158 71.898 71.608 71.345 71.11 70.868 70.603 70.305 70.048 69.785 69.523 69.275 69.018 68.77 68.51 68.298 68.055 67.823 67.583 67.34 67.083 66.833 66.583 66.32 66.08 65.838 65.625 65.363 65.153 64.93 64.7 64.43 64.193 63.97 63.733 63.485 63.265 63.035 62.83 62.603 62.4 62.175 61.965 61.77 61.575 61.388 61.203 61.008 60.818 60.595 60.388 60.183 60.023 59.853 59.7 59.548 59.37 59.24 59.093 58.953 58.808 58.705 58.578 58.428 58.235 58.063 57.853 57.665 57.39 57.1 56.805 56.493 56.218 56.215 56.72 56.658 55.458 54.553 54.205 53.995 53.8 53.605 53.405 53.188 52.965 52.758 52.51 52.298 52.093 51.878 51.643 51.428 51.22 51.033 50.868 50.685 50.488 50.338 50.153 50.033 49.883 49.7 49.553 49.385 49.243 49.078 48.925 48.765 48.638 48.49 48.393 48.263 48.123 48 47.87 47.725 47.578 47.453 47.313 47.153 46.998 46.845 46.695 46.585 46.468 46.345 46.203 46.083 45.955 45.845 45.705 45.55 45.425 45.258 45.123 45.005 44.883 44.773 44.645 44.538 44.413 44.29 44.175 44.068 43.945 43.83 43.698 43.568 43.443 43.343 43.258 43.148 43.04 42.948 42.883 42.805 42.728 42.655 42.603 42.535 42.515 42.488 42.478 42.475 42.483 42.49 42.523 42.535 42.59 42.573 42.623 42.625 42.675 42.683 42.683 42.705 42.708 42.725 42.72 42.723 42.71 42.715 42.748 42.808 42.895 43.018 43.14 43.293 43.518 43.775 44.031 44.318 44.586 44.863 45.176 45.538 45.883 46.096 47.613 47.973 49.688 49.838 51.873 51.921 50.108 50.061 50.083 50.161 50.191 50.176 50.231 50.276 50.286 50.216 50.246 50.261 50.231 50.206 50.156 50.123 50.068 50.073 50.056 50.026 50.011 49.936 49.888 49.853 49.803 49.763 49.741 49.698 49.673 49.628 49.606 49.578 49.516 49.463 49.438 49.416 49.401 49.381 49.361 49.346 49.316 49.308 49.251 49.271 49.281 49.313 49.293 49.336 49.416 49.446 49.566 49.681 49.796 49.966 50.106 50.278 50.486 50.683 50.883 51.091 51.301 51.526 51.743 52.023 52.316 52.598 52.833 53.143 53.541 54.623 54.053 54.286 54.596 54.896 55.188 55.456 55.743 56.031 56.298 56.576 56.813 57.033 57.271 57.481 57.666 57.801 57.916 58.023 58.108 58.228 58.366 58.418 58.518 58.573 58.581 58.598 58.641 58.676 58.748 58.786 58.798 58.833 58.893 59.973 60.813 61.008 58.531 58.673 59.546 57.593 57.421 57.348 57.296 57.266 57.286 57.266 57.221 57.188 57.203 57.206 57.188 57.186 57.156 57.166 57.193 57.248 57.293 57.331 57.358 57.408 57.458 57.496 57.546 57.591 57.618 57.696 57.796 57.853 57.891 57.966 58.013 58.076 58.136 58.156 58.223 58.296 58.361 58.421 58.488 58.528 58.563 58.596 58.581 58.573 58.661 58.706 58.716 58.728 58.773 58.793 58.811 58.833 58.846 58.893 58.908 58.948 58.973 58.988 59.018 59.068 59.103 59.151 59.163 59.186 59.231 59.278 59.321 59.346 59.348 59.348 59.406 59.421 59.411 59.443 59.468 59.413 59.386 59.426 59.416 59.446 59.423 59.398 59.393 59.371 59.363 59.353 59.381 59.343 59.308 59.291 59.243 59.193 59.096 58.953 58.813 58.738 58.753 59.173 60.176 61.176 61.881 59.468 60.081 57.258 60.156 58.361 58.668 56.983 56.593
73.38 73.113 72.818 72.57 72.275 71.965 71.708 71.453 71.185 70.93 70.683 70.393 70.128 69.873 69.58 69.323 69.09 68.858 68.593 68.333 68.105 67.863 67.623 67.395 67.16 66.87 66.63 66.35 66.123 65.89 65.648 65.415 65.175 64.968 64.735 64.478 64.238 64.028 63.765 63.53 63.295 63.088 62.873 62.638 62.448 62.243 62.023 61.818 61.635 61.46 61.268 61.083 60.86 60.658 60.458 60.263 60.085 59.925 59.793 59.615 59.453 59.315 59.16 59.013 58.868 58.753 58.598 58.443 58.288 58.098 57.865 57.623 57.375 57.103 56.805 56.523 56.2 55.923 55.778 55.935 55.86 56.303 55.05 54.3 53.838 53.658 53.438 53.258 53.05 52.838 52.643 52.425 52.205 51.99 51.77 51.56 51.363 51.153 50.975 50.795 50.613 50.44 50.303 50.133 49.985 49.82 49.678 49.5 49.35 49.183 49.025 48.87 48.738 48.593 48.475 48.35 48.228 48.098 47.963 47.843 47.688 47.528 47.4 47.26 47.12 46.97 46.813 46.678 46.558 46.433 46.3 46.178 46.048 45.943 45.813 45.655 45.515 45.358 45.223 45.088 44.93 44.82 44.72 44.588 44.465 44.338 44.223 44.093 43.963 43.85 43.715 43.58 43.448 43.34 43.248 43.133 43.025 42.918 42.833 42.753 42.665 42.583 42.525 42.46 42.385 42.333 42.32 42.325 42.31 42.285 42.31 42.303 42.36 42.37 42.413 42.425 42.46 42.48 42.483 42.503 42.53 42.518 42.533 42.523 42.53 42.535 42.56 42.633 42.705 42.815 42.945 43.088 43.288 43.533 43.763 44.038 44.313 44.578 44.888 45.218 45.533 45.766 47.173 48.103 49.656 51.221 51.183 49.908 49.758 49.753 49.768 49.831 49.841 49.883 49.913 49.983 49.978 49.938 49.916 49.933 49.873 49.838 49.786 49.758 49.741 49.738 49.758 49.708 49.633 49.541 49.528 49.501 49.426 49.416 49.346 49.338 49.281 49.236 49.218 49.198 49.176 49.121 49.091 49.078 49.063 49.058 49.048 49.041 49.008 49.001 48.976 49.018 48.988 49.026 49.028 49.076 49.163 49.261 49.331 49.493 49.683 49.721 49.863 50.036 50.231 50.471 50.683 50.898 51.073 51.318 51.536 51.811 52.096 52.366 52.636 52.898 53.668 54.246 53.841 54.096 54.401 54.723 55.016 55.313 55.568 55.851 56.111 56.378 56.641 56.853 57.056 57.256 57.438 57.578 57.683 57.771 57.868 57.983 58.083 58.153 58.223 58.293 58.268 58.271 58.348 58.406 58.443 58.501 58.528 58.583 58.818 60.406 60.108 60.176 58.313 59.093 58.738 57.156 57.083 57.058 57.018 56.963 56.956 56.948 56.943 56.911 56.878 56.851 56.883 56.871 56.851 56.861 56.893 56.921 56.978 57.008 57.051 57.086 57.118 57.171 57.216 57.248 57.291 57.371 57.458 57.523 57.558 57.633 57.666 57.723 57.771 57.811 57.901 57.951 58.023 58.073 58.136 58.193 58.206 58.208 58.201 58.213 58.286 58.318 58.333 58.366 58.418 58.456 58.456 58.488 58.518 58.543 58.566 58.588 58.631 58.643 58.658 58.686 58.736 58.793 58.811 58.831 58.866 58.883 58.908 58.933 58.951 58.966 58.983 59.021 59.021 59.033 59.043 59.016 58.993 59.033 59.028 59.066 59.031 59.028 59.001 58.991 58.978 58.993 58.996 58.986 58.966 58.931 58.886 58.868 58.838 58.716 58.563 58.503 58.498 58.551 59.108 61.203 60.948 59.098 59.376 57.581 58.143 60.411 58.773 57.618 57.423
73.488 73.208 72.928 72.655 72.358 72.068 71.82 71.55 71.29 71.03 70.753 70.48 70.218 69.953 69.658 69.415 69.17 68.92 68.653 68.43 68.19 67.933 67.7 67.463 67.218 66.93 66.68 66.433 66.18 65.938 65.695 65.468 65.24 65.028 64.793 64.538 64.3 64.048 63.835 63.61 63.37 63.143 62.925 62.71 62.495 62.288 62.07 61.905 61.718 61.535 61.328 61.135 60.933 60.743 60.545 60.363 60.18 60.023 59.868 59.685 59.518 59.4 59.213 59.06 58.93 58.8 58.628 58.49 58.315 58.133 57.928 57.685 57.405 57.105 56.838 56.538 56.253 55.945 55.685 55.453 55.218 55.333 55.733 55.833 55.145 54.165 53.523 53.288 53.103 52.92 52.73 52.528 52.335 52.1 51.9 51.7 51.493 51.305 51.11 50.913 50.755 50.61 50.438 50.293 50.118 49.93 49.783 49.618 49.453 49.293 49.128 48.998 48.855 48.725 48.59 48.458 48.34 48.208 48.083 47.938 47.82 47.668 47.535 47.383 47.213 47.05 46.943 46.788 46.665 46.55 46.418 46.285 46.168 46.04 45.895 45.758 45.608 45.465 45.313 45.18 45.043 44.915 44.785 44.64 44.51 44.388 44.26 44.11 44.003 43.87 43.72 43.588 43.453 43.358 43.23 43.118 43.008 42.903 42.768 42.685 42.603 42.535 42.475 42.405 42.328 42.268 42.218 42.198 42.17 42.148 42.143 42.115 42.118 42.135 42.165 42.22 42.225 42.243 42.263 42.295 42.323 42.338 42.345 42.313 42.325 42.355 42.388 42.443 42.52 42.633 42.72 42.853 43.055 43.288 43.541 43.771 44.028 44.278 44.568 44.911 45.196 45.471 45.776 47.888 48.771 51.921 51.161 49.593 49.421 49.406 49.438 49.481 49.496 49.606 49.591 49.628 49.618 49.588 49.566 49.578 49.548 49.541 49.481 49.421 49.388 49.373 49.341 49.296 49.231 49.196 49.203 49.133 49.063 49.058 48.991 48.963 48.923 48.881 48.883 48.861 48.783 48.721 48.731 48.708 48.723 48.763 48.736 48.703 48.706 48.738 48.696 48.711 48.728 48.756 48.811 48.848 48.903 48.988 49.068 49.238 49.396 49.453 49.703 49.851 50.026 50.218 50.428 50.646 50.893 51.103 51.333 51.588 51.858 52.141 52.456 52.696 53.528 53.513 53.656 53.918 54.233 54.551 54.836 55.126 55.383 55.648 55.938 56.186 56.416 56.636 56.863 57.051 57.211 57.328 57.406 57.503 57.603 57.753 57.808 57.898 57.966 58.008 58.011 57.988 58.066 58.121 58.171 58.216 58.263 58.318 59.326 61.441 59.943 57.866 58.936 59.258 57.896 56.896 56.841 56.791 56.723 56.666 56.638 56.623 56.623 56.583 56.561 56.561 56.551 56.541 56.553 56.566 56.581 56.611 56.636 56.681 56.733 56.778 56.808 56.848 56.906 56.936 56.981 57.061 57.141 57.181 57.248 57.288 57.358 57.396 57.436 57.483 57.568 57.638 57.673 57.703 57.786 57.858 57.856 57.861 57.863 57.888 57.926 57.953 57.978 58.001 58.051 58.106 58.093 58.111 58.148 58.168 58.203 58.233 58.243 58.258 58.316 58.351 58.363 58.398 58.426 58.443 58.473 58.528 58.538 58.566 58.581 58.596 58.613 58.633 58.648 58.653 58.656 58.638 58.631 58.653 58.651 58.658 58.648 58.638 58.613 58.616 58.611 58.633 58.638 58.613 58.593 58.563 58.546 58.531 58.506 58.426 58.326 58.241 58.228 58.196 58.263 60.416 61.306 60.186 59.811 57.816 58.756 59.161 58.026 58.398 57.548
73.615 73.323 73.033 72.74 72.445 72.203 71.93 71.633 71.365 71.133 70.845 70.583 70.298 70.045 69.76 69.513 69.26 68.99 68.72 68.493 68.273 68.023 67.75 67.54 67.283 67.005 66.748 66.508 66.265 66.02 65.765 65.545 65.315 65.1 64.868 64.633 64.37 64.163 63.91 63.685 63.433 63.24 62.993 62.783 62.573 62.365 62.17 61.973 61.79 61.585 61.41 61.218 61.025 60.83 60.63 60.44 60.273 60.1 59.94 59.765 59.623 59.45 59.263 59.13 58.998 58.848 58.71 58.565 58.36 58.188 57.98 57.755 57.478 57.17 56.843 56.56 56.293 55.993 55.733 55.48 55.243 55.055 54.868 54.74 55.02 55.86 54.905 53.438 53.163 52.948 52.773 52.6 52.395 52.21 52.038 51.84 51.645 51.463 51.268 51.1 50.908 50.75 50.583 50.403 50.255 50.075 49.883 49.723 49.57 49.415 49.288 49.15 49.02 48.878 48.753 48.603 48.458 48.32 48.203 48.068 47.933 47.8 47.648 47.485 47.345 47.19 47.053 46.928 46.793 46.67 46.568 46.403 46.278 46.15 46.013 45.878 45.713 45.56 45.405 45.273 45.14 44.988 44.865 44.708 44.58 44.44 44.318 44.163 44.055 43.893 43.745 43.603 43.488 43.348 43.243 43.13 43.008 42.9 42.79 42.675 42.575 42.503 42.418 42.353 42.278 42.198 42.158 42.068 42.045 42.04 41.983 41.968 41.963 41.94 41.95 41.973 42.008 42.008 42.023 42.065 42.098 42.113 42.13 42.133 42.148 42.173 42.21 42.228 42.328 42.425 42.558 42.69 42.848 43.038 43.263 43.501 43.746 43.996 44.281 44.591 44.876 45.108 45.556 47.251 48.041 51.138 50.833 50.013 49.133 49.096 49.101 49.146 49.181 49.206 49.213 49.231 49.236 49.208 49.223 49.196 49.218 49.133 49.098 49.046 49.038 49.021 48.986 48.946 48.886 48.866 48.841 48.751 48.688 48.673 48.651 48.613 48.578 48.536 48.523 48.493 48.431 48.393 48.371 48.406 48.431 48.423 48.411 48.401 48.446 48.426 48.433 48.488 48.471 48.498 48.541 48.601 48.668 48.771 48.876 48.991 49.126 49.288 49.451 49.603 49.811 50.013 50.206 50.408 50.658 50.868 51.128 51.438 51.688 51.961 52.291 52.561 53.058 53.233 53.451 53.728 54.063 54.346 54.636 54.941 55.203 55.443 55.721 55.976 56.218 56.446 56.648 56.826 56.948 57.071 57.173 57.216 57.333 57.478 57.526 57.623 57.691 57.743 57.698 57.731 57.781 57.821 57.858 57.881 57.946 58.208 58.808 60.343 57.648 57.891 60.698 59.998 56.653 56.563 56.523 56.491 56.448 56.368 56.338 56.278 56.291 56.271 56.286 56.276 56.251 56.263 56.253 56.243 56.258 56.301 56.338 56.358 56.398 56.431 56.488 56.526 56.581 56.628 56.668 56.778 56.823 56.901 56.911 56.978 57.018 57.083 57.126 57.181 57.258 57.328 57.371 57.388 57.456 57.513 57.541 57.501 57.513 57.573 57.613 57.613 57.628 57.653 57.673 57.738 57.751 57.763 57.791 57.818 57.851 57.868 57.876 57.893 57.946 57.971 57.981 58.021 58.063 58.076 58.091 58.141 58.173 58.196 58.196 58.193 58.218 58.241 58.266 58.248 58.253 58.223 58.236 58.253 58.281 58.286 58.258 58.233 58.226 58.246 58.236 58.281 58.263 58.236 58.241 58.221 58.208 58.171 58.156 58.126 58.018 57.896 57.873 57.858 57.828 57.958 58.738 60.433 60.918 60.476 59.398 58.201 57.126 57.248 58.048
73.733 73.453 73.143 72.85 72.56 72.308 72.033 71.745 71.473 71.253 70.96 70.68 70.4 70.123 69.848 69.593 69.348 69.093 68.815 68.59 68.333 68.1 67.84 67.605 67.355 67.09 66.823 66.603 66.355 66.108 65.848 65.645 65.418 65.17 64.94 64.73 64.475 64.25 64.008 63.793 63.565 63.33 63.1 62.885 62.683 62.468 62.268 62.065 61.863 61.68 61.495 61.303 61.153 60.93 60.725 60.538 60.383 60.208 60.035 59.863 59.715 59.545 59.363 59.235 59.058 58.913 58.78 58.653 58.448 58.258 58.008 57.76 57.523 57.228 56.933 56.608 56.3 56.015 55.753 55.53 55.303 55.08 54.905 54.73 54.53 54.785 55.508 55.255 54.183 53.108 52.86 52.653 52.478 52.31 52.13 51.95 51.79 51.613 51.43 51.273 51.065 50.905 50.74 50.578 50.385 50.213 50.045 49.873 49.688 49.563 49.443 49.27 49.15 49.013 48.91 48.775 48.618 48.48 48.328 48.213 48.063 47.928 47.773 47.61 47.468 47.335 47.195 47.05 46.92 46.79 46.645 46.538 46.4 46.265 46.138 45.973 45.825 45.673 45.525 45.37 45.248 45.105 44.95 44.8 44.665 44.505 44.385 44.228 44.098 43.955 43.788 43.64 43.525 43.388 43.255 43.145 43.005 42.92 42.79 42.685 42.573 42.49 42.388 42.318 42.25 42.15 42.103 42.03 41.973 41.94 41.875 41.81 41.8 41.79 41.785 41.773 41.753 41.783 41.815 41.825 41.87 41.91 41.938 41.943 41.953 41.988 42.023 42.078 42.145 42.243 42.35 42.48 42.63 42.808 43.006 43.218 43.453 43.696 43.966 44.271 44.568 44.763 45.186 46.313 49.636 51.158 51.081 49.916 48.808 48.738 48.758 48.796 48.901 48.861 48.916 48.903 48.871 48.853 48.908 48.853 48.833 48.793 48.748 48.721 48.711 48.676 48.653 48.603 48.528 48.483 48.458 48.386 48.361 48.323 48.293 48.236 48.236 48.188 48.176 48.118 48.091 48.063 48.036 48.081 48.106 48.091 48.083 48.098 48.131 48.118 48.138 48.246 48.218 48.278 48.291 48.371 48.453 48.586 48.733 48.806 48.948 49.096 49.263 49.456 49.636 49.813 50.018 50.231 50.481 50.666 50.908 51.208 51.508 51.811 52.138 52.448 52.781 53.026 53.253 53.576 53.863 54.156 54.421 54.731 55.006 55.228 55.516 55.773 55.998 56.201 56.403 56.561 56.691 56.796 56.873 56.956 57.081 57.188 57.246 57.338 57.421 57.446 57.428 57.458 57.488 57.531 57.578 57.618 57.673 58.936 58.423 57.458 57.261 57.653 58.998 57.923 56.376 56.278 56.241 56.191 56.136 56.121 56.048 55.981 55.993 55.996 55.966 55.941 55.908 55.886 55.921 55.933 55.963 56.006 56.011 56.036 56.081 56.116 56.163 56.201 56.256 56.306 56.371 56.476 56.533 56.586 56.646 56.683 56.716 56.783 56.813 56.901 56.953 57.031 57.076 57.093 57.128 57.206 57.226 57.176 57.198 57.251 57.276 57.286 57.313 57.331 57.323 57.366 57.421 57.403 57.428 57.453 57.461 57.488 57.511 57.543 57.591 57.593 57.636 57.633 57.676 57.703 57.733 57.768 57.791 57.803 57.821 57.816 57.836 57.848 57.898 57.896 57.866 57.853 57.886 57.881 57.891 57.883 57.866 57.866 57.883 57.846 57.878 57.873 57.891 57.881 57.898 57.881 57.863 57.843 57.811 57.801 57.753 57.611 57.536 57.483 57.466 57.413 57.351 57.938 59.728 60.328 60.036 59.016 57.106 57.138 60.043
73.853 73.568 73.285 72.988 72.693 72.423 72.14 71.858 71.618 71.358 71.075 70.77 70.503 70.24 69.95 69.703 69.455 69.19 68.92 68.698 68.445 68.203 67.968 67.71 67.44 67.208 66.938 66.685 66.445 66.2 65.998 65.763 65.533 65.278 65.063 64.855 64.595 64.365 64.13 63.923 63.693 63.435 63.233 63.008 62.798 62.57 62.378 62.183 61.985 61.773 61.608 61.41 61.248 61.043 60.848 60.643 60.478 60.313 60.14 59.968 59.81 59.63 59.483 59.308 59.15 58.995 58.838 58.713 58.515 58.323 58.058 57.848 57.578 57.275 56.985 56.693 56.373 56.078 55.805 55.573 55.345 55.135 54.94 54.768 54.585 54.428 54.248 54.223 54.783 54.58 53.918 52.99 52.568 52.373 52.213 52.073 51.933 51.783 51.613 51.443 51.27 51.08 50.92 50.755 50.548 50.353 50.2 50.033 49.888 49.718 49.573 49.443 49.313 49.178 49.05 48.92 48.79 48.643 48.498 48.375 48.215 48.053 47.918 47.76 47.613 47.478 47.335 47.205 47.065 46.92 46.783 46.66 46.52 46.4 46.238 46.085 45.923 45.763 45.62 45.473 45.343 45.21 45.063 44.923 44.765 44.608 44.463 44.31 44.13 43.985 43.845 43.68 43.545 43.405 43.275 43.148 43.02 42.908 42.793 42.663 42.555 42.47 42.37 42.283 42.17 42.103 42.043 41.945 41.91 41.84 41.778 41.715 41.66 41.66 41.618 41.61 41.603 41.6 41.595 41.635 41.66 41.703 41.738 41.735 41.775 41.805 41.835 41.89 41.965 42.063 42.143 42.265 42.408 42.578 42.741 42.951 43.161 43.398 43.673 43.948 44.233 44.448 45.668 46.501 47.101 50.901 50.288 49.131 48.498 48.423 48.453 48.461 48.548 48.516 48.511 48.513 48.513 48.503 48.521 48.511 48.493 48.398 48.391 48.348 48.331 48.308 48.271 48.223 48.213 48.163 48.128 48.081 48.031 47.986 47.931 47.916 47.883 47.833 47.816 47.783 47.753 47.711 47.751 47.746 47.763 47.756 47.796 47.783 47.838 47.836 47.843 47.881 47.963 48.011 48.086 48.136 48.203 48.313 48.473 48.638 48.731 48.896 49.068 49.283 49.496 49.646 49.821 50.028 50.253 50.506 50.753 51.008 51.303 51.656 51.921 52.421 52.591 52.853 53.103 53.393 53.658 53.948 54.231 54.531 54.776 55.021 55.313 55.561 55.761 55.956 56.146 56.293 56.413 56.528 56.596 56.678 56.806 56.886 56.963 57.023 57.103 57.088 57.103 57.126 57.186 57.216 57.278 57.373 57.383 58.006 57.371 56.896 57.983 59.068 58.158 56.123 56.028 56.011 55.951 55.856 55.838 55.793 55.731 55.688 55.661 55.653 55.621 55.613 55.588 55.586 55.616 55.623 55.646 55.691 55.708 55.731 55.768 55.786 55.846 55.883 55.961 55.993 56.073 56.133 56.206 56.276 56.336 56.376 56.408 56.473 56.526 56.586 56.658 56.716 56.771 56.768 56.836 56.896 56.941 56.873 56.893 56.971 56.971 56.961 57.013 57.028 57.056 57.031 57.093 57.088 57.101 57.158 57.146 57.148 57.176 57.193 57.218 57.248 57.248 57.248 57.318 57.341 57.381 57.408 57.433 57.431 57.448 57.448 57.471 57.468 57.531 57.516 57.468 57.483 57.506 57.521 57.533 57.503 57.493 57.498 57.508 57.503 57.508 57.496 57.513 57.528 57.538 57.523 57.511 57.493 57.478 57.463 57.456 57.358 57.238 57.183 57.136 57.096 57.046 56.981 56.941 58.886 59.931 59.503 58.336 57.296 57.828
74.008 73.708 73.413 73.115 72.823 72.553 72.253 71.97 71.74 71.468 71.183 70.895 70.628 70.32 70.06 69.82 69.575 69.295 69.04 68.815 68.565 68.313 68.06 67.823 67.545 67.303 67.035 66.803 66.545 66.318 66.113 65.898 65.643 65.38 65.2 64.983 64.725 64.475 64.255 64.02 63.815 63.565 63.353 63.14 62.903 62.693 62.485 62.29 62.105 61.908 61.72 61.52 61.35 61.15 60.96 60.75 60.57 60.418 60.245 60.058 59.92 59.718 59.573 59.398 59.263 59.095 58.935 58.798 58.608 58.388 58.153 57.92 57.663 57.338 57.033 56.755 56.488 56.203 55.903 55.648 55.443 55.2 54.995 54.825 54.673 54.468 54.315 54.145 53.948 53.98 54.463 54.148 53.663 52.818 52.345 52.195 52.045 51.885 51.735 51.59 51.433 51.255 51.103 50.915 50.723 50.538 50.37 50.218 50.09 49.9 49.75 49.615 49.48 49.343 49.233 49.103 48.965 48.84 48.68 48.553 48.383 48.223 48.078 47.918 47.77 47.628 47.495 47.348 47.218 47.065 46.933 46.788 46.65 46.52 46.358 46.2 46.038 45.895 45.72 45.593 45.445 45.313 45.158 45.013 44.868 44.7 44.55 44.383 44.208 44.055 43.913 43.743 43.593 43.448 43.313 43.198 43.05 42.92 42.773 42.66 42.588 42.448 42.363 42.26 42.16 42.088 41.995 41.898 41.85 41.783 41.71 41.63 41.575 41.503 41.478 41.463 41.443 41.44 41.43 41.463 41.443 41.493 41.505 41.538 41.57 41.608 41.64 41.683 41.768 41.85 41.943 42.048 42.205 42.353 42.466 42.716 42.893 43.128 43.373 43.638 43.883 44.096 44.416 47.781 49.841 50.161 50.426 49.146 48.258 48.131 48.123 48.123 48.176 48.163 48.163 48.196 48.226 48.161 48.118 48.111 48.083 48.043 48.001 48.003 48.011 47.988 47.936 47.898 47.836 47.841 47.806 47.728 47.686 47.643 47.623 47.581 47.556 47.496 47.481 47.436 47.408 47.398 47.411 47.461 47.426 47.436 47.466 47.506 47.496 47.583 47.601 47.606 47.693 47.736 47.841 47.898 48.006 48.141 48.276 48.453 48.561 48.753 48.923 49.093 49.303 49.493 49.666 49.838 50.051 50.338 50.568 50.838 51.146 51.483 51.781 52.098 52.406 52.691 52.948 53.216 53.486 53.763 54.053 54.318 54.571 54.821 55.068 55.298 55.523 55.706 55.858 56.016 56.126 56.218 56.286 56.403 56.518 56.546 56.651 56.746 56.796 56.793 56.783 56.858 56.896 56.921 56.951 57.006 57.313 59.441 56.688 56.433 57.113 59.328 57.588 55.801 55.793 55.743 55.628 55.543 55.548 55.496 55.418 55.363 55.353 55.326 55.328 55.298 55.266 55.268 55.296 55.318 55.346 55.388 55.408 55.431 55.448 55.488 55.556 55.571 55.648 55.666 55.756 55.818 55.896 55.966 56.013 56.048 56.091 56.146 56.223 56.311 56.371 56.406 56.471 56.491 56.541 56.543 56.598 56.563 56.601 56.663 56.686 56.691 56.706 56.706 56.721 56.698 56.753 56.773 56.776 56.793 56.801 56.811 56.848 56.853 56.876 56.901 56.901 56.923 56.946 57.001 57.021 57.063 57.078 57.061 57.091 57.063 57.073 57.113 57.126 57.133 57.101 57.116 57.136 57.158 57.138 57.136 57.131 57.111 57.146 57.156 57.163 57.148 57.151 57.163 57.171 57.183 57.163 57.148 57.126 57.113 57.116 57.053 56.946 56.881 56.813 56.768 56.718 56.658 56.606 56.556 57.623 59.398 59.631 58.328 57.061
74.17 73.868 73.555 73.263 72.975 72.668 72.408 72.095 71.848 71.575 71.283 71.003 70.72 70.44 70.16 69.933 69.69 69.41 69.15 68.91 68.658 68.418 68.2 67.923 67.668 67.393 67.145 66.913 66.663 66.433 66.218 65.998 65.763 65.538 65.333 65.113 64.868 64.613 64.385 64.153 63.95 63.703 63.475 63.24 63.033 62.813 62.625 62.403 62.218 62.015 61.825 61.65 61.448 61.27 61.075 60.868 60.705 60.563 60.36 60.16 60.015 59.815 59.673 59.528 59.365 59.19 59.01 58.828 58.65 58.455 58.235 58.008 57.74 57.453 57.143 56.84 56.555 56.31 56.013 55.773 55.54 55.298 55.1 54.918 54.735 54.553 54.38 54.193 54.018 53.865 53.723 53.708 54.108 53.918 53.565 53.07 52.378 51.995 51.85 51.695 51.563 51.433 51.27 51.095 50.913 50.735 50.565 50.41 50.263 50.1 49.955 49.805 49.668 49.55 49.415 49.28 49.15 48.998 48.858 48.723 48.58 48.41 48.235 48.09 47.933 47.775 47.653 47.493 47.363 47.223 47.08 46.943 46.8 46.66 46.513 46.308 46.175 46.025 45.87 45.705 45.573 45.425 45.255 45.11 44.955 44.803 44.63 44.495 44.305 44.143 43.97 43.795 43.645 43.518 43.353 43.21 43.078 42.918 42.828 42.678 42.583 42.47 42.338 42.248 42.155 42.068 41.958 41.863 41.793 41.74 41.653 41.598 41.493 41.448 41.363 41.32 41.29 41.28 41.285 41.298 41.308 41.31 41.318 41.345 41.373 41.385 41.438 41.498 41.565 41.66 41.743 41.833 41.958 42.09 42.236 42.428 42.618 42.826 43.066 43.298 43.526 43.746 43.911 45.986 48.683 48.936 50.313 49.066 47.973 47.803 47.768 47.773 47.798 47.771 47.823 47.846 47.768 47.788 47.778 47.746 47.711 47.718 47.663 47.661 47.641 47.593 47.578 47.533 47.486 47.453 47.453 47.381 47.361 47.338 47.278 47.221 47.183 47.178 47.156 47.118 47.078 47.103 47.096 47.136 47.136 47.148 47.161 47.213 47.218 47.273 47.308 47.361 47.413 47.516 47.593 47.663 47.771 47.898 48.063 48.236 48.413 48.536 48.721 48.916 49.118 49.328 49.483 49.748 49.931 50.181 50.416 50.691 51.006 51.311 51.676 51.996 52.246 52.511 52.753 53.053 53.326 53.571 53.848 54.113 54.341 54.596 54.833 55.028 55.278 55.403 55.568 55.711 55.826 55.893 55.983 56.098 56.193 56.268 56.358 56.453 56.488 56.503 56.483 56.521 56.543 56.601 56.628 56.701 57.756 57.256 56.163 56.448 58.663 57.996 55.531 55.516 55.468 55.408 55.318 55.221 55.181 55.193 55.131 55.066 55.018 55.036 54.988 54.963 54.966 54.981 54.973 55.023 55.056 55.081 55.111 55.133 55.176 55.188 55.241 55.278 55.318 55.371 55.463 55.511 55.591 55.653 55.708 55.741 55.793 55.838 55.923 56.001 56.061 56.103 56.153 56.216 56.241 56.241 56.266 56.266 56.308 56.343 56.366 56.368 56.393 56.398 56.413 56.416 56.416 56.473 56.463 56.493 56.501 56.501 56.506 56.546 56.551 56.566 56.571 56.588 56.606 56.653 56.671 56.691 56.723 56.711 56.726 56.731 56.721 56.731 56.731 56.743 56.718 56.753 56.766 56.793 56.771 56.758 56.756 56.743 56.753 56.793 56.803 56.803 56.801 56.833 56.826 56.831 56.823 56.793 56.766 56.741 56.758 56.758 56.658 56.603 56.533 56.466 56.418 56.351 56.293 56.231 56.196 57.396 58.861 59.088 58.426
74.345 74.055 73.733 73.408 73.095 72.828 72.525 72.23 71.975 71.685 71.388 71.095 70.84 70.55 70.298 70.058 69.803 69.518 69.268 69.02 68.778 68.548 68.303 68.033 67.763 67.5 67.27 67.005 66.77 66.555 66.338 66.118 65.893 65.658 65.453 65.24 64.988 64.765 64.518 64.29 64.083 63.843 63.595 63.375 63.155 62.938 62.745 62.538 62.355 62.153 61.95 61.77 61.583 61.418 61.195 60.985 60.818 60.688 60.49 60.32 60.123 59.94 59.778 59.628 59.485 59.298 59.09 58.91 58.748 58.545 58.32 58.068 57.848 57.545 57.275 56.98 56.69 56.393 56.09 55.855 55.643 55.43 55.215 55.033 54.833 54.645 54.465 54.305 54.105 53.928 53.773 53.633 53.488 53.353 53.198 53.83 53.32 53.135 52.47 51.813 51.695 51.565 51.435 51.265 51.1 50.928 50.788 50.63 50.463 50.29 50.168 50.008 49.885 49.755 49.613 49.48 49.325 49.183 49.06 48.898 48.768 48.615 48.438 48.285 48.128 47.958 47.788 47.648 47.513 47.388 47.23 47.09 46.948 46.81 46.64 46.478 46.315 46.138 45.995 45.853 45.673 45.513 45.368 45.215 45.053 44.893 44.728 44.563 44.373 44.215 44.048 43.883 43.73 43.555 43.4 43.285 43.135 42.973 42.82 42.705 42.59 42.455 42.338 42.223 42.12 42.015 41.938 41.825 41.755 41.67 41.603 41.523 41.463 41.393 41.308 41.265 41.193 41.163 41.158 41.143 41.15 41.163 41.165 41.165 41.188 41.198 41.243 41.31 41.348 41.43 41.51 41.598 41.71 41.825 41.966 42.146 42.318 42.533 42.761 42.973 43.208 43.403 43.566 44.398 45.973 47.828 48.748 49.003 47.698 47.508 47.451 47.453 47.486 47.458 47.476 47.463 47.413 47.456 47.408 47.381 47.403 47.303 47.301 47.316 47.251 47.266 47.193 47.186 47.203 47.136 47.093 47.048 47.028 46.986 46.951 46.928 46.873 46.846 46.858 46.803 46.796 46.776 46.798 46.831 46.871 46.876 46.873 46.898 46.908 46.986 47.008 47.098 47.161 47.256 47.378 47.453 47.576 47.716 47.898 48.018 48.226 48.416 48.561 48.758 48.946 49.143 49.361 49.556 49.771 50.006 50.268 50.546 50.776 51.098 51.433 51.773 52.091 52.363 52.613 52.863 53.131 53.378 53.631 53.888 54.136 54.371 54.551 54.783 54.966 55.133 55.286 55.403 55.481 55.573 55.661 55.811 55.861 55.936 56.038 56.146 56.146 56.148 56.203 56.243 56.261 56.268 56.321 56.468 56.716 55.836 55.743 57.168 58.353 55.291 55.278 55.243 55.183 55.133 55.031 54.961 54.883 54.871 54.823 54.736 54.736 54.743 54.678 54.651 54.668 54.656 54.683 54.723 54.741 54.781 54.811 54.818 54.826 54.878 54.913 54.973 55.018 55.081 55.146 55.216 55.288 55.326 55.403 55.413 55.463 55.541 55.628 55.688 55.771 55.813 55.853 55.913 55.948 55.941 55.946 55.961 56.013 56.041 56.063 56.068 56.096 56.103 56.128 56.116 56.116 56.151 56.166 56.193 56.186 56.191 56.193 56.196 56.228 56.251 56.226 56.266 56.268 56.331 56.341 56.346 56.351 56.358 56.351 56.363 56.363 56.373 56.351 56.356 56.366 56.368 56.426 56.416 56.436 56.398 56.393 56.386 56.378 56.423 56.451 56.426 56.433 56.468 56.468 56.466 56.451 56.426 56.411 56.393 56.386 56.431 56.338 56.286 56.216 56.168 56.106 56.051 55.966 55.883 55.831 55.796 57.433 58.686 57.281
74.538 74.218 73.87 73.575 73.248 72.945 72.653 72.365 72.09 71.8 71.523 71.228 70.935 70.658 70.403 70.168 69.92 69.643 69.378 69.128 68.893 68.638 68.408 68.12 67.86 67.603 67.365 67.123 66.898 66.685 66.503 66.238 66.013 65.788 65.593 65.368 65.14 64.888 64.665 64.425 64.195 63.963 63.733 63.508 63.295 63.083 62.885 62.678 62.473 62.27 62.083 61.895 61.695 61.503 61.308 61.125 60.93 60.818 60.603 60.44 60.248 60.068 59.92 59.745 59.58 59.4 59.195 59.03 58.845 58.645 58.41 58.173 57.943 57.66 57.408 57.125 56.823 56.533 56.22 55.975 55.728 55.553 55.338 55.163 54.96 54.748 54.58 54.42 54.243 54.035 53.885 53.72 53.58 53.46 53.313 53.17 53.015 53.495 53.693 53.193 51.903 51.658 51.523 51.4 51.248 51.108 50.988 50.83 50.665 50.53 50.373 50.215 50.105 49.96 49.81 49.678 49.523 49.38 49.245 49.115 48.95 48.77 48.608 48.458 48.31 48.133 47.975 47.825 47.685 47.538 47.403 47.235 47.103 46.943 46.765 46.635 46.455 46.273 46.133 45.968 45.815 45.638 45.483 45.313 45.163 44.995 44.823 44.66 44.485 44.305 44.123 43.945 43.793 43.623 43.478 43.32 43.18 43.013 42.878 42.753 42.608 42.49 42.355 42.225 42.115 42.01 41.91 41.815 41.728 41.653 41.573 41.488 41.395 41.34 41.275 41.193 41.155 41.08 41.06 41.023 41.003 41.033 41.03 41.018 41.035 41.035 41.065 41.108 41.15 41.21 41.288 41.343 41.47 41.573 41.716 41.871 42.053 42.261 42.476 42.668 42.903 43.073 43.241 43.421 46.621 46.736 47.208 47.681 47.381 47.228 47.141 47.146 47.146 47.148 47.241 47.143 47.076 47.071 47.043 47.016 47.001 46.941 46.918 46.926 46.896 46.881 46.886 46.846 46.806 46.793 46.746 46.708 46.688 46.648 46.641 46.596 46.558 46.536 46.513 46.481 46.483 46.513 46.501 46.548 46.556 46.563 46.581 46.603 46.636 46.721 46.791 46.873 46.893 46.996 47.103 47.173 47.323 47.493 47.658 47.811 47.996 48.223 48.413 48.591 48.773 48.948 49.151 49.378 49.603 49.866 50.101 50.376 50.618 50.968 51.243 51.546 51.823 52.148 52.493 52.758 53.008 53.208 53.418 53.688 53.936 54.161 54.343 54.553 54.721 54.881 54.996 55.091 55.163 55.253 55.371 55.528 55.571 55.626 55.743 55.796 55.808 55.811 55.893 55.938 55.931 55.951 56.031 57.003 56.371 55.146 56.076 57.883 55.261 55.038 54.988 54.921 54.843 54.788 54.701 54.641 54.591 54.543 54.498 54.441 54.413 54.381 54.393 54.336 54.346 54.341 54.356 54.403 54.458 54.481 54.506 54.501 54.518 54.566 54.611 54.646 54.701 54.776 54.841 54.886 54.966 55.028 55.086 55.131 55.178 55.261 55.343 55.381 55.453 55.521 55.553 55.608 55.646 55.651 55.641 55.683 55.751 55.743 55.761 55.756 55.781 55.796 55.831 55.821 55.818 55.848 55.863 55.876 55.881 55.871 55.883 55.898 55.903 55.936 55.941 55.946 55.946 55.983 56.016 56.003 56.006 56.028 56.028 56.018 56.018 56.048 56.036 55.998 56.028 56.036 56.061 56.058 56.043 56.026 56.036 56.031 56.041 56.083 56.103 56.093 56.101 56.086 56.111 56.118 56.096 56.081 56.053 56.038 56.053 56.073 56.038 55.968 55.911 55.861 55.773 55.713 55.628 55.566 55.496 55.403 55.316 57.206 57.698
74.743 74.42 74.065 73.755 73.415 73.098 72.773 72.46 72.208 71.918 71.633 71.345 71.045 70.768 70.51 70.263 70.008 69.733 69.49 69.245 68.993 68.73 68.49 68.225 67.97 67.718 67.47 67.238 67.018 66.805 66.608 66.37 66.125 65.933 65.708 65.51 65.26 65.028 64.79 64.588 64.345 64.12 63.858 63.65 63.405 63.203 63.018 62.813 62.598 62.388 62.205 61.995 61.823 61.618 61.433 61.245 61.07 60.918 60.718 60.565 60.35 60.178 60.01 59.873 59.693 59.52 59.31 59.165 58.945 58.75 58.523 58.3 58.05 57.765 57.523 57.253 56.968 56.67 56.435 56.135 55.885 55.66 55.47 55.275 55.095 54.903 54.705 54.513 54.318 54.17 54.013 53.853 53.683 53.548 53.413 53.293 53.178 53.013 52.95 53.508 53.688 52.858 51.705 51.51 51.373 51.275 51.13 50.985 50.865 50.748 50.608 50.453 50.323 50.173 50.03 49.895 49.738 49.6 49.443 49.293 49.143 48.983 48.795 48.63 48.483 48.335 48.178 48.025 47.87 47.705 47.563 47.405 47.265 47.085 46.925 46.755 46.598 46.453 46.288 46.11 45.95 45.778 45.63 45.445 45.265 45.113 44.933 44.77 44.583 44.405 44.228 44.045 43.87 43.703 43.538 43.388 43.225 43.088 42.93 42.785 42.643 42.515 42.375 42.25 42.133 42.008 41.88 41.803 41.695 41.608 41.54 41.465 41.363 41.283 41.213 41.155 41.088 41.038 40.978 40.95 40.928 40.925 40.898 40.885 40.893 40.88 40.915 40.963 40.988 41.035 41.085 41.143 41.223 41.325 41.436 41.596 41.783 41.966 42.183 42.333 42.546 42.748 42.923 43.053 45.336 46.188 47.483 49.683 47.273 46.958 46.826 46.833 46.826 46.841 46.853 46.741 46.731 46.706 46.696 46.683 46.631 46.606 46.561 46.556 46.563 46.498 46.478 46.448 46.438 46.443 46.418 46.393 46.346 46.316 46.313 46.253 46.263 46.238 46.208 46.156 46.166 46.193 46.233 46.241 46.273 46.296 46.338 46.383 46.381 46.433 46.511 46.558 46.666 46.723 46.873 46.968 47.128 47.281 47.456 47.616 47.793 47.976 48.186 48.428 48.576 48.811 48.986 49.203 49.443 49.676 49.948 50.251 50.508 50.796 51.036 51.343 51.621 51.886 52.193 52.508 52.836 53.083 53.303 53.488 53.693 53.931 54.148 54.323 54.481 54.603 54.718 54.791 54.851 54.943 55.086 55.168 55.218 55.328 55.401 55.441 55.471 55.488 55.551 55.596 55.618 55.638 55.706 57.193 56.768 55.036 57.008 56.776 54.808 54.731 54.686 54.633 54.553 54.481 54.391 54.348 54.291 54.228 54.186 54.158 54.108 54.051 54.076 54.036 54.036 54.041 54.068 54.121 54.128 54.146 54.208 54.183 54.211 54.248 54.298 54.351 54.406 54.466 54.541 54.621 54.666 54.718 54.758 54.818 54.883 54.971 55.046 55.101 55.146 55.213 55.266 55.326 55.356 55.366 55.336 55.406 55.451 55.451 55.468 55.463 55.488 55.508 55.528 55.513 55.531 55.556 55.578 55.573 55.583 55.581 55.576 55.591 55.586 55.591 55.606 55.621 55.631 55.643 55.676 55.673 55.691 55.688 55.661 55.681 55.703 55.703 55.683 55.643 55.683 55.696 55.706 55.706 55.693 55.706 55.668 55.666 55.693 55.721 55.743 55.743 55.731 55.726 55.743 55.758 55.726 55.718 55.708 55.706 55.706 55.688 55.723 55.653 55.571 55.526 55.473 55.401 55.311 55.226 55.138 55.063 54.978 54.838 55.451
74.953 74.64 74.265 73.928 73.58 73.245 72.928 72.605 72.315 72.02 71.718 71.423 71.138 70.853 70.593 70.34 70.085 69.845 69.598 69.328 69.09 68.835 68.593 68.325 68.078 67.84 67.58 67.353 67.135 66.908 66.723 66.488 66.275 66.06 65.825 65.648 65.41 65.178 64.943 64.72 64.463 64.258 64.003 63.78 63.548 63.343 63.138 62.935 62.728 62.515 62.315 62.115 61.945 61.738 61.555 61.345 61.185 60.998 60.82 60.673 60.455 60.313 60.145 59.973 59.8 59.625 59.44 59.265 59.053 58.85 58.658 58.4 58.183 57.92 57.638 57.388 57.09 56.828 56.57 56.285 56.053 55.815 55.625 55.418 55.218 55.045 54.86 54.663 54.463 54.283 54.12 53.965 53.833 53.695 53.545 53.423 53.263 53.158 53.043 52.928 52.97 53.373 54.033 53.32 51.928 51.4 51.263 51.163 51.048 50.918 50.795 50.68 50.548 50.408 50.268 50.113 49.96 49.823 49.678 49.51 49.35 49.175 48.993 48.83 48.683 48.533 48.363 48.223 48.05 47.888 47.735 47.58 47.415 47.258 47.083 46.905 46.74 46.565 46.425 46.253 46.083 45.928 45.758 45.58 45.395 45.213 45.03 44.868 44.678 44.488 44.308 44.14 43.948 43.79 43.615 43.448 43.278 43.13 42.988 42.833 42.695 42.58 42.425 42.255 42.145 42.015 41.895 41.768 41.663 41.575 41.488 41.4 41.303 41.215 41.153 41.073 41.015 40.99 40.928 40.883 40.86 40.813 40.813 40.778 40.77 40.738 40.775 40.808 40.838 40.863 40.91 40.963 41.033 41.108 41.216 41.363 41.508 41.681 41.888 42.046 42.248 42.431 42.588 42.743 42.963 44.661 46.331 47.133 48.268 46.663 46.533 46.528 46.503 46.483 46.476 46.388 46.398 46.383 46.343 46.276 46.271 46.218 46.208 46.213 46.178 46.153 46.126 46.136 46.086 46.066 46.043 46.023 46.003 45.986 45.973 45.933 45.933 45.913 45.903 45.866 45.896 45.923 45.971 45.968 45.991 46.058 46.068 46.101 46.138 46.176 46.261 46.348 46.436 46.536 46.681 46.778 46.913 47.061 47.246 47.416 47.591 47.816 48.041 48.233 48.423 48.646 48.783 49.013 49.246 49.511 49.791 50.061 50.348 50.631 50.901 51.183 51.431 51.716 52.001 52.246 52.496 52.798 53.078 53.291 53.458 53.658 53.873 54.078 54.208 54.336 54.413 54.478 54.551 54.648 54.793 54.831 54.931 55.003 55.053 55.108 55.141 55.136 55.193 55.288 55.296 55.333 55.636 57.413 56.328 55.616 57.486 55.731 54.513 54.448 54.411 54.348 54.248 54.136 54.083 54.036 53.973 53.901 53.866 53.861 53.803 53.758 53.741 53.746 53.703 53.726 53.768 53.808 53.798 53.833 53.858 53.888 53.903 53.936 53.991 54.038 54.116 54.173 54.241 54.293 54.363 54.416 54.451 54.523 54.601 54.671 54.761 54.828 54.863 54.938 54.978 55.036 55.056 55.066 55.056 55.121 55.191 55.183 55.186 55.206 55.208 55.221 55.218 55.223 55.228 55.241 55.313 55.258 55.268 55.256 55.256 55.263 55.276 55.278 55.283 55.308 55.318 55.323 55.346 55.361 55.361 55.356 55.351 55.383 55.393 55.378 55.336 55.328 55.358 55.401 55.363 55.351 55.356 55.351 55.328 55.356 55.353 55.366 55.396 55.386 55.373 55.383 55.381 55.413 55.381 55.361 55.361 55.348 55.338 55.333 55.353 55.326 55.251 55.198 55.161 55.078 55.011 54.891 54.816 54.743 54.663 54.586 54.493
75.178 74.825 74.445 74.088 73.715 73.408 73.04 72.75 72.433 72.133 71.833 71.533 71.208 70.923 70.683 70.425 70.163 69.92 69.66 69.405 69.15 68.93 68.68 68.425 68.18 67.928 67.675 67.435 67.24 67.025 66.823 66.605 66.408 66.18 65.95 65.758 65.533 65.308 65.063 64.853 64.603 64.375 64.118 63.91 63.7 63.49 63.26 63.04 62.828 62.635 62.428 62.245 62.07 61.845 61.64 61.473 61.333 61.105 60.94 60.778 60.588 60.44 60.258 60.073 59.905 59.733 59.573 59.373 59.175 58.97 58.758 58.553 58.288 58.055 57.8 57.518 57.26 56.975 56.723 56.445 56.215 55.993 55.775 55.56 55.383 55.193 55.008 54.82 54.633 54.46 54.258 54.098 53.958 53.85 53.698 53.568 53.438 53.283 53.163 53.04 52.935 52.82 52.745 53.073 53.815 53.025 51.898 51.438 51.2 51.078 50.97 50.893 50.758 50.643 50.498 50.35 50.198 50.038 49.89 49.725 49.578 49.393 49.213 49.05 48.883 48.715 48.548 48.408 48.26 48.083 47.915 47.758 47.583 47.435 47.233 47.055 46.883 46.708 46.545 46.365 46.243 46.055 45.878 45.718 45.52 45.353 45.168 44.985 44.813 44.595 44.418 44.235 44.04 43.863 43.715 43.53 43.353 43.183 43.04 42.918 42.738 42.603 42.463 42.293 42.148 42.04 41.903 41.79 41.685 41.568 41.475 41.36 41.283 41.178 41.105 41.013 40.963 40.918 40.858 40.805 40.768 40.765 40.73 40.698 40.668 40.665 40.635 40.663 40.683 40.72 40.758 40.8 40.858 40.918 41.008 41.133 41.258 41.396 41.568 41.743 41.918 42.121 42.301 42.436 42.611 43.563 45.616 46.618 47.543 46.351 46.236 46.196 46.156 46.166 46.098 46.061 46.008 45.986 45.956 45.916 45.896 45.863 45.861 45.848 45.823 45.786 45.781 45.766 45.773 45.743 45.693 45.696 45.681 45.633 45.631 45.626 45.606 45.558 45.551 45.573 45.608 45.658 45.676 45.711 45.733 45.771 45.788 45.863 45.883 45.971 46.061 46.108 46.206 46.291 46.403 46.556 46.691 46.886 47.048 47.218 47.468 47.638 47.856 48.026 48.191 48.438 48.601 48.828 49.078 49.363 49.623 49.863 50.183 50.466 50.726 50.983 51.236 51.498 51.766 52.011 52.238 52.523 52.751 53.021 53.251 53.578 53.646 53.803 53.976 54.051 54.133 54.201 54.266 54.371 54.486 54.513 54.591 54.678 54.736 54.776 54.808 54.823 54.888 54.953 54.981 55.013 55.501 55.111 55.111 59.248 57.948 54.436 54.163 54.123 54.066 54.018 53.933 53.833 53.793 53.706 53.643 53.581 53.551 53.528 53.498 53.446 53.446 53.426 53.408 53.441 53.443 53.486 53.506 53.526 53.553 53.566 53.593 53.616 53.678 53.726 53.796 53.886 53.941 53.998 54.071 54.116 54.168 54.226 54.328 54.376 54.461 54.531 54.583 54.628 54.696 54.746 54.768 54.766 54.778 54.831 54.896 54.901 54.886 54.906 54.913 54.921 54.941 54.951 54.933 54.966 54.961 54.976 54.968 54.968 54.966 54.976 54.961 54.961 54.983 54.998 55.006 55.008 55.021 55.033 55.036 55.033 55.041 55.053 55.058 55.046 55.016 55.018 55.026 55.051 55.021 55.033 55.021 55.038 55.008 55.023 55.028 55.053 55.051 55.048 55.026 55.043 55.028 55.058 55.031 54.993 55.001 54.978 55.006 54.988 54.991 55.003 54.931 54.873 54.838 54.768 54.703 54.636 54.523 54.428 54.343 54.268 54.173
75.383 75.01 74.625 74.245 73.868 73.53 73.17 72.863 72.53 72.24 71.93 71.6 71.295 70.99 70.758 70.495 70.22 69.983 69.728 69.475 69.208 68.983 68.74 68.508 68.268 68.003 67.773 67.553 67.348 67.123 66.943 66.715 66.523 66.29 66.083 65.89 65.643 65.42 65.203 64.978 64.725 64.515 64.275 64.05 63.813 63.603 63.393 63.17 62.928 62.76 62.54 62.358 62.173 61.955 61.75 61.578 61.435 61.21 61.063 60.873 60.688 60.525 60.373 60.188 60.015 59.843 59.685 59.48 59.28 59.083 58.88 58.673 58.448 58.2 57.945 57.68 57.408 57.138 56.893 56.618 56.38 56.175 55.95 55.753 55.583 55.358 55.19 54.99 54.808 54.64 54.428 54.258 54.133 53.948 53.845 53.708 53.575 53.46 53.303 53.163 53.028 52.913 52.8 52.705 52.598 52.628 52.68 53.078 52.25 51.25 51.125 51.028 50.953 50.83 50.708 50.585 50.43 50.278 50.125 49.975 49.795 49.625 49.448 49.273 49.09 48.928 48.748 48.59 48.428 48.303 48.11 47.95 47.773 47.573 47.4 47.238 47.053 46.863 46.695 46.495 46.353 46.198 46.038 45.863 45.658 45.478 45.29 45.093 44.913 44.715 44.533 44.328 44.15 43.955 43.788 43.613 43.443 43.27 43.11 42.94 42.805 42.67 42.523 42.35 42.22 42.078 41.94 41.815 41.663 41.588 41.478 41.335 41.24 41.135 41.06 40.965 40.903 40.845 40.793 40.765 40.705 40.67 40.633 40.62 40.585 40.583 40.553 40.56 40.545 40.568 40.6 40.64 40.7 40.743 40.826 40.908 41.033 41.123 41.266 41.448 41.606 41.771 41.978 42.128 42.336 42.946 46.028 46.043 46.838 46.101 45.926 45.843 45.798 45.776 45.736 45.663 45.631 45.636 45.616 45.558 45.558 45.513 45.521 45.506 45.488 45.448 45.433 45.421 45.463 45.403 45.383 45.351 45.336 45.326 45.311 45.298 45.278 45.308 45.308 45.278 45.301 45.353 45.428 45.441 45.458 45.498 45.528 45.566 45.626 45.711 45.803 45.868 45.993 46.091 46.201 46.331 46.546 46.693 46.856 47.021 47.183 47.431 47.628 47.838 48.063 48.231 48.456 48.651 48.913 49.193 49.451 49.706 50.016 50.261 50.518 50.788 51.046 51.301 51.573 51.796 52.076 52.291 52.508 52.733 53.128 54.268 53.776 53.503 53.671 53.773 53.841 53.928 54.023 54.121 54.173 54.203 54.261 54.383 54.428 54.423 54.443 54.496 54.581 54.621 54.621 55.051 56.058 54.493 54.048 55.341 54.913 53.931 53.836 53.803 53.756 53.696 53.626 53.561 53.471 53.403 53.346 53.281 53.238 53.211 53.183 53.138 53.116 53.113 53.111 53.138 53.156 53.173 53.208 53.223 53.243 53.251 53.286 53.306 53.356 53.418 53.483 53.573 53.636 53.708 53.756 53.801 53.861 53.938 54.051 54.108 54.183 54.243 54.331 54.361 54.413 54.473 54.476 54.483 54.503 54.561 54.611 54.636 54.623 54.636 54.648 54.666 54.668 54.673 54.653 54.673 54.668 54.681 54.666 54.673 54.671 54.686 54.668 54.653 54.668 54.693 54.686 54.698 54.703 54.741 54.703 54.716 54.731 54.741 54.723 54.716 54.683 54.713 54.718 54.738 54.736 54.708 54.716 54.713 54.693 54.696 54.711 54.723 54.733 54.728 54.716 54.703 54.708 54.691 54.681 54.646 54.643 54.633 54.648 54.631 54.616 54.638 54.601 54.543 54.491 54.461 54.393 54.326 54.261 54.181 54.083 53.996 53.898
75.54 75.175 74.78 74.393 73.998 73.65 73.29 72.96 72.638 72.31 72.005 71.665 71.34 71.045 70.8 70.525 70.258 70.008 69.75 69.535 69.26 69.035 68.798 68.57 68.33 68.075 67.83 67.628 67.448 67.225 67.02 66.82 66.61 66.403 66.188 65.985 65.753 65.513 65.308 65.078 64.86 64.64 64.393 64.168 63.915 63.7 63.505 63.268 63.05 62.858 62.633 62.44 62.263 62.053 61.87 61.673 61.525 61.32 61.153 60.985 60.808 60.65 60.465 60.293 60.12 59.963 59.81 59.62 59.418 59.215 58.998 58.813 58.57 58.333 58.083 57.845 57.588 57.313 57.063 56.8 56.583 56.36 56.145 55.953 55.755 55.593 55.388 55.195 54.985 54.793 54.598 54.445 54.28 54.143 54.035 53.868 53.723 53.598 53.455 53.338 53.2 53.055 52.925 52.803 52.71 52.615 52.505 52.523 53.038 53.423 52.113 51.278 51.078 50.973 50.89 50.77 50.648 50.498 50.353 50.193 50.023 49.838 49.665 49.488 49.29 49.13 48.975 48.808 48.615 48.475 48.29 48.123 47.958 47.758 47.59 47.4 47.24 47.03 46.845 46.678 46.515 46.333 46.158 45.958 45.795 45.605 45.403 45.208 45.023 44.823 44.635 44.453 44.255 44.078 43.893 43.718 43.53 43.358 43.203 43.033 42.87 42.72 42.57 42.408 42.255 42.118 41.975 41.838 41.703 41.6 41.478 41.333 41.223 41.115 41.015 40.92 40.86 40.795 40.753 40.698 40.64 40.593 40.568 40.545 40.518 40.505 40.493 40.47 40.44 40.448 40.445 40.473 40.535 40.57 40.631 40.708 40.781 40.873 41.003 41.146 41.306 41.456 41.621 41.818 42.021 42.216 44.426 45.556 47.451 46.248 45.596 45.518 45.463 45.401 45.348 45.316 45.311 45.313 45.251 45.181 45.141 45.156 45.203 45.158 45.153 45.121 45.148 45.126 45.108 45.073 45.043 45.018 45.001 44.993 44.993 44.991 44.996 44.968 44.973 44.976 45.023 45.088 45.111 45.148 45.198 45.226 45.266 45.323 45.428 45.468 45.578 45.656 45.763 45.926 45.986 46.153 46.311 46.521 46.668 46.836 47.021 47.246 47.443 47.661 47.868 48.046 48.251 48.496 48.756 48.991 49.281 49.543 49.821 50.061 50.351 50.598 50.861 51.078 51.316 51.521 51.798 52.036 52.246 52.456 52.843 54.706 53.688 53.131 53.306 53.488 53.583 53.671 53.708 53.788 53.833 53.873 53.971 54.051 54.121 54.121 54.128 54.176 54.261 54.301 54.321 54.526 54.751 53.756 54.123 55.118 54.551 54.331 53.526 53.501 53.446 53.363 53.268 53.208 53.168 53.081 53.013 52.976 52.926 52.898 52.866 52.828 52.826 52.816 52.833 52.821 52.853 52.863 52.901 52.891 52.923 52.953 52.993 53.016 53.038 53.123 53.201 53.281 53.343 53.418 53.473 53.508 53.581 53.661 53.763 53.831 53.871 53.953 54.036 54.081 54.151 54.196 54.211 54.216 54.286 54.333 54.326 54.356 54.366 54.358 54.393 54.376 54.366 54.383 54.388 54.391 54.376 54.398 54.398 54.383 54.366 54.386 54.391 54.368 54.371 54.386 54.393 54.393 54.406 54.416 54.408 54.418 54.418 54.426 54.416 54.388 54.383 54.396 54.426 54.421 54.426 54.401 54.393 54.393 54.383 54.378 54.413 54.423 54.411 54.408 54.421 54.381 54.388 54.353 54.348 54.311 54.311 54.313 54.293 54.288 54.263 54.281 54.293 54.216 54.176 54.138 54.093 54.036 53.991 53.918 53.831 53.741 53.668
75.695 75.298 74.905 74.515 74.113 73.758 73.398 73.038 72.68 72.385 72.078 71.705 71.398 71.09 70.838 70.563 70.275 70.003 69.778 69.565 69.28 69.068 68.83 68.613 68.36 68.115 67.888 67.675 67.485 67.293 67.11 66.888 66.698 66.49 66.285 66.063 65.848 65.628 65.398 65.19 64.96 64.72 64.493 64.268 64.048 63.813 63.62 63.39 63.158 62.95 62.73 62.553 62.348 62.133 61.948 61.773 61.598 61.413 61.263 61.075 60.918 60.723 60.585 60.39 60.243 60.07 59.915 59.735 59.528 59.34 59.143 58.958 58.713 58.48 58.228 57.993 57.76 57.48 57.223 56.988 56.748 56.545 56.348 56.158 55.968 55.783 55.593 55.41 55.193 54.985 54.818 54.638 54.46 54.36 54.225 54.048 53.893 53.738 53.6 53.49 53.38 53.24 53.098 52.988 52.845 52.738 52.64 52.538 52.475 52.403 53.12 52.798 52.133 51.175 51.015 50.908 50.803 50.67 50.578 50.42 50.235 50.058 49.88 49.705 49.515 49.325 49.168 48.998 48.83 48.67 48.495 48.298 48.12 47.963 47.745 47.548 47.403 47.203 47.018 46.833 46.66 46.478 46.278 46.095 45.91 45.72 45.535 45.323 45.135 44.925 44.743 44.553 44.358 44.188 43.983 43.805 43.625 43.445 43.283 43.143 42.96 42.788 42.64 42.475 42.323 42.158 42.008 41.88 41.73 41.623 41.49 41.36 41.225 41.103 41 40.905 40.813 40.758 40.698 40.648 40.598 40.54 40.49 40.47 40.443 40.42 40.408 40.395 40.35 40.345 40.348 40.36 40.373 40.423 40.466 40.528 40.593 40.678 40.788 40.903 41.038 41.191 41.343 41.528 41.688 41.921 43.188 43.741 46.023 46.986 45.306 45.186 45.143 45.068 44.966 44.988 44.928 44.921 44.893 44.873 44.786 44.826 44.851 44.813 44.796 44.796 44.796 44.786 44.798 44.756 44.728 44.706 44.701 44.671 44.701 44.686 44.653 44.668 44.658 44.711 44.746 44.808 44.836 44.896 44.951 45.013 45.043 45.093 45.166 45.251 45.366 45.443 45.523 45.663 45.806 45.983 46.133 46.331 46.473 46.661 46.871 47.073 47.278 47.468 47.661 47.858 48.093 48.293 48.581 48.841 49.121 49.356 49.638 49.878 50.158 50.386 50.713 50.856 51.123 51.313 51.573 51.796 51.996 52.206 52.608 53.356 52.756 52.868 52.963 53.093 53.231 53.336 53.361 53.426 53.541 53.586 53.703 53.778 53.826 53.813 53.841 53.878 53.936 53.948 54.018 55.096 56.368 53.323 54.528 54.523 53.406 53.251 53.216 53.178 53.081 52.993 52.918 52.868 52.778 52.716 52.693 52.648 52.608 52.573 52.523 52.501 52.493 52.481 52.526 52.531 52.573 52.558 52.583 52.578 52.603 52.631 52.683 52.736 52.753 52.811 52.918 52.983 53.058 53.108 53.166 53.231 53.291 53.381 53.466 53.573 53.606 53.696 53.768 53.818 53.878 53.926 53.928 53.953 54.001 54.048 54.048 54.071 54.098 54.096 54.108 54.108 54.098 54.121 54.108 54.108 54.111 54.128 54.131 54.083 54.071 54.101 54.086 54.073 54.073 54.083 54.106 54.121 54.116 54.113 54.101 54.091 54.096 54.116 54.111 54.081 54.076 54.093 54.111 54.111 54.126 54.116 54.078 54.091 54.086 54.073 54.093 54.108 54.103 54.118 54.118 54.081 54.073 54.048 54.001 53.981 53.956 53.971 53.961 53.943 53.933 53.931 53.946 53.893 53.853 53.823 53.811 53.748 53.698 53.658 53.608 53.586 53.546
75.798 75.413 75.008 74.628 74.23 73.883 73.493 73.103 72.768 72.438 72.103 71.755 71.445 71.115 70.83 70.57 70.293 70.02 69.765 69.553 69.295 69.068 68.838 68.625 68.39 68.145 67.928 67.728 67.54 67.333 67.143 66.935 66.735 66.543 66.35 66.105 65.918 65.69 65.478 65.258 65.05 64.805 64.603 64.373 64.15 63.923 63.718 63.488 63.253 63.035 62.82 62.63 62.445 62.225 62.023 61.848 61.675 61.515 61.34 61.158 60.99 60.805 60.675 60.505 60.325 60.173 60.028 59.843 59.633 59.47 59.293 59.088 58.86 58.633 58.38 58.125 57.915 57.658 57.413 57.168 56.94 56.738 56.543 56.355 56.17 56.003 55.818 55.635 55.433 55.24 55.065 54.85 54.705 54.563 54.385 54.255 54.095 53.95 53.8 53.665 53.518 53.403 53.275 53.16 53.033 52.915 52.775 52.66 52.58 52.48 52.365 52.293 52.825 53.143 52.23 51.22 50.93 50.855 50.743 50.605 50.455 50.293 50.105 49.933 49.735 49.55 49.37 49.19 49 48.86 48.665 48.503 48.31 48.128 47.92 47.755 47.56 47.368 47.195 46.995 46.84 46.63 46.425 46.253 46.043 45.84 45.66 45.46 45.27 45.05 44.863 44.648 44.46 44.27 44.103 43.908 43.725 43.543 43.363 43.213 43.033 42.883 42.713 42.54 42.368 42.22 42.073 41.928 41.775 41.625 41.5 41.375 41.25 41.12 40.983 40.895 40.8 40.73 40.65 40.595 40.53 40.493 40.438 40.395 40.358 40.323 40.323 40.308 40.303 40.268 40.265 40.263 40.27 40.268 40.313 40.366 40.403 40.481 40.566 40.663 40.778 40.923 41.086 41.233 41.398 41.633 42.838 44.041 45.436 46.366 45.083 44.811 44.721 44.688 44.663 44.633 44.553 44.546 44.503 44.463 44.456 44.513 44.488 44.481 44.456 44.441 44.446 44.461 44.473 44.423 44.418 44.403 44.398 44.381 44.396 44.368 44.388 44.386 44.376 44.403 44.448 44.526 44.593 44.641 44.676 44.743 44.783 44.863 44.928 45.006 45.133 45.226 45.351 45.456 45.611 45.776 45.961 46.153 46.276 46.478 46.683 46.913 47.151 47.338 47.518 47.701 47.903 48.153 48.401 48.648 48.906 49.183 49.443 49.688 49.926 50.166 50.411 50.671 50.906 51.116 51.376 51.553 51.771 51.971 52.153 52.546 52.463 52.583 52.658 52.746 52.866 52.968 53.061 53.141 53.211 53.278 53.393 53.476 53.518 53.531 53.531 53.541 53.603 53.666 53.756 54.596 53.383 52.913 54.941 55.948 53.041 52.946 52.898 52.833 52.748 52.646 52.583 52.538 52.463 52.388 52.353 52.323 52.288 52.246 52.201 52.186 52.186 52.173 52.216 52.258 52.261 52.261 52.281 52.263 52.281 52.323 52.366 52.418 52.473 52.533 52.623 52.681 52.766 52.846 52.886 52.946 53.028 53.098 53.173 53.283 53.343 53.416 53.498 53.566 53.628 53.661 53.666 53.686 53.761 53.786 53.783 53.806 53.858 53.851 53.833 53.841 53.823 53.841 53.836 53.821 53.833 53.831 53.846 53.803 53.781 53.796 53.758 53.773 53.791 53.818 53.798 53.823 53.811 53.818 53.816 53.803 53.851 53.826 53.811 53.768 53.796 53.808 53.808 53.813 53.841 53.806 53.778 53.781 53.768 53.781 53.801 53.796 53.793 53.803 53.821 53.783 53.753 53.731 53.711 53.678 53.673 53.666 53.651 53.626 53.621 53.598 53.601 53.601 53.568 53.516 53.476 53.461 53.458 53.456 53.463 53.501 53.821
75.875 75.495 75.103 74.715 74.325 73.933 73.553 73.17 72.818 72.488 72.113 71.785 71.44 71.133 70.835 70.543 70.285 69.985 69.76 69.528 69.26 69.04 68.813 68.6 68.368 68.138 67.933 67.738 67.533 67.348 67.15 66.948 66.75 66.55 66.378 66.158 65.928 65.73 65.518 65.3 65.1 64.885 64.663 64.453 64.243 63.99 63.79 63.568 63.33 63.105 62.885 62.703 62.49 62.293 62.1 61.925 61.76 61.598 61.398 61.238 61.045 60.898 60.75 60.595 60.438 60.273 60.138 59.955 59.765 59.598 59.408 59.215 59.008 58.785 58.535 58.32 58.073 57.838 57.585 57.373 57.148 56.943 56.768 56.588 56.408 56.218 56.045 55.85 55.663 55.46 55.293 55.1 54.96 54.79 54.635 54.458 54.28 54.15 54.018 53.86 53.738 53.608 53.455 53.33 53.228 53.11 52.988 52.84 52.71 52.615 52.503 52.415 52.285 52.258 52.528 53.05 52.385 51.31 50.855 50.758 50.603 50.475 50.295 50.125 49.94 49.77 49.588 49.4 49.228 49.038 48.86 48.668 48.495 48.288 48.108 47.908 47.723 47.545 47.37 47.178 46.998 46.798 46.598 46.393 46.19 45.97 45.788 45.588 45.383 45.163 44.963 44.775 44.59 44.368 44.195 44.008 43.813 43.658 43.473 43.29 43.13 42.945 42.79 42.643 42.458 42.29 42.1 41.98 41.84 41.678 41.523 41.39 41.253 41.13 40.99 40.883 40.788 40.705 40.615 40.553 40.508 40.448 40.383 40.358 40.293 40.263 40.233 40.218 40.218 40.188 40.178 40.175 40.16 40.155 40.181 40.208 40.256 40.286 40.366 40.473 40.563 40.656 40.791 40.943 41.133 41.328 41.566 43.146 44.031 45.371 45.058 44.501 44.408 44.333 44.298 44.256 44.238 44.161 44.138 44.121 44.118 44.108 44.131 44.141 44.096 44.106 44.123 44.126 44.113 44.091 44.096 44.083 44.103 44.091 44.093 44.073 44.086 44.108 44.083 44.153 44.191 44.243 44.308 44.341 44.436 44.481 44.521 44.626 44.701 44.811 44.911 45.041 45.156 45.281 45.431 45.643 45.746 45.948 46.121 46.336 46.518 46.763 46.966 47.158 47.393 47.526 47.741 47.998 48.218 48.491 48.773 48.998 49.271 49.541 49.721 49.946 50.196 50.446 50.651 50.891 51.128 51.316 51.498 51.716 51.906 52.238 52.163 52.258 52.356 52.456 52.563 52.656 52.701 52.793 52.876 52.978 53.086 53.176 53.161 53.206 53.241 53.266 53.293 53.346 54.053 53.836 53.848 54.793 55.923 53.611 52.683 52.603 52.566 52.536 52.423 52.331 52.248 52.201 52.133 52.073 52.008 52.001 51.948 51.923 51.888 51.886 51.861 51.883 51.896 51.971 51.961 51.951 51.966 51.973 51.988 52.048 52.068 52.111 52.198 52.256 52.348 52.418 52.466 52.551 52.596 52.648 52.763 52.848 52.923 53.003 53.108 53.161 53.243 53.328 53.361 53.391 53.388 53.443 53.488 53.518 53.541 53.536 53.583 53.588 53.581 53.573 53.593 53.596 53.568 53.578 53.563 53.548 53.556 53.528 53.508 53.518 53.483 53.501 53.511 53.508 53.533 53.528 53.538 53.493 53.546 53.531 53.546 53.546 53.508 53.473 53.496 53.516 53.511 53.513 53.523 53.533 53.486 53.488 53.486 53.498 53.511 53.498 53.486 53.486 53.498 53.471 53.436 53.418 53.401 53.403 53.356 53.338 53.353 53.341 53.323 53.293 53.273 53.268 53.256 53.261 53.278 53.301 53.323 53.848 54.148 54.396 53.743
75.915 75.533 75.15 74.76 74.348 73.965 73.578 73.183 72.828 72.49 72.123 71.78 71.445 71.12 70.823 70.508 70.228 69.98 69.748 69.48 69.235 69.008 68.77 68.575 68.355 68.125 67.913 67.713 67.533 67.335 67.145 66.95 66.74 66.548 66.38 66.135 65.923 65.758 65.543 65.315 65.13 64.915 64.695 64.495 64.283 64.065 63.83 63.615 63.373 63.16 62.953 62.78 62.568 62.38 62.178 62.013 61.845 61.678 61.495 61.31 61.133 60.98 60.845 60.675 60.508 60.383 60.235 60.07 59.893 59.723 59.565 59.358 59.163 58.938 58.713 58.465 58.225 58.015 57.768 57.563 57.353 57.15 56.973 56.793 56.645 56.43 56.3 56.078 55.903 55.718 55.525 55.348 55.215 55.02 54.893 54.723 54.523 54.388 54.235 54.075 53.958 53.815 53.668 53.525 53.4 53.253 53.14 53.04 52.885 52.77 52.663 52.543 52.425 52.295 52.205 52.163 52.5 53.023 52.503 51.245 50.873 50.568 50.428 50.29 50.138 49.963 49.798 49.625 49.445 49.26 49.063 48.89 48.685 48.493 48.265 48.065 47.893 47.695 47.52 47.34 47.145 46.963 46.768 46.57 46.365 46.153 45.908 45.735 45.51 45.31 45.085 44.885 44.688 44.483 44.28 44.1 43.915 43.738 43.555 43.395 43.225 43.05 42.87 42.7 42.52 42.368 42.203 42.05 41.888 41.725 41.573 41.423 41.268 41.145 41.018 40.895 40.805 40.69 40.6 40.533 40.463 40.398 40.34 40.3 40.26 40.223 40.188 40.163 40.138 40.108 40.085 40.07 40.098 40.09 40.081 40.101 40.131 40.181 40.213 40.273 40.366 40.446 40.561 40.691 40.836 41.023 41.213 44.268 43.426 44.661 45.208 44.171 44.068 44.008 43.976 43.916 43.868 43.816 43.818 43.781 43.733 43.746 43.768 43.786 43.768 43.773 43.773 43.853 43.773 43.788 43.808 43.773 43.776 43.776 43.788 43.791 43.813 43.806 43.821 43.891 43.943 43.968 44.038 44.128 44.171 44.221 44.298 44.383 44.496 44.616 44.713 44.816 44.946 45.066 45.261 45.458 45.661 45.851 45.961 46.176 46.366 46.573 46.803 46.963 47.156 47.376 47.581 47.828 48.078 48.336 48.548 48.793 49.083 49.348 49.533 49.736 49.988 50.238 50.421 50.673 50.881 51.066 51.273 51.423 51.651 51.768 51.846 51.951 52.073 52.161 52.298 52.318 52.391 52.463 52.513 52.633 52.723 52.821 52.831 52.826 52.843 52.933 53.013 53.091 53.823 54.386 52.103 54.463 54.371 52.398 52.383 52.276 52.243 52.203 52.103 51.993 51.931 51.876 51.803 51.738 51.693 51.663 51.628 51.583 51.563 51.558 51.546 51.568 51.621 51.658 51.671 51.691 51.693 51.698 51.731 51.738 51.793 51.843 51.906 51.981 52.063 52.158 52.191 52.248 52.321 52.408 52.493 52.588 52.643 52.728 52.853 52.906 52.978 53.041 53.096 53.113 53.133 53.196 53.273 53.281 53.283 53.286 53.328 53.343 53.316 53.318 53.326 53.318 53.316 53.278 53.276 53.281 53.258 53.263 53.238 53.241 53.216 53.226 53.233 53.231 53.258 53.256 53.253 53.221 53.241 53.256 53.268 53.263 53.211 53.213 53.196 53.233 53.228 53.248 53.241 53.246 53.223 53.191 53.201 53.196 53.201 53.196 53.171 53.181 53.178 53.186 53.141 53.096 53.096 53.093 53.071 53.071 53.086 53.053 53.028 53.001 53.021 53.028 53.066 53.096 53.306 53.598 54.058 53.763 52.956 52.591 52.243
75.935 75.543 75.165 74.735 74.35 73.948 73.548 73.178 72.815 72.453 72.103 71.74 71.403 71.093 70.8 70.468 70.19 69.918 69.69 69.423 69.19 68.953 68.735 68.505 68.298 68.08 67.853 67.66 67.48 67.29 67.098 66.895 66.718 66.523 66.33 66.11 65.925 65.743 65.535 65.318 65.123 64.905 64.71 64.518 64.29 64.088 63.868 63.658 63.43 63.225 63.028 62.828 62.615 62.438 62.243 62.065 61.895 61.738 61.565 61.383 61.22 61.083 60.933 60.773 60.608 60.478 60.358 60.173 60.008 59.85 59.68 59.483 59.293 59.075 58.848 58.653 58.42 58.195 57.96 57.753 57.545 57.37 57.193 57.003 56.873 56.673 56.523 56.335 56.155 55.948 55.798 55.618 55.47 55.283 55.143 54.975 54.82 54.675 54.513 54.323 54.188 54.033 53.898 53.758 53.61 53.47 53.318 53.183 53.073 52.958 52.838 52.715 52.57 52.445 52.325 52.22 52.095 52.003 52.268 52.595 52.39 51.15 50.773 50.41 50.29 50.143 49.98 49.813 49.655 49.478 49.293 49.073 48.863 48.67 48.465 48.255 48.048 47.88 47.693 47.51 47.313 47.113 46.92 46.72 46.518 46.308 46.09 45.845 45.63 45.43 45.203 45.005 44.783 44.593 44.403 44.208 43.998 43.828 43.65 43.465 43.32 43.14 42.96 42.775 42.61 42.438 42.268 42.105 41.945 41.783 41.638 41.458 41.298 41.183 41.033 40.905 40.798 40.71 40.588 40.52 40.418 40.353 40.303 40.26 40.213 40.17 40.12 40.098 40.083 40.038 40.015 39.993 39.995 39.985 40.008 40.018 40.036 40.073 40.106 40.133 40.191 40.248 40.346 40.451 40.558 40.726 40.908 43.878 43.698 45.286 44.718 43.843 43.733 43.668 43.558 43.533 43.521 43.478 43.451 43.418 43.433 43.413 43.458 43.416 43.441 43.491 43.486 43.491 43.471 43.503 43.488 43.476 43.506 43.491 43.508 43.533 43.533 43.533 43.541 43.633 43.726 43.743 43.813 43.858 43.928 44.001 44.056 44.163 44.253 44.373 44.468 44.623 44.748 44.871 45.063 45.218 45.443 45.623 45.793 45.968 46.221 46.431 46.626 46.823 47.001 47.176 47.421 47.671 47.913 48.161 48.391 48.653 48.898 49.131 49.328 49.563 49.826 49.981 50.163 50.401 50.636 50.791 50.963 51.128 51.408 51.458 51.566 51.656 51.768 51.848 51.946 52.001 52.068 52.158 52.198 52.288 52.371 52.423 52.461 52.496 52.521 52.576 52.663 53.153 53.801 52.593 52.303 54.401 52.873 52.103 52.036 51.996 51.966 51.883 51.786 51.681 51.631 51.561 51.528 51.448 51.408 51.348 51.313 51.278 51.281 51.258 51.251 51.288 51.331 51.371 51.406 51.413 51.441 51.443 51.476 51.516 51.526 51.593 51.653 51.721 51.798 51.888 51.946 52.026 52.071 52.153 52.233 52.326 52.406 52.491 52.606 52.688 52.721 52.786 52.841 52.853 52.886 52.956 53.033 53.021 53.013 53.056 53.078 53.108 53.061 53.053 53.066 53.066 53.073 53.031 53.003 53.001 53.003 53.001 52.981 52.956 52.946 52.941 52.946 52.971 52.976 52.981 52.966 52.951 52.936 52.961 52.976 52.971 52.903 52.911 52.913 52.946 52.963 52.936 52.938 52.931 52.943 52.878 52.906 52.898 52.913 52.908 52.888 52.903 52.891 52.891 52.876 52.836 52.821 52.826 52.831 52.808 52.818 52.821 52.846 52.873 52.901 53.071 53.371 53.438 56.473 56.096 52.658 52.046 51.903 51.868 51.908
75.908 75.548 75.14 74.725 74.31 73.913 73.543 73.14 72.768 72.405 72.043 71.695 71.333 71.035 70.735 70.405 70.108 69.848 69.615 69.358 69.113 68.865 68.668 68.43 68.23 67.985 67.783 67.61 67.41 67.21 67.03 66.853 66.653 66.463 66.26 66.068 65.858 65.673 65.478 65.275 65.075 64.883 64.705 64.5 64.288 64.095 63.893 63.675 63.44 63.255 63.053 62.873 62.665 62.48 62.303 62.095 61.968 61.8 61.64 61.47 61.288 61.168 60.998 60.853 60.698 60.578 60.45 60.278 60.138 59.988 59.825 59.615 59.45 59.248 59.03 58.8 58.598 58.373 58.165 57.945 57.77 57.595 57.4 57.253 57.098 56.92 56.755 56.583 56.405 56.213 56.065 55.888 55.723 55.54 55.415 55.253 55.105 54.953 54.778 54.615 54.45 54.303 54.135 53.995 53.823 53.678 53.545 53.4 53.25 53.115 52.993 52.895 52.793 52.615 52.485 52.348 52.225 52.083 51.953 51.848 51.958 52.275 52.185 51.255 50.405 50.24 50.108 49.96 49.843 49.655 49.49 49.285 49.083 48.855 48.645 48.428 48.228 48.04 47.84 47.66 47.468 47.278 47.085 46.848 46.643 46.443 46.235 46.005 45.788 45.558 45.33 45.135 44.915 44.71 44.5 44.298 44.103 43.918 43.77 43.57 43.368 43.208 43.053 42.873 42.693 42.528 42.348 42.19 42.023 41.848 41.68 41.518 41.378 41.213 41.078 40.945 40.813 40.69 40.595 40.508 40.42 40.335 40.255 40.215 40.165 40.13 40.073 40.048 40.015 39.998 39.943 39.918 39.895 39.9 39.906 39.928 39.951 39.971 39.986 40.023 40.058 40.101 40.146 40.241 40.338 40.458 40.603 41.838 45.016 44.978 44.723 43.701 43.423 43.328 43.223 43.191 43.166 43.146 43.116 43.101 43.108 43.093 43.121 43.141 43.123 43.121 43.143 43.176 43.156 43.168 43.186 43.186 43.208 43.218 43.206 43.236 43.268 43.231 43.293 43.383 43.471 43.503 43.591 43.633 43.726 43.746 43.821 43.916 44.026 44.121 44.273 44.396 44.566 44.708 44.873 45.028 45.246 45.438 45.636 45.828 46.086 46.253 46.453 46.626 46.816 47.016 47.273 47.506 47.746 48.001 48.253 48.533 48.718 48.928 49.128 49.341 49.561 49.791 49.943 50.161 50.373 50.563 50.718 50.866 51.076 51.133 51.281 51.371 51.458 51.543 51.628 51.711 51.813 51.828 51.883 51.983 52.076 52.123 52.118 52.121 52.193 52.211 52.428 53.098 53.093 51.733 53.018 53.708 51.828 51.793 51.743 51.706 51.646 51.578 51.486 51.373 51.323 51.261 51.243 51.161 51.118 51.073 51.023 50.996 50.961 50.951 50.958 50.991 51.046 51.103 51.151 51.196 51.228 51.241 51.268 51.296 51.326 51.381 51.421 51.508 51.553 51.638 51.678 51.753 51.841 51.921 51.993 52.068 52.151 52.233 52.338 52.431 52.471 52.546 52.593 52.591 52.611 52.731 52.771 52.786 52.778 52.796 52.796 52.841 52.843 52.816 52.808 52.783 52.796 52.763 52.748 52.733 52.726 52.756 52.736 52.698 52.711 52.696 52.691 52.698 52.706 52.698 52.681 52.678 52.661 52.676 52.681 52.678 52.641 52.643 52.656 52.663 52.671 52.663 52.636 52.648 52.663 52.626 52.638 52.621 52.621 52.623 52.603 52.626 52.626 52.621 52.606 52.583 52.571 52.583 52.616 52.646 52.661 52.711 52.816 53.343 53.561 53.566 52.816 52.346 53.193 53.741 51.691 51.708 51.731 51.793 51.826
75.853 75.483 75.068 74.643 74.248 73.848 73.465 73.08 72.693 72.308 71.945 71.603 71.27 70.968 70.65 70.323 70.04 69.765 69.525 69.253 69.02 68.765 68.565 68.338 68.12 67.898 67.7 67.505 67.318 67.14 66.943 66.763 66.565 66.383 66.18 65.973 65.78 65.615 65.415 65.22 65.033 64.813 64.65 64.443 64.248 64.06 63.868 63.678 63.46 63.258 63.078 62.9 62.715 62.518 62.333 62.18 62.023 61.87 61.693 61.525 61.363 61.26 61.075 60.928 60.81 60.685 60.56 60.39 60.258 60.103 59.955 59.765 59.588 59.388 59.183 58.97 58.76 58.548 58.343 58.173 57.973 57.795 57.63 57.478 57.323 57.16 56.99 56.795 56.65 56.488 56.333 56.168 56.013 55.848 55.695 55.543 55.39 55.223 55.06 54.878 54.723 54.59 54.408 54.275 54.075 53.915 53.763 53.59 53.488 53.335 53.173 53.023 52.935 52.783 52.66 52.523 52.36 52.2 52.085 51.948 51.798 51.643 51.63 51.678 51.95 51.47 50.44 50.058 49.905 49.795 49.643 49.45 49.288 49.055 48.833 48.62 48.405 48.203 48.015 47.82 47.625 47.42 47.223 47.008 46.815 46.598 46.378 46.153 45.93 45.7 45.475 45.268 45.038 44.815 44.618 44.403 44.21 44.028 43.833 43.65 43.468 43.313 43.128 42.953 42.765 42.585 42.423 42.25 42.068 41.903 41.73 41.568 41.418 41.265 41.09 40.955 40.82 40.72 40.61 40.503 40.4 40.305 40.223 40.16 40.138 40.098 40.035 39.973 39.95 39.913 39.868 39.858 39.835 39.83 39.821 39.836 39.851 39.873 39.898 39.913 39.938 39.958 40.001 40.063 40.161 40.241 40.311 40.443 41.533 44.083 44.601 43.781 43.026 42.956 42.863 42.868 42.788 42.831 42.766 42.761 42.728 42.773 42.778 42.796 42.831 42.821 42.866 42.871 42.853 42.876 42.888 42.878 42.913 42.928 42.943 42.963 43.003 42.996 43.053 43.171 43.218 43.256 43.331 43.431 43.458 43.503 43.616 43.701 43.813 43.953 44.073 44.176 44.328 44.491 44.676 44.876 45.071 45.251 45.438 45.656 45.918 46.118 46.263 46.466 46.666 46.873 47.108 47.356 47.591 47.863 48.066 48.326 48.548 48.773 48.933 49.143 49.373 49.528 49.753 49.936 50.093 50.258 50.423 50.583 50.803 50.841 50.961 51.041 51.156 51.236 51.321 51.376 51.463 51.531 51.573 51.691 51.758 51.793 51.806 51.853 51.886 52.053 52.333 53.593 51.951 51.443 53.761 52.291 51.543 51.438 51.443 51.446 51.373 51.268 51.173 51.083 51.028 50.976 50.928 50.863 50.813 50.778 50.716 50.696 50.673 50.648 50.663 50.713 50.781 50.826 50.881 50.956 51.016 51.048 51.071 51.098 51.146 51.183 51.223 51.296 51.336 51.408 51.468 51.533 51.596 51.673 51.753 51.838 51.896 51.983 52.076 52.186 52.228 52.301 52.331 52.351 52.386 52.513 52.536 52.528 52.523 52.541 52.551 52.571 52.581 52.571 52.553 52.528 52.523 52.508 52.491 52.488 52.468 52.483 52.483 52.443 52.433 52.453 52.421 52.426 52.436 52.418 52.398 52.391 52.393 52.386 52.386 52.383 52.346 52.373 52.388 52.396 52.401 52.406 52.368 52.358 52.366 52.373 52.368 52.381 52.358 52.361 52.341 52.356 52.378 52.388 52.376 52.406 52.406 52.438 52.498 52.591 52.938 53.133 53.258 52.943 52.348 51.781 51.653 51.648 51.618 51.576 51.618 51.638 51.673 51.838 52.456
75.743 75.368 74.925 74.535 74.163 73.745 73.365 72.955 72.59 72.223 71.848 71.495 71.16 70.855 70.558 70.225 69.933 69.655 69.413 69.158 68.91 68.668 68.445 68.22 67.99 67.795 67.568 67.38 67.193 67.008 66.833 66.643 66.463 66.28 66.045 65.898 65.683 65.493 65.325 65.125 64.935 64.723 64.54 64.36 64.198 64.005 63.83 63.625 63.433 63.253 63.08 62.898 62.723 62.535 62.37 62.208 62.048 61.9 61.748 61.583 61.45 61.318 61.15 61.018 60.893 60.775 60.648 60.505 60.373 60.233 60.093 59.903 59.733 59.518 59.343 59.115 58.925 58.748 58.545 58.355 58.18 57.998 57.853 57.698 57.525 57.405 57.238 57.07 56.898 56.763 56.598 56.433 56.283 56.13 55.97 55.828 55.683 55.523 55.345 55.17 55.033 54.88 54.7 54.548 54.343 54.205 53.983 53.853 53.7 53.56 53.4 53.26 53.11 52.953 52.82 52.678 52.53 52.345 52.205 52.045 51.87 51.753 51.593 51.438 51.405 51.743 51.933 51.3 50.235 49.865 49.73 49.578 49.42 49.218 49.025 48.825 48.583 48.38 48.178 47.97 47.778 47.585 47.39 47.17 46.945 46.738 46.53 46.29 46.068 45.845 45.63 45.398 45.193 44.963 44.723 44.523 44.35 44.135 43.943 43.743 43.565 43.408 43.218 43.038 42.845 42.67 42.493 42.315 42.153 41.973 41.793 41.618 41.46 41.3 41.14 40.99 40.868 40.735 40.628 40.505 40.41 40.3 40.205 40.148 40.08 40.04 40 39.925 39.883 39.86 39.82 39.803 39.778 39.755 39.758 39.766 39.773 39.773 39.786 39.803 39.818 39.841 39.861 39.921 39.973 40.046 40.118 40.191 40.611 44.011 43.626 44.746 42.681 42.578 42.523 42.583 42.458 42.438 42.411 42.421 42.456 42.441 42.493 42.486 42.506 42.556 42.521 42.561 42.556 42.573 42.588 42.608 42.633 42.656 42.678 42.711 42.743 42.723 42.808 42.898 42.988 43.056 43.136 43.178 43.221 43.323 43.403 43.498 43.628 43.748 43.911 44.063 44.156 44.298 44.486 44.673 44.886 45.053 45.241 45.523 45.726 45.921 46.101 46.301 46.496 46.721 46.943 47.198 47.398 47.646 47.908 48.131 48.346 48.558 48.731 48.973 49.156 49.318 49.483 49.676 49.841 49.978 50.116 50.326 50.503 50.561 50.676 50.706 50.806 50.893 50.986 51.063 51.128 51.203 51.286 51.411 51.448 51.446 51.463 51.548 51.613 51.706 52.401 53.038 51.418 52.278 54.813 52.171 51.178 51.146 51.141 51.131 51.066 50.941 50.863 50.811 50.778 50.701 50.631 50.606 50.511 50.493 50.453 50.413 50.371 50.358 50.348 50.426 50.406 50.473 50.593 50.691 50.803 50.886 50.908 50.936 50.933 50.996 51.038 51.101 51.176 51.213 51.286 51.331 51.391 51.476 51.518 51.603 51.678 51.761 51.846 51.948 52.001 52.056 52.076 52.108 52.161 52.256 52.301 52.298 52.303 52.318 52.318 52.318 52.353 52.333 52.323 52.311 52.283 52.276 52.251 52.243 52.236 52.241 52.236 52.191 52.176 52.171 52.168 52.156 52.136 52.128 52.126 52.101 52.123 52.101 52.113 52.091 52.076 52.096 52.123 52.136 52.123 52.131 52.103 52.093 52.103 52.136 52.126 52.136 52.126 52.126 52.126 52.158 52.203 52.213 52.253 52.273 52.608 52.896 53.278 53.341 52.681 51.963 51.641 51.448 51.443 51.478 51.436 51.416 51.436 51.481 51.598 51.968 52.618 53.013 53.138
75.6 75.235 74.803 74.408 74.008 73.635 73.238 72.813 72.47 72.123 71.738 71.408 71.063 70.735 70.405 70.095 69.798 69.525 69.263 69.028 68.765 68.538 68.295 68.103 67.855 67.648 67.438 67.26 67.07 66.885 66.708 66.528 66.333 66.153 65.93 65.753 65.583 65.378 65.2 65.013 64.81 64.635 64.44 64.268 64.11 63.925 63.758 63.568 63.403 63.223 63.073 62.893 62.718 62.53 62.363 62.23 62.088 61.943 61.778 61.625 61.495 61.363 61.223 61.115 60.978 60.888 60.733 60.61 60.473 60.348 60.218 60.045 59.878 59.688 59.503 59.288 59.085 58.92 58.755 58.57 58.383 58.225 58.05 57.938 57.763 57.635 57.485 57.333 57.17 57.03 56.868 56.715 56.57 56.42 56.258 56.128 55.96 55.79 55.618 55.475 55.335 55.138 54.963 54.823 54.653 54.503 54.29 54.155 53.958 53.75 53.595 53.445 53.33 53.168 53.008 52.845 52.655 52.533 52.348 52.183 51.998 51.845 51.685 51.538 51.388 51.223 51.113 51.703 51.745 51.418 50.168 49.65 49.463 49.318 49.15 48.968 48.77 48.57 48.343 48.145 47.948 47.745 47.533 47.315 47.088 46.865 46.653 46.433 46.19 45.983 45.77 45.54 45.34 45.123 44.878 44.66 44.435 44.245 44.045 43.855 43.663 43.47 43.298 43.125 42.928 42.765 42.575 42.405 42.23 42.04 41.87 41.673 41.518 41.363 41.2 41.045 40.898 40.768 40.648 40.52 40.408 40.315 40.2 40.108 40.043 39.988 39.935 39.875 39.835 39.793 39.738 39.72 39.698 39.67 39.686 39.676 39.676 39.673 39.686 39.681 39.678 39.693 39.723 39.756 39.798 39.868 39.926 39.958 40.711 43.231 42.916 42.631 42.396 42.266 42.193 42.133 42.116 42.121 42.078 42.123 42.081 42.121 42.108 42.183 42.201 42.196 42.243 42.246 42.266 42.306 42.331 42.326 42.361 42.381 42.401 42.433 42.493 42.481 42.558 42.743 42.811 42.833 42.853 42.908 42.978 43.118 43.213 43.318 43.436 43.528 43.681 43.801 43.983 44.143 44.301 44.488 44.668 44.901 45.113 45.333 45.548 45.741 45.928 46.111 46.306 46.523 46.783 47.028 47.256 47.458 47.743 47.956 48.166 48.361 48.541 48.738 48.893 49.053 49.243 49.421 49.581 49.698 49.883 50.103 50.181 50.241 50.368 50.423 50.518 50.588 50.691 50.728 50.806 50.871 50.963 51.073 51.116 51.136 51.136 51.231 51.283 51.383 52.443 52.463 50.661 53.193 51.411 50.918 50.846 50.856 50.866 50.808 50.743 50.648 50.558 50.508 50.473 50.383 50.371 50.333 50.226 50.181 50.156 50.111 50.078 50.051 50.043 50.053 50.043 51.176 51.258 51.483 51.126 51.118 50.906 50.806 50.806 50.828 50.893 50.936 51.001 51.031 51.128 51.173 51.246 51.303 51.353 51.411 51.458 51.556 51.611 51.718 51.768 51.826 51.831 51.883 51.946 52.031 52.063 52.063 52.078 52.083 52.081 52.073 52.108 52.108 52.071 52.066 52.041 52.031 52.018 52.001 51.983 51.991 51.981 51.953 51.933 51.913 51.908 51.888 51.888 51.873 51.861 51.858 51.838 51.843 51.831 51.838 51.808 51.828 51.878 51.868 51.873 51.881 51.871 51.853 51.848 51.873 51.896 51.903 51.931 51.986 52.003 52.011 52.121 52.446 52.773 52.421 52.403 52.076 51.743 51.353 51.261 51.236 51.258 51.298 51.253 51.233 51.261 51.331 51.566 52.008 52.496 52.891 51.268 52.101 52.508
75.395 75.06 74.648 74.253 73.838 73.465 73.085 72.663 72.323 71.973 71.563 71.238 70.913 70.613 70.273 69.955 69.648 69.375 69.108 68.87 68.605 68.39 68.138 67.935 67.728 67.508 67.3 67.105 66.925 66.735 66.568 66.36 66.205 65.988 65.79 65.603 65.43 65.245 65.05 64.888 64.683 64.493 64.33 64.15 63.968 63.84 63.668 63.488 63.313 63.16 63.028 62.843 62.695 62.528 62.363 62.228 62.085 61.978 61.82 61.663 61.533 61.423 61.26 61.18 61.035 60.935 60.795 60.713 60.565 60.463 60.32 60.17 60.018 59.835 59.643 59.45 59.27 59.118 58.94 58.78 58.585 58.45 58.29 58.15 57.995 57.868 57.723 57.568 57.403 57.298 57.14 56.983 56.855 56.715 56.548 56.398 56.245 56.09 55.928 55.763 55.613 55.425 55.255 55.12 54.933 54.765 54.56 54.4 54.215 54.01 53.838 53.658 53.52 53.34 53.193 53.028 52.86 52.67 52.52 52.355 52.173 52.01 51.823 51.65 51.493 51.348 51.193 51.013 51.028 51.313 51.738 50.908 49.935 49.423 49.24 49.06 48.893 48.708 48.523 48.313 48.088 47.903 47.68 47.468 47.258 47.035 46.798 46.57 46.338 46.125 45.888 45.69 45.448 45.248 45.043 44.82 44.59 44.368 44.173 43.983 43.783 43.585 43.36 43.21 43.03 42.853 42.668 42.478 42.3 42.113 41.925 41.743 41.578 41.408 41.245 41.078 40.908 40.803 40.668 40.558 40.403 40.315 40.195 40.108 40.013 39.953 39.888 39.828 39.763 39.723 39.673 39.655 39.59 39.578 39.576 39.606 39.606 39.588 39.583 39.583 39.563 39.578 39.588 39.618 39.638 39.696 39.743 39.761 40.113 42.228 44.643 42.583 42.213 41.956 41.848 41.828 41.801 41.786 41.741 41.738 41.753 41.798 41.801 41.848 41.888 41.871 41.938 41.971 41.976 42.016 42.028 42.051 42.086 42.101 42.151 42.181 42.291 42.238 42.323 42.436 42.526 42.571 42.616 42.688 42.771 42.911 43.026 43.118 43.216 43.346 43.463 43.626 43.776 43.958 44.141 44.356 44.531 44.748 44.888 45.143 45.343 45.546 45.718 45.923 46.131 46.386 46.618 46.853 47.078 47.306 47.551 47.766 47.963 48.163 48.341 48.548 48.706 48.856 49.026 49.188 49.358 49.508 49.596 49.758 49.841 49.946 50.068 50.131 50.223 50.281 50.343 50.401 50.466 50.541 50.671 50.736 50.761 50.788 50.816 50.898 50.946 51.163 51.788 50.683 51.053 53.773 52.136 50.676 50.571 50.586 50.571 50.493 50.423 50.388 50.281 50.231 50.173 50.111 50.083 50.043 49.968 49.888 49.851 49.813 49.783 49.753 49.746 49.723 50.323 50.631 50.193 50.541 50.711 51.088 51.381 50.421 50.556 50.606 50.781 50.796 50.881 50.926 50.996 51.043 51.121 51.148 51.181 51.246 51.293 51.378 51.461 51.531 51.608 51.621 51.623 51.668 51.728 51.788 51.818 51.841 51.841 51.861 51.868 51.866 51.828 51.861 51.858 51.833 51.821 51.811 51.796 51.768 51.753 51.748 51.716 51.716 51.668 51.668 51.661 51.651 51.618 51.616 51.598 51.618 51.606 51.588 51.553 51.543 51.578 51.578 51.618 51.638 51.658 51.651 51.631 51.636 51.648 51.678 51.738 51.791 51.851 52.031 52.531 52.606 52.488 52.031 51.571 51.256 51.453 51.366 51.006 51.026 51.051 51.018 51.008 51.046 51.123 51.288 51.751 52.246 52.283 52.483 51.513 50.826 50.468 49.583 49.503
75.213 74.845 74.478 74.063 73.665 73.295 72.903 72.475 72.16 71.785 71.405 71.073 70.74 70.41 70.08 69.793 69.505 69.193 68.948 68.698 68.46 68.223 68.003 67.768 67.565 67.33 67.138 66.943 66.75 66.58 66.413 66.215 66.028 65.843 65.633 65.43 65.248 65.065 64.9 64.725 64.535 64.355 64.175 64.025 63.835 63.71 63.545 63.388 63.215 63.07 62.945 62.788 62.633 62.485 62.335 62.188 62.075 61.96 61.81 61.698 61.568 61.45 61.303 61.228 61.11 61.01 60.868 60.798 60.668 60.565 60.438 60.293 60.15 59.98 59.81 59.625 59.465 59.29 59.14 58.975 58.833 58.665 58.513 58.383 58.245 58.115 57.95 57.835 57.673 57.55 57.413 57.253 57.125 56.988 56.853 56.683 56.518 56.368 56.21 56.043 55.878 55.705 55.558 55.403 55.225 55.043 54.828 54.673 54.483 54.28 54.095 53.923 53.773 53.548 53.385 53.195 53.038 52.865 52.673 52.505 52.33 52.138 51.96 51.8 51.623 51.465 51.283 51.113 50.953 50.803 50.695 51.203 51.493 51.028 49.64 49.255 48.97 48.805 48.633 48.44 48.255 48.043 47.858 47.62 47.403 47.183 46.958 46.72 46.485 46.253 46.038 45.813 45.58 45.383 45.165 44.953 44.748 44.523 44.32 44.105 43.895 43.688 43.485 43.298 43.1 42.913 42.765 42.555 42.373 42.158 41.983 41.825 41.64 41.47 41.293 41.115 40.968 40.823 40.69 40.575 40.45 40.303 40.183 40.108 39.995 39.918 39.85 39.785 39.7 39.67 39.623 39.598 39.53 39.52 39.511 39.543 39.521 39.506 39.483 39.503 39.463 39.476 39.458 39.481 39.483 39.536 39.568 39.578 39.588 41.328 42.266 42.178 42.311 41.598 41.558 41.521 41.463 41.441 41.431 41.433 41.461 41.496 41.528 41.551 41.568 41.608 41.641 41.673 41.708 41.726 41.746 41.776 41.823 41.846 41.871 41.941 41.968 42.013 42.088 42.188 42.323 42.398 42.426 42.463 42.553 42.653 42.766 42.903 43.016 43.153 43.291 43.446 43.598 43.761 43.941 44.161 44.336 44.556 44.766 44.981 45.181 45.366 45.551 45.746 45.928 46.146 46.418 46.691 46.921 47.143 47.363 47.603 47.761 47.948 48.133 48.353 48.461 48.618 48.806 48.951 49.091 49.223 49.326 49.501 49.556 49.653 49.768 49.838 49.923 49.998 50.036 50.101 50.186 50.251 50.351 50.386 50.436 50.448 50.468 50.563 50.588 50.828 51.506 50.053 52.763 54.051 51.546 50.341 50.298 50.333 50.268 50.198 50.126 50.063 49.986 49.941 49.858 49.811 49.796 49.751 49.696 49.603 49.561 49.528 49.481 49.428 49.441 49.496 50.103 50.003 49.918 49.661 49.723 50.588 51.551 50.228 49.971 50.138 50.381 51.301 51.423 51.321 50.931 51.028 50.998 51.021 51.086 51.143 51.186 51.253 51.293 51.356 51.408 51.466 51.476 51.506 51.563 51.601 51.643 51.656 51.656 51.661 51.661 51.651 51.621 51.648 51.623 51.608 51.586 51.566 51.528 51.508 51.488 51.491 51.458 51.458 51.443 51.416 51.426 51.383 51.373 51.353 51.361 51.376 51.368 51.361 51.341 51.313 51.351 51.368 51.401 51.413 51.451 51.481 51.501 51.566 51.601 51.806 52.111 52.378 52.408 52.173 51.456 51.108 50.951 50.811 50.738 50.841 51.173 50.906 50.761 50.778 50.833 50.906 51.061 51.421 51.891 52.071 52.031 51.443 50.223 49.393 49.338 49.241 49.276 49.301 49.243
74.985 74.623 74.225 73.84 73.423 73.063 72.675 72.285 71.978 71.598 71.218 70.868 70.525 70.23 69.885 69.608 69.305 69.038 68.758 68.495 68.27 68.048 67.82 67.57 67.368 67.15 66.948 66.763 66.575 66.378 66.205 66.04 65.845 65.645 65.45 65.265 65.078 64.91 64.723 64.568 64.365 64.185 64.045 63.878 63.705 63.53 63.405 63.253 63.11 62.985 62.82 62.698 62.58 62.423 62.293 62.168 62.033 61.943 61.8 61.685 61.575 61.47 61.358 61.25 61.168 61.068 60.935 60.88 60.77 60.66 60.543 60.415 60.253 60.118 59.975 59.808 59.625 59.48 59.343 59.178 59.033 58.89 58.743 58.62 58.485 58.368 58.22 58.103 57.935 57.818 57.66 57.513 57.408 57.283 57.115 57.003 56.82 56.653 56.503 56.33 56.17 55.993 55.84 55.678 55.503 55.303 55.103 54.92 54.73 54.535 54.348 54.195 54.015 53.8 53.615 53.425 53.225 53.038 52.868 52.663 52.46 52.265 52.103 51.935 51.763 51.62 51.418 51.233 51.053 50.895 50.743 50.55 50.578 51.015 51.438 50.843 49.565 48.973 48.713 48.55 48.383 48.193 48.008 47.783 47.553 47.328 47.103 46.89 46.648 46.43 46.185 45.945 45.718 45.503 45.295 45.083 44.87 44.673 44.435 44.23 44.033 43.828 43.615 43.428 43.215 43.028 42.84 42.643 42.45 42.263 42.063 41.86 41.705 41.53 41.355 41.168 41.025 40.878 40.728 40.6 40.455 40.333 40.195 40.09 40 39.918 39.843 39.75 39.673 39.615 39.553 39.513 39.49 39.455 39.446 39.436 39.438 39.418 39.383 39.366 39.373 39.356 39.316 39.346 39.328 39.356 39.396 39.393 39.423 40.703 42.708 42.676 42.523 41.386 41.278 41.223 41.178 41.163 41.118 41.148 41.153 41.168 41.221 41.256 41.281 41.278 41.373 41.368 41.423 41.468 41.481 41.513 41.551 41.606 41.651 41.706 41.713 41.781 41.881 42.021 42.086 42.161 42.198 42.278 42.391 42.456 42.576 42.718 42.828 42.971 43.056 43.243 43.438 43.578 43.786 43.993 44.153 44.366 44.608 44.856 44.986 45.166 45.371 45.548 45.801 45.993 46.266 46.503 46.736 46.998 47.213 47.363 47.566 47.731 47.943 48.078 48.236 48.406 48.581 48.713 48.843 48.978 49.068 49.218 49.263 49.413 49.446 49.528 49.626 49.703 49.761 49.816 49.891 49.956 50.041 50.073 50.083 50.116 50.156 50.206 50.266 51.088 50.861 49.906 52.273 50.906 50.158 50.063 50.043 50.031 50.033 49.921 49.806 49.746 49.701 49.641 49.573 49.536 49.481 49.451 49.396 49.336 49.268 49.231 49.168 49.108 49.193 49.248 50.343 50.881 50.776 49.383 49.413 50.013 50.058 51.266 49.641 49.913 50.193 50.241 50.896 50.688 50.753 51.921 51.131 51.526 51.643 51.298 51.106 51.158 51.208 51.243 51.321 51.348 51.343 51.363 51.411 51.418 51.448 51.438 51.461 51.483 51.483 51.458 51.431 51.446 51.428 51.386 51.358 51.333 51.316 51.283 51.281 51.256 51.233 51.241 51.211 51.178 51.181 51.171 51.136 51.131 51.156 51.161 51.146 51.153 51.128 51.111 51.153 51.213 51.263 51.313 51.453 51.606 52.146 52.133 52.001 51.886 51.408 51.023 50.841 50.701 50.653 50.586 50.546 50.548 50.548 50.583 50.603 50.656 50.703 50.961 51.308 51.673 51.823 51.911 51.803 50.561 49.718 49.246 49.188 49.123 49.091 49.048 49.003 48.978 48.976
74.723 74.36 73.98 73.585 73.168 72.848 72.473 72.075 71.763 71.365 71.005 70.645 70.328 70 69.673 69.385 69.103 68.818 68.545 68.29 68.065 67.823 67.62 67.35 67.18 66.96 66.74 66.53 66.353 66.178 65.99 65.823 65.64 65.42 65.25 65.08 64.89 64.705 64.545 64.368 64.16 64.003 63.858 63.693 63.533 63.368 63.24 63.088 62.975 62.835 62.708 62.585 62.463 62.33 62.21 62.078 61.983 61.898 61.798 61.678 61.56 61.453 61.388 61.278 61.19 61.09 61.005 60.915 60.858 60.77 60.665 60.535 60.4 60.263 60.123 59.963 59.808 59.665 59.555 59.39 59.253 59.113 58.995 58.86 58.743 58.613 58.478 58.348 58.2 58.068 57.93 57.803 57.665 57.578 57.403 57.263 57.108 56.938 56.798 56.608 56.44 56.283 56.105 55.935 55.775 55.575 55.35 55.183 54.985 54.773 54.6 54.423 54.245 54.063 53.83 53.663 53.463 53.245 53.04 52.823 52.635 52.458 52.248 52.09 51.898 51.73 51.553 51.365 51.195 51.008 50.84 50.645 50.49 50.315 50.203 50.595 51.068 50.843 49.583 48.67 48.445 48.268 48.115 47.915 47.675 47.465 47.25 47.033 46.793 46.543 46.33 46.098 45.863 45.638 45.413 45.18 44.993 44.805 44.59 44.365 44.173 43.96 43.773 43.57 43.325 43.14 42.948 42.748 42.533 42.34 42.153 41.933 41.76 41.578 41.423 41.245 41.08 40.915 40.77 40.625 40.485 40.353 40.233 40.11 40.003 39.91 39.823 39.74 39.635 39.58 39.528 39.46 39.393 39.385 39.371 39.356 39.328 39.311 39.291 39.273 39.253 39.243 39.223 39.211 39.196 39.223 39.238 39.236 39.283 39.666 42.603 42.256 41.873 41.138 40.971 40.878 40.831 40.848 40.833 40.806 40.878 40.891 40.923 40.968 40.991 41.031 41.086 41.093 41.113 41.181 41.218 41.248 41.308 41.361 41.406 41.461 41.458 41.521 41.643 41.796 41.851 41.933 42.011 42.076 42.186 42.281 42.391 42.511 42.623 42.776 42.891 43.068 43.243 43.413 43.601 43.828 44.003 44.191 44.416 44.673 44.833 45.016 45.216 45.408 45.631 45.853 46.091 46.313 46.531 46.768 46.978 47.168 47.376 47.516 47.686 47.913 48.018 48.171 48.373 48.441 48.566 48.721 48.816 49.096 49.011 49.316 49.186 49.228 49.308 49.373 49.448 49.523 49.593 49.656 49.738 49.746 49.753 49.781 49.838 49.876 50.108 50.326 49.573 50.543 51.793 50.313 49.836 49.783 49.763 49.738 49.713 49.606 49.531 49.478 49.416 49.368 49.308 49.238 49.191 49.168 49.103 49.036 48.976 48.911 48.871 48.846 48.928 48.956 50.026 50.993 49.386 49.053 49.703 49.916 49.783 49.958 49.618 49.578 49.796 49.778 49.846 49.726 50.741 50.193 50.351 51.061 52.201 51.068 51.538 51.268 51.581 51.678 51.316 51.253 51.256 51.296 51.318 51.318 51.311 51.321 51.313 51.326 51.298 51.303 51.278 51.253 51.241 51.211 51.193 51.148 51.128 51.096 51.058 51.038 50.998 50.998 51.011 50.966 50.948 50.928 50.908 50.906 50.916 50.941 50.968 51.008 50.998 51.028 51.091 51.171 51.396 51.853 51.961 51.508 51.318 50.853 50.638 50.593 50.541 50.533 50.511 50.448 50.396 50.401 50.421 50.461 50.541 50.671 50.603 51.168 51.328 51.458 51.853 51.151 50.486 49.503 49.303 49.248 49.168 49.098 49.028 48.951 48.891 48.818 48.783 48.771 48.768
74.448 74.093 73.715 73.333 72.888 72.575 72.215 71.848 71.49 71.128 70.763 70.398 70.078 69.775 69.44 69.128 68.863 68.59 68.328 68.063 67.825 67.595 67.395 67.135 66.928 66.738 66.5 66.313 66.15 65.985 65.79 65.59 65.413 65.225 65.045 64.875 64.67 64.5 64.35 64.16 63.96 63.828 63.643 63.49 63.318 63.18 63.053 62.92 62.815 62.685 62.565 62.445 62.355 62.228 62.103 61.988 61.925 61.84 61.725 61.638 61.553 61.453 61.37 61.298 61.22 61.143 61.053 60.983 60.93 60.84 60.73 60.658 60.535 60.418 60.283 60.165 60.005 59.873 59.745 59.615 59.488 59.348 59.255 59.115 59.015 58.865 58.745 58.6 58.463 58.35 58.208 58.055 57.958 57.843 57.688 57.545 57.405 57.223 57.07 56.925 56.733 56.518 56.393 56.19 56.028 55.838 55.618 55.44 55.24 55.025 54.843 54.658 54.47 54.313 54.055 53.87 53.683 53.483 53.253 53.028 52.825 52.62 52.413 52.238 52.063 51.9 51.703 51.518 51.328 51.155 50.963 50.78 50.565 50.398 50.235 50.05 49.913 49.965 50.705 50.688 49.4 48.508 48.15 47.958 47.783 47.603 47.385 47.183 46.935 46.698 46.478 46.248 46.005 45.775 45.56 45.34 45.118 44.92 44.695 44.523 44.298 44.095 43.918 43.7 43.47 43.258 43.048 42.833 42.645 42.43 42.23 42.015 41.858 41.67 41.475 41.308 41.128 40.975 40.83 40.68 40.52 40.388 40.233 40.135 40.013 39.928 39.843 39.748 39.63 39.553 39.47 39.405 39.353 39.313 39.273 39.248 39.233 39.208 39.191 39.143 39.123 39.096 39.076 39.083 39.101 39.093 39.093 39.103 39.136 39.123 40.761 41.698 41.486 41.036 40.728 40.611 40.553 40.523 40.513 40.536 40.566 40.591 40.646 40.673 40.711 40.758 40.816 40.828 40.883 40.903 40.993 41.023 41.026 41.108 41.168 41.218 41.231 41.316 41.453 41.563 41.658 41.686 41.808 41.873 41.991 42.101 42.208 42.323 42.441 42.588 42.746 42.913 43.083 43.268 43.443 43.688 43.853 44.041 44.298 44.511 44.663 44.853 45.051 45.221 45.443 45.666 45.946 46.136 46.356 46.571 46.791 46.978 47.163 47.298 47.478 47.633 47.803 47.923 48.068 48.253 48.343 48.468 48.576 48.671 48.763 48.853 48.866 48.926 49.011 49.063 49.148 49.226 49.286 49.356 49.433 49.463 49.466 49.476 49.516 49.536 51.186 50.878 49.041 52.301 50.368 49.641 49.548 49.513 49.531 49.481 49.431 49.331 49.241 49.201 49.143 49.078 49.026 48.933 48.906 48.846 48.793 48.763 48.661 48.603 48.571 48.578 48.658 48.701 49.268 48.961 48.786 48.853 49.003 49.018 48.933 48.981 49.251 49.271 49.561 49.731 49.351 49.421 49.573 49.706 49.781 49.951 50.341 50.043 50.218 52.248 50.981 52.386 53.241 52.133 51.981 51.618 51.483 51.203 51.281 51.223 51.203 51.201 51.191 51.188 51.148 51.096 51.078 51.033 51.018 50.976 50.956 50.941 50.863 50.841 50.813 50.771 50.766 50.751 50.738 50.751 50.746 50.778 50.821 50.856 50.908 50.993 51.203 51.443 51.361 50.976 50.891 50.663 50.498 50.378 50.286 50.241 50.286 50.346 50.308 50.288 50.261 50.288 50.313 50.456 50.823 51.518 52.148 52.296 51.446 51.303 50.601 49.933 49.556 49.418 49.351 49.246 49.178 49.113 49.011 48.916 48.831 48.768 48.698 48.626 48.566 48.536 48.551
