ncols 463
nrows 31
xllcorner    459070
yllcorner    92626
cellsize     2
NODATA_value -9999
33.127 32.714 24.554 22.457 22.512 22.492 23.194 24.642 25.557 26.039 26.184 25.109 24.632 24.834 27.824 30.654 32.279 33.994 33.804 33.739 33.784 30.749 23.324 22.107 22.167 22.232 22.254 24.032 27.019 29.169 29.239 28.594 26.879 26.817 28.402 28.194 27.879 29.197 29.529 28.959 29.089 23.997 23.344 28.737 29.027 28.814 30.059 28.474 23.192 27.979 29.704 30.084 27.334 22.957 22.017 27.472 29.319 29.132 29.089 29.067 28.412 29.002 29.329 29.389 29.707 32.435 33.155 32.895 33.182 32.587 29.172 22.552 21.162 21.122 21.042 20.947 20.805 20.737 21.965 33.245 33.617 33.67 33.092 30.392 30.662 27.355 24.252 23.765 24.047 24.365 24.627 24.9 25.117 21.29 19.82 19.79 19.705 19.622 19.655 20.15 19.945 18.68 18.13 18.032 17.742 17.557 17.902 18.177 18.455 18.652 18.617 18.32 19.277 21.332 18.357 18.377 19.62 19.9 20.43 17.897 19.362 19.395 18.765 19.572 27.63 28.532 27.86 28.317 29.172 28.897 28.14 24.032 16.27 17.412 16.122 16.052 15.945 15.78 16.192 21.29 22.562 22.877 22.065 19.585 18.875 18.975 17.932 19.332 15.755 15.362 15.442 15.52 15.767 15.637 15.727 16.145 16.14 16.09 16.387 17.767 18.515 19.265 20.187 18.002 19.24 19.427 19.385 17.145 17.322 16.757 16.757 16.792 22.255 25.12 25.39 26.032 26.53 25.732 18.937 17.505 16.372 16.867 16.437 16.395 16.865 16.765 18.092 17.845 19.072 19.182 17.775 18.55 22.025 18.44 17.142 16.125 18.297 16.832 17.855 18.757 19.55 16.03 15.99 16.337 17.142 16.415 16.982 17.452 20.387 21.075 21.027 20.705 16.417 15.272 14.92 14.887 15.64 15.012 19.402 20.852 20.87 20.945 20.555 20.06 18.655 16.627 16.305 15.58 15.722 15.367 15.625 16.262 15.737 15.68 16.215 15.515 15.187 14.117 13.81 13.7 13.76 14.255 14.435 14.555 16.577 17.442 18.455 18.86 16.077 14.175 13.965 14.625 17.492 18.637 18.472 18.247 17.652 17.695 17.532 17.577 13.9 11.74 11.28 10.887 10.772 10.477 10.327 10.205 10.142 9.98 9.875 9.697 9.847 11.255 14.897 18.012 18.872 19.275 19.39 18.842 17.685 15.725 13.362 11.082 13.855 10.642 10.062 8.937 10.322 11.122 8.257 7.56 9.53 8.067 7.077 6.405 6.84 5.43 4.192 4.092 4.065 4.06 3.9 3.77 3.727 4.722 5.49 6.022 6.53 6.352 6.205 6.105 5.44 5.335 4.217 3.342 3.69 3.335 3.332 3.402 3.57 3.267 3.732 3.287 3.197 3.157 3.172 3.395 3.925 3.747 3.36 3.975 3.805 3.16 3.172 3.157 3.137 3.125 3.137 3.1 3.197 3.155 3.09 3.165 3.162 3.142 3.142 3.127 3.125 3.057 3.625 3.892 3.237 3.72 4.03 3.197 3.007 3.067 3.28 3.715 3.665 4.015 3.94 3.335 4.315 5.09 4.58 4.562 5.45 4.857 3.715 3.98 3.277 3.215 3.72 4.337 4.317 3.455 3.115 3.097 3.977 4.352 3.347 3.155 3.785 3.95 3.277 4.572 9.94 8.302 8.57 9.575 3.617 3.875 4.587 6.062 13.092 15.375 15.837 15.967 15.752 14.85 6.01 12.515 13.74 14.075 14.057 14.015 13.317 6.12 8.047 8.377 12.067 9.982 4.585 4.91 3.967 2.89 2.88 2.832 2.787 4.265 4.467 3.185 3.122 4.572 4.445 3.277 3.352 4.187 3.427 4.767 4.77 3.187 3.105 3.362 3.825 2.952 2.912 3.11 4.182 3.195 3.167 3.135 3.142 3.157 3.382 4.305 3.66 3.535 3.065 3.112 3.292 4.287 3.59 3.275 4.23 4.075 3.627 3.1 3.125 3.232 3.272
34.734 33.042 25.142 22.644 22.734 23.197 22.942 23.652 23.889 24.034 23.312 23.709 24.259 24.957 27.019 26.844 29.007 33.852 33.707 33.402 33.924 32.537 24.347 22.649 22.364 22.399 22.404 23.114 23.054 23.667 22.829 22.884 22.962 22.707 23.097 23.857 22.909 24.274 26.829 28.489 28.514 24.342 24.522 28.227 28.367 27.992 28.589 26.372 22.684 26.177 27.499 28.529 26.952 22.354 22.844 28.587 30.269 29.919 29.657 28.067 26.687 26.734 27.209 28.032 29.699 32.745 33.322 32.932 33.65 33.032 29.107 22.33 21.252 21.212 21.15 21.047 20.922 20.945 25.82 32.997 33.277 33.66 33.797 33.28 33.225 33.56 28.082 23.287 23.345 23.665 23.945 24.225 23.932 20.277 19.775 19.68 19.645 19.565 19.525 19.67 19.605 19.727 19.617 18.232 17.782 17.682 18.045 17.9 17.962 18.422 18.82 17.875 17.882 18.207 18.565 19.587 19.415 18.042 20.167 17.772 19.11 19.115 19.902 21.152 24.137 27.312 27.395 28.975 28.867 28.662 28.15 19.805 16.827 16.762 16.28 16.207 16.137 16.005 19.322 22.102 22.855 22.88 21.81 20.207 18.312 16.427 17.82 20.792 20.095 17.967 16.04 15.595 15.75 16.302 15.965 15.927 15.995 16.24 16.402 16.295 16.03 15.78 17.007 18.922 19.285 19.53 18.407 17.695 17.212 16.78 16.772 17.065 21.645 22.845 25.207 26.152 26.437 25.475 18.26 16.955 16.47 16.56 16.6 16.545 16.932 16.755 24.067 23.3 23.185 21.41 18.62 20.137 22.19 18.467 20.222 17.587 20.115 18.475 18.537 18.995 17.637 17.055 16.317 16.44 17.327 16.477 15.825 16.3 20.475 21.74 21.382 21.025 16.775 15.442 15.06 15.035 15.195 14.892 19.625 20.51 20.43 20.35 20.402 20.337 18.77 16.385 16.052 16.917 17.18 17.767 16.627 16.517 15.317 15.222 15.152 14.197 14.502 14.665 14.505 15.035 15.117 14.647 14.51 14.275 14.362 16.222 18.435 18.75 15.987 13.502 13.57 15.902 18.312 18.127 18.035 17.805 17.74 18.022 18.02 18.265 15.96 12.585 11.242 10.945 11.217 10.55 10.497 10.422 10.322 10.142 10.282 10.845 10.34 10.055 10.732 13.007 17.447 18.635 19 17.157 15.927 15.037 12.242 11.725 10.527 11.53 10.917 9.125 12.41 11.142 10.192 11.302 8.937 9.817 6.955 6.347 5.932 5.405 4.855 4.192 4.112 4.047 3.985 3.86 4.037 9.865 10.205 10.385 10.257 10.19 10.21 10.16 9.762 5.157 3.917 4.655 4.837 4.617 4.77 4.64 5.507 4.712 3.965 3.587 3.732 3.22 3.23 3.382 3.48 3.065 3.375 3.22 3.202 3.13 3.17 3.142 3.052 3.055 3.07 3.055 3.11 3.057 3.077 3.087 3.14 3.192 3.22 3.22 3.242 3.207 3.23 3.21 3.182 3.25 3.692 3.245 3.077 3.112 3.107 3.58 3.602 3.172 3.05 3.062 3.04 3.327 3.147 3.252 3.487 3.892 3.497 3.632 3.202 3.247 4.097 4.182 4.15 3.517 3.597 3.157 3.11 3.39 3.082 3.107 4.69 4.062 3.255 3.61 4.585 3.57 3.007 3.045 3.09 3.11 4.06 4.565 11.632 14.805 15.01 15.212 15.415 14.445 7.267 13.062 13.587 13.992 13.49 13.49 12.002 4.46 10.817 12.705 12.792 12.36 11.655 8.075 5.805 5.14 8.012 4.202 3.482 5.47 4.597 3.807 3.437 4.29 3.51 3.41 4.005 3.665 3.405 6.98 5.302 3.352 3.142 4.102 3.85 2.915 2.932 3.857 4.73 3.22 3.175 3.185 3.177 4.037 3.55 5.95 3.795 3.042 3.06 3.125 3.632 4.61 3.907 4.29 4.797 3.557 3.832 3.817 3.447 3.115 3.177
36.242 34.457 26.719 22.807 22.899 23.737 23.434 23.169 24.272 23.692 23.282 23.824 23.917 24.084 24.184 22.674 24.879 33.644 33.002 28.712 27.407 25.764 22.967 22.532 22.517 22.589 22.557 23.262 23.287 23.079 23.209 23.329 24.032 23.109 23.094 23.237 23.247 24.344 23.874 23.649 22.584 22.714 23.852 25.504 25.047 25.124 25.784 25.364 23.227 22.724 22.719 23.829 24.502 22.419 22.237 29.862 30.322 30.457 29.992 27.364 26.909 27.142 27.117 26.912 27.094 32.447 34.097 33.265 33.947 33.06 28.12 21.537 21.41 21.367 21.282 21.215 21.11 21.54 29.357 33.052 32.882 32.877 33.212 33.67 33.792 33.085 28.975 23.907 23.795 23.135 23.042 23.58 22.957 19.8 19.73 19.667 19.56 19.477 19.425 19.375 19.437 19.182 19.335 18.922 17.912 18.01 19.262 17.957 17.855 17.825 17.855 17.83 17.88 17.875 17.91 18.12 18.98 18.855 19.432 20.92 20.282 19.037 18.377 19.367 19.877 24.33 26.682 27.16 27.305 28.557 26.912 17.905 17.182 16.75 16.47 16.385 17.467 16.412 19.032 21.772 23.335 22.515 20.142 17.977 16.25 16.355 16.455 16.57 17.525 18.527 18.457 17.862 16.12 16.632 16.385 16.44 16.472 16.197 16.18 18.912 18.262 17.145 18.49 19.19 19.392 19.635 16.99 16.77 16.857 16.8 16.807 17.537 19.657 20.007 25.297 26.512 26.712 24.495 18.277 17.382 16.865 16.75 16.687 16.687 16.957 20.245 24.867 25.34 25.137 25.187 21.095 16.92 17.005 17.052 18.997 20.297 19.055 18.905 18.312 17.857 17.602 16.742 16.405 16.86 18.462 18.727 18.142 18.197 21.167 21.21 21.5 20.947 15.967 15.382 15.165 15.147 15.062 15.082 18.362 19.942 19.985 16.717 17.06 18.19 17.115 15.902 14.61 14.927 16.995 16.495 15.225 16.032 14.685 14.362 15.615 16.167 15.147 13.98 13.832 15.347 14.67 14.012 14.602 14.18 14.04 14.06 15.492 16.892 13.93 14.207 14.15 16.802 17.76 18.422 18.295 18.212 18.037 17.73 18.205 17.4 13.995 12.597 11.34 11.005 10.885 10.755 10.677 10.557 10.455 10.282 10.605 11.522 11.59 11.702 11.282 11.177 12.64 17.565 16.765 13.055 12.637 13.225 11.89 11.442 9.045 12.02 13.147 10.18 8.517 8.275 11.565 10.377 7.31 7.715 7.46 6.36 6.917 7.495 4.64 4.207 4.115 4.06 4.025 3.895 3.942 9.837 10.222 10.212 10.212 10.212 10.205 10.212 9.425 3.835 3.535 3.522 3.407 3.402 3.45 3.5 3.865 4.07 4.027 3.917 4.842 4.492 5.665 7.9 8.985 5.52 6.46 3.807 3.845 3.03 3.185 3.355 3.14 3.262 3.585 3.335 3.29 3.102 3.067 3.065 3.04 3.075 3.102 3.15 3.682 3.477 3.21 3.307 3.205 3.21 3.2 3.185 3.17 3.142 3.192 3.182 3.212 3.127 3.122 3.132 3.07 3.055 3.017 3.052 3.012 3.025 3.025 3.015 3.045 3.042 3.125 3.797 4.032 3.725 4.295 3.54 3.085 3.082 3.057 3.23 4.362 3.52 3.255 3.29 3.357 3.2 3.05 3.062 3.06 3.105 3.282 3.992 3.942 6.78 10.077 12.642 13.277 12.76 4.715 5.997 14.117 14.072 13.935 13.572 8.482 6.915 11.127 12.43 12.805 12.987 12.917 13.18 12.347 12.235 12.35 10.245 4.242 5.67 8.842 8.61 6.302 4.47 3.437 3.445 3.825 3.777 3.395 5.32 5.267 3.402 3.15 4.317 3.275 2.915 3.19 5.127 4.29 3.637 3.585 3.392 3.275 4 4.282 3.432 3.055 3.03 3.052 3.132 3.572 3.49 3.515 5.545 4.417 3.282 3.547 5.037 6.3 4.597 3.17
38.614 37.294 26.789 23.004 23.119 23.514 23.639 23.739 24.447 25.709 28.432 29.939 27.532 23.707 24.937 26.517 26.939 28.852 26.252 23.882 23.779 23.587 23.237 22.789 22.664 22.747 22.757 23.127 23.504 23.257 24.892 24.847 25.302 24.977 24.274 23.772 23.372 24.042 23.367 22.797 23.279 23.252 22.314 22.464 22.849 23.032 23.102 22.772 24.224 23.937 23.679 24.547 23.424 22.587 24.544 28.624 30.074 30.059 29.629 27.447 26.017 26.654 26.804 26.887 30.352 33.157 33.175 32.792 33.867 32.667 23.93 22.462 21.67 21.435 21.36 21.277 21.175 21.202 31.072 33.692 33.617 33.265 32.907 32.835 33.102 32.647 29.862 26.672 29.702 25.967 24.32 22.975 21.227 20.165 19.767 19.637 19.535 19.457 19.365 19.26 19.12 19.932 19.652 18.195 17.975 18.142 18.045 17.965 17.845 17.82 17.802 17.822 17.87 17.777 17.852 17.84 18.03 19.595 19.337 21.042 21.687 22.582 22.23 21.577 19.857 24.825 26.822 27.972 27.452 26.805 24.7 17.04 17.25 16.765 16.64 16.697 17.637 16.842 18.652 18.01 19.285 20.58 17.675 16.677 18.12 16.952 16.705 16.72 16.77 16.91 17.537 18.147 18.287 16.552 16.53 16.787 16.765 17.1 16.71 19.19 19.902 19.375 20.122 18.62 19.262 19.795 16.857 16.775 16.877 16.885 16.892 18.317 19.735 21.545 25.615 26.132 25.915 20.48 19.39 19.48 18.192 16.88 16.792 16.982 16.957 21.595 23.072 25.6 25.622 24.217 18.645 16.92 17.017 16.965 16.987 17.407 18.232 18.832 18.317 18.952 18.112 17.812 17.872 17.547 17.89 19.952 20.575 21.425 21.502 21.37 21.612 20.725 16.092 15.327 15.297 15.265 15.14 15.195 17.087 17.61 17.777 16.14 15.18 16.86 17.087 16.782 16.407 16.095 15.937 14.922 14.702 15.18 14.507 14.69 16.667 16.82 15.232 15.102 15.142 14.372 14.132 13.972 14.13 13.617 13.49 13.442 13.605 13.595 13.772 13.817 14.207 14.665 14.197 16.84 14.985 15.702 18.025 17.647 18.33 17.087 12.165 11.717 11.37 11.08 11.02 10.937 10.845 10.777 10.617 10.527 11.547 13.132 16.082 18.475 17.455 13.572 10.995 11.972 12.472 12.31 11.725 10.587 11.69 10.32 8.687 9.242 10.492 11.527 11.782 8.875 7.367 9.732 7.395 8.125 7.912 7.1 7.965 8.53 5.825 4.262 4.185 4.147 4.057 3.977 3.88 5.565 10.035 10.23 10.207 10.227 10.22 10.225 7.04 3.445 3.472 3.47 3.43 3.395 3.432 3.432 3.497 3.46 3.5 3.487 3.487 3.51 4.095 11.4 14.02 13.96 13.775 13.827 11.57 8.167 3.135 3.247 3.147 3.162 3.442 3.54 3.662 3.867 4.025 3.817 3.745 3.927 3.35 3.295 3.335 3.525 3.402 3.817 3.382 3.122 3.157 3.217 3.537 3.262 3.167 3.17 3.17 3.147 3.162 3.21 3.145 3.18 3.12 3.15 3.112 3.137 3.11 3.085 3.037 3.032 3.01 3.03 3.037 3.027 3.04 3.622 3.847 3.392 3.04 3.44 6.825 6.442 3.342 3.395 3.365 3.78 3.432 3.07 3.07 3.075 3.427 4.21 3.145 3.705 5.05 4.117 3.16 3.992 3.835 6.755 12.737 13.532 13.747 14.307 7.805 8.562 11.69 12.19 12.097 12.23 12.557 13.112 12.88 12.97 12.95 13.01 8.312 9.215 16.625 16.835 14.69 8.34 4.622 4.195 4.067 3.472 3.6 5.112 3.875 3.17 3.227 4.065 2.892 2.952 3.555 5.357 4.055 3.75 3.757 3.765 3.575 6.587 4.687 3.115 3.882 3.06 3.162 3.197 3.95 3.195 3.25 4.452 3.322 3.252 3.34 5.755 7.06 6.197 4.092
39.134 38.544 28.654 23.137 23.269 23.354 23.747 23.814 23.797 28.319 30.812 31.252 29.277 26.029 30.619 29.039 25.802 25.572 24.022 23.884 23.844 23.712 23.459 23.074 22.864 22.924 22.919 22.924 24.679 24.214 25.554 25.449 25.554 27.609 25.784 25.674 24.557 25.402 24.222 24.094 23.627 23.752 23.417 23.472 23.564 24.114 23.869 23.712 24.559 24.374 24.119 24.627 23.989 22.712 25.737 28.372 29.627 30.419 30.237 29.234 25.954 28.737 29.087 28.834 31.679 33.337 32.845 33.077 33.055 30.767 23.517 22.332 21.647 21.612 21.477 21.337 21.3 27.485 32.932 33.187 33.622 33.81 33.39 32.165 27.615 29.34 31.067 31.022 31.365 29.425 29.722 26.222 23.697 22.24 20.712 20.165 19.572 19.427 19.357 19.147 18.957 18.735 18.442 18.252 18.142 18.17 18.05 17.987 17.902 17.855 17.837 17.832 17.875 17.825 17.827 17.807 19.125 19.52 18.192 18.805 21.335 22.327 22.617 22.48 22.135 24.375 26.085 26.212 26.887 25.902 19.81 17.557 17.805 16.925 16.822 16.71 16.815 17.557 19.217 17.367 16.822 19.405 19.777 19.297 17.865 17.382 17.075 17.422 16.93 17.397 17.312 17.55 17.545 17.132 18.935 17.972 17.197 17.075 18.077 19.865 19.912 19.44 18.392 18.002 17.98 18.482 18.457 18.172 19.005 18.392 18.055 17.282 17.687 19.755 20.722 22.05 24.552 19.102 21.505 20.287 18.13 16.982 16.902 16.967 17.277 21.9 25.082 25.652 25.627 22.71 17.937 17.032 17.335 17.515 17.42 17.112 17.44 17.667 19.437 21.462 20.24 18.385 17.66 18.697 18.227 18.982 19.555 20.395 21.287 21.46 21.485 19.915 16.11 15.487 15.43 15.537 15.452 15.332 15.72 16.125 16.315 15.477 15.44 17.367 18.025 17.08 16.497 16.387 16.4 16.475 16.355 15.385 14.512 15.287 16.807 16.795 14.665 14.695 14.68 14.235 14.262 13.827 13.622 13.577 13.535 13.47 13.515 14.057 13.732 13.582 14.545 14.6 14.347 13.597 13.617 13.337 15.607 15.97 17.472 16.557 12.612 11.797 11.412 11.2 11.19 11.077 11.025 10.845 10.725 11.29 11.43 16.555 18.497 19.39 19.465 17.782 14.107 11.032 12.467 12.057 10.857 10.207 10.42 9.43 8.747 11.05 8.615 10.497 12.182 10.672 7.447 8.375 7.447 6.94 7.125 6.985 6.765 7.295 7.77 4.367 4.375 4.552 4.067 4.007 3.952 3.807 6.115 9.707 10.295 10.225 10.187 9.737 6.037 3.817 3.427 3.4 3.41 3.455 3.437 3.507 3.542 3.465 3.46 3.537 3.542 3.782 6.44 13.505 14.53 14.465 14.757 14.332 13.892 7.587 3.3 3.115 3.12 3.795 5.102 4.237 3.24 3.235 3.14 3.38 3.667 3.687 3.725 4.01 5.502 4 4.072 3.735 3.275 3.08 3.055 3.157 3.8 3.57 3.087 3.12 3.097 3.205 3.32 3.202 3.175 3.122 3.127 3.157 3.182 3.212 3.177 3.207 3.165 3.217 3.152 3.13 3.092 3.037 3.02 2.982 2.99 2.982 2.967 2.992 4.377 5.645 4.647 4.325 4.077 3.95 3.687 3.09 3.01 3.06 3.182 3.115 3.13 3.212 3.452 3.192 3.07 3.09 3.505 3.357 3.117 4.045 5.722 6.695 5.157 10.077 13.52 12.97 12.825 12.595 12.602 12.185 12.157 12.285 12.35 11.63 9.245 14.045 17.075 17.647 16.937 16.137 12.375 11.157 6.99 5.125 6.187 6.597 3.505 2.925 3.94 4.072 2.91 2.915 6.73 5.51 3.722 3.757 3.775 3.772 3.497 5.42 6.507 5.657 4.907 3.327 3.985 4.59 4.42 3.122 3.302 3.537 3.192 3.257 3.61 6.107 6.162 5.085 4.287
39.779 37.212 29.709 23.627 23.432 23.532 23.642 23.784 23.937 25.407 30.702 31.519 30.077 30.299 33.062 30.267 25.664 24.559 24.317 23.994 23.929 23.869 23.687 23.347 23.087 23.059 23.052 23.304 24.904 24.499 24.952 24.612 25.129 27.322 25.267 24.994 26.327 24.307 24.199 24.219 23.874 23.847 23.857 23.822 23.824 23.802 23.977 23.969 24.064 24.112 24.187 24.292 23.432 22.869 28.902 30.004 30.214 30.474 30.444 28.559 27.764 32.384 32.169 31.654 32.262 33.335 32.862 33.167 32.287 26.152 22.367 21.99 21.755 21.647 21.552 21.452 22.537 30.26 32.227 32.405 33.24 33.09 33.11 29.452 24.372 28.93 30.98 30.9 31.04 31.44 31.517 30.785 29.932 24.232 21.215 20.962 20.497 19.772 19.415 19.11 19.16 18.692 18.51 18.382 18.277 18.175 18.532 18.065 18.047 17.975 17.932 17.945 17.912 17.8 17.837 18.54 20.327 19.402 18.707 19.327 20.175 19.647 20.495 22.39 22.692 24.432 26.322 26.462 26.727 22.707 17.342 17.465 17.172 17.102 16.972 16.85 16.83 18.885 19.202 18.452 17.51 17.045 17.952 17.647 17.627 17.872 18.9 19.97 19.037 21.047 20.527 17.335 17.252 17.167 20.655 19.39 19.005 17.605 18.762 20.005 19.645 18.992 18.002 17.972 18.017 18.09 18.087 18.765 18.485 18.692 18.062 18.39 18.395 18.137 18.42 17.902 17.017 17.185 17.172 17.012 17.177 17.102 17.015 17.085 17.557 24.272 24.652 25.062 25.252 20.955 17.585 17.537 17.897 17.302 17.25 17.325 18.317 21.06 21.785 24.01 23.495 19.497 17.64 18.475 17.347 17.645 18.302 16.692 17.415 18.265 19.757 17.907 16.582 15.595 15.555 16.315 15.832 17.677 17.772 17.235 16.877 16.482 17.472 17.69 17.667 15.432 15.277 15.375 15.17 16.342 17.74 16.912 15.107 15.43 16.827 16.857 14.26 14.035 14.035 13.977 13.907 14.652 14.122 13.617 13.57 13.54 13.687 14.037 13.472 13.35 13.65 14.035 15.475 14.39 13.22 13.36 13.462 13.905 14.47 14.782 12.55 11.95 11.997 11.457 11.335 11.227 11.24 11.19 10.955 12.09 13.22 19.312 19.732 20.422 20.785 19.805 18.52 15.165 10.79 11.502 10.09 11.052 12.665 11.56 10.997 10.572 8.64 8.572 9.435 8.79 7.672 7.077 6.865 6.857 6.887 6.767 6.512 6.1 7.577 5.17 4.33 4.64 4.875 4.03 4.012 3.847 3.805 4.59 10.457 9.067 6.907 8.352 5.505 3.905 3.452 3.427 3.41 3.44 3.435 3.427 3.445 3.427 3.437 3.46 3.607 3.59 8.995 14.057 14.415 13.977 13.972 14.34 13.677 4.215 3.352 3.105 3.85 7.977 11.885 10.995 8.922 6.057 3.952 3.875 3.035 3.357 3.052 4.312 4.412 5.32 6.552 3.935 3.947 3.115 3.25 3.605 4.285 3.92 3.605 3.265 3.435 3.24 3.915 3.392 2.99 3.027 3.07 3.107 3.152 3.17 3.182 3.202 3.155 3.19 3.197 3.182 3.145 3.127 3.157 3.11 3.102 3.082 3.04 3.015 3.02 3.27 4.725 3.765 2.982 3.442 3.835 3.397 2.965 3.4 3.097 2.995 3.027 3.07 3.1 3.26 3.11 3.335 3.575 4.11 3.252 2.775 2.412 2.385 4.6 4.467 10.412 12.307 12.602 12.96 14.107 12.975 12.732 12.37 11.987 10.825 7.83 14.612 17.37 17.805 18.295 17.032 16.805 17.347 15.325 14.407 15.657 14.625 10 6.432 5.92 3.095 2.912 4.267 7.735 5.432 3.77 3.8 3.787 3.732 3.52 3.977 4.04 3.595 3.122 3.182 3.455 4.387 5.46 3.325 3.497 3.39 3.23 3.26 3.265 5.085 6.405 5.995 3.655
32.879 25.089 23.989 24.122 23.597 23.742 24.044 23.877 24.104 25.054 30.442 31.669 30.317 29.897 30.862 25.977 24.602 24.422 24.637 24.107 24.064 23.962 23.897 23.762 23.527 23.202 23.252 23.267 24.589 24.299 24.157 24.152 24.244 24.527 24.172 24.247 25.157 24.174 24.437 24.652 24.049 23.862 23.862 23.794 23.817 23.824 23.772 23.954 23.974 23.967 23.989 24.269 23.502 24.902 31.452 32.007 31.674 31.219 30.714 27.904 30.517 33.072 32.744 32.699 32.754 32.915 32.81 33.627 28.697 22.695 22.865 22.247 21.842 21.715 21.585 21.627 25.76 31.162 31.822 32.947 33.277 30.265 31.417 30.6 29.717 31.197 31.597 31.427 31.04 30.84 30.962 31.205 27.15 20.93 19.75 19.517 20.367 20.532 21.182 19.417 20.165 18.76 18.57 18.402 20.28 20.117 18.46 18.247 18.157 18.102 18.042 18.02 17.987 17.95 17.992 18.947 20.18 19.832 19.802 18.717 18.74 18.075 18.102 18.577 21.132 21.432 23.132 26.905 26.342 19.26 17.862 18.335 17.437 17.265 17.192 17.06 17.195 17.212 17.72 18.387 18.942 18.087 17.115 16.985 17.052 17.135 17.33 18.69 20.585 20.137 20.002 20.245 19.965 22.902 21.257 18.015 17.967 18.595 19.73 19.657 19.672 18.802 18.062 18.105 18.08 18.085 19.432 27.355 25.035 25.217 22.78 20.692 19.112 18.007 17.95 18.382 18.81 19.112 18.01 17.157 17.265 17.222 17.175 17.575 17.792 18.402 20.197 22.055 23.11 19.56 17.402 20.205 21.36 18.757 17.86 17.635 19.665 23.55 23.967 24.107 23.772 21.842 19.475 19.05 17.67 17.355 18.582 16.857 16.617 17.025 16.912 16.397 16.212 15.732 15.697 15.972 15.572 19.175 19.205 19.122 18.36 18.057 17.777 17.62 16.922 16.267 16.66 15.602 15.002 16.452 18.807 18.505 18.372 15.075 14.912 15.585 14.55 14.682 14.732 14.145 14.215 15.055 14.68 13.675 13.622 14.79 13.637 14.067 13.492 13.357 13.352 15.337 16.21 17.162 17.487 14.302 12.95 13.827 14.065 13.062 12.325 12.605 12.382 11.567 11.445 11.35 12.065 11.872 11.377 12.965 12.982 17.117 19.322 20.102 20.56 19.805 18.072 15.072 10.877 10.22 10.16 10.05 13.88 15.262 11.265 13.895 8.712 8.782 8.722 8.487 7.942 7.402 7.335 7.085 7.597 7.215 6.54 6.202 7.492 6.737 4.437 4.515 4.672 4.665 4.017 3.962 3.832 3.772 6.515 5.735 3.272 5.017 5.197 3.822 3.437 3.44 3.412 3.455 3.44 3.417 3.44 3.61 3.597 3.597 3.647 4.122 9.855 12.982 13.665 14.362 13.982 14.077 12.047 4.05 4.315 4.102 4.182 6.932 13.07 12.612 11.212 6.495 6.14 4.102 2.955 3.04 6.177 10.91 11.672 10.652 12.385 11.15 4.417 3.677 3.407 3.205 3.597 4.695 3.71 3.96 5.03 4.252 4.57 4.312 3.725 3.465 3.28 3.02 2.97 3.08 3.145 3.145 3.085 3.07 3.165 3.127 3.125 3.137 3.105 3.112 3.122 3.11 3.08 3.092 3.07 3.245 3.592 3.957 3.405 3.822 3.422 2.872 2.892 3.032 3.06 2.94 3.54 4.32 3.642 4.05 3.807 3.432 4.017 3.407 3.145 3.76 3.76 3.582 3.265 3.225 3.495 4.76 6.287 10.132 11.702 12.34 12.66 12.752 13.482 9.96 7.362 15.367 17.695 17.782 18.125 17.73 17.722 18.59 17.17 16.84 16.665 17.055 16.765 13.92 6.477 3.07 2.94 4.807 6.63 3.632 3.697 3.802 3.81 3.652 3.675 4.372 3.805 3.175 3.237 3.217 3.992 4.795 4.14 3.197 3.485 3.295 3.28 3.275 3.255 4.655 6.26 5.26 3.467
28.647 23.837 23.839 23.832 23.739 23.907 24.402 24.677 24.352 25.852 30.159 30.374 29.884 27.669 24.584 24.227 24.559 24.402 24.894 24.277 24.184 24.137 24.769 25.057 24.624 23.369 23.429 23.469 24.607 24.527 24.304 24.324 24.274 24.199 24.192 24.184 24.307 24.092 24.007 23.977 24.477 24.077 23.947 23.919 23.909 24.692 24.579 24.444 24.462 24.579 24.082 24.607 23.407 23.879 29.194 30.817 31.114 30.394 30.827 28.522 28.107 30.907 32.859 32.812 33.209 32.835 33.062 32.842 24.99 22.562 22.357 22.1 21.99 21.86 21.752 22.892 28.562 31.81 32.185 33.69 32.457 27.872 28.747 28.657 30.057 30.922 31.072 31.205 31.235 29.2 26.04 26.012 22.045 19.552 19.905 19.785 20.435 19.562 19.612 20.202 20.732 18.937 18.65 19.667 24.025 24.747 21.56 18.977 18.45 18.497 18.312 18.16 18.087 18.017 18.08 20.097 18.92 18.242 18.572 21.542 22.395 21.14 18.79 18.1 19.212 20.487 21.79 22.775 22.03 17.615 18.322 17.875 17.575 17.405 17.35 17.16 17.352 17.362 17.395 20.375 22.147 20.957 20.28 19.735 18.062 17.145 17.185 17.282 17.617 18.925 19.215 19.057 19.017 24.437 25.862 17.657 17.72 17.825 17.87 19.842 20.675 18.602 18.102 18.135 18.135 18.207 23.85 27.93 28.227 27.97 27.787 27.54 26.637 25.23 23.715 21.917 17.82 17.57 17.625 17.89 17.417 17.4 17.34 17.367 17.39 17.677 18.715 18.582 17.74 17.362 17.565 22.115 23.91 21.547 19.932 21.405 21.732 23.527 23.522 23.605 23.865 24 22.952 23.55 23.01 21.237 17.362 16.85 16.542 16.642 16.612 16.175 15.962 15.832 15.85 15.737 17.272 19.21 18.735 18.905 18.445 19 17.94 16.932 15.967 15.755 16.785 15.735 15.547 16.995 20.427 19.142 16.44 15.432 15.222 16.515 16.18 15.44 16.1 14.795 14.85 16.042 15.035 13.8 14.342 17.725 16.28 13.817 13.852 13.922 13.227 13.727 15.51 17.745 19.217 19.162 17.22 17.775 13.132 12.655 12.1 12.21 11.882 11.722 11.607 11.6 12.165 11.507 11.847 15.622 13.497 14.02 14.805 18.337 19.887 19.21 17.815 12.192 11.307 11.112 10.15 9.902 10.375 16.627 13.18 12.305 9.082 8.722 8.427 7.787 7.977 7.607 7.742 8.967 8.53 9.042 6.99 6.577 6.262 10.497 7.582 4.787 5.037 5.76 4.56 4.012 3.965 3.767 3.762 4.717 5.667 5.39 4.975 3.535 3.437 3.417 3.44 3.432 3.44 3.452 3.85 3.622 3.645 3.757 3.8 5.9 7.592 5.612 5.51 9.532 9.36 11.935 7.222 4.332 4.775 3.347 3.387 11.167 13.382 12.497 9.995 6.052 5.825 3.702 2.94 2.997 6.5 11.49 12.287 12.27 12.46 13.14 5.867 3.625 6.925 3.602 11.237 12.512 8.485 3.33 6.925 8.317 4.827 4.085 4.71 3.935 3.767 3.917 3.47 2.972 3.132 3.127 2.987 2.965 3.03 3.03 3.005 3.017 3.002 3.02 3.197 3.252 3.14 3.072 3.05 3.06 3.055 3.042 3.03 3.017 2.982 2.962 2.95 2.95 2.882 2.965 3.265 3.57 3.612 3.632 3.962 3.947 3.75 3.445 3.107 3.897 4.57 4.132 3.057 3.522 3.342 3.045 3.267 5.595 6.36 7.405 7.975 10.057 10.487 8.06 11.06 16.86 17.612 17.765 17.212 17.257 17.92 18.182 17.795 17.697 17.75 17.717 16.825 12.237 4.355 2.905 2.965 4.252 9.827 6.645 5.245 5.267 4.032 3.61 3.95 5.017 3.365 3.217 3.22 3.302 4.477 5.11 3.582 3.53 3.735 3.29 3.352 3.305 3.32 3.832 4.855 3.615 3.335
31.014 23.982 23.989 24.004 23.942 24.052 24.192 24.679 24.384 25.517 24.929 25.022 24.607 24.519 24.509 25.084 24.854 25.137 25.057 24.567 24.574 24.879 25.734 25.237 25.194 23.919 23.582 23.579 24.037 25.439 24.422 24.434 24.459 25.494 26.044 26.294 30.604 30.462 28.039 30.162 29.264 28.379 29.037 29.534 31.034 32.132 32.107 31.267 29.997 29.294 26.849 25.997 23.382 26.259 29.679 28.887 27.702 27.544 27.679 27.342 27.432 27.734 29.109 30.814 32.969 33.572 33.267 31.452 23.485 23.345 22.492 22.235 22.042 21.877 21.922 23.617 31.067 31.857 33.065 33.515 30.932 28.57 28.875 29.162 28.972 28.61 29.087 26.697 23.462 23.58 24.625 21.702 21.105 19.605 19.495 19.542 19.532 19.5 19.49 19.482 19.48 18.955 18.757 19.457 24.457 25.01 24.455 22.56 19.35 19.155 18.89 18.807 18.235 18.16 18.4 19.62 18.117 18.155 18.27 22.505 23.942 23.907 22.375 20.652 20.517 20.055 22.16 20.512 19.635 18.145 18.407 17.73 17.775 17.797 18.207 17.597 17.867 17.707 18.302 21.202 24.497 24.727 24.847 22.977 19.75 18.632 17.477 17.365 17.427 17.5 17.59 17.642 19.45 24.18 18.585 17.702 17.77 17.815 17.885 18.83 19.51 18.112 18.127 18.185 18.222 21.342 27.1 28.172 28.985 29.097 28.775 28.582 28.33 28.062 27.932 26.865 18.207 18.197 17.947 17.94 17.565 17.485 19.622 20.31 19.617 18.955 17.52 17.505 17.505 17.622 17.53 21.315 23.212 20.177 19.902 19.935 21.082 23.747 24.027 24 23.812 23.055 22.582 24.432 24.112 21.612 20.667 18.53 17.522 16.575 16.457 16.657 16.28 16.02 16.005 15.875 17.01 18.365 16.645 16.782 17.752 18.075 18.295 16.807 15.517 15.53 16.957 16.055 16.822 19.9 20.242 18.397 18.105 17.387 17.447 17.455 17.46 17.317 16.55 15.41 15.017 14.325 13.94 13.842 14.227 15.972 15.59 14.027 13.635 15.122 16.205 14.927 16.53 18.44 19.145 19.43 19.105 15.445 12.9 12.637 12.122 12.022 11.985 11.862 11.772 11.65 11.597 11.635 13.605 19.39 20.52 20.217 15.857 14.007 17.67 17.852 17.467 12.46 11.23 11.22 11.027 10.592 10.065 17.14 19.53 15.225 10.307 10.05 10.475 9.365 7.367 7.78 7.47 7.662 7.582 7.637 6.95 6.812 7.295 16.212 9.195 5.21 5.642 5.61 5.287 4.235 3.902 3.82 3.75 3.715 4.235 4.89 3.612 3.472 3.545 3.452 3.447 3.425 3.69 3.602 5.812 6.167 5.442 5.257 3.9 5.407 5.385 3.347 3.705 5.842 4.932 5.645 8.355 6.95 3.742 3.887 6.655 12.282 12.88 11.05 6.98 6.035 5.652 2.885 2.905 3.112 6.455 11.32 12.017 12.017 12.41 13.152 10.242 3.04 11.1 11.315 12.457 12.755 10.872 4.357 8.345 11.352 11.302 9.765 9.677 7.127 6.39 3.297 3.892 3.105 3.032 3.017 2.932 3.142 3.18 3.055 3.257 3.225 3.072 2.98 3.06 3.682 3.47 3.802 4.025 3.17 3.267 3.115 3 3.042 3.025 3.027 3.022 2.985 2.995 3.09 3.537 3.605 2.862 2.847 3 3.322 3.665 3.792 2.972 3.045 3.565 3.275 2.972 3.807 3.1 2.952 3.052 5.83 5.992 4.345 3.04 3.957 3.742 4.51 7.552 12.255 16.44 16.505 15.47 16.137 17.55 17.34 17.195 17.53 17.835 17.795 16.595 13.605 4.305 3.065 3.365 9.737 12.482 12.32 12.245 12.95 9.73 3.75 3.905 3.66 3.33 3.24 3.297 3.367 3.587 3.98 3.817 4.43 3.567 3.345 3.35 3.3 3.517 5.005 3.672 3.315 3.31
32.757 24.662 24.199 24.199 24.119 24.199 24.312 24.329 25.252 26.322 28.134 26.504 26.817 26.774 26.164 26.562 28.424 29.164 27.149 24.792 24.807 24.762 25.189 25.107 25.307 24.149 23.714 23.764 24.127 25.379 24.659 24.499 24.537 25.617 33.652 33.597 33.697 33.447 33.442 33.379 33.427 33.492 33.444 33.417 33.439 33.417 33.422 33.454 33.612 32.849 28.722 25.467 23.934 29.037 30.562 29.479 29.487 29.477 28.524 26.997 27.334 28.619 30.507 31.814 32.837 33.39 32.992 29.91 22.83 22.57 22.457 22.302 22.147 22.065 22.072 27.342 31.732 32.58 33.675 33.17 29.42 30.17 30.8 29.632 28.982 29.2 27.95 26.77 25.147 23.102 21.19 21.247 20.555 19.667 19.552 19.477 19.445 19.477 19.452 19.477 19.192 18.937 18.86 21.445 24.897 25.337 24.435 22.37 20.277 20.062 20.462 19.972 19.285 19.03 20.25 18.905 18.367 18.242 19.022 23.09 23.565 24.4 24.652 24.412 23.56 23.215 18.677 20.13 21.775 18.45 18.097 18.032 17.98 18.062 18.112 18.102 18.34 18.26 18.337 22.602 25.165 26.34 25.887 23.947 19.437 19.15 19.007 18.562 17.75 17.837 17.68 17.755 17.772 17.785 17.82 17.855 17.877 17.87 17.895 20.36 20.32 18.212 18.225 18.26 18.372 23.862 27.272 28.322 29.335 29.94 29.812 29.655 29.45 29.01 28.17 27.172 22.262 18.402 17.682 17.66 17.635 17.615 25.547 27.605 26.172 23.715 22.442 20.282 18.742 18.44 17.812 17.527 18.25 19.392 19.322 18.807 19.242 20.505 21.197 21.77 23.492 21.837 23.462 24.095 23.762 21.01 22.415 22.625 22.095 21.375 20.622 19.362 16.862 16.157 16.147 16.067 16.912 17.767 16.065 16.302 17.887 16.852 18.26 17.517 17.037 16.895 16.842 15.97 16.162 20.755 20.47 18.24 18.147 18.562 17.602 16.71 16.665 17.19 17.23 16.797 16.56 16.942 15.672 15.132 14.44 15.887 16.312 16.712 18.767 18.385 19.115 16.217 17.712 18.885 18.74 19.295 19.277 13.332 12.91 12.492 12.212 12.187 12.097 12.02 11.88 11.75 11.722 11.875 16.165 20.447 21.415 22.067 20.407 17.477 13.067 13.802 13.767 11.852 11.2 11.162 11.105 10.802 10.53 13.552 16.12 13.487 9.487 12.967 9.69 10.755 9.052 7.33 7.08 7.09 7.165 7.187 7.015 6.887 9.637 11.835 12.632 5.585 5.65 5.555 5.32 4.862 4.227 4.095 3.79 3.695 3.637 3.595 3.495 3.455 3.437 3.695 3.947 3.492 3.537 3.97 9.845 9.762 8.752 8.457 6.987 6.095 5.112 2.755 4.422 4.537 2.662 4.57 4.53 4.88 3.92 3.865 5.532 8.755 9.51 11.485 7.405 6.037 4.965 3.02 2.857 3.837 6.245 7.145 9.87 12.087 12.077 11.532 9.57 4.187 11.945 12.337 12.68 12.88 13.072 7.3 10.4 12.652 12.057 12.04 11.82 11.662 11.555 5.637 3.957 2.992 2.96 2.962 2.987 3.41 2.812 2.587 3.562 4.207 3.685 3.057 3.222 3.34 3.24 3.467 3.405 3.122 3.592 3.6 3.637 3.96 3.21 3.175 3.015 3.017 3.007 3.057 2.955 2.975 2.935 2.93 3.602 3.832 2.987 2.85 2.83 2.882 3.17 3.632 2.952 2.975 2.917 2.92 4.517 6.317 4.73 2.85 3.082 3.725 4.517 5.307 4.057 4.185 4.577 6.377 7.695 7.812 10.907 14.657 16.192 16.655 17.54 16.437 13.367 8.737 2.977 2.975 6.207 10.592 12.607 12.99 12.96 12.637 8.705 4.065 5.987 5.257 5.22 4.812 3.37 3.427 3.395 3.917 5.967 5.725 3.762 3.38 3.347 3.302 4.367 5.572 3.727 3.365 3.34
35.977 26.084 24.334 24.352 24.319 24.379 24.472 24.884 26.549 29.599 29.174 28.757 27.702 26.594 26.124 26.652 29.222 30.377 29.757 25.867 27.197 27.619 27.039 24.964 25.192 24.999 23.909 23.912 23.942 25.514 25.822 24.912 24.547 25.434 33.877 34.477 34.697 34.447 34.452 34.429 34.492 34.509 34.482 34.477 34.419 34.454 34.507 34.542 34.604 31.804 27.849 24.697 23.917 29.447 29.442 29.472 29.482 29.517 28.532 26.894 27.077 28.519 31.309 32.297 33.132 32.677 31.775 26.032 23.58 22.755 22.535 22.43 22.315 22.217 25.41 32.152 32.12 32.51 33.695 33.105 32.39 32.537 32.53 32.33 31.89 30.357 27.792 27.402 27.287 26.622 23.86 22.617 20.942 19.715 19.655 19.597 19.547 19.49 19.42 19.37 19.205 19.08 19.722 24.055 25.215 25.09 23.99 21.715 20.97 19.162 20.33 23.072 22.175 20.642 20.462 20.687 20.315 18.717 18.605 19.692 21.66 22.487 23.977 24.275 25.395 26.262 22.092 19.057 19.165 18.36 18.267 18.19 18.137 17.96 17.995 18.997 18.5 18.322 20.59 24.245 25.632 26.315 25.067 21.647 19.065 18.882 18.687 18.787 20.932 21.632 19.56 17.892 17.925 17.927 17.99 17.977 18.005 18.012 19.367 22.7 22.167 18.642 18.36 18.372 18.44 20.505 27.532 28.42 29.087 29.25 29.39 29.58 29.67 28.977 27.962 25.93 20.885 18.367 17.772 17.8 17.757 19.352 27.857 28.897 28.997 28.73 28.62 28.097 27.102 25.4 24.245 20.737 18.667 17.905 17.9 17.637 17.475 17.405 17.4 17.635 19.017 19.16 22.332 22.525 21.78 21.622 22.387 22.757 23.272 22.925 22.88 21.362 16.58 16.3 16.25 16.107 17.825 22.012 22.082 21.61 20.095 18.727 18.555 18.142 18.215 18.022 18.045 16.862 19.362 21.245 20.575 19.085 21.105 20.802 19.6 15.06 15.02 15.732 17.015 16.3 17.785 20.72 18.885 16.165 16.552 15.162 15.54 16.637 18.897 18.955 19.197 19.16 18.97 18.86 19.245 19.405 18.597 13.122 13.067 12.542 12.402 12.307 12.242 12.15 12.042 11.902 11.967 12.575 18.362 20.945 21.91 21.402 19.612 17.897 15.675 14.407 14.042 12.87 11.945 12.502 11.142 10.64 10.585 11.482 15.782 11.897 9.317 9.49 8.442 9.055 8.85 7.345 7.102 7.222 8.022 7.355 7.575 8.18 12.58 18.185 10.555 6.032 5.682 5.547 5.407 5.077 4.087 3.787 3.755 3.692 3.59 3.587 3.53 3.47 3.47 3.79 4.22 3.642 4.435 6.975 11.15 11.412 10.97 9.507 7.292 7.802 6.662 2.852 5.09 4.197 2.985 5.155 3.712 3.385 3.357 3.325 3.522 4.047 5.525 7.587 6.182 6.147 4.035 2.805 2.805 2.87 3.307 4.995 9.515 12.34 12.637 11.912 7.79 4.26 7.982 10.92 12.5 12.8 13.145 10.23 6.315 8.542 11.252 11.502 11.882 12.155 10.805 4.087 3.23 2.962 2.957 2.93 3.26 4.807 10.555 8.635 7.747 6.022 2.64 2.837 3.265 3.335 3.34 3.395 3.357 3.502 3.337 3.09 3.052 3.12 3.015 3.517 3.467 3.162 3.51 3.297 3.05 2.935 2.947 2.927 2.957 3.142 3.007 2.852 2.815 2.795 2.797 3.3 3.117 2.86 2.942 3.24 5.265 6.21 4.22 2.845 2.897 3.272 5.52 5.897 3.415 4.002 3.082 3.69 4.735 4.72 4.655 5.67 12.89 15.05 17.085 16.46 13.077 3.752 2.852 3.09 7.717 12.1 12.007 12.175 12.935 12.262 8.51 5.865 7.812 4.717 7.602 5.86 4.157 3.492 3.607 4.575 5.882 5.38 3.497 3.41 3.37 3.815 5.125 6.055 4.38 3.382 3.382
36.709 27.039 24.549 24.524 24.849 24.559 24.692 24.709 24.757 25.992 26.217 26.274 26.447 25.954 26.024 26.512 27.924 29.369 29.282 30.707 31.232 33.959 34.394 30.269 25.082 25.604 24.064 24.037 24.077 24.707 25.667 25.109 24.524 24.767 39.269 41.647 39.689 35.542 35.569 35.622 35.624 35.632 35.617 35.589 35.552 35.557 35.582 35.667 35.699 33.399 26.647 23.967 25.184 29.347 29.399 29.424 29.457 29.509 29.577 29.277 28.027 27.777 31.299 32.709 33.184 32.295 28.257 23.292 23.43 22.732 22.622 22.8 23.18 22.647 32.307 33.075 32.672 33.16 33.527 29 31.937 32.7 32.732 32.752 32.77 30.73 26.477 26.245 26.952 27.24 27.097 26.172 22.432 21.085 20.765 19.7 19.67 19.605 19.487 19.43 19.275 19.147 21.355 24.672 26.472 24.805 23.075 21.17 19.615 19.157 21.935 23.98 24.687 24.2 22.115 19.665 19.952 20.512 19.542 18.742 19.822 22.505 24.335 24.337 25.952 25.48 21.107 18.535 19.522 19.355 18.46 18.422 18.27 18.127 18.16 18.427 18.757 19 19.83 23.772 24.76 25.837 23.957 19.585 18.802 18.785 18.68 18.665 20.002 22.76 19.447 18.092 18.072 18.097 18.13 18.137 18.175 18.175 18.985 22.032 20.592 19.175 18.482 18.477 18.482 21.147 27.607 27.802 28.025 28.167 28.425 28.592 28.835 28.702 27.825 25.735 20.61 18.06 17.955 17.942 17.907 21.142 27.057 29.15 28.865 29.097 29.215 29.157 28.06 27.772 27.655 27.027 26.265 24.52 24.35 19.607 18.177 19 17.497 17.452 17.39 17.307 17.437 17.392 17.545 18.357 19.645 20.65 22.052 22.175 22.387 19.355 16.417 16.43 16.402 16.297 20.27 22.48 23.03 22.42 20.992 20.57 20.532 20.182 19.915 19.385 18.512 18.31 20.372 21.56 20.365 19.745 20.16 20.577 18.4 14.94 14.83 14.822 15.662 17.045 19.582 21.622 20.242 16.207 17.912 14.925 14.36 14.05 18.075 18.612 18.61 18.6 18.517 18.455 18.357 18.33 17.372 13.237 12.882 12.67 12.485 12.532 12.432 12.497 13 12.055 12.15 13.335 20.492 21.195 21.962 21.062 19.81 19.307 18.21 17.53 15.44 12.147 12.59 13.225 12.227 12.375 14.097 12.89 13.397 10.065 10.005 9.57 8.645 8.297 7.915 7.947 7.997 11.175 9.6 7.522 8.04 11.255 16.057 17.535 9.782 6.645 7.48 5.627 5.482 5.552 5.08 3.995 3.775 3.67 3.615 3.57 3.565 3.52 3.452 4.007 3.65 3.637 6.605 7.87 8.91 9.94 10.797 9.705 8.7 9.42 9.002 6.525 8.15 6.815 6.112 7.162 7.01 4.71 3.737 3.317 3.302 3.332 3.457 3.82 5.372 5.17 3.295 2.802 2.822 2.892 3.44 5.047 9.617 12.592 12.727 11.697 5.217 4.745 4.777 9.095 12.402 12.997 12.345 5.345 2.56 3.495 10.62 10.78 11.672 11.952 9.147 3.592 2.92 2.965 2.962 2.962 3.04 5.99 12.08 12.082 11.74 10.575 7.97 4.865 5.482 5.257 4.412 4.68 3.157 3.542 3.74 3.255 3.62 3.882 3.267 3.737 3.625 3.212 3.195 3.505 2.967 2.922 2.917 2.985 2.965 2.92 2.887 2.96 2.937 2.842 2.805 2.795 2.77 2.805 3.582 4.375 6.34 6.305 4.152 4.37 3.21 4.127 6.1 4.742 2.955 2.925 2.977 3.007 3.465 3.81 4.93 4.81 4.067 4.167 10.81 11.517 12.13 2.985 2.89 3.77 11.167 12.68 12.785 12.622 12.947 12.197 11.622 8.037 6.825 6.995 4.937 4 3.575 4.045 5.73 7.487 6.885 4.042 3.46 3.447 3.462 4.737 4.685 5.77 4.537 3.475 3.4
36.724 28.709 24.922 24.692 25.257 24.747 24.872 24.904 24.864 24.997 25.192 25.524 26.909 29.302 29.384 28.087 31.152 33.369 33.764 34.637 34.974 35.002 35.037 33.427 26.404 25.802 24.922 24.282 24.214 24.689 24.702 24.549 24.582 25.449 37.919 42.434 40.502 35.904 35.944 35.904 35.817 35.797 35.814 35.747 35.702 35.664 35.637 35.629 35.642 34.094 28.737 24.807 27.824 29.524 29.722 29.187 29.454 29.529 29.517 30.877 32.537 31.552 32.097 33.134 32.784 31.322 24.892 23.357 22.95 22.845 22.715 23.137 23.097 24.862 31.512 33.012 33.237 33.03 32.885 27.387 24.897 28.662 32.25 33 32.595 26.65 22.312 25.06 26.935 26.92 26.83 26.512 22.555 20.942 22.697 22.705 20.195 19.78 19.715 19.55 19.33 19.295 22.092 24.985 25.892 24.26 22.167 20.685 19.942 19.505 22.46 24.307 24.277 24.407 22.115 19.65 19.577 19.592 20.175 20.015 19.39 22.947 24.385 24.732 26.16 24.815 23.367 18.907 19.535 18.867 18.685 18.607 18.472 18.347 18.455 18.54 18.595 18.71 18.932 19.682 21.552 22.457 23.42 18.567 18.692 18.807 18.73 19.425 18.93 20.55 19.215 18.285 18.247 18.265 18.287 18.295 18.305 18.632 20.765 19.657 18.717 18.57 18.557 18.53 18.507 18.497 21.262 23.03 25.282 26.78 26.535 27.755 27.832 27.957 27.667 24.095 18.332 18.327 18.725 18.085 18.067 21.95 28.882 29.255 28.12 28.062 28.232 24.88 26.682 27.277 27.42 27.735 27.695 28.38 27.822 27.447 26.192 25.307 17.927 19.14 22.157 18.467 17.837 18.107 17.275 17.13 17.195 17.442 18.892 20.142 19.667 18.002 16.557 16.545 16.45 16.435 21.48 22.57 23.095 22.167 20.767 20.167 20.19 20.24 20.342 19.062 16.087 18.35 20.6 21.312 20.535 20.555 20.592 20.372 18.627 17.105 15.875 15.925 15.98 19.45 21.747 22.362 21.035 17.057 16.915 15.185 14.295 14.122 17.352 17.297 18.522 19.447 19.31 19.912 18.012 14.925 14.285 13.147 13.287 13.63 12.77 12.625 12.542 12.657 13.532 12.412 12.19 15.785 20.855 21.81 21.677 20.605 20.942 20.695 20.057 18.975 14.17 11.85 11.435 11.445 12.6 15.005 17.655 16.762 11.612 12.25 12.55 10.265 7.95 7.647 7.562 7.912 8.642 11.52 9.747 7.475 9.037 13.972 9.78 12.432 12.562 11.072 10.722 6.485 5.607 5.495 5.535 5.055 4.07 3.775 3.665 3.595 3.555 3.495 3.442 3.765 3.427 4.567 7.375 7.38 7.382 8.04 9.837 10.91 9.545 9.95 10.27 9.955 9.69 9.505 9.045 7.952 7.95 7.887 6.577 4.782 3.292 3.302 3.305 3.322 5.027 4.54 4.825 3.59 2.84 2.852 2.955 4.142 9.222 11.28 11.88 10.735 3.64 5.322 3.802 7.487 7.427 11.09 7.872 3.355 3.822 4.245 6.97 10.93 12.052 11.142 5.145 3.385 2.937 2.965 2.897 3.052 2.702 7.497 12.497 12.837 12.737 12.527 11.657 9.017 11.722 11.73 10.95 11.422 11.26 5.152 6.87 6.755 4.09 4.032 3.077 3.065 3.665 3.692 3.88 4.23 3.467 3.32 2.92 3.14 3.505 3.267 3.012 3.025 2.95 2.957 2.905 2.88 2.832 2.775 2.767 3.292 4.917 6.735 7.545 7.705 7.307 5.025 5.97 3.602 2.887 2.922 3.057 3.012 3.002 3.662 3.075 3.207 3.38 3.47 4.197 4.71 5.117 2.877 2.935 4.432 9.532 12.127 12.505 12.962 12.557 10.682 7.03 3.437 3.072 4.587 3.78 10.01 8.422 6.985 6.175 7.255 6.737 3.55 3.465 3.45 3.402 4.835 4.435 3.612 3.44 3.407 3.387
36.692 32.212 24.882 24.859 24.952 24.899 25.014 25.082 25.084 25.527 25.612 27.187 34.217 34.832 35.092 35.214 35.317 35.157 35.039 34.799 34.657 34.579 34.922 34.494 29.212 25.134 24.849 24.364 24.372 24.574 24.562 24.574 24.644 24.659 37.842 38.794 38.289 34.824 34.814 34.774 34.772 34.737 34.719 34.612 34.572 34.549 34.509 34.534 34.622 33.164 27.154 24.609 28.599 29.419 29.182 28.382 26.997 28.174 29.682 32.119 32.912 33.097 32.812 33.199 32.482 30.722 24.037 24.217 23.122 22.99 22.88 22.767 22.765 26.345 33.275 32.547 32.547 32.892 31.357 28.525 28.112 28.787 30.795 32.395 32.015 24.595 21.695 23.687 27.337 28.212 27.447 24.407 21.137 21.665 24.947 25.912 24.782 24.27 20.405 19.597 19.437 20.622 24.407 24.095 24.655 23.235 21.75 21.345 21.38 22.272 23.662 24.44 23.832 21.042 19.952 19.59 19.562 19.497 22.002 21.505 20.687 23.795 24.17 25.417 26.04 23 20.705 19.332 19.102 18.937 18.84 18.852 18.65 18.645 19.077 18.89 18.842 18.887 18.962 18.99 19.06 19.81 19.217 20.177 19.14 18.712 18.737 19.04 18.952 19.5 18.567 18.515 18.49 18.475 18.52 18.505 18.515 19.61 21.292 18.825 18.797 18.665 18.68 18.542 18.515 18.525 18.5 18.527 18.58 18.582 20.755 21.635 21.997 25.235 24.505 19.687 18.61 18.72 18.507 18.242 18.237 26.09 28.645 28.947 27.922 28.41 26.792 24.647 27.295 27.507 27.322 27.18 27.11 27.557 27.997 28.047 28.057 24.287 18.59 23.642 26.267 25.257 25.68 23.927 18.057 17.37 17.29 17.122 17.062 17.11 16.917 16.78 16.692 16.64 16.52 16.94 18.577 19.512 20.262 20.837 20.507 20.442 18.647 18.867 19.08 17.657 16.667 17.942 20.542 21.072 20.34 20.78 21.232 20.272 17.375 17.192 17.302 17.14 17.415 20.455 21.43 21.927 21.252 16.88 15.262 15.075 14.395 14.345 14.47 14.017 17.605 19.957 19.755 20.297 20.04 15.122 13.982 13.245 13.875 13.43 12.857 12.732 12.632 12.712 12.605 12.772 12.19 18.725 20.785 22.17 20.887 19.387 19.79 20.292 20.875 20.827 13.367 12.017 11.315 11.147 11.457 13.155 17.957 15.487 12.637 14.377 15.342 12.025 7.897 7.742 7.66 7.6 7.73 7.85 7.775 8.12 9.052 9.817 7.702 7.575 7.635 9.782 12.792 11.062 7.01 5.7 5.552 5.56 5.137 3.997 3.73 3.59 3.54 3.552 3.47 3.44 3.37 5.657 7.362 7.332 7.37 8.595 10.427 10.39 8.472 8.417 9.365 9.905 10.24 10.195 9.475 7.985 7.905 7.722 6.655 4.497 3.265 3.285 3.285 3.27 3.31 4.01 4.317 6.257 4.135 3.12 4.317 6.6 4.632 4.86 5.037 6.74 3.102 3.185 3.122 4.752 3.367 4.76 5.355 4.132 5.167 4.052 9.115 11.522 12.192 10.675 4.522 2.945 2.91 2.892 2.895 3.215 2.705 10.865 12.32 12.605 12.76 12.495 11.332 8.762 11.865 12.195 12.297 12.345 11.73 8.977 11.987 11.97 10.927 11.215 11.067 5.5 3.295 3.207 4.115 3.577 3.48 3.875 4.025 3.515 3.395 3.232 3.19 3.825 3.325 3.34 3.095 2.91 2.922 2.855 2.825 2.785 2.747 4.11 6.255 7.88 7.325 5.895 5.717 3.082 2.885 2.902 2.967 2.96 3.71 5.09 3.002 3.942 3.555 3.38 3.297 3.76 3.732 2.867 3.062 4.247 7.125 8.957 11.05 12.857 11.957 6.6 3.365 2.442 2.45 2.135 4.595 12.082 11.895 11.422 9.49 6.3 4.427 3.337 3.892 4.19 4.11 4.697 3.575 3.417 3.425 3.412 3.397
36.677 35.089 25.537 25.064 25.087 25.369 25.182 25.252 25.257 25.354 27.172 31.342 35.377 35.677 35.744 35.794 35.629 35.084 34.069 34.027 34.247 34.634 34.999 34.652 28.934 25.932 26.407 24.629 24.564 24.522 24.602 24.642 24.644 26.694 33.889 33.767 34.037 33.757 33.707 33.734 33.677 33.664 33.647 33.592 33.572 33.542 33.552 33.532 33.552 32.832 26.792 24.467 29.762 30.449 28.614 27.152 26.902 26.862 29.129 32.502 32.384 32.549 32.894 33.059 32.612 28.212 23.787 23.445 23.187 23.097 23.227 23.325 22.915 31.922 34.55 34.657 33.282 31.897 30.957 29.212 29.125 28.157 27.917 29.87 30.595 24.235 22.847 25.445 28.542 28.667 26.46 21.712 21.012 22.687 25.707 25.67 25.692 25.7 21.437 19.735 19.625 28.227 29.535 25.167 23.527 22.065 21.395 19.657 21.315 23.115 24.09 24.515 23.022 19.865 19.592 19.565 19.54 20.64 31.572 31.367 27.96 22.107 20.777 24.212 24.385 21.312 19.305 19.205 19.222 19.14 19.062 18.942 18.877 19.337 20.01 19.932 19.56 19.407 19.062 19.045 19.125 19.187 19.225 19.547 20.077 19.832 19.992 19.552 19.812 19.19 18.737 18.69 18.677 18.672 18.697 18.715 18.685 20.57 20.485 18.722 18.792 18.73 18.71 19.757 22.117 20.345 18.752 18.602 19.16 19.8 18.657 18.547 18.582 19.262 18.58 18.652 18.765 18.362 18.467 18.39 18.7 26.867 28.95 28.592 28.08 28.315 25.465 22.91 26.712 27.1 27.807 27.605 27.637 27.415 26.752 27.027 27.275 26.21 20.48 25.94 26.39 26.622 26.535 25.605 19.125 21.837 21.68 20.325 18.127 18.05 17.455 17.787 16.957 17.365 16.67 16.555 16.475 16.41 16.537 16.405 16.592 17.025 16.32 16.852 17.465 16.672 15.992 15.907 17.212 18.77 18.907 19.637 20.432 20.075 17.627 17.922 17.647 17.592 18.417 21.022 21.397 21.202 20.07 15.83 16.032 14.56 14.382 14.332 14.095 14.875 18.847 20.125 19.875 20.532 20.08 14.887 13.662 13.297 13.472 13.062 12.925 12.912 13.137 13.245 12.41 12.007 18.91 21.322 22.31 21.78 20.537 16.24 17.697 18.377 19.162 17.292 12.14 13.247 12.352 11.982 11.24 11.155 12.31 11.192 12.587 14.725 15.327 10.492 8.655 7.797 7.735 7.7 7.73 7.717 7.637 9.195 9.3 7.38 7.5 7.507 7.845 8.592 9.227 11.055 7.172 5.907 5.655 5.652 5.602 5.095 4.06 3.66 3.547 3.507 3.51 3.467 3.39 3.665 5.175 7.307 7.4 9.39 10.945 9.507 7.447 7.045 8.017 7.945 9.402 9.937 8.617 7.257 8.062 7.45 6.537 3.805 3.267 3.257 3.295 3.25 3.27 3.28 3.347 3.717 3.925 4.382 6.615 7.312 7.452 5.52 2.992 2.755 3.915 3.497 3.31 4.182 4.66 3.61 4.47 10.195 9.422 8.952 12.095 12.932 12.482 7.74 3.347 2.892 2.927 2.83 2.917 3.137 3.342 7.86 9.992 10.822 11.722 11.9 11.042 9.98 10.135 11.105 11.857 12.442 11.547 11.115 11.882 12.167 12.582 12.517 11.737 7.735 11.402 10.965 7.987 8.01 7.425 3.747 3.137 3.69 3.552 3.832 3.71 2.977 2.97 3.767 3.947 3.097 3.072 2.905 2.875 2.867 2.837 3.385 3.432 4.57 4.57 5.197 5.332 2.877 2.902 3.005 2.952 2.935 4.852 5.33 2.967 3.957 3.81 3.342 4.105 4.192 2.925 2.862 4.235 3.65 4.49 5.65 7.092 7.525 8.19 3.445 3.727 2.205 2.192 2.125 8.002 12.295 12.582 12.417 12.037 11.637 9.88 7.317 4.292 3.28 4.357 4.605 3.527 3.425 4.252 3.72 3.445
36.644 36.152 26.682 26.029 28.812 26.359 25.309 25.399 25.407 25.454 27.569 29.702 35.229 35.292 35.212 35.049 35.027 34.294 31.692 31.967 34.337 34.879 34.657 34.412 31.112 26.804 28.189 25.442 24.714 24.717 25.629 24.972 24.917 24.919 30.069 31.084 32.012 32.449 32.379 32.289 32.167 32.547 32.959 31.829 31.479 32.219 32.389 30.814 30.759 32.249 26.164 27.242 30.734 30.502 27.924 27.002 27.079 27.029 30.822 32.939 33.079 32.854 32.642 32.932 31.562 26.222 24.8 23.53 23.305 23.245 23.5 24.69 28.627 34.005 34.687 34.95 33.812 29.737 28.845 29.337 28.812 27.737 27.705 28.722 29.355 28.232 26.497 27.445 28.932 27.862 23.147 21.045 20.807 22.812 25.922 25.67 26.597 25.285 21.227 19.8 23.912 31.215 31.787 31.462 29.427 23.285 21.617 19.817 21.752 23.26 24.022 24.017 21.895 19.72 19.665 19.627 19.555 21.8 31.975 32.627 32.107 28.905 21.217 19.817 19.882 19.732 19.33 19.355 19.395 19.29 19.322 19.535 19.08 19.757 20.297 20.212 20.232 20.145 19.745 19.395 19.25 19.265 19.347 19.375 19.402 19.527 20.055 20.722 20.735 19.247 18.927 18.907 18.88 18.855 18.872 18.912 19.057 21.967 22.147 21.42 20.72 20.335 19.197 22.425 24.422 23.907 22.067 23.397 26.927 27.057 23.18 20.677 20.867 19.867 18.602 18.575 18.567 18.542 18.58 18.567 20.442 27.215 29.205 28.725 28.235 27.28 23.515 19.627 20.765 22.815 24.94 26.19 26.715 24.46 22.305 23.64 25.425 21.37 20.115 24.17 25.2 26.355 25.962 23.71 21.45 24.137 24.22 22.83 18.13 17.977 17.742 18.38 17.235 18.855 18.667 17.28 17.027 16.665 16.607 16.475 16.327 16.237 16.075 16.027 15.975 15.867 15.762 15.692 15.635 15.775 15.705 15.652 15.787 16.247 16.395 18.352 18.227 17.76 18.072 21.26 22.295 22.115 18.7 15.22 15.66 15.425 14.8 14.88 16.312 18.122 19.75 19.982 19.99 20.46 18.325 14.055 13.557 13.835 13.375 13.172 13.045 12.952 13.225 12.947 12.627 15.705 22.297 23.317 24.062 22.565 21.752 14.517 14.667 14.595 15.97 13.092 11.667 13.212 12.895 12.575 12.067 11.32 12.367 11.772 12.03 13.382 11.577 11.075 8.182 7.875 7.81 7.825 7.822 7.832 7.915 7.78 7.52 7.487 7.477 7.477 7.652 7.345 7.272 7 6.702 6.22 5.787 5.78 5.727 5.527 5.095 4.185 3.647 3.517 3.445 3.54 3.52 3.402 3.487 4.187 6.31 9.202 10.725 8.862 8.065 7.862 7.602 7.305 9.602 9.822 7.6 7.437 8.062 7.15 5.957 3.357 3.297 3.272 3.247 3.23 3.26 3.287 3.277 3.275 3.275 3.62 6.59 7.285 8.107 7.68 6.277 4.095 3.99 3.025 3.107 5.75 7.132 5.542 5.647 9.335 12.907 12.775 12.65 12.932 10.75 4.345 2.875 2.962 2.922 2.877 2.97 2.925 3.34 3.872 3.455 5.14 11.575 11.035 6.137 6.33 6.55 9.295 11.26 11.912 10.925 5.422 6.862 10.732 11.94 12.585 11.027 9.472 12.195 12.477 12.242 11.957 11.985 5.927 3.655 3.32 3.02 3.642 3.477 2.735 2.982 3.205 2.947 3.24 4.31 3.58 2.877 2.925 2.87 3.022 3.34 3.355 4.84 3.772 2.865 2.825 2.795 2.935 2.912 3.002 4.945 3.837 2.975 3.232 3.642 3.372 5.902 4.14 2.82 3.217 4.067 3.272 3.147 3.012 3.667 4.497 3.645 3.497 3.137 2.7 3.917 4.485 11.59 12.39 12.295 12.267 12.597 13.245 12.157 11.81 11.44 9.915 3.997 3.53 3.41 3.727 5.435 4.935 4.427
36.839 37.142 34.712 36.459 37.842 33.732 25.464 25.557 25.544 25.584 27.307 28.699 34.249 34.592 34.132 32.987 32.904 31.662 26.672 27.627 31.374 33.544 33.409 32.744 29.669 25.774 28.409 26.514 24.902 24.814 26.872 26.792 25.922 25.067 25.047 25.007 27.479 25.857 25.392 25.322 24.969 24.902 25.139 25.957 25.844 25.992 26.207 25.652 25.874 26.344 24.707 28.092 30.809 30.074 27.119 27.012 26.994 27.129 30.239 32.332 32.447 32.877 33.112 32.664 27.962 23.847 24.56 23.635 23.46 23.6 23.402 25.22 32.727 34.222 34.982 34.432 31.905 28.2 29.027 29.227 28.495 27.53 28.102 29.135 29.292 28.305 28.29 27.605 27.675 27.155 22.492 21.07 20.727 25.15 26.127 25.932 25.875 23.802 20.315 19.91 24.985 31.597 32.49 32.127 28.822 23.502 22.095 21.792 22.607 23.345 23.045 22.492 20.175 19.73 19.667 19.647 19.477 25.005 32.67 32.862 31.715 24.375 20.48 20.582 20.292 20.05 19.465 19.537 19.542 19.55 19.567 20.387 19.532 20.017 23.447 24.67 22.117 20.26 20.64 21.935 21.16 19.442 19.447 19.45 19.525 19.47 19.42 19.395 19.437 19.18 19.112 19.075 19.065 19.05 19.102 19.127 19.362 23.187 22.872 22.795 22.622 22.252 22.18 24.205 24.66 23.272 21.337 21.997 27.395 30.69 29.937 28.1 28.507 26.632 19.867 18.74 18.775 18.762 18.802 18.682 22.835 28.39 29.277 28.127 28.405 24.347 21.997 19.412 18.692 18.605 20.542 19.145 23.31 21.66 19.755 20.987 21.17 18.332 20.637 23.252 23.297 23.485 23.955 21.52 22.507 24.475 24.29 21.392 17.595 17.537 17.41 17.307 17.222 18.917 17.49 16.977 17.242 17.742 18.825 20.82 20.025 18.467 17.762 17.167 16.197 16.155 15.865 15.815 15.73 15.655 15.55 15.422 15.41 15.367 15.43 16.045 17.35 15.91 17.077 19.737 19.305 20.777 17.637 15.287 16.452 15.762 15.255 18.645 18.495 19.205 19.995 19.765 20.392 20.26 15.617 13.955 13.76 14.297 13.325 13.247 13.16 13.005 12.782 12.865 13.265 19.962 22.227 23.457 23.73 22.65 20.432 12.627 13.15 12.125 11.86 12.002 13.162 12.59 11.537 11.55 11.88 12.492 12.842 12.325 13.005 12.085 13.61 13.63 10.04 8.137 8.835 7.977 8 8.005 7.985 7.587 7.515 7.467 7.43 7.425 7.447 7.417 7.4 7.287 7.047 6.93 6.45 8.417 10.615 8.122 5.555 5.17 4.352 3.755 3.527 4.107 4.427 3.575 3.437 3.337 3.302 4.002 6.715 7.68 7.537 7.892 8.19 8.94 9.967 9.24 7.147 7.72 7.837 6.865 5.505 3.472 3.297 3.28 3.267 3.255 3.277 3.28 3.297 3.31 3.302 5.215 6.562 6.642 7.2 8.005 7.55 4.88 3.8 2.902 3.807 7.582 7.545 7.202 7.012 11.842 13.31 13.705 13.292 12.15 5.77 3.062 2.895 2.962 2.882 2.987 3.67 4.265 3.615 3.202 3.432 2.955 9.625 7.277 3.117 3.242 3.31 3.68 6.937 8.782 10.027 8.247 4.972 7.992 11.392 11.965 9.325 7.525 9.955 11.68 12.15 12.592 11.852 4.855 3.842 2.942 3.105 4.442 4.192 2.727 3.19 3.942 3.195 3.122 2.972 3.145 2.84 2.84 2.872 2.907 2.867 3.275 4.42 5.007 3.405 2.725 2.75 3.02 2.867 3.56 5.322 3.66 2.88 3.037 3.967 3.72 4.967 3.407 2.857 3.337 3.335 3.06 3.062 2.997 3 2.99 2.965 3.127 2.527 3.215 4.457 4.682 12.277 12.557 12.195 11.845 11.897 12.247 12.432 12.555 12.117 11.482 6.98 4.102 3.562 5.067 4.875 3.607 3.832
37.552 37.479 37.469 37.447 37.787 34.872 25.657 25.722 25.799 25.757 26.604 27.984 31.814 33.157 33.347 32.114 32.467 31.082 26.304 27.672 28.672 30.114 32.277 33.879 32.702 28.267 27.542 26.132 25.027 26.599 32.557 31.672 28.792 25.307 25.314 25.294 25.324 25.267 26.224 25.299 25.289 25.289 25.294 25.277 25.284 25.387 25.457 26.929 28.474 25.389 24.854 28.752 30.742 29.657 27.384 27.117 27.037 27.199 30.702 32.924 32.564 32.604 33.887 30.184 24.584 23.805 23.715 23.635 23.597 24.097 23.672 25.492 32.012 34.615 34.897 34.02 30.767 28.51 29.347 28.87 27.785 27.56 28.6 29.437 28.805 27.87 28.17 28.342 28.035 27.242 24.905 23.342 23.67 26.147 26.007 26.065 25.22 21.247 20.105 20.04 27.845 32.032 32.487 31.855 29.037 23.77 21.472 21.85 22.55 23.137 22.97 22.105 19.825 19.772 19.797 19.842 20.747 30.01 32.395 32.795 31.797 28.255 23.882 20.815 20.435 19.955 19.805 19.765 19.755 19.707 19.645 19.805 19.695 21.282 28.602 29.012 25.975 21.402 22.68 24.217 23.067 19.837 20.29 19.62 19.642 19.585 19.505 19.47 19.402 19.337 19.31 19.26 19.235 19.252 19.215 19.26 20.175 22.057 21.955 22.245 22.505 22.377 23.775 24.565 24.397 22.232 20.577 22.505 27.81 30.927 30.162 30.11 30.985 30.532 20.615 19.142 19.802 19.19 18.892 18.82 24.697 26.317 27.14 27.27 27.675 23.317 19.545 18.995 20.61 19.54 18.502 19.36 21.347 20.142 18.447 19.825 20.58 18.25 22.077 22.85 23.057 23.077 21.362 20.217 23.397 24.42 24.07 19.945 17.655 17.575 17.48 17.382 17.677 18.98 17.335 17.155 17.027 17.812 20.24 22.207 22.29 22.212 21.995 21.627 22.115 19.947 16.327 15.84 16.555 18.71 16.052 18.535 16.01 15.57 15.377 15.305 15.185 15.135 15.092 15.052 15.612 15.622 16.08 17.837 19.895 18.022 14.782 16.865 19.802 20.307 20.77 20.04 21.09 19.717 14.995 14.035 13.537 13.48 13.415 13.402 13.272 13.08 12.962 13.785 13.655 19.955 22.88 23.782 23.377 22.297 22.305 19.202 17.395 13.025 12.505 17.097 17.515 12.862 11.965 11.432 11.345 11.277 11.995 13.287 13.972 12.082 12.74 13.087 9.637 8.752 8.507 8.437 8.872 8.872 7.64 7.432 7.372 7.417 7.4 7.375 7.43 7.397 7.417 7.365 7.287 7.252 7.35 9.35 14.537 12.102 6.112 5.657 5.38 4.785 3.872 3.67 3.832 3.675 4.512 4.115 3.327 3.292 3.312 4.685 6.032 7.092 7.21 9.167 9.987 8.84 7.022 7.995 7.612 6.54 3.845 3.327 3.252 3.23 3.25 3.262 3.27 3.275 3.282 3.385 5.76 6.527 6.552 6.692 7.33 8.137 6.602 4.315 3.935 2.98 8.072 9.33 7.882 7.59 7.68 10.555 12.412 13.047 13.215 9.79 2.947 2.89 2.96 2.932 2.882 3.607 3.087 6.007 9.177 5.815 4.252 3.11 2.917 3.94 3.162 3.08 3.145 3.457 3.202 3.737 7.69 6.952 3.107 2.88 6.362 8.292 7.267 4.52 2.747 8.367 11.342 12.185 9.917 2.942 3.057 2.967 3.507 13.39 13.95 10.17 4.99 3.182 3.257 2.917 3.145 3.145 2.817 2.802 3.147 3.55 2.955 2.825 2.932 2.867 2.822 2.735 2.72 2.712 2.75 4.072 4.78 3.02 2.87 3.122 4.532 4.415 4.095 3.332 3.002 5.17 3.612 3.06 3.065 3.65 3.057 2.985 3.247 3.257 2.257 2.217 3.795 8.832 11.785 12.152 12.427 12.532 12.395 11.952 11.95 12.485 12.157 10.907 8.042 5.67 4.275 5.537 4.107 3.48 3.465
37.499 37.457 37.489 37.472 37.732 37.017 27.237 25.917 25.997 25.974 26.029 26.354 27.684 32.889 33.532 32.174 32.304 31.697 28.427 29.049 32.354 35.632 36.317 37.269 36.922 32.037 25.669 25.377 25.217 26.669 31.562 32.047 28.799 25.492 25.504 26.999 30.497 31.054 26.607 27.204 25.699 25.689 25.644 25.627 25.584 25.627 25.629 28.104 28.747 25.594 26.282 30.394 30.702 29.692 29.482 28.554 28.214 27.817 31.582 32.417 32.404 32.997 32.912 28.114 24.062 23.907 23.892 23.77 23.757 23.865 23.592 28.967 34.057 34.85 34.512 33.652 29.797 29.117 29.435 28.407 27.395 27.982 29.055 29.312 28.347 27.577 27.37 27.677 28.025 27.467 26.66 26.377 26.265 26.412 26.187 26.275 24.42 20.405 20.212 22.83 31.405 32.357 32.432 31.167 26.187 22.117 21.685 22.585 22.767 22.915 22.905 21.3 20.145 19.862 20.515 20.192 25.427 31.532 32.585 32.352 31.715 31.385 31.005 28.82 24.877 20.622 20.567 19.955 19.98 19.895 19.84 19.92 21.382 26.035 29.377 29.085 28.38 27.985 25.715 24.772 20.642 20.557 20.205 19.827 19.772 19.687 19.617 19.587 19.512 19.535 19.472 19.437 19.42 19.43 19.42 19.537 21.817 21.22 21.59 22.72 22.427 20.64 23.627 24.665 24.177 21.112 21.637 26.3 30.107 31.45 30.15 30.41 31.707 28.727 20.547 19.25 20.002 19.092 19.002 19.55 24.785 25.17 25.227 25.225 25.05 22.295 20.682 20.092 20.385 20.002 19.22 19.962 20.507 18.695 18.482 18.26 19.125 18.01 19.295 20.882 20.172 20.667 18.68 20.41 23.085 23.46 23.037 19.08 17.755 17.727 17.545 17.477 18.117 18.28 19.4 18.492 17.337 17.862 19.402 20.43 19.962 20.5 21.957 22.125 22.145 20.085 16.43 16.172 22.92 23.722 21.3 20.887 19.707 19.977 17.687 16.715 15.727 15.905 15.255 15.135 15.035 14.962 14.837 16 18.735 17.917 15.2 15.35 17.672 19.392 20.02 20.357 20.565 18.307 15.127 13.86 13.62 13.64 13.537 13.457 13.352 13.127 13.037 13.162 14.1 21.872 23.21 23.94 23.6 23.455 23.037 22.565 22.705 19.835 11.947 14.362 14.925 16.97 16.48 13.922 12.347 11.342 11.315 12.152 13.71 10.597 9.77 10.45 9.65 9.03 8.725 8.732 8.782 8.407 7.49 7.35 7.322 7.42 7.51 7.527 7.435 7.46 7.367 7.675 9.737 11.427 12.06 8.352 11.085 9.862 6.702 5.872 5.73 5.65 5.227 4.57 4.057 5.672 4.63 4.192 3.35 3.302 3.315 3.235 3.252 4.28 5.622 7.115 8.16 7.91 7.305 8.08 7.31 6.37 3.632 3.275 3.267 3.242 3.26 3.267 3.27 3.275 3.307 4.8 6.48 6.522 6.635 7.145 7.917 8.747 9.785 9.082 5.68 5.602 9.46 9.682 7.675 6.77 7.97 9.365 9.737 9.955 12.05 5.315 2.892 2.922 2.967 2.902 3.275 3.695 5.365 9.937 9.197 8.75 8.42 5.295 4.605 5.125 5.01 3.43 3.09 3.092 3.322 6.085 6.057 5.175 3.17 3.72 5.172 4.4 3.707 3.582 2.36 3.472 6.637 8.205 6.86 2.805 2.91 3.09 6.805 15.187 15.537 15.175 9.515 5.557 4.815 4.582 2.995 2.942 2.987 3.122 3.125 3.317 3.032 2.772 2.845 2.852 2.85 2.855 2.752 2.722 2.695 2.867 3.672 3.355 2.845 2.855 3.462 5.492 4.15 3.922 3.07 4.1 3.565 3.13 4.047 3.62 2.922 3.175 4.172 2.517 2.262 2.69 3.267 4.837 8.38 11.84 11.902 12.227 12.725 12.465 12.395 12.395 11.625 8.19 6.107 4.887 4.99 4.985 4.04 3.65 3.497
37.497 37.494 37.534 37.517 37.617 37.817 28.799 26.102 26.207 26.219 26.199 26.512 26.382 32.034 33.299 31.817 30.857 30.887 27.984 27.542 35.019 37.807 38.317 38.229 37.199 29.967 26.104 25.582 25.342 25.354 26.444 27.607 26.827 25.594 25.639 28.637 32.577 30.839 25.717 27.389 25.792 25.947 25.867 25.824 25.929 25.852 25.747 26.917 28.077 25.374 25.199 29.804 29.419 29.399 30.169 29.774 28.377 31.152 33.432 33.294 32.852 33.194 31.927 25.447 24.164 24.047 23.992 23.907 24.01 23.892 23.76 32.792 34.657 35.277 34.227 32.872 30.11 29.932 29.567 28.25 27.615 28.527 29.335 28.875 27.822 26.997 27.042 27.357 27.377 25.867 27.042 26.175 26.152 26.157 26.355 26.77 22.287 20.52 20.337 28.812 31.81 32.77 32.042 29.307 23.497 21.802 21.642 22.6 22.555 21.902 22.777 22.29 22.2 20.997 20.432 20.755 26.65 32.205 32.71 32.555 32.577 32.172 31.842 31.41 27.635 20.29 20.5 20.185 20.125 20.052 19.997 20.322 24 27.502 29.502 28.68 28.327 28.102 28.487 28.117 26.757 23.937 20.475 19.987 19.872 19.8 19.765 19.747 19.675 19.66 19.632 19.57 19.592 19.572 19.547 20.275 21.992 21.18 22.267 25.41 24.765 21.757 23.687 23.962 23.762 20.842 20.317 21.315 30.222 30.612 30.097 30.507 30.89 28.775 19.837 19.652 19.745 19.265 19.137 20.647 25.54 24.92 25.092 24.937 24.825 23.577 21.812 19.127 19.265 19.49 19.797 20.725 20.78 20.68 19.88 18.717 18.645 18.097 18.042 18.192 18.025 18.08 19.112 20.297 22.94 22.745 20.57 18.845 17.845 17.875 17.697 17.595 20.487 19.842 22.512 23.102 21.042 18.43 18.037 18.83 16.595 17.385 21.28 21.665 19.18 18.835 16.585 19.322 24.58 21.145 20.89 21.205 21.495 20.662 20.522 20.822 19.692 19.332 18.327 16.667 17.617 15.945 15.087 14.862 15.337 14.712 14.645 14.552 14.59 15.94 15.805 17.272 16.582 16.927 14.2 13.872 13.782 13.735 13.637 13.567 13.397 13.187 13.135 12.072 18.245 22.075 23.182 23.36 22.605 23.047 23.43 23.627 23.31 19.16 13.197 12.252 12.237 14.512 15.467 15.082 15.35 14.895 13.98 11.745 12.742 10.772 10.397 9.817 8.887 8.81 8.897 8.955 8.942 8.037 7.47 7.362 7.357 7.417 7.51 7.505 7.462 7.437 7.382 9.885 13.795 15.855 14.437 13.567 10.38 7.585 7.105 6.552 5.875 5.72 5.662 5.397 5.015 4.977 4.652 4.342 3.42 3.287 3.355 3.285 3.302 3.257 3.21 3.637 3.98 6.667 7.532 7.947 7.052 5.652 3.237 3.257 3.262 3.24 3.227 3.245 3.285 3.275 3.717 6.335 6.547 6.64 6.99 7.742 8.535 9.367 10.09 9.922 8.987 7.34 9.67 8.87 5.617 7.207 8.71 9.2 9.742 9.62 8.63 3.915 2.862 2.912 2.94 2.877 3.815 5.34 9.307 10.762 11.457 9.942 9.215 4.605 5.435 7.032 6.422 4.17 3.32 3.09 3.547 6.742 6.68 4.697 2.71 3.982 6.357 5.79 3.995 3.182 2.285 2.282 2.325 2.242 3.752 3.407 2.947 3.65 11.095 15.51 15.275 15.097 6.757 10.182 12.72 14.275 8.79 7.127 3.2 3.125 3.437 3.335 2.94 2.772 2.742 3.21 3.252 2.92 2.832 2.835 2.735 2.687 2.7 2.765 2.817 2.862 4.56 7.47 3.782 3.23 3.73 3.307 4.08 3.27 3.552 3.177 2.91 4.925 4.042 2.545 2.337 2.972 3.405 3.315 5.39 11.307 11.092 8.795 10.39 12.04 12.26 12.092 11.807 7.66 7 6.667 8.775 10.23 6.072 3.912 3.495
37.509 37.554 37.569 37.512 37.509 37.499 35.297 27.552 26.319 26.369 26.382 26.519 25.922 25.782 25.764 28.089 29.997 30.389 28.584 27.537 33.912 37.872 39.009 38.714 37.487 32.427 26.569 25.859 25.524 25.542 25.867 31.107 27.809 25.744 25.802 25.822 27.249 26.199 26.347 25.869 25.917 25.949 25.957 25.999 25.959 25.917 25.839 26.209 25.782 25.354 28.274 34.894 35.297 31.737 29.047 29.824 29.617 32.419 33.764 33.974 33.857 33.499 31.079 25.857 24.257 24.162 24.195 24.012 24.795 24.092 29.267 34.015 34.872 34.92 33.985 32.195 32.022 30.367 28.695 28.815 29.49 29.35 29.355 28.395 27.335 26.892 27.162 27.007 23.18 22.29 25.852 26.107 26.21 26.292 26.125 25.545 20.825 20.597 21.857 31.175 32.275 32.615 31.585 30.185 27.197 21.507 21.492 21.977 21.872 21.637 22.287 22.825 22.515 21.292 21.31 20.585 27.012 32.622 32.38 31.502 31.52 31.642 31.912 31.327 26.05 21.38 20.55 20.385 20.275 20.225 20.17 20.345 23.392 29.017 29.372 28.675 28.265 28.037 28.457 28.442 27.427 26.43 23.365 20.217 20.075 19.932 19.9 19.832 19.822 19.827 19.79 19.772 19.74 19.715 19.695 22.197 22.585 21.8 23.105 25.275 25.105 23 23.07 23.225 23.64 23.857 23.67 25.605 30.457 30.595 30.152 30.81 30.585 28.11 19.867 20.147 20.367 19.365 19.302 23.067 25.312 24.927 25.305 24.917 24.8 23.7 20.872 19.972 19.987 19.892 21.3 23.022 23.252 22.3 21.417 21.52 19.512 19.76 19.26 18.772 18.937 18.36 19.935 21.02 22.885 19.962 19.002 18.22 17.942 17.84 17.755 17.682 20.88 21.072 22.24 23.695 23.322 19.437 17.53 18.467 16.767 17.027 19.022 19.255 16.877 18.485 16.752 20.88 23.812 21.812 24.385 21.16 20.252 17.167 17.332 18.992 19.112 20.475 20.745 20.742 20.657 20.2 19.802 17.182 14.885 15.252 14.85 14.66 14.597 14.472 14.382 14.26 14.132 14.075 14.005 13.95 13.915 13.93 13.785 13.71 13.552 13.345 12.69 13.082 20.645 21.885 21.985 22.46 22.397 21.562 22.057 22.617 23.177 18.19 14.792 12.592 13.08 12.317 12.035 12.345 12.917 15.207 15.267 14.215 13.355 12.47 11.722 11.562 10.467 9.59 9.215 9.465 9.257 7.567 7.412 7.34 7.332 7.39 7.547 7.955 7.59 7.457 7.337 8.032 13.825 15.607 15.067 14.3 10.465 7.355 8.727 6.905 6.847 6.23 9.127 5.247 5.082 4.875 4.782 4.822 4.562 3.657 3.337 3.297 3.31 3.272 3.217 3.2 3.212 4.085 4.942 6.535 6.67 4.76 3.27 3.25 3.245 3.222 3.227 3.27 3.275 3.29 5.587 6.507 6.582 6.852 7.615 8.425 9.245 9.687 9.36 8.705 8.397 8.747 9.625 7 5.28 7.17 9.402 9.482 9.777 9.117 5.235 2.822 2.84 2.895 2.937 2.957 4.13 8.047 10.417 10 10.082 10.165 8.967 4.507 3.825 7.127 9.26 8.472 6.302 4.415 4.555 5.517 5.765 3.355 2.65 2.812 4.567 5.255 4.707 2.467 2.305 2.272 2.26 2.587 4.237 3.012 4.625 5.647 14.505 15.507 15.082 13.465 7.437 12.485 13.867 14.897 13.717 14.947 10.817 4.332 3.217 2.89 3.075 3.26 2.837 3.66 4.11 3.2 2.792 2.85 2.857 2.79 2.727 2.737 2.75 2.817 4.58 5.562 3.195 2.997 3.98 3.767 3.292 2.965 2.917 2.917 2.925 4.305 3.402 2.377 2.457 3.327 3.797 4.127 3.917 5.91 8.075 5.242 10.402 11.662 11.46 11.597 9.312 6.77 7.167 8.857 15.515 14.02 13.17 5.762 3.475
37.524 37.564 37.564 37.539 37.552 37.442 32.929 26.767 26.552 26.579 26.542 26.564 27.002 26.937 26.792 28.322 30.232 30.544 28.942 26.544 31.947 37.552 38.129 37.862 37.439 36.244 28.682 26.302 25.732 25.694 25.667 29.059 26.074 25.914 25.929 25.937 26.067 26.227 26.997 26.449 26.482 26.297 26.182 26.102 26.072 26.059 26.092 27.762 25.492 25.449 32.162 36.312 36.884 37.952 36.587 30.837 33.534 33.419 33.517 33.839 33.854 33.062 27.899 24.514 24.394 24.34 24.297 24.165 24.165 24.945 32.35 35.202 35.222 34.915 34.497 35.595 37.402 36.842 34.267 29.777 28.555 29.62 29.587 28.37 27.4 27.032 27.265 25.895 22.21 22.445 22.67 24.155 25.765 26.135 26.13 23.887 20.875 20.695 24.007 31.59 32.545 32.217 31.212 30.487 28.29 22.402 21.53 21.585 21.592 21.42 21.28 21.462 22.697 21.732 21.072 21.795 27.967 30.962 32.65 30.972 31.017 31.77 31.65 29.31 22.827 21.032 20.595 20.552 20.43 20.36 20.332 20.567 23.925 29.237 29.41 29.492 29.177 28.752 28.29 28.145 27.242 26.145 21.717 20.3 20.167 20.007 19.95 19.952 19.942 19.91 19.912 19.922 19.875 19.857 20.51 23.255 22.277 22.092 22.38 23.12 22.645 23.827 22.637 22.522 22.932 23.51 23.545 27.337 30.6 30.077 29.925 31.135 30.472 23.51 20.075 19.697 19.692 19.502 19.42 24.39 25.587 24.92 25.43 25.035 24.977 24.4 22.782 19.61 19.932 21.042 23.307 24.12 24.455 23.635 21.575 19.81 19.315 19.39 20.07 21.137 20.305 22.202 22.265 22.152 22.87 18.287 19.247 18.71 18.012 17.915 17.842 19.895 20.32 21.235 23.362 23.877 23.477 19.235 17.337 18.782 17.165 17.272 18.535 18.36 17.147 17.83 17.137 17.75 21.195 22.307 21.575 20.33 17.017 16.972 16.947 16.945 16.895 16.915 17.187 18.792 19.795 20.725 20.777 19.222 16.095 16.847 16.982 15.442 16.127 17.032 15.77 14.752 14.29 14.21 14.127 14.115 14.047 13.9 13.865 13.752 13.6 13.41 13.457 13.585 12.672 14.015 19.825 22.325 20.98 15.06 16.68 21.25 20.93 16.677 14.035 12.88 15.25 14.71 12.205 12.932 13.952 14.947 15.635 15.197 16.62 16.107 13.702 12.505 13.86 12.635 10.05 11.272 9.257 7.435 7.432 7.342 7.32 7.392 7.83 8.35 7.972 7.675 7.355 7.62 9.322 12.475 11.107 13.487 12.797 13.71 15.9 14.92 9.872 14.895 10.297 11.43 4.952 4.84 7.482 8.687 5.315 4.792 4.107 4.362 3.53 3.255 3.277 3.21 3.172 3.105 3.087 3.18 3.647 3.767 3.55 3.267 3.202 3.195 3.207 3.23 3.262 4.662 6.477 6.5 6.752 7.457 8.275 9.07 9.742 9.465 8.65 7.902 7.087 6.982 9.017 8.247 8.692 9.167 9.095 9.545 9.59 7.22 3.11 2.797 2.932 2.912 2.882 3.242 3.87 8.775 10.775 11.32 10.525 10.195 8.007 6.035 7.77 10.317 9.462 9.572 8.27 6.005 5.565 7.055 5.87 2.672 2.795 3.547 3.395 5.105 5.25 2.457 2.312 2.3 2.61 2.842 4.512 3.42 4.305 6.432 13.925 15.237 15.065 8.662 7.222 12.58 14.645 15.752 15.285 14.79 13.02 9.92 7.172 6.02 3.145 3.272 2.972 3.017 3.067 2.84 2.765 2.785 2.84 2.902 2.85 2.8 2.792 2.762 2.955 3.322 2.837 3.37 3.82 4.202 3.342 2.965 3.172 3.102 2.975 3.325 2.492 3.43 3.867 4.287 3.555 3.642 3.362 3.8 5.82 4.532 4.87 8.645 5.972 6.805 4.37 5.085 6.665 9.53 14.417 14.595 14.01 7.367 3.647
37.037 34.802 33.224 29.709 28.949 29.832 27.654 26.664 26.699 26.819 26.747 26.754 30.952 31.634 33.642 34.667 30.577 29.999 29.114 27.084 30.004 37.309 36.407 36.409 36.804 33.927 27.629 26.904 26.107 25.854 25.829 27.152 26.527 26.304 26.172 26.154 26.322 26.669 26.669 26.919 26.544 26.479 26.459 26.412 26.297 26.222 26.369 27.389 25.757 25.889 34.664 36.877 37.847 38.904 39.057 37.377 35.444 34.739 34.029 34.619 33.729 31.837 26.819 24.634 24.559 24.547 24.395 24.26 24.63 30.7 34.74 37.075 37.305 34.917 34.74 37.005 37.75 37.96 37.602 36.55 30.025 29.272 28.597 27.767 27.367 27.127 27.377 24.092 21.725 21.772 22.105 22.097 22.98 23.88 24.597 21.517 20.912 20.805 28.195 32.062 32.587 31.815 29.705 26.02 23.295 21.47 21.892 22.06 21.552 22.185 22.035 22.135 22.592 22.62 23.21 23.077 24.415 26.622 24.44 28.372 30.907 31.612 30.975 24.952 21.257 20.832 20.77 20.815 20.647 20.577 20.595 20.88 22.157 24.547 27.577 28.805 29.177 30.19 29.46 29.082 28.705 26.522 23.29 22.18 20.207 20.097 20.05 20.03 20.072 20.042 20.072 20.055 20.01 19.977 20.907 22.847 22.352 22.227 22.26 22.207 22.19 24.61 23.55 22.225 22.117 22.395 22.502 28.087 30.69 29.857 30.09 30.767 30.005 20.932 19.897 20.507 19.805 19.617 20.705 24.79 25.492 25.75 25.772 24.047 24.217 24.115 24.712 19.57 19.565 21.422 23.495 23.567 22.795 21.93 20.66 19.597 19.695 20.665 22.127 23.332 22.1 23.43 24.112 23.302 22.282 22.54 21.617 19.065 18.145 18.03 17.912 18.92 20.045 22.082 23.495 23.86 23.307 18.01 17.812 18.377 17.815 17.157 17.125 17.207 17.327 19.007 20.567 17.56 19.517 20.95 18.81 17.882 17.047 17.037 17.03 17.05 17.042 17.052 16.962 16.93 17 19.085 20.77 18.442 15.742 16.66 16.27 17.737 18.297 18.327 18.087 16.462 16.205 15.34 14.237 14.185 14.117 14.027 13.94 13.825 13.742 13.58 13.492 13.432 13.392 13.697 15.14 15.15 16.002 12.092 12.65 14.237 15.257 14.357 12.89 12.232 13.135 13.74 12.647 14.677 15.482 14.95 15.505 16.162 18.73 18.25 17.712 17.2 16.332 12.5 11.555 12.12 8.19 7.422 7.495 7.382 7.36 7.307 7.372 7.842 8.12 7.845 7.362 7.337 7.41 11.725 12.46 12.312 13.477 19.287 20.457 15.17 9.78 13.642 8.26 5.745 4.922 6.557 11.602 11.287 8.882 7.04 4.71 4.955 4.65 3.685 3.292 3.217 3.205 3.182 3.197 3.085 3.095 3.115 3.21 3.227 3.2 3.17 3.152 3.16 4.85 6.175 6.552 6.63 7.275 8.052 8.915 9.687 9.597 8.872 8.027 7.237 6.54 5.92 7.43 8.767 9.687 10.175 9.655 10.41 9.12 4.097 2.79 2.82 2.932 2.91 2.912 3.362 3.037 5.937 8.88 10.232 10.685 10.895 7.72 7.332 9.975 10.085 9.465 10.17 6.855 4.045 4.597 6.4 9.41 6.002 4.415 6.815 7.305 7.347 5.742 3.487 2.295 2.355 3.81 4.882 4.11 2.902 4.362 3.03 4.275 8.937 11.187 6.11 11.567 13.55 14.975 15.925 15.512 14.07 12.487 12.847 12.28 11.66 9.875 4.855 2.652 3.057 3.357 2.965 2.835 2.77 2.855 2.892 2.88 2.922 2.885 2.85 2.832 2.872 2.85 3.877 4.7 3.537 3.577 5.08 7.105 6.077 3.267 3.177 2.575 3.332 4.525 3.94 3.187 3.202 3.22 4.185 5.087 3.365 3.715 4.857 4.432 5.495 3.885 3.685 7.17 12.727 14.667 14.667 14.115 12.54 7.522
27.469 27.157 26.549 26.484 26.637 26.672 26.857 26.892 26.814 26.932 26.924 26.962 33.134 35.189 34.852 34.784 29.019 28.167 28.129 27.892 27.934 29.549 32.672 33.859 34.994 34.632 29.837 27.367 26.492 26.027 25.977 26.557 26.654 26.569 27.617 28.369 26.472 26.689 26.844 26.777 26.579 26.597 26.599 26.567 26.474 26.347 26.497 26.729 25.827 28.262 36.299 37.187 38.199 39.189 39.832 39.079 38.094 37.114 35.977 34.799 33.787 32.417 27.182 24.779 24.729 24.652 24.602 24.537 24.562 34.007 36.34 36.3 35.607 36.475 34.83 31.99 35.845 37.675 37.65 33.945 27.845 27.937 28.132 27.687 27.712 27.405 27.212 23.687 21.927 21.695 21.67 21.712 22.135 21.64 21.325 21.172 21.015 24.087 31.447 32.445 32.49 30.99 25.077 21.647 21.535 21.65 23.62 22.282 21.55 22.292 23.547 23.645 21.67 25.572 26.497 25.277 24.94 27.172 27.055 26.872 29.707 31.397 28.817 21.955 22.24 20.962 20.96 20.887 20.85 20.755 20.852 21.267 21.862 21.332 21.072 22.412 25.16 28.52 28.565 29.345 28.782 25.405 23.887 20.997 20.222 20.182 20.155 20.155 20.192 20.155 20.352 20.47 20.215 20.207 21.712 22.552 22.377 22.37 22.375 22.287 22.717 24.58 23.115 20.665 20.66 21.662 24.247 30.027 31.652 30.005 30.922 30.745 25.99 19.777 20.42 21.785 20.055 19.775 19.752 24.012 24.972 25.077 25.067 24.197 23.32 22.01 20.072 20.36 20.76 21.027 22.587 21.952 22.197 22.627 21.932 21.205 22.2 22.77 22.602 23.95 24.012 23.755 23.932 21.387 21.492 22.577 22.08 18.482 18.205 18.227 18.15 19.4 19.052 20.672 23.06 23.56 23.215 20.02 21.005 19.46 17.29 17.26 17.242 17.782 19.93 22.057 20.352 17.435 18.277 17.36 18.237 17.14 17.062 17.045 17.025 17.062 17.065 17.11 17.085 17.035 17.085 19.622 20.817 18.137 16.052 15.85 16.22 18.275 18.702 17.567 16.035 16.65 16.135 15.457 14.265 14.262 14.262 14.155 13.977 13.902 15.337 15.367 13.705 13.455 13.402 13.365 13.325 13.282 13.24 13.135 13.237 13.467 16.6 17.73 15.725 13.72 13.2 13.08 12.657 14.647 15.042 15.587 15.44 13.44 18.907 19.145 19.057 18.555 17.722 11.062 12.597 11.352 7.482 7.392 7.242 7.307 7.38 7.252 7.275 7.49 7.685 8.09 7.522 7.352 7.45 9.402 10.59 12.137 10.375 10.605 16.617 12.332 7.777 7.287 7.36 5.425 4.895 9.612 12.725 12.257 11.685 11.095 8.945 6.992 4.38 4.467 4.367 3.842 3.315 3.21 3.232 3.172 3.102 3.025 3.042 3.095 3.125 3.115 3.44 3.855 6.435 6.512 6.63 7.127 7.905 8.727 9.492 9.732 8.977 8.18 7.39 7.012 7.52 6.64 6.692 9.025 10.182 10.19 10.012 10.187 7.41 2.767 2.74 2.865 2.955 2.897 2.85 3.085 3.227 3.532 4.012 6.205 8.447 7.807 4.752 7.902 10.912 10.45 10.145 9.7 7.21 4.237 5.992 9.722 9.197 9.04 8.737 6.577 5.995 6.597 5.282 3.485 2.34 3.025 4.887 4.162 3.205 3.132 3.49 2.807 2.655 2.47 2.455 6.717 11.56 13.327 14.597 13.967 14.867 13.302 11.695 12.55 12.657 12.507 12.085 11.175 8.202 5.675 3.647 3.08 3.077 2.952 2.875 3.3 3.027 2.907 2.91 2.862 2.91 2.91 2.86 2.847 3.65 4.4 4.62 7.28 7.982 7.247 3.745 4.587 4.055 3.62 6.372 5.092 3.162 3.165 3.27 4.45 3.872 3.18 3.27 3.567 5.242 7.162 5.427 3.772 7.207 14.26 14.837 14.857 14.745 14.532 13.442
26.772 26.792 26.954 26.969 26.972 26.979 27.004 26.979 27.022 27.109 27.127 27.119 31.739 35.334 34.827 35.104 32.937 29.582 29.597 28.002 30.009 32.782 33.204 34.092 35.029 34.879 31.624 29.882 28.522 26.162 26.209 26.467 26.977 27.382 29.924 29.774 27.614 26.554 27.457 27.612 26.814 26.754 26.734 26.684 26.607 26.512 27.009 26.742 25.999 32.342 36.577 37.559 38.504 39.472 40.462 40.642 39.079 37.279 35.842 34.252 31.172 27.682 25.114 24.957 24.879 24.787 24.972 24.915 28.36 36.385 36.565 35.8 35.857 36.415 35.072 29.515 30.83 30.492 35.27 30.395 27.75 27.81 27.822 27.88 28.272 27.607 25.787 22.467 22.547 21.727 21.965 21.955 21.775 21.615 21.425 21.335 21.335 29.467 31.7 32.402 32.032 27.915 22.372 21.775 21.565 22.272 23.19 21.615 22.087 22.427 22.525 22.525 22.967 26.672 27.02 27.097 26.58 26.447 27.83 27.505 28.74 30.48 28.247 21.71 22.165 21.225 21.152 21.395 21.307 20.997 21.347 21.902 21.145 21.127 21.147 21.175 22.687 24.455 25.81 26.725 26.912 23.53 22.862 20.482 20.272 20.22 20.255 20.275 22.075 21.122 21.95 22.057 22.115 21.132 22.202 22.5 22.51 22.51 22.447 22.365 25.107 24.792 21.917 21.437 21.462 20.8 22.997 30.55 30.392 29.67 30.697 30.46 26.39 20.757 20.41 21.225 20.022 19.897 22.152 27.627 27.13 27.375 26.337 24.61 24.115 24 22.25 21.68 20.025 19.912 20.557 19.96 22.105 23.477 22.917 21.552 20.27 19.897 22.627 22.967 23.45 23.945 23.662 20.267 18.582 19.74 19.925 18.397 18.345 18.955 18.817 19.822 18.815 18.03 21.277 23.642 21.857 19.14 20.61 18.575 17.347 17.865 17.877 18.667 21.082 19.75 17.547 17.542 17.972 17.257 17.155 17.115 17.102 17.087 17.08 17.072 17.062 17.077 17.102 17.065 17.812 20.785 20.782 18.355 16.75 15.76 15.932 18.155 18.015 16.762 15.292 15.8 16.397 15.317 14.342 14.352 14.35 14.197 14.142 14.405 18.397 19.83 17.995 15.007 13.615 14.012 13.59 13.485 14.072 14.007 13.535 13.197 13.832 16.01 14.142 14.722 14.865 14.817 14.472 14.38 15.087 15.487 15.4 14.46 17.677 18.222 18.697 19.052 16.352 11.957 12.422 9.967 7.092 7.07 7.437 7.307 7.345 7.342 7.39 7.375 7.4 7.47 7.377 7.342 7.33 7.325 7.417 8.265 7.485 8.097 8.822 7.882 7.465 7.912 7.18 5.122 5.875 11.895 12.52 12.89 12.637 12.055 11.525 10.992 7.262 4.09 4.077 4.322 5.292 4.01 3.19 3.16 3.157 3.125 3.037 3.012 3 3.025 3.025 3.317 5.902 6.565 6.987 7.745 8.567 9.342 9.802 9.155 8.332 7.522 6.912 7.5 6.935 5.585 6.572 8.56 9.85 10.395 10.46 9.732 5.915 2.745 2.75 2.885 2.907 2.922 2.885 2.832 2.917 3.107 3.782 3.312 3.177 3.09 3.377 8.692 10.152 11.365 10.945 9.68 6.727 6.535 9.487 10.122 10.3 9.93 7.707 4.81 4.357 8.107 5.845 3.392 2.89 4.652 6.475 5.61 3.97 6.382 4.092 2.837 2.797 2.82 3.432 5.672 7.57 4.13 7.522 10.982 14.515 12.755 9.825 8.005 11.35 12.005 12.44 12.602 12.347 10.825 9.285 6.755 4.215 3.057 3.227 2.96 2.82 2.82 2.875 2.885 2.942 2.885 2.845 2.737 2.687 4.592 7.207 7.377 7.687 6.782 5.547 6.987 7.147 4.575 2.945 3.082 3.132 3.085 4.515 5.267 3.8 3.947 3.292 4 6.352 7.037 4.322 3.455 13.8 14.447 14.88 14.972 14.847 14.807 14.39
26.854 26.852 26.919 26.924 26.999 27.029 27.062 27.077 27.169 27.242 27.259 27.214 31.067 35.227 34.904 35.222 31.249 28.054 27.874 29.102 30.617 33.089 33.084 33.042 34.794 35.052 33.797 32.837 31.999 26.794 26.399 26.402 27.199 27.292 29.347 29.249 27.077 27.544 28.974 29.424 27.664 26.832 28.597 29.764 28.112 26.777 27.727 26.362 26.182 33.899 36.957 37.917 38.884 39.764 40.812 40.842 39.939 38.919 37.482 34.739 28.867 25.702 25.139 25.104 25.079 24.942 25.782 25.19 32.58 36.357 36.33 35.667 36.247 36.287 34.16 29.472 28.752 25.76 24.567 24.592 22.82 25.802 27.46 27.92 27.23 27.172 26.577 26.057 25.99 23.582 22.305 23.235 21.987 21.69 21.535 21.385 21.507 26.82 28.69 29.372 31.507 27.077 21.597 21.61 21.582 21.597 21.73 21.557 21.655 22.905 23.697 23.807 22.89 24.925 27.807 26.932 26.577 26.985 29.975 30.405 29.94 30.155 26.762 21.95 21.425 21.427 21.387 21.537 21.265 21.262 21.267 21.887 21.335 21.27 21.272 21.46 24.127 24.63 24.527 22.577 21.715 21.422 21.227 20.477 20.355 20.312 20.26 20.617 24.947 26.47 25.285 24.18 22.317 22.597 22.487 22.46 22.467 22.562 22.457 22.62 25.8 25.112 21.36 21.375 21.282 20.865 25.495 31.552 30.455 29.842 30.87 30.207 22.912 20.332 20.512 20.422 20.155 20.035 24.02 28.697 28.96 29.005 28.842 26.907 24.12 24.355 23.635 21 20.67 20.48 20.387 20.245 21.04 22.235 22.827 22.107 20.777 21.147 21.242 21.167 22.582 24.025 23.422 19.507 19.04 18.75 18.935 18.785 18.487 18.785 18.612 20.515 20.047 18.472 20.857 23.61 21.56 19.87 18.915 18.435 18.165 20.035 21.115 19.282 21.105 20.44 19.167 21.547 19.397 17.195 17.127 17.057 17.127 17.272 17.992 21.615 19.182 17.08 17.145 17.157 19.45 20.875 19.532 16.317 16.412 15.675 15.575 15.665 15.987 15.73 15.317 16.142 16.627 14.835 14.455 14.43 14.345 14.212 14.15 14.052 17.802 20.847 18.097 14.642 14.872 15.165 15.767 14.837 14.405 17.762 19.9 18.197 15.087 13.947 13.042 12.912 13.12 13.275 12.742 12.3 13.877 14.962 15.567 14.252 14.97 15.75 17.142 17.225 12.52 12.465 12.647 8.412 7.705 7.787 7.99 7.777 7.622 7.685 7.8 7.585 7.387 7.305 7.342 7.325 7.307 7.32 7.32 7.387 7.427 7.472 7.582 7.417 7.39 8.06 6.437 5.257 7.607 11.012 11.552 12.085 12.632 12.85 12.47 11.532 10.3 8.04 4.717 4.185 5.427 4.85 4.462 3.255 3.107 3.115 3.122 3.045 2.965 2.955 2.952 2.95 3.077 5.497 7.577 8.392 9.22 9.842 9.332 8.482 7.692 6.945 7.222 7.472 5.47 5.61 8.99 9.73 9.425 10.227 10.297 8.35 3.34 2.865 2.877 2.867 2.902 2.9 2.922 2.945 2.897 2.817 2.84 3.117 3.047 2.96 3.067 3.792 5.397 8.197 9.707 10.015 6.687 8.997 10.292 9.865 9.582 10.05 8.005 3.8 7.175 9.32 8.74 8.535 6.462 5.372 6.027 3.552 3.382 5.785 4.8 2.897 2.88 3.027 4.197 2.987 2.8 2.797 3.682 2.847 6.01 9.632 7.89 5.14 6.807 9.795 10.977 11.86 11.947 10.565 10.365 9.937 8.232 6.252 3.6 3.337 3.027 2.852 2.835 2.905 2.957 2.91 2.842 2.822 2.737 2.675 3.977 4.552 4.555 5.297 8.027 8.755 8.907 6.595 3.14 3.022 2.987 3.075 4.717 4.197 3.58 4.087 3.1 4.15 7.127 6.517 3.43 2.622 7.01 10.722 14.445 14.745 14.857 14.945 14.775
26.994 27.054 27.054 27.142 27.172 27.149 27.174 27.164 27.284 27.354 27.369 27.367 29.502 35.159 35.239 35.127 34.112 30.134 28.822 29.967 30.957 30.809 32.237 32.529 34.459 34.917 34.064 32.102 30.199 27.532 26.579 26.534 27.227 27.107 27.259 27.424 26.932 26.972 28.312 28.989 27.669 26.934 28.447 30.317 29.167 27.234 27.634 26.354 27.222 34.367 36.359 38.477 39.554 40.254 41.047 40.619 39.607 38.629 37.597 35.632 27.872 25.357 25.264 25.272 25.252 25.102 25.057 26.937 36.25 36.35 36.057 35.707 36.5 35.882 34.32 32.23 30.917 30.335 25.885 24.642 23.95 23.737 23.755 25.425 27.167 27.185 27.17 27.18 26.932 26.785 26.43 26.292 23.91 21.757 21.627 21.457 21.485 21.597 21.622 23.15 26.932 22.252 21.625 21.67 21.705 21.65 21.73 21.685 21.695 21.985 21.797 23.155 24.68 26.29 27.582 26.595 25.89 29.137 30.572 30.152 30.275 28.717 22.882 22.317 21.63 21.575 21.72 22.302 21.52 23.24 24.007 25.197 23.772 23.757 21.947 23.945 25.465 24.91 25.47 25.702 24.93 24.817 23.072 21.425 20.65 20.412 20.325 21.477 26.385 26.54 26.665 26.667 26.085 30.87 30.532 24.182 22.792 22.375 22.41 22.992 25.555 23.44 21.067 20.985 21.352 21.605 27.932 30.815 29.985 30.157 31.542 28.665 21.292 20.527 21.13 20.417 20.275 20.415 26.602 28.937 28.642 28.547 28.835 26.875 24.405 24.71 23.927 20.045 20.325 20.252 20.365 20.535 20.845 24.405 23.81 21.51 19.59 19.637 19.692 20.777 19.977 21.81 22.277 22.327 22.677 22.35 21.722 19.327 18.982 18.722 18.937 20.092 20.562 19.887 22.645 23.5 21.775 19.677 18.287 18.352 19.285 19.51 20.562 19.815 21.807 19.155 18.042 22.05 19.102 17.215 17.12 17.092 17.13 17.372 22.8 25.807 24.545 19.655 17.142 17.47 19.62 20.915 19.06 15.822 16.167 15.792 16.83 15.445 15.345 15.315 15.515 17.797 15.595 14.545 14.52 14.5 14.447 14.357 15.362 16.085 19.335 19.07 16.065 14.07 14.925 15.885 16.255 16.297 14.985 17.942 21.702 21.852 20 16.542 14.34 12.72 12.522 12.522 12.447 12.315 12.242 12.125 12.8 12.047 11.89 11.875 13.182 14.57 11.612 12.77 12.407 8.892 8.64 8.527 8.385 8.257 8.405 8.327 8.162 7.975 7.732 7.487 7.412 7.31 7.26 7.28 7.247 8.082 8.007 7.6 7.395 7.605 8.425 7.977 6.687 6.192 5.45 6.725 9.922 11.142 11.627 12.245 12.77 12.017 11.187 10.612 8.3 4.245 4.847 4.467 4.187 4.345 3.377 3.215 3.592 3.085 2.987 2.945 2.937 2.872 2.92 3.325 5.39 9.052 9.722 9.512 8.65 7.847 7.007 7.045 7.455 6.75 4.425 8.642 10.17 10.585 9.665 9.612 9.562 4.437 2.867 3.452 2.937 2.875 2.892 2.867 2.95 2.94 2.94 2.942 2.9 3.13 3.46 2.942 3.05 3.282 3.39 3.087 4.505 5.132 3.69 7.97 10.54 11.685 10.342 9.89 7.097 5.4 9.565 10.087 9.13 9.537 7.055 3.925 8.737 6.19 3.4 3.557 3.05 2.955 2.922 3.372 4.492 3.015 2.745 3.197 3.292 2.587 3.77 4.042 3.877 5.535 6.087 7.79 8.407 9.48 10.732 10.392 10.512 10.745 10.2 9.745 8.905 5.292 3.542 3.05 2.86 2.86 2.922 2.932 2.907 2.89 2.865 2.777 2.732 2.66 2.725 4.297 6.9 8.41 8.075 3.802 2.917 3 2.942 3.817 5 3.17 3.322 3.195 3.965 7.137 7.125 5.555 3.375 2.94 2.26 1.797 5.855 11.127 14.552 14.767 14.872
27.434 27.179 27.207 27.232 27.607 27.884 27.557 27.309 27.402 27.424 27.502 27.459 28.939 35.862 36.107 34.599 34.432 28.837 28.359 30.812 30.724 27.702 31.599 31.932 32.807 32.117 30.607 29.694 27.854 27.389 26.682 26.679 27.177 27.219 27.252 27.234 27.054 27.159 27.047 27.039 27.044 27.027 27.949 28.034 27.267 27.844 27.357 26.532 31.547 34.409 37.494 38.842 39.794 40.762 41.377 40.507 39.339 38.297 37.329 31.534 25.704 25.457 25.487 25.449 25.362 25.22 25.425 31.267 36.205 36.71 35.7 36.075 36.405 35.14 33.207 31.525 29.862 30.6 26.715 24.875 24.42 24.122 25.397 25.69 24.8 26.61 27.16 26.967 27.06 27.115 26.93 26.895 25.42 21.927 21.78 21.637 21.687 21.727 21.677 21.737 21.662 21.702 21.737 21.967 22.757 22.267 22.247 22.687 22.352 22.095 21.907 22.1 22.5 23.785 25.417 25.225 27.575 29.667 30.545 30.662 31.042 24.985 21.822 22.267 21.84 21.727 23.047 22.962 22.572 25.047 28.532 35.512 35.27 33.127 32.56 35.192 32.245 28.122 28.022 33.125 32.18 34.61 31.255 27.397 23.545 22.002 22.972 26.137 26.567 26.66 26.455 26.477 28.695 35.397 35.412 33.562 31.045 28.832 22.377 23.877 26.282 25.967 23.507 21.66 22.842 24.722 30.095 30.597 29.575 30.365 30.607 27.752 20.957 20.64 21.065 20.477 20.372 21.337 27.497 28.987 28.835 28.96 28.765 24.972 23.195 23.465 22.98 20.967 22.915 23.922 21.23 21.192 24.43 26.33 21.885 20.35 19.667 19.595 19.537 20.577 19.28 20.932 21.152 22.22 24.422 24.525 24.175 22.677 20.77 19.43 19.367 21.742 21.85 20.59 21.545 22.672 19.775 19.445 18.67 19.015 18.917 19.397 19.407 19.462 19.997 17.967 19.512 21.932 19.302 17.172 17.125 17.112 17.172 20.12 25.82 26.44 25.517 21.022 18.012 17.92 19.805 20.97 17.997 16.362 17.07 17.187 17.56 15.717 15.387 15.382 16.457 18.2 14.97 14.655 14.597 14.602 14.555 14.662 17.465 19.202 19.782 17.917 14.38 14.287 14.787 14.662 14.77 14.9 14.492 16.685 19.842 21.5 20.247 19.175 16.51 14.652 12.8 12.51 12.41 12.28 12.2 12.162 12.1 11.957 11.787 11.677 11.7 12.042 11.672 11.72 11.957 9.467 9.325 9.217 9.06 8.73 8.937 8.58 8.46 8.197 7.877 7.74 7.532 7.712 7.39 7.27 7.265 7.34 7.635 7.77 7.61 8.675 10.06 8.985 7.332 6.622 6.03 5.267 7.727 9.202 10.392 11.285 11.72 12.1 12.135 11.47 7.135 4.467 4.745 4.522 3.612 3.59 4.177 3.522 3.875 3.745 3.007 2.98 2.915 2.885 2.832 2.927 3.175 6.505 9.61 8.862 7.995 7.047 5.882 6.54 6.782 6.312 5.9 7.03 9.687 10.63 10.307 9.432 8.225 2.762 2.84 3.152 2.892 2.877 3.032 3.275 2.9 2.862 2.887 2.91 2.9 2.917 3.08 2.985 2.82 2.85 2.96 3.097 3.287 3.217 3.185 7.32 9.462 11.61 11.002 10.695 6.185 7.852 10.095 9.597 9.555 10.067 6.677 6.145 9.557 5.447 5.342 6.23 4.005 3.072 3.427 5.167 3.492 3.072 3.275 3.68 3.212 2.957 3.055 3.182 4.785 5.285 4.85 4.457 6.675 7.397 9.007 9.487 10.002 11.005 10.577 10.535 10.385 9.485 7.065 3.172 2.862 2.89 2.835 2.79 2.735 2.802 2.807 2.857 2.8 2.747 2.665 3.705 6.805 6.93 5.392 4.195 4.08 4.325 4.707 4.347 4.77 3.012 2.905 5.767 8.242 8.64 7.857 4.147 3.41 3.582 3.4 2.292 2.037 3.797 13.892 14.657 14.83
30.702 31.694 32.019 31.482 30.207 33.974 33.859 35.257 33.199 27.524 27.614 27.614 28.094 35.412 36.132 35.772 36.124 30.529 29.917 33.012 31.597 27.337 28.762 29.564 32.022 35.402 35.649 36.297 34.307 28.247 26.869 26.874 27.462 27.429 27.354 27.299 27.192 27.152 27.189 27.202 27.184 27.129 27.122 27.347 27.772 28.312 26.969 26.687 33.267 35.067 38.127 39.144 40.102 41.109 41.237 40.264 39.237 38.217 37.272 30.159 25.727 25.659 25.602 25.564 25.502 25.352 26.355 33.735 35.885 36.137 35.92 36.78 35.995 31.402 30.542 30.897 28.757 28.322 28.262 27.085 24.832 25.187 26.95 26.797 25.84 25.49 26.722 26.905 26.802 27.025 26.965 27.08 24.25 22.025 21.9 21.787 21.857 21.802 21.77 21.782 21.787 21.81 21.852 22.085 22.637 22.48 23.3 23.745 24.315 22.59 22.555 22.23 22.255 22.372 23.502 24.502 27.712 29.222 31.077 32.425 31.787 25.865 22.547 22.115 21.937 21.947 23.237 23.18 22.85 25.57 37.507 38.692 38.592 36.69 35.51 35.51 35.602 35.695 35.172 35.452 35.5 35.52 35.865 34.665 32.38 30.662 27.082 26.562 26.42 26.51 26.67 26.54 32.082 35.427 35.435 35.462 35.41 31.632 22.462 24.512 27.762 27.867 23.322 21.45 21.437 22.542 24.337 27.547 28.242 30.562 30.172 24.565 20.745 21.367 21.94 20.615 20.49 25.092 28.772 29.075 29.05 28.432 27.195 23.19 22.907 22.847 22.017 20.935 22.492 23.397 24.392 26.175 27.012 26.917 21.007 19.787 19.71 19.672 19.667 20.615 19.385 19.005 19.445 21.307 23.755 24.86 24.057 23.13 23.042 22.042 21.2 23.11 23.3 20.55 19.792 19.78 18.882 20.612 20.745 21.162 18.42 18.65 18.77 19.017 18.437 18.315 19.76 21.897 18.232 17.157 17.162 17.127 17.305 24.217 26.032 26.212 26.21 24.177 22.77 21.71 19.57 19.06 17.415 16.61 16.447 16.172 16.575 16.335 16.087 17.745 18.907 18.115 15.31 14.772 14.755 14.605 14.527 14.787 15.87 16.38 17.062 15.05 14.017 14.132 14.165 15.227 14.517 14.247 15.84 15.81 14.4 14.447 17.667 17.455 15.777 14.97 14.912 13.802 14.06 14.492 13.43 13.062 12.007 12.367 11.89 11.77 11.577 11.487 11.845 12.802 10.74 9.945 9.927 10.107 9.89 9.355 9.14 8.835 8.65 8.462 8.075 7.687 7.655 8.222 7.507 7.355 7.317 7.455 7.47 7.492 7.857 8.92 9.892 8.617 7.185 7.37 7.46 7.54 6.43 4.967 5.7 8.815 10.612 11.202 11.71 9.772 4.695 4.925 4.722 4.372 3.652 3.525 3.425 4.002 5.042 3.64 3 2.977 2.92 2.9 2.877 2.865 2.88 3.182 5.862 8.205 7.342 6.135 5.732 5.812 5.84 5.982 5.71 5.845 8.382 10.135 10.655 9.592 6.682 2.85 2.797 2.88 2.817 2.872 4.645 4.195 3.41 3.53 3.137 2.925 2.862 2.885 2.917 2.947 2.882 2.87 2.827 3.09 3.227 3.055 3.132 3.332 4.632 7.032 9.465 6.38 4.277 10.645 10.675 10.48 10.17 9.69 7.607 8.83 9.915 8.117 6.952 8.975 8.77 8.172 5.537 6.212 3.322 2.867 3.217 3.857 3.242 3.035 3.182 3.312 4.595 4.692 5.455 3.81 4.192 6.29 8.79 6.58 7.265 9.687 10.21 10.545 10.647 10.675 7.977 3.367 2.82 2.842 3.165 3.327 2.745 2.762 2.812 2.867 2.88 2.855 2.75 2.802 4.59 6.28 6.102 6.53 6.765 10.965 13.027 9.785 4.047 2.877 3.645 9.417 10.282 9.862 8.627 5.197 3.38 3.43 3.49 3.465 3.497 8.807 14.117 14.695 14.835
40.327 38.212 39.527 41.934 41.149 42.422 42.984 42.947 39.254 27.762 27.709 27.727 27.697 33.022 36.182 35.734 36.032 33.847 31.364 32.544 31.964 29.899 30.509 33.032 35.717 36.962 36.997 35.812 35.059 29.152 27.032 27.014 27.034 27.684 28.654 29.414 28.779 27.359 27.332 27.359 27.352 27.307 27.274 28.467 30.542 29.139 27.002 27.469 33.667 35.217 38.117 39.457 40.482 41.297 40.897 39.977 38.914 37.954 35.909 27.104 25.849 25.844 25.777 25.689 25.724 25.535 29.915 35.897 36.365 36.477 36.15 35.752 35.565 30.575 28.702 28.927 28.262 28.212 28.217 28.2 28.11 26.842 25.59 25.672 26.517 25.397 23.307 23.56 25.3 26.695 26.88 26.19 22.267 22.195 22.015 21.987 21.975 21.942 21.855 21.88 21.925 21.92 21.902 22.435 23.097 23.237 24.632 23.327 23.017 23.21 23.04 23.99 25.19 22.84 27.9 31.712 31.162 31.697 31.577 31.992 31.025 25.202 22.832 22.145 22.105 22.115 22.462 22.482 22.61 26.637 37.98 38.657 38.557 36.825 35.772 35.72 35.597 35.56 35.502 35.505 35.505 35.512 35.495 35.475 35.47 35.26 33.09 27.672 26.677 26.635 26.54 28.87 35.442 35.402 35.457 35.422 35.415 25.27 22.312 25.022 27.507 27.925 24.08 21.46 22.175 22.482 22.177 21.8 22.037 21.935 23.592 21.775 21.085 21.345 21.217 20.72 20.64 26.962 28.822 28.662 28.827 26.55 23.07 23.092 22.925 21.977 21.562 21.49 22.237 22.047 22.76 23.717 26.462 25.88 20.99 19.875 19.855 19.767 20.375 22.222 19.465 19.055 19.032 21.085 23.88 24.565 23.805 23.61 23.717 23.402 22.76 23.552 22.035 21.037 20.722 19.895 18.255 18.285 19.17 18.337 18.125 18.125 18.562 20.505 19.627 17.782 23.375 23.607 17.467 17.177 17.127 17.12 18.6 23.782 25.422 25.655 24.912 24.325 24.365 24.225 23.972 20.925 18.435 17.04 17.66 16.12 15.887 15.99 16.625 18.227 19.102 18.137 15.84 14.92 14.85 14.745 15.245 15.402 14.447 16.527 14.33 14.122 14.07 13.992 13.985 15.387 14.875 14.287 15.517 14.707 15.355 13.85 14.46 15.03 15.1 14.99 14.262 13.027 14.31 14.09 16.202 18.27 13.367 12.01 11.787 11.7 11.617 11.475 11.617 11.465 11.125 10.42 10.4 10.55 10.532 10.137 9.692 9.432 9.17 8.785 8.315 7.957 8.092 8.12 7.767 8.865 7.942 8.39 7.662 7.527 7.61 8.415 9.517 9.257 7.497 7.445 7.982 7.342 6.625 5.76 4.922 6.515 8.752 9.785 10.225 5.887 4.647 5.242 4.642 4.115 3.895 3.592 3.495 3.59 5.302 5.145 3.475 2.94 2.932 2.93 2.857 2.835 2.817 2.832 2.825 5.617 6.64 5.825 5.782 5.76 5.74 5.725 5.712 5.737 6.467 9.472 10.14 8.445 3.57 2.682 2.787 2.852 2.79 2.88 11.225 12.697 10.647 8.37 3.532 3.457 3.362 2.895 2.83 4.215 3.592 2.99 2.91 3.032 3.682 2.842 2.842 2.915 3.432 3.23 4.125 4.357 4.75 8.45 10.402 13.355 10.975 9.882 6.967 9.417 9.667 5.545 6.53 9.105 8.985 8.995 8.352 5.67 4.502 3.2 3.897 3.675 3.04 2.95 3.83 4.345 3.772 2.81 4.795 5.602 5.925 8.225 7.577 3.295 8.435 9.032 8.615 10 10.637 10.07 6.085 2.97 2.85 2.875 3.445 3.64 3.207 3.1 2.712 2.78 2.875 2.895 2.862 2.745 2.755 3.722 6.835 6.505 5.905 11.657 13.845 9.242 4.327 2.867 2.935 9.2 10.44 9.902 7.872 3.737 3.495 3.555 3.425 3.432 3.957 4.662 11.25 13.98 14.397
42.992 42.977 42.977 42.977 42.979 43.027 43.004 42.977 40.887 31.362 27.774 27.812 27.777 30.309 34.934 34.484 33.707 33.377 33.749 33.232 31.907 30.884 31.932 34.059 35.477 36.704 37.144 36.107 34.379 28.374 27.207 27.229 27.197 28.112 28.529 30.539 30.527 27.464 27.472 27.494 27.492 27.454 27.414 28.832 31.174 30.029 27.034 33.979 37.567 37.624 38.469 39.832 40.817 41.319 40.572 39.584 38.609 37.609 33.422 26.647 26.017 25.957 25.919 26.054 26.897 25.787 34.82 35.942 36.242 36.097 36.225 35.47 35.187 34.505 33.1 30.565 28.815 28.257 28.237 28.217 28.23 28.027 24.342 23.63 23.745 24.527 24.885 24.552 23.235 23.74 25.312 25.187 22.447 22.26 22.237 22.61 22.995 22.52 22.122 22.277 21.907 21.985 21.992 22.422 23.242 23.84 24.007 25.042 24.625 22.735 23.242 25.35 28.285 27.625 27.06 31.18 31.85 31.78 31.625 31.702 27.562 22.862 22.412 22.317 22.282 22.257 22.225 22.23 23.927 33.707 36.405 38.505 38.502 34.39 28.845 31.377 33.812 34.955 35.475 35.505 35.51 35.49 35.512 35.542 35.487 35.47 35.475 35.037 34.52 31.732 28.152 33.167 35.372 35.417 35.415 35.437 34.407 22.842 22.84 25.867 26.177 24.78 22.39 22.652 24.405 24.427 22.315 21.51 21.5 21.405 21.342 21.207 20.995 20.902 20.97 20.827 21.39 29.635 30.52 30.15 30.215 26.3 22.93 22.192 21.082 20.88 20.935 20.945 21.86 21.925 23.305 23.947 24.507 22.495 22.147 20.05 20.08 19.87 24.207 25.162 21.91 20.795 19.287 19.572 23.687 24.675 23.68 24.327 23.517 23.242 21.777 20.917 21.295 20.84 20.36 19.457 18.39 18.895 18.46 18.217 18.19 18.192 19.005 21.79 21 19.85 24.07 22.025 17.645 17.525 17.207 17.19 17.147 18.37 22.572 23.63 24.515 24.197 23.74 23.927 23.405 20.402 18.582 19.63 21.28 20.597 17.67 16.902 15.74 16.325 17.8 15.87 15.407 14.965 14.937 14.83 15.002 17.41 17.757 19.267 17.007 14.325 14.182 14.05 13.992 14.367 15.36 14.81 14.212 13.7 13.765 13.695 13.722 13.917 14.995 14.872 13.617 13.317 14.062 14.287 20.07 18.835 15.732 12.117 11.922 11.777 11.602 11.42 11.305 11.205 11.11 11.01 10.727 10.525 10.467 10.397 10.245 10.025 9.722 9.352 8.952 8.652 8.365 7.93 7.7 8.337 9.36 7.652 8.055 7.585 7.545 7.625 7.872 7.77 7.695 7.357 7.265 7.222 6.8 6.507 6.077 7.08 5.12 5.27 5.632 4.255 5.39 5.372 4.447 3.897 4.182 3.702 3.652 3.64 3.657 3.662 4.597 3.425 2.912 2.912 2.9 2.867 2.867 2.79 2.79 3.21 4.09 5.217 5.805 5.847 5.74 5.757 5.71 5.732 5.37 6.147 9.387 5.232 3.035 2.737 2.842 2.785 2.817 6.767 13.97 14.64 14.47 14.097 12.185 7.2 7.29 3.34 3.767 3.585 3.49 3.025 2.81 2.887 2.897 2.855 2.8 2.845 3.262 2.945 2.917 3.462 3.077 3.952 5.315 8.127 9.917 7.122 8.247 9.855 8.965 5.65 7.702 9.54 9.92 9.345 7.56 4.56 5.63 8.062 6.472 3.502 2.97 2.935 4.562 3.93 2.727 2.965 6.27 7.63 8.567 8.91 7.01 3.585 8.717 8.66 5.515 9.577 10.037 9.087 4.725 2.895 2.88 2.927 3.342 3.225 3.312 3.66 4.057 2.972 3.36 3.437 2.855 2.847 2.822 2.89 4.825 3.527 3.527 8.127 11.107 8.06 4.24 3.052 4.105 8.95 9.122 6.982 3.795 3.295 3.627 4.255 3.557 3.61 4.192 3.795 4.605 8.782 11.43
