ncols 420
nrows 32
xllcorner    459068
yllcorner    87844
cellsize     2
NODATA_value -9999
46.875 46.812 46.685 46.607 46.522 46.45 46.365 46.235 46.152 46.075 46.045 46.02 46.037 45.997 45.91 45.89 45.857 45.682 45.482 45.342 45.262 45.205 45.215 45.177 45.205 45.202 45.195 45.197 45.187 45.127 45.035 44.942 44.902 44.855 44.867 44.845 44.817 44.805 44.802 44.81 44.85 44.862 44.897 44.875 44.882 44.87 44.865 44.85 44.862 44.895 44.927 44.972 44.99 44.947 45.63 44.752 46.827 44.857 44.79 45.922 45.285 44.832 44.827 44.8 44.845 44.86 44.859 44.867 44.857 44.874 44.902 45.047 45.157 45.252 45.337 45.424 45.467 45.509 45.539 45.594 45.662 45.752 45.852 45.952 46.087 46.219 46.364 46.489 46.624 46.737 46.854 46.974 47.104 47.207 47.304 47.377 47.447 47.497 47.554 47.642 47.669 47.674 47.684 47.674 47.717 47.734 47.734 47.782 47.804 47.834 47.854 47.854 47.849 47.862 47.842 47.812 47.807 47.779 47.752 47.737 47.679 47.622 47.577 47.527 47.449 47.394 47.319 47.227 47.174 47.049 46.977 46.902 46.809 46.734 46.627 46.554 46.484 46.419 46.277 46.219 46.077 45.979 45.859 45.732 45.622 45.509 45.412 45.327 45.229 45.117 45.012 44.902 44.762 44.664 44.587 44.499 44.429 44.349 44.239 44.142 44.032 43.919 43.822 43.719 43.627 43.552 43.474 43.424 43.957 44.164 44.012 43.744 43.087 42.962 42.824 42.689 42.574 42.502 42.422 42.392 42.392 42.339 42.324 42.304 42.262 42.212 42.144 42.062 42.039 41.964 41.717 41.604 41.797 41.842 41.794 41.767 41.719 41.657 41.617 41.564 41.564 41.524 41.504 41.444 41.417 41.362 41.337 41.334 41.347 41.327 41.304 41.297 41.324 41.322 41.342 41.359 41.372 41.409 41.434 41.469 41.494 41.544 41.574 41.612 41.674 41.697 41.729 41.784 41.789 41.819 41.882 41.924 41.979 42.064 42.134 42.232 42.357 42.442 42.587 42.694 42.829 42.904 43.007 43.132 43.197 43.274 43.344 43.422 43.474 43.559 43.624 43.714 43.802 43.904 44.017 44.129 44.262 44.404 44.539 44.647 44.772 44.892 44.997 45.104 45.222 45.349 45.467 45.582 45.727 45.857 45.994 46.094 46.227 46.369 46.514 46.662 46.819 46.977 47.122 47.302 47.462 47.629 47.807 47.952 48.129 48.284 48.474 48.652 48.824 48.994 49.199 49.374 49.564 49.694 49.889 50.052 50.222 50.382 50.509 50.664 50.774 50.872 50.984 51.067 51.164 51.234 51.334 51.372 51.457 51.524 51.592 51.642 51.742 51.794 51.842 51.884 51.944 52.011 52.086 52.144 52.196 52.259 52.264 52.326 52.346 52.346 52.354 52.369 52.306 52.369 52.334 52.304 52.286 52.234 52.174 52.116 52.081 52.026 51.951 51.901 51.824 51.754 51.676 51.616 51.584 51.511 51.456 51.371 51.296 51.284 51.251 51.174 51.146 51.124 51.106 51.404 51.809 50.786 50.714 50.526 50.691 51.864 51.186 50.204 50.396 49.889 49.819 49.736 49.489 49.221 48.834 48.576 48.509 48.334 48.149 48.021 47.979 47.874 47.834 47.714 47.666 47.599 47.511 47.429 47.254 46.944 46.906 46.911 46.844 46.791 46.736 46.636 46.474 46.409 46.499 46.754 46.421 45.311 43.951 43.924 43.876 44.829 46.601 46.059 45.479 45.436 45.481 45.456 45.401 45.241 45.161 45.174 45.129 45.096 45.109 45.016 44.974 44.941 44.919 44.861
47.045 46.96 46.86 46.77 46.695 46.632 46.495 46.402 46.312 46.205 46.157 46.117 46.122 46.057 46.017 46.007 45.997 45.867 45.69 45.527 45.482 45.35 45.345 45.302 45.292 45.305 45.305 45.285 45.322 45.325 45.285 45.155 45.067 45.02 45.017 44.945 44.927 44.922 44.93 44.957 44.985 44.977 45.002 45.01 45.037 45.002 44.97 44.96 44.982 45.02 45.027 45.09 45.08 45.057 45.052 44.727 45.015 44.897 44.912 45.915 45.25 44.942 44.935 44.945 44.977 44.967 44.952 44.967 44.969 45.004 45.077 45.194 45.292 45.382 45.484 45.559 45.577 45.602 45.644 45.714 45.772 45.869 45.959 46.044 46.214 46.347 46.487 46.599 46.747 46.867 46.984 47.074 47.189 47.327 47.397 47.454 47.509 47.582 47.652 47.712 47.744 47.764 47.777 47.772 47.794 47.799 47.814 47.832 47.887 47.899 47.909 47.929 47.904 47.879 47.894 47.879 47.879 47.842 47.834 47.784 47.742 47.672 47.624 47.582 47.514 47.447 47.347 47.272 47.204 47.092 47.002 46.899 46.814 46.747 46.659 46.597 46.492 46.404 46.287 46.197 46.089 45.972 45.857 45.742 45.637 45.507 45.414 45.332 45.222 45.112 45.019 44.919 44.794 44.699 44.599 44.482 44.407 44.334 44.222 44.124 44.012 43.909 43.812 43.704 43.604 43.529 43.452 43.392 43.312 43.324 43.759 44.894 43.849 43.044 42.859 42.702 42.597 42.482 42.434 42.407 42.389 42.407 42.382 42.347 42.292 42.199 42.182 42.114 41.857 41.802 41.874 41.989 41.914 41.877 41.824 41.769 41.737 41.694 41.694 41.657 41.637 41.569 41.522 41.514 41.477 41.459 41.442 41.459 41.439 41.444 41.442 41.444 41.417 41.449 41.447 41.462 41.519 41.519 41.574 41.579 41.627 41.692 41.742 41.764 41.802 41.867 41.882 41.897 41.924 41.979 42.027 42.079 42.144 42.242 42.334 42.447 42.547 42.679 42.792 42.919 43.039 43.129 43.234 43.309 43.367 43.457 43.494 43.587 43.644 43.732 43.809 43.912 44.017 44.122 44.232 44.332 44.459 44.587 44.702 44.834 44.947 45.084 45.204 45.342 45.452 45.577 45.672 45.789 45.927 46.059 46.189 46.317 46.464 46.624 46.787 46.899 47.054 47.177 47.349 47.514 47.687 47.872 48.044 48.219 48.387 48.574 48.739 48.899 49.097 49.259 49.422 49.599 49.789 49.949 50.127 50.309 50.497 50.619 50.764 50.879 51.017 51.114 51.229 51.329 51.402 51.502 51.579 51.644 51.729 51.794 51.864 51.949 52.002 52.067 52.104 52.172 52.234 52.274 52.341 52.399 52.466 52.464 52.506 52.509 52.529 52.501 52.514 52.519 52.496 52.464 52.436 52.389 52.374 52.329 52.279 52.199 52.136 52.074 52.014 51.964 51.896 51.821 51.744 51.656 51.594 51.544 51.474 51.401 51.384 51.339 51.274 51.201 51.164 51.121 51.351 52.191 51.289 50.691 50.661 50.584 50.976 54.381 53.031 50.309 49.829 49.711 49.624 49.334 48.899 48.564 48.244 47.974 47.724 47.589 47.404 47.321 47.321 47.196 47.064 46.906 46.821 46.609 46.474 46.464 46.399 46.359 46.234 46.161 46.174 46.301 46.491 46.534 46.446 46.386 46.289 46.529 46.719 46.471 43.896 43.786 43.734 44.024 45.539 46.311 45.351 45.266 45.254 45.279 45.234 45.124 44.979 44.954 44.954 44.931 44.921 44.886 44.881 44.879 44.801 44.729
47.215 47.125 47.037 46.94 46.862 46.765 46.655 46.562 46.462 46.367 46.302 46.26 46.225 46.175 46.155 46.152 46.097 46.007 45.902 45.83 45.76 45.622 45.547 45.47 45.422 45.397 45.397 45.372 45.36 45.4 45.457 45.447 45.355 45.232 45.122 45.077 45.047 45.047 45.05 45.09 45.12 45.122 45.117 45.132 45.137 45.13 45.12 45.095 45.12 45.165 45.21 45.22 45.195 45.14 45.267 45.012 45.122 44.985 45.39 46.245 45.332 45.065 45.067 45.082 45.077 45.047 45.064 45.069 45.097 45.102 45.179 45.319 45.432 45.524 45.604 45.697 45.707 45.704 45.737 45.814 45.874 45.947 46.052 46.169 46.334 46.474 46.592 46.704 46.847 46.974 47.114 47.209 47.309 47.412 47.469 47.524 47.619 47.674 47.739 47.794 47.822 47.857 47.859 47.859 47.857 47.894 47.902 47.919 47.932 47.959 47.974 48.002 47.989 47.977 47.962 47.957 47.952 47.922 47.879 47.819 47.779 47.734 47.662 47.602 47.564 47.472 47.399 47.312 47.229 47.112 47.014 46.937 46.847 46.777 46.687 46.607 46.497 46.387 46.272 46.169 46.059 45.964 45.839 45.712 45.617 45.519 45.414 45.307 45.204 45.144 45.032 44.909 44.787 44.689 44.607 44.494 44.387 44.277 44.202 44.092 43.997 43.857 43.767 43.672 43.567 43.529 43.459 43.394 43.287 43.219 43.127 43.262 43.537 43.557 43.162 42.692 42.544 42.424 42.409 42.404 42.407 42.432 42.414 42.339 42.297 42.259 42.084 41.787 42.032 42.114 42.054 41.989 41.942 41.894 41.859 41.812 41.774 41.744 41.727 41.692 41.664 41.639 41.612 41.612 41.594 41.562 41.542 41.524 41.539 41.529 41.539 41.579 41.557 41.562 41.559 41.579 41.597 41.634 41.682 41.729 41.747 41.814 41.859 41.899 41.942 41.984 42.037 42.039 42.062 42.124 42.192 42.254 42.349 42.444 42.557 42.662 42.739 42.882 42.989 43.114 43.217 43.337 43.417 43.499 43.554 43.607 43.667 43.739 43.824 43.934 44.007 44.102 44.217 44.334 44.439 44.577 44.697 44.782 44.904 45.024 45.122 45.274 45.394 45.507 45.659 45.799 45.919 46.022 46.177 46.287 46.402 46.554 46.704 46.822 46.999 47.162 47.299 47.469 47.614 47.759 47.949 48.107 48.284 48.469 48.652 48.824 48.997 49.172 49.334 49.537 49.689 49.849 50.022 50.204 50.359 50.519 50.644 50.832 50.967 51.132 51.217 51.339 51.427 51.539 51.589 51.689 51.784 51.857 51.932 52.029 52.092 52.174 52.242 52.289 52.362 52.444 52.479 52.529 52.604 52.626 52.659 52.671 52.666 52.664 52.649 52.659 52.651 52.624 52.596 52.549 52.521 52.474 52.446 52.389 52.304 52.261 52.204 52.129 52.071 52.019 51.916 51.844 51.784 51.721 51.641 51.561 51.491 51.456 51.429 51.376 51.284 51.211 51.181 51.149 51.991 51.796 50.706 50.664 50.659 50.611 50.489 53.441 52.859 51.209 49.796 49.601 49.279 48.711 48.186 47.844 47.619 47.319 47.109 46.899 46.731 46.729 46.659 46.434 46.241 46.141 46.006 45.881 45.814 45.861 45.791 45.714 45.561 45.574 45.619 45.746 46.066 46.341 46.376 46.344 46.326 46.301 46.199 45.766 44.224 43.691 43.601 43.509 44.461 45.886 45.616 45.106 45.046 45.084 45.031 44.961 44.829 44.759 44.824 44.781 44.781 44.769 44.734 44.699 44.586 44.539
47.39 47.302 47.217 47.135 47.037 46.9 46.815 46.715 46.622 46.515 46.462 46.415 46.33 46.27 46.262 46.252 46.237 46.195 46.147 46.07 45.935 45.85 45.712 45.637 45.572 45.522 45.512 45.482 45.455 45.455 45.495 45.552 45.602 45.505 45.337 45.232 45.185 45.195 45.195 45.187 45.24 45.247 45.232 45.242 45.247 45.252 45.235 45.237 45.24 45.305 45.33 45.357 45.302 45.24 45.357 45.207 45.12 45.052 45.697 46.227 45.35 45.197 45.177 45.197 45.18 45.16 45.169 45.164 45.169 45.224 45.344 45.422 45.499 45.607 45.704 45.784 45.799 45.834 45.872 45.897 45.979 46.069 46.169 46.309 46.434 46.562 46.699 46.844 46.974 47.107 47.202 47.329 47.419 47.497 47.557 47.609 47.684 47.767 47.827 47.854 47.879 47.907 47.929 47.947 47.932 47.977 47.979 47.984 47.987 48.032 48.029 48.034 48.049 48.042 48.007 48.032 47.987 47.967 47.922 47.879 47.804 47.772 47.717 47.634 47.589 47.512 47.422 47.332 47.267 47.134 47.027 46.904 46.864 46.804 46.697 46.622 46.517 46.374 46.259 46.149 46.049 45.934 45.829 45.739 45.617 45.514 45.399 45.312 45.222 45.112 45.029 44.902 44.797 44.694 44.617 44.519 44.439 44.294 44.177 44.064 43.917 43.814 43.727 43.617 43.552 43.484 43.434 43.384 43.274 43.224 43.199 43.192 43.104 43.027 43.444 42.652 42.539 42.439 42.404 42.367 42.347 42.407 42.414 42.384 42.134 41.917 42.027 42.224 42.177 42.112 42.072 42.019 41.969 41.937 41.884 41.862 41.839 41.819 41.812 41.767 41.747 41.724 41.719 41.712 41.704 41.694 41.659 41.637 41.632 41.642 41.632 41.629 41.657 41.664 41.682 41.707 41.727 41.769 41.817 41.852 41.892 41.934 42.007 42.039 42.092 42.134 42.164 42.212 42.252 42.284 42.342 42.444 42.542 42.632 42.747 42.862 42.972 43.084 43.194 43.302 43.399 43.492 43.577 43.657 43.714 43.787 43.832 43.919 44.007 44.107 44.229 44.334 44.422 44.554 44.642 44.762 44.869 45.022 45.114 45.222 45.362 45.474 45.594 45.744 45.867 45.992 46.117 46.277 46.402 46.534 46.652 46.797 46.952 47.094 47.249 47.394 47.529 47.724 47.869 48.034 48.237 48.404 48.557 48.724 48.899 49.067 49.257 49.427 49.589 49.772 49.949 50.112 50.267 50.429 50.594 50.744 50.887 51.017 51.134 51.262 51.362 51.509 51.627 51.724 51.814 51.872 51.967 52.054 52.129 52.219 52.312 52.379 52.439 52.499 52.584 52.652 52.704 52.744 52.804 52.829 52.824 52.821 52.784 52.786 52.796 52.764 52.776 52.721 52.661 52.646 52.589 52.534 52.529 52.469 52.391 52.344 52.266 52.189 52.124 52.056 51.974 51.869 51.774 51.724 51.656 51.556 51.509 51.499 51.474 51.399 51.304 51.219 51.189 51.376 52.131 50.889 50.691 50.684 50.641 50.656 53.729 54.621 52.194 50.536 49.814 49.551 48.911 48.179 47.551 46.936 46.621 46.326 46.116 46.056 46.016 45.994 45.919 45.729 45.514 45.459 45.369 45.316 45.331 45.426 45.309 45.161 45.159 45.206 45.299 45.361 45.641 46.134 46.331 46.321 46.289 46.169 45.831 45.546 44.764 43.694 43.484 43.394 43.746 45.051 45.666 44.944 44.861 44.934 44.909 44.824 44.736 44.636 44.594 44.599 44.621 44.611 44.576 44.529 44.434 44.374
47.562 47.497 47.439 47.327 47.197 47.094 46.992 46.894 46.799 46.709 46.634 46.534 46.444 46.407 46.354 46.339 46.37 46.347 46.297 46.297 46.157 46.015 45.912 45.777 45.72 45.672 45.6 45.587 45.552 45.545 45.535 45.585 45.662 45.645 45.612 45.507 45.397 45.332 45.325 45.325 45.377 45.317 45.365 45.417 45.39 45.357 45.352 45.362 45.39 45.462 45.495 45.485 45.4 45.402 45.44 45.33 45.242 45.197 45.842 46.365 45.31 45.297 45.315 45.292 45.312 45.31 45.279 45.257 45.297 45.362 45.467 45.519 45.627 45.754 45.834 45.862 45.884 45.917 45.959 45.992 46.069 46.192 46.297 46.439 46.544 46.687 46.822 46.962 47.117 47.217 47.319 47.414 47.514 47.579 47.632 47.719 47.807 47.844 47.919 47.934 47.959 48.002 48.004 48.014 48.024 48.042 48.067 48.062 48.074 48.072 48.082 48.094 48.102 48.092 48.089 48.084 48.069 48.042 47.989 47.934 47.867 47.834 47.752 47.682 47.634 47.529 47.482 47.384 47.259 47.154 47.054 46.967 46.877 46.802 46.729 46.619 46.512 46.407 46.257 46.159 46.027 45.934 45.809 45.707 45.629 45.519 45.412 45.317 45.222 45.107 45.019 44.924 44.799 44.707 44.604 44.504 44.419 44.297 44.167 44.047 43.917 43.782 43.709 43.604 43.507 43.434 43.399 43.349 43.294 43.247 43.227 43.247 43.159 42.999 42.747 42.644 42.567 42.507 42.449 42.462 42.474 42.527 42.364 41.949 42.164 42.332 42.294 42.227 42.187 42.134 42.082 42.032 42.017 41.977 41.954 41.914 41.877 41.869 41.864 41.844 41.842 41.824 41.814 41.797 41.787 41.767 41.767 41.757 41.757 41.777 41.772 41.749 41.729 41.764 41.777 41.802 41.832 41.892 41.914 41.989 42.014 42.094 42.104 42.152 42.217 42.244 42.259 42.307 42.372 42.442 42.514 42.604 42.702 42.829 42.932 43.084 43.184 43.274 43.384 43.497 43.569 43.664 43.727 43.764 43.847 43.919 43.992 44.089 44.177 44.294 44.412 44.517 44.644 44.742 44.872 44.967 45.097 45.189 45.319 45.447 45.562 45.694 45.809 45.932 46.077 46.212 46.354 46.502 46.654 46.802 46.919 47.052 47.182 47.349 47.489 47.639 47.802 47.967 48.144 48.307 48.464 48.647 48.812 48.997 49.174 49.334 49.507 49.664 49.839 50.012 50.164 50.347 50.489 50.657 50.809 50.957 51.092 51.217 51.319 51.447 51.559 51.654 51.769 51.869 51.939 52.059 52.147 52.252 52.342 52.442 52.494 52.577 52.624 52.682 52.744 52.799 52.854 52.901 52.944 52.964 52.939 52.951 52.949 52.949 52.939 52.871 52.831 52.806 52.754 52.684 52.654 52.626 52.581 52.551 52.491 52.419 52.341 52.259 52.171 52.106 51.994 51.921 51.826 51.766 51.674 51.579 51.581 51.551 51.471 51.394 51.296 51.244 51.231 52.106 51.369 50.726 50.714 50.669 50.661 51.856 54.206 51.996 50.151 49.919 49.759 49.431 48.571 47.704 47.191 46.494 45.804 45.386 45.214 45.149 45.151 45.056 44.946 44.896 44.896 44.879 44.869 44.866 44.866 44.861 44.854 44.824 44.834 44.844 44.869 44.891 45.199 45.906 46.261 46.289 46.211 46.084 45.659 45.199 45.021 43.981 43.329 43.289 43.256 44.196 45.704 46.214 44.686 44.629 44.721 44.701 44.606 44.414 44.379 44.424 44.464 44.431 44.331 44.304 44.239 44.159
47.734 47.689 47.597 47.489 47.374 47.269 47.152 47.054 46.969 46.874 46.797 46.694 46.612 46.519 46.492 46.512 46.482 46.452 46.422 46.44 46.372 46.23 46.125 45.997 45.867 45.832 45.8 45.735 45.712 45.635 45.645 45.63 45.637 45.672 45.717 45.73 45.662 45.58 45.52 45.482 45.507 45.455 45.492 45.557 45.52 45.502 45.435 45.487 45.565 45.59 45.602 45.6 45.527 45.547 45.86 45.492 45.365 45.335 46.205 46.362 45.395 45.412 45.427 45.43 45.412 45.402 45.384 45.364 45.369 45.444 45.562 45.672 45.769 45.862 45.947 45.972 45.982 46.019 46.057 46.107 46.169 46.302 46.442 46.522 46.659 46.794 46.937 47.072 47.209 47.324 47.434 47.507 47.592 47.664 47.739 47.807 47.882 47.932 47.992 48.032 48.039 48.067 48.084 48.099 48.114 48.137 48.132 48.147 48.132 48.134 48.147 48.149 48.139 48.167 48.134 48.129 48.124 48.074 48.029 47.992 47.922 47.852 47.797 47.757 47.669 47.587 47.474 47.377 47.277 47.152 47.079 46.997 46.894 46.817 46.729 46.627 46.514 46.392 46.282 46.167 46.032 45.932 45.822 45.712 45.622 45.542 45.414 45.307 45.212 45.077 44.997 44.917 44.804 44.722 44.624 44.514 44.374 44.269 44.142 44.044 43.912 43.787 43.707 43.599 43.507 43.462 43.392 43.324 43.297 43.292 43.242 43.177 43.109 43.014 42.759 42.612 43.164 43.184 42.749 42.659 42.447 42.232 41.967 42.342 42.392 42.324 42.294 42.224 42.192 42.137 42.122 42.079 42.069 42.017 42.002 41.974 41.934 41.942 41.937 41.937 41.909 41.922 41.887 41.889 41.859 41.862 41.894 41.867 41.877 41.897 41.879 41.887 41.877 41.892 41.914 41.944 41.954 41.977 42.069 42.099 42.154 42.212 42.247 42.284 42.339 42.344 42.389 42.442 42.514 42.572 42.674 42.777 42.917 43.029 43.159 43.284 43.382 43.474 43.574 43.674 43.749 43.807 43.852 43.932 43.982 44.067 44.152 44.249 44.342 44.472 44.567 44.677 44.832 44.942 45.064 45.202 45.314 45.439 45.552 45.679 45.802 45.932 46.057 46.179 46.329 46.469 46.619 46.767 46.882 47.054 47.194 47.314 47.459 47.597 47.739 47.899 48.057 48.247 48.402 48.567 48.729 48.917 49.087 49.239 49.434 49.574 49.742 49.932 50.107 50.274 50.417 50.562 50.722 50.884 51.029 51.162 51.282 51.399 51.499 51.649 51.767 51.847 51.939 52.029 52.117 52.219 52.302 52.392 52.512 52.612 52.652 52.729 52.762 52.852 52.899 52.959 52.996 52.999 53.034 53.031 53.046 53.069 53.036 53.026 53.019 52.956 52.939 52.919 52.844 52.821 52.766 52.701 52.664 52.604 52.546 52.479 52.394 52.309 52.219 52.124 52.041 51.906 51.834 51.774 51.694 51.616 51.619 51.556 51.474 51.386 51.309 51.251 51.809 51.986 50.694 50.664 50.671 50.679 51.071 53.171 53.549 53.331 49.964 49.774 49.639 49.221 48.409 47.611 47.046 45.939 45.196 45.344 47.004 46.731 46.256 46.061 46.454 46.931 46.249 46.151 46.836 46.439 48.016 47.284 47.839 46.844 47.286 47.874 47.801 46.641 45.161 45.709 46.194 46.216 46.166 46.014 45.641 46.054 45.011 44.271 43.221 43.176 43.104 43.536 47.199 47.296 44.551 44.416 44.476 44.499 44.386 44.299 44.139 44.201 44.151 44.164 44.136 44.099 43.996 43.996
47.937 47.872 47.754 47.644 47.539 47.459 47.354 47.232 47.164 47.049 46.974 46.867 46.762 46.699 46.662 46.607 46.592 46.595 46.572 46.537 46.532 46.45 46.332 46.182 46.08 46.005 45.94 45.875 45.82 45.802 45.75 45.715 45.692 45.722 45.747 45.79 45.835 45.82 45.742 45.675 45.657 45.645 45.65 45.66 45.647 45.61 45.587 45.667 45.72 45.732 45.762 45.712 45.655 45.79 45.567 45.622 45.465 45.457 46.732 46.295 45.545 45.54 45.545 45.522 45.525 45.49 45.492 45.489 45.519 45.604 45.687 45.789 45.892 45.979 46.037 46.084 46.089 46.102 46.159 46.217 46.322 46.409 46.547 46.654 46.772 46.907 47.027 47.172 47.287 47.414 47.512 47.594 47.667 47.769 47.832 47.884 47.979 48.022 48.079 48.114 48.142 48.137 48.169 48.217 48.212 48.232 48.222 48.234 48.219 48.209 48.199 48.222 48.227 48.207 48.197 48.142 48.152 48.137 48.084 48.049 47.984 47.927 47.839 47.747 47.682 47.584 47.467 47.372 47.272 47.169 47.104 46.994 46.912 46.819 46.724 46.604 46.489 46.384 46.274 46.147 46.032 45.927 45.819 45.714 45.637 45.529 45.429 45.327 45.199 45.077 44.987 44.897 44.832 44.722 44.637 44.512 44.367 44.247 44.147 44.044 43.939 43.819 43.679 43.589 43.519 43.454 43.372 43.329 43.324 43.314 43.224 43.139 43.079 43.029 43.969 42.752 44.389 44.427 42.649 42.234 42.202 42.422 42.467 42.437 42.409 42.359 42.277 42.249 42.217 42.202 42.159 42.122 42.092 42.064 42.072 42.052 42.042 42.049 42.034 42.039 42.002 41.937 41.977 41.989 41.982 41.957 41.927 41.939 41.949 41.977 41.979 41.977 41.979 41.989 42.024 42.054 42.087 42.144 42.172 42.229 42.262 42.322 42.362 42.412 42.439 42.467 42.519 42.567 42.634 42.712 42.827 42.952 43.094 43.209 43.309 43.432 43.564 43.689 43.789 43.849 43.917 43.984 44.027 44.082 44.164 44.232 44.337 44.449 44.569 44.659 44.772 44.904 45.034 45.154 45.274 45.417 45.524 45.667 45.772 45.917 46.032 46.204 46.312 46.459 46.577 46.707 46.839 46.962 47.104 47.282 47.422 47.572 47.732 47.892 48.042 48.174 48.342 48.487 48.649 48.814 48.972 49.154 49.347 49.504 49.657 49.839 50.007 50.157 50.297 50.504 50.642 50.807 50.962 51.084 51.209 51.329 51.464 51.569 51.689 51.792 51.914 52.002 52.119 52.192 52.297 52.394 52.477 52.569 52.664 52.732 52.822 52.867 52.944 53.014 53.049 53.084 53.109 53.126 53.141 53.146 53.129 53.134 53.119 53.126 53.086 53.079 53.066 52.996 52.959 52.911 52.854 52.809 52.724 52.644 52.559 52.509 52.416 52.324 52.211 52.156 52.064 51.949 51.846 51.794 51.694 51.661 51.634 51.551 51.481 51.376 51.324 51.489 52.254 50.889 50.654 50.594 50.614 50.659 51.029 52.424 53.131 51.514 49.791 49.599 49.461 49.119 48.321 47.529 46.624 45.526 44.939 49.554 50.646 50.666 50.681 50.369 50.664 50.671 50.701 50.701 50.711 50.706 50.726 50.719 50.724 50.726 50.729 50.744 50.766 49.126 44.876 45.699 46.166 46.209 46.141 45.961 45.686 45.204 44.861 44.509 43.354 43.066 42.979 42.986 45.574 48.904 44.444 44.206 44.166 44.246 44.226 44.151 43.984 43.926 43.939 43.934 44.014 43.976 43.909 43.874
48.089 48.032 47.914 47.802 47.709 47.607 47.517 47.427 47.352 47.257 47.172 47.047 46.952 46.897 46.847 46.744 46.702 46.69 46.685 46.682 46.672 46.667 46.552 46.425 46.282 46.162 46.082 46.015 45.97 45.957 45.835 45.812 45.815 45.8 45.797 45.822 45.857 45.902 45.925 45.89 45.867 45.822 45.767 45.777 45.75 45.727 45.772 45.825 45.862 45.875 45.89 45.845 45.775 45.97 45.652 45.712 45.58 45.572 46.625 45.872 45.687 45.66 45.63 45.63 45.627 45.61 45.604 45.587 45.599 45.707 45.797 45.929 46.039 46.112 46.147 46.152 46.179 46.217 46.254 46.332 46.434 46.519 46.629 46.757 46.862 47.039 47.144 47.279 47.392 47.479 47.592 47.684 47.747 47.862 47.937 47.989 48.044 48.104 48.149 48.174 48.217 48.249 48.264 48.302 48.282 48.304 48.309 48.309 48.297 48.289 48.289 48.297 48.289 48.267 48.237 48.212 48.179 48.162 48.144 48.084 48.019 47.969 47.894 47.797 47.692 47.589 47.497 47.367 47.287 47.214 47.122 47.032 46.927 46.832 46.712 46.594 46.499 46.384 46.282 46.144 46.039 45.937 45.834 45.747 45.632 45.542 45.407 45.297 45.187 45.097 44.989 44.919 44.802 44.719 44.622 44.482 44.357 44.239 44.109 44.029 43.897 43.792 43.689 43.587 43.499 43.449 43.384 43.364 43.317 43.237 43.184 43.132 43.044 42.897 42.804 43.337 42.784 43.292 42.767 42.702 42.617 42.584 42.527 42.459 42.429 42.362 42.317 42.289 42.267 42.254 42.214 42.179 42.149 42.159 42.172 42.149 42.127 42.132 42.144 42.119 42.097 42.062 42.069 42.064 42.084 42.072 42.062 42.059 42.044 42.037 42.052 42.039 42.067 42.089 42.134 42.167 42.204 42.267 42.304 42.362 42.412 42.447 42.477 42.499 42.534 42.562 42.609 42.664 42.754 42.862 43.019 43.119 43.254 43.377 43.492 43.629 43.742 43.842 43.922 44.019 44.109 44.179 44.219 44.289 44.354 44.419 44.509 44.627 44.729 44.874 45.007 45.119 45.259 45.382 45.492 45.642 45.762 45.892 46.022 46.149 46.274 46.424 46.564 46.689 46.824 46.944 47.119 47.239 47.374 47.512 47.667 47.824 47.982 48.119 48.274 48.464 48.609 48.777 48.932 49.072 49.224 49.379 49.557 49.692 49.872 50.049 50.217 50.389 50.549 50.692 50.857 51.009 51.139 51.274 51.404 51.524 51.647 51.729 51.852 51.962 52.077 52.192 52.267 52.374 52.479 52.562 52.664 52.747 52.829 52.897 52.957 53.009 53.059 53.109 53.154 53.182 53.224 53.236 53.244 53.256 53.231 53.219 53.216 53.224 53.179 53.174 53.159 53.101 53.039 52.979 52.904 52.861 52.799 52.729 52.629 52.534 52.444 52.351 52.251 52.166 52.079 51.944 51.866 51.791 51.719 51.689 51.621 51.546 51.464 51.384 51.341 52.156 51.431 50.746 50.621 50.566 50.621 51.339 53.214 53.886 51.389 50.154 49.584 49.426 49.299 48.954 48.186 47.309 46.486 45.451 44.866 49.664 51.059 51.081 51.086 51.064 51.089 51.084 51.084 51.096 51.109 51.136 51.121 51.131 51.131 51.139 51.136 51.159 51.176 49.409 44.846 45.644 46.096 46.116 46.036 45.861 45.669 45.356 44.814 44.616 43.804 42.909 42.831 42.751 47.644 47.494 44.344 44.061 43.964 44.001 43.976 43.924 43.866 43.676 43.671 43.786 43.799 43.744 43.649 43.646
48.252 48.194 48.082 47.959 47.874 47.789 47.712 47.614 47.547 47.464 47.357 47.229 47.134 47.107 47.009 46.932 46.89 46.852 46.842 46.81 46.797 46.817 46.757 46.652 46.485 46.322 46.26 46.175 46.115 46.062 46.02 45.967 45.927 45.9 45.892 45.915 45.95 45.965 45.995 46.042 46.045 46.045 45.977 45.932 45.9 45.892 45.917 45.975 46.025 46.022 46.04 46.007 45.945 46.35 45.835 45.862 45.702 45.72 46.467 45.912 45.812 45.795 45.772 45.747 45.722 45.727 45.694 45.697 45.749 45.832 45.939 46.024 46.129 46.219 46.237 46.239 46.254 46.309 46.377 46.454 46.569 46.652 46.772 46.877 47.012 47.159 47.254 47.379 47.484 47.584 47.672 47.762 47.859 47.929 48.032 48.104 48.129 48.179 48.209 48.252 48.312 48.329 48.359 48.392 48.404 48.382 48.399 48.399 48.397 48.394 48.354 48.364 48.347 48.297 48.269 48.249 48.229 48.214 48.179 48.124 48.057 47.979 47.934 47.812 47.719 47.612 47.499 47.407 47.304 47.244 47.157 47.039 46.929 46.794 46.687 46.569 46.472 46.367 46.284 46.164 46.067 45.937 45.839 45.749 45.652 45.517 45.409 45.317 45.189 45.094 45.029 44.909 44.822 44.687 44.559 44.467 44.344 44.217 44.112 44.012 43.894 43.782 43.674 43.582 43.507 43.439 43.394 43.354 43.292 43.197 43.144 43.104 43.057 42.612 43.664 44.694 43.722 42.862 42.777 42.719 42.694 42.619 42.544 42.464 42.429 42.402 42.364 42.324 42.279 42.262 42.257 42.237 42.234 42.242 42.247 42.202 42.202 42.184 42.182 42.199 42.194 42.177 42.177 42.172 42.182 42.177 42.174 42.174 42.159 42.159 42.172 42.157 42.159 42.172 42.192 42.249 42.302 42.379 42.434 42.489 42.554 42.577 42.607 42.657 42.689 42.702 42.747 42.837 42.937 43.039 43.182 43.322 43.464 43.594 43.707 43.819 43.907 43.997 44.094 44.184 44.264 44.317 44.389 44.472 44.554 44.654 44.752 44.867 44.972 45.089 45.202 45.327 45.447 45.582 45.727 45.862 45.979 46.119 46.249 46.377 46.504 46.649 46.787 46.929 47.052 47.217 47.357 47.497 47.649 47.784 47.922 48.072 48.209 48.354 48.512 48.664 48.859 49.022 49.172 49.329 49.472 49.647 49.812 49.979 50.102 50.272 50.427 50.582 50.732 50.927 51.067 51.207 51.324 51.469 51.572 51.704 51.807 51.914 52.024 52.139 52.244 52.324 52.429 52.547 52.654 52.749 52.824 52.912 53.004 53.064 53.149 53.194 53.217 53.237 53.284 53.322 53.304 53.311 53.289 53.314 53.291 53.289 53.286 53.254 53.236 53.204 53.141 53.114 53.064 53.031 52.956 52.896 52.841 52.749 52.669 52.589 52.486 52.364 52.264 52.154 52.051 51.949 51.859 51.824 51.781 51.704 51.589 51.516 51.441 51.386 51.929 51.989 50.786 50.664 50.556 50.506 50.559 52.581 54.674 53.834 49.991 49.644 49.444 49.274 49.114 48.799 48.016 47.129 46.354 45.371 44.861 49.919 51.466 51.471 51.491 51.491 51.494 51.486 51.499 51.504 51.514 51.536 51.541 51.546 51.564 51.551 51.556 51.571 51.564 50.166 44.816 45.581 45.999 46.021 45.906 45.791 45.591 45.371 44.994 44.504 44.094 42.951 42.684 42.621 44.159 43.701 44.231 43.896 43.726 43.761 43.771 43.666 43.694 43.449 43.414 43.469 43.531 43.496 43.444 43.399
48.439 48.344 48.217 48.137 48.044 47.959 47.894 47.819 47.734 47.614 47.522 47.459 47.384 47.307 47.187 47.107 47.07 47.02 47.007 46.955 46.95 46.927 46.91 46.852 46.717 46.592 46.45 46.265 46.21 46.152 46.15 46.147 46.085 46.025 46.047 46.027 46.045 46.06 46.07 46.097 46.137 46.16 46.162 46.122 46.102 46.07 46.092 46.127 46.145 46.187 46.185 46.15 46.06 46.267 45.982 45.95 45.8 45.842 46.44 45.947 45.957 45.93 45.912 45.862 45.84 45.81 45.807 45.804 45.857 45.942 46.039 46.162 46.247 46.297 46.347 46.322 46.359 46.447 46.519 46.599 46.667 46.772 46.882 46.999 47.137 47.267 47.369 47.469 47.574 47.657 47.747 47.877 47.952 48.019 48.092 48.167 48.202 48.249 48.294 48.309 48.367 48.404 48.447 48.477 48.492 48.499 48.502 48.492 48.462 48.499 48.462 48.434 48.409 48.369 48.337 48.312 48.279 48.257 48.217 48.144 48.092 48.024 47.947 47.829 47.747 47.642 47.527 47.439 47.352 47.252 47.142 47.054 46.914 46.807 46.684 46.589 46.469 46.359 46.284 46.147 46.067 45.967 45.837 45.737 45.639 45.512 45.407 45.297 45.219 45.092 45.009 44.904 44.772 44.652 44.547 44.442 44.332 44.227 44.087 43.962 43.864 43.754 43.687 43.592 43.522 43.459 43.404 43.327 43.249 43.174 43.132 43.122 43.159 43.397 43.722 43.354 42.927 42.822 42.834 42.752 42.704 42.614 42.552 42.517 42.532 42.442 42.387 42.379 42.364 42.367 42.357 42.329 42.352 42.322 42.334 42.334 42.299 42.264 42.252 42.267 42.272 42.257 42.237 42.234 42.264 42.279 42.284 42.264 42.262 42.259 42.282 42.262 42.277 42.267 42.319 42.354 42.414 42.464 42.519 42.592 42.667 42.714 42.717 42.772 42.829 42.884 42.954 43.019 43.114 43.234 43.377 43.517 43.659 43.807 43.907 44.057 44.154 44.227 44.312 44.362 44.447 44.499 44.577 44.667 44.767 44.867 44.939 45.074 45.182 45.307 45.434 45.527 45.647 45.774 45.922 46.059 46.194 46.344 46.482 46.619 46.719 46.864 47.039 47.177 47.302 47.472 47.597 47.732 47.894 48.064 48.187 48.337 48.492 48.634 48.782 48.937 49.087 49.232 49.402 49.562 49.717 49.867 50.037 50.207 50.352 50.507 50.652 50.777 50.932 51.069 51.234 51.364 51.524 51.624 51.747 51.877 51.987 52.084 52.169 52.284 52.412 52.499 52.619 52.719 52.822 52.909 52.999 53.077 53.142 53.212 53.277 53.327 53.352 53.382 53.387 53.419 53.411 53.391 53.404 53.371 53.389 53.346 53.321 53.244 53.236 53.161 53.109 53.071 53.056 52.991 52.949 52.879 52.831 52.759 52.649 52.564 52.444 52.349 52.236 52.151 52.046 51.936 51.849 51.814 51.754 51.684 51.591 51.526 51.441 51.624 52.281 51.034 50.621 50.539 50.451 50.496 51.139 52.981 53.634 51.841 49.859 49.489 49.264 49.116 48.914 48.579 47.811 47.004 46.264 45.256 44.821 50.204 51.876 51.899 51.916 51.899 51.906 51.909 51.904 51.926 51.921 51.944 51.951 51.961 51.956 51.971 51.964 51.969 51.964 50.061 44.784 45.459 45.859 45.844 45.726 45.604 45.421 45.219 45.026 44.536 44.159 43.221 42.529 42.471 42.339 43.066 43.904 43.856 43.531 43.489 43.489 43.429 43.446 43.319 43.174 43.259 43.281 43.276 43.274 43.221
48.587 48.519 48.392 48.322 48.242 48.172 48.087 47.989 47.894 47.802 47.769 47.697 47.637 47.509 47.379 47.304 47.25 47.22 47.137 47.105 47.082 47.045 47.045 47.022 46.97 46.875 46.715 46.47 46.357 46.275 46.262 46.285 46.24 46.207 46.195 46.197 46.212 46.197 46.215 46.217 46.25 46.27 46.28 46.302 46.322 46.277 46.265 46.292 46.312 46.325 46.332 46.327 46.152 45.93 46.122 45.992 45.902 45.977 46.965 46.08 46.085 46.085 46.01 45.967 45.95 45.922 45.899 45.907 46.012 46.087 46.184 46.264 46.369 46.414 46.414 46.429 46.479 46.552 46.637 46.692 46.812 46.897 47.004 47.137 47.264 47.374 47.467 47.569 47.654 47.744 47.844 47.947 48.044 48.112 48.177 48.222 48.282 48.319 48.344 48.389 48.437 48.489 48.519 48.542 48.569 48.584 48.569 48.572 48.557 48.552 48.524 48.517 48.469 48.459 48.409 48.372 48.322 48.282 48.234 48.182 48.112 48.017 47.952 47.842 47.739 47.647 47.559 47.479 47.412 47.299 47.172 47.069 46.949 46.827 46.697 46.572 46.464 46.344 46.242 46.162 46.087 45.979 45.872 45.764 45.649 45.527 45.384 45.314 45.212 45.114 45.022 44.889 44.727 44.604 44.492 44.409 44.287 44.199 44.089 43.977 43.852 43.767 43.652 43.582 43.554 43.494 43.422 43.332 43.234 43.174 43.179 43.397 43.752 43.627 43.382 43.039 42.959 42.932 42.839 42.744 42.677 42.644 42.604 42.564 42.499 42.472 42.459 42.457 42.464 42.442 42.429 42.427 42.434 42.402 42.417 42.407 42.379 42.357 42.372 42.342 42.339 42.342 42.352 42.334 42.347 42.347 42.332 42.367 42.369 42.364 42.392 42.369 42.394 42.399 42.464 42.507 42.552 42.597 42.692 42.767 42.792 42.834 42.859 42.899 42.949 43.044 43.119 43.229 43.334 43.464 43.599 43.727 43.892 43.994 44.107 44.247 44.349 44.399 44.474 44.544 44.624 44.722 44.777 44.864 44.949 45.047 45.177 45.267 45.387 45.504 45.624 45.744 45.854 46.002 46.134 46.274 46.412 46.559 46.717 46.847 47.007 47.129 47.262 47.444 47.582 47.689 47.837 47.989 48.137 48.274 48.419 48.592 48.737 48.884 49.059 49.194 49.372 49.504 49.654 49.764 49.927 50.049 50.229 50.392 50.527 50.684 50.857 51.002 51.144 51.294 51.432 51.542 51.674 51.787 51.914 52.004 52.112 52.227 52.344 52.462 52.579 52.669 52.794 52.894 52.982 53.097 53.184 53.234 53.324 53.349 53.397 53.439 53.457 53.484 53.492 53.497 53.491 53.504 53.461 53.476 53.431 53.384 53.374 53.264 53.214 53.161 53.051 53.006 52.994 52.961 52.926 52.884 52.824 52.736 52.651 52.521 52.429 52.336 52.216 52.114 52.021 51.926 51.856 51.804 51.736 51.654 51.584 51.494 51.464 52.029 51.521 50.664 50.516 50.439 50.364 50.564 52.054 54.759 53.731 49.799 49.509 49.326 49.079 48.881 48.676 48.359 47.609 46.856 46.109 45.229 44.836 49.929 52.294 52.314 52.324 52.321 52.339 52.341 52.341 52.356 52.354 52.354 52.376 52.389 52.381 52.394 52.401 52.386 52.399 50.534 44.826 45.256 45.554 45.519 45.451 45.359 45.256 45.114 44.941 44.579 43.954 43.454 42.569 42.326 42.244 42.381 43.626 43.794 43.409 43.279 43.311 43.234 43.199 43.176 43.004 42.959 42.994 43.004 42.941 42.836
48.762 48.694 48.609 48.534 48.464 48.382 48.254 48.167 48.062 48.007 47.962 47.907 47.834 47.724 47.634 47.539 47.472 47.417 47.34 47.277 47.245 47.192 47.197 47.207 47.192 47.157 46.99 46.755 46.545 46.442 46.38 46.385 46.39 46.357 46.312 46.337 46.377 46.382 46.385 46.397 46.39 46.375 46.375 46.425 46.455 46.487 46.472 46.502 46.48 46.467 46.52 46.48 46.375 45.93 46.25 46.085 46.017 46.207 47.01 46.215 46.202 46.162 46.137 46.085 46.072 46.057 46.019 46.037 46.132 46.237 46.302 46.394 46.444 46.509 46.482 46.519 46.592 46.674 46.744 46.832 46.929 47.024 47.122 47.247 47.367 47.474 47.587 47.682 47.764 47.854 47.942 48.029 48.104 48.192 48.254 48.322 48.362 48.392 48.429 48.479 48.499 48.544 48.594 48.614 48.639 48.634 48.639 48.657 48.639 48.629 48.604 48.579 48.524 48.482 48.449 48.444 48.377 48.344 48.277 48.209 48.119 48.039 47.942 47.857 47.739 47.639 47.582 47.474 47.409 47.307 47.189 47.089 46.952 46.824 46.709 46.592 46.487 46.354 46.252 46.162 46.074 45.974 45.874 45.759 45.639 45.517 45.399 45.287 45.217 45.119 44.999 44.877 44.717 44.592 44.479 44.369 44.269 44.174 44.064 43.944 43.839 43.747 43.644 43.629 43.567 43.477 43.374 43.302 43.242 43.209 43.324 43.937 43.444 43.162 43.142 43.087 42.972 42.919 42.817 42.774 42.677 42.639 42.614 42.557 42.537 42.512 42.509 42.539 42.537 42.552 42.524 42.499 42.497 42.487 42.482 42.472 42.442 42.437 42.432 42.444 42.427 42.442 42.429 42.422 42.447 42.444 42.464 42.449 42.449 42.439 42.467 42.507 42.534 42.554 42.604 42.657 42.697 42.752 42.807 42.867 42.914 42.987 43.014 43.057 43.127 43.199 43.314 43.434 43.572 43.704 43.817 43.934 44.052 44.192 44.324 44.414 44.492 44.574 44.644 44.692 44.757 44.849 44.944 45.012 45.139 45.264 45.379 45.487 45.579 45.722 45.817 45.949 46.082 46.234 46.354 46.467 46.619 46.762 46.937 47.117 47.249 47.379 47.559 47.699 47.854 48.002 48.142 48.257 48.404 48.554 48.694 48.847 48.999 49.142 49.319 49.472 49.629 49.774 49.914 50.057 50.172 50.314 50.444 50.587 50.734 50.879 51.019 51.157 51.317 51.464 51.569 51.714 51.837 51.949 52.047 52.187 52.282 52.379 52.499 52.619 52.732 52.822 52.959 53.037 53.134 53.242 53.302 53.359 53.432 53.492 53.517 53.564 53.549 53.572 53.577 53.602 53.596 53.539 53.514 53.521 53.471 53.424 53.384 53.336 53.264 53.159 53.076 53.004 52.961 52.969 52.949 52.876 52.821 52.711 52.621 52.501 52.391 52.304 52.189 52.074 51.984 51.906 51.814 51.756 51.671 51.609 51.571 51.484 51.829 51.901 50.759 50.561 50.464 50.356 50.336 51.384 54.551 53.351 51.284 49.551 49.309 49.079 48.826 48.586 48.369 48.094 47.461 46.791 46.054 45.254 45.021 50.269 52.639 52.649 52.639 52.646 52.656 52.664 52.671 52.666 52.664 52.666 52.666 52.681 52.639 52.611 52.619 52.611 52.644 51.001 44.806 45.001 45.146 45.084 45.104 45.116 45.096 44.984 44.839 44.564 43.956 43.966 43.166 42.159 42.106 41.976 42.821 43.501 43.299 43.079 43.079 42.991 42.926 42.931 42.841 42.716 42.689 42.636 42.551 42.496
48.937 48.897 48.827 48.742 48.667 48.567 48.449 48.359 48.264 48.217 48.167 48.119 47.992 47.919 47.854 47.762 47.667 47.582 47.527 47.49 47.405 47.362 47.342 47.402 47.387 47.347 47.262 47.06 46.825 46.655 46.515 46.477 46.492 46.515 46.54 46.555 46.535 46.567 46.562 46.567 46.545 46.51 46.492 46.507 46.547 46.607 46.655 46.7 46.64 46.62 46.727 46.595 46.405 46.047 46.42 46.24 46.155 46.387 47.01 46.347 46.282 46.265 46.23 46.222 46.197 46.19 46.182 46.154 46.282 46.362 46.449 46.519 46.512 46.604 46.602 46.657 46.719 46.767 46.859 46.957 47.044 47.157 47.284 47.382 47.472 47.572 47.652 47.752 47.852 47.947 48.054 48.134 48.202 48.269 48.327 48.394 48.439 48.484 48.537 48.567 48.619 48.634 48.644 48.669 48.687 48.694 48.714 48.734 48.719 48.714 48.679 48.632 48.609 48.569 48.539 48.487 48.462 48.394 48.322 48.239 48.144 48.057 47.942 47.864 47.754 47.677 47.612 47.544 47.417 47.322 47.202 47.104 46.979 46.887 46.749 46.624 46.512 46.399 46.274 46.179 46.084 45.972 45.882 45.757 45.637 45.524 45.417 45.317 45.207 45.109 44.979 44.839 44.707 44.587 44.459 44.359 44.239 44.134 44.034 43.919 43.837 43.744 43.697 43.647 43.564 43.487 43.442 43.332 43.327 43.332 43.757 43.764 43.264 43.209 43.159 43.104 42.987 42.884 42.809 42.769 42.759 42.689 42.657 42.647 42.629 42.629 42.597 42.614 42.619 42.609 42.599 42.589 42.607 42.587 42.554 42.559 42.537 42.552 42.542 42.537 42.549 42.554 42.559 42.554 42.542 42.567 42.569 42.572 42.614 42.597 42.629 42.642 42.652 42.684 42.734 42.804 42.857 42.892 42.957 43.017 43.057 43.124 43.157 43.224 43.307 43.389 43.514 43.624 43.747 43.897 44.032 44.177 44.267 44.387 44.489 44.567 44.649 44.712 44.804 44.847 44.942 45.022 45.109 45.182 45.302 45.449 45.544 45.649 45.787 45.944 46.054 46.164 46.274 46.434 46.562 46.682 46.842 46.969 47.152 47.297 47.454 47.637 47.774 47.957 48.107 48.259 48.414 48.564 48.709 48.857 48.982 49.124 49.274 49.427 49.584 49.734 49.869 49.997 50.142 50.267 50.392 50.514 50.677 50.802 50.924 51.049 51.184 51.317 51.459 51.594 51.727 51.862 51.982 52.079 52.222 52.329 52.449 52.522 52.649 52.782 52.877 53.004 53.097 53.182 53.272 53.362 53.439 53.487 53.542 53.567 53.589 53.624 53.652 53.657 53.664 53.649 53.619 53.591 53.559 53.546 53.481 53.441 53.404 53.384 53.324 53.259 53.169 53.081 53.031 53.004 52.929 52.866 52.791 52.671 52.584 52.479 52.344 52.234 52.124 52.004 51.936 51.869 51.796 51.701 51.631 51.554 51.504 51.629 52.166 50.876 50.579 50.499 50.366 50.246 50.324 53.636 54.606 54.056 49.839 49.299 49.061 48.779 48.544 48.294 48.079 47.849 47.331 46.714 46.019 45.206 44.816 50.841 52.364 52.351 52.324 52.344 52.356 52.341 52.339 52.319 52.321 52.299 52.296 52.299 52.284 52.279 52.264 52.244 52.239 50.696 44.621 44.756 44.729 44.694 44.744 44.926 44.914 44.846 44.761 44.549 44.116 43.889 43.784 42.054 41.946 41.814 41.996 43.111 43.216 43.019 42.819 42.799 42.691 42.694 42.681 42.484 42.401 42.401 42.329 42.269
49.147 49.087 49.032 48.952 48.872 48.792 48.682 48.584 48.509 48.457 48.394 48.314 48.189 48.114 48.064 47.984 47.87 47.787 47.74 47.657 47.61 47.532 47.512 47.545 47.537 47.525 47.487 47.335 47.085 46.857 46.7 46.612 46.607 46.655 47.26 48.492 46.742 46.727 46.747 46.73 46.702 46.65 46.66 46.652 46.655 46.687 46.772 46.837 46.85 46.817 46.767 46.627 46.54 46.277 46.542 46.342 46.257 46.46 46.865 46.43 46.392 46.38 46.36 46.36 46.325 46.282 46.287 46.289 46.402 46.484 46.567 46.632 46.647 46.694 46.727 46.762 46.829 46.877 46.969 47.059 47.167 47.277 47.397 47.492 47.592 47.679 47.757 47.827 47.954 48.062 48.142 48.224 48.302 48.367 48.414 48.449 48.504 48.574 48.609 48.659 48.672 48.707 48.712 48.739 48.774 48.757 48.794 48.812 48.767 48.769 48.747 48.707 48.669 48.639 48.632 48.584 48.509 48.449 48.382 48.279 48.174 48.057 47.932 47.857 47.774 47.692 47.629 47.547 47.412 47.309 47.199 47.114 46.999 46.892 46.789 46.657 46.544 46.409 46.282 46.199 46.104 45.994 45.852 45.752 45.627 45.512 45.427 45.332 45.209 45.089 44.957 44.822 44.707 44.554 44.437 44.304 44.189 44.099 44.022 43.927 43.852 43.784 43.724 43.697 43.567 43.542 43.534 43.447 43.394 44.062 44.422 43.479 43.247 43.232 43.144 43.064 42.979 42.884 42.824 42.819 42.774 42.734 42.747 42.749 42.724 42.692 42.707 42.689 42.659 42.629 42.632 42.639 42.652 42.697 42.707 42.639 42.659 42.679 42.669 42.662 42.652 42.687 42.714 42.674 42.687 42.712 42.704 42.724 42.737 42.737 42.772 42.779 42.774 42.817 42.864 42.932 42.992 43.017 43.114 43.139 43.219 43.249 43.334 43.384 43.484 43.607 43.714 43.824 43.982 44.107 44.239 44.354 44.452 44.559 44.642 44.742 44.799 44.884 44.944 45.034 45.097 45.207 45.319 45.387 45.507 45.619 45.759 45.857 45.982 46.129 46.254 46.344 46.499 46.627 46.752 46.919 47.062 47.224 47.364 47.539 47.687 47.844 48.007 48.204 48.359 48.512 48.662 48.837 48.969 49.107 49.272 49.407 49.557 49.682 49.842 49.972 50.112 50.249 50.359 50.499 50.609 50.727 50.844 50.954 51.129 51.239 51.357 51.507 51.632 51.749 51.874 51.997 52.102 52.209 52.329 52.447 52.574 52.672 52.792 52.924 53.039 53.137 53.242 53.322 53.407 53.502 53.584 53.609 53.664 53.664 53.689 53.712 53.694 53.702 53.704 53.687 53.686 53.646 53.591 53.576 53.534 53.486 53.441 53.394 53.359 53.319 53.226 53.154 53.059 53.021 52.919 52.851 52.744 52.651 52.526 52.391 52.274 52.159 52.051 51.954 51.876 51.824 51.724 51.656 51.566 51.499 51.544 52.124 51.316 50.631 50.521 50.426 50.194 50.166 50.381 52.439 53.139 54.211 49.461 49.036 48.789 48.506 48.226 47.966 47.761 47.626 47.249 46.674 46.064 45.299 44.814 50.054 51.939 51.929 51.921 51.914 51.911 51.916 51.914 51.891 51.899 51.889 51.881 51.886 51.861 51.831 51.834 51.816 51.821 50.714 44.569 44.564 44.416 44.344 44.441 44.711 44.784 44.741 44.606 44.499 44.261 43.661 43.346 42.336 41.786 41.689 41.541 42.424 43.094 42.971 42.594 42.604 42.489 42.441 42.494 42.381 42.204 42.159 42.109 42.019
49.322 49.254 49.199 49.154 49.074 48.989 48.904 48.832 48.747 48.674 48.602 48.517 48.417 48.307 48.262 48.167 48.055 48.002 47.935 47.855 47.805 47.73 47.705 47.695 47.692 47.685 47.695 47.562 47.37 47.12 46.912 46.775 46.707 47.25 49.807 48.32 47.252 46.892 46.905 46.877 46.857 46.83 46.815 46.795 46.802 46.812 46.862 46.907 46.96 46.96 46.88 46.742 46.675 46.455 46.682 46.48 46.41 46.69 46.82 46.56 46.507 46.51 46.482 46.452 46.435 46.405 46.392 46.412 46.502 46.607 46.682 46.732 46.782 46.807 46.827 46.872 46.944 46.994 47.099 47.174 47.287 47.407 47.509 47.614 47.709 47.782 47.879 47.954 48.059 48.157 48.224 48.299 48.374 48.417 48.472 48.537 48.607 48.654 48.707 48.729 48.747 48.782 48.797 48.802 48.812 48.834 48.839 48.852 48.827 48.822 48.802 48.769 48.744 48.722 48.674 48.642 48.562 48.492 48.409 48.322 48.227 48.094 47.992 47.899 47.794 47.737 47.649 47.552 47.434 47.332 47.242 47.114 47.007 46.917 46.779 46.672 46.552 46.452 46.339 46.224 46.109 45.999 45.867 45.742 45.654 45.552 45.429 45.307 45.187 45.059 44.922 44.787 44.679 44.559 44.409 44.287 44.194 44.104 44.009 43.942 43.864 43.794 43.754 43.739 43.577 43.557 43.547 43.514 43.417 44.039 43.704 43.279 43.259 43.222 43.159 43.087 43.002 42.964 42.869 42.842 42.809 42.779 42.802 42.827 42.812 42.794 42.809 42.809 42.807 42.777 42.792 42.782 42.777 42.747 42.729 42.719 42.732 42.757 42.774 42.752 42.799 42.809 42.819 42.824 42.824 42.872 42.854 42.849 42.867 42.877 42.892 42.899 42.922 42.952 42.964 43.082 43.127 43.147 43.212 43.259 43.294 43.357 43.462 43.539 43.652 43.777 43.927 44.037 44.169 44.279 44.399 44.509 44.632 44.709 44.812 44.872 44.939 45.007 45.089 45.149 45.277 45.367 45.457 45.572 45.699 45.804 45.929 46.059 46.159 46.297 46.432 46.552 46.692 46.834 46.979 47.147 47.309 47.424 47.624 47.772 47.912 48.097 48.282 48.457 48.614 48.769 48.927 49.112 49.217 49.399 49.519 49.689 49.829 49.947 50.092 50.212 50.352 50.437 50.569 50.684 50.817 50.939 51.062 51.149 51.294 51.412 51.539 51.674 51.762 51.914 52.002 52.124 52.249 52.349 52.474 52.579 52.687 52.804 52.899 53.029 53.154 53.254 53.357 53.449 53.524 53.607 53.667 53.692 53.724 53.747 53.772 53.767 53.772 53.759 53.749 53.734 53.691 53.656 53.626 53.604 53.556 53.536 53.444 53.406 53.351 53.294 53.241 53.179 53.084 52.991 52.886 52.781 52.684 52.596 52.486 52.356 52.199 52.089 51.976 51.894 51.826 51.746 51.639 51.529 51.436 51.406 51.851 51.316 50.676 50.526 50.439 50.261 50.061 50.294 52.179 55.001 52.396 51.494 49.066 48.731 48.494 48.219 47.946 47.654 47.474 47.399 47.154 46.604 46.019 45.299 44.816 48.289 51.531 51.506 51.499 51.494 51.494 51.491 51.504 51.486 51.486 51.469 51.459 51.459 51.439 51.439 51.419 51.429 51.404 50.856 44.549 44.364 44.124 44.069 44.109 44.426 44.611 44.539 44.411 44.326 44.199 43.689 43.226 42.901 41.849 41.539 41.389 41.709 42.721 42.791 42.429 42.356 42.286 42.161 42.169 42.174 42.004 41.901 41.834 41.761
49.517 49.454 49.372 49.302 49.252 49.172 49.117 49.052 48.957 48.872 48.804 48.717 48.607 48.542 48.479 48.354 48.262 48.205 48.12 48.055 47.982 47.962 47.882 47.82 47.83 47.855 47.84 47.82 47.69 47.43 47.165 46.965 46.91 46.912 47.545 47.185 47.295 49.027 47.06 47.005 47.025 47.002 46.952 46.955 46.955 46.957 46.992 47.017 47 47.02 46.992 46.91 46.88 46.557 46.792 46.607 46.56 46.945 46.935 46.645 46.642 46.652 46.612 46.585 46.552 46.517 46.512 46.532 46.617 46.707 46.769 46.847 46.879 46.917 46.952 46.989 47.034 47.107 47.217 47.294 47.409 47.519 47.627 47.712 47.799 47.879 47.992 48.077 48.159 48.239 48.314 48.382 48.457 48.499 48.564 48.634 48.714 48.747 48.784 48.794 48.829 48.864 48.874 48.894 48.914 48.884 48.902 48.887 48.882 48.862 48.867 48.819 48.779 48.782 48.767 48.687 48.632 48.559 48.464 48.344 48.252 48.142 48.014 47.932 47.852 47.764 47.672 47.537 47.414 47.327 47.247 47.124 47.007 46.897 46.784 46.667 46.594 46.457 46.349 46.252 46.109 45.979 45.877 45.772 45.667 45.557 45.437 45.302 45.147 45.019 44.894 44.774 44.649 44.537 44.399 44.274 44.177 44.084 44.027 43.952 43.899 43.867 43.792 43.694 43.607 43.592 43.582 43.517 43.272 43.214 43.462 43.239 43.244 43.249 43.187 43.137 43.067 43.032 43.002 42.974 42.934 42.897 42.912 42.924 42.902 42.887 42.892 42.884 42.899 42.892 42.917 42.917 42.912 42.897 42.897 42.879 42.874 42.854 42.847 42.849 42.842 42.894 42.912 42.959 42.997 42.992 42.994 43.002 43.029 43.027 43.009 43.039 43.064 43.112 43.147 43.217 43.247 43.264 43.307 43.379 43.447 43.494 43.607 43.722 43.849 43.997 44.129 44.272 44.372 44.497 44.584 44.699 44.777 44.867 44.947 45.009 45.102 45.169 45.249 45.327 45.419 45.522 45.642 45.769 45.864 45.979 46.117 46.244 46.347 46.487 46.634 46.762 46.872 47.049 47.214 47.384 47.557 47.707 47.869 48.027 48.177 48.364 48.519 48.717 48.867 49.027 49.199 49.369 49.507 49.657 49.817 49.952 50.079 50.214 50.339 50.462 50.567 50.674 50.792 50.869 50.994 51.129 51.242 51.364 51.479 51.602 51.704 51.827 51.924 52.039 52.172 52.277 52.397 52.504 52.637 52.724 52.842 52.934 53.039 53.142 53.254 53.359 53.499 53.552 53.627 53.714 53.749 53.792 53.807 53.822 53.819 53.812 53.804 53.807 53.777 53.744 53.741 53.709 53.641 53.584 53.554 53.511 53.451 53.381 53.339 53.254 53.216 53.114 53.044 52.969 52.874 52.751 52.636 52.521 52.394 52.264 52.131 51.996 51.904 51.829 51.756 51.644 51.529 51.406 51.319 51.646 52.199 50.991 50.534 50.426 50.286 50.006 50.036 51.194 53.416 54.526 51.551 49.051 48.724 48.474 48.239 47.951 47.686 47.464 47.306 47.249 46.966 46.454 45.911 45.274 44.809 48.044 51.124 51.101 51.101 51.099 51.084 51.084 51.071 51.069 51.086 51.069 51.061 51.054 51.044 51.029 51.004 51.014 50.971 50.464 44.869 44.184 43.934 43.881 43.874 44.146 44.371 44.336 44.236 44.151 43.891 43.384 43.029 43.384 42.209 41.409 41.309 41.229 42.104 42.676 42.326 42.099 42.119 41.974 41.904 41.929 41.856 41.656 41.609 41.576
49.799 49.697 49.629 49.532 49.447 49.362 49.314 49.247 49.167 49.097 49.022 48.917 48.837 48.794 48.699 48.574 48.47 48.4 48.312 48.222 48.192 48.142 48.022 48.007 47.962 47.99 47.992 47.987 47.907 47.74 47.49 47.285 47.13 47.045 47.015 47.112 47.377 49.792 47.225 47.18 47.17 47.155 47.122 47.117 47.112 47.1 47.122 47.112 47.137 47.105 47.082 47.072 47.012 46.755 47.057 46.76 46.69 47.147 47.017 46.832 46.782 46.775 46.74 46.72 46.697 46.647 46.602 46.634 46.754 46.839 46.904 46.969 47.002 47.019 47.037 47.079 47.137 47.227 47.349 47.432 47.524 47.622 47.732 47.819 47.894 47.992 48.069 48.169 48.264 48.322 48.404 48.482 48.537 48.579 48.644 48.712 48.769 48.827 48.844 48.879 48.904 48.937 48.944 48.964 48.984 48.979 48.959 48.912 48.894 48.894 48.877 48.889 48.852 48.819 48.772 48.704 48.639 48.607 48.492 48.389 48.294 48.167 48.057 47.989 47.887 47.802 47.679 47.564 47.447 47.329 47.234 47.129 47.014 46.897 46.812 46.687 46.579 46.497 46.367 46.257 46.124 45.982 45.889 45.779 45.669 45.559 45.467 45.292 45.149 44.989 44.869 44.737 44.619 44.514 44.382 44.299 44.187 44.124 44.037 43.957 43.957 43.899 43.829 43.714 43.667 43.659 43.627 43.464 43.132 43.264 43.302 43.277 43.292 43.297 43.247 43.192 43.189 43.147 43.159 43.149 43.109 43.087 43.067 43.074 43.042 43.034 43.029 43.004 42.999 43.019 43.017 43.029 43.007 43.037 43.047 43.034 43.004 43.017 42.997 43.024 42.969 42.977 42.987 43.002 43.019 43.069 43.109 43.117 43.132 43.149 43.149 43.164 43.204 43.232 43.284 43.332 43.389 43.427 43.484 43.552 43.609 43.672 43.787 43.899 44.014 44.152 44.302 44.437 44.577 44.672 44.797 44.882 44.934 45.009 45.089 45.174 45.249 45.332 45.412 45.477 45.589 45.679 45.782 45.907 46.039 46.147 46.299 46.419 46.542 46.687 46.802 46.939 47.104 47.252 47.419 47.589 47.762 47.907 48.109 48.277 48.444 48.619 48.787 48.959 49.172 49.314 49.477 49.592 49.764 49.899 50.032 50.159 50.322 50.432 50.557 50.667 50.794 50.884 50.979 51.084 51.197 51.274 51.414 51.534 51.659 51.732 51.854 51.972 52.089 52.209 52.332 52.424 52.524 52.657 52.757 52.854 52.979 53.059 53.192 53.314 53.387 53.502 53.564 53.649 53.689 53.774 53.817 53.807 53.864 53.874 53.897 53.887 53.869 53.839 53.797 53.769 53.726 53.684 53.654 53.624 53.546 53.494 53.429 53.346 53.304 53.246 53.179 53.101 53.024 52.906 52.769 52.674 52.571 52.404 52.294 52.164 52.034 51.916 51.829 51.771 51.679 51.556 51.399 51.289 51.321 52.056 51.301 50.511 50.411 50.294 50.024 49.819 50.576 52.569 54.319 53.126 51.654 48.874 48.479 48.234 47.999 47.726 47.496 47.279 47.181 47.039 46.744 46.271 45.784 45.256 44.946 48.171 50.699 50.699 50.676 50.676 50.681 50.681 50.666 50.654 50.659 49.534 50.551 50.359 50.021 50.624 50.609 50.489 50.444 49.311 44.604 44.034 43.829 43.756 43.759 43.881 44.166 44.149 44.074 43.964 43.546 43.146 42.826 42.779 42.299 41.256 41.196 41.016 41.429 42.486 42.344 41.846 41.849 41.811 41.706 41.706 41.679 41.486 41.416 41.344
50.014 49.959 49.882 49.794 49.672 49.589 49.504 49.457 49.359 49.287 49.227 49.157 49.072 49.002 48.884 48.767 48.697 48.622 48.51 48.432 48.395 48.29 48.195 48.187 48.117 48.122 48.125 48.097 48.055 47.977 47.785 47.567 47.375 47.3 47.2 47.25 47.315 47.55 47.395 47.277 47.28 47.32 47.317 47.285 47.272 47.257 47.255 47.267 47.245 47.12 47.175 47.16 47.107 46.91 47.17 46.9 46.847 47.325 47.152 47.035 46.95 46.917 46.892 46.87 46.822 46.82 46.764 46.772 46.887 46.947 47.017 47.069 47.137 47.142 47.127 47.177 47.227 47.354 47.479 47.529 47.644 47.742 47.849 47.929 48.012 48.129 48.184 48.277 48.349 48.434 48.482 48.529 48.619 48.684 48.732 48.787 48.849 48.894 48.924 48.959 48.977 49.047 49.034 49.047 49.049 49.029 49.004 48.994 48.987 48.954 48.947 48.922 48.907 48.872 48.837 48.767 48.669 48.607 48.504 48.419 48.304 48.222 48.129 48.054 47.947 47.819 47.702 47.612 47.482 47.349 47.249 47.142 46.999 46.889 46.804 46.677 46.604 46.497 46.374 46.259 46.147 46.027 45.887 45.792 45.657 45.532 45.429 45.282 45.139 44.982 44.854 44.712 44.604 44.482 44.389 44.287 44.197 44.107 44.017 43.969 43.979 43.897 43.827 43.787 43.739 43.727 43.589 43.187 43.267 43.392 43.282 43.327 43.372 43.367 43.334 43.267 43.239 43.202 43.219 43.244 43.217 43.237 43.252 43.249 43.212 43.214 43.204 43.187 43.172 43.164 43.174 43.159 43.137 43.162 43.127 43.149 43.154 43.132 43.127 43.147 43.142 43.137 43.127 43.144 43.122 43.129 43.144 43.157 43.182 43.232 43.294 43.289 43.309 43.354 43.407 43.499 43.497 43.549 43.609 43.682 43.754 43.849 43.982 44.079 44.222 44.322 44.454 44.584 44.684 44.809 44.909 45.002 45.074 45.182 45.247 45.314 45.407 45.487 45.574 45.649 45.772 45.879 45.982 46.084 46.187 46.314 46.437 46.577 46.709 46.874 46.997 47.142 47.302 47.457 47.624 47.809 48.012 48.174 48.342 48.529 48.679 48.852 49.029 49.227 49.377 49.554 49.694 49.852 50.004 50.142 50.287 50.392 50.532 50.652 50.762 50.872 50.989 51.089 51.177 51.267 51.397 51.494 51.602 51.704 51.799 51.922 52.049 52.159 52.244 52.362 52.489 52.582 52.684 52.789 52.867 53.002 53.102 53.214 53.304 53.414 53.512 53.559 53.657 53.732 53.777 53.842 53.849 53.862 53.877 53.892 53.872 53.864 53.869 53.859 53.814 53.789 53.756 53.701 53.649 53.581 53.531 53.466 53.409 53.341 53.279 53.219 53.174 53.081 52.956 52.829 52.724 52.586 52.494 52.369 52.214 52.096 51.964 51.854 51.786 51.714 51.601 51.464 51.314 51.179 51.361 51.454 50.601 50.374 50.266 50.089 49.746 49.736 51.989 52.599 51.261 50.361 48.706 48.384 48.181 47.956 47.759 47.559 47.319 47.179 47.064 46.886 46.524 46.306 46.556 46.276 46.079 47.289 47.316 47.129 46.749 46.451 47.134 48.364 50.604 50.654 49.831 45.824 45.724 45.806 45.079 45.391 45.216 46.331 45.996 46.604 44.844 44.341 43.774 43.626 43.609 43.669 43.944 43.981 43.916 43.801 43.521 43.086 42.894 42.554 42.111 41.451 41.049 40.926 40.904 41.901 42.466 41.859 41.574 41.604 41.484 41.384 41.371 41.356 41.199 41.109
50.189 50.139 50.094 50.024 49.917 49.829 49.784 49.717 49.597 49.532 49.457 49.349 49.282 49.224 49.117 48.997 48.907 48.827 48.735 48.66 48.57 48.465 48.422 48.375 48.295 48.242 48.245 48.245 48.21 48.135 48.027 47.83 47.62 47.55 47.475 47.435 47.437 47.485 47.545 47.492 47.447 47.495 47.492 47.45 47.442 47.397 47.397 47.437 47.442 47.357 47.267 47.185 47.252 47.08 47.265 47.002 46.99 47.722 47.407 47.182 47.095 47.082 47.03 47 46.97 46.955 46.897 46.899 46.994 47.069 47.127 47.169 47.204 47.209 47.257 47.297 47.394 47.472 47.544 47.649 47.734 47.839 47.959 48.037 48.117 48.214 48.297 48.372 48.437 48.514 48.562 48.632 48.679 48.719 48.792 48.852 48.919 48.987 48.982 49.034 49.059 49.129 49.129 49.109 49.119 49.079 49.059 49.069 49.037 49.009 48.984 48.967 48.942 48.917 48.844 48.802 48.714 48.619 48.507 48.419 48.324 48.259 48.164 48.082 48.012 47.869 47.742 47.637 47.499 47.387 47.254 47.122 46.987 46.914 46.822 46.689 46.584 46.464 46.374 46.267 46.137 46.027 45.927 45.792 45.669 45.529 45.397 45.242 45.132 44.989 44.864 44.699 44.587 44.492 44.359 44.304 44.209 44.117 44.072 44.064 43.967 43.867 43.794 43.922 43.794 43.679 43.404 43.257 43.417 43.407 43.327 43.337 43.404 43.434 43.414 43.349 43.309 43.262 43.274 43.284 43.277 43.317 43.337 43.364 43.367 43.377 43.382 43.359 43.352 43.357 43.354 43.322 43.304 43.297 43.272 43.289 43.289 43.269 43.259 43.269 43.257 43.264 43.274 43.269 43.277 43.264 43.289 43.284 43.287 43.324 43.342 43.374 43.437 43.479 43.534 43.582 43.642 43.697 43.757 43.842 43.919 44.022 44.144 44.262 44.389 44.504 44.629 44.754 44.869 44.932 45.037 45.104 45.182 45.234 45.359 45.454 45.549 45.642 45.732 45.834 45.939 46.049 46.154 46.274 46.392 46.482 46.642 46.742 46.879 47.029 47.182 47.314 47.474 47.654 47.819 48.029 48.229 48.417 48.587 48.772 48.949 49.114 49.284 49.447 49.634 49.774 49.909 50.062 50.237 50.352 50.469 50.609 50.739 50.877 50.982 51.089 51.194 51.307 51.379 51.484 51.577 51.689 51.772 51.879 51.994 52.107 52.187 52.317 52.409 52.504 52.622 52.717 52.819 52.944 53.012 53.122 53.204 53.329 53.424 53.514 53.612 53.679 53.744 53.787 53.832 53.864 53.919 53.907 53.907 53.917 53.902 53.894 53.872 53.842 53.812 53.762 53.741 53.734 53.651 53.569 53.541 53.471 53.381 53.316 53.249 53.191 53.086 52.979 52.896 52.736 52.634 52.511 52.386 52.254 52.144 52.014 51.909 51.816 51.756 51.661 51.501 51.401 51.254 51.231 51.191 50.696 50.374 50.244 50.109 49.789 49.629 49.716 51.816 52.399 52.616 49.084 48.446 48.126 47.891 47.686 47.501 47.354 47.129 46.974 46.864 46.761 46.366 46.286 47.979 46.616 46.159 46.041 45.891 45.686 45.504 45.314 45.134 46.501 50.669 49.736 48.089 44.679 44.669 44.664 44.671 44.669 44.701 46.661 46.259 46.449 44.939 44.686 43.896 43.556 43.474 43.476 43.721 43.791 43.729 43.634 43.504 43.376 43.146 42.629 41.996 41.891 40.971 40.794 40.676 41.101 42.469 41.809 41.474 41.419 41.316 41.174 41.129 41.161 41.036 40.906
50.334 50.299 50.264 50.222 50.167 50.079 50.049 50.014 49.957 49.842 49.732 49.609 49.504 49.419 49.322 49.237 49.12 49.072 48.955 48.845 48.777 48.662 48.61 48.557 48.487 48.41 48.39 48.38 48.312 48.305 48.215 48.067 47.822 47.795 47.797 47.712 47.655 47.662 47.72 47.697 47.655 47.635 47.64 47.635 47.59 47.562 47.552 47.547 47.567 47.502 47.412 47.312 47.39 47.227 47.372 47.162 47.155 47.76 47.362 47.34 47.292 47.257 47.212 47.187 47.127 47.055 47.017 47.042 47.154 47.189 47.232 47.267 47.297 47.309 47.352 47.429 47.487 47.607 47.657 47.747 47.839 47.929 48.029 48.134 48.234 48.329 48.397 48.459 48.537 48.597 48.659 48.727 48.767 48.812 48.877 48.917 48.977 49.037 49.074 49.114 49.147 49.169 49.217 49.169 49.154 49.127 49.109 49.092 49.102 49.072 49.049 49.014 48.979 48.947 48.882 48.812 48.732 48.637 48.552 48.459 48.364 48.289 48.199 48.094 48.012 47.907 47.789 47.652 47.524 47.404 47.272 47.137 47.009 46.904 46.802 46.702 46.579 46.464 46.357 46.239 46.154 46.064 45.942 45.792 45.657 45.512 45.399 45.244 45.127 44.989 44.832 44.697 44.579 44.497 44.392 44.312 44.204 44.159 44.119 44.037 43.929 43.937 43.902 43.889 43.752 43.502 43.582 43.647 43.314 43.222 43.354 43.474 43.487 43.497 43.492 43.422 43.404 43.369 43.369 43.377 43.367 43.357 43.372 43.369 43.407 43.432 43.449 43.489 43.529 43.537 43.544 43.519 43.499 43.484 43.477 43.442 43.424 43.444 43.404 43.392 43.399 43.379 43.364 43.377 43.367 43.374 43.382 43.422 43.432 43.472 43.444 43.472 43.509 43.554 43.612 43.684 43.747 43.837 43.889 44.012 44.109 44.207 44.319 44.457 44.567 44.714 44.824 44.909 45.024 45.127 45.189 45.252 45.344 45.387 45.457 45.577 45.664 45.759 45.879 46.004 46.122 46.232 46.344 46.472 46.589 46.679 46.819 46.954 47.099 47.224 47.364 47.547 47.677 47.849 48.029 48.224 48.417 48.629 48.817 48.997 49.214 49.379 49.537 49.714 49.864 50.002 50.142 50.284 50.409 50.569 50.707 50.847 50.949 51.064 51.182 51.294 51.402 51.489 51.557 51.667 51.737 51.854 51.964 52.052 52.164 52.264 52.377 52.467 52.557 52.667 52.759 52.864 52.929 53.022 53.124 53.264 53.337 53.462 53.557 53.627 53.704 53.782 53.824 53.874 53.892 53.912 53.899 53.904 53.922 53.937 53.922 53.882 53.869 53.834 53.824 53.774 53.731 53.659 53.626 53.576 53.514 53.464 53.376 53.304 53.226 53.086 53.009 52.899 52.804 52.666 52.561 52.414 52.269 52.156 52.049 51.916 51.819 51.779 51.706 51.591 51.454 51.356 51.266 51.679 50.964 50.426 50.231 50.061 49.856 49.551 49.544 50.409 51.819 49.204 49.181 48.469 48.164 47.844 47.641 47.459 47.254 47.081 46.914 46.746 46.666 46.574 46.331 46.224 48.361 46.261 46.019 46.416 47.151 47.791 48.281 48.036 47.531 47.251 47.421 45.771 46.331 44.571 44.556 44.561 44.581 44.574 44.591 44.876 44.911 44.824 44.726 44.694 43.931 43.461 43.371 43.356 43.529 43.626 43.571 43.436 43.341 43.279 43.099 42.679 41.916 41.896 41.149 40.686 40.521 40.511 41.681 42.136 41.624 41.176 41.131 41.046 40.946 40.899 40.921 40.761
50.492 50.517 50.497 50.434 50.359 50.297 50.267 50.262 50.177 50.092 50.004 49.919 49.757 49.652 49.584 49.469 49.357 49.282 49.165 49.047 48.947 48.842 48.785 48.74 48.692 48.602 48.51 48.47 48.435 48.42 48.38 48.247 48.005 47.987 48.067 48.062 47.912 47.867 47.895 47.905 47.86 47.8 47.795 47.762 47.75 47.695 47.66 47.675 47.675 47.652 47.595 47.49 47.527 47.492 47.5 47.275 47.275 47.88 47.517 47.462 47.435 47.382 47.347 47.36 47.29 47.252 47.194 47.184 47.269 47.322 47.324 47.364 47.412 47.429 47.477 47.532 47.594 47.669 47.754 47.852 47.959 48.022 48.129 48.242 48.314 48.412 48.482 48.564 48.634 48.684 48.747 48.802 48.849 48.909 48.969 48.997 49.042 49.107 49.124 49.192 49.224 49.239 49.259 49.227 49.222 49.219 49.184 49.174 49.147 49.124 49.102 49.079 49.027 48.984 48.929 48.799 48.712 48.654 48.584 48.492 48.404 48.309 48.224 48.134 48.027 47.919 47.812 47.692 47.564 47.442 47.302 47.182 47.019 46.914 46.797 46.674 46.574 46.442 46.337 46.239 46.159 46.052 45.937 45.802 45.634 45.494 45.374 45.259 45.104 44.957 44.804 44.689 44.572 44.489 44.399 44.304 44.249 44.214 44.094 44.024 43.957 43.984 43.994 43.884 43.592 43.347 43.632 43.742 43.677 43.627 43.364 43.279 43.299 43.377 43.432 43.484 43.467 43.482 43.449 43.502 43.479 43.484 43.467 43.462 43.467 43.477 43.517 43.539 43.572 43.614 43.639 43.647 43.664 43.654 43.669 43.622 43.632 43.622 43.569 43.547 43.557 43.522 43.524 43.509 43.509 43.494 43.502 43.504 43.539 43.564 43.607 43.627 43.659 43.704 43.724 43.794 43.857 43.909 44.009 44.132 44.259 44.404 44.502 44.642 44.749 44.879 44.994 45.114 45.169 45.247 45.309 45.389 45.469 45.569 45.647 45.734 45.822 45.927 46.044 46.164 46.264 46.372 46.489 46.629 46.777 46.884 47.004 47.159 47.297 47.422 47.572 47.722 47.894 48.077 48.269 48.452 48.654 48.837 49.029 49.227 49.422 49.592 49.759 49.942 50.084 50.212 50.379 50.494 50.639 50.757 50.912 51.032 51.157 51.259 51.367 51.467 51.567 51.684 51.749 51.854 51.934 52.034 52.112 52.199 52.309 52.414 52.534 52.639 52.722 52.819 52.909 52.997 53.099 53.187 53.254 53.362 53.457 53.557 53.634 53.717 53.802 53.857 53.882 53.927 53.929 53.939 53.939 53.932 53.944 53.944 53.952 53.884 53.907 53.884 53.817 53.757 53.716 53.646 53.576 53.531 53.484 53.379 53.284 53.209 53.141 53.051 52.956 52.844 52.696 52.559 52.436 52.321 52.161 52.046 51.939 51.829 51.784 51.726 51.616 51.524 51.379 51.304 51.421 51.526 50.389 50.239 50.094 49.886 49.551 49.424 49.449 49.379 49.164 49.036 48.514 48.174 47.906 47.661 47.469 47.314 47.211 46.989 46.811 46.644 46.526 46.459 46.294 46.184 46.909 45.976 45.911 46.731 48.679 49.431 50.241 50.146 49.361 48.571 46.441 44.716 44.511 44.479 44.479 44.486 44.476 44.506 44.491 45.049 45.084 44.746 44.574 44.624 43.749 43.404 43.314 43.231 43.304 43.426 43.354 43.221 43.164 43.099 42.896 42.651 42.086 41.421 41.626 40.554 40.404 40.281 40.679 41.841 41.601 41.091 40.926 40.879 40.746 40.676 40.644 40.631
50.709 50.694 50.672 50.644 50.544 50.527 50.499 50.472 50.387 50.299 50.257 50.139 50.057 50.007 49.882 49.712 49.545 49.457 49.352 49.242 49.14 49.06 48.98 48.972 48.867 48.767 48.685 48.64 48.582 48.567 48.517 48.385 48.14 48.152 48.237 48.215 48.185 48.082 48.07 48.082 48.032 47.985 47.912 47.887 47.885 47.857 47.832 47.832 47.827 47.785 47.74 47.63 47.637 47.59 47.627 47.415 47.392 47.88 47.635 47.597 47.575 47.532 47.522 47.497 47.442 47.405 47.354 47.354 47.407 47.427 47.434 47.454 47.509 47.562 47.602 47.672 47.704 47.764 47.859 47.942 48.057 48.114 48.229 48.332 48.414 48.502 48.557 48.637 48.712 48.779 48.827 48.899 48.944 48.984 49.024 49.067 49.117 49.182 49.209 49.257 49.279 49.277 49.294 49.264 49.294 49.259 49.252 49.227 49.194 49.174 49.149 49.114 49.082 49.037 48.954 48.847 48.759 48.677 48.579 48.502 48.402 48.319 48.229 48.117 48.037 47.924 47.814 47.702 47.572 47.447 47.329 47.204 47.062 46.937 46.802 46.667 46.577 46.434 46.329 46.267 46.169 46.032 45.919 45.777 45.629 45.509 45.374 45.244 45.097 44.962 44.832 44.694 44.572 44.517 44.412 44.329 44.282 44.187 44.112 44.037 43.979 43.992 43.942 43.707 43.367 43.577 43.747 43.772 43.729 43.657 43.587 43.484 43.352 43.264 43.242 43.157 43.257 43.344 43.409 43.487 43.579 43.544 43.584 43.599 43.584 43.574 43.619 43.614 43.634 43.667 43.662 43.714 43.722 43.757 43.789 43.792 43.829 43.797 43.779 43.769 43.747 43.727 43.734 43.692 43.672 43.684 43.682 43.649 43.674 43.709 43.697 43.749 43.777 43.832 43.902 43.967 44.054 44.102 44.182 44.279 44.397 44.514 44.649 44.764 44.897 45.017 45.144 45.204 45.302 45.382 45.459 45.549 45.612 45.702 45.782 45.872 45.994 46.107 46.212 46.319 46.442 46.577 46.692 46.792 46.942 47.042 47.194 47.329 47.457 47.614 47.772 47.944 48.104 48.282 48.479 48.682 48.884 49.054 49.272 49.469 49.629 49.794 49.939 50.112 50.254 50.414 50.574 50.709 50.839 50.999 51.094 51.244 51.344 51.469 51.569 51.669 51.749 51.862 51.952 52.052 52.147 52.219 52.339 52.412 52.497 52.594 52.687 52.759 52.844 52.947 53.019 53.132 53.229 53.284 53.404 53.477 53.544 53.647 53.714 53.787 53.862 53.912 53.947 53.964 53.979 53.972 53.964 53.994 53.999 53.972 53.969 53.917 53.909 53.872 53.797 53.759 53.694 53.629 53.574 53.501 53.429 53.344 53.261 53.186 53.074 52.979 52.871 52.759 52.621 52.474 52.309 52.189 52.039 51.934 51.871 51.799 51.754 51.669 51.559 51.426 51.349 51.354 51.646 50.476 50.246 50.099 49.971 49.696 49.374 49.356 50.491 51.609 49.716 48.559 48.211 47.941 47.626 47.434 47.256 47.126 46.974 46.841 46.701 46.561 46.449 46.416 46.194 46.089 46.384 45.904 45.831 46.826 48.636 49.436 50.229 50.181 49.386 48.616 46.674 44.546 44.434 44.414 44.424 44.396 44.411 44.439 44.424 44.424 44.404 44.391 44.486 44.421 43.664 43.346 43.221 43.064 43.029 43.199 43.146 43.039 42.996 42.931 42.711 42.561 42.184 41.429 41.454 40.979 40.289 40.129 40.084 40.916 41.256 41.046 40.774 40.736 40.669 40.516 40.466 40.474
50.932 50.892 50.872 50.852 50.787 50.774 50.717 50.639 50.559 50.499 50.472 50.374 50.277 50.237 50.109 49.919 49.76 49.637 49.512 49.437 49.335 49.232 49.18 49.152 49.055 48.98 48.902 48.805 48.745 48.702 48.645 48.455 48.317 48.357 48.377 48.347 48.35 48.267 48.217 48.23 48.232 48.177 48.097 48.062 48.037 48.025 47.997 47.982 47.967 47.927 47.887 47.787 47.63 47.617 47.78 47.58 47.51 47.96 47.785 47.775 47.705 47.68 47.677 47.645 47.585 47.555 47.542 47.532 47.529 47.517 47.522 47.574 47.629 47.682 47.742 47.784 47.859 47.924 47.992 48.074 48.159 48.254 48.327 48.439 48.484 48.569 48.629 48.702 48.792 48.874 48.927 48.989 49.044 49.064 49.102 49.132 49.197 49.247 49.277 49.314 49.324 49.322 49.334 49.334 49.337 49.327 49.307 49.282 49.252 49.262 49.197 49.174 49.114 49.037 48.967 48.889 48.784 48.709 48.612 48.542 48.437 48.324 48.239 48.134 48.044 47.914 47.834 47.714 47.604 47.457 47.347 47.209 47.069 46.939 46.812 46.684 46.557 46.474 46.357 46.239 46.134 45.997 45.882 45.744 45.602 45.487 45.367 45.249 45.069 44.959 44.819 44.717 44.627 44.542 44.439 44.344 44.254 44.197 44.052 44.027 44.017 44.007 43.807 43.464 43.619 43.807 43.824 43.829 43.719 43.739 43.649 43.629 43.587 43.527 43.512 43.492 43.497 43.394 43.247 43.292 43.382 43.444 43.557 43.597 43.629 43.687 43.707 43.739 43.749 43.784 43.787 43.774 43.784 43.817 43.829 43.859 43.874 43.879 43.897 43.914 43.924 43.937 43.924 43.917 43.894 43.862 43.862 43.822 43.814 43.844 43.874 43.884 43.919 43.952 44.014 44.119 44.199 44.292 44.382 44.497 44.597 44.687 44.802 44.882 44.987 45.099 45.229 45.342 45.409 45.507 45.579 45.689 45.799 45.882 45.977 46.077 46.169 46.282 46.397 46.504 46.622 46.737 46.874 46.994 47.117 47.229 47.369 47.479 47.642 47.787 47.954 48.154 48.337 48.547 48.722 48.912 49.114 49.307 49.499 49.657 49.819 49.999 50.162 50.319 50.469 50.614 50.727 50.884 51.017 51.164 51.292 51.412 51.544 51.642 51.752 51.874 51.977 52.042 52.154 52.247 52.319 52.422 52.532 52.612 52.687 52.754 52.834 52.947 53.007 53.079 53.147 53.219 53.299 53.412 53.504 53.587 53.652 53.742 53.809 53.874 53.929 53.959 53.977 54.004 54.024 54.004 54.012 54.004 54.012 53.994 53.987 53.944 53.912 53.842 53.782 53.734 53.679 53.609 53.509 53.449 53.386 53.309 53.229 53.129 53.039 52.889 52.774 52.641 52.484 52.384 52.224 52.066 51.944 51.854 51.794 51.741 51.669 51.554 51.446 51.331 51.261 51.601 51.309 50.251 50.091 49.936 49.791 49.416 49.224 49.259 48.996 48.794 48.549 48.631 47.971 48.529 48.359 48.204 48.159 48.374 47.986 48.331 49.089 48.271 47.524 48.694 48.744 48.004 46.719 45.816 45.744 46.984 48.601 49.376 50.204 50.209 49.401 48.614 46.399 44.434 44.374 44.369 44.369 44.361 44.381 44.366 44.359 44.359 44.334 44.311 44.386 44.369 43.584 43.204 43.016 42.831 42.759 42.994 42.979 42.889 42.829 42.729 42.591 42.481 42.239 41.606 41.091 41.424 40.366 40.004 39.839 39.911 40.896 40.924 40.766 40.556 40.589 40.454 40.291 40.271
51.067 51.064 51.052 51.007 50.972 50.979 50.904 50.839 50.802 50.707 50.632 50.582 50.499 50.414 50.284 50.144 50.037 49.892 49.757 49.6 49.517 49.455 49.385 49.332 49.282 49.192 49.13 48.987 48.912 48.857 48.765 48.615 48.532 48.562 48.585 48.562 48.532 48.447 48.38 48.372 48.367 48.357 48.347 48.272 48.192 48.142 48.09 48.1 48.065 48.055 48.027 47.91 47.867 47.73 47.915 47.73 47.695 48.33 47.897 47.892 47.865 47.862 47.87 47.82 47.782 47.727 47.712 47.692 47.659 47.662 47.657 47.709 47.757 47.809 47.864 47.909 47.982 48.032 48.104 48.192 48.269 48.349 48.437 48.519 48.587 48.639 48.717 48.797 48.862 48.939 48.999 49.049 49.099 49.152 49.179 49.219 49.267 49.314 49.352 49.379 49.384 49.369 49.372 49.379 49.399 49.377 49.362 49.319 49.317 49.287 49.262 49.232 49.132 49.057 48.992 48.907 48.809 48.732 48.629 48.552 48.457 48.347 48.222 48.137 48.029 47.907 47.817 47.687 47.612 47.469 47.344 47.227 47.094 46.939 46.817 46.672 46.549 46.454 46.359 46.217 46.107 45.972 45.842 45.714 45.592 45.474 45.339 45.194 45.067 44.942 44.822 44.734 44.644 44.539 44.454 44.362 44.272 44.219 44.187 44.109 44.082 43.914 43.567 43.562 43.867 43.919 43.892 43.882 43.809 43.787 43.737 43.689 43.677 43.667 43.692 43.674 43.649 43.637 43.632 43.592 43.572 43.497 43.372 43.382 43.377 43.524 43.649 43.744 43.809 43.859 43.892 43.887 43.894 43.919 43.932 43.962 43.987 43.959 43.977 43.984 44.004 44.019 44.054 44.067 44.077 44.064 44.062 44.029 44.009 44.012 44.022 43.979 44.082 44.127 44.187 44.287 44.369 44.449 44.552 44.674 44.792 44.884 44.989 45.069 45.179 45.242 45.344 45.424 45.509 45.624 45.722 45.837 45.937 46.064 46.172 46.259 46.372 46.484 46.577 46.714 46.804 46.932 47.067 47.187 47.342 47.447 47.564 47.684 47.842 47.987 48.172 48.354 48.532 48.717 48.937 49.124 49.329 49.537 49.722 49.892 50.042 50.199 50.362 50.502 50.639 50.784 50.939 51.082 51.209 51.347 51.482 51.599 51.702 51.814 51.939 52.047 52.137 52.222 52.327 52.404 52.514 52.614 52.684 52.799 52.859 52.937 53.004 53.072 53.147 53.197 53.272 53.337 53.407 53.507 53.597 53.657 53.732 53.812 53.882 53.932 53.974 53.989 54.009 54.019 54.022 54.034 54.012 54.014 54.009 53.989 53.957 53.927 53.874 53.817 53.739 53.694 53.591 53.536 53.481 53.394 53.314 53.251 53.141 53.051 52.951 52.811 52.694 52.524 52.386 52.256 52.121 51.974 51.859 51.764 51.701 51.654 51.564 51.459 51.371 51.274 51.491 52.286 50.306 50.099 49.926 49.744 49.496 49.171 49.099 48.964 48.549 48.391 48.236 48.336 49.639 50.481 50.556 50.759 50.814 50.964 50.934 50.821 50.999 50.776 50.024 50.921 50.071 50.659 45.859 45.726 45.666 46.824 48.586 49.366 50.141 50.236 49.416 48.619 46.039 44.391 44.321 44.301 44.291 44.281 44.266 44.256 44.261 44.271 44.234 44.226 44.241 44.084 43.499 43.039 42.799 42.609 42.484 42.696 42.781 42.716 42.656 42.584 42.509 42.346 42.159 41.726 40.986 40.949 40.846 39.904 39.739 39.589 39.944 40.669 40.696 40.381 40.284 40.309 40.134 39.991
51.234 51.274 51.252 51.177 51.149 51.142 51.082 51.029 50.952 50.892 50.824 50.779 50.712 50.647 50.504 50.409 50.285 50.115 49.977 49.822 49.7 49.652 49.595 49.56 49.487 49.44 49.352 49.202 49.092 49.042 48.907 48.807 48.74 48.732 48.735 48.707 48.71 48.65 48.562 48.53 48.525 48.535 48.532 48.537 48.387 48.275 48.215 48.207 48.167 48.17 48.155 48.067 47.852 47.842 48.072 47.885 47.86 48.632 48.022 48.077 48.062 48.042 48.012 47.975 47.96 47.94 47.889 47.817 47.827 47.809 47.792 47.852 47.877 47.939 47.982 48.042 48.097 48.184 48.224 48.322 48.397 48.479 48.557 48.617 48.684 48.727 48.807 48.887 48.972 49.032 49.072 49.124 49.194 49.224 49.277 49.322 49.357 49.384 49.432 49.414 49.432 49.432 49.439 49.437 49.432 49.414 49.394 49.349 49.347 49.317 49.287 49.239 49.177 49.109 49.014 48.929 48.837 48.772 48.672 48.589 48.459 48.352 48.242 48.124 47.999 47.904 47.792 47.694 47.582 47.474 47.334 47.234 47.107 46.954 46.822 46.687 46.552 46.457 46.329 46.179 46.054 45.932 45.792 45.684 45.567 45.439 45.307 45.177 45.032 44.944 44.857 44.759 44.647 44.554 44.449 44.347 44.282 44.294 44.229 44.234 44.039 43.654 43.554 43.834 43.952 43.979 43.949 43.902 43.834 43.829 43.789 43.772 43.759 43.752 43.754 43.762 43.749 43.779 43.747 43.757 43.779 43.809 43.807 43.747 43.659 43.552 43.577 43.557 43.614 43.734 43.909 43.952 44.017 44.044 44.044 44.077 44.089 44.102 44.104 44.117 44.114 44.124 44.139 44.154 44.169 44.174 44.219 44.222 44.224 44.212 44.227 44.202 44.237 44.329 44.364 44.454 44.529 44.627 44.739 44.824 44.947 45.067 45.149 45.237 45.334 45.429 45.519 45.602 45.672 45.769 45.839 45.939 46.047 46.179 46.327 46.452 46.589 46.657 46.777 46.894 47.014 47.144 47.272 47.409 47.532 47.652 47.779 47.924 48.099 48.232 48.404 48.564 48.724 48.924 49.139 49.332 49.512 49.677 49.892 50.064 50.244 50.392 50.549 50.689 50.837 51.004 51.124 51.284 51.414 51.532 51.659 51.792 51.899 51.992 52.077 52.184 52.279 52.387 52.479 52.569 52.682 52.772 52.867 52.964 53.019 53.084 53.177 53.232 53.287 53.314 53.389 53.439 53.512 53.612 53.689 53.722 53.809 53.882 53.949 53.949 53.994 54.042 54.039 54.052 54.069 54.054 54.042 54.019 53.977 53.954 53.942 53.899 53.839 53.787 53.717 53.637 53.544 53.486 53.431 53.359 53.256 53.154 53.069 52.959 52.829 52.699 52.541 52.419 52.284 52.149 51.991 51.894 51.776 51.694 51.631 51.554 51.456 51.364 51.279 51.331 52.044 50.661 50.111 49.924 49.744 49.519 49.144 48.971 48.881 48.531 48.136 48.021 47.851 47.924 48.584 50.254 50.594 51.311 51.294 51.269 51.401 51.369 51.399 51.466 51.379 51.391 51.329 51.459 46.461 45.646 45.586 46.841 48.551 49.364 50.121 50.199 49.439 48.631 46.339 44.286 44.251 44.216 44.186 44.179 44.191 44.189 44.164 44.179 44.156 44.154 44.084 43.884 43.259 42.786 42.589 42.454 42.251 42.336 42.541 42.514 42.459 42.381 42.276 42.186 42.006 41.714 41.109 41.734 43.171 42.989 41.449 39.424 39.301 39.984 40.514 40.316 40.089 39.976 39.991 39.836
51.457 51.492 51.462 51.409 51.382 51.307 51.249 51.184 51.142 51.074 51.034 50.979 50.894 50.827 50.727 50.662 50.515 50.327 50.18 50.007 49.922 49.842 49.805 49.787 49.745 49.682 49.56 49.42 49.28 49.22 49.127 49.055 48.972 48.955 48.942 48.905 48.885 48.85 48.767 48.712 48.655 48.655 48.687 48.68 48.552 48.417 48.345 48.322 48.297 48.305 48.3 48.242 48.045 47.957 48.24 48.015 47.997 48.66 48.15 48.215 48.24 48.237 48.177 48.145 48.102 48.08 48.039 47.954 47.959 47.949 47.932 47.977 48.019 48.072 48.122 48.174 48.247 48.294 48.372 48.464 48.544 48.612 48.662 48.702 48.769 48.824 48.894 48.969 49.027 49.107 49.152 49.227 49.274 49.327 49.352 49.402 49.454 49.459 49.467 49.489 49.484 49.499 49.489 49.482 49.454 49.459 49.442 49.414 49.392 49.347 49.324 49.264 49.179 49.104 49.037 48.969 48.872 48.794 48.707 48.592 48.484 48.364 48.234 48.132 47.987 47.884 47.777 47.657 47.552 47.454 47.337 47.214 47.122 46.974 46.837 46.734 46.602 46.467 46.319 46.169 46.022 45.914 45.787 45.644 45.542 45.424 45.284 45.157 45.037 44.939 44.864 44.747 44.679 44.542 44.484 44.374 44.302 44.412 44.432 44.262 43.827 43.577 43.809 43.917 44.032 44.004 43.989 43.889 43.867 43.867 43.819 43.832 43.819 43.839 43.849 43.849 43.844 43.852 43.884 43.879 43.917 43.929 43.927 43.947 43.952 43.974 44.024 44.009 43.919 43.819 43.727 43.719 43.899 44.004 44.094 44.174 44.189 44.219 44.242 44.254 44.264 44.272 44.277 44.307 44.292 44.307 44.319 44.294 44.314 44.339 44.369 44.414 44.457 44.517 44.582 44.622 44.709 44.804 44.917 45.009 45.119 45.242 45.332 45.384 45.484 45.594 45.662 45.764 45.847 45.944 46.012 46.129 46.227 46.334 46.452 46.587 46.727 46.859 46.989 47.094 47.227 47.359 47.487 47.614 47.707 47.857 47.989 48.137 48.272 48.449 48.612 48.779 48.964 49.157 49.332 49.507 49.669 49.867 50.042 50.214 50.384 50.542 50.707 50.889 51.037 51.182 51.304 51.464 51.602 51.727 51.844 51.949 52.082 52.167 52.264 52.367 52.454 52.552 52.659 52.724 52.842 52.942 52.999 53.092 53.172 53.254 53.289 53.352 53.414 53.479 53.527 53.564 53.637 53.687 53.742 53.789 53.847 53.934 53.967 54.002 54.027 54.032 54.042 54.059 54.062 54.059 54.032 54.019 53.982 53.974 53.937 53.854 53.812 53.734 53.677 53.584 53.504 53.429 53.364 53.271 53.151 53.079 52.976 52.821 52.719 52.581 52.419 52.296 52.166 52.039 51.884 51.784 51.699 51.649 51.539 51.476 51.369 51.249 51.169 51.984 51.496 50.119 49.971 49.741 49.509 49.206 48.841 48.751 48.601 48.196 47.946 47.901 47.686 47.644 47.499 50.084 49.574 51.956 52.019 51.991 52.071 52.201 52.139 52.101 52.174 52.196 52.321 51.284 45.976 45.549 45.489 46.671 48.541 49.326 50.116 50.186 49.436 48.646 46.246 44.156 44.104 44.096 44.081 44.056 44.071 44.104 44.126 44.116 44.064 43.984 43.864 43.459 42.986 42.561 42.391 42.259 42.049 41.984 42.146 42.249 42.204 42.159 42.071 41.984 41.874 41.664 41.129 45.046 43.864 43.696 39.714 39.294 39.179 39.099 39.951 40.406 39.964 39.736 39.684 39.696
51.642 51.679 51.629 51.602 51.554 51.482 51.424 51.404 51.357 51.299 51.239 51.172 51.087 50.994 50.879 50.822 50.727 50.565 50.41 50.26 50.175 50.085 50.012 49.972 49.922 49.89 49.79 49.657 49.542 49.502 49.4 49.33 49.307 49.232 49.132 49.092 49.05 49.02 48.98 48.955 48.86 48.81 48.812 48.782 48.707 48.582 48.495 48.46 48.442 48.455 48.422 48.38 48.44 48.245 48.337 48.15 48.127 48.97 48.24 48.33 48.345 48.35 48.312 48.262 48.252 48.25 48.204 48.124 48.077 48.072 48.097 48.127 48.167 48.194 48.262 48.299 48.357 48.432 48.509 48.594 48.682 48.707 48.747 48.824 48.892 48.922 49.004 49.064 49.114 49.167 49.232 49.292 49.347 49.397 49.429 49.477 49.492 49.507 49.552 49.562 49.544 49.552 49.524 49.519 49.509 49.512 49.494 49.472 49.432 49.399 49.334 49.277 49.209 49.132 49.052 48.982 48.899 48.837 48.732 48.597 48.497 48.379 48.242 48.114 48.007 47.879 47.767 47.642 47.549 47.449 47.312 47.184 47.107 46.957 46.839 46.744 46.594 46.454 46.299 46.152 45.994 45.872 45.772 45.652 45.512 45.392 45.274 45.157 45.047 44.937 44.839 44.749 44.622 44.522 44.449 44.379 44.347 44.492 44.414 44.032 43.669 43.814 43.994 44.017 44.049 44.012 43.992 43.949 43.922 43.897 43.882 43.887 43.882 43.874 43.929 43.949 43.942 43.982 43.947 43.969 43.982 43.994 44.034 44.052 44.092 44.099 44.107 44.162 44.187 44.227 44.219 44.237 44.144 44.024 43.887 43.934 44.112 44.259 44.357 44.404 44.402 44.422 44.414 44.449 44.452 44.444 44.442 44.424 44.429 44.437 44.452 44.504 44.542 44.654 44.749 44.822 44.947 45.037 45.109 45.202 45.309 45.389 45.497 45.559 45.672 45.752 45.849 45.929 45.994 46.097 46.197 46.317 46.412 46.537 46.654 46.769 46.884 47.009 47.104 47.269 47.414 47.557 47.669 47.799 47.952 48.089 48.202 48.344 48.494 48.654 48.852 49.024 49.197 49.377 49.544 49.747 49.899 50.084 50.209 50.387 50.557 50.714 50.872 51.012 51.179 51.319 51.489 51.634 51.789 51.914 52.019 52.122 52.214 52.349 52.414 52.504 52.602 52.714 52.809 52.894 52.987 53.082 53.169 53.247 53.282 53.374 53.432 53.482 53.524 53.569 53.622 53.682 53.742 53.792 53.829 53.877 53.907 53.959 53.997 54.012 54.037 54.017 54.069 54.057 54.044 54.027 54.017 53.992 53.962 53.937 53.909 53.837 53.797 53.742 53.659 53.554 53.451 53.381 53.309 53.206 53.091 52.976 52.874 52.744 52.591 52.451 52.319 52.176 52.054 51.879 51.776 51.699 51.626 51.551 51.459 51.361 51.264 51.166 51.324 52.136 50.226 49.921 49.781 49.554 49.259 48.854 48.601 48.546 48.341 48.069 47.779 47.639 47.539 47.729 47.666 49.966 49.974 53.159 53.161 53.146 53.164 53.134 53.226 53.224 53.221 53.191 53.219 52.534 46.656 45.471 45.386 46.414 48.534 49.309 50.086 50.256 49.451 48.671 46.461 44.036 43.916 43.914 43.921 43.931 44.049 43.999 44.114 44.221 43.856 43.554 43.374 43.004 42.659 42.399 42.181 42.029 41.861 41.684 41.579 41.491 41.694 41.949 41.881 41.744 41.684 41.509 41.191 41.404 42.834 40.284 39.819 39.124 39.024 38.804 38.904 40.171 39.989 39.681 39.439 39.391
51.824 51.839 51.762 51.744 51.727 51.682 51.632 51.589 51.567 51.504 51.437 51.394 51.272 51.202 51.104 51.042 50.952 50.8 50.64 50.527 50.435 50.352 50.275 50.227 50.137 50.047 49.975 49.87 49.79 49.74 49.667 49.655 49.6 49.532 49.437 49.3 49.2 49.142 49.135 49.142 49.057 48.965 48.897 48.88 48.857 48.812 48.735 48.632 48.625 48.625 48.595 48.527 48.742 48.567 48.495 48.27 48.267 49.04 48.38 48.472 48.51 48.497 48.435 48.465 48.395 48.4 48.334 48.257 48.249 48.262 48.227 48.279 48.307 48.347 48.387 48.429 48.482 48.582 48.654 48.707 48.789 48.819 48.874 48.952 48.987 49.042 49.097 49.132 49.202 49.277 49.312 49.377 49.422 49.489 49.537 49.562 49.587 49.602 49.604 49.637 49.629 49.644 49.609 49.584 49.557 49.549 49.547 49.512 49.462 49.437 49.367 49.264 49.222 49.137 49.077 49.017 48.922 48.832 48.724 48.624 48.527 48.392 48.269 48.122 48.002 47.882 47.754 47.659 47.532 47.412 47.302 47.172 47.054 46.977 46.837 46.757 46.594 46.422 46.267 46.114 45.984 45.854 45.747 45.647 45.497 45.354 45.244 45.152 45.017 44.944 44.852 44.734 44.599 44.524 44.419 44.377 44.394 44.529 44.202 43.759 43.787 44.094 44.087 44.074 44.074 44.042 44.022 43.994 43.972 43.944 43.957 43.957 43.969 43.984 43.997 44.012 44.039 44.084 44.094 44.082 44.079 44.097 44.127 44.147 44.167 44.182 44.214 44.234 44.284 44.304 44.344 44.349 44.364 44.387 44.419 44.354 44.284 44.262 44.197 44.267 44.329 44.429 44.529 44.549 44.569 44.542 44.552 44.562 44.547 44.527 44.589 44.622 44.704 44.782 44.859 44.937 45.057 45.194 45.297 45.384 45.489 45.574 45.652 45.752 45.842 45.894 45.969 46.102 46.197 46.267 46.372 46.469 46.609 46.729 46.854 46.964 47.072 47.197 47.322 47.472 47.589 47.704 47.844 48.004 48.119 48.287 48.402 48.579 48.734 48.897 49.047 49.242 49.404 49.602 49.784 49.942 50.079 50.277 50.424 50.572 50.727 50.879 51.059 51.202 51.354 51.497 51.642 51.787 51.927 52.027 52.159 52.289 52.394 52.529 52.582 52.664 52.764 52.872 52.964 53.054 53.139 53.247 53.294 53.374 53.402 53.489 53.522 53.614 53.637 53.657 53.722 53.762 53.792 53.839 53.887 53.924 53.962 54.012 54.029 54.037 54.044 54.027 54.042 54.019 54.009 54.009 53.999 53.989 53.949 53.922 53.869 53.812 53.739 53.662 53.599 53.482 53.416 53.321 53.214 53.149 53.016 52.901 52.756 52.649 52.474 52.344 52.206 52.054 51.934 51.784 51.674 51.576 51.521 51.456 51.344 51.249 51.171 51.171 51.879 50.821 49.936 49.729 49.581 49.326 48.959 48.539 48.406 48.299 48.101 47.904 47.874 47.521 47.336 47.556 47.354 49.996 50.486 53.254 53.164 53.096 53.211 53.086 53.111 53.051 53.156 53.166 53.109 52.671 47.094 45.371 45.324 46.604 48.479 49.291 50.086 50.306 49.456 48.696 46.961 43.816 43.744 43.756 43.756 43.839 43.746 43.674 43.526 43.521 43.341 43.064 42.874 42.594 42.379 42.214 42.029 41.834 41.684 41.514 41.319 41.139 41.151 41.494 41.656 41.544 41.451 41.269 41.031 40.771 40.291 42.379 39.529 39.149 38.839 38.656 38.519 38.716 39.989 39.539 39.314 39.144
51.992 51.947 51.914 51.947 51.919 51.894 51.829 51.822 51.774 51.729 51.702 51.589 51.484 51.397 51.339 51.272 51.165 51.032 50.877 50.787 50.687 50.605 50.487 50.452 50.407 50.25 50.195 50.102 50.022 49.94 49.885 49.855 49.827 49.78 49.682 49.517 49.397 49.312 49.297 49.29 49.27 49.142 49.057 49.015 49.005 49.012 48.94 48.88 48.812 48.79 48.762 48.68 48.902 48.767 48.652 48.402 48.46 49.357 48.555 48.645 48.67 48.647 48.592 48.945 48.695 48.575 48.494 48.392 48.387 48.404 48.397 48.477 48.489 48.534 48.534 48.569 48.612 48.697 48.792 48.837 48.914 48.952 49.007 49.069 49.117 49.154 49.192 49.232 49.279 49.342 49.414 49.457 49.512 49.559 49.592 49.639 49.652 49.687 49.687 49.694 49.674 49.674 49.672 49.652 49.629 49.602 49.589 49.542 49.497 49.447 49.409 49.329 49.249 49.169 49.097 49.014 48.954 48.852 48.744 48.617 48.534 48.434 48.267 48.144 48.017 47.879 47.757 47.637 47.522 47.412 47.269 47.142 47.044 46.967 46.824 46.729 46.559 46.372 46.264 46.122 45.979 45.844 45.734 45.597 45.472 45.339 45.224 45.177 45.047 44.944 44.834 44.717 44.599 44.534 44.407 44.397 44.399 44.279 43.874 43.779 44.097 44.164 44.107 44.102 44.109 44.074 44.049 44.039 44.029 44.007 44.029 44.037 44.052 44.052 44.054 44.099 44.107 44.149 44.189 44.184 44.202 44.237 44.252 44.279 44.322 44.329 44.327 44.342 44.354 44.384 44.459 44.484 44.509 44.542 44.547 44.577 44.569 44.592 44.614 44.589 44.487 44.359 44.379 44.382 44.462 44.642 44.702 44.712 44.732 44.714 44.762 44.789 44.844 44.929 44.997 45.109 45.199 45.297 45.407 45.507 45.627 45.722 45.844 45.934 45.994 46.082 46.157 46.272 46.377 46.432 46.547 46.659 46.782 46.914 47.014 47.127 47.259 47.372 47.537 47.629 47.792 47.917 48.067 48.189 48.342 48.457 48.632 48.769 48.924 49.087 49.262 49.449 49.642 49.822 49.974 50.129 50.294 50.429 50.609 50.777 50.897 51.064 51.229 51.389 51.534 51.689 51.799 51.914 52.059 52.189 52.317 52.427 52.542 52.644 52.737 52.864 52.977 53.054 53.144 53.232 53.289 53.384 53.429 53.499 53.534 53.612 53.642 53.692 53.737 53.752 53.787 53.819 53.847 53.904 53.947 53.959 53.999 54.034 54.052 54.049 54.054 54.037 54.047 54.019 54.002 53.994 53.957 53.944 53.914 53.869 53.837 53.757 53.679 53.592 53.502 53.427 53.329 53.234 53.146 53.046 52.929 52.799 52.664 52.554 52.376 52.219 52.069 51.946 51.811 51.684 51.624 51.536 51.446 51.344 51.234 51.156 51.074 51.601 51.271 49.994 49.744 49.539 49.334 49.011 48.556 48.326 48.221 48.051 47.909 47.691 47.471 47.276 47.159 47.099 47.016 47.424 49.359 52.124 52.204 52.151 52.156 52.126 52.171 51.976 52.004 51.921 52.026 51.929 47.089 45.281 45.216 46.141 48.479 49.274 50.069 50.316 49.499 48.716 47.329 43.661 43.529 43.544 43.609 43.579 43.399 43.206 43.129 43.004 42.839 42.601 42.434 42.314 42.191 42.021 41.866 41.656 41.466 41.294 41.156 40.994 40.859 40.989 41.384 41.349 41.184 41.014 40.831 40.671 40.361 39.814 39.351 39.169 38.676 38.531 38.374 38.216 38.729 39.614 39.186 38.964
52.162 52.107 52.107 52.117 52.082 52.059 52.042 52.009 51.992 51.942 51.882 51.784 51.699 51.617 51.569 51.489 51.412 51.292 51.125 51.042 50.927 50.842 50.722 50.645 50.612 50.485 50.372 50.277 50.202 50.12 50.052 49.995 49.98 49.95 49.845 49.69 49.555 49.482 49.462 49.47 49.387 49.28 49.185 49.162 49.162 49.17 49.145 49.092 49.027 48.965 48.877 48.835 49.162 48.712 48.775 48.575 48.652 49.762 48.742 48.797 48.817 48.825 48.777 48.835 48.797 48.745 48.667 48.577 48.552 48.574 48.597 48.614 48.662 48.667 48.694 48.734 48.779 48.864 48.899 48.952 49.037 49.077 49.127 49.207 49.217 49.257 49.294 49.332 49.389 49.464 49.519 49.554 49.602 49.664 49.692 49.707 49.739 49.739 49.754 49.769 49.754 49.729 49.722 49.707 49.689 49.654 49.609 49.562 49.537 49.494 49.422 49.347 49.272 49.169 49.102 49.032 48.954 48.814 48.744 48.629 48.524 48.414 48.279 48.174 48.044 47.889 47.764 47.634 47.524 47.419 47.264 47.152 47.054 46.947 46.772 46.684 46.519 46.387 46.232 46.129 45.982 45.859 45.707 45.587 45.452 45.327 45.252 45.149 45.069 44.929 44.807 44.722 44.584 44.537 44.427 44.379 44.369 44.022 43.759 44.107 44.219 44.182 44.187 44.149 44.152 44.152 44.127 44.089 44.079 44.074 44.082 44.112 44.129 44.109 44.154 44.184 44.197 44.227 44.254 44.287 44.322 44.364 44.409 44.417 44.437 44.482 44.487 44.507 44.517 44.517 44.582 44.592 44.614 44.609 44.647 44.682 44.704 44.729 44.784 44.802 44.844 44.864 44.857 44.839 44.792 44.607 44.572 44.624 44.729 44.844 44.914 44.967 45.029 45.064 45.149 45.222 45.329 45.432 45.549 45.667 45.747 45.839 45.962 46.047 46.137 46.229 46.322 46.437 46.537 46.632 46.752 46.854 46.959 47.077 47.169 47.322 47.444 47.574 47.717 47.827 47.967 48.132 48.259 48.394 48.539 48.699 48.849 48.987 49.134 49.302 49.472 49.652 49.842 50.017 50.174 50.322 50.487 50.634 50.797 50.949 51.087 51.244 51.417 51.547 51.659 51.829 51.964 52.092 52.199 52.324 52.444 52.547 52.687 52.797 52.877 52.997 53.064 53.149 53.282 53.347 53.419 53.509 53.579 53.617 53.664 53.707 53.724 53.769 53.789 53.837 53.857 53.899 53.929 53.974 54.007 54.004 54.039 54.052 54.064 54.042 54.037 54.044 54.042 54.037 53.979 53.977 53.949 53.912 53.862 53.827 53.782 53.717 53.629 53.542 53.467 53.364 53.251 53.161 53.024 52.949 52.826 52.684 52.551 52.394 52.251 52.081 51.964 51.836 51.694 51.571 51.509 51.431 51.339 51.236 51.124 51.036 51.084 51.489 50.064 49.721 49.519 49.299 49.026 48.676 48.269 48.206 48.096 47.911 47.749 47.536 47.321 47.196 47.074 46.974 46.899 46.836 47.916 51.379 51.381 51.344 51.294 51.356 51.314 51.286 51.271 51.301 51.281 51.301 46.304 45.204 45.396 46.211 48.454 49.244 50.021 50.284 49.516 48.704 46.806 43.474 43.439 43.386 43.434 43.294 43.206 43.069 42.906 42.721 42.559 42.436 42.296 42.144 41.994 41.846 41.686 41.509 41.331 41.134 41.014 40.821 40.696 40.789 41.106 41.089 40.941 40.776 40.529 40.331 40.096 39.616 39.089 39.091 38.474 38.369 38.241 38.076 37.931 38.781 39.159 40.436
52.374 52.297 52.322 52.312 52.282 52.252 52.242 52.224 52.197 52.142 52.064 51.974 51.929 51.884 51.822 51.684 51.61 51.532 51.387 51.285 51.162 51.075 50.955 50.855 50.777 50.672 50.572 50.467 50.375 50.315 50.23 50.167 50.09 50.065 49.987 49.842 49.725 49.662 49.6 49.577 49.512 49.445 49.342 49.282 49.29 49.312 49.322 49.267 49.2 49.1 49.037 48.98 49.172 48.907 48.97 48.735 48.71 49.905 48.91 48.937 48.995 49.01 48.975 48.922 48.922 48.92 48.832 48.747 48.699 48.742 48.772 48.777 48.817 48.824 48.867 48.894 48.917 48.982 49.029 49.087 49.134 49.212 49.264 49.309 49.369 49.374 49.409 49.437 49.487 49.539 49.609 49.657 49.707 49.742 49.752 49.772 49.789 49.824 49.829 49.834 49.832 49.779 49.772 49.739 49.714 49.704 49.674 49.619 49.569 49.532 49.479 49.374 49.324 49.227 49.134 49.027 48.942 48.832 48.749 48.617 48.514 48.404 48.284 48.149 48.034 47.912 47.774 47.649 47.519 47.382 47.234 47.144 47.047 46.889 46.739 46.647 46.507 46.362 46.222 46.102 45.969 45.842 45.704 45.559 45.444 45.347 45.242 45.177 45.064 44.927 44.782 44.742 44.644 44.609 44.492 44.394 44.179 43.852 44.192 44.302 44.262 44.234 44.247 44.229 44.229 44.239 44.219 44.169 44.164 44.164 44.144 44.147 44.172 44.184 44.219 44.234 44.284 44.304 44.347 44.399 44.437 44.479 44.522 44.552 44.577 44.589 44.669 44.642 44.694 44.682 44.702 44.712 44.724 44.749 44.752 44.797 44.839 44.869 44.914 44.967 44.989 45.047 45.069 45.089 45.139 45.147 45.124 45.057 44.962 44.857 44.912 44.937 45.077 45.157 45.267 45.342 45.432 45.529 45.644 45.769 45.877 45.979 46.064 46.137 46.224 46.329 46.419 46.552 46.674 46.754 46.912 47.019 47.149 47.284 47.404 47.537 47.667 47.797 47.937 48.029 48.177 48.312 48.457 48.592 48.749 48.909 49.042 49.212 49.377 49.559 49.704 49.847 50.014 50.174 50.344 50.517 50.662 50.852 51.009 51.122 51.282 51.429 51.562 51.694 51.862 51.987 52.112 52.229 52.357 52.459 52.577 52.682 52.827 52.927 53.019 53.112 53.209 53.302 53.392 53.459 53.517 53.599 53.687 53.734 53.764 53.817 53.817 53.859 53.902 53.922 53.942 53.982 54.007 54.037 54.047 54.042 54.057 54.079 54.059 54.064 54.062 54.057 54.039 54.037 53.954 53.939 53.909 53.854 53.819 53.752 53.707 53.639 53.554 53.469 53.354 53.302 53.196 53.079 52.954 52.854 52.726 52.579 52.436 52.266 52.156 52.002 51.855 51.695 51.578 51.499 51.452 51.35 51.229 51.107 51.024 50.958 51.615 50.639 49.721 49.486 49.314 49.079 48.756 48.346 48.149 48.094 47.959 47.834 47.661 47.449 47.284 47.176 47.041 46.916 46.839 46.764 48.564 51.016 50.919 50.896 50.881 50.891 50.914 50.959 50.416 50.284 50.886 50.121 46.574 45.116 46.439 47.466 48.289 49.119 49.899 49.604 48.736 48.196 46.436 43.404 43.291 43.221 43.474 43.171 43.054 42.941 42.789 42.599 42.459 42.274 42.114 41.966 41.849 41.674 41.526 41.361 41.179 40.986 40.834 40.666 40.526 40.491 40.821 40.759 40.616 40.474 40.186 39.804 39.541 39.146 38.939 38.689 38.214 38.086 38.039 37.929 37.746 37.734 38.671 44.466
52.572 52.519 52.502 52.484 52.479 52.424 52.452 52.444 52.397 52.342 52.264 52.177 52.137 52.079 51.997 51.882 51.792 51.72 51.622 51.505 51.395 51.305 51.217 51.115 50.99 50.92 50.832 50.73 50.645 50.557 50.445 50.387 50.302 50.252 50.18 50.055 49.917 49.857 49.812 49.77 49.68 49.585 49.487 49.45 49.45 49.46 49.46 49.43 49.367 49.285 49.167 49.09 49.165 49.165 49.14 48.882 48.822 49.895 49.135 49.11 49.135 49.125 49.097 49.085 49.065 49.052 49.029 48.952 48.899 48.922 48.939 48.952 48.989 48.997 49.039 49.047 49.079 49.107 49.167 49.219 49.272 49.339 49.387 49.424 49.457 49.487 49.502 49.539 49.602 49.657 49.709 49.722 49.769 49.804 49.837 49.849 49.872 49.879 49.877 49.877 49.862 49.837 49.819 49.799 49.762 49.719 49.699 49.664 49.607 49.562 49.484 49.412 49.334 49.219 49.132 49.042 48.937 48.832 48.734 48.612 48.514 48.417 48.294 48.179 48.062 47.917 47.792 47.657 47.474 47.369 47.244 47.152 47.004 46.874 46.714 46.607 46.469 46.334 46.184 46.059 45.949 45.822 45.699 45.552 45.419 45.342 45.257 45.177 45.054 44.897 44.794 44.744 44.669 44.617 44.487 44.244 43.922 44.164 44.454 44.454 44.362 44.314 44.337 44.319 44.307 44.322 44.302 44.284 44.267 44.252 44.254 44.232 44.239 44.264 44.282 44.329 44.382 44.409 44.467 44.522 44.572 44.607 44.634 44.669 44.702 44.754 44.789 44.799 44.842 44.829 44.869 44.869 44.892 44.904 44.907 44.944 44.949 44.987 45.024 45.062 45.094 45.144 45.164 45.189 45.269 45.337 45.367 45.402 45.379 45.479 45.432 45.492 45.357 45.217 45.217 45.304 45.444 45.557 45.737 45.824 45.942 46.054 46.137 46.254 46.349 46.427 46.532 46.619 46.754 46.854 46.987 47.144 47.284 47.422 47.552 47.694 47.852 47.977 48.102 48.219 48.392 48.517 48.677 48.799 48.937 49.107 49.242 49.414 49.577 49.724 49.894 50.077 50.232 50.417 50.549 50.674 50.824 50.987 51.152 51.309 51.452 51.602 51.739 51.887 51.994 52.129 52.264 52.372 52.502 52.642 52.737 52.834 52.954 53.067 53.139 53.229 53.339 53.422 53.517 53.582 53.639 53.704 53.757 53.812 53.819 53.844 53.889 53.944 53.952 53.999 54.012 54.062 54.072 54.092 54.114 54.097 54.092 54.077 54.072 54.074 54.032 54.007 53.989 53.977 53.937 53.892 53.874 53.817 53.759 53.692 53.644 53.549 53.472 53.392 53.279 53.217 53.081 52.959 52.864 52.749 52.611 52.474 52.316 52.168 52.026 51.867 51.732 51.605 51.501 51.435 51.346 51.254 51.122 51.014 50.905 51.077 51.829 50.154 49.467 49.284 49.091 48.819 48.459 48.126 48.066 47.989 47.871 47.736 47.549 47.374 47.249 47.116 47.004 46.929 46.826 46.731 46.871 48.014 47.394 48.401 47.361 47.386 45.854 45.786 45.796 45.804 45.364 45.266 45.081 44.934 45.094 44.969 44.859 44.819 44.851 44.549 44.199 43.594 43.446 43.236 43.096 42.961 43.304 43.509 43.276 42.716 42.549 42.346 42.166 42.021 41.869 41.701 41.584 41.466 41.309 41.126 41.006 40.856 40.701 40.556 40.589 42.564 40.451 40.344 40.056 39.856 39.589 39.314 39.316 39.106 38.789 38.376 38.131 37.944 37.881 37.776 37.626 37.479 39.646 39.501
