ncols 440
nrows 31
xllcorner    459112
yllcorner    89638
cellsize     2
NODATA_value -9999
18.315 18.197 18.092 17.982 17.772 17.6 17.42 17.3 17.227 17.162 17.125 17.135 17.165 17.165 17.115 17.075 17.055 16.992 18.832 18.382 16.63 17.032 17.917 18.312 18.415 18.272 18.065 18.432 18.68 18.832 18.95 18.945 19.115 19.332 19.405 19.34 19.392 19.64 20.92 21.755 19.76 19.805 19.93 20.052 20.175 20.332 20.422 20.54 20.64 20.772 20.877 21.002 21.16 21.297 21.417 21.542 21.67 21.78 21.895 22.007 22.102 22.18 22.242 22.325 22.385 22.48 22.537 22.635 22.757 22.857 22.96 23.017 23.097 23.14 23.185 23.237 23.307 23.397 23.42 23.495 23.547 23.582 23.627 23.697 23.752 23.83 23.89 24.155 24.367 24.205 24.212 24.14 24.18 24.21 24.255 24.272 24.297 24.415 24.44 24.965 25.525 25.342 24.402 24.372 24.417 24.447 24.437 24.422 24.435 24.425 24.407 24.43 24.465 24.477 24.475 24.525 24.55 24.55 24.557 24.57 24.585 24.582 24.585 24.557 24.532 24.56 24.575 24.557 24.555 24.535 24.545 24.557 24.575 24.562 24.585 24.602 24.585 24.615 24.635 24.647 24.69 24.687 24.7 24.73 24.76 24.772 24.767 24.775 24.795 24.805 24.85 24.845 24.872 24.885 24.94 24.96 24.985 25.01 25.04 25.092 25.147 25.192 25.255 25.305 25.38 25.455 25.535 25.595 25.632 25.705 25.767 25.852 25.94 26.025 26.12 26.215 26.31 26.385 26.47 26.557 26.617 26.687 26.75 26.825 26.902 26.945 27.012 27.12 27.195 27.282 27.35 27.435 27.497 27.535 27.61 27.655 27.68 27.727 27.772 27.835 27.857 27.915 27.962 28.015 28.057 28.105 28.14 28.15 28.165 28.19 28.197 28.19 28.205 28.182 28.18 28.165 28.16 28.125 28.092 28.075 28.05 28.007 27.947 27.885 27.815 27.757 27.697 27.61 27.547 27.492 27.422 28.415 28.96 27.142 26.997 26.992 26.935 26.852 26.785 26.722 26.637 26.55 26.487 26.36 26.257 26.16 26.062 25.955 25.872 25.842 25.827 25.685 25.505 25.3 25.192 25.695 25.117 24.917 24.775 24.642 24.54 24.385 24.305 24.197 24.132 24.047 23.857 23.76 23.57 23.76 23.367 23.257 23.152 23.042 23 22.83 22.677 22.577 22.512 22.422 22.315 22.192 22.12 22.032 21.922 21.865 21.815 21.737 21.655 21.547 21.457 21.37 21.275 21.312 21.042 20.947 20.877 20.817 20.725 20.567 20.472 20.395 20.325 20.277 20.152 20.035 19.947 19.882 19.767 19.69 19.802 19.857 19.675 19.602 19.622 19.44 19.387 19.335 19.295 19.235 19.142 19.097 19.012 19.007 18.97 18.872 18.825 18.782 18.732 18.76 21.042 25.847 29.522 27.262 24.665 19.63 19.112 18.142 18.1 18.66 18.1 18.527 17.867 17.822 18.85 18.397 17.865 17.82 18.385 17.707 19.775 17.81 21.05 21.527 17.245 19.142 19.605 17.87 16.812 16.817 16.812 22.422 17.657 16.63 16.642 17.112 17.102 16.815 16.792 18.877 16.802 17.677 19.785 19.265 19.242 16.922 17.74 22.942 16.552 16.91 17.19 16.777 16.87 17.412 17.355 17.082 17.115 17.197 17.252 17.22 17.285 17.567 18.017 18.302 18.525 18.572 17.82 17.81 17.807 18.065 18.227 18.302 18.197 21.215 31.467 34.845 32.855 28.18 25.807 24.085 32.125 33.747 25.935 30.222 30.52 26.282 35.735 37.91 38.492 25.71 20.8 20.657 26.392 33.76 35.877 37.647 36.095 36.197 29.63 20.4 29.512 35.405 38.882 29.852 20.552 20.7 20.747 20.952 21.042 21.072
18.265 18.157 18.03 17.89 17.722 17.537 17.397 17.267 17.212 17.147 17.122 17.19 17.207 17.202 17.2 17.17 17.132 17.185 18.295 18.057 17.387 17.387 17.467 17.31 17.615 18.655 18.622 18.797 18.837 18.852 18.942 19.167 19.347 19.405 19.315 19.415 19.662 20.075 19.995 19.737 19.747 19.845 19.995 20.105 20.23 20.335 20.437 20.57 20.667 20.81 20.922 21.035 21.165 21.305 21.42 21.555 21.657 21.777 21.887 21.987 22.057 22.165 22.217 22.302 22.38 22.485 22.515 22.61 22.722 22.822 22.917 22.997 23.062 23.112 23.185 23.22 23.302 23.34 23.405 23.457 23.54 23.61 23.657 23.695 23.727 23.842 23.97 24.427 24.475 24.732 24.942 24.527 24.6 24.655 24.582 24.435 24.405 24.377 24.38 27.17 25.96 24.5 24.727 24.395 24.395 24.432 24.437 24.422 24.415 24.442 24.397 24.42 24.445 24.467 24.467 24.512 24.535 24.522 24.555 24.552 24.557 24.565 24.54 24.535 24.532 24.557 24.555 24.555 24.537 24.535 24.525 24.532 24.537 24.55 24.567 24.562 24.58 24.59 24.615 24.627 24.655 24.672 24.705 24.755 24.767 24.802 24.8 24.792 24.832 24.85 24.872 24.887 24.91 24.94 24.987 25.01 25.04 25.065 25.105 25.167 25.205 25.257 25.315 25.375 25.425 25.517 25.612 25.627 25.697 25.765 25.81 25.89 25.975 26.052 26.137 26.23 26.317 26.41 26.495 26.562 26.617 26.677 26.747 26.832 26.897 26.957 27.012 27.087 27.187 27.255 27.345 27.427 27.5 27.537 27.59 27.627 27.672 27.712 27.767 27.822 27.87 27.925 27.965 28.005 28.065 28.1 28.11 28.13 28.15 28.18 28.185 28.172 28.18 28.185 28.177 28.15 28.127 28.1 28.072 28.047 28.027 27.992 27.937 27.882 27.812 27.722 27.657 27.6 27.55 27.495 27.752 29.055 27.867 27.005 27.07 27.01 26.937 26.842 26.772 26.685 26.642 26.527 26.447 26.332 26.265 26.142 26.082 25.96 25.897 25.78 25.692 25.57 25.435 25.317 25.275 25.302 25.06 24.872 24.822 24.725 24.59 24.445 24.29 24.237 24.182 24.005 23.875 23.732 23.597 23.457 23.395 23.297 23.222 23.095 22.982 22.86 22.727 22.6 22.5 22.42 22.327 22.257 22.157 22.032 21.935 21.892 21.832 21.757 21.67 21.58 21.485 21.432 21.275 21.142 21.045 20.952 20.862 20.825 20.76 20.625 20.52 20.427 20.38 20.297 20.172 20.077 20.032 19.9 19.755 19.755 19.752 19.745 19.582 19.575 19.427 19.402 19.357 19.357 19.307 19.282 19.2 19.13 19.065 18.982 18.985 18.855 18.842 18.815 18.805 18.7 19.49 22.295 19.735 21.352 21.722 19.66 23.975 18.317 18.132 22.385 18.257 19.13 18.015 17.805 18.272 17.647 17.822 20.33 17.63 17.232 17.192 17.137 17.297 17.095 16.987 18.872 19.202 17.597 26.117 23.547 20.217 29.842 19.667 16.775 16.785 16.987 22.397 20.897 18.407 21.722 16.75 17.3 19.017 21.35 19.962 16.842 20.142 18.715 16.317 16.935 16.9 16.977 17.87 16.98 16.88 17.345 17.325 17.335 17.54 17.46 17.302 17.62 18.317 18.315 18.55 18.515 17.912 17.832 17.795 18.452 18.685 18.112 18.185 25.54 32.725 28.16 21.232 19.017 18.67 19.115 18.995 29.402 27.637 30.032 32.587 36.257 35.357 36.017 39.085 24.692 24.452 24.907 36.285 39.842 37.342 39.325 37.745 31.787 26.525 21.842 24.385 30.665 40.095 34.775 20.525 20.745 20.82 20.927 21.007 21.2
18.247 18.135 17.987 17.837 17.665 17.475 17.35 17.275 17.21 17.155 17.152 17.197 17.237 17.235 17.222 17.197 17.217 17.625 18.1 17.592 17.405 18.305 19.472 17.507 17.93 20.49 19.085 18.98 18.98 18.982 19.227 19.352 19.37 19.322 19.415 19.782 20.952 21.345 19.597 19.677 19.795 19.895 20.015 20.115 20.227 20.31 20.457 20.565 20.712 20.825 20.947 21.057 21.172 21.29 21.385 21.525 21.665 21.772 21.88 21.972 22.042 22.127 22.217 22.287 22.367 22.432 22.49 22.592 22.702 22.795 22.892 22.975 23.05 23.092 23.142 23.207 23.237 23.317 23.397 23.477 23.545 23.6 23.65 23.687 23.745 23.807 24.005 24.437 24.86 26.735 26.637 26.107 25.83 26.195 25.282 25.025 24.495 24.32 25.887 29.625 29.532 25.205 25.332 24.397 24.395 24.417 24.425 24.402 24.407 24.405 24.382 24.397 24.425 24.435 24.442 24.487 24.502 24.507 24.532 24.53 24.54 24.547 24.535 24.502 24.515 24.537 24.547 24.557 24.525 24.527 24.535 24.54 24.532 24.55 24.565 24.58 24.58 24.597 24.627 24.655 24.687 24.715 24.755 24.782 24.81 24.822 24.82 24.847 24.867 24.905 24.907 24.922 24.947 24.99 25.02 25.037 25.065 25.105 25.165 25.19 25.245 25.282 25.345 25.407 25.455 25.537 25.622 25.647 25.692 25.772 25.815 25.922 26.017 26.095 26.157 26.26 26.357 26.43 26.517 26.59 26.63 26.685 26.785 26.845 26.915 26.972 27.045 27.117 27.19 27.28 27.36 27.425 27.495 27.532 27.577 27.625 27.675 27.717 27.76 27.807 27.862 27.9 27.962 28.007 28.055 28.08 28.09 28.125 28.137 28.15 28.18 28.15 28.18 28.18 28.182 28.142 28.097 28.072 28.065 28.012 27.982 27.927 27.9 27.837 27.78 27.705 27.645 27.582 27.51 27.557 28.622 28.917 27.107 27.027 27.085 27.005 26.867 26.822 26.72 26.665 26.597 26.485 26.41 26.317 26.24 26.152 26.06 25.965 25.872 25.782 25.702 25.582 25.462 25.347 25.207 25.142 25.017 25.047 24.762 24.702 24.57 24.56 24.362 24.292 24.36 24.057 23.88 23.785 23.622 23.535 23.425 23.33 23.232 23.12 22.997 22.875 22.777 22.622 22.545 22.47 22.35 22.252 22.187 22.097 21.975 21.9 21.87 21.775 21.682 21.6 21.48 21.41 21.295 21.2 21.125 21.032 20.972 20.82 20.722 20.64 20.57 20.472 20.377 20.277 20.202 20.15 20.1 19.885 19.822 19.86 19.73 19.662 19.612 19.537 19.512 19.425 19.39 19.35 19.327 19.257 19.197 19.165 19.077 19.022 18.957 18.937 18.912 18.837 18.877 19.515 21.095 22.972 21.557 23.94 27.627 18.14 23.962 19.995 17.807 21.707 18.437 17.672 17.622 17.637 17.84 17.94 20.732 26.687 21.207 17.187 17.535 17.13 17.115 17.055 17.072 17.565 18.102 17.64 24.942 24.407 20.662 25.442 21.527 19.67 16.95 16.94 20.58 26.257 17.807 21.822 18.65 17.202 16.867 16.825 17.635 18.062 23.832 17.05 17.662 17.005 17.002 16.83 16.917 16.922 16.8 16.81 17.095 17.195 17.355 17.655 18.527 17.557 18.98 18.477 18.752 18.692 18.062 17.895 17.857 17.845 19.47 18.19 19.145 29.612 32.642 21.855 18.477 20.037 28.832 30.165 29.71 35.705 36.352 34.437 34.44 31.11 31.685 35.81 36.64 35.25 23.66 23.352 35.79 39.642 36.575 31.797 28.402 33.112 33.12 28.515 27.62 32.147 31.35 27.07 24.01 20.735 20.882 20.972 22.702 28.372
18.235 18.1 17.97 17.79 17.6 17.437 17.335 17.267 17.217 17.157 17.165 17.215 17.25 17.255 17.23 17.227 17.235 17.85 17.642 17.477 21.707 18.155 17.56 17.997 18.522 18.902 19.007 19.052 19.11 19.317 19.355 19.345 19.285 19.397 19.725 21.147 21.525 19.525 19.6 19.677 19.8 19.892 20.02 20.112 20.217 20.33 20.47 20.582 20.72 20.847 20.945 21.062 21.175 21.295 21.385 21.537 21.657 21.745 21.862 21.94 22.01 22.105 22.182 22.257 22.305 22.387 22.467 22.56 22.655 22.74 22.845 22.935 23.022 23.07 23.125 23.172 23.237 23.28 23.372 23.457 23.505 23.595 23.652 23.702 23.725 23.772 24.085 24.475 24.27 25.275 25.397 25.19 25.662 26.102 26.415 26.342 24.35 24.257 26.757 27.315 28.52 24.722 24.555 24.365 24.365 24.39 24.412 24.395 24.39 24.4 24.39 24.42 24.457 24.452 24.472 24.51 24.512 24.52 24.532 24.547 24.525 24.525 24.535 24.49 24.51 24.552 24.535 24.565 24.517 24.525 24.532 24.53 24.525 24.547 24.56 24.555 24.58 24.6 24.642 24.662 24.71 24.725 24.762 24.77 24.805 24.827 24.825 24.855 24.875 24.917 24.93 24.967 24.975 25.01 25.045 25.065 25.087 25.142 25.175 25.23 25.29 25.342 25.395 25.455 25.502 25.58 25.65 25.697 25.747 25.812 25.86 25.952 26.042 26.125 26.217 26.305 26.387 26.465 26.545 26.612 26.657 26.72 26.792 26.857 26.922 26.992 27.045 27.112 27.21 27.277 27.365 27.427 27.477 27.522 27.575 27.627 27.652 27.69 27.762 27.805 27.842 27.885 27.93 27.985 28.04 28.06 28.097 28.09 28.097 28.122 28.127 28.125 28.137 28.162 28.152 28.115 28.092 28.05 28.025 27.997 27.975 27.912 27.855 27.797 27.747 27.675 27.65 27.57 27.51 27.645 29.09 27.997 27.035 27.042 26.995 26.93 26.865 26.75 26.697 26.595 26.522 26.425 26.375 26.262 26.165 26.067 25.997 25.912 25.835 25.767 25.635 25.517 25.42 25.427 25.202 25.12 25.05 24.91 24.76 24.65 24.6 24.555 24.38 24.332 24.152 24.02 23.91 23.79 23.7 23.557 23.47 23.365 23.247 23.115 22.98 22.88 22.807 22.68 22.582 22.522 22.43 22.277 22.19 22.102 22.012 21.942 21.912 21.795 21.687 21.592 21.552 21.395 21.312 21.237 21.122 21.155 20.985 20.84 20.745 20.67 20.565 20.527 20.395 20.302 20.162 20.155 20.04 19.885 19.877 19.842 19.795 19.792 19.647 19.582 19.56 19.457 19.525 19.415 19.347 19.262 19.242 19.227 19.097 19.04 18.987 18.957 19.27 19.767 19.205 19.93 20.15 25.242 26.67 27.547 28.227 19.35 18.535 17.867 19.56 17.75 17.727 17.692 17.67 25.527 18.052 18.007 18.72 24.295 24.81 21.797 17.295 17.307 17.29 17.217 17.245 17.842 21.277 20.187 17.55 17.752 20.462 17.21 20.85 22.715 20.062 19.305 18.702 16.957 22.275 20.427 18.877 16.98 17.247 16.837 17.372 19.355 19.717 17.287 17.78 16.997 17.1 17.075 16.9 16.942 16.952 16.91 16.975 17.062 17.172 17.402 17.415 17.357 17.77 18.567 18.495 18.692 18.315 17.81 17.852 17.815 19.737 18.425 20.117 26.21 30.457 21.385 18.565 20.595 30.89 35.432 30.255 37.132 34.017 26.37 30.005 22.215 25.377 35.617 36.472 33.007 22.44 19.862 25.627 19.855 19.995 23.967 22.212 33.56 40.362 34.17 27.137 23.582 22.045 29.077 26.515 21.08 24.852 26.197 25.34 24.787
18.205 18.092 17.95 17.78 17.582 17.432 17.34 17.275 17.212 17.167 17.202 17.225 17.227 17.27 17.272 17.437 17.387 17.525 17.17 19.52 20.835 18.682 18.5 18.512 18.712 18.875 19.05 19.192 19.33 19.37 19.337 19.27 19.395 19.6 20.472 21.302 19.415 19.48 19.582 19.7 19.807 19.92 20.012 20.102 20.222 20.322 20.46 20.597 20.717 20.855 20.97 21.067 21.187 21.29 21.405 21.502 21.632 21.725 21.825 21.902 21.977 22.092 22.132 22.2 22.257 22.337 22.437 22.53 22.615 22.695 22.81 22.887 23.002 23.037 23.112 23.155 23.227 23.272 23.345 23.445 23.5 23.607 23.65 23.712 23.725 23.775 24.16 24.43 26.09 26.985 25.997 26.185 24.612 24.317 24.79 24.605 24.275 24.247 26.345 27.29 27.577 24.51 24.4 24.35 24.372 24.395 24.415 24.402 24.415 24.412 24.402 24.445 24.465 24.462 24.482 24.487 24.507 24.532 24.535 24.555 24.537 24.515 24.522 24.5 24.507 24.535 24.547 24.535 24.485 24.522 24.505 24.502 24.507 24.53 24.545 24.557 24.557 24.587 24.63 24.66 24.705 24.745 24.755 24.79 24.817 24.855 24.872 24.865 24.907 24.93 24.977 24.997 25.022 25.045 25.105 25.125 25.14 25.18 25.237 25.267 25.33 25.38 25.445 25.487 25.57 25.647 25.71 25.737 25.805 25.845 25.912 25.982 26.077 26.155 26.235 26.32 26.405 26.49 26.58 26.615 26.69 26.74 26.812 26.875 26.93 26.997 27.055 27.122 27.215 27.285 27.352 27.405 27.465 27.517 27.567 27.582 27.635 27.687 27.73 27.797 27.827 27.875 27.93 27.987 28.032 28.035 28.05 28.05 28.08 28.087 28.107 28.107 28.127 28.132 28.115 28.085 28.042 28.042 27.997 27.967 27.932 27.897 27.847 27.762 27.707 27.682 27.625 27.565 27.48 28.345 28.81 27.245 27.075 27.047 27.057 26.982 26.872 26.815 26.752 26.652 26.58 26.505 26.427 26.332 26.212 26.105 26.035 25.952 25.86 25.772 25.617 25.51 25.467 25.345 25.235 25.077 24.977 25.02 24.887 24.59 24.595 24.65 24.315 24.21 24.095 23.992 23.935 23.825 23.732 23.58 23.5 23.41 23.277 23.162 23.017 22.932 22.835 22.797 22.81 22.617 22.512 22.402 22.26 22.187 22.212 22.075 21.98 21.887 21.815 21.66 21.55 21.507 21.405 21.277 21.21 21.09 20.96 20.877 20.795 20.67 20.595 20.532 20.407 20.357 20.157 20.072 19.957 19.91 19.867 19.842 19.795 19.782 19.692 19.582 19.537 19.49 19.445 19.417 19.395 19.32 19.257 19.205 19.145 19.07 19.03 19.38 21.305 20.782 19.162 20.172 25.76 25.237 24.855 25.337 29.94 23.36 18.062 23.76 17.895 17.825 17.845 17.875 17.84 23.345 17.707 17.82 17.722 19.047 25.977 20.222 23.167 20.207 19.417 17.417 17.257 17.882 24.23 20.807 17.257 20.175 19.632 17.092 17.44 18.25 24.567 25.997 25.587 22.417 20.25 22.92 19.062 16.81 17.68 17.005 18.747 16.987 16.962 17.335 16.255 16.885 17.08 17.415 17.267 16.922 16.925 16.955 17.012 17.067 17.142 17.317 17.437 17.557 18.202 18.982 18.5 18.73 18.577 17.897 17.895 17.862 18.092 18.722 20.012 29.697 32.765 33.765 27.392 19.545 26.185 30.89 27.902 36.345 32.565 28.257 23.997 22.025 20.17 27.07 32.987 32.33 20.93 26.345 31.722 29.62 30.41 21.115 22.322 32.18 38.815 37.807 33.672 24.092 26.932 35.26 36.197 33.167 28.842 27.517 25.66 23.84
18.21 18.085 17.935 17.735 17.562 17.432 17.327 17.26 17.187 17.172 17.202 17.24 17.272 17.297 17.682 19.382 17.955 17.287 16.992 17.092 17.755 18.037 18.565 18.867 18.915 19.035 19.197 19.35 19.377 19.297 19.31 19.382 19.74 20.535 19.355 19.297 19.377 19.49 19.602 19.732 19.807 19.917 20.022 20.1 20.185 20.335 20.492 20.602 20.755 20.89 20.992 21.1 21.21 21.295 21.375 21.507 21.605 21.685 21.792 21.892 21.975 22.025 22.072 22.172 22.237 22.315 22.415 22.49 22.585 22.685 22.772 22.875 22.945 22.977 23.087 23.17 23.2 23.265 23.35 23.415 23.512 23.58 23.65 23.687 23.75 23.837 24.325 24.277 24.767 24.962 25.667 26.39 24.81 24.96 25.197 24.557 24.265 24.27 26.072 26.197 26.037 25.007 25.582 25.087 24.887 24.49 24.397 24.38 24.38 24.387 24.395 24.402 24.435 24.422 24.442 24.482 24.482 24.495 24.495 24.522 24.502 24.492 24.482 24.492 24.49 24.505 24.507 24.485 24.482 24.515 24.512 24.492 24.497 24.525 24.547 24.55 24.555 24.602 24.632 24.685 24.71 24.74 24.775 24.805 24.83 24.862 24.892 24.9 24.942 24.96 24.985 25.022 25.05 25.092 25.137 25.157 25.182 25.222 25.255 25.297 25.37 25.407 25.475 25.552 25.62 25.677 25.747 25.76 25.827 25.88 25.942 26.017 26.095 26.18 26.26 26.345 26.427 26.517 26.582 26.637 26.685 26.755 26.83 26.882 26.93 26.995 27.075 27.142 27.227 27.272 27.36 27.405 27.462 27.495 27.55 27.597 27.62 27.662 27.715 27.762 27.815 27.882 27.917 27.95 28 28.012 28.007 28.022 28.062 28.062 28.102 28.09 28.102 28.092 28.08 28.042 28.03 27.997 27.977 27.945 27.902 27.875 27.8 27.742 27.715 27.662 27.607 27.55 27.672 28.975 28.195 27.11 27.182 27.057 27.025 27.062 26.922 26.852 26.755 26.687 26.595 26.505 26.43 26.352 26.25 26.147 26.067 25.997 25.922 25.79 25.657 25.642 25.495 25.355 25.245 25.172 25.045 24.95 24.835 24.722 24.65 24.505 24.427 24.292 24.13 24.055 23.955 23.825 23.757 23.62 23.537 23.372 23.252 23.135 23.022 22.89 22.815 22.657 22.717 22.597 22.44 22.357 22.245 22.19 22.102 22.082 21.962 21.905 21.82 21.697 21.6 21.502 21.445 21.35 21.265 21.167 21.02 20.917 20.805 20.705 20.605 20.522 20.44 20.38 20.225 20.095 19.965 19.932 19.892 19.855 19.822 19.705 19.675 19.65 19.532 19.515 19.445 19.402 19.355 19.3 19.255 19.415 19.36 19.557 20.877 20.072 19.96 18.93 19.8 25.292 22.492 28.522 20.14 27.82 31.44 31.212 26.075 20.62 19.887 18.275 20.86 18.607 19.83 19.855 18.96 22.345 24.56 18.93 22.24 24.892 29.27 20.127 19.807 17.435 17.267 19.245 24.517 17.222 17.112 19.462 23.41 17.142 22.427 29.135 29.647 24.297 23.572 22.612 17.04 18.885 17.45 16.937 17.087 17.212 17.947 16.947 16.95 16.967 16.702 18.385 17.36 17.61 17.067 16.93 16.95 17.357 17.175 17.13 17.48 17.162 17.41 22.102 26.252 23.34 18.5 18.935 18.892 18.157 17.912 17.897 18.17 19.657 18.47 21.232 29.775 35.377 22.062 24.147 32.3 22.797 21.93 34.87 32.88 33.52 35.815 33.545 23.477 30.167 34.395 30.25 28.815 33.845 38.852 31.267 30.347 20.295 21.54 29.137 35.46 35.77 36.082 34.397 22.382 33.042 37.532 38.375 35.802 34.027 28.66 34.522
18.23 18.105 17.952 17.745 17.567 17.415 17.335 17.265 17.197 17.18 17.225 17.277 18.26 17.827 17.805 18.075 17.262 17.085 16.962 17.282 17.862 18.63 18.822 18.992 19.162 19.35 19.417 19.4 19.267 19.3 19.695 20.342 21.375 21.332 19.172 19.262 19.395 19.502 19.607 19.725 19.8 19.887 20.007 20.095 20.175 20.342 20.48 20.597 20.737 20.87 20.992 21.102 21.205 21.275 21.362 21.485 21.565 21.655 21.78 21.852 21.907 22.002 22.07 22.13 22.227 22.312 22.377 22.472 22.562 22.667 22.75 22.84 22.907 22.977 23.057 23.127 23.18 23.26 23.337 23.425 23.505 23.595 23.632 23.7 23.742 23.895 24.41 24.302 24.235 24.175 24.202 24.25 24.295 24.4 25.915 24.625 24.195 24.477 26.117 25.627 25.322 25.14 25.272 25.292 25.067 24.995 24.597 24.415 24.37 24.385 24.39 24.39 24.415 24.41 24.457 24.452 24.467 24.465 24.475 24.5 24.492 24.462 24.477 24.47 24.487 24.49 24.492 24.482 24.49 24.5 24.502 24.48 24.497 24.52 24.555 24.552 24.577 24.607 24.635 24.682 24.722 24.767 24.772 24.807 24.837 24.877 24.902 24.93 24.96 24.975 25.002 25.04 25.072 25.107 25.13 25.157 25.22 25.232 25.285 25.325 25.402 25.45 25.522 25.582 25.662 25.725 25.762 25.792 25.852 25.917 25.96 26.042 26.15 26.217 26.297 26.38 26.455 26.527 26.592 26.647 26.702 26.772 26.835 26.88 26.93 26.992 27.075 27.14 27.215 27.282 27.345 27.402 27.455 27.487 27.525 27.577 27.63 27.65 27.7 27.747 27.807 27.84 27.9 27.932 27.965 27.992 27.977 28.012 28.022 28.045 28.062 28.065 28.07 28.055 28.045 28.017 27.982 27.965 27.947 27.922 27.895 27.857 27.8 27.742 27.695 27.657 27.637 27.552 28.357 28.847 27.292 27.142 27.115 27.1 27.03 26.982 26.895 26.847 26.767 26.685 26.612 26.507 26.422 26.325 26.26 26.177 26.062 25.992 25.9 25.752 25.687 25.645 25.5 25.372 25.277 25.19 25.06 24.997 24.91 24.815 24.647 24.53 24.692 24.302 24.255 24.305 23.997 23.9 23.845 23.692 23.587 23.56 23.402 23.287 23.155 22.972 22.887 22.765 22.64 22.56 22.48 22.365 22.257 22.177 22.117 22.022 21.945 21.857 21.785 21.657 21.565 21.51 21.442 21.35 21.307 21.192 21.115 20.992 20.885 20.745 20.625 20.622 20.485 20.36 20.212 20.095 20.042 20.01 19.935 19.977 19.852 19.792 19.77 19.66 19.575 19.647 19.495 19.45 19.367 19.332 19.367 19.47 20.265 21.692 23.485 22.715 23.367 21.245 20.862 26.467 24.11 29.585 26.957 25.597 25.972 22.37 31.895 32.542 31.772 28.455 29.112 26.555 31.227 27.735 26.12 28.457 26.577 27.932 27.227 25.792 29.597 21 17.992 19.037 17.27 17.772 24.862 20.09 17.182 19.317 19.32 18.277 25.912 29.63 29.1 26.897 23.367 18.695 16.897 16.877 16.882 16.967 19.23 17.417 17.795 17.687 16.967 16.94 16.942 16.955 20.192 17.305 16.952 17.405 17.025 17.415 17.207 17.18 17.63 17.787 17.37 22.205 25.947 24.08 18.257 18.955 18.925 18.477 17.925 17.95 17.872 19.185 18.385 18.042 20.2 31.112 34.892 32.037 34.647 32.517 24.962 31.34 29.412 22.06 32.027 33.007 22.537 28.05 32.53 34.13 30.642 35.507 36.812 23.555 20.045 21.377 22.14 22.385 29.517 37.097 39.805 32.287 24.887 35.855 37.427 37.355 39.055 39.955 28.115 32.24
18.225 18.117 17.95 17.73 17.562 17.415 17.335 17.285 17.237 17.212 17.25 17.282 18.135 19.51 17.495 17.482 16.96 17.087 17.33 18.022 18.387 18.717 18.945 19.12 19.387 19.412 19.4 19.247 19.315 19.317 20.072 19.78 20.167 19.057 19.152 19.267 19.387 19.495 19.587 19.685 19.797 19.865 19.975 20.072 20.205 20.352 20.46 20.617 20.725 20.86 20.992 21.102 21.19 21.292 21.362 21.452 21.527 21.662 21.737 21.795 21.862 21.952 22.04 22.115 22.2 22.287 22.347 22.445 22.55 22.625 22.722 22.797 22.85 22.95 23.03 23.107 23.165 23.252 23.307 23.402 23.475 23.557 23.642 23.717 23.762 23.902 24.452 24.237 24.592 24.35 24.175 24.317 24.252 24.447 24.98 24.2 24.17 24.64 25.74 25.215 25.037 25.03 25.032 25.127 25.215 25.605 25.827 24.55 24.34 24.367 24.342 24.387 24.39 24.407 24.425 24.432 24.445 24.445 24.442 24.48 24.455 24.41 24.455 24.457 24.475 24.467 24.46 24.452 24.467 24.475 24.45 24.465 24.49 24.517 24.535 24.54 24.552 24.615 24.645 24.69 24.725 24.757 24.785 24.797 24.842 24.887 24.897 24.935 24.957 24.987 25.017 25.057 25.082 25.122 25.177 25.207 25.247 25.272 25.317 25.38 25.437 25.485 25.56 25.602 25.695 25.747 25.785 25.832 25.885 25.935 26.007 26.077 26.177 26.232 26.33 26.397 26.477 26.56 26.615 26.65 26.725 26.785 26.845 26.892 26.94 26.985 27.077 27.157 27.192 27.277 27.325 27.382 27.445 27.48 27.527 27.555 27.612 27.627 27.675 27.742 27.797 27.832 27.862 27.91 27.912 27.947 27.942 27.977 28.007 27.992 28 28.012 28.02 28.002 27.995 27.977 27.947 27.955 27.91 27.892 27.855 27.83 27.775 27.725 27.707 27.65 27.597 27.582 28.69 27.857 27.172 27.215 27.215 27.132 27.025 26.975 26.902 26.852 26.807 26.657 26.612 26.495 26.392 26.332 26.235 26.175 26.11 26.012 25.882 25.782 25.69 25.597 25.487 25.407 25.305 25.182 25.085 25.015 24.907 24.785 24.655 24.542 24.46 24.412 24.255 24.15 24.077 23.955 23.82 23.737 23.635 23.555 23.43 23.307 23.232 23.09 22.975 22.852 22.76 22.707 22.59 22.497 22.415 22.307 22.217 22.14 22.062 21.967 21.832 21.725 21.642 21.562 21.47 21.475 21.365 21.172 21.04 20.902 20.882 20.745 20.82 20.957 20.502 20.312 20.195 20.087 20.03 19.95 19.982 19.972 19.93 19.817 19.82 19.702 19.75 19.595 19.567 19.51 19.42 19.622 19.517 20.177 20.702 21.097 24.675 27.662 28.762 24.955 21.515 24.077 26.685 27.352 26.957 28.675 27.387 27.512 27.972 27.565 31.72 31.007 18.912 26.717 32.39 29.63 24.275 26.832 23.24 30.872 30.365 23.235 17.56 20.825 17.382 22.465 17.64 22.847 20.357 22.487 18.242 18.19 21.355 20.497 17.185 23.175 26.777 22.022 21.382 17.3 16.882 16.945 16.877 16.89 16.96 18.797 25.14 20.75 16.982 16.942 17.015 16.795 16.897 18.115 16.912 16.942 17.207 17.062 17.115 17.187 17.907 17.31 17.352 17.622 18.072 22.55 18.297 18.657 19.48 18.582 17.925 17.937 17.872 18.402 19.397 18.355 22.687 33.572 35.04 34.937 34.247 29.782 22.445 24.532 28.64 28.272 38.012 32.555 21.847 27.795 33.277 32.492 35.687 29.502 33.335 22.43 20.12 20.74 20.55 20.362 22.892 34.632 38.257 27.057 27.325 38.532 36.015 32.427 38.932 37.802 29.827 34.355
18.197 18.062 17.902 17.71 17.567 17.46 17.372 17.33 17.287 17.245 17.262 17.39 18.71 18.595 16.807 17.052 17.34 17.585 18.192 18.612 18.825 19.017 19.18 19.385 19.457 19.397 19.215 19.277 19.292 19.387 22.77 19.995 18.95 19.057 19.16 19.292 19.412 19.485 19.572 19.66 19.747 19.86 19.967 20.075 20.207 20.335 20.47 20.597 20.732 20.852 20.98 21.092 21.195 21.28 21.342 21.437 21.542 21.612 21.67 21.727 21.84 21.93 22.007 22.1 22.187 22.25 22.362 22.452 22.535 22.62 22.677 22.762 22.855 22.912 23.012 23.08 23.145 23.225 23.3 23.365 23.48 23.57 23.617 23.705 23.795 23.91 24.445 24.275 24.45 24.2 24.267 25.595 24.827 24.207 24.142 24.16 24.142 24.582 25.76 25.27 24.895 24.737 25.005 24.815 24.772 25.65 25.885 24.72 24.307 24.332 24.322 24.33 24.35 24.35 24.395 24.395 24.385 24.41 24.425 24.412 24.422 24.395 24.422 24.42 24.427 24.44 24.425 24.417 24.447 24.452 24.44 24.462 24.487 24.497 24.527 24.542 24.592 24.632 24.642 24.69 24.73 24.775 24.8 24.802 24.85 24.895 24.89 24.937 24.967 24.99 25.037 25.08 25.13 25.132 25.182 25.23 25.275 25.317 25.352 25.405 25.472 25.507 25.565 25.63 25.695 25.752 25.802 25.852 25.91 25.95 26.03 26.09 26.182 26.267 26.335 26.415 26.487 26.55 26.622 26.687 26.74 26.78 26.822 26.88 26.94 27.017 27.095 27.167 27.2 27.26 27.327 27.38 27.407 27.46 27.505 27.52 27.582 27.617 27.652 27.71 27.75 27.805 27.84 27.872 27.902 27.92 27.93 27.945 27.962 27.975 28.01 27.98 27.977 27.94 27.955 27.942 27.91 27.902 27.87 27.865 27.822 27.81 27.755 27.747 27.7 27.64 27.577 28.452 28.86 27.337 27.237 27.337 27.222 27.11 27.007 26.957 26.872 26.8 26.735 26.637 26.567 26.472 26.395 26.327 26.217 26.21 26.092 25.967 25.85 25.797 25.835 25.597 25.502 25.45 25.285 25.177 25.075 25.15 24.977 24.81 24.7 24.615 24.5 24.41 24.297 24.207 24.14 23.995 23.852 23.837 23.992 23.585 23.727 23.352 23.237 23.13 23.005 22.947 22.89 22.76 22.61 22.53 22.427 22.34 22.287 22.22 22.112 22.042 21.917 21.782 21.707 21.637 21.527 21.48 21.395 21.487 21.135 21.062 20.882 20.765 21.187 21.362 20.522 20.315 20.167 20.1 20.037 20.005 19.937 19.905 19.85 19.867 19.86 19.78 19.71 19.65 19.567 19.485 19.472 19.462 19.4 21.245 21.757 21.232 28.097 27.325 26.227 24.46 27.367 25.482 25.672 32.372 25.905 23.217 32.357 24.96 22.53 29.87 30.42 25.842 20.93 28.447 25.66 27.45 30.342 30.262 24.747 28.17 28.767 19.545 19.647 25.455 17.772 19.682 17.362 18.677 18.572 19.277 26.62 23.482 28.992 22.21 21.482 20.085 25.79 20.762 22.817 16.95 17.007 23.4 19.04 16.955 16.912 19.29 23.567 17.255 16.977 21.057 22.25 16.832 16.397 16.995 17.075 17.092 17.262 17.142 17.095 17.09 18.385 17.187 17.362 18.472 17.687 19.727 18.025 18.572 18.802 18.765 18.08 18.005 17.962 18.03 21.4 18.377 21.74 32.367 31.76 33.21 34.522 30.802 20.235 25.792 36.275 31.467 26.755 29.495 28.295 31.707 32.757 36.655 30.717 27.392 33.965 32.302 23.36 22.072 20.457 20.58 23.31 31.71 32.842 22.627 26.302 37.752 40.37 35.865 32.355 31.525 30.975 35.917
18.192 18.06 17.895 17.727 17.58 17.457 17.38 17.345 17.335 17.277 17.245 17.36 19.405 19.462 16.722 16.957 17.902 18.32 18.69 18.95 19.007 19.242 19.43 19.462 19.342 19.232 19.232 20.745 20.865 20.972 18.912 18.87 18.975 19.102 19.18 19.28 19.375 19.457 19.552 19.655 19.732 19.842 19.967 20.092 20.177 20.317 20.442 20.597 20.727 20.862 20.962 21.077 21.182 21.27 21.36 21.45 21.507 21.572 21.665 21.735 21.827 21.922 21.985 22.072 22.162 22.245 22.345 22.437 22.51 22.577 22.657 22.742 22.84 22.925 22.977 23.042 23.135 23.217 23.272 23.34 23.417 23.542 23.637 23.74 23.805 23.935 24.247 24.347 24.45 24.925 25.017 24.98 24.572 24.102 24.075 24.065 24.085 24.315 24.4 24.21 24.682 24.362 25.087 25.13 24.935 25.082 25.252 24.685 24.31 24.295 24.305 24.32 24.322 24.347 24.357 24.365 24.37 24.365 24.385 24.395 24.372 24.382 24.392 24.397 24.382 24.417 24.415 24.41 24.435 24.42 24.437 24.445 24.475 24.497 24.522 24.547 24.565 24.602 24.652 24.675 24.722 24.757 24.8 24.812 24.847 24.877 24.897 24.94 24.992 24.99 25.042 25.1 25.125 25.167 25.21 25.257 25.297 25.342 25.372 25.43 25.507 25.527 25.582 25.642 25.69 25.76 25.787 25.857 25.922 25.965 26.047 26.102 26.192 26.262 26.34 26.412 26.477 26.555 26.622 26.652 26.72 26.797 26.835 26.885 26.942 27.027 27.087 27.167 27.21 27.267 27.327 27.377 27.39 27.442 27.5 27.517 27.56 27.62 27.66 27.675 27.742 27.785 27.822 27.847 27.87 27.895 27.895 27.91 27.925 27.95 27.952 27.947 27.947 27.945 27.937 27.912 27.885 27.865 27.837 27.832 27.82 27.792 27.75 27.745 27.697 27.632 27.722 28.947 28.237 27.225 27.255 27.255 27.175 27.087 26.995 26.952 26.877 26.777 26.74 26.66 26.545 26.467 26.442 26.315 26.232 26.127 26.067 25.945 25.85 25.77 25.737 25.607 25.505 25.492 25.28 25.19 25.135 25.007 24.92 24.79 24.702 24.597 24.542 24.387 24.302 24.24 24.107 24.02 23.892 23.957 24.227 23.752 23.525 23.382 23.255 23.287 23.102 22.962 22.882 22.852 22.667 22.595 22.495 22.395 22.335 22.25 22.217 22.1 21.957 21.832 21.732 21.677 21.657 21.51 21.522 21.295 21.2 21.035 20.942 20.86 21.19 20.715 20.502 20.335 20.202 20.21 20.137 20.157 19.98 19.91 19.89 20.017 19.84 19.7 19.71 19.682 19.557 19.492 19.502 19.75 19.935 23.23 22.377 26.602 29.237 26.747 24.127 26.047 18.945 23.087 25.845 25.122 27.135 26.725 32.25 25.187 20.895 27.007 29.185 31.417 30.585 31.52 25.702 19.605 20.275 29.747 25.857 28.135 24.792 17.605 19.845 17.64 20.377 17.372 18.262 24.1 19.797 22.662 27.01 22.9 26.685 18.932 20.767 20.877 25.845 26.455 26.86 18.78 17.035 20.792 18.11 17.402 18.772 18.76 19.14 19.495 17.532 22.752 25.065 18.025 16.415 16.975 17.085 17.097 17.05 17.04 17.135 17.185 17.172 17.245 18.835 26.52 18.665 18.162 17.77 18.357 18.747 19.517 18.362 17.955 17.99 17.932 19.765 19.577 26.93 34.09 36.65 32.362 32.867 27.512 24.775 23.837 35.695 33.59 20.455 24.982 34.477 36.075 31.33 36.375 33.765 28.355 36.09 38.247 36.93 34.82 23.145 22.467 32.297 33.967 35.357 35.82 23.89 31.985 34.692 21.547 23.895 26.525 30.047 29.6
18.25 18.085 17.905 17.762 17.6 17.472 17.407 17.367 17.362 17.32 17.245 17.375 18.4 17.43 16.705 17.407 18.485 18.717 18.95 19.117 19.362 19.47 19.452 19.265 19.192 19.122 19.6 20.762 20.812 19.122 18.865 18.897 18.985 19.072 19.162 19.262 19.36 19.41 19.5 19.61 19.74 19.85 19.942 20.067 20.162 20.33 20.462 20.602 20.73 20.84 20.96 21.077 21.182 21.28 21.377 21.435 21.492 21.555 21.637 21.707 21.795 21.882 21.972 22.062 22.157 22.237 22.332 22.405 22.487 22.552 22.642 22.732 22.825 22.885 22.975 23.052 23.12 23.207 23.242 23.352 23.405 23.517 23.657 23.73 23.75 24.035 24.65 25.007 24.215 24.54 24.69 25.007 24.777 24.005 23.992 23.99 24.015 24.415 24.292 24.277 24.212 24.18 24.177 24.397 24.765 24.95 25.167 24.852 24.292 24.275 24.27 24.277 24.305 24.32 24.315 24.307 24.312 24.345 24.357 24.34 24.335 24.327 24.352 24.327 24.375 24.365 24.38 24.4 24.402 24.415 24.405 24.44 24.475 24.482 24.505 24.562 24.577 24.615 24.647 24.687 24.722 24.775 24.805 24.84 24.86 24.88 24.905 24.94 24.992 25.02 25.07 25.097 25.132 25.18 25.225 25.27 25.31 25.345 25.395 25.45 25.52 25.535 25.587 25.645 25.72 25.777 25.847 25.885 25.935 25.992 26.047 26.12 26.192 26.262 26.362 26.437 26.5 26.552 26.617 26.66 26.725 26.777 26.84 26.912 26.982 27.05 27.095 27.177 27.192 27.262 27.32 27.36 27.407 27.44 27.477 27.515 27.582 27.6 27.645 27.695 27.755 27.8 27.85 27.852 27.867 27.877 27.892 27.915 27.92 27.93 27.937 27.93 27.917 27.907 27.897 27.885 27.87 27.845 27.822 27.8 27.792 27.765 27.76 27.72 27.682 27.62 28.365 29.227 27.655 27.237 27.255 27.197 27.125 27.032 26.932 26.875 26.787 26.697 26.645 26.585 26.497 26.405 26.337 26.25 26.122 26.085 25.995 25.902 25.857 25.817 25.717 25.612 25.512 25.437 25.317 25.21 25.092 24.987 24.877 24.815 24.737 24.667 24.57 24.387 24.29 24.2 24.14 24.002 23.907 24.257 23.877 23.65 23.52 23.402 23.397 23.217 23.117 23.02 22.932 22.85 22.725 22.64 22.552 22.417 22.332 22.257 22.177 22.14 21.975 21.865 21.842 21.702 21.575 21.482 21.445 21.315 21.242 21.65 20.967 20.84 20.867 20.625 20.49 20.335 20.292 20.35 20.17 20.13 20.05 19.995 19.94 19.965 19.8 19.722 19.725 19.682 19.587 19.557 19.55 19.492 20.31 22.902 23.102 25.255 21.337 19.892 20.702 25.507 20.312 28.67 20.877 25.35 25.282 31.772 28.377 22.22 18.74 22.177 20.602 26.375 18.027 22.337 21.722 26.652 24.325 26.095 25.22 19.727 19.31 17.552 17.69 20.857 19.965 17.445 18.427 19.295 17.397 22.602 21.16 18.927 24.997 20.525 17.447 20.86 24.775 27.382 27.17 19.767 16.98 16.98 17.17 17.922 17.527 18.55 17.587 17.382 17.007 19.532 22.6 20.412 16.387 17.022 17.055 17.032 17.267 17.015 17.137 17.097 17.112 17.245 17.382 17.457 17.632 18.625 18.422 17.995 18.462 19.622 18.722 18.037 17.987 17.932 18.495 21.627 20.447 26.412 34.867 33.135 27.69 21.625 22.667 19.437 19.84 23.27 29.765 33.855 36.362 34.012 33.68 34.987 25.845 36.23 37.832 37.742 39.11 39.087 33.352 31.165 26.75 36.507 39.662 40.222 32.635 25.065 24.07 22.16 21.385 25.265 32.167 27.41
18.242 18.082 17.922 17.762 17.602 17.467 17.447 17.567 17.702 17.617 17.37 17.287 17.48 17.922 18.27 18.722 18.955 19.037 19.195 19.425 19.48 19.437 19.22 19.082 18.892 19.005 20.37 20.88 18.727 18.817 18.895 18.915 18.977 19.075 19.155 19.265 19.357 19.42 19.495 19.615 19.722 19.832 19.94 20.055 20.17 20.327 20.46 20.58 20.722 20.827 20.932 21.075 21.185 21.287 21.352 21.407 21.48 21.542 21.637 21.685 21.772 21.877 21.967 22.055 22.132 22.212 22.3 22.37 22.45 22.537 22.632 22.707 22.805 22.887 22.975 23.047 23.11 23.19 23.26 23.317 23.407 23.487 23.617 23.695 23.725 24.11 24.565 25.187 24.482 25.267 25.157 25.505 24.435 23.96 23.905 23.915 23.955 25.015 24.632 24.47 24.9 24.132 24.132 24.532 24.885 25.277 25.367 25.102 24.235 24.23 24.232 24.25 24.282 24.287 24.287 24.255 24.265 24.285 24.285 24.29 24.31 24.305 24.305 24.325 24.332 24.347 24.357 24.377 24.377 24.382 24.395 24.437 24.465 24.505 24.522 24.555 24.607 24.627 24.65 24.702 24.74 24.762 24.787 24.842 24.857 24.887 24.907 24.955 24.992 25.017 25.082 25.115 25.15 25.177 25.23 25.29 25.325 25.37 25.432 25.47 25.54 25.572 25.622 25.69 25.762 25.82 25.862 25.917 25.967 26.005 26.062 26.127 26.23 26.287 26.367 26.462 26.525 26.58 26.625 26.697 26.767 26.82 26.882 26.92 27.002 27.067 27.127 27.192 27.202 27.295 27.325 27.365 27.405 27.455 27.477 27.525 27.575 27.612 27.655 27.7 27.755 27.792 27.817 27.812 27.832 27.842 27.88 27.877 27.89 27.907 27.902 27.915 27.89 27.872 27.86 27.847 27.832 27.797 27.77 27.772 27.787 27.765 27.742 27.705 27.665 27.795 29.217 28.387 27.285 27.267 27.23 27.177 27.085 26.992 26.92 26.82 26.762 26.687 26.617 26.525 26.477 26.382 26.32 26.15 26.11 26.012 25.907 25.837 25.872 25.722 25.632 25.66 25.48 25.38 25.287 25.337 25.077 25.017 24.9 24.812 24.775 24.635 24.535 24.425 24.335 24.232 24.132 24.027 23.96 23.937 23.82 23.652 23.63 23.5 23.335 23.19 23.1 23.017 22.935 22.847 22.74 22.622 22.527 22.39 22.305 22.315 22.252 22.162 21.992 21.917 21.885 21.785 21.625 21.697 21.412 21.585 21.23 21.147 20.952 20.887 20.737 20.645 20.497 20.39 20.4 20.262 20.207 20.185 20.107 20.047 20.06 19.912 19.85 19.792 19.73 19.645 19.605 19.577 19.742 19.472 22.285 20.677 26.502 23.64 21.972 22.287 21.337 19.27 18.785 24.107 22.677 19.637 29.207 31.362 26.75 20.362 18.322 20.125 22.82 25.465 23.517 21.235 18.587 21.975 18.657 24.522 28.947 20.58 22.03 20.765 18.722 26.42 27.472 22.577 24.257 24.912 17.972 17.345 18.942 18.307 21.052 20.107 18.887 22.582 27.547 24.357 22.96 18.345 17.04 17.06 17.06 17.077 17.822 23.39 19.637 23.705 21.012 17.112 16.742 16.862 16.27 17.032 17.042 17.165 17.017 17.115 16.952 17.042 17.312 17.59 17.31 17.467 18.027 17.972 18.302 17.925 18.185 18.915 18.877 18.137 18.01 18 18.215 20.21 19.715 19.165 25.677 33.137 30.897 32.19 36.94 21.472 30.88 33.922 37.432 36.14 35.84 27.02 26.107 25.36 25.447 35.282 38.645 36.635 38.007 36.822 31.192 24.487 20.617 27.292 32.5 34.53 34.772 29.485 21.805 26.38 24.035 32.887 37.722 34.905
18.265 18.1 17.95 17.77 17.61 17.495 17.51 17.49 17.715 17.56 17.372 17.647 18.197 18.632 18.84 18.972 19.167 19.332 19.532 19.525 19.382 19.237 20.205 21.232 20.522 20.617 20.482 18.905 18.862 18.87 18.897 18.94 18.995 19.067 19.16 19.245 19.32 19.405 19.505 19.622 19.72 19.825 19.947 20.075 20.19 20.32 20.412 20.56 20.687 20.812 20.922 21.072 21.197 21.255 21.332 21.412 21.472 21.547 21.63 21.667 21.762 21.87 21.952 22.035 22.117 22.182 22.275 22.347 22.45 22.525 22.622 22.707 22.785 22.875 22.952 23.035 23.095 23.185 23.252 23.295 23.365 23.46 23.57 23.652 23.75 24.035 24.067 24.052 23.972 23.975 24.012 24.062 24.157 24.142 23.85 23.85 23.94 24.18 24.117 24.11 24.97 24.055 24.075 24.52 25.172 25.322 25.39 25.472 24.2 24.202 24.207 24.21 24.212 24.242 24.225 24.225 24.225 24.257 24.242 24.23 24.227 24.27 24.285 24.297 24.282 24.292 24.325 24.335 24.357 24.37 24.395 24.44 24.47 24.495 24.535 24.557 24.605 24.645 24.677 24.722 24.737 24.77 24.802 24.827 24.865 24.885 24.925 24.972 25.007 25.05 25.09 25.132 25.18 25.2 25.24 25.285 25.362 25.407 25.445 25.492 25.545 25.6 25.67 25.717 25.782 25.847 25.875 25.932 25.987 26.04 26.105 26.155 26.247 26.312 26.412 26.47 26.54 26.605 26.645 26.717 26.775 26.812 26.877 26.952 27.022 27.087 27.137 27.19 27.217 27.257 27.307 27.355 27.38 27.442 27.47 27.517 27.565 27.607 27.667 27.69 27.725 27.765 27.77 27.782 27.792 27.817 27.857 27.85 27.872 27.867 27.857 27.85 27.855 27.855 27.822 27.812 27.78 27.76 27.752 27.75 27.755 27.76 27.705 27.672 27.647 28.257 29.23 27.395 27.26 27.315 27.267 27.15 27.072 26.985 26.91 26.82 26.77 26.687 26.59 26.512 26.422 26.31 26.232 26.13 26.035 25.975 25.832 25.782 25.825 25.662 25.552 25.482 25.397 25.352 25.222 25.122 25.017 24.94 24.855 24.772 24.692 24.62 24.515 24.405 24.295 24.22 24.152 24.055 23.962 23.867 23.765 23.7 23.702 23.63 23.317 23.2 23.082 23.007 22.947 22.855 22.757 22.6 22.515 22.39 22.317 22.252 22.197 22.087 21.98 21.875 21.842 21.827 21.742 21.527 21.415 21.282 21.177 21.142 21.005 20.842 20.727 20.647 20.54 20.44 20.342 20.297 20.23 20.217 20.132 20.095 20.012 19.972 19.885 19.785 19.77 19.77 19.63 19.767 19.66 20.1 20.465 19.232 25.122 26.547 21.24 25.105 20.81 20.997 19.042 18.65 18.657 18.587 18.592 22.15 24.085 23.25 18.26 19.24 20.392 21.472 27.262 24.83 20.102 17.907 17.852 18.46 26.005 21.695 20.797 28.582 19.692 25.515 26.812 24.805 19.32 17.477 17.37 17.532 24.027 23.892 21.072 24.702 22.17 24.55 27.93 24.217 18.97 17.17 17.107 17.09 18.425 17.207 17.655 22.96 24.66 28.092 21.905 17.142 16.862 17.065 16.607 17.26 17.047 16.975 17.162 16.932 16.977 17.03 17.145 17.505 17.345 17.4 17.85 18.36 17.552 17.637 18.067 18.842 19.84 18.467 18.022 18.042 17.975 18.897 20.092 21.165 27.96 32.305 32.712 35.602 36.485 20.595 19.287 31.682 35.262 35.875 31.645 31.827 32.622 28.177 26.412 36.317 35.945 33.25 26.652 26.872 35.737 29.51 20.565 27.53 26.392 28.64 35.365 30.272 22.465 22.76 21.94 25.412 35.85 37.915
18.257 18.132 18.007 17.842 17.65 17.582 17.545 17.635 17.745 17.82 18.07 18.515 18.925 19.082 19.077 19.167 19.425 19.575 19.577 19.325 19.052 19.685 21.587 21.84 21.72 18.92 18.79 18.892 18.922 18.907 18.892 18.955 19 19.09 19.142 19.245 19.337 19.417 19.51 19.622 19.72 19.82 19.945 20.06 20.172 20.295 20.397 20.552 20.665 20.797 20.93 21.027 21.115 21.205 21.3 21.395 21.462 21.537 21.622 21.67 21.762 21.872 21.935 22.017 22.082 22.155 22.232 22.302 22.425 22.5 22.615 22.702 22.755 22.827 22.945 23.005 23.095 23.16 23.215 23.267 23.34 23.427 23.502 23.615 23.725 24.022 24.045 23.967 23.94 23.92 23.89 23.895 24.365 24.582 23.82 23.792 23.892 24.697 24.362 23.98 24.015 23.992 24.017 24.665 25.06 25.335 25.29 25.32 24.16 24.162 24.152 24.16 24.175 24.19 24.177 24.162 24.185 24.175 24.19 24.192 24.222 24.23 24.252 24.262 24.26 24.305 24.292 24.325 24.352 24.367 24.4 24.437 24.475 24.522 24.55 24.6 24.637 24.657 24.7 24.705 24.745 24.785 24.83 24.845 24.872 24.902 24.927 24.977 25.005 25.052 25.085 25.142 25.172 25.227 25.275 25.32 25.362 25.432 25.462 25.505 25.57 25.607 25.665 25.742 25.777 25.842 25.875 25.935 25.995 26.062 26.11 26.155 26.257 26.317 26.4 26.467 26.542 26.6 26.652 26.697 26.77 26.815 26.877 26.957 27.002 27.075 27.13 27.175 27.205 27.25 27.282 27.335 27.367 27.387 27.447 27.502 27.535 27.59 27.622 27.65 27.707 27.732 27.732 27.752 27.775 27.772 27.807 27.822 27.82 27.817 27.81 27.815 27.817 27.792 27.792 27.782 27.765 27.735 27.727 27.74 27.727 27.71 27.692 27.682 27.785 29.125 28.235 27.322 27.257 27.25 27.232 27.145 27.027 26.975 26.89 26.812 26.72 26.675 26.607 26.485 26.377 26.325 26.177 26.097 26.05 25.947 25.822 25.767 25.737 25.645 25.555 25.47 25.412 25.302 25.205 25.07 24.972 24.895 24.865 24.755 24.71 24.652 24.492 24.38 24.285 24.23 24.12 24.037 23.932 23.837 23.77 23.63 23.5 23.422 23.282 23.175 23.13 23.01 22.937 22.802 22.745 22.61 22.73 22.405 22.347 22.282 22.18 22.082 21.955 21.845 21.91 21.75 21.635 21.48 21.385 21.72 21.31 21.247 20.96 20.88 20.827 20.63 20.547 20.49 20.37 20.285 20.217 20.177 20.125 20.085 19.98 19.94 19.892 19.787 19.697 19.662 19.627 19.92 19.522 20.547 20.127 20.2 22.78 29.992 24.56 19.395 22.257 21.877 19.065 18.59 18.642 18.612 20.685 21.92 19.212 21.037 22.047 21.287 23.677 19.26 18.655 22.627 21.885 18.152 17.995 17.8 20.532 24.035 26.1 26.845 18.727 18.912 21.187 18.785 17.432 17.407 18.357 20.895 25.4 26.275 22.297 22.857 18.672 19.67 24.915 21.107 18.695 17.162 17.35 17.617 21.807 21.432 20.455 23.545 17.17 17.782 18.557 20.917 18.77 17.6 17.592 17.262 17.075 16.915 16.907 16.922 16.96 17.002 17.192 17.702 17.317 17.412 17.91 20.745 17.587 17.67 17.96 18.462 19.17 18.652 18.082 18.055 18.027 21.235 22.472 26.752 34.217 34.815 34.242 20.912 26.897 26.86 21.277 21.765 34.942 35.817 36.397 32.46 37.09 34.347 22.045 30.862 28.672 23.745 30.962 37.27 27.93 20.53 25.58 25.525 23.212 23.132 31.51 31.575 22.072 22.717 21.512 22.202 30.215 37.972
18.27 18.15 18.032 17.827 17.71 17.597 18.195 17.88 17.96 18.412 18.77 18.955 19.085 19.202 19.262 19.537 19.582 19.592 18.935 18.332 19.09 19.65 21.11 19.925 19.29 18.755 18.847 18.912 18.925 18.895 18.91 18.952 19.012 19.097 19.162 19.235 19.34 19.422 19.5 19.61 19.72 19.847 19.942 20.057 20.147 20.275 20.38 20.507 20.64 20.792 20.89 20.992 21.08 21.195 21.247 21.327 21.42 21.502 21.585 21.675 21.77 21.812 21.872 21.977 22.06 22.137 22.212 22.27 22.372 22.477 22.562 22.627 22.707 22.785 22.892 22.955 23.032 23.085 23.207 23.277 23.305 23.342 23.445 23.507 23.645 24.045 24.547 24.33 24.25 23.967 23.852 23.895 24.112 24.01 23.76 23.74 23.86 24.475 24.482 23.927 23.922 23.937 23.965 24.84 24.737 25.077 25.25 24.897 24.12 24.097 24.1 24.132 24.125 24.13 24.14 24.125 24.142 24.16 24.155 24.145 24.167 24.182 24.2 24.207 24.245 24.265 24.272 24.292 24.33 24.355 24.387 24.437 24.46 24.5 24.535 24.59 24.63 24.655 24.68 24.705 24.747 24.767 24.815 24.84 24.867 24.9 24.93 24.962 25.012 25.06 25.095 25.152 25.18 25.22 25.267 25.342 25.387 25.43 25.462 25.525 25.575 25.605 25.675 25.742 25.792 25.845 25.885 25.94 25.992 26.037 26.102 26.177 26.232 26.32 26.4 26.46 26.522 26.59 26.65 26.682 26.765 26.81 26.872 26.925 26.99 27.047 27.105 27.147 27.177 27.227 27.267 27.312 27.337 27.385 27.422 27.472 27.515 27.557 27.57 27.617 27.687 27.687 27.717 27.745 27.762 27.757 27.757 27.77 27.797 27.795 27.792 27.802 27.797 27.79 27.785 27.777 27.74 27.717 27.715 27.727 27.74 27.725 27.68 27.66 28.407 29.22 27.535 27.282 27.295 27.307 27.255 27.195 27.062 26.972 26.892 26.785 26.76 26.705 26.607 26.505 26.405 26.317 26.215 26.137 26.067 25.945 25.865 25.792 25.682 25.655 25.572 25.492 25.36 25.332 25.207 25.207 24.992 24.94 24.817 24.735 24.675 24.552 24.472 24.38 24.292 24.22 24.125 24.022 23.92 23.842 23.735 23.622 23.54 23.41 23.282 23.185 23.102 23.015 22.917 22.795 22.72 22.61 22.52 22.42 22.332 22.27 22.165 22.037 21.925 21.872 21.81 21.687 21.582 21.49 21.372 21.257 21.17 21.1 21.04 20.892 20.765 20.66 20.62 20.465 20.382 20.3 20.245 20.17 20.102 20.035 19.967 19.907 19.837 19.8 19.712 19.655 19.64 19.665 19.705 20.452 21.76 27.487 23.3 30.202 24.662 19.95 21.93 18.852 26.89 23.957 18.66 18.457 18.317 20.57 25.18 25.777 19.612 26.167 20.59 21.747 21.095 17.935 17.84 18.345 18.087 18.74 22.185 17.955 23.262 23.235 17.527 17.757 20.51 21.627 17.542 17.455 18.307 21.61 24.522 24.597 21.885 19.04 17.537 19.567 21.93 22.74 24.62 23.362 23.457 21.89 26.345 19.495 17.125 17.097 20.675 20.187 17.625 23.5 17.122 17.31 17.317 17.15 17.145 16.995 16.905 16.992 16.89 17.087 17.037 17.262 17.28 17.385 17.492 17.62 17.745 17.635 17.985 18.325 19.595 18.907 18.155 18.095 18.037 19.405 21.952 27.187 32.872 34.315 30.58 24.192 21.7 32.887 33.435 27.255 35.637 31.965 36.08 33.882 35.915 28.955 21.642 28.065 31.39 31.02 37.467 24.397 20.905 23.982 22.355 20.697 21.28 23.535 24.355 31.857 21.165 29.505 26.987 21.32 23.595 25.25
18.302 18.18 18 17.822 18.315 18.152 17.942 18.2 18.69 18.98 19.105 19.14 19.197 19.415 19.605 19.602 19.5 19.087 16.89 17.21 18.025 20.145 20.235 18.442 18.66 18.757 18.832 18.862 18.865 18.87 18.882 18.93 19.005 19.07 19.155 19.255 19.345 19.422 19.51 19.612 19.715 19.83 19.942 20.06 20.142 20.222 20.322 20.472 20.605 20.715 20.822 20.925 21.037 21.132 21.207 21.302 21.375 21.465 21.59 21.655 21.75 21.782 21.82 21.907 22 22.08 22.155 22.237 22.335 22.412 22.507 22.592 22.662 22.74 22.81 22.86 23.007 23.065 23.142 23.265 23.412 23.27 23.337 23.435 23.555 24.007 24.407 24.532 24.38 23.99 23.827 23.83 23.992 23.887 23.672 23.662 23.797 24.077 24.095 23.867 23.857 23.95 23.93 24.575 24.695 25.102 25.185 24.82 24.09 24.037 24.035 24.045 24.062 24.09 24.08 24.047 24.08 24.112 24.097 24.11 24.095 24.127 24.167 24.172 24.217 24.222 24.232 24.282 24.315 24.34 24.39 24.42 24.45 24.5 24.53 24.582 24.632 24.64 24.675 24.702 24.742 24.78 24.812 24.845 24.867 24.902 24.912 24.98 25.025 25.057 25.117 25.142 25.19 25.227 25.27 25.34 25.392 25.43 25.48 25.537 25.59 25.637 25.692 25.745 25.815 25.852 25.882 25.96 26.012 26.065 26.125 26.172 26.225 26.302 26.39 26.45 26.505 26.572 26.625 26.687 26.74 26.815 26.867 26.922 26.99 27.04 27.102 27.147 27.185 27.247 27.26 27.307 27.337 27.385 27.415 27.47 27.497 27.567 27.592 27.637 27.682 27.69 27.69 27.71 27.737 27.747 27.76 27.772 27.762 27.78 27.78 27.802 27.802 27.782 27.765 27.732 27.737 27.71 27.707 27.707 27.737 27.727 27.715 27.8 29.282 28.645 27.367 27.3 27.34 27.352 27.282 27.195 27.072 26.972 26.907 26.802 26.752 26.677 26.585 26.49 26.407 26.312 26.247 26.17 26.072 25.95 25.862 25.845 25.757 25.687 25.565 25.665 25.512 25.325 25.24 25.167 25.027 24.952 25.21 24.777 24.675 24.582 24.475 24.407 24.335 24.202 24.242 24.102 23.91 23.857 23.697 23.6 23.52 23.417 23.255 23.187 23.095 22.982 22.895 22.787 22.702 22.642 22.497 22.422 22.34 22.267 22.182 22.065 21.945 21.805 21.757 21.662 21.605 21.55 21.362 21.285 21.252 21.132 21.01 20.867 20.742 20.637 20.597 20.43 20.382 20.275 20.227 20.192 20.077 20.027 19.927 19.885 19.8 19.78 19.732 19.667 19.74 19.557 19.91 20.687 20.912 24.62 19.232 22.93 20.77 27.06 28.59 20.807 30.197 29.63 25.245 18.777 18.387 18.455 18.352 20.895 18.752 18.347 20.155 18.645 18.377 20.052 18.192 17.91 17.945 18.787 25.882 25.075 18.802 17.765 17.602 17.547 17.5 18.36 25.132 23.292 22.705 27.26 26.11 20.135 21.605 24.625 21.737 17.372 17.477 22.882 25.027 24.85 24.572 22.707 20.482 20.18 17.047 17.285 23.235 22.91 18.097 17.51 17.425 17.25 16.68 17.075 17.08 16.967 17.022 16.997 16.922 16.91 16.965 17.165 17.262 17.475 17.64 17.755 17.795 18.582 18.142 18.255 19.592 19.195 18.377 18.072 18.067 17.97 19.592 24.98 32.495 36.592 36.452 37.245 29.635 34.802 35.792 35.75 35.837 34.922 36.695 36.132 34.027 35.41 35.235 28.37 29.75 24.417 27.542 20.415 22.51 32.992 34.302 25.535 21.305 29.24 27.535 21.177 25.247 23.257 22.66 21.352 21.42 21.9
18.35 18.195 18.047 17.962 18.102 19.027 18.545 18.91 19.17 19.197 19.21 19.297 19.475 19.615 19.632 19.452 18.992 18.492 17.19 16.785 17.882 19.76 18.785 18.675 18.78 18.782 18.782 18.832 18.85 18.867 18.87 18.912 18.977 19.092 19.187 19.275 19.347 19.427 19.52 19.627 19.72 19.812 19.94 20.017 20.097 20.195 20.305 20.432 20.567 20.627 20.75 20.865 20.967 21.057 21.145 21.255 21.34 21.427 21.535 21.592 21.682 21.732 21.772 21.855 21.94 22.01 22.105 22.182 22.277 22.342 22.437 22.53 22.595 22.657 22.737 22.85 22.895 22.99 23.077 23.137 23.137 23.17 23.225 23.32 23.432 23.635 23.7 23.707 23.682 23.71 23.732 23.712 23.702 23.627 23.565 23.585 23.847 24.59 24.045 23.805 23.867 25.715 23.892 24.32 24.537 25.065 25.145 24.385 23.972 23.965 23.962 24.02 24.027 24.015 23.995 23.997 24.007 24.035 24.04 24.045 24.057 24.08 24.1 24.147 24.162 24.19 24.202 24.25 24.29 24.317 24.345 24.39 24.422 24.477 24.512 24.555 24.597 24.645 24.66 24.72 24.742 24.77 24.807 24.84 24.867 24.885 24.942 24.977 25.017 25.065 25.125 25.152 25.205 25.222 25.297 25.35 25.397 25.447 25.49 25.552 25.61 25.66 25.705 25.765 25.812 25.872 25.902 25.962 26.017 26.067 26.135 26.19 26.242 26.31 26.382 26.46 26.52 26.572 26.635 26.695 26.742 26.817 26.877 26.932 26.975 27.022 27.095 27.14 27.187 27.227 27.255 27.312 27.337 27.367 27.422 27.455 27.482 27.532 27.565 27.61 27.652 27.655 27.667 27.685 27.702 27.71 27.74 27.747 27.732 27.757 27.77 27.772 27.807 27.765 27.75 27.722 27.717 27.702 27.687 27.685 27.727 27.715 27.69 28.245 29.432 27.847 27.352 27.312 27.297 27.287 27.24 27.147 27.062 27.015 26.907 26.832 26.765 26.717 26.635 26.565 26.515 26.382 26.362 26.19 26.092 26.005 25.94 26.022 25.792 25.677 25.62 25.592 25.425 25.36 25.287 25.17 25.062 24.97 24.875 24.825 24.657 24.58 24.522 24.422 24.297 24.272 24.6 24.32 23.95 23.862 23.737 23.632 23.502 23.387 23.265 23.195 23.11 22.995 22.89 22.775 22.68 22.752 22.567 22.407 22.317 22.235 22.11 22.04 21.897 21.815 21.747 21.705 21.54 21.527 21.35 21.315 21.26 21.122 21.005 20.87 20.785 20.702 20.627 20.592 20.395 20.302 20.265 20.16 20.157 19.977 19.93 19.895 19.86 19.76 19.755 19.782 19.62 20.855 20.587 19.86 19.765 19.332 20.807 28.377 23.08 18.915 28.787 31.502 29.785 20.955 18.587 19.775 19.102 19.252 18.51 18.475 18.175 18.217 19.907 18.025 17.922 19.567 20.127 17.825 20.092 18.645 18.85 21.127 21.095 17.64 17.697 17.872 20.622 25.257 27.595 26.852 23.062 25.857 23.372 17.477 17.742 22.58 20.985 17.582 17.947 22.542 25.5 20.142 18.202 18.702 18.18 20.002 17.832 17.417 21.797 22.495 24.672 20.165 20.542 17.75 16.507 17.147 17.785 17.39 17.212 17.162 16.957 17.015 17.557 17.232 17.285 23.767 19.53 20.175 19.365 18.232 18.195 18.15 18.817 19.117 18.7 18.065 18.142 18.037 19.335 24.19 30.977 35.195 33.085 33.952 33.235 35.152 36.07 35.782 37.125 37.467 29.995 26.932 31.147 29.8 36.655 34.442 36.95 36.427 32.317 34.517 30.88 28.54 32.955 29.832 22.8 25.675 23.32 21.04 21.262 21.667 25.09 22.505 21.522 23.882
18.385 18.212 18.2 19.16 18.507 18.927 19.192 19.382 19.29 19.285 19.345 19.565 19.617 19.63 19.335 18.952 18.537 18.052 17.507 17.53 18.512 19.512 18.587 18.765 18.792 18.785 18.787 18.807 18.805 18.825 18.842 18.877 18.967 19.097 19.182 19.27 19.33 19.42 19.512 19.61 19.695 19.8 19.91 19.997 20.052 20.182 20.282 20.347 20.482 20.605 20.687 20.802 20.91 21.002 21.105 21.19 21.265 21.387 21.477 21.527 21.585 21.642 21.722 21.81 21.875 21.942 22.035 22.097 22.19 22.29 22.347 22.445 22.535 22.545 22.64 22.745 22.81 22.897 23.007 23.065 23.065 23.085 23.132 23.222 23.385 23.567 23.785 23.872 23.635 23.63 23.665 23.65 23.595 23.515 23.492 23.577 24.075 26.457 25.177 23.762 24.035 26 23.945 24.442 24.437 25.032 25.042 24.297 23.98 23.907 23.93 23.892 23.922 23.892 23.922 23.915 23.947 23.955 23.992 24.01 24.01 24.037 24.087 24.117 24.14 24.16 24.18 24.232 24.255 24.29 24.347 24.395 24.43 24.452 24.512 24.545 24.602 24.63 24.662 24.725 24.742 24.782 24.81 24.852 24.885 24.892 24.935 24.957 25.017 25.077 25.11 25.165 25.2 25.255 25.307 25.362 25.427 25.445 25.512 25.54 25.602 25.672 25.717 25.765 25.802 25.867 25.917 25.977 26.02 26.087 26.14 26.182 26.255 26.305 26.375 26.44 26.505 26.57 26.642 26.702 26.75 26.807 26.862 26.922 26.977 27.027 27.057 27.12 27.165 27.222 27.245 27.285 27.302 27.345 27.397 27.43 27.472 27.49 27.555 27.595 27.63 27.642 27.655 27.642 27.635 27.677 27.707 27.742 27.73 27.747 27.762 27.775 27.767 27.75 27.737 27.72 27.71 27.675 27.672 27.692 27.717 27.702 27.657 28.95 28.99 27.465 27.352 27.325 27.307 27.247 27.177 27.082 27.035 26.96 26.86 26.82 26.777 26.667 26.582 26.51 26.44 26.327 26.215 26.195 26.102 26.03 26.005 25.972 25.857 25.72 25.635 25.565 25.485 25.385 25.32 25.37 25.125 25.022 24.942 24.85 24.732 24.652 24.552 24.477 24.38 24.275 24.265 24.102 23.965 23.885 23.765 23.642 23.522 23.427 23.325 23.227 23.115 23.002 22.9 22.957 22.662 22.722 22.737 22.605 22.29 22.192 22.1 22.007 21.915 21.852 21.755 21.605 21.542 21.425 21.382 21.455 21.227 21.08 20.957 20.85 20.79 20.682 20.6 20.467 20.365 20.307 20.232 20.152 20.105 20.01 19.937 19.86 19.82 19.757 19.69 19.835 20.58 21.86 21.15 21.497 23.067 19.582 19.075 26.445 24.335 18.815 22.857 32.112 23.692 19.427 18.525 26.575 18.557 23.975 22.192 18.587 18.122 20.632 18.462 18.06 17.942 18.38 18.972 20.095 28 25.147 18.315 24.732 22.955 20.037 20.54 17.567 20.577 23.732 22.125 22.57 22.302 18.305 17.33 19.432 18.027 19.212 18.452 23.752 26.365 19.25 20.27 18.697 16.975 17.137 24.2 25.442 19.455 18.085 17.017 17.667 22.137 22.53 23.577 25.045 16.415 17.152 17.297 17.075 17.057 17.457 17.215 17.045 17.067 17.15 17.75 23.485 19.457 17.53 21.547 18.337 17.962 18.072 18.597 19.282 18.957 18.267 18.122 18.14 18.722 20.237 22.96 22.357 22.74 32.86 33.47 31.732 28.915 28.682 30.955 31.31 29.072 26.1 31.862 20.337 22.372 29.99 32.92 36.247 37.795 35.445 26.642 31.342 25.602 22.312 24.75 35.467 31.495 22.767 23.275 22.645 22.837 21.567 21.792 25.4
18.427 18.622 18.477 18.777 19.77 19.522 19.53 19.4 19.325 19.437 19.61 19.622 19.555 19.202 18.765 18.197 18.172 18.71 18.382 19.755 20.402 19.655 18.72 18.795 18.78 18.772 18.757 18.77 18.787 18.772 18.782 18.847 18.967 19.085 19.18 19.227 19.307 19.405 19.502 19.61 19.695 19.787 19.87 19.95 20.042 20.13 20.225 20.305 20.427 20.52 20.617 20.73 20.852 20.947 21.04 21.135 21.227 21.322 21.37 21.42 21.482 21.58 21.635 21.697 21.802 21.865 21.955 22.035 22.12 22.222 22.295 22.41 22.442 22.467 22.575 22.672 22.775 22.84 22.942 22.987 22.98 23 23.082 23.125 23.392 23.817 24.17 24.307 23.777 23.517 23.547 23.55 23.497 23.42 23.43 23.505 23.877 26.205 25.055 23.705 23.72 24.927 23.812 24.262 24.457 24.917 24.86 24.21 24.012 23.877 23.89 23.825 23.827 23.842 23.865 23.875 23.887 23.917 23.95 23.962 23.98 24.027 24.062 24.085 24.095 24.11 24.147 24.195 24.242 24.28 24.31 24.367 24.417 24.45 24.502 24.555 24.595 24.637 24.677 24.717 24.742 24.782 24.812 24.852 24.865 24.877 24.925 24.96 25.03 25.08 25.14 25.182 25.212 25.25 25.315 25.365 25.405 25.465 25.512 25.555 25.615 25.672 25.715 25.78 25.817 25.845 25.927 25.982 26.015 26.07 26.11 26.18 26.225 26.287 26.357 26.422 26.492 26.555 26.61 26.677 26.745 26.8 26.842 26.89 26.957 27.022 27.052 27.1 27.155 27.155 27.205 27.252 27.275 27.322 27.37 27.407 27.445 27.475 27.527 27.58 27.597 27.615 27.627 27.625 27.635 27.65 27.692 27.705 27.705 27.73 27.735 27.745 27.74 27.705 27.71 27.67 27.677 27.647 27.655 27.68 27.715 27.7 27.965 29.297 28.285 27.435 27.37 27.34 27.342 27.31 27.177 27.11 27.095 27.005 26.905 26.792 26.76 26.71 26.56 26.592 26.407 26.31 26.225 26.17 26.097 26.02 25.925 25.897 25.802 25.71 25.63 25.572 25.48 25.415 25.32 25.207 25.105 25.047 24.987 24.902 24.782 24.697 24.59 24.497 24.412 24.38 24.365 24.117 24.047 23.972 23.867 23.675 23.592 23.462 23.402 23.265 23.165 23.025 22.935 22.775 22.702 22.57 22.48 22.49 22.375 22.242 22.117 22.022 21.982 21.887 21.775 21.652 21.557 21.497 21.43 21.312 21.19 21.082 20.937 20.882 20.825 20.737 20.572 20.53 20.412 20.305 20.19 20.12 20.065 19.995 19.925 19.86 19.842 19.757 19.825 19.747 21.252 21.545 19.71 19.597 20.735 19.345 19.425 21.397 19.29 21.392 19.31 25.505 25.707 24.772 27.752 21.62 22.24 20.932 20.865 23.855 18.897 26.84 22.472 18.022 18.26 22 27.655 23.625 20.28 20.202 17.732 22 23.717 19.757 21.477 19.59 19.205 21.21 20.787 19.527 22.22 19.52 18.217 19.492 18.9 20.867 20.387 22.092 20.807 17.072 18.545 17.212 20.485 17.587 23.13 26.192 19.832 17.06 17.17 17.845 19.662 22.72 19.255 21.162 16.612 17.602 17.182 17.092 17.105 17.402 17.232 17.087 17.127 17.265 17.257 20.665 20.1 17.522 17.675 17.937 18.332 18.12 18.56 19.007 19.052 18.462 18.137 18.152 18.135 19.967 21.09 20.477 26.41 28.055 35.07 20.157 26.927 25.635 20.067 22.247 25.112 36.122 37.272 32.15 25.677 36.18 35.835 34.92 34.292 36.797 37.287 37.467 31.472 22.087 29.49 37.8 35.767 35.145 37.215 38.207 34.85 30.14 25.122 25.43
18.56 18.65 19.04 19.527 19.685 19.727 19.475 19.4 19.555 19.65 19.655 19.455 19.06 18.592 18.01 17.437 17.95 19.73 17.532 19.41 20.625 19.105 18.787 18.797 18.77 18.757 18.72 18.69 18.717 18.742 18.74 18.81 18.912 19.047 19.15 19.237 19.31 19.402 19.48 19.595 19.667 19.762 19.82 19.892 20 20.08 20.145 20.25 20.332 20.437 20.552 20.64 20.777 20.867 20.985 21.087 21.15 21.215 21.287 21.32 21.397 21.48 21.552 21.657 21.725 21.807 21.872 21.975 22.07 22.14 22.262 22.35 22.415 22.472 22.555 22.65 22.752 22.835 22.897 22.907 22.92 22.905 22.937 23.04 23.3 23.962 24.34 24.107 23.59 23.435 23.455 23.525 23.465 23.375 23.41 23.495 24.41 24.567 24.215 23.662 23.655 23.685 24.12 24.285 24.41 24.887 24.765 24.312 23.945 23.912 23.89 23.702 23.68 23.712 23.785 23.825 23.877 23.872 23.895 23.907 23.945 23.972 23.995 24.02 24.04 24.087 24.125 24.16 24.207 24.235 24.267 24.335 24.375 24.427 24.46 24.52 24.575 24.622 24.665 24.72 24.762 24.775 24.785 24.82 24.847 24.87 24.935 24.94 25.01 25.065 25.117 25.177 25.222 25.26 25.315 25.36 25.412 25.442 25.512 25.55 25.602 25.652 25.697 25.745 25.807 25.88 25.907 25.977 26.012 26.055 26.095 26.157 26.197 26.26 26.34 26.405 26.455 26.532 26.592 26.655 26.722 26.78 26.83 26.88 26.945 27.005 27.04 27.082 27.117 27.152 27.175 27.222 27.272 27.305 27.345 27.365 27.432 27.485 27.52 27.547 27.565 27.575 27.567 27.59 27.64 27.637 27.685 27.687 27.68 27.69 27.712 27.722 27.71 27.7 27.687 27.652 27.64 27.65 27.655 27.682 27.675 27.657 28.75 29.167 27.552 27.425 27.362 27.417 27.38 27.322 27.222 27.132 27.127 27.032 26.955 26.835 26.79 26.68 26.57 26.497 26.417 26.36 26.212 26.155 26.067 26.04 25.937 25.88 25.815 25.717 25.652 25.54 25.455 25.372 25.33 25.215 25.08 25.022 24.985 24.872 24.772 24.677 24.587 24.502 24.405 24.322 24.25 24.165 24.05 23.93 23.915 23.695 23.617 23.627 23.402 23.27 23.202 23.045 23.137 22.927 22.822 22.655 22.555 22.465 22.37 22.322 22.135 22.02 21.97 21.872 21.752 21.64 21.532 21.492 21.465 21.427 21.232 21.062 20.962 20.882 20.855 20.73 20.68 20.55 20.485 20.367 20.277 20.18 20.075 20.002 19.965 19.915 19.872 19.94 19.755 19.922 21.887 21.392 19.785 19.9 19.3 19.295 19.115 21.157 18.992 19.115 20.975 19.907 23.815 23.105 32.682 26.46 24.742 23.74 20.542 23.912 21.742 22.962 22.747 17.995 22.49 18.91 23.345 25.727 17.892 17.77 17.732 22.305 22.27 19.552 19.207 22.11 22.922 26 21.337 22.467 29.247 22 19.747 24.967 26.395 19.42 19.637 23.917 17.14 20.642 25.097 20.145 26.627 19.965 19.562 24.725 25.687 24.75 17.002 17.085 19.975 22.525 17.725 20.382 17.032 17.367 19.567 18.895 17.082 17.32 17.65 19.987 17.025 18.037 19.167 25.575 22.132 17.527 17.615 18.222 18.617 23.185 19.472 18.982 19.195 18.845 18.157 18.172 18.115 20.032 22.422 26.012 35.385 34.615 35.4 32.482 23.517 23.982 21.412 31.78 35.657 34.852 35.917 39.13 31.59 36.822 36.39 28.285 22.495 23.467 28.645 35.287 36.775 35.562 31.212 34.402 36.087 35.795 37.497 37.052 29.62 25.682 21.585 21.642
19.217 19.365 19.672 19.84 19.785 19.532 19.477 19.627 19.687 19.637 19.35 18.865 18.377 17.915 17.902 18.915 18.732 20.582 18.152 18.547 20.44 18.64 18.785 18.795 18.725 18.682 18.677 18.632 18.655 18.69 18.702 18.78 18.885 19.017 19.105 19.195 19.302 19.372 19.462 19.572 19.647 19.71 19.8 19.862 19.932 20.007 20.082 20.182 20.255 20.352 20.475 20.58 20.692 20.805 20.89 20.982 21.052 21.122 21.19 21.242 21.297 21.385 21.462 21.582 21.652 21.725 21.802 21.912 22.02 22.11 22.205 22.305 22.382 22.44 22.485 22.56 22.68 22.71 22.827 22.842 22.865 22.872 22.93 22.995 23.205 23.85 24.1 23.885 23.48 23.34 23.377 23.43 23.415 23.337 23.32 23.475 24.65 25.615 25.78 23.6 23.617 23.627 24.355 24.287 24.557 24.862 24.565 24.06 23.827 23.85 24.037 24.102 23.98 23.68 23.69 23.735 23.812 23.817 23.847 23.875 23.892 23.927 23.937 23.952 23.995 24.027 24.082 24.102 24.15 24.2 24.235 24.287 24.337 24.38 24.46 24.492 24.557 24.61 24.64 24.712 24.742 24.76 24.765 24.802 24.832 24.867 24.875 24.942 24.992 25.027 25.085 25.172 25.212 25.255 25.302 25.34 25.39 25.445 25.492 25.542 25.575 25.625 25.67 25.725 25.785 25.842 25.897 25.962 26 26.03 26.06 26.125 26.17 26.245 26.317 26.372 26.43 26.502 26.585 26.662 26.7 26.745 26.815 26.86 26.92 26.965 27.007 27.04 27.077 27.117 27.165 27.207 27.245 27.287 27.335 27.365 27.402 27.452 27.497 27.512 27.53 27.555 27.582 27.585 27.62 27.635 27.64 27.66 27.665 27.705 27.692 27.692 27.682 27.67 27.657 27.642 27.615 27.612 27.65 27.66 27.645 27.867 29.18 28.572 27.59 27.425 27.367 27.342 27.292 27.232 27.19 27.095 27.042 27 26.917 26.827 26.777 26.662 26.572 26.502 26.422 26.39 26.24 26.15 26.075 26.06 25.972 25.902 25.832 25.73 25.662 25.56 25.512 25.422 25.352 25.242 25.142 25.022 24.967 24.865 24.75 24.69 24.562 24.462 24.462 24.315 24.21 24.115 23.992 23.862 23.797 23.69 23.765 23.487 23.482 23.337 23.185 23.095 23.152 23.827 23.06 22.745 22.61 22.495 22.457 22.352 22.127 22.037 22.042 21.85 21.745 21.68 21.595 21.502 21.37 21.357 21.172 21.055 21.007 20.892 20.82 20.72 20.627 20.57 20.675 20.307 20.215 20.155 20.067 20.027 19.96 19.91 19.94 19.957 19.75 20.125 22.412 20.222 19.63 19.36 19.275 19.365 19.517 19.177 20.477 19.8 25.742 26.967 18.637 21.195 28.897 31.89 30.44 24.272 31.11 22.797 26.222 25.665 18.31 18.732 25.545 18.325 22.972 22.477 19.392 20.265 18.115 22.34 27.142 22.182 23.64 17.832 23.217 24.76 24.042 24.807 26.98 23.047 18.127 21.375 22.677 26.26 20.93 17.402 17.77 21.46 24.74 28.835 27.297 18.055 18.387 21.88 24.392 23.962 29.277 17.205 17.5 18.365 17.27 17.212 16.93 16.925 18.417 18.32 17.065 17.075 17.577 18.742 17.075 17.162 18.797 19.532 18.84 17.615 17.542 17.58 19.592 27.01 18.49 18.97 19.312 19.12 18.265 18.217 18.19 21.542 22.977 23.575 33.36 33.915 28.907 33.17 33.762 36.167 32.575 36.8 36.757 35.502 35.562 36.892 28.397 27.507 36.58 27.315 21.002 27.467 26.637 27.915 36.562 30.235 20.952 24.645 35.532 35.997 36.64 38.4 28.89 22.082 22.602 23.042
19.575 19.987 19.975 19.795 19.522 19.57 19.67 19.68 19.582 19.235 18.79 18.23 18.192 19.142 18.23 19.2 20.32 20.025 18.972 19.212 19.767 18.57 18.75 18.75 18.72 18.662 18.627 18.575 18.607 18.657 18.677 18.745 18.837 18.937 19.06 19.157 19.247 19.347 19.422 19.532 19.61 19.665 19.74 19.797 19.892 19.962 20.055 20.112 20.195 20.295 20.405 20.512 20.635 20.722 20.81 20.892 20.97 21.03 21.102 21.17 21.23 21.307 21.387 21.477 21.57 21.652 21.72 21.815 21.917 22.057 22.155 22.222 22.28 22.337 22.405 22.485 22.595 22.657 22.727 22.777 22.815 22.852 22.907 22.965 23.252 24.262 24.29 24.16 23.472 23.27 23.327 23.355 23.37 23.305 23.285 23.402 23.467 23.912 24.077 23.535 23.54 23.577 23.952 24.232 24.207 24.317 24.162 23.775 23.777 23.797 24.257 24.917 25.335 24.442 23.737 23.65 23.742 23.777 23.775 23.8 23.835 23.867 23.905 23.907 23.955 23.997 24.042 24.09 24.127 24.15 24.212 24.257 24.307 24.37 24.427 24.482 24.532 24.577 24.64 24.665 24.722 24.727 24.752 24.78 24.795 24.85 24.86 24.93 24.98 25.017 25.082 25.155 25.19 25.222 25.285 25.35 25.385 25.425 25.472 25.517 25.552 25.607 25.657 25.722 25.772 25.845 25.915 25.95 25.97 26.005 26.07 26.107 26.145 26.237 26.297 26.355 26.42 26.505 26.542 26.65 26.675 26.725 26.775 26.827 26.91 26.92 26.977 27.03 27.057 27.08 27.14 27.175 27.212 27.252 27.312 27.347 27.405 27.43 27.482 27.507 27.52 27.535 27.542 27.577 27.607 27.602 27.617 27.637 27.655 27.667 27.677 27.675 27.662 27.652 27.635 27.612 27.605 27.607 27.617 27.625 27.597 28.4 29.407 28.062 27.61 27.397 27.36 27.29 27.232 27.177 27.08 27.035 27.01 26.93 26.867 26.787 26.662 26.592 26.495 26.452 26.382 26.295 26.205 26.117 26.067 26.057 25.94 25.895 25.865 25.702 25.645 25.712 25.455 25.4 25.295 25.2 25.11 25.025 24.917 24.832 24.747 24.652 24.592 24.482 24.43 24.29 24.162 24.082 24.025 23.902 23.772 23.72 23.642 23.485 23.352 23.255 23.162 23.022 23.087 23.517 23.065 22.697 22.532 22.547 22.38 22.232 22.14 22.05 22.012 21.842 21.765 21.66 21.587 21.495 21.392 21.297 21.165 21.092 21.047 20.985 20.837 20.732 20.677 20.595 20.417 20.53 20.252 20.205 20.105 20.05 20.002 19.927 20.085 20.102 19.77 21.36 22.217 21.25 19.525 19.332 19.495 20.03 19.627 20.567 18.905 24.872 30.697 23.58 27.88 25.4 26.877 32.035 33.905 23.915 29.43 26.357 26.157 18.322 18.205 18.262 17.922 17.907 18.312 18.947 22.48 28.105 24.35 24.63 19.445 18.955 22.1 18.385 18.385 18.667 23.492 21.432 23.327 22.462 19.265 18.732 17.395 18.407 17.645 17.47 22.7 24.03 23.28 31.585 25.92 20.6 18.892 18.35 23.155 17.977 21.665 18.39 20.685 19.067 20.76 19.087 23.09 16.795 17.265 17.195 17.165 17.102 17.047 17.097 17.212 17.097 17.352 17.492 17.682 19.437 17.607 17.62 17.73 18.585 18.512 19.032 19.192 19.175 18.45 18.167 18.195 19.365 22.35 19.74 20.577 29.695 36.337 36.86 34.917 37.75 29.622 26.347 27.92 36.91 36.77 39.39 32.43 31.06 33.117 20.442 23.075 34.77 35.15 32.695 37.41 22.827 21.085 24.915 35.64 33.77 31.4 34.87 31.47 27.212 27.262 25.02
20.082 20.062 19.787 19.567 19.685 19.707 19.692 19.502 19.085 18.592 18.032 17.63 19.152 18.025 17.595 19.197 20.412 18.932 18.605 19.382 19.102 18.72 18.745 18.727 18.682 18.62 18.572 18.565 18.57 18.617 18.65 18.695 18.777 18.892 19.01 19.112 19.205 19.302 19.4 19.482 19.56 19.647 19.695 19.747 19.832 19.927 19.997 20.042 20.157 20.26 20.345 20.47 20.565 20.645 20.745 20.827 20.91 20.995 21.072 21.127 21.152 21.192 21.292 21.387 21.487 21.572 21.632 21.742 21.855 21.985 22.085 22.167 22.255 22.305 22.36 22.42 22.5 22.55 22.622 22.64 22.712 22.79 22.905 22.96 23.215 23.3 23.55 23.692 23.285 23.242 23.252 23.242 23.27 23.285 23.25 23.307 23.365 23.392 23.397 23.42 23.45 23.492 23.51 23.507 23.58 23.637 23.632 23.595 23.602 23.625 23.732 24.165 25.512 25.652 23.99 23.685 23.7 23.722 23.712 23.755 23.777 23.805 23.847 23.885 23.915 23.96 24.01 24.065 24.09 24.147 24.192 24.24 24.3 24.342 24.41 24.462 24.527 24.567 24.607 24.67 24.695 24.725 24.74 24.775 24.79 24.84 24.87 24.902 24.95 25.007 25.067 25.137 25.167 25.21 25.27 25.337 25.372 25.44 25.46 25.497 25.557 25.59 25.645 25.702 25.76 25.82 25.867 25.92 25.97 25.992 26.035 26.087 26.132 26.192 26.27 26.345 26.41 26.467 26.537 26.59 26.65 26.702 26.757 26.83 26.867 26.932 26.972 27.02 27.052 27.062 27.107 27.167 27.21 27.262 27.287 27.325 27.375 27.417 27.455 27.475 27.482 27.522 27.545 27.56 27.57 27.592 27.607 27.632 27.64 27.67 27.662 27.655 27.63 27.602 27.605 27.59 27.577 27.6 27.602 27.595 27.595 28.802 29.02 27.73 27.482 27.375 27.322 27.342 27.232 27.177 27.085 27.042 26.93 26.882 26.83 26.76 26.657 26.602 26.477 26.43 26.385 26.255 26.185 26.072 26.052 25.975 25.907 25.825 25.745 25.66 25.617 25.55 25.412 25.38 25.27 25.18 25.075 25.002 24.93 24.802 24.725 24.65 24.527 24.452 24.357 24.27 24.155 24.042 23.96 23.86 23.75 23.642 23.542 23.452 23.357 23.347 23.17 23.077 22.93 22.932 22.855 22.61 22.512 22.457 22.345 22.245 22.077 22.022 21.907 21.812 21.725 21.607 21.525 21.445 21.337 21.217 21.117 21.077 20.99 20.912 20.84 20.782 20.642 20.527 20.452 20.372 20.247 20.18 20.14 20.075 20.005 19.972 19.957 19.83 20.4 21.382 20.612 21.88 19.745 19.397 19.352 19.69 19.22 18.935 22 22.86 27.795 21.325 25.992 26.82 26.327 24.925 33.612 28.555 24.785 31.512 26.7 22.5 23.142 20.535 17.875 17.892 17.852 18.43 18.46 21.007 20.61 18.125 17.717 17.647 17.782 19.117 22.182 21.097 21.297 18.232 20.672 18.192 18.427 17.397 17.385 17.507 19.477 21.885 19.767 21.645 19.57 25.352 30.232 31.425 19.13 22.285 19.982 17.28 17.072 18.617 25.662 23.295 20.85 18.19 17.995 17.07 17.117 18.775 17.275 17.162 17.115 17.615 17.12 17.132 17.37 18.275 18.282 17.57 17.592 17.667 17.74 18.092 18.49 18.975 19.185 19.332 18.752 18.2 18.217 18.65 25.002 19.587 18.895 22.03 33.725 35.517 35.545 33.627 29.94 36.56 35.82 37.222 36.147 36.982 29.8 20.31 20.49 20.447 25.7 38.385 31.132 36.782 39.692 35.685 25.9 29.102 33.032 37.675 35.742 37.882 34.585 30.362 27.707 21.735
20.017 19.73 19.677 19.732 19.72 19.655 19.362 18.95 18.45 17.985 17.527 17.485 18.295 17.782 17.947 18.132 18.537 17.95 18.94 19.337 18.837 18.745 18.742 18.687 18.61 18.56 18.522 18.507 18.517 18.59 18.607 18.652 18.735 18.83 18.932 19.032 19.152 19.272 19.365 19.462 19.512 19.572 19.635 19.71 19.812 19.855 19.95 20.05 20.127 20.225 20.342 20.417 20.507 20.63 20.692 20.775 20.87 20.955 21.02 21.072 21.1 21.137 21.252 21.35 21.432 21.505 21.58 21.667 21.78 21.922 21.995 22.142 22.26 22.282 22.335 22.387 22.415 22.465 22.52 22.567 22.732 22.827 22.842 22.975 23.46 23.31 23.52 23.497 23.202 23.182 23.177 23.16 23.18 23.202 23.185 23.215 23.262 23.27 23.267 23.282 23.31 23.382 23.4 23.387 23.495 23.485 23.5 23.525 23.587 23.57 23.6 24.162 25.382 25.435 24.172 23.695 23.66 23.675 23.685 23.7 23.732 23.765 23.79 23.835 23.867 23.915 23.97 24.02 24.055 24.115 24.175 24.212 24.267 24.312 24.36 24.457 24.51 24.545 24.607 24.652 24.667 24.695 24.722 24.755 24.78 24.832 24.862 24.89 24.94 24.985 25.052 25.102 25.152 25.2 25.25 25.302 25.345 25.405 25.425 25.487 25.54 25.59 25.635 25.682 25.76 25.825 25.852 25.882 25.947 25.962 26.01 26.067 26.122 26.172 26.257 26.297 26.372 26.442 26.53 26.562 26.642 26.702 26.737 26.787 26.847 26.902 26.935 26.977 27.02 27.045 27.097 27.132 27.187 27.235 27.255 27.305 27.35 27.407 27.44 27.45 27.467 27.495 27.525 27.56 27.572 27.562 27.59 27.617 27.622 27.637 27.657 27.632 27.62 27.595 27.592 27.585 27.56 27.58 27.567 27.58 27.837 29.095 28.297 27.565 27.467 27.362 27.267 27.245 27.207 27.12 27.065 26.99 26.91 26.86 26.772 26.727 26.687 26.572 26.48 26.385 26.327 26.282 26.15 26.07 26.002 25.95 25.88 25.815 25.697 25.637 25.547 25.44 25.48 25.302 25.235 25.132 25.03 24.947 24.905 24.775 24.885 24.615 24.522 24.437 24.427 24.235 24.137 24.037 23.92 23.817 23.717 23.61 23.62 23.45 23.34 23.397 23.112 23.06 23.022 23.937 22.697 22.585 22.545 22.427 22.302 22.175 22.11 21.975 21.932 21.812 21.737 21.602 21.482 21.397 21.312 21.212 21.147 21.055 20.945 20.877 20.76 20.745 20.62 20.497 20.477 20.335 20.3 20.175 20.137 20.042 19.992 19.99 19.872 19.862 21.28 20.415 21.332 22.46 19.945 19.357 21.46 24.567 19.227 18.947 18.882 20.882 24.017 22.025 22.662 32.037 24.407 24.072 30.502 26.32 20.472 27.515 32.3 30.215 22.52 18.807 18.425 17.897 17.877 17.767 19.075 20.072 22.042 26.34 17.66 17.61 17.642 17.677 18.957 20.972 18.872 17.537 17.545 17.66 19.542 18.48 22.422 25.925 24.245 25.94 21.297 18.617 18.475 20.092 23.355 23.002 22.695 19.097 19.327 17.335 17.332 18.92 23.93 26.33 22.852 20.027 18.067 22.515 16.687 17.222 18.322 17.147 17.16 17.43 17.175 17.185 17.37 17.64 17.657 17.82 17.98 18.362 17.867 17.95 18.42 18.962 19.177 19.375 19.022 18.292 18.245 18.23 18.882 19.75 20.245 21.235 31.21 34.932 36.767 37.372 34.907 37.427 38.625 27.337 20.07 24.535 30.55 20.292 22.332 21.797 26.225 36.675 37.805 37.17 38.36 35.442 24.19 26.265 35.715 38.277 35.777 30.712 35.847 37.73 33.93 24.867
19.682 19.762 19.742 19.727 19.632 19.267 18.827 18.417 17.992 18.237 17.81 17.987 17.975 17.85 17.7 17.942 17.86 18.297 19.437 19.475 18.642 18.652 18.645 18.595 18.547 18.487 18.48 18.462 18.522 18.522 18.55 18.615 18.707 18.797 18.895 18.987 19.1 19.242 19.335 19.42 19.462 19.54 19.605 19.685 19.757 19.84 19.915 20.015 20.1 20.205 20.287 20.357 20.455 20.54 20.615 20.717 20.79 20.892 20.96 21 21.03 21.082 21.197 21.325 21.422 21.495 21.525 21.625 21.732 21.852 21.93 22.082 22.197 22.24 22.285 22.365 22.417 22.452 22.495 22.537 22.695 22.815 22.83 22.977 23.602 23.855 23.997 23.792 23.31 23.135 23.097 23.14 23.175 23.125 23.12 23.165 23.185 23.152 23.142 23.15 23.24 23.265 23.297 23.387 23.497 23.447 23.375 23.547 23.612 23.69 23.76 24.6 24.895 24.255 23.677 23.525 23.63 23.632 23.652 23.68 23.707 23.725 23.765 23.805 23.84 23.875 23.935 23.987 24.01 24.08 24.142 24.17 24.212 24.277 24.357 24.41 24.452 24.522 24.575 24.612 24.652 24.685 24.717 24.742 24.76 24.802 24.857 24.897 24.91 24.957 25.03 25.107 25.152 25.192 25.237 25.282 25.337 25.382 25.422 25.482 25.54 25.565 25.63 25.697 25.735 25.78 25.825 25.895 25.93 25.955 25.987 26.027 26.095 26.15 26.197 26.287 26.352 26.455 26.495 26.532 26.592 26.665 26.72 26.785 26.832 26.88 26.89 26.95 26.977 27.012 27.067 27.12 27.145 27.187 27.247 27.282 27.347 27.377 27.407 27.405 27.462 27.477 27.497 27.535 27.55 27.535 27.565 27.602 27.612 27.612 27.622 27.61 27.585 27.565 27.565 27.56 27.575 27.557 27.555 27.562 28.287 29.04 27.69 27.51 27.482 27.355 27.295 27.227 27.152 27.102 27.05 27.02 26.917 26.982 26.755 26.69 26.672 26.505 26.447 26.352 26.305 26.25 26.117 26.037 25.952 25.897 25.827 25.77 25.662 25.6 25.722 25.925 25.622 25.277 25.212 25.252 24.98 24.91 24.937 24.717 24.667 24.592 24.622 24.45 24.322 24.17 24.085 24.02 23.917 23.817 23.692 23.607 23.482 23.395 23.275 23.16 23.137 22.97 24.055 22.81 22.69 22.562 22.525 22.435 22.305 22.195 22.032 21.94 21.98 21.812 21.69 21.612 21.507 21.41 21.295 21.227 21.137 21.08 20.965 20.845 20.747 20.75 20.73 20.565 20.47 20.302 20.252 20.175 20.11 20.032 19.992 19.987 19.882 20.91 21.037 19.965 19.705 21.012 19.46 19.39 19.852 20.527 19.145 19.017 18.872 23.06 32.217 27.552 22.567 25.96 32.237 30.95 21.6 24.872 29.417 23.547 22.392 21.112 18.192 19.117 21.69 18.795 17.905 19.637 24.122 17.825 21.025 22.49 17.757 17.7 17.925 19.265 17.955 17.49 17.54 17.595 19.132 20.602 17.947 23.662 26.592 20.897 23.18 24.46 20.932 18.977 19.675 17.54 17.807 17.36 19.602 17.355 17.217 17.215 18.68 22.037 19.915 21.552 27.042 19.54 19.035 17.247 16.942 17.03 18.212 17.372 18.192 17.632 17.942 17.215 17.315 17.455 17.52 17.567 17.615 17.665 18.072 18.547 18.4 18.675 19.055 19.297 19.33 18.565 18.285 18.267 19.062 20.96 20.365 21.515 21.437 22.21 28.897 34.472 39.395 36.872 38.39 27.597 20.457 30.19 39.762 27.61 32.842 33.795 23.81 21.18 25.047 28.892 29.507 25.155 21.01 26.022 36.262 34.26 24.187 29.197 36.917 35.6 38.142 33.192
19.737 19.787 19.77 19.552 19.17 18.782 18.197 18.805 18.942 17.977 18.03 18.107 18.01 17.765 17.645 18.332 17.192 18.915 20.065 19.635 18.667 18.607 18.535 18.49 18.447 18.412 18.405 18.407 18.457 18.467 18.49 18.577 18.672 18.752 18.867 18.972 19.087 19.207 19.31 19.362 19.427 19.512 19.58 19.67 19.757 19.83 19.907 20.007 20.092 20.172 20.22 20.307 20.402 20.437 20.542 20.615 20.72 20.815 20.877 20.887 20.917 21.002 21.162 21.317 21.402 21.467 21.53 21.602 21.71 21.81 21.877 22.02 22.147 22.192 22.217 22.337 22.415 22.442 22.477 22.55 22.62 22.715 22.792 22.895 23.755 24.1 23.995 23.902 23.862 23.952 23.42 23.115 23.11 23.057 23.102 23.132 23.11 23.08 24.022 25.46 26.435 26.315 25.795 24.652 23.205 23.087 23.01 23.147 23.317 23.567 23.657 23.892 24.025 23.515 23.447 23.52 23.6 23.595 23.597 23.632 23.65 23.675 23.702 23.767 23.81 23.822 23.907 23.96 23.997 24.04 24.102 24.12 24.185 24.27 24.302 24.377 24.44 24.487 24.552 24.607 24.632 24.642 24.68 24.73 24.75 24.79 24.835 24.877 24.892 24.942 25.002 25.075 25.145 25.15 25.207 25.257 25.305 25.35 25.4 25.457 25.507 25.54 25.6 25.66 25.72 25.765 25.825 25.882 25.907 25.952 25.98 26.007 26.075 26.135 26.18 26.252 26.31 26.407 26.467 26.53 26.592 26.632 26.702 26.755 26.797 26.835 26.847 26.915 26.947 26.98 27.027 27.097 27.117 27.172 27.24 27.277 27.327 27.38 27.402 27.402 27.445 27.475 27.492 27.502 27.532 27.537 27.537 27.575 27.607 27.62 27.605 27.602 27.582 27.56 27.555 27.545 27.542 27.537 27.545 27.56 28.66 28.127 27.507 27.5 27.44 27.365 27.292 27.207 27.145 27.082 27.025 26.96 26.88 26.885 26.83 26.762 26.665 26.572 26.47 26.4 26.35 26.285 26.135 26.087 26.01 25.96 25.89 25.777 25.687 25.617 25.67 25.577 25.687 25.295 25.21 25.077 24.99 24.9 24.905 24.715 24.585 24.482 24.405 24.327 24.3 24.15 24.117 23.922 23.85 23.747 23.677 23.532 23.437 23.335 23.22 23.117 23.032 22.9 23.107 22.827 22.625 22.552 22.452 22.345 22.21 22.095 21.997 21.9 21.837 21.84 21.667 21.532 21.445 21.337 21.277 21.262 21.13 21.055 20.902 20.867 20.77 20.657 20.615 20.49 20.435 20.342 20.282 20.227 20.165 20.055 20.532 19.957 20.155 23.795 26.857 30.445 23.127 22.57 24.09 20.285 19.17 19.192 19.065 18.995 21.8 19.087 19.05 24.092 21.08 23.895 31.582 30.707 29.335 29.252 19.585 24.675 20.587 25.582 18.132 18.377 19.032 18.25 17.927 22.727 21.007 18.885 25.92 19.012 17.76 17.667 17.632 19.657 27.177 21.042 17.655 22.127 20.152 22.42 19.225 23.862 21.76 19.637 22.06 24.46 18.132 20.71 25.497 20.91 17.272 17.337 17.635 18.79 21.072 17.76 17.35 17.427 21.812 21.93 20.055 17.707 20.525 21.52 20.932 21.22 18.525 18.275 20.237 17.202 17.242 17.28 17.38 17.37 17.6 17.575 17.622 17.667 17.77 18.135 19.327 18.665 18.857 19.322 19.335 18.825 18.32 18.277 18.272 21.66 24.3 25.035 22.992 21.23 34.702 37.852 36.67 35.952 37.81 28.827 20.552 33.257 31.225 24.552 31.937 37.53 31.275 30.407 20.757 20.852 21.775 23.4 27.392 32.237 30.237 26.902 23.902 30.74 27.967 34.05 32.24 27.205
19.792 19.74 19.425 19.07 18.502 18.092 18.292 19.087 18.167 18.11 18.095 18.072 18.162 18.652 17.76 18.042 16.857 17.835 19.557 18.79 18.587 18.545 18.495 18.407 18.382 18.367 18.347 18.365 18.38 18.4 18.442 18.527 18.607 18.69 18.835 18.95 19.07 19.172 19.267 19.347 19.43 19.492 19.567 19.645 19.725 19.802 19.895 19.972 20.06 20.145 20.195 20.282 20.34 20.425 20.49 20.567 20.662 20.735 20.78 20.777 20.815 20.952 21.122 21.267 21.35 21.44 21.5 21.562 21.652 21.74 21.825 21.967 22.097 22.19 22.192 22.27 22.4 22.452 22.52 22.587 22.627 22.685 22.735 23.065 24.05 24.315 24.59 25.22 24.625 24.982 24.252 23.105 23.072 22.995 23.125 23.062 23.027 23.035 24.795 26.115 26.905 27.24 26.45 25.207 23.27 23.025 23.037 23.037 23.23 23.52 23.5 23.475 23.512 23.397 23.52 23.52 23.547 23.562 23.557 23.605 23.62 23.65 23.672 23.725 23.765 23.795 23.867 23.907 23.967 24.02 24.072 24.102 24.17 24.207 24.267 24.332 24.395 24.48 24.537 24.562 24.587 24.622 24.66 24.72 24.722 24.762 24.817 24.852 24.88 24.92 24.977 25.052 25.115 25.137 25.18 25.227 25.295 25.332 25.377 25.427 25.477 25.547 25.605 25.657 25.712 25.747 25.785 25.842 25.89 25.922 25.955 26.007 26.055 26.11 26.165 26.227 26.287 26.375 26.447 26.495 26.567 26.63 26.68 26.74 26.787 26.81 26.855 26.887 26.92 26.982 27.017 27.08 27.112 27.16 27.225 27.282 27.315 27.36 27.397 27.39 27.417 27.442 27.482 27.497 27.51 27.53 27.557 27.575 27.597 27.6 27.595 27.595 27.575 27.53 27.5 27.512 27.53 27.55 27.542 27.58 28.29 27.472 27.402 27.432 27.457 27.472 27.395 27.392 27.312 27.062 27.012 26.935 26.845 26.825 26.89 26.775 26.645 26.575 26.5 26.377 26.342 26.252 26.15 26.075 25.982 25.935 25.882 25.817 25.71 25.645 25.8 25.552 25.462 25.607 25.635 25.15 25.032 25.032 24.855 24.737 24.625 24.615 24.425 24.342 24.275 24.23 24.037 23.987 24.082 23.735 23.592 23.507 23.41 23.312 23.212 23.09 22.975 22.877 22.817 22.68 22.617 22.492 22.387 22.265 22.175 22.112 22.002 21.847 21.84 21.767 21.61 21.505 21.385 21.332 21.305 21.21 21.12 20.955 20.887 20.787 20.702 20.652 20.545 20.457 20.79 20.317 20.267 20.207 20.192 20.15 20.01 20.07 20.962 23.127 34.767 37.947 37.615 34.915 39.53 32.257 19.925 19.365 19.07 19.047 20.19 18.897 20.527 26.255 27.4 26.847 30.782 25.635 24.567 21.872 28.99 25.782 23.167 18.342 18.042 18.147 18.407 18.137 23.022 22 20.39 22.417 20.61 19.88 17.715 17.737 17.725 18.432 20.917 17.862 21.462 19.817 18.395 18.44 24.267 21.44 24.502 22.605 18.805 21.62 22.525 25.687 28.967 20.78 17.295 17.337 17.655 21.057 23.76 19.742 17.485 17.272 18.242 17.415 19.555 18.332 21.9 22.065 21.997 17.737 18.427 20.052 17.392 17.227 17.197 17.28 17.345 17.757 18.03 17.555 17.565 17.627 17.825 17.912 18.122 18.337 18.635 19.08 19.5 19.255 18.39 18.317 18.322 20.017 21.62 21.225 19.235 20.255 31.96 35.73 29.842 28.052 30.15 29.162 25.927 36.297 33.955 35.845 38.952 38.222 29.26 34.752 30.015 22.677 20.932 22.407 29.795 37.977 39.737 35.54 27.267 22.455 34.36 38.67 39.192 32.362
19.627 19.38 19.12 18.905 18.192 18.212 18.23 18.235 18.202 18.162 18.165 18.085 18.07 19.202 17.955 19.06 17.175 18.077 18.815 18.59 18.595 18.55 18.462 18.362 18.3 18.315 18.322 18.3 18.345 18.382 18.427 18.49 18.605 18.687 18.827 18.947 19.047 19.15 19.235 19.32 19.395 19.467 19.547 19.637 19.71 19.795 19.877 19.952 20.022 20.122 20.155 20.25 20.347 20.41 20.472 20.517 20.58 20.637 20.657 20.655 20.702 20.832 20.98 21.145 21.277 21.452 21.44 21.485 21.562 21.657 21.76 21.895 22.085 22.202 22.24 22.33 22.412 22.497 22.557 22.635 22.66 22.715 22.79 22.98 23.957 24.127 24.232 24.43 24.367 23.907 23.352 23.01 22.975 22.93 22.995 22.98 22.98 22.987 24.855 26.137 26.932 27.22 26.44 25.092 23.085 23.01 23.022 23.06 23.325 23.415 23.395 23.4 23.412 23.427 23.465 23.452 23.485 23.49 23.527 23.56 23.587 23.61 23.645 23.682 23.71 23.76 23.822 23.862 23.927 23.98 24.027 24.065 24.147 24.177 24.235 24.3 24.355 24.432 24.477 24.52 24.555 24.575 24.617 24.662 24.7 24.76 24.79 24.817 24.875 24.907 24.965 25.035 25.08 25.125 25.152 25.21 25.257 25.28 25.345 25.402 25.48 25.522 25.572 25.622 25.672 25.72 25.755 25.817 25.87 25.89 25.925 25.977 26.032 26.107 26.155 26.197 26.255 26.342 26.445 26.492 26.56 26.615 26.665 26.722 26.767 26.797 26.822 26.862 26.905 26.962 27.01 27.067 27.105 27.155 27.215 27.25 27.297 27.335 27.355 27.367 27.392 27.442 27.447 27.465 27.495 27.512 27.532 27.542 27.552 27.557 27.552 27.55 27.525 27.51 27.497 27.502 27.51 27.535 27.495 27.452 27.49 27.455 27.532 27.55 27.48 27.507 27.392 27.34 27.207 27.185 27.042 26.947 26.817 26.807 26.745 26.685 26.635 26.555 26.46 26.422 26.32 26.22 26.137 26.147 25.997 25.94 25.837 25.76 25.725 25.917 25.842 25.57 25.685 25.527 25.22 25.195 25.06 24.912 24.805 24.69 24.617 24.6 24.422 24.43 24.317 24.16 24.077 23.982 23.865 23.762 23.652 23.572 23.525 23.417 23.227 23.577 23.182 22.912 22.82 22.682 22.59 22.482 22.372 22.285 22.185 22.135 22.03 21.9 21.787 21.67 21.53 21.467 21.38 21.347 21.25 21.175 21.052 20.932 20.86 20.78 20.815 20.622 20.5 20.455 20.39 20.385 20.275 20.245 20.137 20.152 20.15 20.25 21.857 21.555 32.332 38.047 38.877 36.612 38.165 33.48 19.275 19.365 19.315 19.185 23.66 20.292 25.752 21.69 21.275 28.362 29.562 19.72 19.922 18.397 19.185 20.7 20.735 20.447 18.072 18.622 17.94 17.915 25.92 25.32 26.595 20.52 18.262 17.695 17.75 17.69 17.74 17.885 17.575 18.025 24.747 20.23 17.645 19.73 24.637 22.985 20.175 25.787 21.242 24.17 23.597 24.745 24.06 21.365 17.397 17.985 20.215 18.645 21.185 24.262 18.197 17.307 17.222 17.102 19.625 24.77 24.217 20.812 23.477 20.062 18.74 20.225 19.06 17.607 17.23 17.28 17.955 17.447 17.822 17.62 17.582 17.702 18.077 18.155 18.125 18.177 18.857 19.017 19.512 19.43 18.557 18.272 18.28 18.397 22.027 26.227 21.152 19.512 31.367 30.242 36.79 37.572 37.072 33.642 32.677 32.415 38.72 27.697 36.722 30.032 22.462 34.437 36.882 35.717 28.515 21 22.552 21.565 21.367 21.695 34.862 31.327 39.777 39.082 39.377 38.04
19.287 19.09 18.855 18.562 18.277 18.307 18.322 18.347 18.245 18.147 18.105 17.987 17.77 19.027 20.327 18.47 19.072 17.922 18.395 18.432 18.525 18.505 18.412 18.3 18.282 18.28 18.272 18.28 18.275 18.335 18.39 18.48 18.6 18.727 18.812 18.91 19.015 19.115 19.215 19.297 19.397 19.445 19.512 19.622 19.65 19.767 19.822 19.877 19.98 20.52 20.607 20.195 20.32 20.417 20.552 20.5 20.515 20.567 20.6 20.597 20.625 20.705 20.855 21.055 21.255 21.595 21.455 21.442 21.485 21.54 21.687 21.847 22.047 22.242 22.33 22.397 22.437 22.492 22.592 22.68 22.71 22.792 23.012 22.835 23.272 23.01 22.852 23.012 23.757 23.125 22.97 22.9 22.882 22.902 22.957 22.917 22.922 22.927 24.945 26.177 26.957 27.215 26.397 24.952 22.967 22.982 23.05 23.082 23.175 23.362 23.33 23.35 23.4 23.412 23.415 23.42 23.425 23.462 23.495 23.52 23.542 23.56 23.61 23.66 23.697 23.752 23.807 23.847 23.892 23.942 23.987 24.04 24.08 24.127 24.21 24.272 24.322 24.385 24.44 24.485 24.502 24.55 24.605 24.647 24.677 24.715 24.747 24.787 24.847 24.887 24.925 24.99 25.045 25.092 25.117 25.162 25.225 25.27 25.332 25.385 25.447 25.495 25.542 25.615 25.672 25.712 25.752 25.8 25.83 25.875 25.927 25.955 26.007 26.072 26.137 26.187 26.25 26.35 26.43 26.472 26.532 26.592 26.657 26.712 26.757 26.777 26.807 26.867 26.907 26.955 27.02 27.09 27.117 27.155 27.222 27.235 27.29 27.307 27.357 27.357 27.402 27.417 27.415 27.455 27.462 27.46 27.507 27.505 27.507 27.525 27.515 27.525 27.512 27.467 27.477 27.477 27.45 27.422 27.402 27.44 27.457 28.61 28.412 27.96 27.552 27.485 27.317 27.195 27.24 27.085 27.022 27.067 26.905 26.832 26.712 26.677 26.627 26.567 26.47 26.38 26.312 26.2 26.137 26.08 25.985 25.922 25.827 25.74 25.635 25.635 25.585 25.745 25.582 26.237 25.185 25.12 25.005 24.92 24.842 24.817 25.037 24.642 24.385 24.312 24.245 24.192 24.052 23.93 23.865 23.727 23.62 23.547 23.505 23.34 23.625 23.527 23.145 22.915 22.805 22.712 22.567 22.52 22.41 22.267 22.185 22.047 21.945 21.885 21.777 21.69 21.577 21.462 21.427 21.365 21.262 21.34 21.05 20.95 20.862 20.8 20.675 20.742 20.49 20.422 20.365 20.33 20.232 20.197 20.275 20.162 20.142 24.13 21.942 23.09 30.187 33.245 25.387 21.6 28.785 21.595 19.272 20.145 24.205 20.885 24.722 22.417 29.842 32.065 27.362 29.642 21.122 18.385 18.427 18.275 22.522 28.235 26.017 28.297 21.9 18.252 18.085 17.927 19.825 17.865 19.5 18.947 17.782 17.75 17.69 17.752 17.77 17.92 20.677 25.112 19.697 19.342 19.65 17.63 19.82 23.582 18.66 22.842 20.415 18.515 18.412 23.095 18.502 18.632 17.792 17.827 17.625 17.512 18.16 26.747 23.115 17.232 21.66 17.62 19.902 22.96 25.035 24.67 20.51 21.682 24.182 22.852 19.087 18.57 17.947 17.34 17.687 17.46 17.435 18.092 17.667 18.01 18.29 18.04 19.395 19.88 18.735 19.035 19.427 19.542 18.88 18.315 18.362 18.365 20.647 21.59 20.487 25.18 35.85 37.045 36.942 37.505 36.635 30.487 35.055 36.395 37.85 24.797 34.22 39.517 27.932 34.275 40.115 41.527 38.367 21.48 26.125 31.37 30.945 33.417 38.505 36.077 30.31 31.657 38.907 37.592
19.265 19.177 18.385 18.352 18.385 18.34 18.335 18.362 18.26 18.167 18.08 17.87 17.65 19.182 19.06 17.017 18.057 20.307 18.055 18.212 18.372 18.397 18.342 18.267 18.215 18.22 18.195 18.235 18.255 18.302 18.347 18.457 18.56 18.692 18.8 18.867 18.975 19.115 19.217 19.33 19.405 19.457 19.565 19.62 19.677 19.772 19.765 19.85 19.912 21.882 21.522 20.087 20.19 20.377 20.73 20.557 20.467 20.462 20.482 20.485 20.492 20.592 20.747 20.935 21.782 21.61 21.887 21.392 21.427 21.495 21.627 21.825 22.09 22.932 22.805 22.512 22.475 22.54 22.695 22.902 23.425 23.09 22.652 22.64 22.675 22.715 22.75 22.817 23.525 22.91 22.882 22.875 22.87 22.857 22.907 22.837 22.852 22.85 24.992 26.195 26.997 27.155 26.372 25.077 22.96 22.945 23.005 23.01 23.097 23.347 23.297 23.292 23.35 23.36 23.39 23.375 23.385 23.405 23.472 23.495 23.492 23.532 23.585 23.62 23.68 23.722 23.78 23.82 23.872 23.897 23.937 24.007 24.042 24.095 24.157 24.217 24.267 24.332 24.392 24.445 24.492 24.53 24.59 24.615 24.667 24.702 24.715 24.755 24.82 24.87 24.925 24.965 25.017 25.065 25.085 25.147 25.187 25.25 25.3 25.36 25.422 25.472 25.525 25.587 25.635 25.685 25.74 25.752 25.815 25.857 25.917 25.955 25.995 26.05 26.117 26.175 26.232 26.355 26.415 26.452 26.53 26.59 26.627 26.705 26.732 26.772 26.815 26.857 26.917 26.965 27.02 27.062 27.115 27.142 27.2 27.242 27.272 27.315 27.325 27.35 27.37 27.385 27.412 27.435 27.445 27.46 27.482 27.512 27.5 27.487 27.485 27.515 27.482 27.467 27.462 27.467 27.39 27.347 27.347 27.37 27.372 28.75 32.165 30.187 27.46 27.445 27.347 27.237 27.082 27.097 27.047 27.022 26.912 26.802 26.717 26.63 26.575 26.567 26.465 26.38 26.287 26.192 26.175 26.065 26.027 25.922 25.807 25.7 25.857 25.817 25.82 25.37 25.377 25.57 25.252 25.055 24.932 24.83 24.7 24.63 24.547 24.432 24.347 24.367 24.327 24.092 23.987 23.905 23.827 23.755 23.605 23.545 23.425 23.51 23.405 23.087 22.997 22.892 22.777 22.68 22.555 22.445 22.382 22.195 22.097 22.01 22.2 21.892 21.752 21.632 21.525 21.472 21.417 21.315 21.247 21.175 21.122 21.007 20.935 20.835 20.817 20.657 20.8 20.507 20.497 20.357 20.32 20.265 20.16 20.332 20.912 23.325 22.125 24.912 26.642 21.787 19.55 19.507 19.445 19.307 19.207 22.167 29.235 32.322 30.56 33.102 28.682 30.61 27.575 20.707 19.015 18.38 22.185 25.03 24.952 31.385 24.68 27.36 25.025 20.902 26.492 28.927 29.687 27.202 19.38 17.817 17.77 17.842 18.902 18.68 17.43 22.145 20.152 22.64 17.54 17.632 18.11 17.935 18.057 18.467 17.847 19.295 18.477 20.61 22.67 19.57 17.607 17.822 24.585 21.837 19.07 17.645 17.41 18.265 18.675 19.42 24.03 22.18 19.435 18.68 23.66 26.625 24.49 26.635 24.622 20.9 17.365 17.602 17.37 17.777 17.73 19.62 17.432 17.685 17.572 17.602 18.372 17.85 22.027 22.532 18.345 18.792 19.237 19.475 19.31 18.297 18.347 18.422 25.832 22.575 28.447 36.85 37.915 33.227 38.392 35.35 33.66 37.885 36.542 33.45 35.165 21.822 27.255 34.6 37.695 36.042 38.477 39.52 38.09 22.992 29.815 39.11 40.77 34.237 29.58 31.555 33.667 37.397 39.527 35.17
18.53 18.492 18.467 18.397 18.362 18.352 18.33 18.305 18.192 18.107 18.057 17.81 17.627 18.982 19.242 19.697 20.41 20.692 17.98 18.025 18.19 18.302 18.255 18.185 18.19 18.175 18.162 18.145 18.182 18.217 18.317 18.425 18.535 18.65 18.76 18.827 18.955 19.127 19.237 19.357 19.385 19.437 19.567 19.577 19.67 19.715 19.735 19.81 19.865 22.112 22.802 21.135 20.682 20.315 20.672 21.117 21.252 21.235 21.347 21.417 21.662 21.175 20.647 20.89 21.057 21.157 21.607 21.562 21.46 21.532 21.722 21.98 22.497 24.387 24.402 23.06 22.582 22.965 22.937 23.032 23.502 23.112 22.642 22.547 22.61 22.652 22.692 22.72 22.755 22.802 22.817 22.825 22.815 22.835 22.845 22.765 22.775 22.787 25.05 26.232 27.03 27.155 26.352 24.917 22.98 22.955 22.962 23.822 23.14 23.33 23.272 23.265 23.292 23.325 23.34 23.352 23.35 23.395 23.425 23.452 23.462 23.49 23.535 23.597 23.647 23.672 23.742 23.785 23.81 23.862 23.917 23.975 24.015 24.067 24.122 24.17 24.235 24.295 24.347 24.397 24.427 24.482 24.527 24.585 24.63 24.662 24.7 24.74 24.795 24.847 24.885 24.935 24.99 25.02 25.06 25.127 25.162 25.21 25.275 25.337 25.382 25.455 25.512 25.557 25.605 25.637 25.717 25.74 25.802 25.842 25.902 25.947 25.982 26.04 26.105 26.167 26.222 26.312 26.39 26.47 26.517 26.575 26.637 26.67 26.715 26.745 26.805 26.835 26.902 26.952 26.987 27.032 27.077 27.135 27.175 27.205 27.257 27.28 27.307 27.325 27.365 27.382 27.397 27.42 27.422 27.455 27.482 27.505 27.5 27.497 27.495 27.51 27.515 27.477 27.422 27.41 27.375 27.365 27.347 27.37 27.395 27.55 29.265 29.085 27.677 27.45 27.317 27.207 27.15 27.027 26.962 26.977 26.85 26.797 26.725 26.615 26.55 26.517 26.467 26.375 26.292 26.202 26.107 26.05 26.012 25.885 25.78 25.74 26.6 25.717 25.517 25.95 25.417 25.252 25.11 25.037 24.94 24.797 24.715 24.622 24.56 24.452 24.36 24.252 24.155 24.095 24.017 24.115 23.892 23.687 23.602 23.502 23.405 23.282 23.165 23.097 22.992 22.862 22.775 22.665 22.535 22.472 22.322 22.2 22.095 21.975 21.96 21.845 21.73 21.592 21.527 21.492 21.397 21.287 21.197 21.12 21.02 20.95 20.932 20.892 20.77 20.69 20.542 20.49 20.475 20.417 20.342 20.29 20.462 20.925 22.517 21.822 20.62 20.14 19.767 19.585 19.717 19.695 19.467 19.767 22.837 23.937 22.845 21.707 27.215 28.692 20.847 26.557 32.985 27.725 20.775 24.085 22.07 20.58 19.547 24.147 31.09 26.835 31.057 28.657 27.02 31.952 31.525 31.57 26.095 19.315 17.802 18.167 17.792 17.865 17.542 21.687 19.017 17.605 17.585 17.86 19.38 22.685 21.59 17.68 19.917 19.645 19.85 20.615 25.562 20.652 18.495 21.792 18.77 22.2 22.605 17.535 17.497 17.675 18.205 24.137 19.915 18.61 17.25 17.747 22.447 26.665 22.905 19.8 20.96 18.052 16.795 17.275 18.26 18.86 17.397 17.39 17.447 17.582 17.527 17.582 17.732 18.57 18.065 18.167 18.42 18.727 19.16 19.432 19.235 18.472 18.387 18.327 21.945 26.272 31.722 38.21 38.432 36.87 34.927 36.585 35.382 35.512 33.935 34.665 37.39 23.762 22.28 34.265 34.267 35.977 26.07 36.065 32.88 21.81 26.082 38.09 36.042 37.237 27.492 26.612 34.75 37.092 40.11 33.525
