ncols 441
nrows 31
xllcorner    459036
yllcorner    91684
cellsize     2
NODATA_value -9999
43.766 42.838 40.996 40.228 42.998 45.146 46.536 47.128 47.066 47.053 46.616 43.013 39.968 39.731 39.938 39.723 39.626 39.491 39.343 39.228 39.138 39.028 38.886 38.711 38.471 38.316 38.151 38.021 37.861 37.811 38.448 37.613 37.266 37.068 36.931 36.758 36.608 36.418 36.346 37.118 37.631 37.556 35.896 35.481 35.296 35.173 34.966 34.758 34.603 34.448 34.138 33.936 33.726 33.551 33.378 33.196 33.008 32.838 32.628 32.468 32.323 32.148 31.991 31.778 31.623 31.458 31.278 31.148 30.966 30.791 30.688 30.518 30.383 30.213 30.066 29.886 29.783 30.428 29.951 29.263 29.783 29.768 29.301 28.976 29.558 28.778 28.053 29.206 29.273 27.816 27.396 27.218 27.141 27.128 27.341 26.951 26.491 26.321 26.168 26.021 25.873 25.768 25.628 25.656 25.381 25.411 25.108 24.858 24.648 24.541 24.438 24.436 24.078 23.806 23.646 23.803 23.773 23.156 23.958 25.636 23.678 22.596 22.196 22.126 22.011 21.641 21.493 21.313 21.246 21.896 21.411 21.453 20.698 20.368 20.281 19.923 19.868 19.866 19.786 19.993 19.328 19.511 19.171 19.958 19.568 18.726 19.713 18.696 18.893 17.471 17.901 20.138 20.093 19.401 17.676 17.243 17.386 15.976 15.018 14.913 14.763 14.636 14.536 14.431 14.076 13.166 13.631 15.786 18.596 19.023 18.818 17.776 12.421 11.158 10.676 10.851 10.311 10.256 13.123 12.666 12.171 13.048 9.261 8.574 9.201 9.461 8.214 8.001 8.091 8.121 7.864 7.816 7.779 7.661 7.571 7.421 7.266 8.266 6.636 5.644 6.199 7.186 7.314 7.699 7.566 7.534 5.456 5.281 5.259 5.229 5.266 5.204 5.159 5.134 5.059 4.899 4.916 4.979 4.961 4.894 4.881 4.849 4.966 5.569 4.546 7.751 9.739 8.159 7.086 8.696 9.311 9.341 9.781 10.364 13.229 17.564 19.076 20.379 20.579 14.744 11.474 11.471 11.836 11.774 11.939 12.139 12.371 12.566 12.701 13.204 13.591 19.364 24.151 24.951 23.131 22.619 24.234 25.119 21.861 13.786 14.196 14.866 15.511 15.869 16.041 17.834 16.251 16.141 16.286 16.319 16.376 16.491 16.541 16.679 16.749 16.826 16.916 16.999 17.254 23.424 25.184 23.996 26.179 27.089 27.729 27.504 26.661 25.436 20.694 25.424 28.386 27.914 20.391 17.614 17.196 17.051 17.111 17.241 17.791 18.071 18.024 17.976 18.069 16.714 17.019 19.119 18.399 16.554 16.301 16.396 17.211 17.874 17.209 17.401 18.126 18.051 19.701 19.919 19.269 18.734 19.304 21.464 23.121 23.841 25.381 25.961 22.641 20.764 20.801 20.886 20.934 21.074 21.216 21.256 21.284 21.374 21.444 21.521 21.769 23.214 22.899 22.406 21.876 24.681 28.001 27.966 27.801 27.151 23.526 22.431 22.864 25.194 23.499 23.479 23.444 22.659 22.679 22.714 22.806 23.886 24.099 23.934 25.389 29.164 29.814 29.706 29.629 29.611 28.186 24.259 23.824 23.924 23.876 23.989 24.094 24.151 24.171 24.216 24.234 24.284 24.609 24.779 25.444 24.546 24.631 24.781 24.956 25.101 25.136 25.179 25.209 25.276 25.309 25.376 25.439 25.509 25.516 25.626 25.781 25.959 26.164 28.694 30.781 31.631 34.969 33.581 28.936 26.921 26.391 26.371 26.389 26.779 28.221 28.861 28.416 29.106 29.436 29.051 29.194 28.934 29.319 31.144 30.411 29.046 32.464 34.054 34.954 35.309 32.444 30.541 31.509 29.786 30.092 30.039 29.554 29.367 29.189 29.197 29.587 31.284 31.704
44.726 41.901 40.738 40.353 40.763 40.316 45.821 46.693 46.436 44.091 41.718 41.143 40.273 39.811 41.128 40.176 39.578 39.486 39.341 39.201 39.063 39.003 38.841 38.601 38.681 38.868 38.818 38.223 38.136 37.928 37.896 37.953 37.288 37.143 36.943 36.736 36.683 36.533 36.296 36.448 36.653 36.846 35.626 35.373 35.206 34.998 34.803 34.628 34.793 35.326 34.273 33.818 33.951 34.218 33.668 33.688 33.583 32.978 32.743 33.281 32.641 32.111 31.908 31.728 31.583 31.431 31.241 31.078 30.993 30.801 30.718 30.573 30.371 30.268 30.111 29.938 29.766 29.633 29.443 29.308 29.151 28.966 28.843 28.668 28.548 28.396 28.171 28.331 28.103 27.731 27.558 27.358 27.258 27.186 27.268 27.011 26.581 26.393 26.241 26.066 25.928 25.718 26.238 26.383 25.633 25.918 25.898 24.756 24.601 24.426 24.263 24.113 23.941 23.753 23.566 23.366 23.203 23.128 23.283 22.881 22.651 22.311 22.186 22.168 21.868 21.811 21.718 21.336 21.268 21.518 21.231 21.193 20.503 20.356 20.351 20.228 20.046 19.878 19.748 19.793 19.221 18.961 19.026 19.218 18.696 18.226 18.121 18.006 18.031 17.363 17.421 17.063 17.111 17.168 17.268 17.328 16.171 15.566 14.998 14.833 14.713 14.678 14.793 15.206 14.076 13.631 12.753 13.793 16.088 17.138 16.788 15.688 11.488 10.893 10.348 10.383 10.361 10.271 11.203 11.303 12.226 13.426 10.489 8.699 9.674 9.756 8.164 8.049 7.926 7.916 8.069 7.959 7.854 7.684 7.584 7.431 7.221 7.651 6.071 5.261 5.756 7.374 7.164 7.354 7.529 6.856 5.331 5.284 5.266 5.239 5.219 5.206 5.194 5.191 5.094 4.944 5.001 4.976 4.911 4.854 4.869 4.829 5.334 4.774 4.914 8.436 8.864 6.896 7.439 9.134 9.091 9.346 10.009 11.546 15.596 18.301 19.714 19.471 18.391 11.589 11.461 11.636 11.659 11.809 12.006 12.156 12.439 12.539 12.724 13.171 15.761 22.096 24.806 24.374 22.656 23.346 25.134 24.566 17.089 13.916 14.491 15.204 15.819 16.016 15.979 16.056 16.059 16.306 16.506 16.686 17.669 17.281 16.729 16.826 16.904 16.964 17.024 17.074 17.239 18.196 22.426 25.051 26.609 26.854 26.974 27.624 26.676 20.831 22.666 27.651 27.944 27.496 24.294 21.196 17.821 17.491 17.549 17.824 18.221 18.131 18.109 18.136 18.641 18.146 18.014 20.456 18.376 17.204 16.854 16.544 16.729 17.684 17.449 17.581 17.829 18.011 20.704 23.404 23.954 20.764 19.099 19.444 22.831 25.174 25.939 25.146 21.251 21.484 20.821 20.866 20.996 21.091 21.211 21.351 21.294 21.406 21.531 21.594 21.644 21.984 23.339 22.454 22.256 21.911 24.319 28.054 27.899 26.006 22.291 22.894 22.636 22.684 22.779 22.731 22.689 22.726 22.749 22.859 23.664 23.191 23.914 25.041 25.909 27.036 29.941 29.849 29.739 29.144 25.389 23.854 24.281 23.979 24.071 24.171 24.216 24.256 24.244 24.261 24.764 25.891 25.311 26.381 30.764 28.911 25.479 24.896 25.086 25.211 25.979 25.596 25.236 25.316 25.594 26.059 25.461 25.539 25.636 25.799 25.909 26.124 26.966 32.056 35.266 35.156 35.874 35.429 34.791 30.399 26.464 26.506 26.641 28.984 30.059 29.566 28.724 28.421 28.854 29.424 29.134 29.396 31.811 32.131 31.759 30.294 32.064 34.981 35.806 35.059 34.934 32.784 29.264 29.279 30.747 29.817 29.347 29.289 29.352 30.134 30.734 31.022 30.847
42.818 40.881 40.743 40.423 40.276 40.798 42.893 44.006 43.181 41.648 40.161 40.151 40.118 40.383 39.738 40.081 39.841 39.468 39.361 39.208 39.058 38.896 38.736 38.593 39.073 38.873 39.131 38.316 37.966 37.811 38.048 38.408 37.858 37.886 37.603 37.208 36.763 36.693 36.643 36.498 36.261 36.351 35.786 35.441 35.501 35.601 35.298 35.093 34.663 34.576 34.283 34.051 33.671 33.588 33.468 33.146 32.826 32.838 32.533 32.776 32.553 31.963 31.771 31.653 31.491 31.281 31.118 30.953 30.851 30.773 31.178 31.388 30.698 30.148 29.991 29.833 30.373 30.926 29.896 29.543 29.461 29.166 28.808 28.836 28.598 28.351 28.176 28.108 27.933 27.706 27.598 27.468 27.263 27.123 26.956 26.858 26.651 26.461 26.291 26.141 25.993 25.841 25.696 25.508 25.323 25.186 25.043 24.841 24.696 24.496 24.381 24.213 24.048 23.858 23.663 23.453 23.243 23.213 23.736 23.211 22.516 22.323 22.163 21.948 21.768 21.626 21.413 22.636 22.458 22.326 20.941 20.588 20.398 20.211 20.131 20.396 20.091 19.678 19.586 19.261 18.986 18.916 18.868 18.826 18.433 18.111 18.051 17.763 17.811 17.283 17.121 17.581 17.611 17.508 16.673 17.258 16.453 15.511 14.943 14.851 15.028 14.906 15.356 15.833 13.893 13.758 13.313 12.221 12.091 12.016 11.876 12.561 11.826 11.531 10.323 10.341 10.386 10.313 11.331 12.121 11.531 13.443 11.774 8.859 10.169 10.024 9.446 8.046 7.926 7.956 8.294 8.136 7.869 7.721 7.529 7.341 7.804 8.424 5.904 5.174 6.144 7.001 5.799 5.789 6.164 5.699 5.364 5.269 5.261 5.254 5.221 5.244 5.169 5.201 4.986 4.921 4.996 4.991 4.924 4.871 4.834 4.944 7.439 4.321 7.741 9.201 7.194 6.771 8.591 9.761 9.334 9.524 10.309 13.674 17.466 18.954 19.696 18.111 14.529 11.454 11.554 12.321 11.694 11.854 12.054 12.231 12.491 12.574 12.814 13.806 18.611 23.834 24.976 23.361 22.481 24.064 25.211 23.379 14.424 14.174 14.904 15.566 16.056 16.179 16.196 16.224 16.326 16.526 16.691 19.916 24.019 23.034 20.289 16.916 17.021 17.084 17.179 17.209 17.276 17.421 18.171 21.729 27.426 27.189 25.319 26.561 22.096 21.449 27.816 28.006 27.491 26.666 26.436 27.826 23.191 18.569 17.856 18.384 18.264 18.194 18.181 18.386 18.829 18.129 17.904 18.324 18.144 16.441 16.644 17.346 17.826 17.254 17.754 17.854 17.874 18.719 23.021 24.339 24.834 24.876 22.204 19.461 19.614 24.539 24.724 21.924 21.031 21.116 20.989 20.896 20.974 21.099 22.054 22.999 21.406 21.601 22.071 21.679 21.766 21.816 22.046 23.249 22.486 22.156 22.211 23.581 26.046 24.054 22.644 22.591 22.994 22.776 22.776 22.729 23.134 23.861 22.871 23.621 24.356 24.059 24.659 28.529 30.154 29.201 24.576 28.819 29.819 26.511 24.039 24.316 24.069 24.114 24.226 24.284 24.319 24.341 24.324 24.536 26.099 26.306 25.861 30.274 31.129 31.059 29.166 25.171 25.496 27.201 26.084 25.569 25.251 25.324 26.899 26.694 26.116 25.594 25.751 25.941 26.104 26.209 29.776 34.834 36.051 36.494 36.504 35.894 34.229 27.229 26.551 26.636 27.971 30.456 29.659 28.769 28.664 28.546 28.466 29.469 29.886 29.851 31.976 32.781 32.699 34.401 30.986 34.374 35.041 35.166 35.541 33.921 29.729 29.479 29.542 29.497 29.449 29.662 30.669 30.954 34.029 33.874 30.554
42.556 40.906 40.803 40.531 40.241 41.838 43.158 43.123 43.098 42.256 40.188 42.171 42.496 40.803 41.178 39.951 40.036 39.718 39.351 39.168 39.066 38.936 38.731 38.576 38.926 38.463 38.326 38.173 37.913 39.746 42.731 42.383 42.086 41.973 41.401 41.028 40.186 39.181 37.058 37.106 36.336 36.946 35.803 35.723 35.658 35.481 35.068 34.993 35.013 34.273 34.033 33.838 33.758 34.158 33.781 33.628 33.366 33.568 32.623 32.751 32.556 32.306 32.251 31.741 31.571 31.568 31.298 31.061 30.968 30.786 30.711 30.636 30.366 30.123 30.118 29.771 29.803 30.263 29.688 29.608 29.611 29.146 28.658 29.056 29.128 28.248 28.326 28.943 28.188 27.903 28.516 27.716 27.163 27.021 26.883 26.721 26.538 26.416 26.666 26.571 25.968 26.073 25.886 25.468 25.268 25.123 25.008 25.021 24.651 24.588 24.423 24.148 24.051 23.898 23.726 23.548 23.378 23.138 22.981 22.808 22.651 22.473 22.256 22.106 21.898 21.728 21.543 21.701 22.006 21.811 20.966 20.623 20.441 20.281 20.273 21.018 20.561 20.126 20.023 19.346 18.938 18.761 18.551 18.971 18.398 17.943 18.271 18.078 17.283 16.971 16.726 16.818 16.488 16.106 15.786 15.766 15.393 15.133 14.783 14.581 14.536 14.608 14.036 14.721 13.656 13.383 13.381 12.746 12.441 12.646 12.191 11.793 11.643 11.303 10.321 10.373 10.423 10.683 11.788 12.006 10.933 10.683 10.466 8.989 8.421 9.046 9.166 8.121 7.956 7.986 8.129 8.056 7.864 7.694 7.511 7.376 8.431 7.441 5.539 5.511 6.521 6.621 6.031 6.119 5.596 5.469 5.384 5.324 5.256 5.249 5.231 5.226 5.241 5.109 4.939 4.996 4.999 4.959 4.921 4.866 4.841 5.406 6.801 5.916 6.621 8.846 7.041 7.234 9.026 9.044 9.349 10.336 10.936 15.679 18.166 19.626 19.064 17.331 11.466 11.461 11.494 11.801 11.736 11.894 12.079 12.251 12.561 12.694 12.924 14.124 21.696 24.654 24.471 22.721 23.046 24.961 24.764 15.856 13.914 14.546 15.321 15.956 16.256 16.361 16.404 16.506 16.581 16.739 18.424 25.176 25.924 26.041 26.899 21.959 17.124 17.201 17.274 17.329 17.389 17.449 17.616 17.859 20.774 24.191 23.616 22.201 21.959 26.809 27.949 28.456 28.289 27.581 27.974 28.386 27.646 20.999 18.334 19.016 18.504 18.279 18.271 18.236 18.206 18.264 18.619 18.226 17.206 16.554 16.726 16.941 17.496 17.404 18.196 17.824 17.914 20.586 24.239 24.789 25.304 25.121 24.641 21.954 19.786 19.916 20.849 21.239 20.826 21.789 21.194 20.881 20.969 21.676 25.619 26.954 23.654 21.651 22.239 21.794 21.844 21.924 21.959 22.164 22.996 23.841 22.879 23.024 23.036 23.111 24.996 24.466 23.109 22.911 22.811 22.944 24.371 24.391 23.141 23.319 23.679 24.669 28.041 29.924 30.026 30.121 29.024 24.679 26.394 24.316 24.529 24.916 24.206 24.279 24.346 24.369 24.381 24.396 24.444 25.681 25.316 26.146 29.116 30.886 31.014 31.109 31.099 27.881 25.269 26.084 27.129 25.641 25.406 25.586 26.061 25.704 26.014 25.779 26.109 26.144 26.284 26.579 32.911 35.336 36.219 36.911 36.394 35.529 32.786 26.511 26.661 26.806 28.374 28.764 29.171 28.664 28.784 29.584 29.221 30.049 30.584 29.814 31.346 33.359 35.199 35.806 33.949 31.146 34.281 35.451 34.361 30.456 29.584 29.516 29.489 29.557 30.039 30.662 30.812 32.822 36.467 36.534 34.317
41.476 40.981 40.913 40.731 40.301 41.823 43.121 42.621 42.141 41.076 40.401 43.321 45.673 44.568 41.581 39.811 39.493 39.746 39.271 39.161 39.001 38.883 38.738 38.571 38.516 38.448 38.338 38.383 37.933 41.008 44.523 44.446 44.398 44.121 43.316 43.218 43.128 43.048 37.893 38.228 36.366 36.981 36.768 39.013 39.441 38.383 39.351 38.656 37.046 34.208 34.056 33.918 33.761 34.468 33.653 33.538 33.436 33.281 32.803 32.606 32.628 32.343 32.248 32.133 31.851 31.738 31.538 31.133 31.061 31.038 31.108 31.443 30.706 30.508 30.903 30.066 29.841 29.793 29.931 29.546 29.326 29.348 29.583 28.671 28.588 28.338 28.216 28.031 27.843 27.686 27.693 27.346 27.168 27.013 26.828 26.666 26.513 26.356 26.438 26.536 25.871 26.063 25.866 25.353 25.186 25.016 25.618 26.248 25.686 24.583 25.213 25.398 24.803 24.506 23.936 23.478 23.288 23.108 22.938 22.838 22.918 22.598 22.261 22.078 21.891 21.718 21.593 21.393 21.236 21.076 20.826 20.688 20.483 20.396 20.178 19.993 19.811 19.671 19.466 19.261 19.051 18.856 18.688 18.446 18.318 17.986 17.866 17.616 17.298 17.033 16.776 17.073 16.666 16.006 15.768 15.501 15.233 14.973 14.713 14.428 14.196 13.888 13.676 13.366 13.131 12.873 12.506 12.273 11.991 11.641 11.371 11.106 10.806 10.506 10.353 10.388 10.441 10.533 10.938 10.666 10.543 10.203 9.799 8.504 8.584 8.086 7.884 7.884 7.941 8.091 8.086 7.966 7.831 7.631 7.464 7.459 8.076 6.871 5.594 6.286 6.846 6.021 5.716 5.711 5.534 5.504 5.364 5.309 5.284 5.241 5.231 5.221 5.216 4.981 4.969 5.004 4.981 4.926 4.904 4.854 4.899 6.101 5.054 6.334 7.471 8.226 7.386 8.286 8.874 9.124 9.869 10.641 14.281 17.314 18.856 19.804 18.469 15.596 11.504 11.414 11.476 11.969 11.971 11.926 12.091 12.296 12.909 13.031 13.221 13.994 15.406 20.379 23.424 22.389 23.911 25.291 22.494 14.349 14.111 14.926 15.684 16.214 16.406 16.539 16.589 16.676 16.769 17.569 23.909 27.676 26.791 26.264 26.574 26.661 19.384 17.469 17.386 17.471 17.519 17.601 17.646 17.756 17.934 19.971 22.476 18.564 26.416 27.754 27.504 27.846 28.489 28.306 27.739 27.926 27.174 25.481 20.036 18.956 19.051 18.399 18.354 18.334 18.301 18.589 18.319 18.296 17.651 16.876 16.976 16.809 17.161 18.329 19.694 18.646 18.741 18.221 23.234 25.191 25.211 24.666 24.044 20.089 19.854 20.141 20.189 20.411 20.566 20.964 20.714 20.811 21.179 24.781 27.189 27.746 27.256 23.694 21.666 21.989 22.134 22.056 22.114 22.169 22.281 22.984 22.616 23.721 22.884 22.914 23.939 23.959 23.556 22.844 22.839 23.359 24.399 23.571 23.589 24.094 23.681 26.979 29.736 29.841 29.926 29.986 30.016 26.524 24.009 24.471 24.309 24.309 24.384 24.431 24.439 24.459 24.479 24.511 24.854 27.249 25.364 29.759 30.691 30.756 30.864 31.001 31.059 26.836 26.711 26.041 25.826 25.569 25.554 25.609 25.609 25.631 25.751 26.004 26.206 26.346 26.409 27.861 34.861 35.814 36.646 36.751 35.971 34.959 28.746 26.654 27.371 29.806 28.766 28.556 29.126 29.911 29.329 29.094 29.971 29.504 29.366 29.781 31.074 35.304 36.241 35.739 35.554 34.046 30.979 32.866 29.856 29.719 29.566 29.584 29.792 30.239 30.884 31.042 32.354 36.152 37.072 36.609 34.352
41.453 41.058 40.876 40.793 40.471 40.683 40.426 40.293 40.266 40.231 42.058 45.428 46.128 46.648 45.538 42.268 39.776 39.513 39.123 39.733 39.303 38.823 38.693 38.538 38.408 38.606 38.853 38.363 37.966 43.231 45.218 45.176 45.191 45.086 44.346 44.333 44.316 44.278 37.331 37.198 36.363 37.403 37.933 40.231 41.778 41.301 41.821 41.711 39.596 35.001 37.056 35.891 35.043 35.896 35.551 34.508 35.096 33.803 33.156 33.326 32.643 32.488 32.408 32.631 32.316 31.961 31.823 31.331 31.946 31.506 31.708 31.851 31.096 30.738 30.788 30.293 30.378 29.876 30.101 29.631 29.431 29.338 29.211 28.856 28.851 28.691 28.456 28.263 28.271 28.096 27.831 27.391 27.456 27.286 27.123 26.916 26.686 26.606 26.406 26.358 25.931 26.396 26.328 25.893 25.848 25.251 24.996 24.776 24.796 24.363 24.411 24.526 23.963 24.088 23.898 23.421 23.178 23.023 22.841 22.808 23.273 22.533 22.131 21.896 21.768 21.586 21.411 21.253 21.088 20.923 20.753 20.581 20.393 20.228 20.081 19.888 19.776 19.603 19.431 19.281 19.233 19.008 18.653 18.541 18.228 18.046 17.803 17.558 17.316 17.068 16.821 16.616 16.338 16.121 15.908 15.648 15.353 15.086 14.818 14.551 14.293 14.081 13.758 13.513 13.241 12.928 12.663 12.291 11.998 11.668 11.406 11.086 10.788 10.553 10.426 10.443 10.473 10.438 11.908 10.636 10.426 10.116 9.624 8.544 8.411 8.464 7.886 7.761 7.961 7.876 7.931 7.899 7.814 7.674 7.481 7.646 8.814 7.486 5.676 5.866 6.471 5.604 5.634 5.654 5.689 5.446 5.326 5.286 5.291 5.244 5.184 5.306 5.134 4.991 5.056 5.026 4.994 4.901 4.906 4.854 5.881 4.441 5.666 6.471 6.836 6.571 7.726 9.049 8.804 9.161 10.066 11.489 16.301 17.891 19.489 19.699 17.741 11.849 11.421 11.404 11.636 12.531 12.001 11.964 12.144 12.291 12.509 12.674 13.001 13.131 12.959 13.016 13.341 20.044 24.809 24.959 21.436 14.186 14.411 15.209 15.954 16.391 16.554 16.671 16.741 16.824 17.016 21.699 27.364 28.271 27.856 26.996 26.429 25.434 24.604 23.786 18.744 17.584 17.654 17.729 17.791 17.836 17.916 17.979 17.971 18.156 23.004 27.916 24.846 25.661 27.836 28.404 28.326 27.714 26.989 24.746 25.659 25.841 19.491 18.554 18.479 18.416 18.376 18.354 18.339 18.981 18.536 17.646 17.341 17.801 17.881 17.659 18.514 19.791 20.636 19.769 18.846 23.344 24.726 23.776 20.591 19.921 20.524 20.171 20.234 20.299 20.449 20.584 20.674 20.994 23.834 27.039 27.929 28.201 28.004 27.376 25.484 22.744 22.134 22.761 22.281 22.289 22.309 22.414 22.604 22.754 22.959 23.376 23.044 23.441 22.889 22.884 23.139 23.174 23.466 24.636 24.854 25.474 26.829 29.626 29.996 29.876 29.814 29.794 26.629 24.339 24.239 24.289 24.366 24.444 24.511 24.534 24.544 24.564 24.539 24.751 24.996 25.504 28.954 31.044 30.816 30.671 30.736 30.451 27.116 26.021 28.791 27.176 25.641 25.651 25.679 25.701 26.386 28.021 26.326 26.249 26.416 26.501 26.494 26.491 31.661 35.714 36.741 36.339 35.524 32.774 26.791 26.891 28.519 32.416 28.879 28.741 28.881 29.711 29.871 28.866 30.474 32.666 32.551 34.299 30.986 34.016 35.579 35.799 36.166 34.244 29.864 29.776 29.796 29.599 29.614 29.796 30.622 31.077 30.999 31.684 35.282 36.854 37.347 36.907 34.359
42.763 41.108 41.191 41.056 40.698 40.351 40.358 40.326 40.348 41.008 44.236 45.891 45.741 45.808 45.883 41.946 39.661 39.578 39.213 39.233 38.963 38.781 38.986 38.511 38.376 38.203 38.278 38.378 38.031 41.633 43.916 43.973 44.051 43.988 43.366 43.431 43.501 43.578 37.886 37.133 36.603 36.851 37.726 40.818 41.783 41.391 42.516 42.136 38.913 37.556 40.643 40.368 39.886 40.181 40.188 39.983 39.723 37.051 34.271 37.816 37.281 36.771 36.468 36.986 36.593 35.201 33.771 33.786 36.511 36.233 36.521 36.128 35.658 35.356 31.026 32.496 34.573 33.306 33.643 33.388 32.081 30.991 29.391 28.858 28.851 28.703 28.593 28.518 28.466 28.388 28.246 27.903 27.378 27.316 27.176 27.173 26.923 26.761 26.696 26.583 26.281 26.636 25.946 25.998 26.008 25.901 25.191 25.046 24.821 24.601 24.631 24.291 24.753 25.206 24.878 24.783 24.396 23.716 23.058 23.226 22.841 23.258 23.436 23.226 22.818 22.031 22.048 21.326 21.301 20.876 20.806 20.773 20.316 20.153 19.996 19.811 19.693 19.511 19.323 19.381 19.691 18.983 19.508 19.851 18.266 18.596 18.898 17.448 17.226 17.023 16.753 16.511 16.288 16.336 15.986 15.626 15.333 15.126 15.656 15.116 14.528 14.068 13.761 13.548 13.313 12.968 12.716 12.383 12.083 11.723 11.481 11.246 10.943 10.673 10.516 10.476 10.503 10.616 10.521 10.128 9.726 9.488 9.171 8.434 8.139 8.056 7.836 7.834 8.101 8.021 7.936 7.904 7.811 7.636 7.519 7.369 7.346 7.089 7.549 8.521 6.821 5.529 5.641 5.596 5.709 5.366 5.309 5.296 5.316 5.289 5.214 5.154 5.036 5.036 5.076 5.036 4.919 4.894 4.874 4.794 6.799 4.351 4.999 6.849 6.559 6.519 8.226 8.859 8.966 9.531 10.401 13.401 16.971 18.559 20.019 21.199 19.184 11.814 11.409 11.519 11.691 12.009 11.831 11.981 12.174 12.346 12.499 12.814 13.359 12.964 12.841 12.906 13.004 13.641 18.416 23.681 16.846 13.961 14.576 15.361 16.121 16.531 16.679 16.806 16.914 16.964 19.636 23.549 26.306 27.529 28.214 28.099 27.231 26.449 27.401 27.926 25.979 17.841 17.801 17.876 17.906 17.949 17.974 18.014 18.184 18.541 18.721 20.659 25.216 27.851 28.074 27.786 28.329 28.409 25.089 22.199 26.351 28.874 24.131 19.429 18.649 18.531 18.491 18.476 18.641 18.871 18.401 18.479 18.254 17.451 17.309 17.799 19.726 21.954 21.921 23.041 22.404 19.829 21.649 20.354 19.751 19.756 20.364 20.201 20.186 20.306 20.441 20.551 20.731 22.946 26.354 27.779 27.974 27.611 28.044 27.866 27.136 23.814 22.346 22.411 22.556 22.376 22.426 22.456 22.536 22.716 22.939 23.134 23.004 22.946 22.929 23.081 23.759 23.286 23.861 24.604 26.234 27.131 29.951 30.229 30.144 30.001 29.899 27.381 24.511 24.269 24.361 24.426 24.474 24.531 24.586 24.626 24.641 24.669 25.431 25.149 25.036 28.126 31.021 31.286 31.074 30.849 30.439 26.871 25.226 25.929 26.306 25.914 25.751 25.756 25.766 25.779 27.249 27.879 27.649 27.119 26.769 26.559 26.536 26.879 31.249 35.466 36.129 35.936 35.136 26.924 27.044 27.794 30.434 29.361 28.956 29.011 28.661 28.606 30.069 29.714 29.774 34.284 35.321 35.879 34.974 31.249 33.511 35.919 34.619 31.054 30.521 29.751 29.681 29.716 29.969 30.484 30.779 31.007 31.452 33.959 36.697 37.259 37.107 36.424 33.582
42.938 41.578 41.516 41.206 40.976 40.443 40.413 40.386 40.388 42.011 45.406 45.928 46.461 46.086 43.421 39.713 39.623 40.598 42.218 40.118 39.326 38.793 39.066 38.718 38.338 38.228 38.091 37.953 38.546 38.191 39.313 38.913 39.898 40.328 39.226 39.178 39.858 40.916 37.741 36.831 36.841 36.608 35.928 41.233 41.693 41.451 42.291 41.981 38.271 37.886 41.903 41.878 41.901 41.958 41.781 41.686 41.696 37.281 36.633 40.028 39.926 39.848 39.763 39.636 39.616 39.516 36.451 34.546 37.488 38.446 38.683 38.491 38.223 37.496 32.401 34.698 36.981 37.068 37.006 36.933 36.788 34.656 29.366 30.686 31.881 32.381 30.701 31.048 29.923 29.578 29.326 28.196 28.223 27.783 27.806 27.328 27.373 27.491 26.891 26.826 26.718 26.306 26.268 27.866 27.176 26.178 25.351 25.246 25.053 24.843 24.478 24.598 24.841 24.731 24.111 23.881 24.508 23.916 23.038 22.976 24.243 23.121 22.893 22.798 24.911 23.651 22.391 21.761 21.851 21.486 21.206 21.491 20.681 20.588 20.551 20.773 20.813 20.688 19.566 19.193 18.973 19.251 18.761 18.781 18.268 17.953 17.723 17.466 17.213 16.936 16.688 16.471 16.211 16.378 16.091 15.451 15.183 15.041 16.208 15.976 15.748 13.916 13.653 13.368 13.136 12.848 12.551 12.356 13.043 12.541 11.421 11.123 10.901 10.653 10.526 10.508 10.506 10.781 10.711 10.258 9.626 9.198 8.896 8.316 8.146 8.094 7.991 7.951 8.094 8.011 7.891 7.854 7.776 7.646 7.519 7.436 7.269 6.791 7.321 7.959 6.976 5.609 5.549 5.581 5.499 5.324 5.291 5.291 5.301 5.269 5.266 5.161 4.986 5.081 5.069 5.029 4.919 4.899 4.854 5.446 5.409 5.361 6.094 6.409 6.444 6.901 8.724 9.314 9.089 9.514 10.164 10.799 14.541 17.574 20.674 20.829 13.824 11.429 11.401 11.409 11.596 11.736 11.856 12.026 12.161 12.344 12.474 12.724 13.441 13.309 12.919 12.921 13.019 13.719 13.349 13.599 14.381 13.894 14.591 15.474 16.309 16.639 16.796 16.956 17.056 17.036 21.621 22.864 24.854 26.539 27.441 28.201 28.054 27.301 27.201 27.599 22.791 17.964 17.924 17.951 18.046 18.041 18.064 18.076 18.071 18.261 18.916 19.151 21.259 26.981 28.504 27.714 26.874 25.466 19.621 24.976 28.239 28.526 28.236 22.391 19.234 18.661 18.586 18.554 18.539 18.496 18.669 19.156 18.896 17.779 17.786 18.876 19.389 21.604 23.351 24.764 24.741 22.584 19.439 19.321 19.689 19.861 20.001 20.066 20.169 20.334 20.381 20.579 21.961 25.394 26.949 27.586 27.319 25.301 27.314 27.319 23.796 24.464 26.671 23.404 22.239 22.321 22.506 22.601 22.591 22.644 22.749 22.844 22.884 22.936 22.981 23.124 23.254 23.461 23.766 24.226 26.126 29.706 30.026 30.136 30.196 30.134 28.421 24.474 24.534 25.879 24.611 24.571 24.639 24.636 24.686 24.721 24.751 25.406 25.976 26.336 28.324 31.181 31.444 31.459 31.311 31.096 28.899 26.114 26.801 26.876 26.449 26.029 25.881 25.886 25.894 26.269 26.519 27.779 28.299 28.721 27.166 26.774 26.601 26.564 28.066 34.196 35.339 35.446 30.926 27.166 27.414 30.511 31.539 29.664 28.909 29.031 29.254 29.116 29.654 30.446 30.571 35.231 36.074 35.609 35.459 34.894 30.614 33.704 32.746 30.981 29.786 29.709 29.774 30.871 30.991 30.971 31.587 31.212 33.454 36.499 37.157 37.252 36.617 34.902 31.722
42.433 42.531 41.771 41.081 40.648 40.478 40.466 40.436 41.246 44.161 45.391 45.008 44.798 45.676 42.158 39.613 39.578 43.226 44.931 44.131 41.621 39.271 38.621 38.498 38.196 38.118 38.011 37.848 37.728 37.783 37.706 37.773 37.541 37.928 37.061 36.943 36.943 36.943 36.916 36.433 37.006 37.221 36.033 37.158 38.631 38.891 40.263 40.841 38.566 36.198 40.793 40.881 40.953 41.046 41.106 41.203 41.203 35.463 36.181 40.111 40.181 40.288 40.581 40.311 40.306 40.446 37.103 34.318 37.541 38.608 38.796 38.836 38.728 37.191 32.048 35.071 37.496 38.311 38.391 38.343 37.741 35.761 29.586 34.161 35.506 35.458 35.361 35.281 34.861 34.508 33.913 29.738 32.678 32.468 32.448 32.451 31.828 32.086 30.616 30.908 27.153 29.251 28.976 29.731 29.336 28.251 27.263 26.706 26.816 25.841 28.176 28.983 29.261 28.271 28.386 28.268 26.696 23.926 26.098 25.186 25.838 25.606 24.383 24.428 24.701 22.863 21.886 21.743 21.623 21.506 21.871 21.238 21.101 21.366 20.776 20.893 20.156 19.971 20.161 19.558 19.391 19.233 19.286 19.283 18.736 18.173 17.821 17.626 17.533 17.283 16.988 17.558 16.436 17.186 16.651 16.241 15.303 15.596 15.496 14.731 14.756 14.431 13.803 13.748 13.441 12.936 13.068 12.333 12.218 12.031 11.428 11.098 10.786 10.556 10.473 10.533 10.538 10.631 10.971 11.053 9.568 9.258 8.824 8.249 8.186 8.101 7.994 7.956 7.971 7.914 7.889 7.811 7.714 7.581 7.566 7.556 7.236 6.476 7.691 7.149 6.904 5.586 5.524 5.629 5.354 5.326 5.289 5.314 5.251 5.254 5.246 5.081 5.009 5.056 5.041 4.989 4.916 4.884 4.836 5.666 5.376 5.496 6.309 6.379 6.546 8.039 8.826 9.019 9.291 9.614 10.024 10.306 11.394 12.831 15.814 17.616 11.736 11.431 11.431 11.571 11.751 11.809 11.899 12.036 12.174 12.319 12.454 12.564 12.609 13.129 12.756 12.849 13.099 13.721 13.169 13.771 13.879 13.621 14.444 15.564 16.401 16.761 16.959 17.084 17.154 17.169 17.459 20.026 26.054 26.346 26.444 27.264 28.129 28.154 27.324 22.766 18.129 17.926 17.994 18.079 18.121 18.129 18.134 18.101 18.094 18.174 18.379 18.784 19.261 20.256 26.301 24.334 24.061 20.384 25.641 28.879 28.269 28.039 27.831 28.039 26.571 20.566 18.736 18.671 18.639 18.611 18.644 18.861 18.796 18.204 18.679 17.979 17.961 21.681 24.474 25.244 24.386 24.726 23.704 18.936 20.076 19.894 19.946 20.039 20.189 20.304 20.379 20.881 24.791 26.789 27.481 27.074 24.871 21.646 22.979 24.726 24.434 27.761 28.249 27.569 23.801 22.486 22.434 22.614 22.689 22.784 22.829 22.864 22.919 23.006 23.101 23.241 23.494 23.684 23.854 25.124 29.146 29.841 29.879 30.004 30.114 29.409 24.289 24.286 24.441 24.591 24.611 24.681 24.719 24.796 24.831 24.856 24.919 25.414 25.141 27.611 30.666 31.224 31.336 31.456 31.509 29.054 25.061 27.051 27.649 27.354 26.346 26.434 26.006 26.006 26.554 27.191 26.466 27.896 27.604 27.854 28.229 26.934 26.719 26.686 26.751 26.809 29.321 31.924 28.024 27.236 28.386 30.651 29.236 28.904 28.854 29.804 31.316 31.611 31.849 33.756 31.091 32.451 35.369 35.644 36.169 34.059 30.809 30.281 30.299 29.801 29.814 29.829 30.996 31.169 32.261 32.739 32.012 32.297 36.097 36.979 37.362 36.802 35.097 32.499 31.519
42.636 41.963 42.831 42.173 40.658 40.511 40.516 40.578 41.458 44.856 45.393 44.241 42.843 43.251 40.986 40.703 40.358 44.588 45.298 45.473 44.996 43.398 39.076 39.978 38.313 37.936 37.878 37.766 37.663 37.513 37.883 37.701 37.343 37.268 37.078 37.046 37.056 37.138 37.378 36.866 36.703 37.623 37.281 36.243 35.543 35.483 36.601 37.193 36.673 34.446 35.566 37.606 38.033 36.868 37.853 38.091 38.318 35.558 35.033 37.746 37.753 38.133 37.718 38.503 38.126 38.448 35.616 32.968 36.323 36.861 37.111 37.101 37.281 36.641 30.893 34.708 36.901 37.066 37.188 37.251 37.181 34.221 30.768 35.703 36.553 36.506 36.661 36.701 36.536 36.553 35.543 29.533 34.393 34.761 34.726 34.596 34.551 34.486 34.366 33.613 27.536 31.753 32.446 32.358 32.281 32.221 32.083 31.913 31.743 26.551 29.578 31.331 31.563 31.686 31.381 31.213 30.231 24.196 29.116 29.451 29.388 29.306 29.153 28.623 26.013 22.908 23.838 22.988 23.216 23.898 23.436 22.488 21.263 20.998 20.668 20.798 20.501 20.041 20.118 19.841 19.711 19.756 19.408 19.321 18.813 18.078 17.761 17.553 17.911 17.573 17.933 17.381 16.596 16.391 18.341 19.771 17.348 15.623 15.333 15.001 14.706 14.421 14.113 13.816 13.598 12.948 12.938 12.706 12.478 12.313 12.038 11.711 11.258 10.873 10.511 10.503 10.546 10.603 11.106 10.641 9.201 9.311 8.644 8.171 8.161 8.109 8.006 7.929 7.929 7.961 7.906 7.864 7.719 7.549 7.476 7.624 7.069 6.149 6.834 6.801 6.274 5.621 5.461 5.376 5.291 5.276 5.374 5.381 5.256 5.161 5.134 4.996 5.061 5.091 5.001 4.964 4.924 4.876 5.206 5.659 6.024 6.379 6.636 6.489 7.419 9.389 8.871 9.164 9.464 9.831 12.254 12.639 12.076 12.079 11.586 11.354 11.346 11.366 11.494 11.629 11.724 11.831 11.959 12.084 12.216 12.621 14.196 18.491 15.849 12.689 12.749 12.846 12.934 13.029 13.146 13.359 13.484 13.466 14.089 14.454 15.851 16.814 17.046 17.121 17.211 17.289 17.274 17.199 18.576 25.706 22.899 25.726 27.286 28.136 22.099 18.141 17.956 18.011 18.069 19.839 20.709 18.291 18.234 18.174 18.244 18.191 18.299 18.449 18.624 18.674 20.579 23.549 20.819 23.671 28.254 28.929 29.009 28.414 27.986 28.366 28.691 27.819 19.879 18.806 18.749 18.716 19.026 19.889 21.566 20.634 18.366 17.949 17.956 18.974 23.734 24.464 24.866 24.919 20.461 19.019 20.031 19.946 19.986 20.046 20.174 20.214 20.389 20.804 25.646 27.449 27.206 25.904 21.589 21.169 21.274 23.869 27.316 28.266 28.061 28.299 27.646 24.176 22.564 22.539 22.719 22.851 22.924 22.991 23.004 23.074 23.171 23.456 23.979 23.776 24.649 29.116 30.026 29.891 29.839 29.874 29.654 25.289 24.734 24.664 24.566 24.636 24.709 24.776 24.846 24.914 24.959 24.989 25.116 25.336 26.219 29.959 31.191 31.136 31.204 31.309 29.846 25.581 25.571 26.991 27.894 26.281 26.899 26.681 26.074 26.669 27.066 27.454 27.096 27.529 27.681 27.186 27.831 27.596 26.871 26.819 26.869 26.924 26.941 26.874 27.161 27.614 29.644 30.289 29.256 29.771 28.939 29.769 30.186 32.421 34.439 35.056 33.756 30.066 32.111 35.604 34.311 31.644 30.601 30.076 29.799 29.836 29.871 30.011 30.526 31.076 33.019 33.169 32.959 35.227 36.804 37.337 36.964 35.964 31.972 31.052 31.149
42.626 42.063 43.276 43.151 41.343 40.563 40.578 40.828 41.311 41.281 43.823 42.406 42.788 42.411 40.228 39.666 43.333 45.076 44.951 44.953 45.046 41.018 39.178 39.386 38.158 37.943 37.728 37.633 37.556 37.446 37.261 37.411 37.941 37.161 37.123 37.148 37.081 36.883 36.743 36.601 36.596 37.268 36.251 35.948 35.838 35.538 35.396 35.481 36.253 34.981 35.336 34.688 34.781 34.793 36.481 36.481 36.226 35.666 33.563 34.883 34.693 34.933 33.223 33.258 33.628 32.773 32.541 31.321 31.693 31.433 31.633 32.566 33.238 33.633 30.993 31.218 31.881 32.583 33.311 33.583 32.738 31.616 30.131 34.636 34.883 34.936 34.751 34.988 35.433 35.448 32.753 28.911 33.618 34.313 34.396 34.533 34.611 34.553 34.761 31.983 27.216 32.298 33.278 33.338 33.551 33.588 33.436 33.421 32.958 25.486 29.251 31.793 32.358 32.496 32.423 31.821 27.723 26.398 29.373 30.671 30.983 30.863 30.681 29.733 26.486 24.018 28.103 27.643 27.823 27.908 27.508 27.278 26.931 23.216 21.826 25.158 25.021 24.946 24.481 23.893 23.708 23.541 20.041 19.921 19.586 19.566 19.013 17.956 17.586 17.323 17.441 17.013 16.723 16.488 18.371 18.838 17.171 15.803 15.461 15.111 14.753 14.538 14.238 13.758 13.008 12.211 12.076 12.891 16.136 14.316 13.861 12.771 11.503 11.118 10.818 10.553 10.518 10.566 10.566 10.293 8.956 9.258 8.484 8.191 8.171 8.016 7.941 7.931 7.939 7.921 7.919 7.856 7.714 7.549 7.546 7.579 7.559 5.849 6.301 6.776 6.089 5.526 5.454 5.334 5.266 5.289 5.389 5.266 5.266 5.206 5.044 5.006 5.119 5.044 4.944 4.906 4.926 4.876 5.891 5.336 6.121 6.794 6.891 7.604 9.771 9.381 9.021 9.286 9.584 10.301 15.579 17.844 17.169 15.966 12.886 11.384 11.324 11.404 11.569 11.674 11.766 11.899 12.004 12.134 12.261 13.014 16.231 22.009 23.466 18.521 12.956 12.804 12.881 12.956 13.086 13.189 13.316 13.739 13.834 14.411 14.151 16.886 17.121 17.186 17.271 17.344 17.434 17.396 17.286 19.171 23.866 27.461 27.431 23.169 18.651 18.004 18.041 18.089 19.201 25.311 27.231 20.469 18.411 18.486 19.209 18.449 18.389 18.409 18.569 18.726 18.971 19.789 21.441 28.144 28.196 28.246 28.831 29.039 28.444 28.091 28.276 27.981 25.214 19.411 18.886 18.956 19.939 19.901 21.331 22.129 18.529 18.391 18.119 18.919 22.826 23.466 24.519 21.706 18.921 19.619 19.919 20.656 20.106 20.019 20.061 20.231 20.404 22.016 21.776 25.409 26.411 22.241 21.106 21.254 22.114 24.689 27.559 28.259 27.946 27.931 28.596 27.894 24.019 22.741 23.086 23.536 23.029 23.104 23.104 23.154 23.281 23.489 24.026 23.794 24.011 28.654 30.126 30.021 29.891 29.509 25.984 24.586 24.551 24.719 24.644 24.731 24.776 24.849 24.946 24.999 25.071 25.161 25.174 25.186 28.809 31.386 31.299 31.199 31.151 29.964 26.174 25.504 26.141 26.809 26.231 26.174 26.454 26.214 26.389 27.836 28.649 27.231 27.536 28.079 27.456 28.334 29.724 30.054 27.804 27.084 26.999 27.089 27.156 27.234 27.366 28.439 29.646 29.446 31.229 31.529 30.071 30.336 29.911 34.389 35.214 34.864 34.784 34.061 29.819 31.366 31.136 31.784 29.961 29.821 29.904 30.004 30.084 30.184 30.311 31.734 33.034 33.099 33.174 33.187 32.712 36.849 36.484 33.019 31.347 31.897 31.312
42.788 42.243 43.028 43.736 41.626 40.766 40.936 40.388 40.311 41.971 42.011 41.261 41.353 40.861 39.636 40.191 44.001 45.203 45.713 45.211 43.931 40.208 38.938 38.948 38.703 38.048 38.066 37.536 37.551 37.461 37.178 37.016 37.201 37.606 36.713 36.968 37.226 37.006 37.543 38.048 37.701 36.831 36.458 35.771 35.616 36.391 35.783 35.723 35.791 36.011 36.203 34.308 34.266 34.276 34.318 34.183 35.846 35.341 34.056 34.241 33.058 34.683 35.946 32.911 33.098 34.048 33.108 32.386 31.716 31.501 31.668 31.338 31.428 32.046 31.033 30.411 30.571 30.261 30.348 30.016 30.048 29.861 29.356 29.361 29.173 28.808 29.656 29.371 30.003 30.166 28.773 28.206 28.801 30.576 30.168 30.913 31.886 32.816 31.196 29.658 26.758 29.813 31.461 31.898 32.023 32.023 32.176 32.273 31.131 25.433 29.223 30.383 30.893 30.973 31.033 31.023 27.096 26.006 29.323 29.931 30.048 30.138 30.131 29.566 23.113 23.943 29.381 29.401 29.441 29.591 29.301 29.198 29.093 24.121 22.241 27.421 27.296 27.296 27.396 27.133 27.041 26.963 21.736 20.043 18.861 22.676 23.181 22.633 20.081 17.766 17.211 19.238 18.058 18.111 18.711 18.316 16.531 16.096 15.513 15.618 15.353 14.766 14.368 13.758 12.576 12.566 12.491 13.541 18.338 18.688 18.383 17.268 11.916 10.973 11.336 10.651 10.541 10.648 10.803 11.223 10.006 10.501 8.371 8.276 8.201 8.016 8.056 8.061 7.974 7.974 7.926 7.811 7.684 7.579 7.541 7.354 7.024 7.446 7.444 6.649 5.606 5.484 5.411 5.311 5.286 5.296 5.269 5.209 5.201 5.111 4.981 5.084 5.111 5.041 4.956 5.006 4.906 5.181 5.964 6.409 6.314 6.416 7.094 8.661 9.564 9.451 9.219 9.636 10.579 13.641 17.176 18.669 19.029 17.761 12.929 11.236 11.329 11.434 11.611 11.711 11.814 11.949 12.039 12.204 13.196 12.766 17.341 22.871 23.881 22.491 16.334 14.661 13.121 12.941 13.039 13.131 13.239 13.346 13.644 13.889 15.896 17.066 17.144 17.244 17.331 17.406 17.486 17.549 17.576 17.509 18.944 23.341 25.816 19.789 18.049 18.054 18.111 18.436 23.674 27.769 28.349 26.486 19.439 18.616 18.566 18.754 18.671 18.506 18.516 18.661 18.786 18.919 20.204 27.949 28.569 27.809 28.136 28.726 29.019 28.514 27.959 27.754 23.026 19.056 19.151 20.196 19.836 19.801 19.951 20.464 19.411 19.989 19.014 19.746 19.996 19.481 21.564 18.746 19.364 19.811 19.844 20.106 19.914 19.974 20.176 20.781 22.464 25.699 24.761 20.661 21.101 20.996 22.354 22.889 24.281 24.789 25.659 27.671 28.254 28.084 27.841 26.224 24.646 25.769 23.076 23.329 23.266 23.171 23.256 23.289 23.381 23.516 23.919 23.874 24.346 24.144 27.186 29.996 29.561 25.929 24.481 25.019 24.556 24.676 24.791 24.841 24.881 24.954 25.014 25.094 25.206 25.309 26.049 29.374 27.649 28.786 31.464 31.301 30.569 26.629 25.449 25.674 26.959 27.099 26.704 26.681 26.201 26.244 27.544 27.309 27.201 27.196 27.244 29.799 29.036 31.091 31.119 32.809 32.039 27.949 27.286 27.246 27.314 27.396 27.681 28.744 29.214 29.339 31.261 31.564 31.539 31.934 31.324 30.699 34.429 34.966 35.471 33.121 30.011 29.804 30.221 29.826 29.861 29.979 30.304 30.394 30.314 30.369 30.439 30.616 31.976 32.729 33.102 32.907 32.174 31.927 32.339 31.044 31.299 32.142 32.652
42.866 42.123 42.078 41.851 41.608 41.066 41.258 40.288 40.098 40.378 40.636 40.076 39.846 39.663 39.463 41.036 43.761 45.363 45.166 44.931 39.898 39.026 39.836 40.381 42.231 39.953 38.218 37.931 37.456 38.381 37.226 36.951 36.796 36.656 36.526 36.563 38.498 40.423 41.641 41.783 37.813 38.026 38.343 35.776 35.628 35.643 35.478 35.551 35.058 35.343 35.388 34.263 34.143 34.551 34.216 34.128 35.636 34.836 34.283 34.386 33.013 34.308 36.156 33.278 33.236 34.316 33.023 33.803 33.218 31.506 32.081 31.628 31.476 33.578 31.413 32.023 30.471 30.503 31.498 30.211 31.016 30.733 29.541 30.326 28.873 28.843 28.813 28.696 28.648 29.048 28.531 27.646 28.066 27.536 27.486 27.423 29.676 30.068 27.318 26.981 27.091 26.221 27.568 28.793 28.201 26.651 26.873 25.923 26.543 26.323 26.488 24.923 25.376 26.701 26.098 25.738 25.518 23.933 26.561 25.781 26.341 26.411 26.411 26.893 23.038 23.526 28.298 28.356 28.418 28.551 28.738 28.778 28.238 22.241 21.896 27.361 27.516 27.543 27.743 27.493 27.561 27.633 23.921 19.163 19.226 22.953 24.776 24.423 22.118 19.391 19.846 22.463 22.588 22.283 18.586 17.556 16.526 15.791 15.403 15.703 15.736 15.098 14.551 14.036 13.083 12.898 13.038 15.441 18.768 19.936 19.266 16.796 12.011 10.961 11.043 10.643 10.558 10.798 11.746 11.733 10.338 9.166 8.269 8.346 8.099 8.051 8.054 8.014 8.006 8.174 8.011 7.844 7.909 8.511 7.856 7.294 6.769 7.056 7.369 7.021 5.604 5.474 5.354 5.286 5.244 5.239 5.229 5.199 5.181 5.074 5.016 5.161 5.069 5.004 4.966 4.959 4.856 5.449 6.169 6.106 6.099 6.334 7.739 9.569 10.274 9.624 9.281 9.749 12.291 16.004 17.869 19.289 18.591 16.986 12.011 11.561 11.766 11.444 11.601 11.761 11.846 11.966 12.076 12.941 12.939 14.176 21.079 23.639 23.434 21.466 20.751 21.976 20.044 14.251 12.904 13.116 13.211 13.316 13.419 13.896 16.724 17.136 17.221 17.291 17.384 17.466 17.546 17.644 17.704 17.779 18.016 19.459 19.569 18.126 18.086 18.139 18.209 21.219 27.274 27.609 27.531 25.959 25.011 22.731 19.081 18.709 19.514 18.719 18.596 18.636 18.746 18.941 19.251 20.194 27.691 27.979 28.324 28.156 28.629 29.051 28.659 24.464 19.694 19.266 20.081 19.931 19.949 19.899 19.824 20.329 21.689 22.686 20.369 19.624 19.784 19.294 18.891 19.156 19.629 19.656 19.729 19.791 19.821 20.166 20.376 22.724 25.416 26.194 25.451 23.536 20.604 22.436 23.049 22.316 24.369 25.894 27.359 26.554 27.569 28.171 26.949 24.496 26.939 28.206 26.924 23.709 23.534 23.791 23.354 23.439 23.479 23.551 23.739 24.551 24.979 23.986 24.376 27.414 27.519 24.224 24.366 24.606 24.606 24.799 24.884 24.916 24.991 25.076 25.134 25.226 25.359 25.596 29.626 31.599 31.146 27.469 28.801 31.164 26.721 25.694 26.086 26.321 26.691 26.494 27.071 26.354 26.279 27.031 27.909 27.699 27.421 27.356 27.581 27.841 31.649 32.646 32.951 33.426 32.996 31.859 28.089 27.434 27.486 27.606 28.916 28.656 28.689 28.926 29.711 31.264 32.311 34.341 34.584 31.646 30.989 34.721 33.511 30.051 29.844 29.889 29.841 29.894 30.131 30.564 30.489 30.691 30.449 30.739 30.616 31.416 31.269 31.394 32.387 32.169 32.127 32.152 32.459 31.729 31.912 32.447 32.769
42.191 42.066 43.078 43.223 43.018 41.968 40.506 40.028 40.038 40.181 40.388 39.886 39.693 39.633 39.363 41.486 42.711 44.643 44.661 42.871 39.276 40.363 40.418 42.136 43.701 43.181 40.786 38.043 37.443 37.286 37.011 36.796 36.668 36.513 36.376 36.721 39.308 42.746 43.033 42.886 40.216 38.333 38.508 35.643 35.583 35.501 35.456 35.638 35.088 34.678 34.486 34.236 34.113 35.091 34.421 33.951 34.791 33.988 33.708 33.348 33.066 33.063 33.098 32.553 32.923 33.288 32.411 33.628 33.111 31.503 32.273 32.698 31.561 31.896 31.226 30.783 30.458 30.516 30.921 29.976 30.528 30.436 30.338 31.081 28.923 28.863 28.833 28.598 28.578 29.748 28.111 27.526 29.248 27.751 27.416 27.366 27.456 28.371 26.976 26.831 28.101 28.351 26.223 25.921 26.613 26.078 25.996 26.271 25.431 25.961 26.546 24.801 24.618 25.571 24.193 23.988 24.763 23.766 23.171 24.391 23.981 23.416 22.843 22.683 22.988 22.046 23.081 23.201 22.648 25.146 26.006 25.811 25.411 21.323 20.566 23.291 24.981 24.471 24.028 25.383 25.613 25.283 22.573 19.373 20.061 23.736 24.896 24.566 20.973 19.326 20.101 22.911 23.731 22.638 19.603 17.791 15.946 15.268 14.996 14.728 14.626 14.458 14.128 13.871 14.023 14.783 15.136 17.058 19.148 20.246 19.141 16.526 11.253 11.096 11.516 10.651 10.776 10.968 11.981 11.783 9.836 9.283 8.149 8.036 8.021 8.001 8.014 8.014 7.984 8.009 7.961 8.189 8.246 9.454 7.941 7.309 6.254 6.331 7.181 6.119 5.481 5.424 5.381 5.249 5.231 5.254 5.254 5.196 5.144 4.994 5.089 5.111 5.089 4.974 4.966 4.911 5.174 5.919 5.516 5.874 6.149 7.209 7.339 8.706 9.846 9.074 9.461 10.846 14.046 16.954 18.474 20.069 20.196 13.969 11.111 11.216 11.779 11.636 11.624 11.739 11.879 11.999 12.111 13.076 13.299 17.024 22.599 23.891 22.689 21.051 22.059 24.034 23.661 18.826 12.666 13.079 13.179 13.281 13.376 14.994 17.091 17.211 17.304 17.361 17.449 17.521 17.611 17.756 17.806 17.881 17.989 18.019 18.076 18.106 18.186 18.296 21.279 26.614 28.499 28.086 27.469 26.911 28.064 28.396 23.894 19.111 18.726 18.696 18.684 18.726 18.794 18.906 19.056 19.414 20.224 27.046 28.761 28.351 27.966 28.514 25.276 19.194 19.339 20.106 20.061 20.174 19.994 20.171 22.874 21.491 20.551 20.544 22.441 20.819 19.304 20.126 19.494 19.704 19.566 19.606 19.701 19.744 19.964 20.306 22.139 25.426 26.266 25.516 25.254 25.241 23.949 21.494 22.604 22.859 22.859 23.376 23.586 24.419 26.084 25.106 24.419 26.794 28.249 28.801 28.649 27.351 24.654 23.551 23.251 23.461 23.599 23.654 23.766 24.046 24.031 24.081 24.134 24.391 24.311 24.329 24.661 24.569 24.764 24.874 24.914 24.974 25.051 25.116 25.241 25.384 25.419 28.816 31.344 31.451 31.569 31.671 27.741 25.549 25.681 25.929 26.246 26.564 26.386 26.836 26.306 26.324 26.906 26.894 27.254 27.189 27.721 27.639 31.236 30.721 29.936 32.021 33.246 32.974 33.509 32.641 29.934 27.709 27.691 28.734 29.834 29.474 29.219 28.884 28.971 32.206 34.471 34.864 34.556 34.556 30.799 31.089 29.856 29.961 29.896 29.861 30.039 31.379 30.919 30.529 31.054 32.869 31.861 31.464 32.001 31.044 30.849 31.391 31.502 31.987 32.144 32.397 36.207 37.247 34.569 32.334 32.534
42.208 42.461 42.996 42.406 42.808 41.488 40.173 39.961 39.941 39.886 39.886 39.593 39.526 39.323 39.076 39.271 41.428 42.086 41.138 39.461 38.678 38.481 40.896 43.501 43.613 44.046 43.733 41.511 38.138 37.358 36.826 36.591 36.503 36.381 36.248 36.436 36.838 41.788 42.208 42.976 42.273 38.528 36.993 35.651 35.571 35.476 35.426 35.356 34.898 34.588 34.448 34.173 34.088 34.818 34.256 34.066 34.033 34.866 33.576 33.308 33.418 33.856 33.446 32.473 32.426 32.083 31.986 32.733 31.921 31.483 32.226 31.921 31.253 32.138 31.293 30.673 30.396 30.543 30.388 29.968 29.833 29.831 29.593 29.796 28.926 28.966 28.801 28.526 28.441 29.478 28.196 28.153 29.276 27.678 27.431 27.378 27.288 27.321 26.686 27.251 28.191 28.453 26.451 26.028 26.823 26.071 25.858 27.123 26.501 25.166 26.478 24.801 24.813 25.091 24.336 25.156 26.268 25.078 23.843 23.931 24.078 24.398 23.526 24.128 22.648 22.831 22.396 21.788 22.601 24.118 24.693 24.706 24.236 21.178 20.381 20.353 20.296 20.416 21.473 22.646 21.303 19.911 19.801 20.316 19.411 21.928 23.596 23.751 20.611 19.346 19.571 22.978 23.451 21.343 17.793 18.361 15.781 15.176 14.831 14.578 14.346 14.181 13.961 13.753 13.271 13.171 13.211 17.441 19.456 20.163 19.143 15.116 11.333 10.861 11.078 10.656 10.723 10.946 10.431 10.091 9.593 8.818 8.014 7.939 7.904 7.939 7.899 7.949 7.931 8.109 8.084 8.631 8.176 7.894 7.801 7.634 7.321 7.956 7.414 6.259 5.399 5.304 5.286 5.221 5.254 5.554 5.229 5.211 5.119 5.059 5.146 5.044 5.041 4.981 4.934 4.909 5.549 6.019 5.144 6.049 6.431 7.036 8.774 9.146 8.851 9.034 9.759 13.474 16.101 17.629 19.166 20.694 20.066 13.234 11.091 11.239 11.351 11.479 11.629 11.761 11.901 12.029 12.159 12.289 14.391 21.469 23.471 23.621 21.636 21.101 22.951 24.254 22.336 14.851 13.004 13.059 13.171 13.334 13.751 16.794 17.561 18.071 17.431 17.414 17.506 17.596 17.664 17.756 17.874 17.969 18.044 18.084 18.149 18.201 18.239 19.939 26.924 27.596 27.999 28.496 28.389 27.606 27.961 28.366 26.704 21.391 18.944 18.874 18.841 18.854 18.936 18.951 19.041 19.149 19.431 19.476 24.379 28.359 27.786 24.969 19.289 19.336 19.911 20.081 20.066 20.024 20.089 22.826 26.256 27.116 24.191 19.949 22.009 22.029 19.559 19.736 19.489 19.459 19.521 19.596 19.666 19.779 20.729 21.489 25.271 25.924 25.664 25.279 24.469 24.166 24.259 21.406 22.759 23.451 22.436 22.184 22.384 22.976 22.549 23.031 23.719 27.996 28.764 28.486 28.776 28.574 25.714 23.589 23.326 23.529 24.311 23.746 23.816 23.871 24.081 24.284 24.796 24.196 24.326 24.439 24.516 24.689 24.831 24.906 24.971 25.041 25.101 25.309 25.476 25.446 28.329 31.151 31.356 31.326 31.451 31.506 27.971 25.649 25.941 27.339 27.279 26.414 26.979 26.646 26.369 27.254 27.464 27.279 27.224 27.324 27.614 29.046 32.354 32.819 32.086 30.416 32.534 33.269 33.044 29.544 28.971 27.959 28.621 28.906 29.049 30.191 31.096 29.536 29.591 31.004 33.934 34.509 34.766 34.686 31.704 29.734 29.939 29.904 29.924 30.419 32.506 32.444 32.011 31.114 32.664 33.076 33.044 32.124 32.381 31.249 31.004 32.581 32.189 32.117 32.534 35.714 37.799 38.429 38.569 34.539 32.789
41.688 41.548 42.398 41.861 42.278 40.483 40.503 40.313 39.848 39.648 39.508 39.486 39.466 39.163 39.248 40.043 39.531 39.241 39.023 38.621 38.448 38.891 42.936 43.856 44.388 43.511 43.481 42.906 40.966 36.986 36.743 36.768 36.296 36.241 36.121 35.978 36.401 36.626 37.523 41.366 42.933 40.443 36.258 35.661 35.548 35.566 35.541 35.398 34.701 34.576 34.418 34.126 34.026 34.388 34.021 33.698 33.673 35.063 33.196 33.011 32.806 35.313 34.018 32.391 32.326 32.076 32.143 32.253 31.528 31.501 32.278 31.731 31.213 32.671 31.288 30.586 30.306 31.131 31.043 29.896 29.826 29.858 29.233 29.001 29.041 29.261 28.831 28.506 28.411 28.373 28.108 28.258 27.681 27.573 27.456 27.553 27.533 28.178 28.021 27.381 27.761 27.538 27.208 26.503 27.188 25.521 25.688 26.146 25.723 26.271 26.608 25.751 24.888 25.663 25.101 25.346 25.486 25.733 24.753 23.246 23.821 24.331 22.961 23.681 22.736 23.631 23.613 21.861 22.843 24.211 24.438 24.506 24.133 21.433 20.788 20.403 21.246 21.383 20.846 20.796 20.531 20.151 21.333 20.628 18.356 17.703 19.976 20.741 20.858 18.823 16.608 19.383 19.806 19.041 17.901 17.656 15.686 15.106 14.823 14.596 14.441 14.111 13.948 13.506 13.241 12.776 12.601 17.471 19.436 19.786 18.503 13.491 11.448 10.676 10.651 10.656 10.741 10.881 10.186 9.598 9.516 8.468 7.914 7.904 8.106 7.861 7.869 7.824 7.866 8.919 9.346 7.906 7.799 7.831 7.609 6.619 5.729 8.454 7.514 6.921 5.386 5.261 5.196 5.191 5.159 5.224 5.171 5.164 5.019 5.084 5.126 5.061 5.029 4.964 4.909 5.154 8.219 7.049 6.021 6.149 6.369 7.666 8.456 8.501 8.811 9.171 10.149 13.816 16.816 18.334 19.881 20.774 15.476 11.566 11.086 11.254 11.371 11.509 11.639 11.794 11.924 12.049 12.201 12.339 17.491 22.621 23.929 22.849 21.309 22.051 23.789 23.689 19.679 12.494 12.949 13.071 13.161 14.059 14.969 17.051 17.344 17.491 17.481 17.479 17.599 17.651 17.759 17.849 17.954 18.039 18.156 18.189 18.236 18.259 18.389 20.696 28.199 27.776 25.939 27.574 28.436 28.311 27.696 27.521 26.296 23.951 18.681 18.984 19.044 18.996 19.046 19.076 19.114 19.134 19.221 19.331 19.379 24.651 27.101 20.276 19.381 19.864 20.131 20.079 20.064 20.151 21.571 25.934 27.156 27.944 27.561 23.241 19.666 19.594 19.536 19.636 19.714 19.579 19.516 19.531 19.636 19.964 20.574 24.369 26.504 26.741 25.991 24.789 21.061 20.929 21.256 21.406 21.959 23.226 23.149 22.801 22.816 22.801 22.656 22.984 23.036 25.934 28.091 28.464 28.736 26.929 23.391 24.051 24.404 23.661 25.164 24.719 23.889 23.969 24.036 24.191 24.209 24.934 24.304 24.451 24.604 24.731 24.871 24.966 25.054 25.116 25.416 25.541 25.426 27.669 31.644 31.576 31.459 31.351 31.361 28.804 25.639 25.834 26.566 26.664 26.664 26.424 26.576 26.416 27.179 28.576 27.584 28.864 28.446 27.211 28.976 30.069 31.114 33.129 33.399 31.559 29.654 30.571 28.246 27.966 28.214 28.124 28.434 28.846 28.596 29.621 32.079 33.041 34.241 31.971 32.589 34.539 34.424 32.814 30.139 30.031 29.899 29.986 31.401 32.636 31.366 30.799 31.321 32.639 33.336 33.251 33.144 33.074 32.809 31.051 31.416 32.344 32.412 32.387 34.824 37.559 38.294 38.679 38.159 37.227 33.814
42.018 42.561 41.726 41.713 41.131 40.096 39.896 39.873 39.668 39.516 39.433 39.398 39.228 39.028 39.931 40.603 39.728 38.821 38.513 38.311 38.141 42.116 43.286 43.108 43.726 43.746 42.651 42.816 39.651 38.636 37.118 37.841 36.256 36.043 35.946 35.851 35.718 36.063 36.383 38.323 40.561 36.021 36.046 35.908 35.786 35.683 35.551 35.406 34.758 34.573 34.456 34.171 34.266 34.926 34.881 34.323 33.933 35.393 33.211 32.931 32.823 34.681 33.663 32.373 32.266 32.176 32.513 32.593 32.438 31.731 32.173 31.546 31.191 31.166 30.791 30.626 30.273 30.993 30.103 29.788 29.791 29.768 29.373 29.086 29.101 30.553 29.208 28.518 28.443 28.356 28.168 27.916 27.638 27.541 27.466 27.458 27.428 27.968 26.851 26.781 26.493 26.886 26.041 27.076 28.046 25.491 25.901 25.318 25.388 26.181 26.766 26.193 25.396 25.938 27.818 24.478 25.133 25.788 24.468 23.321 23.491 23.818 22.831 22.723 23.016 23.586 22.973 21.836 21.906 22.823 23.738 24.278 24.098 21.613 20.806 20.911 20.196 20.558 20.983 19.741 19.763 19.826 20.753 18.906 18.438 17.781 18.111 18.596 18.281 17.338 16.368 16.206 16.161 16.323 17.826 16.016 15.403 15.036 14.808 14.631 14.426 14.268 14.036 13.456 13.326 12.923 12.241 16.806 18.391 18.706 18.156 11.653 11.098 10.631 10.678 10.653 10.936 10.753 10.141 9.721 9.476 8.786 8.589 7.904 7.954 7.826 7.849 7.846 7.821 7.889 7.889 7.829 7.666 8.106 8.326 6.546 6.961 7.406 8.439 7.371 5.419 5.234 5.209 5.176 5.121 5.116 5.209 5.149 5.036 5.164 5.124 5.016 4.991 4.979 4.991 6.814 6.386 6.584 6.654 7.026 6.386 7.524 8.409 8.544 8.926 9.756 11.196 14.036 17.486 18.981 20.434 19.771 11.741 10.996 11.116 11.254 11.334 11.519 11.684 11.789 11.906 12.041 12.151 12.689 19.906 23.284 23.799 21.834 21.191 22.826 24.224 23.001 14.261 12.536 12.939 13.079 13.414 13.596 15.876 17.079 17.296 17.504 17.976 17.786 17.694 17.744 17.831 17.914 18.044 18.156 18.204 18.256 18.306 18.376 18.391 18.714 22.611 25.136 24.756 27.469 27.949 28.489 28.364 27.744 25.421 19.084 21.171 23.371 19.831 19.209 19.131 19.141 19.159 19.224 19.244 19.331 19.484 19.814 21.016 19.424 19.864 20.601 20.131 20.161 20.099 20.689 24.794 27.056 28.004 27.719 26.691 22.419 19.684 19.601 19.601 19.726 20.384 19.539 19.454 19.476 19.696 20.349 23.826 26.364 27.344 27.069 25.681 22.919 20.871 21.766 21.969 21.356 21.531 21.734 23.719 24.816 25.511 23.221 23.146 23.006 25.359 25.736 26.506 28.151 27.171 23.199 23.731 24.581 28.169 26.379 24.424 24.099 23.881 24.034 24.136 24.214 24.729 24.816 24.754 24.744 24.801 24.776 24.961 25.064 25.126 25.186 25.339 25.506 26.451 31.136 31.686 31.671 31.586 31.491 29.726 25.716 26.651 26.376 27.161 26.756 26.959 27.034 26.444 26.531 28.361 28.886 28.496 28.286 27.791 28.611 27.676 29.294 32.756 33.601 33.079 33.331 31.704 27.614 27.521 28.371 28.711 28.404 28.466 28.529 28.841 30.944 33.901 35.064 35.071 34.354 31.229 31.524 32.199 30.069 29.991 29.946 30.019 31.759 32.599 31.014 30.846 30.924 30.966 31.076 31.691 32.624 33.244 33.166 33.104 32.196 32.291 32.284 32.332 33.892 37.112 38.149 38.664 38.309 37.502 35.119 32.839
42.708 42.073 42.308 41.786 40.901 40.481 40.598 39.816 39.511 39.431 39.358 39.388 39.113 39.038 39.031 39.416 38.601 38.476 38.663 37.781 39.631 43.006 43.108 41.233 41.226 41.041 39.093 41.128 41.456 43.263 40.998 37.043 36.296 35.863 35.773 35.706 36.788 36.301 36.231 36.333 36.168 35.948 36.186 36.518 36.601 36.011 35.691 35.656 34.848 34.678 34.473 34.388 34.576 34.288 34.813 33.636 33.686 34.351 33.363 33.186 33.181 33.143 32.508 32.326 32.396 32.923 32.758 33.041 34.146 32.173 32.513 31.841 31.143 31.228 30.786 30.643 30.213 30.233 29.723 29.621 29.563 29.646 29.591 29.233 29.098 29.128 28.831 28.528 28.476 28.321 28.103 27.913 27.628 27.513 27.443 27.233 26.998 26.941 26.811 26.788 26.501 26.381 26.001 26.611 28.031 25.463 25.828 25.383 25.178 25.808 26.541 25.543 24.423 24.751 24.263 24.978 25.251 24.011 23.438 23.281 23.191 23.323 24.003 22.843 23.428 22.008 21.888 22.078 22.128 22.383 21.651 21.691 21.713 21.453 21.533 20.538 20.108 20.196 21.276 19.743 20.791 20.118 19.706 18.858 18.966 19.446 17.618 17.658 17.658 17.196 16.356 16.203 16.136 16.453 16.468 16.526 15.388 15.393 15.191 14.436 14.476 14.186 13.903 13.406 13.251 13.748 13.853 13.398 12.826 13.061 14.488 11.333 10.848 10.653 10.658 10.646 10.683 10.518 9.946 9.568 8.921 8.351 8.536 7.786 7.874 7.966 8.016 7.869 7.859 7.844 7.806 7.751 7.646 9.254 7.844 6.319 8.156 10.004 9.324 7.824 5.844 5.214 5.239 5.154 5.101 5.129 5.404 5.054 5.091 5.171 5.109 5.056 4.984 4.976 5.404 6.374 7.889 5.666 8.304 7.449 6.679 8.179 8.429 8.619 8.976 9.449 9.914 10.686 12.609 17.594 20.521 15.724 10.939 11.004 11.134 11.266 11.409 11.494 11.629 11.791 11.876 11.951 12.061 15.501 22.286 23.789 23.069 21.351 21.761 23.684 23.929 19.606 12.401 12.684 12.981 13.121 13.494 14.571 18.049 17.129 17.316 17.819 21.621 22.299 19.096 17.956 17.906 18.044 18.179 18.239 18.291 18.351 18.456 19.426 18.591 18.429 18.464 21.764 26.319 28.464 28.086 27.536 28.284 26.561 18.991 19.819 24.804 28.871 26.239 20.941 19.466 19.241 19.256 19.289 19.306 19.331 19.424 19.516 19.524 19.719 20.524 20.491 20.204 20.219 20.164 20.711 25.179 27.819 27.836 26.809 24.224 20.324 19.741 19.651 19.561 19.714 19.681 21.029 22.929 19.881 19.506 23.001 26.174 27.289 27.196 26.301 24.959 23.019 22.261 21.209 22.991 22.646 21.309 21.629 21.781 22.376 25.226 24.686 22.929 25.064 25.691 25.731 25.991 25.871 26.474 24.039 26.119 27.569 29.349 29.219 26.174 24.554 25.459 25.736 24.201 24.311 24.461 24.529 25.104 25.339 25.079 24.944 24.999 25.106 25.196 25.361 25.576 26.269 30.159 31.476 31.574 31.669 31.704 30.516 25.919 25.986 26.571 26.596 26.491 26.449 26.476 26.484 26.769 28.594 27.859 28.761 29.041 29.201 30.531 31.161 30.831 28.991 32.234 33.036 33.494 32.789 29.359 27.889 27.986 28.206 28.364 28.771 29.824 29.661 28.809 32.086 34.911 35.206 34.764 35.034 34.456 29.581 30.001 29.976 30.146 30.284 30.429 31.916 31.161 30.854 30.974 32.171 31.414 31.144 31.244 31.944 33.169 33.289 32.804 31.906 32.241 32.619 34.049 36.647 37.974 38.597 38.442 37.772 36.002 32.969 32.744
41.721 41.613 41.441 41.431 40.208 40.081 40.976 39.876 39.453 39.313 39.293 39.188 38.998 39.038 39.026 38.696 38.473 38.568 37.941 37.501 38.276 40.116 39.623 39.143 38.713 38.311 38.673 41.253 42.931 43.338 40.571 37.221 36.401 35.813 35.561 35.531 36.486 37.273 35.798 36.113 36.066 36.876 39.476 40.606 36.163 35.536 35.886 35.393 35.051 34.673 34.626 34.301 35.083 34.443 34.256 35.801 34.803 34.263 34.281 33.936 34.918 35.231 33.388 32.466 32.346 32.326 33.231 33.136 32.056 31.831 32.241 32.291 31.181 31.148 30.798 30.543 30.213 30.668 30.311 29.581 29.521 29.628 29.783 29.176 29.128 29.111 28.971 28.561 28.503 28.383 28.156 27.896 27.656 27.533 27.446 27.238 26.966 26.933 26.853 27.038 26.491 26.143 26.016 25.923 26.731 25.413 25.713 25.508 25.146 24.821 25.248 24.993 24.426 26.166 25.433 24.758 24.683 24.793 23.391 23.508 23.151 23.406 26.938 24.231 23.578 21.951 21.838 22.011 22.848 23.026 21.578 21.501 21.133 21.056 20.513 20.266 20.066 20.231 20.376 19.621 19.486 19.416 19.301 18.961 18.493 17.863 17.628 17.703 17.691 17.671 16.441 16.351 16.346 17.471 17.721 18.118 16.528 15.891 14.943 14.751 14.261 14.003 13.878 13.286 12.901 14.501 16.538 17.971 16.953 16.718 14.448 11.468 10.803 10.858 10.711 10.693 10.866 10.386 9.678 8.946 8.648 8.131 9.099 7.859 7.951 7.949 7.956 7.809 7.839 7.679 7.684 7.659 7.951 8.176 7.349 6.329 8.399 9.906 8.714 6.631 5.656 5.251 5.221 5.181 5.159 5.244 5.129 5.099 5.154 5.146 5.119 5.004 4.976 4.929 6.634 8.171 7.929 5.276 5.736 6.759 6.834 8.631 8.339 8.649 9.059 9.521 9.989 10.461 10.996 10.926 12.984 12.031 11.721 16.861 15.564 12.111 11.399 11.489 11.581 11.689 11.791 11.881 12.379 18.534 23.036 23.929 21.976 21.026 22.554 24.274 23.159 15.196 12.499 12.809 13.046 13.174 15.059 16.641 18.701 17.239 17.576 18.161 22.874 25.414 25.941 23.129 18.094 18.156 18.264 18.339 18.411 18.481 18.549 18.636 18.476 18.509 18.544 18.544 19.459 26.194 27.621 24.619 26.519 20.214 18.961 22.786 28.306 28.544 28.499 25.891 21.221 19.441 19.341 19.356 19.406 19.449 19.471 19.546 19.651 19.856 20.281 20.851 20.554 20.206 21.271 25.139 26.986 27.556 26.851 24.394 20.384 19.856 19.839 19.671 19.561 19.564 21.276 26.449 27.414 22.549 19.746 20.784 24.871 27.079 26.314 26.164 25.934 24.416 21.859 20.861 21.336 22.969 22.104 21.626 21.746 21.869 22.626 23.689 23.536 23.536 24.506 25.184 25.566 25.769 25.114 26.184 27.391 29.124 29.434 29.886 29.276 26.044 29.289 27.351 24.194 24.386 24.499 24.549 24.726 25.376 25.464 25.421 25.179 25.164 25.324 25.509 25.754 29.424 31.339 31.351 31.429 31.551 31.369 26.496 25.961 26.034 26.709 26.989 26.446 26.429 26.446 26.449 27.091 28.294 27.604 27.669 27.906 30.091 32.621 32.714 33.289 31.951 29.146 32.429 32.644 29.301 27.951 28.119 28.209 28.219 28.339 28.684 29.386 29.641 30.149 29.651 33.881 34.631 35.186 34.251 31.169 29.996 30.009 30.006 32.121 32.986 32.864 32.684 33.011 31.366 31.821 34.196 31.224 31.289 31.421 31.699 33.451 33.594 32.789 32.136 32.196 33.539 35.464 37.827 38.444 38.559 37.937 34.644 32.342 32.947 33.214
40.288 40.723 42.228 41.826 40.133 39.803 40.443 39.716 39.406 39.336 39.261 39.096 38.986 39.013 38.813 38.513 38.488 38.466 37.476 37.428 37.448 37.448 37.323 37.361 37.681 37.388 39.496 43.281 43.401 42.133 37.583 37.216 36.701 36.071 35.581 35.316 35.271 35.963 35.186 36.746 36.031 36.991 39.811 41.128 37.678 34.901 34.683 34.616 34.553 34.268 34.108 34.103 34.958 34.568 35.091 36.598 35.281 36.523 34.001 33.428 33.793 34.676 33.871 32.821 32.911 33.391 33.171 32.913 33.113 31.866 31.951 31.693 31.306 31.218 30.891 30.468 30.468 30.946 31.323 29.756 29.453 29.528 29.673 29.273 29.176 29.213 28.818 28.586 28.506 28.373 28.233 27.906 27.676 27.531 27.413 27.236 26.983 26.943 27.293 27.001 26.368 26.118 25.993 25.918 26.076 25.413 25.496 25.248 25.141 25.021 24.541 24.508 24.761 26.348 26.476 25.013 24.183 23.521 23.346 23.783 23.278 22.788 22.781 22.728 23.453 22.013 21.836 21.786 21.821 22.043 21.471 21.211 20.993 21.123 20.458 20.268 20.603 20.671 20.436 19.378 19.868 19.318 19.273 19.156 17.978 17.856 17.601 17.583 17.501 16.631 16.881 16.883 16.861 16.918 18.098 17.831 17.311 17.746 15.231 16.301 15.178 14.378 13.888 13.236 12.521 14.413 17.116 18.883 19.336 18.756 14.441 11.406 10.936 11.693 10.693 10.636 10.756 10.188 9.576 9.043 8.626 7.941 8.399 7.864 7.806 7.819 7.809 7.739 7.679 7.651 7.621 7.629 7.599 7.989 7.184 6.491 7.719 8.071 8.511 6.291 5.474 5.204 5.179 5.179 5.261 5.766 5.266 5.064 5.164 5.144 5.061 5.009 4.941 5.249 7.456 7.824 6.394 5.696 5.551 5.871 7.319 8.384 8.391 8.731 9.169 9.611 10.146 11.304 11.749 11.306 10.744 10.839 14.414 23.249 23.511 20.156 14.244 12.149 11.544 11.586 11.699 11.789 15.434 21.696 23.744 23.279 21.364 21.659 23.534 24.046 21.256 12.696 12.591 12.884 13.381 14.141 16.271 16.824 17.226 17.341 17.996 20.711 24.569 26.106 25.534 22.814 18.264 18.411 18.284 18.396 18.504 18.626 18.681 18.631 18.589 18.584 18.626 18.604 18.564 20.016 24.411 24.204 19.299 18.481 22.904 28.679 28.556 28.196 27.961 28.181 28.184 22.981 19.641 19.489 19.506 19.554 19.571 19.626 19.691 19.779 19.961 20.194 20.606 20.211 24.679 26.844 27.639 26.969 23.884 20.424 19.951 19.884 19.764 19.669 19.639 19.601 21.116 27.366 28.224 23.469 19.929 20.294 19.854 24.551 24.201 24.331 26.074 25.524 22.496 21.396 21.191 21.101 21.424 21.484 21.786 21.949 22.004 23.829 25.796 24.154 23.599 23.836 25.219 24.951 24.614 26.546 27.386 29.291 29.791 29.051 27.874 24.909 29.926 25.336 24.461 25.091 24.679 24.671 24.754 24.881 25.521 26.314 25.994 25.221 25.389 25.519 29.354 31.581 31.446 31.376 31.366 30.726 26.411 25.746 26.636 26.506 26.581 26.521 26.461 26.476 26.686 27.644 26.861 27.249 27.526 28.349 27.806 30.554 32.836 33.479 33.321 33.014 32.039 28.021 29.044 27.926 28.354 28.361 28.379 28.479 28.506 28.956 29.221 29.616 29.376 30.079 31.214 34.019 34.496 31.859 30.149 30.019 30.094 30.366 32.969 32.956 33.646 33.751 32.846 33.441 33.011 32.999 31.449 31.456 31.599 31.821 32.589 32.559 32.681 32.879 32.624 35.304 37.667 38.342 38.637 38.072 36.929 32.867 33.004 33.709 33.674
40.203 41.121 42.521 42.433 39.996 39.796 40.836 40.063 39.336 39.278 39.218 39.001 38.983 39.046 38.638 38.476 38.428 37.586 37.403 37.393 37.766 37.198 37.056 37.193 37.756 39.161 41.983 43.393 42.468 38.103 36.783 36.971 36.073 35.913 35.768 35.131 35.056 34.978 34.801 35.171 36.386 37.278 38.998 41.173 38.256 35.708 34.403 34.403 34.183 34.013 34.021 34.358 35.128 33.878 35.091 34.128 34.683 34.383 33.193 32.818 32.666 32.551 32.851 32.298 32.136 32.286 33.478 33.618 33.521 31.803 32.201 31.926 31.918 31.981 31.713 31.036 30.868 31.618 32.598 31.483 31.661 30.538 30.383 29.511 30.298 29.941 28.778 28.728 28.556 28.421 28.166 27.868 27.698 27.538 27.386 27.343 26.966 26.948 27.483 27.446 26.356 26.078 26.026 25.871 26.193 25.418 25.468 25.218 25.098 25.133 24.508 24.381 24.521 25.511 26.038 25.728 25.658 23.503 23.353 23.406 23.813 22.856 22.758 23.266 23.783 22.268 22.296 21.883 22.218 21.736 21.443 21.171 20.973 21.236 20.501 20.236 20.451 20.773 20.358 19.308 19.631 19.306 19.311 19.718 17.696 17.621 17.571 17.483 17.426 16.933 16.416 16.278 16.231 17.026 17.511 16.313 17.793 18.363 15.508 16.206 17.378 15.266 14.241 13.611 13.551 14.803 17.246 19.333 19.876 18.681 13.818 11.516 10.843 11.173 10.681 10.601 10.648 10.026 9.448 9.021 8.696 8.128 8.754 7.806 7.739 7.774 7.799 7.771 7.746 7.669 7.674 7.604 7.566 8.294 7.596 5.984 6.711 7.986 7.501 5.569 5.161 5.206 5.184 5.314 6.024 5.874 5.009 5.141 5.161 5.094 5.049 4.991 4.956 6.666 8.039 7.716 7.206 5.689 5.749 5.984 8.231 8.976 8.444 8.839 9.324 9.721 10.654 10.729 10.644 10.701 10.734 10.776 16.756 23.566 23.879 22.799 21.284 18.926 14.296 12.089 11.619 11.699 14.524 22.001 23.821 22.179 20.989 22.446 24.124 23.336 14.799 12.449 12.686 12.976 14.571 17.784 17.174 16.971 17.194 17.436 18.156 22.749 25.309 26.169 24.841 19.604 18.981 18.459 18.339 18.454 18.586 18.656 18.784 18.734 18.686 18.671 18.679 18.696 18.661 18.569 20.476 19.739 18.519 21.181 27.551 29.021 29.159 28.674 28.114 28.406 28.719 27.731 20.904 19.756 19.581 19.619 19.676 19.714 19.764 19.856 19.911 20.064 20.211 20.434 22.051 27.599 27.111 24.899 20.516 21.064 20.216 19.861 20.319 19.934 19.684 19.594 21.029 24.349 24.716 21.756 20.694 19.954 20.181 20.586 22.266 21.426 22.399 23.886 20.246 21.344 21.491 22.974 21.219 21.364 21.549 22.321 23.054 25.389 26.459 24.424 23.726 23.441 24.059 25.311 23.941 24.906 26.089 28.296 29.281 28.166 25.366 24.914 26.664 27.551 25.064 24.901 25.191 24.869 24.826 24.871 25.059 26.239 25.446 26.429 25.441 25.544 26.794 31.221 31.571 31.491 31.101 28.749 25.871 26.076 26.814 27.859 26.586 26.451 26.476 26.611 27.859 27.869 27.291 27.316 29.901 33.556 30.176 29.199 31.006 33.159 32.959 33.711 33.044 29.229 27.939 27.979 28.179 28.524 28.489 28.764 28.881 28.786 29.124 29.476 30.589 29.869 30.336 31.819 31.939 30.179 30.021 30.084 30.156 30.406 30.996 31.404 32.076 33.111 32.566 34.199 34.101 31.451 31.481 31.619 31.784 31.991 32.074 32.381 32.636 33.964 33.444 36.366 38.187 38.649 38.259 36.714 33.317 32.554 33.969 34.449 34.764
40.733 41.966 41.288 40.028 39.796 39.666 39.963 39.358 39.176 39.168 38.986 38.741 39.168 39.468 38.718 38.521 38.198 37.438 37.396 37.343 37.146 36.948 36.893 36.988 37.406 40.751 42.236 41.813 38.151 36.653 36.326 36.173 36.006 37.116 37.301 35.471 34.853 34.791 34.691 34.561 34.638 34.968 37.113 40.953 38.061 34.988 34.258 34.228 33.956 33.776 33.733 33.743 34.243 33.493 33.441 33.896 33.086 33.251 33.186 32.661 32.561 32.476 33.496 32.328 31.928 32.038 31.913 32.711 32.751 31.253 31.106 31.141 31.703 31.546 32.816 32.156 31.101 30.743 31.906 31.393 31.336 30.596 29.738 30.001 30.198 30.331 31.316 30.173 28.646 28.453 28.168 27.838 27.681 27.523 27.421 28.811 28.083 26.983 26.911 27.178 26.398 26.451 25.966 25.838 26.568 25.531 25.528 25.208 25.033 25.011 24.426 24.381 24.828 26.471 26.111 25.081 24.803 23.501 23.398 23.296 23.268 22.811 22.753 22.796 23.043 22.223 22.841 22.238 22.431 22.183 22.476 21.251 20.908 21.083 20.508 20.261 20.078 21.443 20.496 19.293 19.531 19.228 19.256 19.766 17.753 17.638 17.568 17.471 17.461 17.561 17.463 16.798 16.743 17.168 17.008 15.398 15.416 14.913 14.531 14.556 15.798 14.178 13.971 13.146 12.818 15.351 17.996 19.666 20.001 18.678 12.881 11.311 10.968 10.768 10.708 10.951 10.668 10.186 9.423 8.918 8.766 8.136 9.219 7.904 7.551 7.556 7.641 7.759 7.734 7.696 7.631 7.606 7.606 8.189 8.206 6.104 6.511 9.636 6.559 5.069 5.111 5.214 5.281 5.781 6.491 5.334 5.041 5.229 5.154 5.079 5.084 5.001 5.121 6.024 6.806 8.366 7.889 6.316 5.609 5.966 6.729 7.776 8.509 9.041 9.679 11.219 10.759 11.274 11.329 10.654 10.704 10.969 16.341 21.384 22.676 22.914 23.029 22.264 21.121 18.581 16.046 12.039 11.801 12.136 13.289 17.604 21.471 23.396 24.266 21.914 13.399 12.549 12.731 14.339 16.666 17.561 17.044 17.689 17.641 17.604 20.089 24.494 25.911 25.719 23.964 18.886 18.524 18.309 18.381 18.496 18.756 19.091 18.784 18.879 18.716 18.726 18.761 18.746 18.734 18.679 18.591 18.576 20.686 27.399 28.466 28.354 28.701 29.124 28.716 28.276 28.386 28.201 27.079 20.856 19.679 19.706 19.781 19.814 19.861 19.904 19.964 20.056 20.161 20.264 20.324 23.084 24.841 20.331 20.566 20.389 20.084 20.029 20.534 19.856 19.679 19.674 19.889 20.651 21.354 19.904 20.136 20.161 21.279 22.804 23.601 21.721 20.094 20.166 20.126 20.444 21.411 22.084 21.289 21.376 21.526 21.859 22.281 22.471 24.169 26.049 24.176 24.349 25.166 24.531 23.724 23.934 26.469 28.789 27.981 25.441 24.864 24.946 28.871 29.919 28.766 26.189 24.886 25.191 24.861 24.984 25.076 25.211 26.624 25.799 25.484 25.604 25.744 26.739 31.036 31.604 27.851 26.181 27.486 26.621 26.729 26.541 26.766 26.491 26.541 27.006 27.989 27.781 27.229 30.229 32.934 33.756 34.224 33.129 29.594 31.024 33.259 33.191 29.286 27.959 28.354 28.521 28.261 28.484 28.679 28.834 28.929 29.289 29.311 29.594 30.289 29.966 30.879 30.564 30.206 30.086 30.129 30.159 30.349 30.521 30.756 31.271 31.159 31.266 31.804 33.394 32.919 31.526 31.599 31.751 31.979 32.121 32.419 32.629 32.701 33.954 35.966 34.281 37.599 38.379 37.002 34.977 32.594 33.359 34.874 34.487 34.057
40.986 41.323 39.861 39.676 39.578 39.391 39.038 38.978 38.991 39.106 38.678 38.553 38.598 39.488 38.498 38.226 37.641 37.433 37.366 37.211 36.943 36.861 36.876 36.878 38.316 39.868 41.281 38.368 37.058 36.461 36.313 36.206 36.028 36.443 37.963 35.753 34.713 34.586 34.503 34.368 34.543 35.586 36.123 40.741 39.726 34.338 33.913 33.943 33.726 33.591 33.666 33.658 33.453 33.431 33.356 33.423 32.961 32.948 32.963 32.926 32.463 32.378 32.516 33.313 32.036 32.186 31.821 33.551 31.331 31.001 30.856 30.828 31.081 32.068 29.966 31.086 29.996 29.948 29.941 29.311 29.161 29.181 29.043 29.121 30.168 32.156 32.786 32.281 29.468 29.443 29.096 27.991 28.081 28.956 28.803 29.463 28.558 27.073 26.836 26.663 26.436 26.861 26.028 25.963 26.706 25.746 25.466 25.258 25.011 24.793 24.538 24.448 24.931 25.601 24.351 24.818 24.891 23.498 23.383 23.336 23.208 22.896 23.026 22.803 24.416 24.148 22.141 22.221 22.128 21.503 21.416 21.836 26.258 27.323 21.043 20.238 20.128 20.538 19.641 19.333 19.518 19.223 19.271 19.413 17.731 17.636 17.558 17.528 17.701 18.491 16.641 17.561 18.008 17.106 18.046 18.036 17.256 17.086 16.071 15.433 14.878 13.606 14.003 12.718 13.833 15.213 18.228 19.691 19.663 18.183 12.831 11.181 11.808 10.883 10.753 10.856 10.821 10.078 9.496 9.313 8.801 7.931 8.361 7.601 7.531 7.589 7.586 7.761 7.661 7.586 7.549 8.214 8.066 8.299 7.506 6.856 7.611 9.031 5.694 5.016 5.164 5.186 5.569 6.384 6.141 5.191 5.161 5.201 5.139 5.081 5.074 5.034 6.674 5.026 8.241 8.276 7.989 6.166 6.054 6.164 6.214 6.369 7.544 8.966 9.869 10.816 10.504 10.856 11.794 11.206 10.664 14.359 19.739 20.039 20.206 21.101 22.009 22.614 22.961 22.471 19.776 11.931 11.794 11.934 12.061 12.724 18.631 24.034 23.541 19.314 12.401 12.646 14.094 16.349 16.859 16.906 17.236 18.106 20.881 19.759 19.941 23.121 25.881 25.044 20.354 18.169 18.241 18.321 18.426 18.526 18.639 19.021 19.919 22.946 20.919 19.864 18.846 18.781 18.766 18.734 18.726 18.801 19.739 22.794 28.864 28.056 28.076 28.624 29.161 28.821 28.196 27.874 25.529 19.801 19.716 19.844 19.849 19.919 19.974 20.026 20.096 20.134 20.179 20.306 20.361 20.354 20.536 20.354 20.744 20.201 20.006 19.926 19.896 19.811 19.834 19.999 19.904 19.954 20.189 20.511 21.019 22.079 22.046 22.636 24.734 23.481 21.881 20.201 20.339 21.314 21.059 21.104 21.326 21.394 21.594 22.226 22.209 22.664 23.036 24.866 25.776 24.431 25.306 25.671 24.361 24.089 25.159 26.391 25.419 24.769 24.731 28.261 29.946 30.159 30.206 28.974 25.601 24.736 25.394 25.429 25.111 25.236 25.299 25.419 25.561 25.791 26.469 25.686 25.639 27.966 25.846 25.811 26.384 27.169 26.556 27.329 27.029 26.544 26.864 27.314 27.421 28.206 27.514 31.809 33.236 33.556 34.526 34.479 32.639 28.379 30.764 30.504 27.914 28.861 28.429 28.526 28.591 28.534 28.749 29.159 29.451 30.161 31.806 29.689 30.164 29.971 30.059 30.144 30.079 30.141 30.231 30.356 30.626 30.721 31.401 33.319 32.096 31.421 31.511 33.041 34.569 33.229 32.081 31.879 32.066 32.284 33.211 32.736 33.091 35.689 38.756 38.986 34.092 35.939 34.309 32.927 33.079 33.479 34.169 34.274 34.739
41.683 40.625 39.7 39.573 39.478 39.105 38.965 38.845 38.788 38.735 38.553 38.383 38.468 38.093 38.07 37.815 37.505 37.395 37.28 37.02 36.848 36.835 36.925 36.98 37.3 38.463 37.745 36.663 36.46 36.29 36.235 36.145 36.121 36.706 37.613 36.978 35.188 34.381 34.306 34.186 34.063 34.278 35.076 39.013 37.836 34.496 34.173 34.046 34.581 33.683 33.396 33.781 33.871 32.961 33.683 33.403 32.876 32.843 32.868 32.798 32.371 32.283 32.441 33.013 32.003 31.608 31.488 32.203 32.113 30.911 30.788 31.258 31.216 30.498 29.968 29.946 29.826 29.771 29.973 29.351 29.171 29.023 29.013 28.988 28.918 28.788 31.306 30.061 29.321 30.121 30.338 28.908 28.811 29.341 28.831 27.701 28.428 27.511 27.406 26.956 26.576 26.321 26.461 26.566 27.798 27.348 25.646 25.321 25.221 25.218 24.608 24.903 25.668 25.783 24.606 24.106 24.583 23.458 23.371 23.326 23.616 23.713 24.233 23.396 24.518 23.388 22.423 22.268 22.298 21.348 21.083 27.293 34.356 36.196 30.393 21.343 20.156 19.978 19.516 19.406 19.248 19.246 19.473 19.146 17.718 17.616 17.551 17.566 18.156 17.443 16.403 17.203 17.808 16.486 16.411 16.373 17.648 18.128 18.098 16.763 17.621 15.586 14.311 12.986 13.636 15.838 18.503 19.886 19.446 17.543 12.343 10.973 11.758 10.933 10.783 11.151 10.693 10.016 9.161 8.988 8.778 7.658 7.556 7.493 7.491 7.548 7.443 7.503 7.548 7.506 7.493 7.843 7.706 7.783 6.753 6.306 8.123 7.098 5.058 5.128 5.366 5.221 5.818 6.368 5.513 5.063 5.213 5.243 5.088 5.068 4.976 5.003 7.248 4.361 5.686 7.056 7.666 7.466 8.606 7.291 7.371 6.831 7.466 8.233 8.493 9.538 10.001 10.718 10.686 10.613 11.063 18.363 22.103 21.226 20.066 20.236 20.321 20.916 21.831 22.633 17.658 11.651 12.106 12.486 12.153 12.268 12.343 18.548 22.066 14.703 12.606 14.651 15.683 16.668 16.928 17.141 17.528 18.991 23.331 24.358 25.461 23.043 20.573 22.736 19.463 18.186 18.283 18.366 18.493 18.578 18.701 18.778 20.773 25.336 26.566 24.936 21.158 18.928 18.841 18.766 18.818 18.996 19.191 20.049 26.206 27.996 28.409 28.259 28.534 29.146 28.909 25.186 19.744 19.664 19.859 20.059 20.071 20.019 20.066 20.126 20.184 20.201 20.216 20.261 20.356 20.644 20.546 20.614 20.459 20.131 20.049 20.014 19.941 19.904 21.484 20.654 20.181 20.611 21.699 23.016 23.326 24.644 20.404 21.526 22.311 23.704 23.254 22.521 21.821 21.751 20.469 20.666 21.176 21.546 21.856 22.156 22.866 22.261 22.661 23.341 23.324 25.429 24.651 24.511 24.669 23.721 24.539 25.396 28.046 24.484 25.976 29.136 30.286 29.861 29.719 27.549 24.606 24.814 25.071 25.309 25.384 25.324 25.346 25.446 25.561 25.734 25.821 25.804 25.751 25.756 26.411 26.406 27.231 26.629 26.519 26.844 26.531 27.024 27.481 27.644 27.571 27.606 28.341 29.119 34.051 34.696 33.886 34.534 34.074 29.624 28.044 27.699 27.641 28.834 29.266 28.759 28.956 28.741 28.779 29.009 29.286 32.996 32.339 30.091 29.896 30.064 30.149 30.089 30.151 30.239 30.394 30.719 30.779 30.909 31.416 32.834 33.414 32.589 31.674 31.811 32.721 35.611 35.684 32.406 32.191 32.464 32.839 32.876 34.349 38.374 39.514 40.791 40.531 36.529 33.976 34.516 34.979 34.271 34.301 34.941 35.366
41.743 39.913 39.66 39.51 39.375 39.008 38.863 38.715 38.67 38.53 38.368 38.355 38.225 37.993 38.178 37.835 37.425 37.725 38.34 37.055 36.82 36.938 37.005 36.768 36.733 36.838 37.05 37.478 37.455 36.955 37.08 37.743 38.896 40.278 40.801 35.283 34.858 34.253 34.088 34.016 34.081 33.946 34.698 34.738 34.796 34.528 36.391 38.731 38.823 35.073 33.346 34.553 35.326 33.541 32.828 33.023 32.836 32.988 33.831 32.596 32.176 32.121 32.486 32.283 31.851 31.411 31.436 31.476 31.498 30.651 30.506 31.228 31.053 30.551 29.921 29.781 29.873 30.263 30.793 29.308 29.146 29.031 28.976 28.966 28.653 28.418 29.548 30.461 29.866 29.233 28.968 28.051 27.601 27.676 27.563 26.998 28.581 28.268 26.248 26.173 26.348 26.726 26.786 26.088 26.416 26.078 26.133 26.248 26.581 25.363 25.498 24.821 25.216 25.983 24.918 24.576 24.883 23.603 24.241 23.481 23.823 23.686 23.506 23.176 23.478 22.883 22.543 22.358 22.808 21.748 21.211 29.631 37.128 38.346 36.676 25.896 20.116 19.993 19.518 19.403 19.508 19.486 19.318 18.608 17.671 17.618 17.528 17.426 17.058 16.488 16.318 16.338 16.296 15.938 15.796 15.493 14.921 14.761 14.483 14.751 16.198 14.941 13.081 12.678 12.536 15.656 18.768 19.991 19.193 16.483 11.651 11.118 10.918 10.866 10.771 11.081 10.653 10.016 8.893 8.611 8.093 7.638 7.531 7.476 7.426 7.468 7.331 7.481 7.436 7.416 7.588 7.468 7.476 7.383 6.621 5.771 8.363 7.841 5.163 5.403 5.756 5.513 5.813 5.988 5.248 5.153 5.193 5.136 5.068 5.046 4.973 5.418 4.763 4.668 4.666 5.501 6.688 7.298 8.443 7.726 8.831 9.608 7.991 8.948 7.498 8.088 9.103 9.726 10.458 10.666 13.576 22.226 23.243 23.113 22.086 21.406 20.791 20.113 20.153 18.703 11.463 12.048 12.553 12.671 12.216 12.333 12.496 13.186 12.823 12.756 14.188 15.343 16.401 17.058 16.966 17.403 18.706 21.128 23.673 25.103 26.648 28.051 26.938 21.438 18.153 18.251 18.326 18.441 18.548 18.641 18.743 19.256 24.021 26.031 27.018 25.708 22.228 18.818 18.853 18.911 18.951 19.133 19.236 19.261 19.821 24.876 26.854 28.616 28.161 28.586 26.141 19.566 19.599 19.846 20.016 20.916 20.546 20.714 20.871 20.286 20.261 20.299 20.324 20.349 20.386 20.574 20.641 20.534 20.339 20.226 20.166 20.061 20.196 21.476 21.721 21.026 20.581 21.374 22.279 22.031 20.936 20.494 19.911 20.949 22.091 21.941 24.369 24.386 22.891 21.889 20.714 20.611 21.201 23.629 22.796 21.756 21.896 21.951 22.104 22.741 23.249 25.016 26.476 24.444 23.866 25.011 26.599 29.074 30.166 25.814 27.046 27.126 28.624 29.889 28.001 24.551 24.871 28.164 27.779 25.326 25.761 26.196 25.461 25.504 25.601 25.761 25.899 25.959 25.904 25.966 26.154 27.676 27.654 26.504 26.491 26.541 26.736 27.231 27.346 27.449 27.531 27.891 27.751 28.471 32.239 34.324 34.619 33.869 34.519 32.241 28.961 28.104 28.231 28.676 28.316 29.359 29.299 29.166 29.101 29.091 29.609 30.191 30.176 30.011 30.069 30.109 30.104 30.164 30.256 30.536 32.456 32.169 31.011 31.519 31.036 31.871 32.386 31.979 31.981 31.961 32.044 33.536 34.464 34.504 33.854 33.176 32.776 32.949 36.339 38.949 40.534 41.111 39.939 36.566 34.444 35.296 35.119 34.581 34.356 34.709 34.394
41.308 39.86 39.815 39.52 39.41 39.198 38.668 38.675 38.555 38.388 38.188 38.773 37.955 37.868 37.85 37.598 37.465 37.573 37.48 37.108 37.178 37.16 37.308 37.573 37.155 37.408 36.895 37.3 38.378 40.713 41.178 41.593 41.573 41.57 41.453 38.765 35.231 34.396 33.906 33.838 34.518 33.753 34.393 34.636 34.655 34.391 36.671 39.945 40.133 35.438 33.978 35.148 35.313 33.211 33.308 32.761 32.598 33.548 33.301 32.221 31.981 32.031 32.211 31.496 31.471 31.421 31.546 31.361 30.851 30.456 30.296 30.216 31.028 31.228 29.858 29.726 30.151 31.111 30.046 29.206 29.133 28.968 28.926 28.913 28.501 28.253 28.221 29.243 28.401 28.246 28.698 27.976 27.556 28.086 26.888 26.961 27.513 27.821 26.128 26.003 27.246 27.008 26.293 26.028 25.908 27.463 25.611 26.993 25.998 26.203 24.636 24.553 25.023 24.708 24.791 24.946 24.926 24.093 25.108 24.461 24.238 24.088 23.268 23.123 23.303 22.591 22.393 22.383 23.061 22.173 22.116 28.536 35.408 37.241 35.406 26.473 20.166 20.433 19.766 19.436 19.401 19.286 19.298 18.133 17.646 17.586 17.541 17.451 17.028 16.506 16.308 16.256 16.278 16.343 16.186 15.481 15.078 14.718 14.511 14.221 13.946 13.068 12.423 12.228 12.151 15.461 18.708 20.128 18.866 14.631 11.171 11.416 11.213 10.886 10.786 10.713 10.458 9.676 9.066 8.583 7.826 7.648 7.506 7.471 7.411 7.363 7.356 7.396 7.391 7.401 7.813 7.531 7.718 7.341 6.631 6.336 8.636 8.408 5.316 5.328 5.406 5.598 6.161 5.473 5.141 5.286 5.218 5.118 5.073 5.051 4.968 5.566 4.006 4.088 5.096 5.231 6.181 7.101 7.608 7.763 7.513 7.218 7.471 8.353 7.308 7.611 8.381 9.046 9.976 10.418 12.268 19.123 21.536 22.516 23.193 23.063 22.483 21.536 20.701 16.698 11.616 11.996 12.073 12.233 12.326 12.451 12.596 12.983 13.323 14.221 15.018 15.633 16.883 17.766 17.108 17.841 18.646 22.758 24.278 25.836 27.366 28.363 27.163 19.583 18.193 18.301 18.383 18.481 19.298 19.076 18.823 20.751 25.126 26.768 26.506 24.093 18.818 18.838 18.928 18.981 19.121 19.166 19.246 19.284 19.276 19.466 21.796 28.296 27.884 26.006 19.729 19.546 19.909 20.164 20.249 20.529 20.854 20.926 20.909 20.839 20.604 20.409 20.421 20.461 20.524 20.526 20.579 20.454 20.341 20.304 20.204 20.099 21.566 21.609 21.331 20.711 20.576 20.421 21.066 21.121 20.209 20.789 20.096 20.364 20.019 20.971 22.016 22.026 22.106 22.944 22.786 20.724 21.056 24.024 21.591 21.824 22.244 21.931 22.924 23.324 24.491 26.351 25.046 23.911 23.586 26.324 28.876 30.686 29.576 25.254 26.181 27.051 27.226 27.579 25.121 24.759 27.401 31.494 30.851 27.864 25.534 26.241 25.851 25.569 25.726 25.776 25.899 26.039 26.146 26.244 26.384 26.511 26.504 26.479 26.546 26.591 26.861 27.249 27.426 27.734 27.796 27.851 27.941 28.036 28.431 30.679 33.856 34.564 31.196 30.159 28.406 28.564 28.474 28.169 27.561 27.819 29.414 29.361 30.601 29.261 29.601 30.036 30.111 30.121 30.179 30.156 30.181 30.269 30.341 30.741 33.241 33.304 32.984 31.859 31.429 31.346 31.941 31.901 31.924 32.349 32.576 32.449 33.016 34.331 35.239 35.916 33.716 34.829 34.931 38.554 40.976 40.284 38.611 34.429 34.109 34.596 35.706 34.431 34.394 34.431 34.626
41.133 38.858 39.025 39.278 38.995 38.655 38.545 38.5 38.325 38.185 38.035 38.093 37.763 37.895 38.058 37.325 37.205 37.083 36.855 36.833 37.03 37.208 37.95 38.11 37.308 36.008 36.363 37.503 38.355 40.555 41.223 40.328 40.598 39.493 36.978 36.276 35.768 34.931 33.783 33.641 33.643 33.576 33.648 33.901 33.831 35.556 39.093 39.961 39.941 38.866 35.041 35.016 36.826 36.618 35.608 35.061 34.758 33.861 33.668 33.416 34.311 33.986 32.238 32.578 33.388 32.841 31.161 31.116 30.526 30.388 30.218 30.191 30.868 30.213 29.713 29.613 29.573 29.646 29.323 29.111 29.016 28.971 29.643 29.748 28.458 28.168 28.171 29.248 27.853 28.683 28.868 27.633 28.203 28.138 26.616 26.613 26.836 27.783 26.051 25.903 26.681 27.536 25.498 25.611 25.551 26.723 25.628 27.576 25.026 25.001 24.198 24.273 25.873 24.253 24.101 23.731 23.793 25.016 24.846 24.528 24.626 24.146 24.363 24.218 25.426 23.838 22.801 22.791 22.548 21.946 21.803 22.686 30.461 29.168 28.031 22.198 20.838 21.243 19.648 19.448 19.378 19.236 19.368 18.566 18.538 17.773 17.578 17.863 17.126 16.551 16.406 16.243 16.748 16.073 15.623 15.266 14.963 14.631 14.468 14.171 13.943 13.601 12.856 13.223 13.741 16.318 19.131 19.471 18.538 13.988 11.528 11.288 11.138 10.881 10.931 10.933 10.288 9.566 8.716 8.296 7.686 7.513 7.406 7.403 7.403 7.371 7.448 8.278 8.361 7.411 7.343 7.298 7.216 7.198 6.531 6.933 8.068 8.476 5.308 5.298 5.258 5.348 5.833 5.308 5.131 5.246 5.208 5.118 5.078 4.991 5.273 5.546 4.486 4.766 5.256 5.611 6.223 7.023 7.546 7.801 7.593 7.516 7.446 7.851 8.148 9.263 8.091 8.898 9.481 10.098 10.621 10.816 12.291 15.811 20.483 22.348 23.066 23.166 21.358 12.748 11.953 12.066 12.186 12.293 12.423 12.576 13.013 12.886 13.198 14.643 15.018 16.388 18.103 17.511 17.923 18.336 20.193 23.521 24.956 26.523 28.018 27.986 23.756 18.171 18.253 18.318 18.433 18.546 18.856 19.218 18.828 22.871 25.863 27.013 25.803 22.683 18.946 18.901 18.978 19.111 19.161 19.206 19.236 19.259 19.286 19.309 19.321 24.096 26.486 22.201 19.501 20.006 20.331 20.096 20.291 20.564 20.761 21.101 21.389 24.206 22.506 20.731 20.541 20.576 20.606 20.596 20.516 20.426 20.396 20.359 20.246 20.574 22.169 22.286 22.314 20.979 20.549 20.454 21.204 20.974 20.476 21.056 20.299 20.044 19.951 20.911 20.704 21.029 20.809 20.824 21.781 20.711 20.811 20.994 22.144 23.079 21.886 21.989 22.674 23.364 26.069 24.441 23.399 23.321 23.484 26.581 29.391 29.396 25.526 24.374 25.176 27.004 27.029 25.256 25.536 26.669 30.144 31.131 31.609 30.991 28.081 25.579 25.404 25.584 25.734 25.854 25.901 26.044 26.161 26.271 26.371 26.449 26.454 26.499 26.591 27.101 26.869 27.046 27.364 27.604 27.661 28.024 27.846 27.959 28.231 28.881 28.844 31.764 28.516 28.764 29.179 28.859 29.639 28.834 28.506 28.171 29.176 30.446 29.796 30.026 29.754 29.849 30.164 30.231 30.196 30.159 30.271 30.396 30.524 30.664 31.424 32.761 33.189 32.716 32.154 31.764 31.669 31.889 32.234 32.434 32.706 33.711 33.104 34.229 35.094 36.899 34.969 34.726 35.596 36.011 39.226 39.141 35.291 34.076 34.354 34.716 34.829 34.536 34.511 34.516 35.144
39.285 38.715 38.258 38.203 38.38 38.508 38.435 38.39 38.18 37.99 37.995 37.67 37.773 39.923 40.75 38.72 37.05 36.835 36.67 36.57 36.73 36.26 36.525 38.138 36.77 35.88 35.275 36.673 37.885 37.385 36.263 36.398 35.913 35.473 34.698 34.566 34.403 34.031 33.816 33.456 33.373 33.396 33.276 33.261 33.281 35.508 39.408 39.996 40.156 39.343 35.078 34.873 38.768 39.111 39.236 38.996 38.833 35.258 35.368 37.711 37.828 37.471 32.243 35.413 35.983 35.676 32.511 31.883 32.788 34.336 34.073 34.153 30.346 29.801 29.453 29.341 29.516 29.923 29.276 29.098 28.961 28.951 29.128 29.656 28.911 28.193 28.158 28.778 29.501 28.301 27.988 27.721 28.841 27.351 26.586 26.558 26.896 27.056 25.976 25.866 25.921 29.851 27.288 25.371 25.433 26.776 25.268 24.983 24.771 25.011 24.206 24.658 25.211 24.543 23.851 23.711 24.123 25.153 24.643 24.311 25.423 25.036 24.728 23.168 24.461 23.303 23.958 23.091 21.983 22.116 22.481 22.746 22.108 24.498 25.676 26.263 24.293 21.653 20.123 19.463 19.423 19.281 19.471 20.381 20.806 19.986 17.978 18.208 18.266 17.078 16.696 16.448 17.663 16.773 15.563 15.253 14.961 14.658 14.363 14.096 13.803 13.498 13.276 13.108 14.146 18.133 20.041 20.026 18.498 13.921 11.263 11.358 11.063 10.918 10.996 11.136 10.128 9.243 8.653 8.028 7.538 7.396 7.336 7.341 7.301 7.301 7.331 7.526 7.458 7.268 7.298 7.221 7.103 6.898 6.561 6.343 6.913 7.721 5.796 5.391 5.271 5.503 5.403 5.118 5.241 5.273 5.161 5.111 5.053 5.003 5.636 5.256 4.436 5.358 5.166 6.023 5.948 6.561 7.198 7.083 7.216 7.836 8.373 8.176 8.531 10.168 10.548 15.013 13.388 9.778 10.668 10.581 11.061 11.286 11.678 15.096 20.328 22.198 21.661 11.638 12.076 12.166 12.293 12.393 12.508 12.666 13.266 13.753 14.001 14.716 15.223 16.713 16.816 17.331 18.431 19.856 18.826 20.493 23.808 26.906 28.416 26.811 20.371 18.571 18.288 18.368 18.526 18.588 18.698 18.748 18.868 22.013 25.893 26.576 24.918 19.671 18.878 18.953 19.063 19.176 19.536 19.268 19.246 19.259 19.304 19.354 19.384 19.411 21.021 19.441 19.646 19.961 20.221 20.231 20.366 20.509 20.869 21.266 24.044 27.081 27.829 23.569 20.959 20.709 20.684 20.646 20.584 20.551 20.481 20.419 20.536 21.639 24.004 23.541 23.009 21.061 20.614 20.626 20.906 20.586 20.721 22.371 20.789 20.166 20.189 21.136 20.671 20.651 21.696 21.166 21.144 21.211 21.946 21.134 22.226 21.806 22.306 21.946 22.531 25.134 25.019 23.384 23.724 23.731 24.014 25.349 24.729 23.876 24.311 24.439 24.281 25.091 26.941 26.749 27.179 28.584 30.501 30.669 31.081 31.424 29.111 26.339 25.711 25.609 25.714 25.869 25.994 26.084 26.144 26.241 26.349 26.436 26.461 26.514 26.581 26.759 27.071 27.336 27.264 27.506 27.631 27.746 27.896 28.231 28.156 28.221 29.144 28.304 28.304 28.726 29.224 29.186 29.904 28.846 28.819 29.336 30.006 31.001 31.094 31.491 30.869 29.969 30.076 30.226 30.206 30.301 30.414 30.681 30.664 30.761 30.914 31.519 32.234 33.436 32.586 32.559 32.441 31.976 32.079 32.431 33.369 34.816 33.724 34.771 38.966 38.849 35.881 35.546 34.971 34.616 34.891 35.624 34.299 34.274 34.674 35.026 34.874 35.284 34.614 34.504 34.784
39.66 38.755 37.658 37.673 37.825 38.013 38.2 38.298 38.64 38.528 38.1 37.678 43.74 45.32 45.855 42.723 37.555 36.68 36.425 36.455 36.84 35.98 35.995 37.035 36.573 36.17 35.723 36.123 35.098 35.055 34.995 34.88 34.796 34.958 35.101 34.761 34.773 35.883 35.168 33.403 33.238 33.356 33.598 33.041 33.221 35.353 39.291 39.391 39.363 39.201 34.956 35.441 39.113 40.368 40.511 40.421 39.438 35.363 35.193 38.183 38.763 36.168 32.186 36.661 37.831 37.248 33.556 32.601 34.038 36.623 36.851 36.14 31.068 31.351 30.683 28.963 29.053 29.578 30.351 29.183 28.918 29.013 29.803 30.376 30.028 28.008 28.058 28.888 29.396 27.721 27.841 27.811 29.318 27.368 26.558 26.471 27.288 26.993 25.931 25.796 25.896 29.183 28.268 25.431 25.248 25.726 25.461 24.966 24.781 24.786 24.163 24.203 23.956 24.006 23.756 23.651 23.686 23.728 24.068 23.276 23.038 24.121 26.256 23.088 22.683 22.146 22.298 22.051 21.548 22.346 22.858 23.426 23.358 23.538 24.566 26.008 23.831 21.383 21.356 20.873 19.976 20.958 21.056 20.396 20.813 19.873 17.798 19.311 20.363 17.813 16.896 17.268 19.893 18.353 15.936 15.381 15.056 14.756 14.453 14.131 13.871 13.516 13.221 12.978 14.468 18.371 19.838 20.011 18.308 12.683 11.303 11.798 11.036 10.938 10.911 10.463 9.858 9.143 8.676 7.693 7.536 7.363 7.321 7.338 7.288 7.266 7.313 7.493 7.373 7.378 7.243 7.218 7.071 6.861 6.331 5.496 5.981 6.753 5.196 5.226 5.268 5.488 5.156 5.118 5.313 5.243 5.136 5.108 5.013 5.118 5.998 5.493 5.108 5.931 5.953 5.956 6.318 6.641 6.998 6.596 6.948 7.453 8.033 7.996 8.173 8.708 12.488 13.843 9.811 9.996 10.646 10.896 11.636 11.611 11.536 11.693 11.961 16.548 13.853 11.923 12.133 12.226 12.376 12.511 12.611 12.916 13.741 13.858 14.388 14.681 15.991 16.926 17.078 17.801 19.906 23.481 24.028 22.553 19.743 21.183 25.636 23.953 18.826 18.453 18.311 18.406 19.433 19.631 18.903 18.786 20.691 24.881 22.743 22.988 21.903 19.186 18.941 19.023 19.111 19.723 20.833 19.341 19.301 19.231 19.279 19.334 19.391 19.414 19.401 19.709 19.914 19.944 20.191 20.961 20.714 20.909 20.931 22.804 26.721 27.666 28.164 27.646 25.559 20.986 20.799 20.739 20.669 20.609 20.506 20.551 22.489 25.629 25.966 25.621 24.384 21.981 21.134 21.904 21.619 20.971 21.581 22.081 20.394 20.336 20.511 20.796 20.796 21.504 21.219 21.104 21.114 21.284 22.819 21.956 23.076 21.686 21.811 22.091 24.821 23.981 23.351 23.069 23.399 23.776 24.541 24.546 23.481 23.731 24.776 24.049 24.106 24.789 26.476 26.109 28.071 30.306 30.396 30.481 30.576 28.779 26.174 26.144 26.586 26.784 25.811 25.831 26.001 26.134 26.216 26.309 26.351 26.434 27.396 26.886 26.714 26.849 26.971 28.364 27.719 27.436 27.679 27.769 28.106 28.599 29.351 28.551 28.496 28.976 29.921 29.179 29.064 29.281 29.696 29.066 29.094 29.126 30.054 30.346 30.796 30.499 30.591 31.004 30.234 30.231 30.296 30.379 30.659 30.879 30.874 31.076 32.751 31.916 31.931 32.169 32.481 32.741 32.861 32.494 32.296 32.476 33.401 33.359 33.239 36.961 40.636 41.211 40.389 38.876 36.174 35.806 34.429 35.444 34.604 34.444 34.616 34.719 35.324 34.696 34.631 34.759 36.026
37.84 37.44 37.345 38.063 37.955 37.433 37.333 37.735 38.14 38.5 39.275 38.14 45.598 46.865 47.593 44.125 38.748 36.355 36.265 37.265 36.82 35.87 35.63 36.2 35.875 36.413 36.525 36.928 36.023 35.458 35.498 35.13 34.621 34.568 34.438 34.526 34.856 36.028 35.503 33.371 33.056 33.098 33.293 32.993 33.196 35.051 39.448 40.033 39.936 39.331 32.875 36.623 39.046 39.585 40.128 39.776 39.311 35.421 34.926 38.238 38.661 34.743 31.803 36.588 38.053 37.201 34.066 32.716 33.908 36.816 37.453 35.536 30.746 31.578 32.293 31.481 30.201 30.436 29.586 29.521 29.203 30.733 31.421 32.651 30.826 28.221 28.803 29.496 29.493 29.076 27.778 27.461 29.808 28.008 26.468 26.478 27.501 26.571 25.901 25.761 25.693 26.278 25.311 25.266 25.118 25.386 25.431 24.591 24.518 24.923 24.148 24.021 24.361 24.451 23.668 23.461 23.696 23.556 23.213 23.243 22.843 23.698 22.636 22.646 22.583 22.516 22.088 21.731 21.463 21.463 22.173 23.041 21.843 22.981 21.696 21.656 22.036 21.103 20.316 20.518 21.358 21.446 21.441 21.033 20.091 19.783 18.693 19.806 19.398 18.216 17.398 18.356 19.586 17.173 16.143 16.181 15.223 14.888 14.656 14.401 14.056 14.143 14.181 13.881 14.231 18.603 19.963 19.436 16.828 11.836 11.328 11.158 11.016 10.943 10.976 10.356 9.813 9.038 8.218 7.518 7.518 7.428 7.438 7.453 7.368 7.498 7.181 7.216 7.226 7.281 7.221 7.426 7.143 6.761 6.153 5.533 6.346 6.228 5.301 5.366 5.368 5.236 5.156 5.246 5.288 5.258 5.126 5.091 5.003 5.463 6.396 7.073 6.958 6.871 6.518 7.476 7.261 6.918 7.076 6.998 7.393 7.951 8.183 8.421 8.988 9.118 9.831 9.441 9.686 10.431 10.931 11.953 12.328 12.328 12.111 12.646 12.683 12.468 12.248 12.193 12.238 12.333 12.466 12.581 12.716 13.273 13.666 13.653 14.601 15.321 16.758 17.121 17.331 18.128 22.058 23.943 25.423 26.828 26.073 22.616 18.233 18.171 18.678 18.278 18.361 18.466 18.631 19.133 18.991 18.806 23.916 28.166 28.933 26.111 21.486 19.018 19.401 19.141 19.181 19.261 19.448 19.381 19.371 19.941 19.951 19.396 19.341 19.364 19.419 19.586 19.581 19.921 20.506 21.041 20.889 21.266 21.739 26.149 27.316 28.151 27.981 27.104 23.061 20.936 20.896 20.834 20.739 20.714 20.626 21.654 26.134 27.496 27.019 26.459 24.294 22.751 22.376 22.696 23.661 22.824 21.579 20.739 20.636 20.614 20.844 20.989 21.009 21.856 21.146 21.159 21.116 22.024 23.624 23.676 22.991 22.499 21.984 23.199 26.086 23.066 22.786 23.216 23.436 23.801 23.269 23.339 23.409 23.734 23.981 23.994 24.079 25.321 27.159 25.244 27.801 29.484 30.044 30.429 29.776 26.134 26.054 27.274 30.516 30.649 27.246 26.244 26.011 26.146 26.244 26.326 26.399 26.661 27.169 27.194 27.259 27.226 27.694 29.179 29.306 27.754 27.651 27.786 27.919 28.066 28.344 28.956 28.504 29.129 30.854 29.681 29.156 29.844 32.339 30.666 29.454 29.476 30.161 30.344 30.344 30.306 30.614 30.726 30.269 30.279 30.411 30.601 31.756 30.954 31.041 33.364 34.546 33.816 32.479 32.059 32.044 32.539 32.576 33.846 33.019 33.001 32.821 33.286 34.481 39.744 41.319 42.091 41.701 40.819 39.299 36.109 35.486 34.444 34.551 35.444 34.869 34.669 34.759 34.734 34.664 34.789 35.696
37.17 37.083 37.053 39.458 38.768 37.005 36.773 36.753 36.9 38.618 40.708 39.898 41.655 45.823 46.733 40.138 36.293 36.098 36.773 35.733 35.81 36.238 36.263 35.633 35.11 35.58 35.45 36.295 39.143 39.18 39.973 37.163 34.381 34.133 34.216 34.231 34.801 34.598 34.773 33.276 32.911 32.793 32.653 32.528 33.021 33.063 35.718 36.301 35.913 36.483 32.648 35.513 36.338 36.008 36.176 36.933 38.21 34.618 34.186 36.981 36.771 34.941 33.188 36.828 37.083 36.731 32.026 31.496 33.465 36.516 36.693 35.498 30.273 31.521 33.833 34.866 34.693 34.881 34.011 33.578 31.573 31.426 31.116 33.336 31.748 29.938 29.058 33.178 34.261 33.938 29.628 27.293 29.601 26.846 26.443 26.441 27.783 26.181 25.898 25.828 26.211 26.336 25.288 25.263 25.063 24.913 25.183 24.826 24.586 25.171 24.013 23.918 24.781 25.698 23.921 23.468 23.783 23.401 23.248 22.948 22.846 23.333 22.741 22.716 22.233 22.076 22.001 21.788 21.436 21.401 21.608 22.393 22.016 22.116 21.136 20.848 21.721 20.813 19.788 19.631 20.086 19.768 20.418 20.876 19.411 19.803 18.673 17.976 17.761 18.136 18.116 18.363 18.486 16.316 17.256 15.686 15.253 14.906 14.553 14.216 13.956 13.991 14.503 13.863 14.263 18.853 19.981 19.128 15.933 11.631 11.248 11.513 11.013 10.938 11.081 10.588 9.843 9.303 8.193 7.428 7.353 7.286 7.296 7.276 7.283 7.526 7.181 7.223 7.186 7.248 7.333 7.691 7.361 6.658 6.251 5.431 6.238 5.681 5.418 5.403 5.288 5.186 5.103 5.288 5.321 5.193 5.076 5.081 5.056 5.926 6.658 6.818 7.601 7.518 6.816 7.758 8.596 8.128 7.756 7.888 8.061 8.208 8.531 9.116 9.683 10.113 10.276 10.278 10.391 11.046 11.568 11.866 11.451 11.893 12.068 12.511 13.023 14.638 13.616 13.261 12.726 12.461 12.538 12.696 12.808 12.971 13.081 14.248 14.616 15.841 18.221 17.428 17.841 19.623 23.423 24.596 26.116 26.788 25.443 24.028 18.788 18.181 18.231 18.306 18.391 18.483 18.658 18.726 18.768 20.311 26.788 28.908 28.741 27.221 25.698 23.453 20.121 19.111 19.251 19.286 19.393 19.418 19.364 19.381 19.546 19.411 19.356 19.391 19.469 20.126 19.846 20.351 21.036 21.059 21.039 21.281 23.856 26.991 27.861 28.254 27.416 25.434 21.904 20.949 20.931 20.894 20.831 20.919 21.874 25.164 27.119 27.321 27.851 27.274 24.594 23.276 23.894 23.434 23.659 24.146 21.636 20.916 20.859 21.029 21.081 21.044 21.681 21.404 21.191 21.196 21.446 22.064 21.991 22.664 22.791 23.124 24.346 25.581 25.406 23.061 23.134 23.184 24.149 23.894 23.239 23.359 23.629 23.821 23.924 24.031 24.681 27.951 25.479 24.906 25.711 26.584 27.836 29.149 25.309 25.999 27.314 30.589 31.194 32.021 31.101 28.149 26.381 26.119 26.276 26.381 26.444 26.494 26.876 27.196 27.021 27.521 27.859 29.409 28.116 27.624 27.656 27.829 28.971 28.456 28.541 28.904 28.994 29.921 33.711 34.759 30.341 30.219 31.989 31.929 30.084 30.101 30.091 30.591 30.421 30.314 30.316 30.249 30.286 30.379 30.586 30.841 31.201 32.424 32.236 33.216 35.184 34.604 32.439 32.281 32.386 32.261 32.301 32.876 34.109 34.886 32.849 33.539 33.636 36.624 40.459 41.209 41.951 41.734 40.856 37.546 35.994 36.414 35.896 35.856 35.324 34.954 34.831 34.774 34.784 34.954 35.309
