ncols 430
nrows 31
xllcorner    460122
yllcorner    91160
cellsize     2
NODATA_value -9999
48.268 48.298 48.338 48.343 48.348 48.361 48.393 48.381 48.371 49.218 49.318 48.471 48.473 48.778 48.941 49.531 49.996 50.183 48.796 49.611 49.278 48.826 48.691 48.948 48.641 48.681 48.748 51.368 55.808 56.313 50.513 48.923 49.001 50.361 50.141 49.478 49.848 49.388 49.501 52.363 54.663 54.863 55.126 55.371 49.046 52.673 55.276 54.953 54.358 51.858 49.196 48.981 49.761 49.218 48.691 48.683 48.506 48.421 48.346 48.288 48.296 48.298 48.328 48.718 48.776 48.311 48.303 49.058 49.741 49.073 48.261 49.008 50.936 50.471 52.968 54.186 55.323 55.546 55.748 55.893 56.023 49.471 49.481 49.181 48.816 48.973 50.188 48.548 48.818 50.373 50.638 49.418 47.968 48.373 47.751 47.603 47.768 48.398 48.746 48.266 47.931 47.453 47.168 47.351 48.313 47.353 46.236 46.211 46.273 46.233 46.166 47.221 47.441 47.348 47.166 48.278 47.938 47.611 47.231 46.211 46.203 46.581 46.603 46.581 45.978 45.313 45.446 46.726 46.036 45.006 45.213 45.201 44.893 44.541 44.463 44.583 45.131 44.826 44.888 44.369 44.546 44.686 44.936 44.624 44.711 44.414 44.086 43.881 43.776 43.896 43.476 43.336 43.301 43.219 42.756 42.384 42.371 42.361 42.314 42.106 41.766 41.331 41.084 41.089 40.844 40.744 40.741 40.616 40.399 40.161 40.054 39.936 39.814 39.729 39.649 39.601 39.631 39.686 40.786 43.814 42.739 41.654 39.946 39.869 39.631 39.774 40.114 39.176 38.739 38.434 38.216 38.146 38.081 38.016 37.969 37.906 37.824 37.736 37.636 37.539 37.464 37.354 37.286 37.241 37.201 37.116 37.024 36.959 36.904 36.881 36.796 36.734 36.664 36.609 36.544 36.459 36.351 36.241 36.171 36.101 35.986 35.891 35.816 35.741 35.621 35.496 35.404 35.279 35.154 35.094 35.021 34.936 34.836 34.769 34.619 34.519 34.409 34.306 34.196 34.126 34.024 33.914 33.816 33.726 33.621 33.521 33.381 33.231 33.076 32.914 32.771 32.659 32.544 32.439 32.326 32.249 32.129 32.009 31.914 31.819 31.699 31.569 31.461 31.344 31.226 31.061 30.919 30.786 30.694 30.579 30.466 30.381 30.271 30.149 30.019 29.869 29.781 29.659 29.556 29.419 29.319 29.199 28.966 28.824 28.776 28.674 28.551 28.514 28.419 28.299 28.169 28.086 27.984 27.871 27.794 27.676 27.554 27.476 27.344 27.241 27.121 27.029 26.946 26.864 26.764 26.654 26.556 26.474 26.429 26.369 26.341 26.281 26.229 26.139 26.084 26.019 25.939 25.889 25.641 25.501 26.036 25.224 25.109 25.096 24.999 24.866 24.829 24.751 24.726 24.799 24.659 24.824 24.681 25.484 25.179 24.699 25.176 25.656 23.826 23.806 23.536 23.531 23.509 23.464 23.424 23.381 23.341 23.291 23.239 23.766 28.546 32.891 33.259 30.701 30.039 26.759 24.049 24.574 22.886 24.329 23.846 22.851 23.286 24.174 22.604 24.669 24.421 25.376 22.121 22.344 23.276 24.576 22.274 22.241 22.259 22.284 22.284 22.304 22.311 22.319 22.321 22.329 22.346 22.361 22.286 22.226 22.186 22.136 22.089 22.034 21.966 21.936 21.884 21.826 21.796 21.771 21.729 21.706 21.651 21.604 21.551 21.459 21.424 21.374 21.296 21.226 21.184 21.176 21.146 21.131 21.091 21.049 20.971 20.931 20.851 20.786 20.754 20.711 20.631 20.546 20.416 20.321 20.211 20.114 20.024 19.914 19.806 19.726 19.629 19.504
48.186 48.238 48.263 48.303 48.336 48.368 48.391 48.458 48.471 48.481 48.638 48.516 48.538 49.516 50.523 49.456 48.486 48.483 48.656 48.538 48.526 48.663 48.738 48.941 48.841 48.873 49.288 52.418 52.978 54.498 51.738 48.736 48.738 48.708 49.253 49.886 49.233 48.926 49.013 49.683 50.138 50.023 51.811 50.406 49.711 53.708 55.438 55.526 55.561 52.468 51.958 50.276 50.243 48.788 48.676 48.561 48.478 48.371 48.323 48.303 48.318 48.308 48.321 48.308 48.548 48.308 48.291 48.323 48.973 48.443 48.191 48.896 50.988 50.646 51.996 52.848 53.916 54.153 54.398 54.906 55.186 50.861 50.128 48.946 47.671 47.538 47.483 47.463 47.453 47.383 47.516 47.696 49.036 50.081 47.548 47.366 47.763 47.878 48.443 48.251 47.738 47.453 47.106 47.028 47.308 47.631 46.298 46.221 46.316 46.193 46.123 46.986 46.066 46.248 46.601 49.511 49.501 48.431 48.321 46.651 45.561 45.541 45.568 45.381 45.296 45.243 45.196 47.226 46.933 45.526 45.163 46.226 45.853 44.701 44.281 44.246 44.203 44.453 45.801 45.496 43.959 44.346 45.054 43.446 43.294 43.166 43.014 42.961 42.839 42.714 42.589 42.479 42.389 42.276 42.131 42.064 41.974 41.791 41.616 41.476 41.379 41.254 41.094 40.976 40.819 40.656 40.549 40.451 40.291 40.159 40.076 39.931 39.814 39.716 39.654 39.604 39.626 39.714 40.391 41.619 41.026 39.671 39.616 39.386 38.824 38.684 38.574 38.479 38.439 38.376 38.264 38.211 38.159 38.099 38.094 38.039 37.941 37.864 37.771 37.641 37.561 37.474 37.409 37.334 37.246 37.159 37.116 37.084 37.009 36.951 36.876 36.814 36.769 36.689 36.606 36.501 36.429 36.316 36.216 36.144 36.021 35.934 35.866 35.746 35.609 35.504 35.414 35.326 35.229 35.161 35.061 34.954 34.859 34.754 34.646 34.504 34.386 34.311 34.234 34.159 34.059 33.951 33.854 33.764 33.649 33.546 33.401 33.274 33.124 32.976 32.826 32.684 32.531 32.441 32.326 32.216 32.111 32.016 31.914 31.766 31.669 31.584 31.471 31.334 31.199 31.066 30.926 30.814 30.676 30.579 30.494 30.374 30.271 30.154 30.024 29.879 29.756 29.611 29.474 29.339 29.226 29.021 28.909 28.844 28.779 28.691 28.621 28.526 28.406 28.281 28.189 28.126 27.999 27.896 27.759 27.661 27.566 27.439 27.309 27.204 27.151 27.026 26.926 26.826 26.716 26.631 26.546 26.494 26.456 26.386 26.319 26.276 26.219 26.136 26.076 26.016 26.014 26.149 25.646 25.786 25.434 25.156 25.006 24.986 24.881 24.924 24.839 24.819 24.816 25.176 26.326 24.496 25.074 24.129 24.069 24.054 23.984 23.946 23.926 23.851 23.736 23.696 23.634 23.559 23.486 23.439 23.411 23.356 23.326 23.266 23.849 25.701 31.044 30.484 24.949 26.374 22.776 22.644 22.936 22.924 23.459 23.421 24.681 23.479 23.559 22.704 24.684 25.434 22.369 22.399 26.584 26.256 22.674 22.861 22.371 25.436 22.809 22.206 22.221 22.209 22.221 22.241 22.226 22.229 22.231 22.199 22.144 22.094 22.056 22.009 21.949 21.891 21.826 21.776 21.761 21.699 21.649 21.631 21.576 21.561 21.491 21.396 21.344 21.329 21.279 21.234 21.144 21.081 21.061 20.994 20.964 20.934 20.869 20.836 20.776 20.734 20.684 20.624 20.546 20.436 20.336 20.239 20.126 19.994 19.901 19.821 19.686 19.599 19.511 19.394
48.306 48.173 48.201 48.236 48.231 48.281 48.338 48.368 48.986 48.766 48.473 48.473 48.466 48.498 48.543 48.571 48.521 48.516 48.971 49.531 48.776 49.091 49.023 48.503 48.526 48.616 48.631 48.658 50.761 49.456 50.793 49.761 49.966 49.848 49.108 50.476 50.126 48.778 48.621 48.738 48.756 48.766 48.853 48.726 49.703 53.028 54.733 54.536 53.903 51.281 50.178 49.236 50.058 48.561 48.633 48.546 48.481 48.336 48.708 50.328 48.603 48.316 48.308 48.306 48.316 48.301 48.393 48.343 48.276 48.293 48.191 49.198 51.158 50.063 49.513 48.903 49.723 49.841 51.158 54.368 54.643 50.191 52.378 51.616 47.873 47.483 47.586 47.446 47.403 47.366 47.428 47.601 48.078 48.683 47.546 47.438 47.656 47.936 47.931 47.746 47.198 47.081 47.103 47.018 47.676 47.281 46.243 46.213 46.211 46.196 46.126 46.833 46.161 46.166 46.943 50.406 50.783 48.816 48.338 48.203 46.023 45.593 45.443 45.283 45.201 45.161 45.078 46.353 45.561 45.361 45.183 44.458 44.398 44.288 44.158 44.048 44.041 44.106 44.546 44.266 44.044 46.379 43.899 43.476 43.329 43.196 43.036 42.999 42.859 42.719 42.589 42.496 42.381 42.261 42.134 42.059 42.016 41.819 41.629 41.476 41.394 41.264 41.109 40.976 40.816 40.634 40.539 40.439 40.291 40.169 40.089 39.941 39.841 43.739 45.654 43.031 39.986 40.641 42.406 41.434 41.129 39.551 39.054 38.914 38.854 38.811 38.706 38.609 38.541 38.461 38.421 38.344 38.289 38.259 38.171 38.106 38.039 37.961 37.881 37.781 37.696 37.594 37.506 37.449 37.344 37.251 37.191 37.081 37.034 36.969 36.961 36.894 36.836 36.756 36.691 36.556 36.476 36.391 36.284 36.186 36.059 35.966 35.864 35.776 35.621 35.519 35.399 35.299 35.214 35.151 35.091 34.989 34.881 34.776 34.621 34.496 34.384 34.306 34.224 34.126 34.044 33.931 33.859 33.719 33.599 33.496 33.359 33.254 33.094 32.979 32.839 32.724 32.609 32.461 32.341 32.214 32.076 31.974 31.864 31.774 31.686 31.591 31.469 31.364 31.206 31.064 30.921 30.806 30.711 30.626 30.516 30.379 30.256 30.159 30.021 29.901 29.754 29.576 29.454 29.291 29.131 29.009 28.886 28.826 28.791 28.716 28.654 28.514 28.364 28.259 28.184 28.071 27.981 27.866 27.771 27.636 27.541 27.411 27.286 27.206 27.111 27.009 26.894 26.791 26.704 26.594 26.544 26.511 26.439 26.414 26.346 26.294 26.194 26.126 26.054 25.999 26.049 25.866 25.529 26.146 25.546 25.184 25.091 25.076 25.109 25.054 25.419 25.006 25.234 24.676 25.171 24.386 24.336 24.256 24.204 24.166 24.109 24.046 23.984 23.894 23.806 23.726 23.689 23.631 23.551 23.529 23.494 23.456 23.431 23.364 23.306 23.251 25.184 27.086 25.604 22.924 22.836 22.779 22.704 22.606 22.496 22.449 22.191 23.526 23.976 25.609 23.006 23.504 24.414 23.799 29.479 26.451 26.376 28.904 28.064 31.511 29.764 22.529 22.109 22.139 22.159 22.149 22.144 22.144 22.134 22.121 22.099 22.049 22.004 21.971 21.904 21.854 21.781 21.741 21.711 21.656 21.604 21.569 21.501 21.441 21.391 21.339 21.296 21.249 21.181 21.171 21.101 21.039 20.979 20.904 20.871 20.814 20.756 20.741 20.684 20.639 20.589 20.511 20.421 20.341 20.244 20.144 20.024 19.909 19.796 19.689 19.576 19.476 19.359 19.281
50.051 49.658 49.201 49.081 48.628 48.436 48.348 48.346 49.023 49.073 48.356 48.413 49.476 49.691 48.491 48.496 48.521 48.531 48.516 48.521 48.543 48.596 48.778 48.516 48.498 48.528 48.513 48.508 48.521 48.531 48.633 48.806 48.818 48.651 48.708 49.668 49.316 48.686 48.771 48.638 48.628 48.696 48.688 48.661 49.423 48.736 49.261 49.686 51.378 49.413 49.151 49.406 49.886 48.788 49.958 48.591 48.781 50.016 51.381 51.823 50.533 49.306 48.431 48.648 48.721 48.271 48.303 48.306 48.298 48.386 48.186 49.791 51.411 49.878 48.811 48.036 48.466 48.686 48.056 48.706 49.048 49.486 51.431 48.526 47.463 47.486 48.016 47.798 47.371 47.333 47.906 48.008 48.086 47.718 47.363 47.466 47.598 47.878 47.906 47.736 47.206 47.063 47.146 50.908 50.788 47.656 46.191 46.223 46.218 46.173 46.131 46.828 46.076 46.023 48.151 51.831 52.003 49.916 49.396 49.856 47.333 45.836 45.468 45.338 45.588 45.216 44.983 44.988 44.941 44.863 44.666 44.448 44.366 44.226 44.103 44.128 44.306 44.066 43.973 43.921 43.884 45.589 43.616 43.444 43.276 43.119 43.004 42.929 42.831 42.694 42.546 42.461 42.349 42.234 42.099 42.019 41.896 41.739 41.631 41.481 41.379 41.239 41.096 40.976 40.779 40.626 40.504 40.361 40.244 40.151 40.079 40.426 42.921 49.209 53.374 51.266 45.529 40.791 41.474 40.274 39.209 39.081 39.049 39.014 38.949 38.864 38.779 38.706 38.649 38.554 38.484 38.441 38.414 38.341 38.261 38.184 38.134 38.031 37.954 37.861 37.786 37.711 37.604 37.511 37.414 37.331 37.264 37.171 37.101 37.011 36.961 36.941 36.894 36.826 36.716 36.606 36.511 36.436 36.331 36.219 36.129 36.031 35.899 35.776 35.679 35.551 35.446 35.329 35.244 35.146 35.044 34.964 34.891 34.789 34.631 34.486 34.386 34.301 34.204 34.129 34.016 33.916 33.836 33.719 33.569 33.484 33.394 33.261 33.111 32.999 32.851 32.724 32.621 32.491 32.386 32.214 32.096 31.991 31.906 31.801 31.686 31.586 31.461 31.364 31.236 31.119 31.001 30.884 30.779 30.676 30.564 30.436 30.291 30.169 29.996 29.856 29.734 29.591 29.456 29.256 29.094 28.981 28.901 28.846 28.794 28.736 28.621 28.474 28.389 28.304 28.169 28.056 27.951 27.859 27.734 27.631 27.506 27.396 27.286 27.204 27.089 26.996 26.859 26.774 26.666 26.611 26.541 26.484 26.396 26.369 26.329 26.269 26.156 26.076 26.026 26.041 26.039 25.729 25.501 25.341 25.361 25.304 25.264 25.334 25.264 25.759 25.439 24.551 24.631 24.599 24.524 24.476 24.389 24.346 24.281 24.241 24.169 24.134 24.061 23.966 23.864 23.814 23.741 23.694 23.624 23.596 23.561 23.511 23.471 23.434 23.381 23.314 23.261 23.204 23.141 23.039 22.949 22.866 22.791 22.706 22.594 22.509 22.421 22.341 22.249 22.044 22.236 22.984 24.416 22.634 25.494 25.126 31.366 32.846 32.259 32.026 29.711 22.081 22.039 22.046 22.056 22.041 22.044 22.029 22.009 22.011 22.011 21.991 21.956 21.906 21.874 21.806 21.751 21.696 21.651 21.629 21.549 21.501 21.459 21.384 21.324 21.266 21.231 21.189 21.141 21.086 21.026 20.956 20.916 20.824 20.746 20.694 20.659 20.606 20.564 20.544 20.496 20.431 20.349 20.239 20.129 20.039 19.941 19.809 19.694 19.599 19.469 19.349 19.259 19.166
50.476 48.756 48.318 48.876 49.291 49.688 50.003 49.518 49.611 49.458 49.056 48.393 48.616 48.716 48.441 48.428 48.448 48.458 48.466 48.483 48.513 48.521 48.501 48.541 48.553 48.528 48.543 48.513 48.556 48.591 48.896 49.581 48.531 48.496 48.491 48.488 48.506 48.521 48.521 48.501 48.791 48.611 48.816 48.716 48.796 48.748 48.686 48.651 49.643 49.421 50.436 50.271 50.046 48.983 51.773 51.356 51.773 54.218 53.123 50.721 50.676 49.656 50.091 50.271 50.101 48.306 48.386 48.303 48.893 49.443 48.201 49.906 51.386 49.091 48.116 48.001 48.258 49.326 48.118 48.101 48.168 48.396 47.768 47.511 47.481 47.466 47.643 47.711 47.371 47.333 47.911 47.961 48.451 47.503 47.406 47.471 47.836 47.998 47.766 47.766 47.193 47.046 46.996 47.141 47.926 48.173 46.168 46.146 46.171 46.141 46.206 47.208 46.138 45.933 47.536 51.933 52.063 51.126 50.998 50.968 47.081 46.338 45.553 45.346 45.333 45.248 45.021 44.893 44.721 44.616 44.486 44.396 44.323 44.251 44.113 44.058 44.081 43.956 43.926 43.881 43.911 45.411 44.181 43.364 43.239 43.124 43.024 42.961 42.821 42.679 42.549 42.399 42.314 42.254 42.096 42.009 41.916 41.714 41.599 41.454 41.304 41.181 41.061 40.951 40.784 40.641 40.506 40.369 40.254 40.144 40.049 40.844 47.641 51.936 57.189 55.044 53.014 45.654 40.014 39.259 39.209 39.179 39.159 39.139 39.061 38.966 38.871 38.829 38.759 38.681 38.564 38.514 38.464 38.404 38.341 38.289 38.194 38.114 38.026 37.949 37.874 37.776 37.674 37.591 37.496 37.396 37.311 37.259 37.204 37.149 37.086 37.019 36.929 36.846 36.764 36.701 36.596 36.494 36.404 36.314 36.189 36.099 35.989 35.866 35.734 35.606 35.516 35.416 35.304 35.211 35.134 35.016 34.881 34.766 34.674 34.561 34.481 34.371 34.279 34.181 34.076 33.951 33.846 33.721 33.624 33.519 33.396 33.269 33.161 33.014 32.881 32.726 32.604 32.496 32.374 32.254 32.119 32.009 31.906 31.794 31.681 31.576 31.441 31.344 31.219 31.111 31.021 30.946 30.856 30.721 30.611 30.476 30.334 30.174 29.996 29.859 29.706 29.589 29.399 29.231 29.119 29.024 28.934 28.831 28.786 28.716 28.589 28.456 28.364 28.284 28.171 28.059 27.959 27.859 27.729 27.619 27.501 27.386 27.309 27.194 27.089 26.964 26.859 26.781 26.696 26.594 26.524 26.459 26.389 26.336 26.296 26.189 26.116 26.061 26.046 26.026 25.719 25.641 25.451 25.389 25.844 26.014 25.614 27.171 25.879 24.751 24.761 24.766 24.731 24.646 24.581 24.501 24.454 24.404 24.351 24.284 24.216 24.141 24.121 24.021 23.949 23.879 23.834 23.771 23.694 23.654 23.631 23.589 23.551 23.499 23.426 23.386 23.329 23.246 23.191 23.129 23.046 22.961 22.899 22.801 22.714 22.619 22.531 22.464 22.381 22.319 22.181 22.321 24.289 23.659 22.979 25.894 32.624 34.306 33.669 28.671 25.769 24.021 21.984 21.944 21.971 21.976 21.951 21.941 21.926 21.916 21.901 21.889 21.879 21.849 21.814 21.754 21.716 21.674 21.606 21.541 21.509 21.446 21.411 21.351 21.264 21.199 21.144 21.111 21.074 21.039 20.974 20.914 20.849 20.781 20.696 20.591 20.501 20.494 20.446 20.409 20.366 20.306 20.224 20.124 20.039 19.944 19.841 19.729 19.596 19.484 19.381 19.274 19.151 19.051
50.383 48.118 48.123 48.141 48.193 48.231 48.283 48.286 48.481 48.848 49.228 48.491 48.706 48.758 48.683 49.963 48.601 48.786 48.598 48.468 48.468 48.473 48.446 48.496 48.533 48.541 48.536 48.566 48.541 48.536 48.543 48.558 48.556 48.563 48.511 48.556 48.506 48.491 48.451 48.448 48.438 48.413 48.426 48.456 48.463 48.493 48.548 48.478 48.638 48.681 48.821 49.501 48.953 48.688 50.641 53.128 53.858 53.418 52.876 49.903 49.788 49.948 51.068 49.923 50.086 48.278 48.411 52.326 50.828 48.971 48.293 50.841 51.196 48.528 47.938 48.038 48.081 48.418 52.813 48.933 48.593 52.768 49.521 47.488 47.453 47.451 47.428 47.401 47.378 47.366 47.353 47.411 47.796 47.536 47.368 47.631 47.951 47.916 47.746 47.598 47.211 46.988 46.876 47.381 49.166 48.781 46.161 46.108 46.156 46.121 46.143 47.186 46.216 45.903 48.763 51.956 52.613 52.133 52.418 52.063 50.696 48.126 45.608 45.351 45.323 45.208 44.998 44.871 44.758 44.676 44.586 44.383 44.301 44.198 44.283 44.568 44.713 44.118 43.981 43.929 43.746 43.836 43.584 43.336 43.184 43.124 43.041 42.966 42.834 42.724 42.521 42.371 42.306 42.256 42.109 42.004 41.881 41.716 41.554 41.421 41.314 41.191 41.036 40.924 40.824 40.694 40.541 40.401 40.264 40.149 40.021 39.881 44.506 51.116 56.644 55.026 54.134 51.479 39.351 39.291 39.281 39.269 39.239 39.209 39.146 39.064 39.009 38.919 38.879 38.804 38.701 38.631 38.564 38.516 38.439 38.366 38.296 38.206 38.146 38.089 37.954 37.891 37.786 37.681 37.614 37.516 37.449 37.366 37.306 37.231 37.179 37.104 37.009 36.904 36.804 36.696 36.624 36.539 36.456 36.376 36.239 36.126 36.004 35.889 35.786 35.664 35.596 35.479 35.369 35.259 35.161 35.021 34.924 34.791 34.651 34.521 34.464 34.366 34.284 34.196 34.094 33.991 33.861 33.741 33.644 33.514 33.406 33.266 33.156 33.034 32.889 32.751 32.634 32.491 32.386 32.266 32.151 32.021 31.896 31.759 31.641 31.509 31.384 31.309 31.216 31.081 30.981 30.896 30.814 30.701 30.586 30.469 30.314 30.164 30.009 29.864 29.689 29.551 29.324 29.184 29.084 29.001 28.931 28.871 28.796 28.684 28.551 28.459 28.354 28.244 28.144 28.059 27.936 27.836 27.746 27.621 27.494 27.379 27.284 27.166 27.029 26.934 26.849 26.746 26.669 26.581 26.514 26.451 26.399 26.339 26.289 26.179 26.139 26.069 26.124 25.989 25.696 25.576 25.544 25.404 25.606 26.174 27.164 25.539 25.254 24.931 24.866 24.806 24.779 24.721 24.619 24.534 24.476 24.449 24.379 24.314 24.251 24.219 24.139 24.104 24.029 23.951 23.909 23.844 23.799 23.749 23.724 23.669 23.629 23.571 23.501 23.449 23.366 23.284 23.236 23.191 23.119 23.046 22.979 22.861 22.776 22.701 22.636 22.546 22.486 22.379 22.274 22.151 21.889 22.594 22.884 24.449 31.954 33.424 30.284 25.841 23.616 22.129 22.054 21.886 21.904 21.891 21.909 21.879 21.866 21.821 21.826 21.824 21.819 21.766 21.756 21.729 21.669 21.626 21.581 21.544 21.451 21.434 21.356 21.296 21.216 21.159 21.086 21.046 20.999 20.936 20.899 20.846 20.791 20.714 20.616 20.541 20.451 20.354 20.306 20.276 20.231 20.186 20.091 20.024 19.926 19.819 19.704 19.619 19.526 19.424 19.311 19.186 19.096 19.006
53.511 51.178 50.733 48.268 48.156 48.198 48.253 48.273 48.221 48.263 48.478 48.398 48.413 48.748 49.066 50.818 48.856 49.726 50.096 49.781 49.518 49.458 48.603 48.458 48.506 48.513 48.471 48.518 48.511 48.511 48.516 48.546 48.531 48.541 48.538 48.538 48.506 48.506 48.496 48.473 48.486 48.478 48.463 48.438 48.401 48.403 48.416 48.368 48.351 48.381 48.393 48.468 48.638 48.618 48.748 51.931 53.861 53.331 50.961 49.426 50.983 50.343 51.776 52.008 54.941 52.578 51.868 50.356 50.246 48.771 48.148 51.296 50.798 48.138 47.946 48.091 48.116 48.191 51.041 52.428 51.818 52.763 49.483 47.486 47.481 47.443 47.418 47.338 47.371 47.368 47.423 47.821 48.386 47.568 47.418 47.851 48.021 47.986 47.708 47.553 47.468 46.938 46.808 47.396 49.911 49.488 46.246 46.066 46.146 46.071 46.061 46.676 46.016 45.861 50.161 52.188 52.343 52.116 52.146 52.131 50.201 48.676 45.586 45.366 45.316 45.208 44.961 44.841 44.698 44.623 44.518 44.371 44.301 44.238 44.276 44.406 44.261 44.016 43.983 43.904 43.749 44.121 43.616 43.286 43.164 43.116 43.044 42.931 42.799 42.691 42.581 42.404 42.329 42.271 42.114 41.999 41.869 41.699 41.554 41.451 41.346 41.249 41.026 40.914 40.829 40.719 40.581 40.436 40.299 40.371 40.104 39.886 40.486 45.061 54.384 54.479 53.521 44.644 39.451 39.419 39.394 39.376 39.386 39.329 39.264 39.159 39.084 39.046 38.986 38.921 38.854 38.786 38.709 38.649 38.549 38.441 38.384 38.299 38.216 38.151 38.061 37.969 37.846 37.799 37.706 37.601 37.521 37.456 37.391 37.311 37.229 37.159 37.066 36.961 36.854 36.734 36.624 36.514 36.441 36.331 36.231 36.121 35.994 35.891 35.781 35.676 35.606 35.489 35.401 35.299 35.156 35.064 34.904 34.791 34.676 34.534 34.454 34.356 34.269 34.176 34.066 33.969 33.836 33.746 33.639 33.529 33.419 33.281 33.154 33.011 32.874 32.754 32.626 32.494 32.379 32.286 32.159 32.031 31.879 31.791 31.679 31.534 31.404 31.281 31.166 31.081 30.989 30.876 30.749 30.639 30.536 30.444 30.274 30.136 30.006 29.874 29.716 29.541 29.364 29.231 29.109 29.004 28.964 28.884 28.791 28.634 28.551 28.456 28.341 28.229 28.141 28.031 27.916 27.831 27.711 27.586 27.459 27.374 27.261 27.141 27.034 26.934 26.806 26.751 26.674 26.589 26.516 26.496 26.421 26.386 26.281 26.221 26.166 26.146 26.111 25.864 25.731 25.536 25.546 25.579 25.884 25.704 24.984 25.116 25.046 25.006 24.944 24.896 24.849 24.786 24.654 24.581 24.509 24.464 24.416 24.364 24.319 24.249 24.206 24.144 24.076 24.046 23.984 23.934 23.901 23.831 23.786 23.729 23.694 23.654 23.561 23.486 23.421 23.361 23.311 23.241 23.171 23.099 23.019 22.946 22.841 22.759 22.679 22.616 22.551 22.424 22.331 22.236 22.114 21.941 21.841 23.694 26.526 25.284 26.264 27.656 26.871 26.096 24.316 21.846 21.816 21.814 21.811 21.784 21.784 21.751 21.729 21.739 21.746 21.691 21.659 21.651 21.639 21.594 21.549 21.504 21.444 21.394 21.301 21.244 21.166 21.086 21.049 20.981 20.916 20.854 20.811 20.739 20.689 20.621 20.524 20.444 20.401 20.284 20.204 20.136 20.091 20.016 19.984 19.911 19.821 19.709 19.621 19.511 19.424 19.324 19.236 19.141 19.044 18.951
54.933 54.543 50.446 48.091 48.253 48.191 48.233 48.226 48.248 48.316 48.463 48.418 48.413 49.003 49.631 50.006 48.313 48.386 48.531 48.691 48.618 49.098 48.783 48.541 48.601 48.636 48.596 48.603 48.578 48.581 48.571 48.511 48.536 48.491 48.486 48.506 48.483 48.463 48.478 48.461 48.488 48.461 48.451 48.453 48.453 48.426 48.436 48.413 48.383 48.361 48.316 48.356 48.296 48.258 48.261 48.398 49.261 48.986 48.838 49.543 49.558 50.541 51.571 53.353 56.973 54.193 53.023 51.426 49.371 48.031 48.231 48.981 49.166 47.883 47.978 48.298 49.083 48.828 48.083 49.133 49.106 47.778 47.501 47.508 47.651 47.501 47.533 48.938 48.303 47.463 47.846 48.301 48.186 47.371 47.351 47.623 47.956 47.738 47.501 47.416 47.223 47.058 46.786 48.043 51.933 49.981 46.043 46.106 46.121 46.051 46.061 47.061 46.183 45.848 48.528 50.761 51.301 50.541 48.011 47.733 46.161 46.166 45.433 45.478 45.328 45.216 45.081 44.896 44.678 44.796 44.516 44.418 44.346 44.366 44.761 45.161 45.218 44.181 43.953 43.946 43.861 43.941 43.616 43.321 43.156 43.101 43.006 42.894 42.791 42.674 42.554 42.411 42.311 42.244 42.156 42.034 41.874 41.689 41.559 41.449 41.341 41.276 41.091 40.979 40.874 40.761 40.654 40.979 41.364 42.149 40.869 40.061 39.866 43.404 48.186 52.636 49.939 42.919 39.529 39.529 39.516 39.514 39.444 39.396 39.349 39.279 39.201 39.126 39.084 39.029 38.961 38.881 38.801 38.749 38.639 38.534 38.494 38.409 38.324 38.231 38.131 38.026 37.914 37.834 37.769 37.686 37.621 37.569 37.484 37.409 37.291 37.194 37.094 36.976 36.866 36.764 36.656 36.564 36.434 36.334 36.214 36.124 35.999 35.891 35.799 35.719 35.634 35.491 35.389 35.281 35.179 35.071 34.956 34.831 34.709 34.591 34.469 34.396 34.271 34.186 34.069 33.954 33.864 33.784 33.656 33.519 33.414 33.309 33.196 33.066 32.934 32.794 32.674 32.551 32.456 32.341 32.221 32.054 31.929 31.841 31.704 31.574 31.459 31.329 31.191 31.089 30.969 30.869 30.774 30.661 30.516 30.376 30.209 30.121 30.014 29.876 29.706 29.534 29.404 29.289 29.186 29.089 28.969 28.869 28.736 28.621 28.559 28.429 28.339 28.236 28.144 28.034 27.924 27.794 27.676 27.569 27.469 27.331 27.249 27.156 27.039 26.906 26.809 26.769 26.676 26.599 26.524 26.514 26.476 26.396 27.339 26.274 27.001 26.261 25.934 25.754 25.806 25.606 25.809 27.421 25.494 25.226 25.214 25.159 25.119 25.071 24.981 24.946 24.876 24.784 24.721 24.636 24.589 24.526 24.476 24.411 24.374 24.311 24.259 24.209 24.184 24.104 24.034 24.014 23.996 23.964 23.909 23.811 23.746 23.714 23.614 23.554 23.499 23.441 23.376 23.321 23.239 23.156 23.091 22.966 22.894 22.804 22.726 22.674 22.564 22.449 22.341 22.229 22.129 22.039 21.921 21.689 22.059 22.526 22.026 23.204 30.391 30.864 23.301 21.704 21.726 21.751 21.736 21.711 21.714 21.704 21.691 21.654 21.631 21.606 21.579 21.581 21.549 21.539 21.519 21.461 21.416 21.321 21.259 21.189 21.129 21.051 21.001 20.934 20.864 20.771 20.726 20.671 20.571 20.499 20.411 20.346 20.284 20.221 20.129 20.019 19.956 19.896 19.851 19.771 19.684 19.606 19.519 19.431 19.331 19.254 19.159 19.074 18.984 18.909
55.643 54.551 49.341 48.103 48.193 48.186 48.186 48.211 48.376 49.563 50.968 50.518 49.198 49.281 49.816 49.346 48.306 48.358 48.361 48.411 48.961 48.418 48.393 48.626 48.523 48.546 48.596 48.596 48.586 48.718 48.733 48.581 49.401 49.216 48.721 48.723 48.506 48.471 48.443 48.431 48.438 48.433 48.411 48.411 48.398 48.393 48.426 48.431 48.403 48.403 48.386 48.376 48.328 48.286 48.318 48.956 48.986 48.268 48.181 48.168 48.156 48.148 48.358 49.298 51.531 50.061 50.288 50.121 48.688 47.981 51.296 50.381 50.378 47.823 48.036 50.573 50.426 49.716 48.933 49.151 48.963 47.551 47.478 47.548 48.803 49.213 49.453 53.706 54.356 50.018 48.878 48.661 47.826 47.236 47.378 47.588 47.686 47.783 47.323 47.233 47.373 47.166 47.043 49.766 52.361 47.753 46.061 46.081 46.093 46.043 46.028 46.261 46.678 46.806 45.823 46.028 45.741 46.576 46.071 46.678 47.413 46.981 47.183 47.306 46.818 46.216 47.183 45.366 45.766 46.476 44.748 44.548 44.641 44.366 46.378 47.503 47.433 44.786 44.296 44.289 43.954 44.331 43.664 43.339 43.161 43.031 43.011 42.914 42.761 42.669 42.524 42.384 42.326 42.221 42.121 42.031 41.859 41.684 41.561 41.469 41.349 41.281 41.189 41.056 41.019 41.666 43.256 44.911 44.984 43.611 40.446 40.079 39.896 40.806 43.819 46.254 43.269 39.601 39.599 39.611 39.599 39.559 39.506 39.434 39.399 39.344 39.301 39.241 39.194 39.134 39.024 38.991 38.904 38.831 38.729 38.639 38.579 38.499 38.404 38.306 38.204 38.129 38.016 37.921 37.839 37.756 37.711 37.641 37.564 37.494 37.394 37.261 37.164 37.051 36.944 36.814 36.711 36.596 36.494 36.386 36.271 36.154 36.056 35.971 35.849 35.744 35.609 35.516 35.419 35.314 35.196 35.091 34.986 34.879 34.741 34.626 34.504 34.391 34.296 34.184 34.059 33.961 33.861 33.774 33.671 33.549 33.436 33.314 33.204 33.086 32.954 32.819 32.734 32.589 32.516 32.376 32.254 32.119 31.976 31.826 31.709 31.616 31.491 31.379 31.264 31.131 30.996 30.869 30.739 30.626 30.484 30.331 30.214 30.109 29.971 29.854 29.699 29.589 29.439 29.316 29.181 29.126 29.001 28.856 28.706 28.581 28.476 28.414 28.324 28.246 28.129 28.026 27.884 27.761 27.656 27.546 27.444 27.311 27.206 27.094 26.994 26.886 26.816 26.731 26.651 26.589 26.534 26.531 26.411 26.361 27.009 26.266 30.504 26.211 26.084 25.871 26.169 26.339 26.306 25.201 25.344 25.341 25.269 25.234 25.166 25.071 25.049 24.991 24.926 24.856 24.806 24.739 24.699 24.634 24.554 24.489 24.459 24.401 24.361 24.306 24.274 24.219 24.169 24.119 24.096 24.061 23.981 23.911 23.839 23.759 23.684 23.636 23.579 23.529 23.469 23.389 23.309 23.186 23.116 23.001 22.931 22.851 22.771 22.694 22.599 22.499 22.384 22.249 22.136 22.054 21.991 21.889 23.089 28.239 26.444 22.071 24.796 25.961 22.134 21.619 21.626 21.611 21.621 21.664 21.654 21.626 21.624 21.609 21.569 21.544 21.529 21.501 21.481 21.444 21.436 21.419 21.374 21.296 21.201 21.139 21.084 21.021 20.961 20.876 20.794 20.704 20.639 20.554 20.459 20.379 20.321 20.249 20.189 20.119 20.046 19.971 19.881 19.784 19.701 19.649 19.596 19.494 19.416 19.354 19.281 19.196 19.106 19.039 18.909 18.849
55.731 54.613 51.138 50.073 48.606 48.183 48.333 48.221 48.388 49.873 50.918 50.898 50.323 49.438 50.651 49.411 50.246 50.903 50.843 52.166 51.148 48.348 48.356 48.446 48.481 48.538 48.561 48.538 48.531 48.571 48.573 48.491 48.851 48.878 49.431 50.656 50.193 49.751 49.271 49.063 48.416 48.478 48.448 48.406 48.373 48.408 48.383 48.353 48.773 48.528 48.488 48.316 48.338 48.318 48.286 48.268 48.248 48.253 48.246 48.181 48.148 48.123 48.081 48.036 47.981 47.976 47.931 48.363 47.886 47.841 51.431 51.621 49.211 47.741 48.011 50.056 51.638 52.138 54.536 52.968 50.051 47.488 47.513 48.521 49.121 51.528 50.513 54.991 56.053 51.728 50.743 50.806 48.488 47.111 47.111 47.173 47.421 47.653 47.411 47.268 47.321 46.983 46.956 47.926 50.158 47.261 46.023 46.066 46.083 46.031 45.991 45.981 46.266 46.366 45.836 45.993 45.983 45.773 45.696 46.868 48.428 48.163 48.163 48.128 47.796 46.418 47.701 46.708 47.498 47.083 44.976 44.911 45.233 44.393 45.263 46.288 45.583 46.051 46.133 45.319 44.066 44.119 43.589 43.286 43.126 43.001 42.981 42.884 42.766 42.671 42.514 42.376 42.294 42.196 42.054 41.989 41.859 41.699 41.604 41.516 41.416 41.371 41.331 41.916 44.454 44.026 44.599 45.066 45.391 43.761 40.086 40.069 39.981 39.896 40.206 41.796 39.904 39.699 39.694 39.676 39.656 39.616 39.591 39.554 39.486 39.454 39.399 39.341 39.286 39.231 39.161 39.096 39.016 38.916 38.829 38.761 38.699 38.601 38.511 38.431 38.321 38.209 38.111 38.021 37.949 37.874 37.814 37.729 37.641 37.549 37.446 37.329 37.236 37.126 37.019 36.899 36.791 36.654 36.564 36.439 36.319 36.209 36.114 36.021 35.906 35.819 35.701 35.546 35.414 35.311 35.191 35.089 34.986 34.869 34.751 34.626 34.511 34.421 34.289 34.179 34.071 33.984 33.851 33.734 33.639 33.551 33.451 33.344 33.194 33.066 32.919 32.806 32.706 32.649 32.529 32.411 32.269 32.139 31.984 31.859 31.721 31.609 31.491 31.379 31.274 31.131 30.991 30.861 30.684 30.541 30.411 30.289 30.186 30.104 29.916 29.799 29.679 29.604 29.489 29.336 29.201 29.116 28.944 28.821 28.724 28.589 28.481 28.334 28.256 28.176 28.109 27.991 27.849 27.714 27.641 27.514 27.399 27.274 27.171 27.049 26.956 26.874 26.814 26.739 26.661 26.579 26.539 26.469 26.386 26.349 26.346 29.899 31.806 26.159 26.266 26.529 28.429 27.346 25.894 25.446 25.389 25.349 25.296 25.246 25.196 25.129 25.116 25.089 24.976 24.931 24.869 24.826 24.789 24.704 24.636 24.601 24.496 24.484 24.464 24.426 24.401 24.331 24.259 24.199 24.159 24.081 24.049 23.984 23.904 23.834 23.784 23.734 23.679 23.624 23.521 23.471 23.384 23.274 23.176 23.054 23.014 22.909 22.821 22.744 22.631 22.504 22.399 22.294 22.191 22.049 22.004 21.939 22.116 27.099 27.169 22.284 22.076 21.771 22.441 21.811 21.584 21.526 21.526 21.516 21.546 21.554 21.539 21.519 21.489 21.494 21.449 21.429 21.414 21.399 21.346 21.331 21.281 21.226 21.174 21.111 21.026 20.959 20.889 20.801 20.724 20.661 20.559 20.459 20.361 20.271 20.179 20.119 20.086 20.019 19.966 19.881 19.794 19.729 19.651 19.556 19.496 19.446 19.371 19.284 19.201 19.146 19.039 18.974 18.839 18.771
55.388 54.108 50.366 49.781 50.376 49.358 49.118 48.963 49.318 49.976 50.426 50.766 50.718 49.708 49.801 51.693 54.273 54.203 53.943 54.628 53.218 50.133 48.783 48.526 48.921 48.581 48.543 48.493 48.468 48.538 48.518 48.456 48.526 48.636 48.806 48.873 49.626 49.338 49.181 49.213 48.471 48.738 48.841 48.563 48.528 48.781 48.488 48.503 48.508 48.501 48.508 48.281 48.268 48.248 48.243 48.911 48.811 48.261 48.186 48.181 48.178 48.111 48.093 48.071 48.008 47.978 47.956 47.891 47.861 47.793 48.368 48.916 47.688 47.656 47.661 48.091 50.406 51.983 52.298 51.183 48.406 47.483 48.373 52.663 48.576 49.318 50.723 53.538 51.563 50.596 51.801 50.676 48.218 47.088 47.061 47.401 47.163 47.163 47.053 47.323 47.136 47.011 47.128 47.088 47.801 46.401 45.993 46.056 46.061 46.003 46.016 45.973 46.083 46.166 45.853 46.701 46.541 45.898 45.948 46.986 48.053 47.733 47.713 47.468 47.461 46.518 47.656 47.041 47.566 47.518 46.661 47.391 46.783 47.878 48.076 47.313 46.833 47.378 47.488 47.106 45.854 45.754 44.216 43.214 43.171 43.081 42.969 42.866 42.764 42.621 42.514 42.384 42.299 42.204 42.101 42.041 41.941 41.844 41.779 41.661 41.611 42.754 45.079 47.451 48.036 46.841 45.711 44.496 44.041 42.249 40.171 40.141 40.094 40.019 39.969 39.901 39.836 39.819 39.771 39.759 39.721 39.706 39.679 39.641 39.634 39.584 39.546 39.499 39.439 39.366 39.274 39.151 39.074 39.009 38.931 38.844 38.771 38.701 38.619 38.514 38.394 38.266 38.176 38.119 38.009 37.914 37.839 37.779 37.679 37.576 37.479 37.371 37.261 37.179 37.076 36.959 36.839 36.699 36.576 36.484 36.364 36.261 36.151 36.029 35.931 35.834 35.721 35.599 35.459 35.324 35.224 35.116 34.991 34.876 34.754 34.619 34.506 34.409 34.274 34.164 34.086 33.959 33.846 33.724 33.631 33.516 33.411 33.276 33.189 33.089 32.956 32.819 32.721 32.649 32.529 32.391 32.254 32.141 32.016 31.869 31.739 31.629 31.539 31.414 31.266 31.136 30.971 30.834 30.706 30.529 30.391 30.249 30.139 30.014 29.869 29.746 29.639 29.556 29.469 29.354 29.259 29.114 28.926 28.814 28.701 28.586 28.479 28.386 28.269 28.139 28.041 27.931 27.811 27.716 27.581 27.476 27.354 27.234 27.141 27.016 26.966 26.876 26.814 26.734 26.669 26.621 26.526 26.481 26.426 26.371 27.444 29.151 33.464 26.234 29.559 26.876 27.249 25.416 25.526 25.476 25.459 25.391 25.309 25.289 25.206 25.181 25.161 25.101 25.049 25.024 24.969 24.924 24.874 24.819 24.746 24.694 24.639 24.601 24.574 24.536 24.469 24.426 24.354 24.296 24.224 24.186 24.136 24.071 24.026 23.924 23.864 23.819 23.744 23.691 23.606 23.536 23.431 23.326 23.236 23.156 23.074 22.991 22.894 22.769 22.661 22.536 22.421 22.326 22.236 22.131 22.011 21.901 21.859 25.886 28.479 25.266 21.761 21.861 22.169 22.084 21.466 21.444 21.456 21.421 21.399 21.449 21.449 21.419 21.414 21.406 21.389 21.386 21.344 21.321 21.301 21.266 21.209 21.131 21.089 21.069 20.986 20.926 20.849 20.764 20.676 20.586 20.479 20.379 20.291 20.179 20.049 19.984 19.954 19.926 19.854 19.814 19.729 19.654 19.596 19.529 19.474 19.429 19.314 19.216 19.146 19.049 18.999 18.901 18.839 18.776
54.718 53.771 48.813 48.221 49.246 48.691 49.118 48.421 48.463 48.543 49.076 48.866 49.953 49.581 49.341 52.926 54.863 55.138 55.068 54.888 53.201 50.956 50.741 48.413 49.988 51.866 51.236 50.371 49.703 48.693 48.421 49.313 48.841 49.208 49.376 48.826 48.463 48.631 49.983 48.488 48.501 48.643 48.676 48.598 48.573 48.903 48.873 48.533 48.698 48.718 48.613 48.541 48.368 48.478 48.401 48.433 48.553 48.368 48.131 48.128 48.141 48.096 48.078 48.036 48.006 47.976 47.938 47.918 47.883 47.831 47.818 47.756 47.693 47.666 47.596 47.533 47.498 47.518 48.526 50.171 47.953 47.426 47.718 48.546 48.958 49.671 51.056 53.958 53.646 50.858 54.068 51.836 47.148 46.933 47.793 52.803 52.478 48.071 46.926 47.043 46.951 46.891 47.141 47.383 47.716 46.508 46.021 46.016 46.043 45.981 46.738 47.021 46.783 47.001 46.808 46.966 47.071 47.978 47.883 47.631 48.401 48.216 46.803 46.323 47.036 45.481 46.093 47.641 47.738 47.471 48.213 49.331 49.543 49.988 49.821 47.951 47.996 47.518 45.523 46.941 46.033 44.651 43.883 43.221 43.138 43.026 42.926 42.816 42.721 42.613 42.453 42.358 42.296 42.261 42.216 42.216 42.158 42.018 42.238 43.486 42.683 45.363 46.048 47.571 48.071 45.823 46.166 43.446 44.761 45.251 43.878 40.281 40.263 40.191 40.111 40.056 40.001 39.948 39.928 39.876 39.836 39.806 39.796 39.731 39.706 39.693 39.661 39.606 39.561 39.476 39.391 39.266 39.186 39.076 38.993 38.878 38.803 38.733 38.638 38.523 38.433 38.328 38.243 38.123 38.003 37.926 37.868 37.803 37.676 37.573 37.506 37.391 37.291 37.178 37.066 36.981 36.866 36.728 36.631 36.523 36.423 36.308 36.196 36.068 35.968 35.841 35.718 35.596 35.466 35.373 35.291 35.171 35.071 34.916 34.781 34.663 34.536 34.408 34.301 34.221 34.116 34.021 33.891 33.754 33.651 33.551 33.424 33.301 33.179 33.069 32.979 32.891 32.801 32.669 32.564 32.406 32.259 32.131 32.036 31.904 31.789 31.681 31.571 31.441 31.271 31.106 30.979 30.814 30.676 30.554 30.421 30.304 30.184 29.974 29.836 29.741 29.639 29.529 29.469 29.354 29.216 29.076 28.926 28.844 28.724 28.601 28.504 28.379 28.241 28.154 28.034 27.874 27.764 27.694 27.564 27.446 27.329 27.221 27.121 27.024 26.969 26.871 26.819 26.761 26.689 26.631 26.509 26.464 26.401 26.549 27.646 27.961 28.536 26.056 26.216 25.534 25.716 25.661 25.586 25.531 25.474 25.429 25.366 25.306 25.281 25.256 25.196 25.191 25.141 25.119 25.054 25.029 24.974 24.899 24.859 24.791 24.739 24.701 24.616 24.636 24.561 24.484 24.444 24.396 24.304 24.214 24.141 24.109 24.081 24.001 23.959 23.896 23.816 23.756 23.651 23.561 23.479 23.371 23.271 23.219 23.139 23.041 22.951 22.819 22.691 22.559 22.469 22.386 22.294 22.149 22.039 21.911 21.829 23.019 26.254 22.771 21.946 21.771 21.774 22.744 21.369 21.426 21.399 21.369 21.334 21.321 21.354 21.366 21.341 21.321 21.286 21.304 21.274 21.261 21.219 21.171 21.116 21.081 21.031 20.979 20.939 20.886 20.784 20.714 20.619 20.519 20.399 20.324 20.196 20.089 19.959 19.884 19.841 19.794 19.726 19.689 19.649 19.569 19.531 19.474 19.446 19.331 19.216 19.129 19.059 18.991 18.959 18.896 18.826 18.806
51.211 50.496 48.436 48.421 48.483 48.593 48.571 48.408 48.361 48.681 48.488 48.311 49.463 49.941 49.566 52.973 54.943 55.201 55.176 54.826 52.948 50.731 49.748 48.356 50.433 52.018 52.498 51.908 49.901 48.658 48.428 50.841 51.951 51.888 51.896 49.506 48.471 48.416 49.803 48.563 48.788 49.548 48.583 48.998 48.728 49.041 48.413 51.151 52.063 48.681 48.966 48.791 48.391 48.906 49.916 49.013 48.333 48.863 48.241 48.276 48.216 48.131 48.041 48.003 47.978 47.933 47.893 47.866 47.861 47.808 47.771 47.761 47.721 47.656 47.616 47.581 47.528 47.518 47.521 47.453 47.391 47.341 47.298 47.268 47.176 48.971 48.883 55.191 52.306 50.818 52.811 50.301 48.848 46.888 48.676 52.328 54.358 52.446 47.138 47.378 46.966 46.908 48.271 52.046 50.013 46.513 45.971 46.033 46.023 45.878 46.803 46.643 46.106 46.126 45.993 45.761 46.421 48.938 50.153 50.143 48.991 48.771 46.226 45.416 45.388 45.251 44.983 46.011 46.561 47.126 48.243 47.001 48.841 45.963 48.528 47.293 46.863 45.971 45.231 45.023 44.223 45.078 43.641 43.111 43.038 42.956 42.856 42.748 42.673 42.588 42.491 42.413 42.356 42.326 42.308 42.303 42.221 42.441 46.133 46.598 45.001 46.343 46.021 44.951 45.186 44.058 42.766 43.161 46.283 45.488 43.543 40.406 40.358 40.296 40.223 40.158 40.146 40.046 40.026 39.976 39.928 39.906 39.866 39.816 39.813 39.788 39.716 39.668 39.621 39.526 39.446 39.316 39.268 39.191 39.108 38.973 38.881 38.751 38.673 38.563 38.466 38.371 38.276 38.156 38.041 37.978 37.908 37.848 37.731 37.643 37.543 37.423 37.361 37.246 37.126 37.016 36.911 36.766 36.683 36.576 36.466 36.348 36.246 36.126 35.996 35.893 35.763 35.636 35.498 35.391 35.308 35.223 35.111 34.991 34.831 34.711 34.556 34.438 34.366 34.246 34.149 34.034 33.926 33.811 33.719 33.569 33.469 33.341 33.216 33.106 33.004 32.906 32.816 32.704 32.586 32.439 32.279 32.169 32.031 31.906 31.769 31.674 31.594 31.459 31.284 31.154 30.976 30.804 30.656 30.526 30.426 30.306 30.139 29.989 29.839 29.746 29.626 29.521 29.461 29.326 29.174 29.026 28.916 28.826 28.716 28.646 28.536 28.394 28.284 28.149 28.014 27.869 27.736 27.629 27.511 27.421 27.326 27.214 27.116 27.036 26.971 26.879 26.824 26.769 26.709 26.606 26.514 26.439 26.431 26.734 28.221 27.176 26.069 25.994 25.839 25.824 25.809 25.681 25.624 25.579 25.534 25.471 25.404 25.374 25.366 25.324 25.249 25.229 25.224 25.204 25.156 25.071 25.036 25.011 24.951 24.881 24.831 24.786 24.756 24.724 24.659 24.609 24.501 24.416 24.344 24.259 24.199 24.146 24.131 24.104 24.036 23.971 23.904 23.814 23.709 23.609 23.506 23.429 23.349 23.251 23.181 23.109 22.994 22.859 22.714 22.584 22.499 22.404 22.301 22.181 22.059 21.941 21.844 25.586 27.089 21.401 21.534 22.016 21.491 21.766 21.224 21.224 21.366 21.321 21.281 21.256 21.266 21.271 21.274 21.261 21.229 21.214 21.206 21.189 21.159 21.094 21.056 21.001 20.959 20.921 20.856 20.791 20.726 20.639 20.561 20.459 20.339 20.239 20.126 19.994 19.914 19.801 19.744 19.674 19.589 19.569 19.536 19.511 19.481 19.416 19.361 19.264 19.161 19.096 19.059 19.011 19.061 18.949 18.909 18.836
48.563 48.533 49.383 48.423 48.411 48.601 48.843 48.418 48.508 48.506 48.518 48.483 48.998 50.138 49.313 51.373 53.076 53.931 54.391 54.603 51.856 49.688 50.201 50.178 50.856 52.143 52.473 51.788 50.291 49.243 49.458 51.486 52.858 53.113 52.216 49.758 48.593 48.926 49.628 49.693 52.031 54.273 52.336 49.923 48.721 48.948 48.736 50.658 49.973 48.936 49.521 48.896 48.316 48.388 48.578 48.318 49.158 48.886 48.318 48.696 48.878 48.751 48.671 48.151 48.036 47.981 47.906 47.868 47.798 47.786 47.731 47.723 47.668 47.641 47.631 47.558 47.548 47.538 47.503 47.463 47.408 47.393 47.336 47.278 47.216 47.161 47.128 47.061 46.986 46.941 49.011 52.798 46.826 46.741 47.431 49.086 51.203 49.863 47.331 48.016 47.603 49.511 51.863 57.561 56.353 49.233 45.981 46.008 45.961 45.928 46.696 46.886 45.888 45.806 45.678 45.636 46.361 48.901 50.778 50.261 46.486 45.868 45.128 45.228 45.143 45.098 45.063 44.688 44.553 44.626 45.258 44.258 46.953 47.943 48.086 45.178 43.848 43.746 43.616 43.531 43.511 43.538 44.561 43.188 43.091 43.053 42.961 42.826 42.708 42.618 42.486 42.473 42.426 42.621 43.601 43.771 45.661 44.428 46.641 46.483 44.853 44.531 47.283 43.578 41.041 41.428 40.861 42.036 47.436 46.326 42.898 40.533 40.503 40.398 40.306 40.246 40.183 40.113 40.081 40.078 40.036 40.021 39.981 39.943 39.928 39.878 39.821 39.768 39.703 39.586 39.496 39.418 39.341 39.276 39.198 39.061 38.981 38.856 38.776 38.668 38.541 38.426 38.336 38.233 38.141 38.051 37.976 37.896 37.796 37.686 37.598 37.488 37.383 37.313 37.151 37.041 36.921 36.826 36.688 36.578 36.488 36.366 36.273 36.131 36.006 35.901 35.773 35.656 35.536 35.431 35.348 35.191 35.106 34.991 34.858 34.748 34.598 34.478 34.366 34.261 34.159 34.031 33.929 33.816 33.709 33.589 33.491 33.376 33.226 33.126 33.014 32.876 32.764 32.676 32.559 32.434 32.321 32.186 32.049 31.901 31.769 31.639 31.499 31.364 31.224 31.046 30.901 30.746 30.611 30.514 30.421 30.249 30.056 29.931 29.844 29.774 29.679 29.559 29.414 29.254 29.136 29.016 28.909 28.799 28.689 28.599 28.514 28.421 28.304 28.179 28.026 27.876 27.751 27.636 27.524 27.401 27.286 27.211 27.089 27.036 26.969 26.891 26.849 26.791 26.691 26.606 26.509 26.469 26.646 26.801 26.096 26.014 26.021 25.911 25.851 25.854 25.821 25.719 25.674 25.616 25.556 25.516 25.481 25.466 25.434 25.396 25.341 25.309 25.294 25.281 25.239 25.171 25.141 25.076 25.011 24.951 24.919 24.886 24.836 24.791 24.731 24.646 24.539 24.471 24.401 24.344 24.304 24.199 24.179 24.124 24.074 24.004 23.961 23.886 23.786 23.666 23.574 23.509 23.446 23.339 23.266 23.179 23.051 22.891 22.741 22.644 22.544 22.424 22.336 22.209 22.086 21.981 21.896 22.489 21.656 21.541 21.316 21.516 22.984 22.714 21.069 22.209 21.256 21.319 21.166 21.171 21.169 21.179 21.176 21.181 21.176 21.134 21.164 21.161 21.104 21.034 20.969 20.929 20.876 20.829 20.781 20.696 20.631 20.539 20.471 20.396 20.261 20.156 20.044 19.946 19.854 19.759 19.659 19.584 19.529 19.469 19.436 19.426 19.416 19.324 19.234 20.034 19.251 19.156 19.171 19.389 19.084 19.029 18.851 18.721
52.126 50.398 48.656 47.886 48.628 49.381 48.868 48.161 48.518 48.286 48.478 48.778 48.961 49.613 48.666 48.271 48.616 48.466 48.701 49.131 48.848 48.421 49.521 50.803 51.496 52.278 52.436 51.658 50.636 49.381 49.443 51.798 53.193 53.436 51.993 49.948 49.196 50.283 49.436 50.363 53.931 55.181 54.838 53.976 48.713 49.646 48.588 48.536 49.781 49.733 49.693 48.978 48.761 48.566 49.321 49.043 48.741 48.558 48.603 48.496 48.373 48.208 48.393 48.121 48.018 47.968 48.003 47.986 47.928 47.948 47.813 47.788 47.743 47.641 47.578 47.536 47.506 47.483 47.443 47.431 47.388 47.343 47.308 47.266 47.198 47.183 47.116 47.068 47.021 46.951 46.876 46.808 46.743 46.676 46.571 46.561 46.506 46.526 46.666 46.863 47.171 50.466 52.226 54.158 53.693 47.631 45.953 46.011 45.971 45.948 46.691 47.663 45.923 45.773 46.503 48.031 48.756 49.536 50.791 50.438 45.346 45.123 45.081 45.096 45.088 45.101 44.916 44.668 44.598 44.498 44.403 44.303 44.218 44.286 45.043 45.366 43.901 43.751 43.671 43.621 43.601 43.546 45.623 43.348 43.246 43.176 43.021 42.908 42.983 44.638 44.731 43.123 45.453 45.118 45.043 48.296 47.651 44.843 46.668 46.273 43.176 42.883 41.658 41.256 41.136 41.061 41.001 40.901 43.541 44.538 42.458 40.581 40.613 40.488 40.411 40.333 40.261 40.228 40.186 40.156 40.136 40.101 40.111 40.066 40.021 40.003 39.931 39.853 39.776 39.678 39.588 39.513 39.426 39.351 39.248 39.121 39.048 38.933 38.846 38.751 38.631 38.526 38.428 38.293 38.191 38.101 38.006 37.913 37.806 37.698 37.621 37.516 37.426 37.303 37.193 37.071 36.958 36.846 36.721 36.601 36.476 36.338 36.223 36.111 35.993 35.866 35.741 35.653 35.551 35.438 35.326 35.218 35.103 34.991 34.833 34.706 34.603 34.493 34.356 34.271 34.149 34.046 33.934 33.829 33.706 33.581 33.466 33.344 33.251 33.179 33.041 32.924 32.791 32.679 32.549 32.401 32.311 32.196 32.076 31.921 31.796 31.641 31.476 31.336 31.159 30.974 30.841 30.674 30.596 30.484 30.359 30.196 30.049 29.936 29.849 29.759 29.676 29.566 29.421 29.266 29.091 28.984 28.916 28.819 28.699 28.594 28.484 28.386 28.286 28.166 28.029 27.901 27.789 27.661 27.551 27.424 27.314 27.199 27.101 27.036 26.979 26.906 26.861 26.779 26.676 26.574 26.501 26.754 27.159 26.849 26.074 26.014 26.024 25.944 25.894 25.839 25.804 25.781 25.734 25.666 25.591 25.564 25.526 25.529 25.491 25.481 25.419 25.391 25.391 25.366 25.321 25.246 25.189 25.149 25.084 25.039 24.989 24.934 24.884 24.819 24.759 24.686 24.604 24.551 24.494 24.404 24.346 24.284 24.221 24.171 24.134 24.071 23.999 23.901 23.786 23.699 23.626 23.559 23.484 23.386 23.301 23.189 23.056 22.939 22.804 22.686 22.581 22.489 22.369 22.236 22.106 22.014 21.934 21.821 21.691 21.581 21.456 21.164 22.409 22.079 21.239 23.271 23.381 21.161 21.171 21.071 21.061 21.066 21.084 21.084 21.086 21.091 21.079 21.079 21.049 20.991 20.931 20.859 20.786 20.731 20.681 20.614 20.524 20.444 20.346 20.274 20.169 20.066 19.971 19.901 19.784 19.701 19.606 19.516 19.476 19.396 19.376 19.354 19.329 19.219 19.219 24.366 24.274 21.434 21.754 22.291 18.796 18.696 18.674 18.681
53.971 51.503 50.346 48.291 48.073 49.928 49.261 48.066 48.848 48.378 48.356 48.873 48.801 48.958 48.891 48.236 48.178 48.201 48.306 48.533 48.688 49.163 49.786 50.926 51.623 52.403 52.403 51.528 50.138 49.746 50.111 51.996 53.323 53.223 51.771 50.801 50.753 50.621 49.236 50.608 53.658 55.513 55.638 54.461 48.801 49.613 48.688 48.291 50.803 49.006 48.951 48.896 48.833 49.568 52.943 53.016 50.276 48.436 48.368 48.503 48.268 48.303 48.308 48.041 48.003 47.991 48.043 48.236 48.018 47.938 47.811 48.018 48.756 48.626 48.303 47.993 47.751 47.556 47.458 47.411 47.346 47.298 47.263 47.236 47.178 47.103 47.093 47.058 46.991 46.948 46.881 46.833 46.781 46.723 46.593 46.568 46.451 46.376 46.301 46.286 46.193 46.166 47.088 46.806 47.148 45.891 45.896 45.978 46.008 45.956 46.796 47.826 46.061 46.091 47.328 51.748 51.928 50.851 51.013 50.836 45.811 45.138 45.061 45.073 45.073 45.096 44.906 44.666 44.588 44.518 44.418 44.326 44.241 44.148 44.056 44.033 43.908 43.768 43.711 43.671 43.693 43.593 45.396 43.376 43.263 43.193 43.853 43.711 47.441 49.098 49.108 47.628 48.531 48.603 46.621 48.321 46.651 44.468 44.006 42.493 41.486 41.431 41.386 41.288 41.248 41.198 41.146 41.046 42.356 42.851 42.871 40.681 40.658 40.573 40.483 40.436 40.373 40.321 40.286 40.273 40.238 40.196 40.166 40.141 40.103 40.041 39.981 39.891 39.806 39.713 39.643 39.561 39.453 39.351 39.273 39.171 39.058 38.963 38.878 38.801 38.706 38.586 38.473 38.363 38.221 38.138 38.023 37.921 37.826 37.738 37.638 37.538 37.438 37.348 37.231 37.103 36.998 36.896 36.776 36.636 36.506 36.383 36.283 36.143 36.038 35.898 35.781 35.653 35.571 35.486 35.351 35.251 35.151 35.013 34.883 34.731 34.608 34.508 34.411 34.324 34.219 34.109 33.979 33.871 33.744 33.624 33.509 33.374 33.289 33.199 33.046 32.909 32.789 32.686 32.564 32.429 32.306 32.176 32.076 31.964 31.819 31.686 31.516 31.321 31.144 30.981 30.819 30.691 30.606 30.459 30.286 30.146 30.044 29.954 29.854 29.761 29.674 29.526 29.394 29.236 29.111 29.004 28.866 28.774 28.684 28.574 28.476 28.354 28.221 28.099 28.001 27.916 27.789 27.661 27.564 27.436 27.336 27.216 27.156 27.044 26.979 26.929 26.856 26.774 26.679 26.589 27.186 27.244 26.961 26.116 26.086 26.036 26.009 26.006 25.949 25.886 25.856 25.821 25.784 25.724 25.669 25.631 25.604 25.581 25.546 25.534 25.499 25.491 25.479 25.434 25.396 25.291 25.229 25.199 25.141 25.076 25.031 24.981 24.939 24.876 24.796 24.734 24.676 24.629 24.554 24.486 24.399 24.306 24.274 24.274 24.186 24.144 24.044 23.926 23.826 23.746 23.696 23.621 23.531 23.436 23.329 23.209 23.094 22.996 22.894 22.759 22.624 22.506 22.404 22.281 22.176 22.071 21.979 21.861 21.739 21.609 21.506 21.421 21.074 22.529 23.449 28.739 22.079 21.091 21.029 21.111 21.086 20.929 20.976 20.984 20.974 20.994 20.991 20.981 20.966 20.919 20.871 20.839 20.724 20.649 20.601 20.526 20.424 20.356 20.244 20.151 20.056 19.959 19.869 19.806 19.694 19.611 19.554 19.474 19.414 19.356 19.314 19.284 19.224 19.196 21.301 24.561 27.559 20.394 19.539 18.851 18.116 18.231 18.814 20.614
53.793 51.063 50.501 47.718 47.931 47.911 47.901 48.031 48.086 48.111 48.038 48.516 50.633 49.386 49.401 48.461 48.153 48.373 48.238 48.221 48.516 49.723 48.526 49.511 50.011 50.713 51.406 50.786 48.871 50.153 50.848 52.238 53.461 52.986 51.228 50.648 50.441 50.721 49.611 50.981 54.208 55.646 55.543 53.153 49.418 48.923 49.731 48.836 48.486 49.153 48.703 48.238 48.718 51.073 53.586 53.206 48.996 48.096 50.126 49.681 50.093 50.036 48.651 48.051 48.633 48.083 48.048 48.966 48.333 47.803 47.796 47.853 47.806 48.218 47.808 47.928 47.978 48.043 48.026 48.611 47.653 47.476 47.396 47.343 47.258 47.138 47.068 47.018 46.988 46.918 46.838 46.793 46.711 46.658 46.588 46.558 46.481 46.406 46.353 46.276 46.216 46.118 46.043 45.993 45.883 45.863 45.936 46.008 45.971 45.898 47.488 47.836 46.233 45.766 48.953 51.868 52.141 51.961 51.981 51.928 47.778 45.171 45.108 45.096 45.091 45.061 44.873 44.638 44.581 44.523 44.408 44.323 44.263 44.203 44.091 44.016 43.918 43.756 43.731 43.696 43.686 43.633 44.971 43.423 43.326 44.351 47.658 48.161 49.178 50.243 48.878 48.018 49.193 48.113 45.918 46.011 43.568 41.813 41.703 41.628 41.538 41.513 41.476 41.411 41.298 41.301 41.203 41.143 42.258 44.158 45.971 40.761 40.768 40.666 40.596 40.543 40.481 40.466 40.401 40.353 40.323 40.288 40.243 40.178 40.126 40.051 39.978 39.921 39.856 39.776 39.683 39.553 39.486 39.381 39.303 39.178 39.083 39.008 38.938 38.848 38.761 38.641 38.536 38.418 38.318 38.183 38.098 37.998 37.921 37.836 37.706 37.583 37.486 37.386 37.291 37.168 37.051 36.948 36.838 36.728 36.576 36.448 36.316 36.196 36.083 35.951 35.851 35.716 35.611 35.478 35.386 35.263 35.131 34.996 34.868 34.773 34.656 34.528 34.446 34.364 34.269 34.176 34.056 33.919 33.794 33.641 33.516 33.411 33.316 33.216 33.061 32.916 32.779 32.659 32.544 32.409 32.264 32.166 32.036 31.949 31.801 31.654 31.511 31.324 31.134 30.964 30.829 30.709 30.616 30.429 30.251 30.126 30.046 29.939 29.826 29.759 29.629 29.521 29.344 29.256 29.146 29.026 28.904 28.779 28.661 28.526 28.434 28.326 28.186 28.076 27.959 27.831 27.746 27.671 27.576 27.431 27.326 27.226 27.174 27.109 27.046 26.964 26.869 26.759 26.691 27.059 27.784 27.329 26.211 26.111 26.079 26.066 26.099 26.039 25.999 25.934 25.899 25.841 25.826 25.749 25.706 25.699 25.659 25.644 25.604 25.606 25.576 25.559 25.534 25.499 25.431 25.379 25.324 25.281 25.216 25.176 25.121 25.064 25.001 24.944 24.889 24.819 24.741 24.699 24.621 24.551 24.474 24.419 24.334 24.294 24.204 24.179 24.064 23.969 23.856 23.801 23.751 23.661 23.571 23.466 23.376 23.234 23.154 23.061 22.961 22.806 22.679 22.561 22.441 22.349 22.251 22.149 22.024 21.891 21.786 21.649 21.539 21.446 21.321 20.779 20.586 22.424 22.849 22.314 20.959 21.201 22.664 22.386 20.884 20.901 20.894 20.901 20.889 20.901 20.874 20.841 20.796 20.744 20.674 20.594 20.494 20.416 20.319 20.256 20.149 20.049 19.921 19.831 19.741 19.674 19.606 19.549 19.486 19.424 19.406 19.364 19.316 19.214 19.131 19.069 20.479 28.166 29.491 19.799 17.631 19.751 17.446 17.981 22.386 19.696
53.606 50.491 50.586 48.601 48.568 48.506 48.093 48.098 47.996 48.008 48.346 48.241 50.111 49.511 49.096 49.683 48.651 48.226 48.183 48.223 48.871 49.473 48.906 48.296 48.346 48.366 48.391 48.403 49.211 50.276 51.063 52.078 52.528 52.538 50.728 49.546 48.968 49.823 50.111 50.043 53.951 54.633 54.861 51.128 49.051 49.208 49.056 49.066 48.958 48.873 48.588 48.273 48.586 51.413 53.936 51.993 48.606 48.236 51.183 52.238 52.083 51.411 48.516 49.793 51.886 50.878 48.386 48.431 48.038 48.123 47.951 48.451 47.701 47.691 47.566 47.553 47.543 47.528 47.526 47.631 47.473 47.503 47.488 47.708 47.728 47.373 47.388 47.361 47.038 47.006 47.066 46.801 46.726 46.663 46.581 46.561 47.001 47.361 46.433 46.238 46.213 46.116 46.038 45.991 45.941 45.928 45.958 46.051 46.003 45.906 47.331 47.651 46.221 45.933 49.401 52.078 52.128 52.121 52.281 52.043 48.021 45.236 45.108 45.093 45.076 45.026 44.873 44.646 44.618 44.501 44.436 44.398 44.378 44.211 44.108 43.993 43.913 43.788 43.711 43.698 43.658 43.808 45.306 44.316 44.476 45.926 46.666 47.643 48.736 49.808 47.511 45.538 45.723 45.963 43.106 42.068 41.941 41.858 41.788 41.703 41.618 41.906 43.133 41.423 42.066 41.401 41.181 41.103 42.281 42.618 41.496 40.828 40.803 40.751 40.671 40.621 40.608 40.526 40.501 40.473 40.453 40.418 40.341 40.266 40.201 40.131 40.018 39.951 39.906 39.823 39.753 39.673 39.583 39.461 39.383 39.278 39.181 39.088 39.016 38.951 38.823 38.708 38.593 38.503 38.388 38.266 38.143 38.058 37.923 37.878 37.791 37.703 37.561 37.428 37.331 37.223 37.103 37.016 36.911 36.773 36.661 36.566 36.418 36.293 36.153 36.026 35.903 35.781 35.668 35.526 35.413 35.293 35.133 34.988 34.873 34.758 34.623 34.548 34.471 34.376 34.271 34.156 34.054 33.944 33.819 33.681 33.576 33.446 33.321 33.174 33.044 32.899 32.756 32.651 32.514 32.401 32.251 32.104 32.014 31.904 31.741 31.579 31.426 31.266 31.126 30.974 30.859 30.696 30.591 30.394 30.251 30.151 30.034 29.949 29.851 29.741 29.574 29.451 29.326 29.241 29.119 29.026 28.926 28.806 28.701 28.561 28.449 28.279 28.171 28.044 27.931 27.809 27.734 27.654 27.539 27.431 27.341 27.249 27.186 27.126 27.076 26.964 26.849 26.764 26.811 27.581 27.874 26.564 26.196 26.151 26.149 26.154 26.131 26.046 26.026 26.016 25.974 25.889 25.836 25.794 25.781 25.754 25.734 25.691 25.691 25.689 25.649 25.624 25.576 25.534 25.481 25.431 25.379 25.356 25.306 25.261 25.189 25.131 25.066 25.024 24.936 24.874 24.819 24.771 24.689 24.621 24.576 24.486 24.391 24.341 24.264 24.169 24.081 23.994 23.926 23.874 23.779 23.691 23.596 23.519 23.389 23.296 23.214 23.121 22.994 22.846 22.729 22.611 22.516 22.406 22.314 22.196 22.061 21.941 21.811 21.691 21.556 21.426 21.341 21.131 21.484 20.916 20.976 21.881 22.569 22.589 22.756 21.086 20.889 20.799 20.776 20.781 20.781 20.774 20.756 20.729 20.681 20.631 20.569 20.481 20.406 20.314 20.181 20.101 20.046 19.951 19.841 19.739 19.649 19.594 19.521 19.486 19.439 19.381 19.354 19.329 19.224 19.139 19.061 19.111 20.481 23.099 23.864 22.654 17.876 19.799 19.944 17.599 17.486 17.774
51.238 48.931 49.273 49.561 49.206 48.201 48.006 48.023 48.001 48.116 48.791 48.513 48.391 49.788 50.951 49.091 48.508 48.213 48.198 48.168 48.453 48.608 48.213 48.293 48.331 48.371 48.403 48.381 49.156 50.028 50.686 50.998 51.096 51.371 50.303 48.553 48.871 49.241 49.323 48.443 48.773 51.556 52.178 49.548 49.591 49.161 50.671 52.066 52.063 50.246 48.256 48.421 49.123 52.001 54.178 51.941 48.968 48.793 51.508 53.071 52.438 51.341 47.978 50.586 52.261 51.606 49.986 48.873 47.926 48.461 47.903 47.821 47.701 47.688 47.593 47.581 47.583 47.568 47.541 47.458 47.486 47.633 47.493 47.458 47.376 47.281 47.221 47.808 47.341 48.281 48.448 48.121 47.701 47.513 47.546 46.988 47.106 46.786 46.383 46.256 46.148 46.061 45.976 45.926 45.916 45.901 45.926 45.948 45.941 45.933 47.111 47.563 45.843 45.883 48.716 50.138 50.136 51.658 52.068 50.246 46.138 45.296 45.693 45.216 45.078 45.038 44.853 44.671 44.616 44.513 44.458 46.111 44.738 44.218 44.108 43.983 43.903 44.198 44.531 44.896 45.413 45.803 45.676 45.578 44.078 44.128 46.163 46.613 48.056 45.398 42.853 42.816 43.336 45.201 43.431 42.211 42.028 41.898 41.818 41.711 41.583 42.258 43.963 41.486 43.293 41.418 41.183 41.266 43.366 42.588 40.821 40.916 40.906 40.843 40.811 40.751 40.728 40.676 40.626 40.603 40.551 40.503 40.433 40.376 40.313 40.218 40.113 40.056 40.006 39.901 39.828 39.736 39.641 39.546 39.438 39.356 39.226 39.166 39.066 38.988 38.861 38.761 38.641 38.518 38.398 38.288 38.171 38.103 37.986 37.898 37.788 37.691 37.578 37.466 37.378 37.266 37.161 37.026 36.906 36.781 36.658 36.523 36.416 36.301 36.218 36.073 35.958 35.811 35.688 35.543 35.486 35.333 35.178 35.033 34.943 34.788 34.688 34.598 34.473 34.371 34.301 34.179 34.046 33.926 33.839 33.746 33.606 33.471 33.309 33.189 33.044 32.884 32.746 32.619 32.506 32.396 32.246 32.116 31.986 31.854 31.671 31.519 31.371 31.224 31.074 30.929 30.826 30.706 30.516 30.376 30.254 30.156 30.024 29.941 29.824 29.691 29.534 29.416 29.331 29.209 29.121 29.011 28.879 28.781 28.714 28.596 28.441 28.299 28.166 28.031 27.914 27.799 27.736 27.629 27.504 27.406 27.351 27.264 27.201 27.161 27.069 26.956 26.829 26.869 27.111 27.151 26.596 26.299 26.264 26.266 26.221 26.236 26.241 26.136 26.041 26.046 26.011 25.969 25.899 25.861 25.851 25.794 25.806 25.789 25.801 25.761 25.719 25.679 25.641 25.559 25.534 25.504 25.471 25.401 25.351 25.309 25.241 25.169 25.111 25.066 24.981 24.921 24.896 24.836 24.749 24.681 24.636 24.566 24.494 24.409 24.301 24.169 24.114 24.076 23.981 23.929 23.804 23.724 23.639 23.544 23.474 23.404 23.319 23.189 23.054 22.906 22.786 22.679 22.569 22.471 22.381 22.246 22.114 21.954 21.834 21.706 21.604 21.469 21.351 21.336 21.361 21.079 21.029 22.544 25.999 26.379 21.029 22.234 20.861 20.844 20.676 20.639 20.659 20.641 20.624 20.594 20.541 20.501 20.449 20.374 20.281 20.191 20.104 19.991 19.906 19.821 19.746 19.639 19.544 19.514 19.426 19.414 19.389 19.334 19.284 19.251 19.156 19.084 19.019 19.101 19.134 20.676 20.124 28.816 19.829 17.846 19.586 21.241 19.389 21.749
50.838 48.486 47.706 48.321 48.171 48.038 47.973 47.961 48.133 48.126 47.998 47.988 48.821 50.921 49.446 49.448 48.908 48.441 48.133 48.173 49.016 48.833 48.266 48.253 48.283 48.356 48.323 48.391 49.841 49.198 48.378 49.253 49.328 49.508 48.611 48.393 48.401 49.441 50.483 48.428 48.421 50.016 51.328 49.383 49.433 49.256 51.081 52.681 52.356 49.961 48.173 48.306 49.361 52.351 54.088 51.861 49.341 49.046 51.816 53.288 52.678 50.161 48.428 51.421 52.613 52.598 52.088 49.361 47.791 48.583 48.716 48.388 48.543 47.646 47.593 47.671 47.711 47.681 48.773 48.093 47.641 47.846 47.478 47.401 47.338 47.296 47.278 48.718 48.261 48.176 47.516 47.978 47.706 47.331 47.726 48.308 48.461 47.691 47.626 47.033 46.866 46.821 46.516 45.991 45.878 45.816 45.876 45.916 45.938 45.873 47.168 47.833 45.853 45.793 45.686 45.698 46.406 50.798 51.736 49.593 45.321 45.263 45.568 45.286 45.048 45.116 44.943 44.681 44.601 44.503 44.421 44.506 44.441 44.573 44.786 44.993 45.246 46.193 46.118 46.428 46.541 45.743 44.086 43.626 43.036 43.046 43.091 43.206 43.636 43.811 43.593 43.693 43.536 45.643 44.461 42.306 42.111 41.936 41.798 41.666 41.786 42.063 41.448 41.803 43.393 42.316 41.081 42.446 46.028 41.968 40.973 41.033 40.996 40.943 40.898 40.843 40.803 40.758 40.703 40.688 40.618 40.548 40.513 40.428 40.343 40.276 40.203 40.141 40.066 39.966 39.876 39.756 39.653 39.566 39.468 39.373 39.291 39.208 39.116 39.056 38.926 38.806 38.678 38.546 38.411 38.303 38.198 38.123 37.978 37.906 37.798 37.688 37.581 37.461 37.403 37.293 37.196 37.063 36.936 36.798 36.658 36.543 36.406 36.311 36.221 36.093 35.988 35.853 35.743 35.586 35.466 35.321 35.211 35.093 34.966 34.841 34.748 34.606 34.511 34.439 34.339 34.256 34.116 33.986 33.891 33.756 33.661 33.534 33.404 33.256 33.091 32.929 32.784 32.636 32.506 32.411 32.266 32.144 32.019 31.856 31.701 31.499 31.341 31.171 31.061 30.931 30.796 30.634 30.474 30.389 30.301 30.166 30.059 29.941 29.826 29.679 29.524 29.411 29.329 29.219 29.109 28.981 28.869 28.774 28.664 28.569 28.441 28.334 28.206 28.074 27.946 27.819 27.701 27.604 27.496 27.426 27.354 27.294 27.221 27.171 27.061 26.944 27.001 27.649 27.944 26.746 26.409 26.386 26.356 26.324 26.299 26.301 26.269 26.201 26.139 26.109 26.066 26.036 25.981 25.954 25.936 25.879 25.869 25.869 25.851 25.841 25.794 25.726 25.679 25.639 25.606 25.571 25.511 25.474 25.409 25.341 25.309 25.266 25.186 25.129 25.051 24.999 24.954 24.869 24.844 24.766 24.714 24.644 24.544 24.471 24.371 24.256 24.174 24.081 24.041 23.951 23.849 23.749 23.666 23.584 23.516 23.444 23.369 23.254 23.119 22.954 22.846 22.759 22.664 22.576 22.424 22.299 22.119 21.991 21.849 21.749 21.629 21.496 21.381 21.261 21.194 21.124 21.024 20.989 21.181 22.579 20.426 20.621 22.369 21.756 21.256 20.614 20.511 20.481 20.494 20.449 20.404 20.351 20.319 20.239 20.151 20.086 19.994 19.904 19.779 19.681 19.619 19.559 19.494 19.436 19.376 19.361 19.326 19.304 19.231 19.179 19.109 19.049 19.034 19.089 19.094 19.561 19.506 22.774 23.936 17.844 18.636 20.534 18.981 18.974
49.163 47.786 47.813 47.706 47.923 47.913 47.881 47.988 47.993 48.001 47.976 47.991 49.423 50.221 49.308 49.511 48.718 48.491 48.123 48.181 48.361 48.343 48.288 48.338 48.513 48.301 48.433 48.663 49.571 48.996 48.328 48.266 48.321 48.346 48.211 48.346 48.513 49.746 49.111 48.323 48.301 48.503 48.528 49.341 49.161 48.798 50.976 52.866 52.191 48.898 48.138 48.363 49.501 51.451 52.053 50.878 49.228 50.241 52.058 53.058 52.103 50.158 48.991 51.668 53.113 53.458 52.116 49.368 48.036 49.231 51.231 51.923 50.826 47.746 48.656 50.233 50.231 49.881 50.946 50.791 48.228 47.443 47.671 48.938 48.431 48.673 47.341 48.788 47.918 47.901 47.291 47.806 46.921 46.818 46.793 46.913 46.836 46.741 46.828 47.158 47.153 47.426 47.761 47.498 46.901 45.881 45.831 45.938 45.926 45.861 47.096 47.748 45.973 45.828 45.948 46.321 45.793 48.281 48.861 46.501 45.841 45.818 46.083 46.393 46.553 46.766 46.961 46.278 46.336 46.126 46.253 46.456 46.671 46.693 46.593 45.678 46.478 46.356 46.383 45.508 44.551 43.468 43.328 43.178 43.146 44.183 43.466 44.323 44.483 43.876 44.661 44.308 42.898 43.558 43.136 42.373 42.163 41.903 42.016 42.201 41.446 41.493 41.491 41.518 41.423 41.531 40.903 41.283 44.096 43.193 41.363 41.101 41.088 41.063 40.993 40.918 40.871 40.836 40.781 40.741 40.678 40.611 40.553 40.446 40.351 40.303 40.216 40.148 40.108 40.011 39.916 39.808 39.688 39.581 39.503 39.413 39.311 39.221 39.166 39.058 38.961 38.853 38.741 38.601 38.463 38.363 38.258 38.166 38.086 37.956 37.861 37.766 37.646 37.526 37.441 37.336 37.223 37.106 36.971 36.851 36.721 36.596 36.478 36.356 36.236 36.126 36.028 35.881 35.791 35.633 35.498 35.386 35.288 35.126 35.008 34.868 34.753 34.656 34.563 34.474 34.354 34.239 34.129 34.016 33.911 33.776 33.669 33.524 33.421 33.311 33.136 33.009 32.849 32.694 32.561 32.441 32.319 32.166 31.996 31.859 31.661 31.541 31.361 31.209 31.089 30.921 30.769 30.599 30.466 30.381 30.286 30.199 30.096 29.974 29.804 29.646 29.546 29.436 29.334 29.204 29.069 28.986 28.861 28.764 28.674 28.529 28.414 28.266 28.171 28.049 27.969 27.879 27.741 27.609 27.509 27.469 27.394 27.349 27.276 27.154 27.054 27.036 27.706 28.071 27.144 26.486 26.456 26.431 26.401 26.389 26.391 26.389 26.351 26.269 26.236 26.161 26.114 26.116 26.061 26.006 26.004 25.966 25.969 25.964 25.926 25.901 25.856 25.801 25.746 25.691 25.666 25.606 25.561 25.506 25.461 25.419 25.366 25.304 25.241 25.191 25.136 25.076 25.009 24.931 24.869 24.841 24.771 24.676 24.574 24.486 24.404 24.344 24.269 24.161 24.079 23.981 23.859 23.749 23.681 23.666 23.551 23.514 23.414 23.299 23.191 23.051 22.929 22.836 22.741 22.621 22.486 22.326 22.169 22.034 21.904 21.791 21.646 21.519 21.369 21.274 21.169 21.121 21.029 20.994 21.014 21.034 21.431 21.491 21.566 21.284 21.371 21.281 20.546 20.374 20.341 20.316 20.291 20.226 20.176 20.106 20.051 19.966 19.881 19.774 19.684 19.609 19.549 19.481 19.411 19.379 19.351 19.346 19.259 19.211 19.141 19.134 19.081 19.009 19.039 19.041 19.021 19.031 18.901 19.349 21.909 22.081 19.249 21.121 18.791 18.764
48.716 48.233 48.108 48.261 48.598 47.883 47.846 48.208 47.963 48.021 47.906 48.481 49.381 49.868 50.386 48.171 48.081 49.808 50.403 48.078 48.336 49.283 48.556 48.438 48.906 48.368 48.591 49.966 49.153 48.583 48.268 48.363 48.343 48.251 48.223 48.336 48.711 49.578 48.513 48.211 48.193 48.326 49.573 50.201 49.086 48.773 51.541 52.878 51.956 48.926 48.163 48.578 49.558 50.603 50.803 49.068 48.258 49.823 51.583 51.908 51.901 49.588 48.943 51.928 52.723 52.873 51.893 47.748 47.751 49.506 51.438 52.373 51.146 48.193 49.326 51.213 51.681 51.578 51.606 51.016 47.558 47.358 48.513 50.893 51.778 51.111 49.156 49.041 49.306 48.656 47.333 47.418 47.148 47.316 47.598 48.078 47.246 46.678 46.833 46.566 46.823 46.468 46.478 47.646 47.568 45.881 45.796 45.931 45.881 45.833 45.823 46.341 45.923 45.776 46.006 46.326 45.758 47.841 48.506 46.458 47.118 47.686 47.541 47.661 47.801 47.256 46.433 46.666 47.911 48.888 47.011 47.091 46.966 46.811 46.793 46.058 45.563 45.176 44.683 43.661 43.576 43.478 43.411 43.256 44.153 48.491 43.681 43.348 44.016 43.856 44.518 44.823 43.238 42.826 42.953 42.348 42.168 41.811 41.678 41.701 41.186 41.078 41.258 41.646 41.281 41.103 40.808 40.908 41.956 44.256 41.751 41.246 41.218 41.141 41.058 40.986 40.933 40.871 40.816 40.776 40.711 40.661 40.588 40.473 40.388 40.321 40.221 40.186 40.106 40.016 39.953 39.848 39.763 39.678 39.591 39.516 39.423 39.321 39.243 39.123 39.011 38.926 38.811 38.701 38.571 38.476 38.338 38.266 38.153 38.043 37.921 37.836 37.713 37.606 37.506 37.383 37.261 37.163 37.023 36.896 36.786 36.658 36.531 36.408 36.288 36.166 36.043 35.906 35.771 35.636 35.536 35.418 35.303 35.156 35.018 34.881 34.776 34.673 34.573 34.464 34.359 34.229 34.124 34.016 33.901 33.776 33.626 33.536 33.384 33.211 33.106 32.991 32.884 32.779 32.646 32.494 32.344 32.179 32.011 31.814 31.646 31.499 31.369 31.221 31.069 30.911 30.734 30.586 30.479 30.381 30.256 30.174 30.064 29.951 29.779 29.674 29.559 29.444 29.334 29.196 29.094 28.999 28.876 28.756 28.641 28.496 28.381 28.266 28.146 28.056 27.946 27.839 27.751 27.664 27.576 27.519 27.446 27.361 27.276 27.176 27.059 28.039 27.831 27.581 26.649 26.524 26.516 26.519 26.504 26.486 26.446 26.439 26.386 26.314 26.274 26.226 26.214 26.211 26.141 26.106 26.109 26.079 26.046 26.024 25.969 25.949 25.926 25.876 25.836 25.796 25.729 25.666 25.629 25.579 25.516 25.466 25.416 25.359 25.284 25.256 25.194 25.154 25.066 25.004 24.959 24.904 24.806 24.731 24.641 24.546 24.489 24.399 24.329 24.244 24.134 24.014 23.876 23.794 23.739 23.671 23.591 23.539 23.434 23.326 23.251 23.131 23.001 22.886 22.769 22.644 22.519 22.356 22.211 22.081 21.944 21.821 21.694 21.549 21.414 21.294 21.181 21.111 21.046 20.984 20.891 20.884 21.001 21.899 21.539 21.021 20.796 21.209 20.769 20.439 20.224 20.161 20.144 20.096 20.059 19.996 19.899 19.846 19.776 19.664 19.571 19.534 19.491 19.426 19.386 19.341 19.299 19.266 19.191 19.116 19.056 19.084 19.076 18.996 19.036 19.069 19.046 19.001 18.841 19.441 22.844 21.384 21.389 18.769 18.776 18.784
52.976 52.446 52.006 48.033 48.606 47.753 48.543 49.788 49.683 48.823 48.413 49.843 50.821 50.293 49.236 48.353 48.296 48.106 49.636 48.071 48.091 48.158 48.488 48.728 49.016 49.271 49.621 50.083 49.061 48.398 48.246 49.226 48.628 48.633 48.218 48.216 48.566 49.246 48.246 48.178 48.186 48.331 49.018 50.416 49.213 49.226 51.941 52.816 51.743 48.993 48.128 48.721 49.703 50.666 50.806 49.388 48.998 48.083 48.753 50.411 50.453 48.931 48.728 49.773 50.808 51.571 51.416 47.891 47.676 50.391 51.663 52.471 51.546 49.746 49.033 50.521 50.763 51.726 52.266 49.843 47.456 48.021 48.523 51.036 51.876 50.978 49.803 49.353 49.291 48.988 47.748 48.018 49.261 49.598 50.876 50.433 48.043 46.601 46.616 46.533 46.501 46.508 46.433 46.636 48.036 45.898 45.796 45.941 45.926 45.786 45.796 45.878 45.871 45.753 45.988 46.631 46.328 47.076 47.158 46.191 46.066 46.333 47.323 46.071 47.503 48.933 46.993 48.576 48.776 49.723 47.278 47.133 46.603 45.588 45.001 44.191 43.906 43.866 43.813 43.706 43.616 43.521 43.433 43.263 43.363 45.153 44.028 45.086 44.891 43.998 44.141 45.166 43.426 44.046 42.531 42.298 42.231 41.963 41.866 41.208 40.928 40.736 41.093 41.308 40.913 40.781 40.748 41.006 43.371 43.873 41.678 41.321 41.298 41.228 41.138 41.061 41.038 40.956 40.913 40.853 40.788 40.708 40.628 40.536 40.453 40.401 40.288 40.251 40.163 40.053 39.968 39.878 39.783 39.703 39.628 39.541 39.443 39.366 39.273 39.176 39.056 38.948 38.858 38.713 38.628 38.541 38.403 38.296 38.213 38.073 37.951 37.851 37.731 37.636 37.523 37.381 37.278 37.146 37.021 36.913 36.808 36.726 36.598 36.493 36.353 36.221 36.078 35.953 35.811 35.708 35.603 35.443 35.343 35.198 35.068 34.923 34.796 34.686 34.541 34.446 34.356 34.254 34.144 34.026 33.896 33.769 33.619 33.506 33.374 33.229 33.109 32.991 32.879 32.759 32.661 32.571 32.401 32.221 32.014 31.854 31.681 31.544 31.391 31.239 31.081 30.909 30.744 30.634 30.524 30.401 30.286 30.166 30.019 29.876 29.759 29.644 29.561 29.464 29.349 29.209 29.109 28.986 28.861 28.736 28.606 28.494 28.386 28.261 28.146 28.071 27.931 27.859 27.739 27.694 27.651 27.561 27.484 27.384 27.294 27.221 27.591 28.201 27.734 26.674 26.591 26.611 26.619 26.611 26.579 26.541 26.511 26.449 26.399 26.394 26.316 26.296 26.269 26.244 26.214 26.211 26.179 26.179 26.134 26.109 26.051 26.031 25.986 25.966 25.891 25.854 25.789 25.756 25.714 25.616 25.571 25.524 25.466 25.394 25.351 25.281 25.256 25.216 25.144 25.104 25.034 24.954 24.864 24.791 24.684 24.626 24.554 24.474 24.406 24.301 24.166 24.069 23.964 23.844 23.796 23.691 23.614 23.524 23.434 23.336 23.266 23.194 23.086 22.939 22.816 22.684 22.529 22.386 22.284 22.149 22.001 21.861 21.709 21.559 21.444 21.311 21.209 21.139 21.051 21.014 20.969 20.874 20.859 20.794 20.919 21.164 20.839 20.526 20.456 20.576 20.176 20.064 19.999 19.966 19.916 19.886 19.814 19.731 19.664 19.626 19.534 19.469 19.429 19.396 19.351 19.311 19.259 19.216 19.106 19.079 19.034 19.011 19.019 18.969 21.011 21.159 19.301 18.839 19.024 18.221 19.111 18.674 20.696 18.776 18.811 18.809
53.863 53.968 52.306 48.211 47.568 47.566 47.646 48.126 48.118 48.368 48.706 48.556 50.326 48.936 49.786 51.681 50.906 48.828 48.798 48.348 48.398 48.418 48.183 48.796 49.638 51.781 50.673 50.156 49.013 48.136 48.176 48.596 48.213 48.456 48.206 48.178 48.493 48.888 48.398 48.171 48.188 48.223 48.298 49.798 48.161 50.326 52.158 52.781 51.466 48.163 48.213 49.006 49.006 48.308 48.721 49.231 50.261 48.318 48.688 50.011 49.926 48.776 49.326 47.908 48.861 50.611 49.898 47.698 48.173 50.671 51.866 52.388 51.338 49.906 48.091 49.196 50.243 51.798 52.043 50.011 48.053 49.508 49.993 51.186 51.851 50.823 49.418 48.668 48.451 48.628 48.046 47.703 48.863 49.436 50.961 50.193 47.536 46.616 46.673 46.521 46.516 46.603 46.403 48.161 49.413 45.896 45.738 45.863 45.901 45.798 45.838 46.336 46.393 47.118 47.468 47.521 47.506 47.461 47.078 47.153 46.868 46.673 47.046 47.113 47.993 49.181 47.676 46.316 47.306 46.691 44.923 44.166 44.026 43.931 43.941 43.933 43.923 43.891 43.833 43.746 43.671 43.593 43.481 43.313 43.216 43.206 43.216 43.356 44.493 44.611 43.918 44.868 43.546 42.908 42.786 42.936 42.946 42.658 42.716 41.473 40.746 41.073 41.498 41.081 40.716 40.721 40.856 41.603 43.946 43.718 41.901 41.376 41.341 41.281 41.223 41.146 41.056 41.016 40.973 40.921 40.833 40.743 40.686 40.586 40.498 40.421 40.336 40.258 40.176 40.058 39.986 39.906 39.818 39.726 39.631 39.533 39.443 39.333 39.263 39.193 39.101 38.996 38.868 38.763 38.646 38.543 38.438 38.348 38.246 38.146 38.023 37.918 37.806 37.713 37.578 37.441 37.333 37.193 37.071 36.956 36.841 36.721 36.621 36.536 36.431 36.296 36.136 36.011 35.896 35.778 35.648 35.481 35.288 35.241 35.123 34.973 34.831 34.711 34.588 34.504 34.369 34.269 34.181 34.041 33.906 33.761 33.656 33.514 33.386 33.251 33.116 33.026 32.911 32.779 32.654 32.521 32.384 32.226 32.049 31.904 31.734 31.586 31.456 31.304 31.089 30.921 30.766 30.654 30.554 30.424 30.326 30.194 30.016 29.861 29.744 29.634 29.526 29.429 29.326 29.239 29.129 28.986 28.874 28.741 28.619 28.504 28.394 28.284 28.169 28.064 27.936 27.844 27.779 27.716 27.664 27.614 27.516 27.391 27.319 27.829 28.336 28.014 26.954 26.686 26.629 26.684 26.649 26.646 26.634 26.609 26.556 26.489 26.446 26.446 26.416 26.374 26.341 26.321 26.311 26.294 26.289 26.251 26.189 26.161 26.139 26.104 26.089 26.054 25.976 25.909 25.869 25.826 25.766 25.689 25.654 25.571 25.516 25.451 25.379 25.329 25.306 25.236 25.196 25.166 25.091 24.996 24.881 24.804 24.744 24.686 24.626 24.556 24.466 24.354 24.221 24.119 24.036 23.904 23.826 23.719 23.631 23.536 23.446 23.366 23.309 23.216 23.121 23.014 22.859 22.726 22.569 22.434 22.344 22.231 22.064 21.939 21.754 21.601 21.491 21.366 21.259 21.151 21.071 21.006 20.971 20.951 20.851 20.786 21.669 21.301 21.284 21.814 20.349 20.286 20.574 20.001 19.909 19.911 19.864 19.824 19.741 19.671 19.594 19.534 19.466 19.424 19.361 19.356 19.324 19.244 19.219 19.161 19.131 19.071 19.036 19.014 19.014 21.354 28.346 28.469 22.481 18.681 19.561 17.694 18.236 19.461 19.994 18.834 18.861 18.906
48.621 50.443 50.148 49.161 47.583 47.571 47.558 47.586 47.638 47.948 49.171 50.176 49.826 49.861 50.073 51.701 51.803 49.826 50.413 48.623 48.636 48.356 48.168 48.801 49.211 49.713 48.921 49.968 48.821 48.678 48.136 48.141 48.383 48.791 48.333 48.226 48.746 48.473 48.363 48.216 48.186 48.516 48.538 49.541 48.531 49.898 52.403 52.706 49.918 48.061 48.733 49.976 49.286 48.608 48.226 49.606 50.213 48.386 48.326 47.978 48.258 49.423 48.061 47.883 48.458 48.813 48.856 48.251 48.348 50.936 52.021 52.273 51.143 49.241 47.761 47.603 49.301 50.801 51.048 49.938 48.548 49.698 50.173 51.348 51.798 50.526 49.396 48.143 47.133 46.921 46.853 46.816 46.853 49.303 50.956 50.511 50.253 47.401 46.918 46.563 46.478 46.426 46.593 49.046 48.741 46.078 45.753 45.896 45.896 45.788 45.838 47.241 48.131 49.628 48.661 47.423 47.631 46.946 46.468 45.863 45.703 46.223 45.623 45.273 46.736 46.488 44.556 44.511 47.273 44.491 44.463 43.978 43.908 43.936 43.918 43.926 43.923 43.891 43.866 43.776 43.691 43.608 43.533 43.361 43.266 43.256 43.186 43.176 44.211 43.826 43.113 43.966 43.283 43.113 44.011 44.093 42.321 42.086 41.621 41.306 40.991 41.636 42.933 41.131 40.713 40.743 40.858 41.101 43.106 44.088 42.063 41.426 41.408 41.353 41.291 41.193 41.123 41.083 41.008 40.948 40.868 40.776 40.721 40.636 40.528 40.458 40.378 40.281 40.221 40.128 40.051 39.931 39.838 39.776 39.656 39.558 39.496 39.376 39.293 39.206 39.123 39.036 38.918 38.836 38.706 38.603 38.526 38.411 38.301 38.173 38.106 38.016 37.896 37.771 37.621 37.486 37.353 37.233 37.126 36.986 36.866 36.788 36.668 36.548 36.438 36.331 36.208 36.073 35.951 35.803 35.676 35.466 35.241 35.216 35.211 35.053 34.916 34.771 34.623 34.486 34.374 34.276 34.184 34.051 33.924 33.774 33.629 33.501 33.394 33.276 33.131 33.006 32.901 32.776 32.646 32.521 32.336 32.181 32.044 31.911 31.759 31.616 31.446 31.299 31.111 30.934 30.804 30.664 30.571 30.431 30.326 30.156 30.004 29.876 29.769 29.656 29.531 29.431 29.306 29.179 29.079 28.966 28.879 28.746 28.639 28.506 28.404 28.299 28.184 28.089 27.966 27.896 27.834 27.769 27.719 27.641 27.529 27.414 27.789 28.539 28.316 26.929 26.746 26.719 26.716 26.704 26.691 26.731 26.706 26.679 26.624 26.546 26.509 26.489 26.451 26.444 26.434 26.426 26.391 26.379 26.369 26.279 26.246 26.231 26.231 26.181 26.144 26.121 26.041 26.014 25.959 25.894 25.821 25.761 25.694 25.631 25.559 25.514 25.436 25.361 25.309 25.301 25.236 25.186 25.114 25.019 24.921 24.856 24.801 24.739 24.684 24.599 24.481 24.371 24.264 24.174 24.084 23.996 23.879 23.754 23.664 23.561 23.454 23.384 23.314 23.244 23.159 23.029 22.899 22.744 22.604 22.509 22.406 22.266 22.124 21.969 21.809 21.669 21.546 21.404 21.299 21.211 21.114 21.031 20.974 20.996 20.949 20.889 21.029 21.091 20.849 21.261 20.336 20.929 20.629 20.001 19.921 19.861 19.779 19.746 19.686 19.616 19.526 19.474 19.416 19.386 19.319 19.294 19.241 19.206 19.171 19.144 19.119 19.084 19.056 19.059 19.049 22.526 29.971 29.324 25.554 20.801 19.316 17.826 19.146 23.704 19.451 18.896 18.959 19.019
47.271 47.333 47.586 47.723 47.578 47.808 48.188 47.593 47.628 47.738 48.098 48.708 48.993 49.223 49.151 50.743 50.158 49.866 50.623 50.711 49.678 48.101 48.261 48.361 48.673 48.201 48.718 50.008 49.061 48.471 48.058 48.091 48.196 48.228 48.188 48.158 49.308 48.601 48.176 48.368 48.656 48.758 48.981 49.516 48.241 50.088 52.576 52.473 49.846 48.056 48.381 49.676 49.178 48.856 48.756 49.931 50.076 49.093 48.911 48.233 48.058 48.826 47.843 47.798 47.736 47.736 47.876 48.173 48.071 51.141 52.148 52.078 50.728 48.386 47.483 47.473 47.543 47.851 49.031 48.668 47.788 49.771 50.318 51.438 51.656 50.326 48.398 47.678 47.131 46.923 46.876 46.831 46.688 48.908 50.981 50.903 50.448 50.238 50.056 47.086 46.568 46.506 47.086 51.846 51.856 46.371 45.741 45.876 45.903 45.773 45.816 46.518 46.293 46.323 46.111 45.541 46.696 45.886 45.211 45.268 46.401 47.363 47.628 45.411 45.411 45.553 44.543 44.526 44.523 44.493 44.583 44.088 43.928 43.931 43.931 43.941 43.908 43.896 43.868 43.813 43.726 43.666 43.726 43.378 43.291 43.368 43.291 43.203 44.171 43.966 44.176 44.518 43.563 43.016 44.681 44.656 42.506 42.511 44.601 45.316 40.893 41.471 41.166 40.818 40.726 40.746 40.973 41.338 43.321 43.618 42.108 41.466 41.451 41.413 41.351 41.288 41.213 41.156 41.096 41.011 40.913 40.858 40.773 40.681 40.616 40.536 40.418 40.353 40.293 40.208 40.111 40.023 39.911 39.831 39.738 39.651 39.541 39.456 39.366 39.266 39.163 39.086 38.981 38.866 38.758 38.633 38.553 38.451 38.343 38.226 38.151 38.033 37.903 37.783 37.678 37.518 37.358 37.223 37.136 37.008 36.886 36.773 36.633 36.526 36.421 36.296 36.186 36.061 35.978 35.853 35.733 35.541 35.398 35.316 35.246 35.066 34.901 34.776 34.636 34.521 34.406 34.284 34.149 34.019 33.894 33.766 33.634 33.506 33.414 33.274 33.164 33.041 32.909 32.806 32.664 32.511 32.331 32.186 32.051 31.884 31.749 31.584 31.389 31.246 31.101 30.966 30.806 30.701 30.596 30.446 30.306 30.141 30.014 29.881 29.766 29.661 29.561 29.439 29.349 29.216 29.064 28.934 28.839 28.751 28.629 28.529 28.421 28.314 28.206 28.101 28.009 27.956 27.876 27.824 27.741 27.619 27.541 27.994 28.791 28.604 27.134 26.856 26.779 26.794 26.804 26.784 26.766 26.751 26.716 26.696 26.644 26.596 26.559 26.534 26.506 26.506 26.506 26.481 26.461 26.464 26.429 26.381 26.319 26.301 26.304 26.271 26.226 26.169 26.136 26.091 26.014 25.946 25.876 25.814 25.746 25.706 25.616 25.556 25.484 25.431 25.394 25.374 25.276 25.221 25.134 25.051 24.969 24.929 24.864 24.791 24.714 24.626 24.514 24.404 24.319 24.239 24.149 24.059 23.931 23.816 23.694 23.604 23.514 23.414 23.306 23.246 23.161 23.051 22.929 22.811 22.661 22.549 22.436 22.304 22.161 22.024 21.864 21.729 21.606 21.481 21.371 21.271 21.154 21.074 21.004 20.959 20.924 20.891 20.809 20.639 20.561 20.671 21.129 22.689 23.386 22.549 24.609 22.576 19.711 19.624 19.644 19.551 19.494 19.434 19.384 19.366 19.316 19.251 19.216 19.209 19.174 19.129 19.154 19.104 19.136 18.834 18.884 24.329 24.849 28.166 25.591 24.976 23.764 20.309 18.759 24.726 21.836 19.104 19.054 19.146
47.186 47.271 47.271 47.623 47.611 47.426 47.543 47.496 47.903 48.756 47.831 49.331 49.271 48.398 48.061 49.068 48.481 48.708 49.761 52.146 52.398 51.173 50.863 49.778 51.498 50.271 49.413 49.851 49.576 49.171 48.076 48.081 48.116 48.136 48.148 48.071 49.496 48.223 48.196 48.061 48.273 48.303 48.826 49.681 48.351 51.218 52.673 52.263 49.928 48.046 48.321 49.373 48.843 48.141 49.018 50.196 49.901 48.091 48.973 48.196 48.473 48.606 47.843 47.903 47.751 47.761 48.061 48.043 47.633 49.833 52.356 51.843 50.506 48.263 47.476 47.458 47.451 47.596 48.606 48.336 47.601 49.661 50.228 51.513 51.473 50.296 47.931 47.076 47.028 47.028 46.936 46.776 46.591 48.786 50.613 50.716 50.868 50.813 50.866 48.461 47.478 46.683 47.103 49.986 49.501 46.361 45.788 45.843 45.891 45.806 45.793 46.198 45.658 45.536 45.446 45.368 47.126 48.303 48.811 49.236 48.898 48.261 48.068 47.798 46.606 45.503 44.606 44.551 44.563 44.493 44.563 44.053 43.953 43.948 43.936 43.926 43.901 43.898 43.843 43.801 43.751 43.643 43.541 43.418 43.318 43.391 43.336 43.278 43.448 44.648 45.576 45.423 44.643 43.073 44.323 46.173 42.986 43.056 48.443 49.131 41.858 41.003 41.028 40.723 40.741 40.761 41.041 41.403 44.658 43.426 42.228 41.518 41.496 41.473 41.446 41.366 41.316 41.226 41.151 41.091 40.993 40.938 40.856 40.773 40.686 40.576 40.468 40.408 40.338 40.263 40.168 40.076 39.973 39.896 39.806 39.706 39.596 39.516 39.406 39.356 39.233 39.116 39.011 38.901 38.803 38.671 38.573 38.478 38.383 38.276 38.188 38.088 37.928 37.803 37.693 37.541 37.411 37.291 37.161 37.033 36.886 36.781 36.638 36.558 36.428 36.283 36.191 36.083 35.968 35.856 35.763 35.663 35.511 35.411 35.276 35.083 34.948 34.813 34.733 34.599 34.506 34.371 34.211 34.054 33.936 33.809 33.676 33.554 33.431 33.316 33.206 33.109 32.976 32.841 32.661 32.494 32.356 32.221 32.091 31.941 31.784 31.609 31.391 31.226 31.141 31.011 30.851 30.704 30.611 30.484 30.331 30.194 30.039 29.914 29.776 29.681 29.564 29.471 29.366 29.226 29.079 28.956 28.859 28.716 28.636 28.519 28.439 28.324 28.239 28.136 28.066 27.996 27.936 27.864 27.726 27.726 28.031 28.626 28.574 27.606 27.046 26.911 26.881 26.879 26.924 26.896 26.836 26.789 26.769 26.756 26.714 26.671 26.629 26.604 26.624 26.586 26.576 26.564 26.559 26.521 26.474 26.446 26.409 26.401 26.384 26.374 26.311 26.254 26.211 26.131 26.084 26.039 25.956 25.889 25.809 25.721 25.689 25.596 25.576 25.519 25.471 25.411 25.316 25.221 25.161 25.089 25.031 24.981 24.911 24.869 24.781 24.649 24.559 24.484 24.381 24.281 24.174 24.064 23.946 23.844 23.756 23.661 23.579 23.466 23.351 23.256 23.169 23.066 22.979 22.881 22.741 22.589 22.446 22.301 22.204 22.064 21.931 21.809 21.704 21.576 21.434 21.314 21.169 21.101 21.014 20.946 20.861 20.809 20.749 20.734 20.611 20.499 21.771 23.714 21.159 22.289 25.939 20.824 19.641 19.609 19.994 19.726 19.481 19.459 19.416 19.379 19.366 19.289 19.261 19.216 19.404 21.271 20.994 20.194 21.906 21.149 18.974 20.929 20.099 21.059 22.456 24.224 23.361 22.941 19.529 22.721 19.034 19.134 19.249 19.316
47.318 47.206 47.238 47.278 47.393 47.418 47.441 47.458 49.108 49.686 47.803 49.226 48.816 47.711 48.651 48.318 48.698 48.436 49.063 49.718 48.218 51.881 51.241 52.723 52.201 52.338 52.016 50.156 48.776 49.703 48.323 48.081 48.131 48.093 48.093 48.048 48.778 48.041 48.073 48.088 48.263 48.291 49.006 49.808 48.316 49.803 50.441 50.673 49.258 49.401 48.886 49.376 48.151 48.091 48.608 49.081 48.543 48.021 48.671 47.956 48.711 48.428 47.823 47.788 47.721 47.723 47.996 47.668 47.653 49.566 52.156 51.678 50.451 48.446 47.468 47.458 47.428 47.706 49.493 48.486 47.493 48.916 48.831 48.333 50.028 49.783 47.428 47.333 47.486 48.203 47.986 47.471 47.506 47.891 49.121 49.363 48.396 48.451 48.056 46.908 48.133 48.126 47.888 48.311 48.591 46.411 45.723 45.806 45.883 45.851 45.803 46.151 45.683 45.556 45.443 45.381 47.953 51.261 51.446 51.536 50.991 48.896 48.746 48.188 45.371 46.201 44.786 44.683 44.761 44.616 44.876 44.138 43.956 43.961 43.938 43.911 43.898 43.883 43.848 43.776 43.851 43.736 43.558 43.488 43.361 43.316 43.283 43.286 44.313 44.561 45.413 45.556 44.713 43.231 44.688 43.918 43.171 43.113 48.258 47.753 47.671 45.183 41.323 40.746 40.736 40.971 41.983 41.316 42.348 43.601 42.318 41.543 41.556 41.541 41.508 41.421 41.368 41.288 41.191 41.103 41.031 40.973 40.883 40.791 40.678 40.591 40.496 40.431 40.348 40.271 40.173 40.108 40.021 39.951 39.841 39.751 39.653 39.551 39.471 39.406 39.278 39.183 39.076 38.951 38.853 38.751 38.641 38.546 38.421 38.323 38.226 38.116 38.003 37.888 37.748 37.618 37.476 37.331 37.226 37.108 36.958 36.833 36.696 36.591 36.433 36.326 36.206 36.086 35.983 35.866 35.776 35.681 35.561 35.448 35.271 35.111 34.986 34.876 34.738 34.674 34.534 34.406 34.261 34.131 33.994 33.861 33.734 33.584 33.459 33.349 33.236 33.124 33.019 32.864 32.689 32.566 32.426 32.289 32.136 31.979 31.801 31.589 31.401 31.256 31.144 31.034 30.896 30.739 30.614 30.461 30.326 30.234 30.099 29.961 29.824 29.696 29.586 29.456 29.356 29.216 29.079 28.969 28.859 28.736 28.626 28.541 28.444 28.324 28.259 28.164 28.096 28.049 27.974 27.856 27.724 27.946 28.839 28.786 27.709 27.196 27.071 27.006 27.011 26.999 27.001 26.949 26.921 26.846 26.821 26.794 26.764 26.744 26.701 26.701 26.691 26.656 26.649 26.626 26.589 26.574 26.526 26.521 26.496 26.501 26.481 26.434 26.379 26.339 26.281 26.226 26.179 26.126 26.046 25.966 25.891 25.776 25.734 25.681 25.659 25.596 25.519 25.416 25.351 25.276 25.219 25.171 25.119 25.029 24.964 24.886 24.786 24.701 24.604 24.539 24.424 24.324 24.209 24.114 23.994 23.886 23.789 23.711 23.599 23.511 23.406 23.296 23.156 23.061 22.981 22.889 22.786 22.656 22.506 22.364 22.229 22.089 21.969 21.879 21.769 21.651 21.504 21.329 21.234 21.081 20.976 20.919 20.839 20.764 20.711 20.676 20.664 20.596 20.539 20.449 20.841 21.014 20.146 20.349 19.634 19.629 19.676 20.086 19.671 19.499 19.449 19.431 19.374 19.389 19.544 20.329 20.974 22.244 20.469 19.564 24.254 25.321 21.024 18.254 18.559 19.544 21.946 23.704 23.741 18.789 19.576 20.464 19.161 19.291 19.426 19.524
50.278 47.796 47.228 47.403 47.656 47.376 47.413 47.728 49.886 48.233 47.976 49.288 48.518 47.601 47.678 48.548 51.123 50.263 50.953 51.536 49.023 50.358 49.741 50.326 50.081 51.013 53.238 51.083 48.803 49.081 48.301 48.083 48.196 48.171 48.156 48.311 48.891 48.143 48.018 48.243 48.306 48.303 49.331 49.403 48.321 48.196 48.118 48.121 48.136 48.646 49.976 49.303 48.101 48.063 48.788 48.178 47.926 47.961 47.891 47.911 49.046 48.553 47.823 47.758 47.726 47.678 48.586 47.763 47.653 49.366 49.661 48.038 48.741 48.191 47.671 48.081 47.496 47.598 48.693 48.223 48.501 47.296 47.258 47.438 47.533 47.861 48.126 48.063 49.343 49.763 48.926 48.268 48.451 49.623 48.003 47.136 48.648 48.211 48.676 48.811 49.028 48.848 47.738 46.433 47.188 46.731 45.758 45.788 45.898 45.898 45.801 46.221 45.776 45.581 45.483 45.406 46.553 50.551 50.801 51.126 51.313 50.513 50.708 48.203 45.198 45.151 45.026 44.586 44.771 45.033 45.786 44.741 44.013 44.868 44.103 43.958 43.911 43.931 43.866 44.246 45.156 43.951 43.616 43.566 43.403 43.326 43.328 43.313 43.471 44.351 45.296 45.678 44.848 43.891 44.896 43.418 43.053 42.498 43.828 49.576 50.586 49.201 42.823 40.978 41.188 41.623 45.918 44.051 42.748 43.178 42.373 41.573 41.646 41.598 41.538 41.476 41.393 41.306 41.236 41.183 41.086 41.013 40.908 40.791 40.698 40.606 40.513 40.453 40.398 40.331 40.228 40.158 40.048 39.961 39.893 39.773 39.696 39.613 39.531 39.438 39.318 39.251 39.143 39.026 38.891 38.781 38.688 38.596 38.496 38.406 38.273 38.178 38.061 37.918 37.803 37.641 37.508 37.373 37.278 37.133 37.016 36.878 36.751 36.616 36.478 36.381 36.243 36.118 36.011 35.888 35.763 35.663 35.531 35.406 35.266 35.163 35.028 34.893 34.788 34.649 34.546 34.424 34.264 34.131 33.999 33.881 33.756 33.599 33.504 33.384 33.241 33.109 32.969 32.809 32.689 32.579 32.454 32.321 32.166 32.014 31.811 31.604 31.454 31.351 31.184 31.039 30.904 30.749 30.611 30.451 30.321 30.201 30.071 29.966 29.836 29.741 29.634 29.499 29.334 29.189 29.079 28.981 28.861 28.756 28.649 28.536 28.461 28.354 28.279 28.226 28.151 28.109 27.989 27.871 28.096 28.889 28.774 27.781 27.331 27.184 27.126 27.124 27.119 27.126 27.091 27.029 26.976 26.936 26.894 26.851 26.831 26.784 26.791 26.796 26.754 26.726 26.721 26.691 26.671 26.641 26.624 26.599 26.606 26.574 26.526 26.509 26.459 26.419 26.324 26.266 26.204 26.146 26.101 26.036 25.926 25.841 25.801 25.731 25.684 25.619 25.571 25.474 25.381 25.334 25.276 25.179 25.146 25.081 25.024 24.916 24.819 24.739 24.661 24.581 24.471 24.359 24.241 24.136 24.041 23.939 23.844 23.751 23.631 23.546 23.444 23.311 23.214 23.134 23.016 22.891 22.799 22.674 22.521 22.394 22.276 22.161 22.046 21.936 21.794 21.679 21.529 21.394 21.264 21.119 21.006 20.919 20.836 20.756 20.689 20.631 20.614 20.601 20.516 20.451 20.379 20.934 20.394 19.726 19.639 19.734 19.664 19.921 20.166 19.614 19.501 19.424 21.334 20.154 20.921 20.871 19.269 20.049 18.884 18.939 20.619 20.929 19.211 18.774 18.854 18.834 19.106 19.466 21.661 18.789 19.721 19.354 19.284 19.416 19.559 19.631
48.381 47.963 47.613 48.076 47.531 47.661 48.726 48.366 48.486 47.853 48.098 49.678 48.138 47.571 47.558 47.951 49.551 49.201 49.058 50.411 47.641 47.733 47.756 48.346 48.148 48.606 48.456 48.903 48.338 48.463 49.323 49.081 48.786 48.586 48.301 48.526 49.866 48.411 48.046 49.081 48.731 48.433 49.916 49.233 48.128 48.078 48.056 48.063 48.066 48.548 50.013 48.953 48.033 47.996 48.761 48.043 47.846 47.896 47.863 47.836 48.936 48.861 47.856 47.911 48.036 48.076 48.461 47.681 47.603 47.808 47.611 47.763 47.561 47.511 47.648 48.958 47.673 48.818 48.331 47.633 47.628 47.251 47.301 47.126 47.131 47.903 48.381 47.563 47.866 48.641 50.553 46.751 46.678 46.903 46.693 46.593 48.681 49.506 50.543 51.211 50.608 50.421 47.163 46.853 47.058 48.096 45.788 45.831 45.888 45.906 45.736 45.928 45.991 45.586 45.521 45.451 45.368 48.541 50.688 51.336 51.038 50.543 50.701 47.928 45.096 45.411 45.063 44.698 44.948 44.881 44.576 44.326 44.333 44.916 44.356 44.193 44.111 44.013 43.901 43.891 43.908 43.728 43.653 43.543 43.583 43.428 43.333 43.306 43.353 44.078 44.801 44.883 44.783 43.943 43.366 44.163 43.986 42.673 45.956 51.033 51.826 50.331 44.996 41.753 42.478 43.578 46.456 46.326 46.351 44.353 42.603 41.601 41.693 41.643 41.588 41.506 41.411 41.371 41.311 41.271 41.173 41.068 40.958 40.828 40.723 40.636 40.556 40.493 40.448 40.383 40.281 40.213 40.113 40.003 39.921 39.818 39.723 39.631 39.561 39.458 39.353 39.261 39.171 39.053 38.906 38.801 38.716 38.621 38.516 38.421 38.291 38.183 38.051 37.928 37.806 37.683 37.531 37.408 37.263 37.158 37.038 36.908 36.768 36.641 36.546 36.426 36.301 36.161 36.033 35.916 35.791 35.661 35.546 35.396 35.273 35.151 35.061 34.938 34.841 34.714 34.594 34.436 34.296 34.139 34.014 33.899 33.756 33.616 33.519 33.391 33.241 33.139 32.969 32.831 32.681 32.554 32.436 32.296 32.171 32.006 31.824 31.626 31.501 31.379 31.246 31.081 30.916 30.741 30.611 30.459 30.331 30.204 30.074 29.924 29.834 29.749 29.639 29.506 29.369 29.229 29.131 28.989 28.901 28.776 28.659 28.561 28.481 28.394 28.351 28.289 28.201 28.096 27.979 28.396 28.896 28.879 27.856 27.474 27.349 27.274 27.226 27.214 27.246 27.191 27.176 27.114 27.051 27.001 26.934 26.911 26.889 26.864 26.871 26.834 26.819 26.821 26.796 26.769 26.734 26.714 26.696 26.684 26.651 26.644 26.604 26.574 26.576 26.469 26.394 26.351 26.256 26.189 26.131 26.096 26.024 25.941 25.899 25.831 25.751 25.664 25.589 25.514 25.426 25.394 25.309 25.251 25.206 25.129 25.024 24.931 24.874 24.794 24.689 24.589 24.484 24.384 24.279 24.159 24.071 23.991 23.909 23.816 23.689 23.591 23.471 23.351 23.264 23.169 23.049 22.926 22.799 22.676 22.559 22.449 22.324 22.201 22.106 21.994 21.849 21.709 21.571 21.429 21.279 21.184 21.069 20.946 20.856 20.754 20.699 20.624 20.579 20.549 20.534 20.421 20.354 20.271 20.621 20.766 20.891 19.544 19.786 20.176 20.321 20.179 19.541 19.239 18.946 19.026 20.591 20.611 19.344 20.691 19.234 19.621 23.006 20.644 18.821 19.584 23.691 20.251 18.946 19.456 20.581 21.239 20.921 19.276 19.396 19.546 19.674 19.766
49.076 47.856 47.208 47.423 47.301 47.488 48.173 47.866 47.681 47.696 48.936 49.783 48.526 47.548 47.581 47.541 48.896 49.398 48.358 49.651 47.646 47.641 48.276 49.011 47.726 47.783 48.706 52.081 50.131 48.446 48.243 48.216 49.098 49.236 49.448 49.641 49.531 48.453 48.156 48.258 48.413 49.191 50.178 48.898 48.313 48.116 48.001 48.078 48.048 48.178 48.501 48.438 47.966 48.161 49.541 48.271 48.393 48.578 47.846 48.791 48.531 48.243 47.831 48.273 48.363 48.703 48.013 47.566 47.543 47.566 47.548 47.526 47.466 47.418 47.408 47.406 47.356 48.781 47.771 47.341 47.288 47.261 47.441 47.143 47.086 47.938 48.683 48.026 49.041 48.438 48.301 46.753 46.738 46.783 46.783 46.798 48.553 49.518 50.848 51.433 50.256 48.461 46.771 46.673 46.783 48.338 45.811 45.836 45.896 45.873 45.718 45.891 46.298 45.611 45.523 45.453 45.406 45.888 47.558 47.536 47.343 46.493 46.511 45.691 45.401 46.526 44.898 44.628 44.568 44.551 44.526 44.431 44.341 44.281 44.188 44.123 44.081 44.026 43.941 43.873 43.826 43.748 43.686 43.578 43.581 43.471 43.393 43.356 43.281 43.686 43.883 43.231 44.266 43.798 43.488 44.228 42.963 42.643 45.508 48.306 47.236 47.798 44.023 42.108 41.836 41.991 45.736 46.116 46.756 44.383 42.388 41.628 41.711 41.716 41.656 41.583 41.501 41.416 41.371 41.311 41.226 41.121 41.043 40.903 40.806 40.713 40.611 40.556 40.491 40.433 40.343 40.243 40.143 40.031 39.946 39.871 39.786 39.698 39.576 39.486 39.383 39.281 39.196 39.071 38.946 38.826 38.731 38.631 38.521 38.411 38.283 38.178 38.078 37.951 37.823 37.721 37.606 37.441 37.313 37.183 37.053 36.908 36.793 36.678 36.591 36.453 36.341 36.213 36.073 35.953 35.826 35.686 35.556 35.433 35.321 35.186 35.086 34.976 34.851 34.759 34.606 34.451 34.321 34.176 34.034 33.934 33.786 33.661 33.541 33.419 33.269 33.126 32.981 32.836 32.701 32.574 32.436 32.284 32.144 31.971 31.786 31.666 31.529 31.396 31.249 31.096 30.914 30.774 30.601 30.479 30.331 30.204 30.064 29.956 29.831 29.719 29.624 29.516 29.374 29.281 29.156 29.034 28.954 28.824 28.699 28.591 28.514 28.444 28.396 28.314 28.204 28.089 28.249 28.696 28.894 27.901 27.556 27.469 27.379 27.351 27.334 27.341 27.329 27.279 27.234 27.171 27.106 27.059 27.019 26.986 26.964 26.931 26.919 26.944 26.931 26.861 26.886 26.831 26.834 26.809 26.784 26.764 26.746 26.704 26.679 26.674 26.624 26.559 26.496 26.444 26.394 26.314 26.221 26.144 26.081 26.041 25.976 25.904 25.814 25.706 25.624 25.541 25.519 25.434 25.376 25.311 25.236 25.176 25.084 24.996 24.916 24.826 24.744 24.624 24.509 24.396 24.311 24.209 24.116 24.021 23.914 23.844 23.731 23.589 23.496 23.381 23.296 23.201 23.091 22.969 22.856 22.701 22.564 22.461 22.356 22.246 22.171 22.039 21.884 21.751 21.649 21.481 21.336 21.214 21.091 20.966 20.869 20.796 20.719 20.631 20.534 20.471 20.459 20.419 20.414 20.291 20.801 21.391 19.516 19.364 19.781 21.136 19.891 20.879 19.409 19.639 20.094 19.316 19.654 19.321 20.019 19.866 19.274 19.629 19.491 19.556 18.919 22.336 29.801 22.504 19.216 19.686 21.474 23.419 20.391 19.366 19.524 19.699 19.839 19.929
