ncols 451
nrows 31
xllcorner    460072
yllcorner    86644
cellsize     2
NODATA_value -9999
82.784 82.796 82.956 83.009 83.134 82.934 82.966 82.884 82.866 82.841 82.216 80.806 81.076 81.889 82.136 81.734 81.699 80.681 79.671 79.144 78.936 78.859 78.806 78.769 78.694 78.674 78.516 78.311 78.116 78.276 78.374 78.329 78.221 78.071 77.934 77.779 77.684 77.669 77.636 77.571 77.291 77.169 77.099 76.634 76.121 75.656 75.349 77.639 78.089 77.046 76.626 76.604 75.969 75.469 75.714 76.239 76.071 75.511 75.044 73.456 72.876 73.084 72.239 72.116 73.214 74.456 74.464 73.946 73.884 73.369 72.694 70.389 70.136 71.689 71.766 70.346 71.164 72.256 73.154 74.059 74.039 74.634 74.644 74.124 74.641 75.174 75.296 74.486 73.036 71.906 71.676 71.509 71.361 71.199 70.999 70.919 71.066 71.516 71.521 72.021 71.841 70.354 69.589 69.489 69.586 69.424 69.244 69.599 70.909 69.651 68.839 68.444 68.231 68.059 67.666 67.509 67.279 66.999 67.021 69.479 69.481 68.471 68.571 66.266 68.496 68.739 68.696 68.309 65.684 65.129 64.961 64.891 64.539 64.984 63.536 63.261 62.996 62.676 62.471 62.231 61.959 61.694 61.394 61.169 60.964 60.659 60.394 60.154 59.906 59.686 59.444 59.236 58.984 58.774 58.501 58.306 58.071 57.891 57.676 57.489 57.326 57.104 56.901 56.579 56.336 56.056 55.799 55.594 55.326 55.129 54.954 54.731 54.469 54.206 53.949 53.676 53.384 53.149 52.824 52.456 52.136 51.854 51.566 51.326 51.069 50.879 50.649 50.371 50.111 49.836 49.539 49.269 48.976 48.741 48.474 48.211 47.969 47.694 47.471 47.231 46.929 46.694 46.411 46.241 46.159 46.041 45.926 46.884 50.059 48.469 44.566 44.559 44.709 44.884 43.764 43.749 45.131 44.396 43.464 42.919 42.416 42.001 43.234 42.331 41.599 41.589 41.519 42.666 47.279 47.496 47.424 45.279 39.476 39.069 38.839 38.519 38.654 37.506 36.926 36.841 36.756 36.756 36.724 36.769 36.651 36.426 36.134 40.794 41.206 37.816 35.976 34.839 34.421 37.046 37.259 37.194 36.906 34.489 34.104 33.139 32.669 32.441 32.199 32.006 31.859 31.886 32.756 31.271 30.841 30.751 31.071 30.786 30.469 30.561 30.884 29.841 29.346 28.771 28.546 28.046 27.884 27.289 26.874 26.884 26.451 26.296 25.974 25.069 25.954 26.756 26.351 25.161 24.496 24.714 25.424 23.991 24.001 23.056 21.971 22.054 21.411 21.254 21.446 22.164 22.229 22.229 22.046 21.731 20.309 20.051 20.129 20.229 20.196 20.599 21.169 20.469 20.306 20.636 19.736 22.666 25.069 24.434 23.676 23.131 23.636 22.279 21.066 18.761 18.136 17.536 17.186 17.149 16.691 16.439 16.231 15.951 15.854 15.971 15.276 15.066 14.879 14.644 14.394 14.449 14.289 14.346 14.444 16.434 14.086 13.686 13.994 14.956 10.476 12.796 11.819 14.589 14.104 7.981 5.181 5.466 4.751 4.009 3.321 3.239 3.301 3.324 3.291 3.191 3.286 4.504 4.991 4.984 4.586 4.159 4.199 4.359 4.479 4.171 3.529 3.344 3.341 3.349 3.251 3.139 3.056 2.849 2.624 2.464 2.289 2.069 1.836 1.589 1.389 1.261 1.171 1.244 1.389 1.314 1.189 1.302 1.047 0.736 0.707 1.23 1.038 0.39 -0.037 0.362 0.434 0.541 0.645 0.632 0.6 0.643 0.674 0.705 0.781 0.82 0.85 0.888 0.963 1.033 1.076 1.062 1.035 1.044 1.046 1.065 1.057 1.034 1.028 1.025 0.995 1.016 0.957 0.913 0.89 0.878 0.855 0.864 0.835 0.836 0.793 0.755 0.73 0.704 0.708 0.705 0.701 0.701 0.666
84.251 82.599 82.739 82.784 82.936 83.341 83.336 82.941 82.689 82.071 80.901 79.549 80.506 82.119 82.319 81.676 80.289 80.509 79.239 78.806 78.676 78.679 78.586 78.541 78.494 78.451 78.224 77.991 77.979 78.124 78.131 78.089 77.899 77.731 77.646 77.621 77.544 77.471 76.986 76.269 75.884 75.416 74.994 74.606 74.314 73.889 73.751 75.676 75.386 75.561 77.601 76.321 74.676 74.319 75.194 75.956 75.376 74.929 73.511 72.411 71.529 71.054 71.121 70.624 70.434 71.684 72.686 72.706 72.701 71.164 70.981 69.134 68.616 69.191 68.854 68.689 70.259 71.056 71.344 73.066 73.056 73.809 73.374 73.696 73.684 74.444 74.421 75.154 73.526 72.824 71.889 71.434 71.289 71.114 70.929 70.776 70.604 70.524 71.389 72.729 71.816 71.711 70.296 69.221 69.194 69.329 69.174 69.564 70.259 69.839 69.259 68.639 68.111 67.889 67.639 67.621 67.301 68.321 69.581 70.551 67.946 70.034 70.176 65.714 69.306 68.971 68.809 67.769 65.351 65.119 65.189 65.421 64.584 64.634 63.479 63.204 62.951 62.659 62.419 62.179 61.914 61.659 61.346 61.134 60.901 60.634 60.314 60.096 59.841 59.649 59.401 59.179 58.946 58.724 58.481 58.276 58.094 57.884 57.726 57.504 57.289 57.074 56.869 56.574 56.309 56.041 55.809 55.579 55.301 55.151 54.986 54.716 54.466 54.186 53.874 53.589 53.326 53.056 52.739 52.414 52.071 51.806 51.524 51.306 51.051 50.851 50.619 50.331 50.079 49.796 49.496 49.251 48.951 48.686 48.419 48.176 47.904 47.669 47.446 47.176 46.916 46.646 46.444 46.236 46.131 46.026 45.979 47.376 46.816 44.771 44.616 44.834 44.704 46.029 44.301 44.194 45.116 43.961 43.124 42.836 42.399 41.786 46.354 46.676 44.199 43.139 42.286 41.871 43.996 45.616 46.714 43.861 39.341 39.514 38.939 38.281 37.471 37.141 36.884 36.801 36.834 37.161 36.729 36.729 36.551 36.376 38.566 41.639 43.171 43.179 41.996 36.879 35.389 35.194 37.151 37.191 36.294 34.069 33.286 33.206 32.649 32.214 31.996 31.854 32.271 32.136 32.566 30.789 30.541 30.229 30.094 29.931 30.949 31.039 30.401 30.414 29.974 29.706 28.374 28.226 27.934 27.059 26.809 26.606 26.451 26.271 25.796 25.081 27.091 27.814 28.536 29.244 29.146 27.264 24.999 23.916 22.936 22.174 21.501 21.371 21.249 21.104 20.959 20.894 21.481 21.606 21.554 21.449 19.996 19.994 20.094 20.059 20.116 20.921 20.524 20.204 20.164 20.239 19.949 24.569 25.466 25.769 25.464 24.771 24.124 22.406 20.679 18.596 17.796 17.269 16.979 16.689 16.471 16.261 16.019 15.719 15.569 15.354 15.086 14.821 14.701 14.464 14.236 14.324 13.771 13.611 13.624 14.004 14.519 13.756 12.886 11.661 14.301 11.696 9.174 12.576 11.659 4.069 8.801 7.534 4.014 3.599 3.239 3.351 3.304 3.274 3.154 3.676 4.281 5.086 4.576 4.646 4.164 4.124 4.176 4.126 4.009 3.626 3.284 3.276 3.291 3.229 3.064 2.934 2.764 2.584 2.384 2.269 2.056 1.821 1.706 1.517 1.321 1.327 1.301 1.357 1.299 1.365 1.245 1.06 0.498 0.397 0.163 1.173 0.881 0.277 0.338 0.335 0.379 0.528 0.644 0.73 0.665 0.68 0.733 0.758 0.806 0.875 0.892 0.908 0.992 1.014 1.047 1.046 1.014 0.997 0.989 0.984 1.019 1.002 0.973 0.961 0.883 0.862 0.831 0.802 0.779 0.799 0.771 0.739 0.747 0.73 0.714 0.698 0.696 0.673 0.65 0.659 0.658 0.638 0.621
81.994 81.909 82.371 82.584 82.811 83.294 83.554 84.011 83.536 82.224 81.101 79.894 80.386 82.874 85.061 84.684 80.456 79.604 78.889 78.591 78.846 79.466 78.421 78.336 78.249 78.069 77.804 77.756 77.899 77.961 77.934 77.826 77.631 77.526 77.461 77.334 77.339 76.899 75.559 75.284 75.174 74.956 73.716 73.361 73.749 73.841 73.324 73.481 72.414 73.344 72.689 73.361 72.049 72.461 73.249 74.359 74.456 73.974 72.036 71.266 70.656 70.684 70.599 70.901 69.361 70.664 70.956 71.341 69.799 69.569 70.294 67.931 67.291 67.959 68.936 68.994 70.659 69.109 69.056 71.024 72.596 71.634 71.796 72.459 73.496 74.014 73.204 73.846 72.949 74.009 74.594 72.769 71.434 71.039 70.836 70.691 70.571 70.339 70.241 70.454 71.849 72.384 71.356 70.256 68.914 68.989 69.186 69.409 69.601 69.044 69.066 69.056 68.396 67.771 67.694 67.549 67.259 67.976 66.769 67.544 69.719 72.309 69.844 66.764 70.849 70.049 71.169 69.079 65.281 65.086 64.926 64.816 64.731 64.336 63.459 63.214 62.881 62.619 62.394 62.139 61.864 61.596 61.306 61.081 60.854 60.591 60.336 60.066 59.796 59.626 59.359 59.136 58.911 58.704 58.511 58.271 58.036 57.874 57.669 57.516 57.266 57.056 56.831 56.521 56.274 56.014 55.759 55.516 55.324 55.149 54.949 54.676 54.454 54.159 53.834 53.564 53.326 52.981 52.661 52.331 52.026 51.749 51.524 51.259 51.011 50.824 50.574 50.314 50.039 49.749 49.461 49.179 48.911 48.641 48.379 48.134 47.861 47.611 47.401 47.124 46.861 46.619 46.449 46.236 46.089 45.994 45.979 47.664 45.371 44.756 46.236 45.071 45.236 44.946 43.926 44.071 43.819 43.859 43.759 43.836 42.911 43.181 47.094 47.639 47.251 46.951 44.409 41.356 41.576 42.169 42.369 41.296 39.566 39.681 39.291 38.804 37.411 36.954 36.856 36.801 37.064 37.099 36.751 36.671 36.454 36.644 39.544 42.604 43.461 42.974 41.879 36.426 35.584 35.011 34.731 36.854 34.544 33.569 32.914 32.894 32.586 32.074 31.864 31.756 31.946 33.164 31.736 30.659 30.396 30.141 29.931 29.679 29.431 29.661 30.251 30.049 29.141 30.984 29.364 29.674 29.281 28.241 26.991 26.566 26.429 26.186 25.571 25.271 27.219 27.991 28.726 29.296 29.076 28.099 24.731 24.099 23.904 22.066 21.421 21.321 21.181 21.031 20.894 20.701 21.036 21.089 21.376 20.724 19.871 19.991 20.036 20.026 20.044 20.139 20.109 20.096 19.939 19.414 19.429 23.066 23.906 25.264 25.334 25.664 25.109 20.361 19.156 18.171 17.356 16.976 16.724 16.686 16.336 16.251 15.794 15.501 15.274 15.051 14.866 14.616 14.726 14.154 13.986 13.879 13.679 13.564 13.536 14.174 12.916 10.351 8.289 6.866 13.539 12.281 5.626 8.724 6.274 5.341 7.066 3.919 3.251 3.256 3.311 3.319 3.226 3.201 3.576 4.661 4.671 4.809 4.599 4.554 4.114 4.129 4.044 3.939 3.511 3.339 3.251 3.154 3.166 3.071 2.836 2.679 2.574 2.381 2.171 2.011 1.824 1.612 1.483 1.369 1.235 1.278 1.424 1.305 1.243 1.059 0.69 0.624 0.231 0.104 0.033 -0.046 0.404 0.422 0.38 0.313 0.391 0.62 0.707 0.744 0.716 0.69 0.778 0.823 0.862 0.938 0.942 0.966 1.019 0.988 1.004 1.027 0.981 0.959 0.93 0.938 0.97 0.913 0.84 0.803 0.745 0.768 0.763 0.737 0.734 0.695 0.683 0.679 0.685 0.637 0.605 0.598 0.612 0.6 0.574 0.597 0.629 0.597 0.564
80.761 80.889 81.476 81.864 82.154 83.571 83.371 83.844 83.554 83.079 81.961 80.264 80.661 83.231 85.774 85.186 80.896 79.586 78.699 78.489 78.421 78.811 78.256 78.141 77.881 77.599 77.461 77.619 77.769 77.769 77.701 77.544 77.329 77.241 77.149 77.149 76.979 75.229 73.994 74.094 73.894 73.731 72.366 72.521 72.621 73.084 71.704 71.571 71.746 71.359 70.266 70.214 70.191 70.804 71.364 71.846 72.059 71.649 71.111 70.994 70.836 70.291 68.786 69.891 69.026 69.656 70.196 70.246 70.559 68.184 66.744 66.976 67.524 67.994 66.156 66.169 67.379 67.996 67.571 67.526 68.761 70.849 71.581 71.316 72.151 71.876 72.311 75.249 74.486 73.726 75.266 73.636 72.941 71.769 70.936 70.626 70.464 70.264 70.114 69.939 69.916 70.756 71.046 70.689 69.336 68.651 69.154 70.306 69.461 69.219 69.454 68.984 68.966 67.699 68.079 67.356 67.191 67.189 66.804 66.781 68.504 70.009 66.309 68.874 71.951 72.084 72.056 70.511 65.514 65.016 64.891 64.739 64.544 63.949 63.444 63.154 62.866 62.564 62.314 62.094 61.819 61.539 61.264 61.074 60.784 60.551 60.309 60.024 59.796 59.561 59.324 59.079 58.864 58.676 58.479 58.226 57.999 57.851 57.611 57.439 57.211 57.004 56.796 56.511 56.261 55.989 55.714 55.511 55.334 55.149 54.896 54.674 54.386 54.099 53.786 53.536 53.231 52.931 52.599 52.264 51.994 51.716 51.474 51.224 50.986 50.776 50.529 50.266 49.994 49.711 49.436 49.134 48.859 48.606 48.341 48.084 47.826 47.591 47.341 47.056 46.811 46.579 46.399 46.231 46.101 45.994 46.094 46.611 44.644 45.669 46.359 46.319 46.229 45.384 43.844 43.614 43.559 43.451 42.804 43.509 43.904 46.009 47.499 47.396 47.631 47.071 43.456 40.914 40.626 40.681 40.799 41.099 40.659 40.996 41.259 38.929 37.144 36.819 36.769 36.719 37.076 36.814 36.841 36.656 36.444 37.064 41.366 42.986 43.431 42.594 39.849 36.064 35.731 35.484 34.969 34.029 34.109 33.314 32.866 32.839 32.406 32.261 32.106 31.656 31.939 31.994 30.916 30.546 30.241 30.064 29.819 29.594 29.291 28.949 28.679 28.459 28.314 28.076 27.854 27.849 28.486 30.656 28.061 27.046 26.491 26.114 25.434 24.309 25.289 26.929 28.936 29.444 28.861 27.961 24.766 24.104 23.219 21.849 21.391 21.279 21.129 21.001 20.826 20.826 20.456 20.259 20.044 19.859 19.784 19.894 19.949 19.934 20.009 20.024 19.961 19.856 19.739 19.584 19.086 19.564 22.211 25.264 23.626 24.159 23.251 18.844 18.484 17.734 17.039 16.941 16.526 16.591 16.291 16.376 15.684 15.311 15.064 14.834 14.596 14.344 14.159 13.921 13.721 13.966 13.471 13.571 14.184 13.399 10.921 9.156 7.251 6.394 8.949 6.899 4.504 3.881 4.874 4.816 3.824 3.271 3.241 3.344 3.306 3.231 3.299 3.321 4.196 4.701 4.659 4.624 4.584 4.401 4.411 4.141 3.801 3.394 3.281 3.241 3.139 3.051 2.966 2.801 2.584 2.451 2.331 2.161 1.956 1.734 1.773 1.477 1.388 1.366 1.189 1.398 1.41 1.226 1.05 0.508 0.389 0.041 -0.054 -0.049 -0.054 -0.051 0.33 0.389 0.393 0.623 0.646 0.698 0.748 0.803 0.772 0.811 0.895 0.901 0.911 0.953 0.965 0.951 0.959 0.941 0.995 0.976 0.915 0.905 0.903 0.884 0.844 0.762 0.713 0.701 0.678 0.695 0.656 0.662 0.63 0.634 0.579 0.596 0.591 0.569 0.539 0.574 0.569 0.536 0.529 0.504 0.556 0.544 0.534
80.084 80.351 80.411 80.929 81.554 82.104 82.394 82.679 83.136 82.711 82.306 80.829 80.939 81.386 82.679 82.764 80.484 78.781 78.319 78.301 78.256 78.139 78.016 77.756 77.396 77.244 77.331 77.576 77.644 77.556 77.419 77.219 77.079 77.021 76.944 76.954 76.276 73.196 71.979 72.654 72.194 71.811 71.264 70.694 70.486 71.284 70.121 69.591 68.189 69.071 68.584 68.574 71.866 71.149 69.786 69.991 70.641 70.499 70.824 70.604 71.051 70.026 68.136 67.441 68.529 69.209 69.546 70.806 68.556 67.609 66.954 66.816 67.084 66.241 65.999 66.981 68.896 67.076 66.876 67.211 70.231 70.959 69.446 69.699 71.219 72.116 71.784 71.696 70.956 71.746 71.469 73.196 72.564 72.224 71.689 71.241 70.571 70.181 69.966 69.854 69.626 69.434 69.311 69.559 69.719 68.711 68.756 69.724 69.666 69.904 70.036 69.249 68.726 67.746 67.531 67.369 67.186 68.434 68.256 67.536 67.926 67.479 65.749 68.399 72.299 72.649 72.479 69.866 65.129 64.966 64.839 64.714 64.399 64.044 63.409 63.071 62.884 62.536 62.291 62.076 61.771 61.466 61.221 61.026 60.774 60.501 60.259 59.996 59.806 59.544 59.286 59.051 58.861 58.651 58.451 58.194 57.979 57.814 57.586 57.389 57.204 57.016 56.764 56.491 56.211 55.919 55.734 55.501 55.271 55.059 54.854 54.569 54.324 54.064 53.731 53.461 53.191 52.869 52.496 52.184 51.904 51.644 51.406 51.189 50.951 50.711 50.484 50.221 49.971 49.671 49.406 49.094 48.821 48.551 48.301 48.021 47.781 47.554 47.329 47.021 46.774 46.586 46.386 46.206 46.116 46.024 46.519 46.136 44.616 46.156 46.839 46.174 45.229 46.039 44.031 43.761 43.491 44.026 42.714 42.354 43.336 46.876 47.681 47.399 47.554 46.691 41.551 40.824 40.579 40.406 40.309 40.576 40.194 39.446 40.329 37.721 36.946 36.804 36.719 37.106 37.249 36.689 36.659 36.524 36.481 36.659 42.021 43.106 43.356 42.246 37.154 36.201 35.516 35.521 35.584 34.631 34.259 33.836 33.359 32.911 32.236 32.156 32.361 31.626 32.716 31.949 30.524 30.279 30.109 29.891 29.654 29.441 29.101 28.789 28.564 28.361 28.491 27.959 27.744 27.529 27.391 28.161 28.164 28.444 27.156 28.194 26.324 25.521 23.966 26.861 29.141 29.329 28.664 27.931 26.671 24.554 22.731 22.094 22.144 21.634 21.086 20.976 21.531 21.869 21.266 20.504 19.746 19.674 19.721 19.834 19.851 19.921 20.744 20.001 19.831 19.699 19.566 19.116 20.354 19.484 20.981 21.629 21.024 21.599 19.759 18.706 18.171 17.284 17.374 16.919 16.314 16.086 16.071 15.734 15.601 15.106 14.856 14.636 14.414 14.191 14.001 13.746 13.511 13.344 13.596 14.039 13.496 9.954 8.311 7.389 6.519 8.866 10.126 4.481 4.304 4.389 4.774 3.796 3.269 3.239 3.331 3.341 3.261 3.159 3.169 3.694 4.434 4.591 4.761 4.331 4.409 4.419 4.211 3.746 3.311 3.209 3.111 3.046 2.939 2.824 2.676 2.489 2.329 2.201 2.046 1.869 1.79 1.645 1.554 1.46 1.302 1.361 1.413 1.294 1.137 0.968 0.442 0.117 -0.003 -0.051 -0.046 -0.044 0.242 0.282 0.322 0.541 0.67 0.767 0.756 0.752 0.805 0.842 0.807 0.855 0.895 0.937 0.969 0.955 0.941 0.957 0.96 0.957 0.934 0.901 0.88 0.864 0.826 0.753 0.677 0.666 0.648 0.652 0.659 0.646 0.646 0.574 0.561 0.549 0.554 0.541 0.504 0.516 0.486 0.506 0.516 0.486 0.461 0.474 0.511 0.504 0.496
79.051 79.534 80.014 80.061 80.289 79.964 81.006 81.384 81.894 82.691 84.876 82.026 81.306 80.756 79.519 80.514 78.621 78.019 78.011 77.941 77.891 77.784 77.666 77.201 77.004 77.144 77.406 77.474 77.471 77.346 77.106 76.941 76.856 76.134 74.639 73.631 72.286 70.861 70.056 69.936 69.649 69.409 69.176 68.794 69.656 68.814 67.416 67.289 66.869 66.901 67.146 67.256 68.886 69.001 67.974 68.241 68.624 69.869 69.484 69.031 70.864 69.864 67.969 67.256 67.511 67.286 69.246 69.614 69.234 69.184 68.971 67.671 67.346 67.134 67.016 67.124 66.919 66.659 67.209 70.489 70.329 69.764 68.139 69.706 69.209 70.326 69.301 66.976 67.059 67.869 68.766 70.336 71.779 71.449 71.816 71.666 73.521 71.271 70.051 69.689 69.486 69.384 69.174 68.946 68.836 68.656 68.406 70.014 71.076 70.869 70.301 69.466 68.744 67.759 67.436 67.729 67.251 67.556 69.711 69.731 67.821 67.886 66.426 68.171 72.219 71.784 71.481 68.721 65.089 64.894 64.791 64.651 64.356 64.016 63.339 63.014 62.781 62.501 62.241 61.989 61.736 61.434 61.164 60.961 60.739 60.451 60.199 59.966 59.754 59.496 59.259 59.036 58.829 58.604 58.391 58.231 57.974 57.781 57.556 57.369 57.184 56.974 56.716 56.439 56.146 55.931 55.676 55.469 55.224 55.026 54.774 54.534 54.281 53.979 53.671 53.404 53.119 52.831 52.454 52.141 51.844 51.594 51.346 51.109 50.886 50.679 50.426 50.181 49.899 49.624 49.321 49.039 48.786 48.516 48.259 47.991 47.789 47.571 47.311 46.984 46.726 46.549 46.384 46.229 46.144 46.129 46.661 45.899 44.804 45.656 46.154 45.786 44.384 43.711 43.771 43.831 44.461 44.766 43.119 41.981 42.889 47.069 47.566 47.656 47.596 45.719 41.709 41.401 41.261 40.294 40.284 40.151 39.604 39.561 38.541 37.209 36.821 36.744 36.646 36.581 36.636 36.701 36.676 36.569 36.371 39.351 42.099 43.236 43.164 41.991 37.979 36.276 35.561 34.886 34.546 34.114 33.806 33.611 33.581 34.354 34.606 32.734 32.194 32.144 32.721 31.896 30.349 30.119 29.864 29.646 31.339 31.254 28.919 28.664 28.429 28.196 28.059 27.891 27.659 27.511 27.161 26.881 27.211 28.031 26.809 26.869 25.886 27.001 27.759 26.414 27.516 27.546 27.791 27.651 27.041 24.219 23.686 22.746 22.186 21.191 21.066 21.229 22.149 22.229 21.939 20.921 19.729 19.604 19.711 19.771 19.756 20.154 20.561 19.819 20.064 19.926 19.529 20.149 21.741 21.174 21.841 21.451 18.594 18.711 18.704 18.594 17.661 16.921 16.834 16.421 16.124 15.876 15.634 15.374 15.114 14.876 14.661 14.426 14.161 13.999 13.771 13.526 13.386 13.474 14.569 13.139 9.721 9.079 6.449 6.764 5.129 5.846 4.026 3.314 3.341 3.351 3.589 3.306 3.241 3.329 3.316 3.241 3.186 3.211 4.011 4.289 4.376 4.086 4.156 4.234 4.506 4.241 3.686 3.251 3.131 3.011 2.916 2.834 2.716 2.534 2.414 2.221 2.126 1.951 1.907 1.728 1.585 1.488 1.413 1.294 1.433 1.35 1.266 1.019 0.88 0.58 -0.025 -0.059 -0.054 -0.054 -0.054 0.178 0.218 0.577 0.769 0.788 0.836 0.811 0.8 0.878 0.897 0.851 0.853 0.87 0.93 0.955 0.972 0.957 0.94 0.952 0.932 0.881 0.851 0.863 0.802 0.755 0.675 0.594 0.601 0.559 0.566 0.561 0.529 0.514 0.541 0.521 0.481 0.484 0.471 0.464 0.456 0.489 0.471 0.464 0.464 0.476 0.469 0.461 0.464 0.456 0.456
77.959 78.276 78.771 79.061 79.246 79.476 79.346 79.989 80.636 81.071 81.951 80.699 80.499 80.126 78.791 78.071 77.529 77.434 77.371 77.626 77.244 77.146 76.979 76.776 76.926 77.201 77.326 77.309 77.251 77.079 76.859 76.731 76.661 74.701 72.794 71.436 69.991 70.046 69.829 69.291 68.399 67.724 68.006 66.366 67.319 67.171 66.839 65.866 65.869 66.004 66.321 66.079 66.581 66.316 65.661 65.601 66.259 66.271 67.941 67.536 71.079 69.821 67.216 65.931 65.676 66.916 68.594 68.244 70.691 69.656 70.086 69.624 67.876 67.854 67.316 67.416 66.529 66.754 67.391 69.474 68.266 68.589 67.526 67.391 68.061 67.349 65.596 67.901 65.904 66.149 67.131 68.324 69.974 69.271 70.201 70.674 72.076 71.741 71.316 70.501 69.429 69.206 69.094 68.894 68.671 68.449 68.156 68.596 69.921 70.124 69.534 70.321 69.061 67.426 67.896 68.119 67.301 67.664 68.699 70.836 68.701 68.391 68.114 66.224 67.571 66.241 65.314 65.086 64.936 64.811 64.704 65.206 64.149 63.881 63.276 62.969 62.746 62.419 62.169 61.916 61.664 61.366 61.119 60.901 60.656 60.426 60.166 59.924 59.706 59.471 59.214 59.049 58.791 58.549 58.331 58.156 57.971 57.729 57.539 57.364 57.164 56.954 56.666 56.406 56.164 55.916 55.624 55.424 55.189 54.996 54.741 54.481 54.181 53.946 53.606 53.334 53.059 52.751 52.391 52.081 51.789 51.556 51.319 51.054 50.846 50.619 50.379 50.129 49.831 49.566 49.286 48.989 48.729 48.489 48.216 47.969 47.749 47.554 47.294 46.936 46.734 46.579 46.359 46.211 46.166 46.174 46.239 44.704 44.691 45.396 44.669 44.214 43.711 43.579 43.509 43.479 43.511 44.729 44.386 42.929 42.706 44.501 45.306 46.986 47.366 45.061 40.901 40.829 41.129 40.969 40.376 39.769 39.941 39.629 37.399 36.951 36.751 36.681 36.559 36.701 37.426 37.031 36.451 36.346 36.499 39.954 42.724 43.524 42.809 40.569 36.544 35.834 35.791 35.001 34.204 33.841 33.516 33.346 34.221 35.021 35.456 35.266 33.284 33.096 31.836 30.426 30.634 30.919 30.224 29.629 36.014 35.381 29.671 28.544 28.814 28.444 27.974 27.824 28.451 29.994 27.894 26.644 27.021 26.664 26.204 25.554 25.401 25.789 25.381 24.554 24.719 24.446 25.184 25.276 24.551 24.039 24.034 23.194 22.846 21.844 21.249 21.881 22.264 22.094 21.529 20.281 19.501 19.539 19.636 19.674 19.716 20.366 19.959 19.706 19.809 20.189 19.276 19.249 20.354 21.609 22.249 23.199 22.956 20.534 18.386 18.249 17.516 16.686 17.069 16.164 15.936 16.081 15.489 15.189 14.899 14.661 14.444 14.201 13.974 13.774 13.554 13.354 13.616 14.724 12.621 9.381 8.451 8.719 7.609 4.864 4.986 4.259 4.031 4.106 4.261 3.834 3.294 3.214 3.331 3.301 3.249 3.331 3.784 3.961 4.191 4.304 4.034 4.011 4.226 4.384 4.244 3.579 3.236 3.086 2.984 2.829 2.696 2.586 2.441 2.289 2.146 1.986 1.829 1.791 1.651 1.551 1.428 1.425 1.238 1.465 1.358 1.305 0.832 0.686 0.745 -0.046 -0.044 -0.051 -0.051 -0.069 0.094 0.141 0.606 0.79 0.84 0.858 0.897 0.879 0.89 0.953 0.963 0.895 0.9 0.957 0.964 0.966 0.964 0.938 0.916 0.897 0.834 0.814 0.764 0.721 0.667 0.582 0.56 0.536 0.515 0.529 0.479 0.454 0.456 0.446 0.441 0.449 0.431 0.401 0.396 0.444 0.451 0.474 0.466 0.419 0.436 0.434 0.451 0.441 0.439 0.446 0.471
77.479 77.574 77.894 78.239 79.204 79.079 78.911 78.971 79.159 79.651 79.351 78.981 78.834 78.491 77.609 77.259 77.039 76.951 77.856 79.904 77.721 76.581 76.571 76.766 76.894 77.041 77.074 77.079 76.979 76.816 76.674 76.566 76.449 74.546 71.521 70.351 69.351 68.724 69.184 68.456 67.379 65.781 64.751 65.034 65.349 65.704 66.194 65.314 64.864 64.821 66.686 65.084 65.174 65.426 64.176 63.776 66.641 64.099 64.204 68.551 69.611 68.191 66.246 65.976 65.471 66.966 67.844 68.241 69.296 68.521 67.591 67.289 67.824 67.999 67.019 66.749 66.874 66.624 66.631 66.566 66.734 68.294 68.614 67.686 65.656 66.139 64.941 68.056 65.526 65.394 66.891 66.274 67.154 68.984 68.111 68.984 68.976 70.521 70.421 71.149 70.806 70.011 68.934 68.761 68.559 68.364 68.129 67.931 68.024 69.219 69.176 70.024 68.594 67.484 67.746 68.059 67.324 68.081 70.549 71.131 70.996 69.459 67.944 65.306 65.281 65.326 65.194 64.994 64.841 64.756 65.741 65.144 66.074 64.139 63.141 62.919 62.656 62.329 62.076 61.869 61.614 61.299 61.081 60.801 60.561 60.341 60.084 59.849 59.649 59.396 59.179 59.016 58.761 58.506 58.314 58.089 57.896 57.709 57.481 57.309 57.139 56.871 56.629 56.396 56.131 55.856 55.619 55.419 55.174 54.954 54.689 54.404 54.121 53.844 53.514 53.279 52.991 52.639 52.301 52.021 51.751 51.506 51.254 51.029 50.801 50.569 50.336 50.086 49.789 49.521 49.241 48.941 48.689 48.449 48.166 47.921 47.716 47.501 47.214 46.904 46.706 46.541 46.296 46.184 46.171 46.289 45.766 44.714 45.239 45.074 45.539 44.699 43.659 43.451 43.366 43.314 43.214 43.001 42.949 42.916 42.401 43.951 42.896 42.661 44.409 41.984 40.764 40.644 40.486 40.444 39.909 39.884 40.214 38.264 37.104 36.774 36.724 36.629 36.511 36.516 37.551 36.531 36.546 37.394 40.251 41.469 43.159 43.284 42.406 40.024 37.481 36.376 35.434 34.386 33.776 33.504 33.191 33.021 34.201 34.771 35.531 34.059 32.539 32.301 31.459 31.081 30.489 29.621 29.561 29.809 35.666 36.524 31.051 28.409 28.311 28.194 27.979 27.661 28.166 31.664 29.376 26.734 27.116 26.331 26.244 25.466 25.434 25.584 26.916 25.731 25.234 29.806 28.269 26.229 24.961 24.229 23.801 23.129 22.929 22.674 22.374 22.321 22.199 21.889 21.034 19.749 19.431 19.486 19.564 19.589 20.129 20.686 21.411 20.771 19.719 19.344 19.046 18.691 18.954 20.984 22.664 23.749 24.049 23.286 20.414 18.414 16.941 16.614 16.596 16.196 15.971 15.706 15.231 15.009 14.801 14.629 14.279 14.116 13.769 13.574 13.421 13.534 14.574 14.456 9.789 7.989 7.116 6.266 5.661 4.926 4.379 3.959 5.146 5.206 3.769 3.184 3.231 3.339 3.289 3.269 3.251 3.256 4.441 4.281 4.269 3.964 4.029 4.249 4.271 4.101 3.659 3.311 3.104 2.929 2.769 2.636 2.429 2.346 2.241 2.064 1.904 1.756 1.641 1.551 1.464 1.341 1.33 1.396 1.45 1.282 1.07 0.723 0.637 -0.061 0.054 -0.046 -0.051 -0.059 0.004 0.035 0.115 0.65 0.72 0.841 0.913 0.915 0.938 0.974 0.99 0.981 0.975 0.997 0.975 0.982 0.957 0.965 0.907 0.868 0.838 0.793 0.726 0.692 0.657 0.611 0.558 0.512 0.47 0.501 0.476 0.489 0.464 0.446 0.449 0.451 0.436 0.429 0.424 0.401 0.351 0.429 0.429 0.434 0.454 0.431 0.431 0.461 0.451 0.444 0.434 0.446 0.456
77.179 77.149 77.211 77.291 77.621 77.644 78.196 77.891 77.954 78.489 78.064 78.124 77.936 77.669 77.086 76.794 76.584 77.176 78.216 77.189 76.249 76.334 76.659 76.676 76.656 76.729 76.769 76.756 76.726 76.646 76.499 76.354 76.224 73.626 70.144 69.341 68.949 67.231 67.014 67.261 66.944 64.939 63.834 63.261 63.609 64.614 65.496 64.344 63.086 64.091 66.419 66.371 63.871 64.474 63.219 63.586 66.239 64.319 63.496 64.324 65.341 64.936 65.561 67.329 66.956 65.851 68.271 68.429 68.656 69.109 68.351 66.416 66.631 67.346 66.604 66.694 66.341 66.251 68.179 66.204 65.259 66.319 68.181 66.536 65.311 64.816 64.931 64.969 67.111 64.919 64.911 65.534 65.276 66.694 67.171 67.971 67.051 67.711 68.239 70.329 70.746 70.909 71.094 68.896 68.406 68.246 68.021 67.774 67.611 68.744 69.806 69.379 67.989 67.424 67.934 67.451 66.964 67.389 70.141 70.886 71.566 67.069 65.369 65.314 65.186 65.109 64.979 64.949 64.859 64.679 65.906 66.171 66.901 65.294 63.069 62.811 62.571 62.271 62.009 61.766 61.524 61.226 61.019 60.781 60.509 60.284 60.021 59.809 59.579 59.331 59.136 58.929 58.719 58.459 58.294 58.079 57.881 57.649 57.454 57.256 57.041 56.851 56.579 56.354 56.104 55.844 55.589 55.356 55.131 54.911 54.609 54.299 54.056 53.779 53.456 53.209 52.906 52.599 52.256 51.959 51.689 51.459 51.254 50.984 50.774 50.544 50.286 50.024 49.744 49.496 49.194 48.886 48.664 48.404 48.141 47.911 47.659 47.476 47.196 46.876 46.661 46.486 46.279 46.211 46.159 46.951 45.216 44.696 45.176 45.436 46.109 44.944 43.661 43.491 43.614 43.169 42.451 41.626 41.339 41.311 41.169 41.249 41.461 42.369 42.261 42.064 41.561 40.799 40.454 40.279 39.869 39.711 38.379 37.366 36.866 36.724 36.656 36.541 36.374 36.131 36.061 36.156 36.179 37.316 42.256 43.246 43.421 42.801 42.024 39.531 37.409 36.411 35.199 34.119 33.576 33.314 32.969 32.704 33.304 34.056 35.316 33.976 33.109 31.984 30.509 30.481 29.571 29.219 28.939 30.416 34.826 33.769 30.289 28.686 28.019 28.216 28.164 27.569 27.686 27.771 27.076 27.129 26.319 26.224 25.594 25.436 25.426 24.669 29.924 29.581 29.534 30.709 30.849 30.179 30.534 29.964 27.734 25.496 23.111 22.996 22.621 22.316 22.136 21.596 20.389 19.349 19.366 19.419 19.471 19.504 20.221 21.051 20.836 20.951 20.619 19.969 19.004 18.689 18.516 21.586 23.134 24.091 23.949 22.724 20.076 19.999 16.386 16.276 15.999 15.954 15.861 15.621 15.054 14.819 14.616 14.431 14.274 13.944 13.816 13.566 13.634 14.544 13.196 9.806 7.921 6.969 5.871 5.691 5.319 4.631 4.029 4.596 4.809 3.881 3.134 3.191 3.294 3.296 3.274 3.216 3.276 4.716 4.924 4.464 4.189 4.044 4.419 4.411 4.114 3.631 3.269 3.126 2.946 2.756 2.586 2.449 2.239 2.131 2.004 1.811 1.714 1.601 1.466 1.351 1.29 1.326 1.422 1.269 1.343 1.178 0.942 0.079 0.009 -0.221 -0.161 -0.139 -0.064 -0.264 0.056 0.507 0.788 0.798 0.83 0.894 0.919 0.94 0.96 0.955 0.982 1.002 0.998 0.971 0.943 0.957 0.942 0.887 0.828 0.794 0.756 0.709 0.644 0.619 0.568 0.522 0.527 0.487 0.484 0.486 0.469 0.466 0.439 0.446 0.441 0.466 0.451 0.449 0.439 0.409 0.366 0.381 0.419 0.436 0.444 0.441 0.451 0.439 0.449 0.441 0.451 0.446 0.444
76.916 76.861 76.786 76.829 76.894 76.924 76.974 76.969 77.041 77.174 77.181 77.126 77.096 76.986 76.719 76.414 76.264 76.144 76.021 75.966 76.164 76.336 76.491 76.381 76.339 76.376 76.359 76.311 76.334 76.334 76.276 76.014 74.499 70.749 68.971 68.369 67.311 65.749 67.569 67.184 64.941 64.434 63.739 63.634 64.041 64.034 64.461 63.496 62.961 62.669 64.939 63.631 62.751 62.854 62.491 62.549 62.484 62.839 63.136 63.954 64.409 65.411 66.249 66.271 65.834 65.054 66.149 66.041 67.304 67.609 67.756 65.904 65.661 65.514 65.236 65.426 65.389 65.954 67.759 66.224 65.109 65.331 65.854 65.471 64.964 64.656 64.889 65.166 65.731 65.029 64.809 65.351 64.464 66.089 64.879 65.401 65.086 67.249 67.886 67.589 68.594 70.191 69.261 69.609 68.546 68.119 67.881 67.649 67.469 67.279 67.889 68.761 68.631 68.156 67.526 67.591 66.934 68.126 69.186 70.579 70.054 67.794 66.376 65.701 65.599 65.061 65.466 66.441 64.681 65.121 66.746 67.334 66.804 65.714 62.964 62.736 62.461 62.176 61.949 61.679 61.436 61.151 60.926 60.696 60.454 60.201 59.986 59.754 59.526 59.311 59.081 58.881 58.646 58.429 58.249 58.061 57.819 57.601 57.394 57.206 57.001 56.799 56.519 56.256 56.046 55.784 55.536 55.329 55.096 54.859 54.524 54.269 54.024 53.729 53.424 53.136 52.849 52.519 52.201 51.889 51.634 51.414 51.206 50.939 50.719 50.486 50.231 49.976 49.719 49.439 49.156 48.861 48.601 48.374 48.104 47.839 47.586 47.401 47.136 46.819 46.594 46.436 46.301 46.209 46.244 47.091 45.191 44.689 44.694 44.681 46.426 45.731 43.654 43.474 43.379 42.521 42.221 42.666 41.884 41.819 45.781 43.281 41.394 41.406 41.256 41.139 41.209 41.009 41.586 42.266 40.594 39.454 37.476 37.426 37.729 36.666 36.561 36.714 36.241 35.951 35.629 35.266 35.019 35.274 39.546 42.556 42.906 41.486 38.889 37.536 36.076 35.851 34.614 33.961 33.489 33.124 32.771 32.524 32.894 33.111 33.009 32.896 32.834 31.566 29.606 29.419 29.246 29.036 28.791 28.684 30.091 28.811 28.379 28.444 27.299 28.186 27.954 28.191 28.006 28.039 28.354 26.941 26.136 26.169 25.686 25.441 25.379 25.414 30.506 30.526 30.426 30.936 30.521 30.494 31.094 30.949 30.969 28.591 22.731 22.539 22.786 23.584 22.831 21.451 19.971 19.234 19.336 19.369 19.369 19.579 19.994 19.644 20.429 21.921 20.876 19.794 19.806 19.526 18.849 19.904 22.324 23.116 23.451 22.346 17.751 17.421 16.026 15.974 15.824 15.814 15.656 15.639 14.796 14.644 14.531 14.259 14.019 13.721 15.219 13.574 14.079 12.486 8.894 8.114 6.036 5.031 4.549 4.391 5.269 5.124 4.934 6.166 3.684 3.234 3.174 3.341 3.281 3.241 3.254 3.424 4.406 4.891 4.356 4.166 4.329 4.476 4.324 3.989 3.491 3.276 3.134 2.961 2.786 2.554 2.331 2.169 2.039 1.894 1.771 1.702 1.566 1.452 1.309 1.276 1.384 1.305 1.215 1.211 0.909 0.617 -0.031 -0.039 -0.041 0.019 -0.111 -0.119 -0.186 0.318 0.781 0.771 0.776 0.835 0.871 0.91 0.929 0.942 0.954 0.978 0.99 0.997 0.989 0.98 0.924 0.905 0.851 0.779 0.737 0.716 0.71 0.685 0.642 0.577 0.495 0.512 0.509 0.494 0.481 0.496 0.479 0.474 0.439 0.459 0.469 0.459 0.434 0.416 0.434 0.426 0.401 0.356 0.389 0.434 0.456 0.456 0.461 0.444 0.469 0.459 0.446 0.454 0.454
76.581 76.554 76.554 76.491 76.466 76.484 76.486 76.516 76.586 76.671 76.694 76.644 76.524 76.281 76.071 75.884 75.751 75.696 75.774 75.936 76.114 76.064 76.126 76.024 75.986 75.996 75.879 75.746 75.731 75.709 75.346 74.086 71.819 69.636 68.521 68.346 65.676 64.711 65.131 66.514 64.514 64.104 63.979 63.779 64.751 64.601 64.484 63.886 63.494 62.924 62.834 62.864 62.986 62.956 62.781 62.464 62.349 62.669 62.834 63.909 63.434 64.429 65.756 67.991 65.849 64.721 64.719 65.054 66.659 65.561 64.901 64.684 64.786 64.431 64.351 64.636 64.286 64.334 65.249 64.164 67.846 66.691 65.181 65.051 64.726 64.936 65.666 65.091 64.484 64.736 64.649 64.321 63.526 64.209 63.951 63.879 64.744 65.541 65.511 65.949 68.041 67.439 67.289 67.766 68.254 68.389 67.996 67.664 67.336 67.121 66.934 67.489 68.574 69.091 68.731 68.289 68.374 69.724 70.869 71.619 69.886 67.519 66.591 67.309 67.726 65.744 66.764 70.514 66.149 64.391 67.289 69.811 70.396 68.841 62.909 62.621 62.364 62.091 61.846 61.561 61.354 61.084 60.864 60.604 60.391 60.131 59.901 59.699 59.461 59.261 59.039 58.821 58.594 58.396 58.169 58.014 57.776 57.534 57.381 57.184 56.984 56.749 56.516 56.219 55.969 55.706 55.509 55.254 55.011 54.756 54.471 54.201 53.969 53.636 53.369 53.089 52.809 52.464 52.139 51.826 51.599 51.384 51.124 50.899 50.676 50.459 50.189 49.919 49.666 49.381 49.111 48.829 48.579 48.344 48.069 47.804 47.559 47.334 47.069 46.799 46.599 46.456 46.261 46.231 46.971 45.979 44.704 44.939 45.281 44.911 46.326 45.556 44.289 44.396 43.271 42.249 43.111 43.801 44.034 44.851 47.704 47.669 47.254 45.829 42.276 40.379 40.426 40.406 40.939 44.001 40.131 37.916 37.356 37.664 37.334 36.616 36.589 37.211 37.319 37.581 36.626 35.161 34.839 34.566 34.366 34.339 37.194 39.476 38.536 36.659 35.716 35.104 33.769 34.304 34.039 33.389 32.586 32.561 33.169 33.234 33.009 33.001 32.521 31.049 29.819 29.754 29.386 28.991 28.701 28.576 27.706 28.191 27.901 29.426 29.056 29.704 29.731 28.694 28.274 27.214 27.329 26.939 26.764 26.379 25.809 25.621 25.514 26.781 29.506 29.816 30.344 31.164 30.474 30.914 30.614 29.854 29.966 28.146 22.596 22.394 22.261 20.699 20.454 19.614 19.169 19.169 19.249 19.311 19.251 19.984 19.754 19.561 20.541 22.196 20.251 19.034 19.606 18.639 19.111 19.241 19.429 19.971 21.509 17.421 17.561 16.644 16.069 15.889 15.824 15.786 15.504 14.766 14.531 14.436 14.314 14.054 13.779 13.706 13.624 14.154 12.744 9.344 8.966 9.244 5.919 5.231 3.996 4.156 5.536 6.954 5.014 4.474 3.186 3.204 3.256 3.266 3.269 3.276 3.406 4.574 4.601 4.851 4.466 4.476 4.561 4.319 3.986 3.541 3.261 3.149 2.941 2.744 2.519 2.304 2.071 1.906 1.826 1.641 1.562 1.481 1.447 1.271 1.296 1.494 1.275 1.249 1.036 0.985 0.163 -0.046 0.001 -0.046 -0.034 -0.054 -0.054 -0.039 0.43 0.765 0.781 0.817 0.878 0.863 0.886 0.96 0.95 0.934 0.945 1.015 1.024 1.016 0.983 0.945 0.876 0.814 0.755 0.712 0.716 0.697 0.656 0.615 0.568 0.517 0.481 0.509 0.496 0.494 0.476 0.479 0.464 0.479 0.464 0.464 0.441 0.431 0.424 0.421 0.406 0.406 0.406 0.411 0.344 0.411 0.436 0.446 0.436 0.451 0.476 0.489 0.476 0.479 0.476
76.289 76.319 76.304 76.309 76.236 76.149 76.096 76.079 76.099 76.114 76.221 76.051 75.894 75.706 75.561 75.496 75.564 75.694 75.741 75.714 75.736 75.746 75.676 75.659 75.659 75.584 75.361 75.166 75.169 74.216 72.944 71.926 70.919 69.396 67.946 67.151 65.919 64.086 63.661 64.684 63.601 63.644 63.436 64.346 63.559 64.099 63.959 63.226 63.964 63.509 63.039 62.579 62.909 63.054 62.694 62.721 62.541 62.674 62.366 62.539 62.806 63.686 63.809 66.359 68.246 66.676 64.881 64.581 65.201 66.029 65.886 65.904 66.661 65.216 63.949 63.716 63.809 64.246 66.104 63.624 63.944 64.324 64.529 64.441 64.364 64.496 64.504 64.159 64.016 64.629 64.829 64.571 63.641 63.236 63.631 63.936 64.969 63.936 64.276 65.564 65.111 66.954 68.521 68.274 67.454 67.979 70.056 69.211 67.254 66.966 66.764 66.586 66.834 67.626 68.861 68.476 68.276 71.981 70.499 70.544 69.536 67.776 66.364 67.171 65.909 65.341 66.891 69.321 67.861 64.974 64.861 67.401 69.074 65.109 62.789 62.539 62.294 62.021 61.751 61.436 61.246 60.994 60.791 60.536 60.291 60.079 59.851 59.611 59.404 59.186 58.991 58.734 58.494 58.329 58.119 57.941 57.726 57.556 57.346 57.151 56.936 56.689 56.426 56.139 55.894 55.649 55.446 55.161 54.944 54.704 54.404 54.131 53.869 53.579 53.281 53.004 52.736 52.379 52.069 51.786 51.541 51.301 51.069 50.841 50.626 50.374 50.129 49.861 49.599 49.339 49.079 48.791 48.544 48.284 48.024 47.761 47.536 47.319 47.036 46.809 46.586 46.396 46.264 46.201 47.174 48.124 44.609 44.714 44.616 45.489 46.854 44.839 44.491 44.496 43.604 43.151 43.806 44.186 46.036 47.124 47.921 47.654 47.941 47.594 41.241 40.274 40.206 40.119 41.186 40.586 38.766 37.516 37.401 37.294 36.634 36.689 36.639 36.901 37.346 39.134 39.884 38.361 35.994 34.721 34.251 33.919 33.644 33.864 34.426 36.114 35.716 33.381 33.361 33.669 33.721 33.531 32.429 32.346 33.084 33.036 33.031 32.449 32.221 30.601 30.711 29.826 30.779 29.256 28.909 27.936 29.004 30.384 29.621 30.871 30.594 30.149 28.066 26.679 26.486 26.114 26.284 25.599 25.261 25.874 26.086 25.841 25.034 24.281 25.341 27.086 29.724 30.379 30.974 31.186 30.949 30.539 30.081 24.481 22.479 22.371 20.949 19.169 19.179 19.109 19.019 19.099 19.179 19.171 19.194 19.269 19.731 19.489 19.791 20.721 19.289 19.509 20.801 20.639 20.356 19.671 18.914 18.971 19.219 17.726 17.189 16.306 15.904 15.806 15.726 15.574 15.079 15.296 14.439 14.234 14.026 13.766 13.566 13.786 14.231 11.781 8.976 7.771 7.056 7.814 4.199 3.761 4.049 5.416 5.569 5.976 3.939 3.224 3.214 3.294 3.251 3.254 3.236 3.314 4.241 5.516 5.119 5.001 4.544 4.644 4.594 4.134 3.509 3.304 3.151 2.906 2.646 2.416 2.171 1.986 1.95 1.78 1.675 1.566 1.402 1.434 1.325 1.407 1.524 1.341 1.166 1.067 0.839 0.022 -0.046 -0.031 -0.059 -0.046 -0.049 -0.051 -0.044 0.816 0.803 0.822 0.854 0.894 0.891 0.908 0.939 0.99 0.991 0.978 1.007 1.001 0.999 0.974 0.943 0.866 0.761 0.704 0.712 0.675 0.658 0.666 0.638 0.569 0.559 0.529 0.476 0.461 0.466 0.479 0.466 0.484 0.476 0.494 0.466 0.451 0.421 0.436 0.414 0.426 0.404 0.411 0.414 0.406 0.351 0.381 0.411 0.424 0.434 0.474 0.504 0.489 0.461 0.461 0.476
75.956 75.966 75.971 76.004 75.999 76.811 77.251 75.689 75.571 75.521 75.489 75.406 75.306 75.246 75.261 75.424 75.666 77.226 75.641 75.404 75.376 75.329 75.336 75.356 75.316 75.139 74.939 74.941 75.269 73.046 71.689 70.756 69.789 68.301 66.564 65.399 65.076 64.304 62.909 63.646 61.771 62.609 63.156 62.959 63.211 63.091 62.414 62.319 62.696 63.239 63.141 62.739 63.041 63.084 62.886 63.246 63.014 62.711 62.474 62.601 63.616 64.724 66.841 68.264 66.969 68.086 65.404 64.559 65.056 65.614 66.811 65.369 65.956 64.411 64.026 63.729 64.191 63.661 63.581 64.909 63.731 65.254 65.056 64.674 65.066 64.126 63.799 63.719 64.431 64.176 64.226 64.256 64.444 63.231 62.919 62.971 62.851 63.816 63.829 64.336 65.014 65.611 67.509 68.434 65.479 67.836 70.661 69.986 68.944 68.276 66.751 66.439 66.224 66.081 66.056 66.766 66.206 68.929 68.676 68.409 67.524 66.284 65.576 65.706 65.141 65.061 67.049 68.139 67.409 65.906 66.456 67.884 65.776 63.459 62.699 62.401 62.179 61.926 61.666 61.389 61.169 60.914 60.686 60.486 60.256 59.994 59.801 59.504 59.346 59.141 58.939 58.661 58.471 58.264 58.046 57.846 57.696 57.536 57.326 57.104 56.896 56.619 56.341 56.069 55.796 55.566 55.321 55.094 54.914 54.614 54.344 54.081 53.816 53.514 53.211 52.934 52.644 52.311 51.996 51.701 51.469 51.244 51.011 50.776 50.556 50.316 50.064 49.821 49.556 49.276 49.031 48.746 48.491 48.239 47.959 47.709 47.474 47.284 47.019 46.769 46.549 46.344 46.219 46.199 47.054 46.286 45.139 44.834 46.011 45.401 45.704 43.754 43.899 43.751 43.176 42.989 43.306 45.109 46.731 47.191 47.659 47.949 48.109 47.511 42.051 40.256 40.184 40.214 40.874 39.789 38.259 37.401 38.094 36.779 36.596 36.666 36.534 36.559 37.891 40.059 40.821 40.264 39.309 37.841 37.309 34.599 33.594 33.201 32.914 32.811 32.794 32.584 32.491 32.716 32.674 32.719 31.941 32.756 33.479 32.974 32.706 32.121 31.786 30.479 30.859 29.981 30.741 29.349 27.924 27.346 28.524 30.491 30.906 31.429 30.949 29.719 26.636 26.551 26.206 26.076 25.939 25.224 25.019 24.971 25.566 25.971 25.841 24.884 24.704 23.931 24.314 25.504 26.294 26.811 29.756 30.814 30.439 23.064 22.349 22.384 20.394 19.109 19.051 18.949 18.954 19.044 19.044 19.051 19.151 19.156 19.081 18.956 18.836 18.666 18.541 19.979 20.891 21.076 21.206 21.069 20.889 22.006 22.029 17.596 16.666 16.926 16.966 16.606 16.154 15.436 14.734 15.519 14.184 14.004 13.731 13.479 13.471 13.051 11.944 9.719 9.011 6.061 5.679 4.791 3.676 4.331 5.719 6.439 5.311 4.884 3.334 3.234 3.314 3.256 3.259 3.584 3.404 4.751 5.579 4.914 4.204 4.674 4.719 4.659 4.271 3.544 3.214 3.111 2.924 2.599 2.324 2.031 1.786 1.834 1.744 1.563 1.504 1.523 1.424 1.319 1.381 1.304 1.202 1.098 1.301 0.464 0.044 -0.039 -0.046 -0.049 -0.056 -0.054 -0.061 0.035 0.815 0.832 0.881 0.92 0.908 0.95 0.942 0.996 0.994 1.004 1.015 1.015 1.009 0.996 0.972 0.895 0.788 0.712 0.681 0.664 0.661 0.665 0.644 0.642 0.616 0.594 0.566 0.529 0.494 0.489 0.499 0.511 0.489 0.479 0.484 0.494 0.451 0.439 0.434 0.434 0.424 0.406 0.399 0.436 0.411 0.401 0.394 0.366 0.399 0.414 0.429 0.479 0.484 0.489 0.459 0.499 0.449
75.574 75.584 75.594 75.591 76.574 77.409 76.826 75.246 75.194 75.126 75.001 74.929 74.991 75.124 75.126 75.174 75.444 75.589 75.211 75.184 75.194 75.041 75.024 75.021 74.939 74.746 74.679 74.951 75.166 73.091 71.351 69.446 68.174 66.964 65.951 64.824 63.641 62.774 62.206 62.174 61.699 62.339 62.779 62.569 62.419 62.366 62.211 62.191 62.264 62.161 62.691 62.659 63.086 62.851 62.494 62.294 62.371 63.259 64.391 63.531 64.389 65.621 65.891 65.819 65.274 66.394 64.821 64.186 65.801 63.256 63.874 63.869 63.904 63.514 65.221 64.714 64.166 64.204 63.529 64.474 63.524 64.564 65.046 64.221 64.516 63.909 64.126 63.476 63.566 63.464 63.706 64.136 63.941 63.474 63.804 62.996 63.581 63.356 64.149 66.376 66.101 63.651 65.011 64.456 65.069 65.754 67.909 67.671 68.641 69.316 68.871 66.619 66.074 65.946 65.746 65.639 65.924 67.431 68.784 68.551 65.924 65.826 66.486 66.136 64.954 64.724 65.356 65.649 68.054 66.879 66.996 69.424 64.699 63.389 62.599 62.369 62.116 61.811 61.604 61.379 61.086 60.819 60.601 60.404 60.156 59.884 59.664 59.444 59.256 59.044 58.841 58.629 58.411 58.191 57.981 57.799 57.629 57.426 57.231 57.031 56.816 56.546 56.259 55.984 55.716 55.479 55.254 55.009 54.844 54.544 54.296 54.041 53.734 53.451 53.149 52.861 52.609 52.256 51.926 51.664 51.419 51.181 50.944 50.716 50.501 50.269 49.969 49.746 49.486 49.204 48.956 48.686 48.454 48.186 47.916 47.676 47.434 47.239 46.966 46.701 46.486 46.309 46.226 47.011 46.686 45.211 45.729 45.489 44.951 44.156 44.051 43.636 43.489 43.351 42.914 42.866 43.656 45.716 46.946 46.966 46.806 46.979 47.264 45.101 41.704 40.391 40.471 40.446 40.174 39.044 37.561 36.994 36.774 36.676 36.579 37.459 37.074 36.671 38.854 40.481 41.009 40.004 39.084 39.254 39.381 38.329 35.509 33.951 32.934 33.251 32.606 32.149 32.169 31.919 31.854 31.521 32.306 33.796 33.109 32.314 31.846 31.531 31.609 30.491 29.911 30.171 29.769 28.744 28.171 27.436 28.789 30.576 31.379 31.029 30.179 27.594 26.579 26.266 25.859 25.816 25.354 25.196 25.041 24.479 24.319 26.021 25.456 24.389 25.314 23.389 23.956 24.694 24.109 23.171 23.024 24.394 26.056 22.871 22.419 22.031 19.946 19.859 19.039 18.836 18.894 18.986 18.981 19.029 19.196 19.171 19.029 18.909 18.746 18.549 18.511 18.344 19.281 19.549 20.136 20.609 21.219 22.386 22.089 17.744 18.219 15.319 15.129 15.171 15.466 15.511 15.819 15.219 14.381 13.871 13.771 13.456 13.791 11.641 9.316 8.286 10.319 5.614 4.656 4.704 4.489 6.134 7.104 5.819 4.994 3.814 3.266 3.341 3.261 3.229 3.221 3.466 5.311 7.209 5.864 4.594 4.604 5.094 4.754 4.196 3.571 3.181 3.004 2.849 2.579 2.219 1.936 1.714 1.645 1.592 1.506 1.436 1.321 1.391 1.424 1.381 1.208 1.326 0.854 1.031 0.364 -0.056 -0.061 -0.054 -0.066 -0.056 -0.054 -0.037 0.762 0.836 0.817 0.874 0.925 0.954 0.963 1.012 1.035 1.039 1.015 1.019 1.027 1.005 0.966 0.948 0.87 0.781 0.705 0.631 0.651 0.653 0.652 0.625 0.605 0.597 0.594 0.586 0.569 0.556 0.519 0.534 0.526 0.506 0.496 0.501 0.481 0.481 0.476 0.439 0.411 0.411 0.426 0.404 0.414 0.399 0.409 0.424 0.404 0.394 0.381 0.429 0.439 0.454 0.441 0.489 0.466 0.499 0.471
75.289 75.251 75.234 75.229 75.096 74.916 74.724 74.709 74.564 74.549 74.606 74.834 74.951 74.914 74.791 74.809 74.854 74.816 74.811 74.811 74.729 74.734 74.729 74.641 74.534 74.414 74.399 74.356 74.419 72.636 70.939 69.019 67.739 66.509 65.976 64.994 63.269 62.529 61.939 61.736 61.706 62.124 62.441 62.439 62.356 62.271 62.144 62.081 62.004 62.026 62.219 62.304 62.234 62.244 62.686 62.879 62.274 62.164 63.349 63.131 63.249 64.166 63.396 63.346 64.046 64.929 64.104 64.279 65.796 65.251 63.739 64.164 63.246 62.666 63.209 63.634 63.556 64.644 66.934 64.046 63.211 64.116 63.979 64.886 64.619 64.039 63.526 63.794 63.204 63.124 63.914 64.074 63.816 62.786 63.781 64.481 64.281 63.531 64.724 68.689 67.376 63.311 65.446 65.306 64.069 64.294 65.424 66.926 67.264 69.251 69.686 68.751 66.454 65.789 65.564 65.434 65.286 66.366 68.486 69.254 66.914 66.136 66.064 65.254 64.766 65.004 67.149 69.374 66.469 67.131 69.921 68.579 65.359 62.889 62.531 62.236 61.951 61.689 61.469 61.316 61.016 60.719 60.544 60.316 60.049 59.844 59.619 59.401 59.216 58.951 58.784 58.546 58.319 58.124 57.954 57.779 57.569 57.361 57.166 56.999 56.729 56.486 56.189 55.926 55.641 55.391 55.146 54.956 54.736 54.476 54.204 53.929 53.644 53.374 53.051 52.814 52.551 52.199 51.896 51.616 51.369 51.124 50.899 50.659 50.434 50.201 49.951 49.694 49.421 49.156 48.889 48.611 48.374 48.106 47.871 47.599 47.374 47.184 46.911 46.696 46.461 46.301 46.236 46.291 46.199 44.536 45.719 44.359 45.311 44.996 44.166 43.989 43.629 43.219 42.746 43.036 43.009 41.921 47.331 48.001 47.714 47.349 46.911 42.151 41.171 41.146 40.856 40.816 40.119 38.049 37.389 36.759 36.714 36.601 36.651 36.576 36.576 37.581 39.681 40.801 40.599 39.456 37.296 37.259 38.846 38.434 36.491 36.144 35.596 35.196 32.636 32.261 31.859 31.429 31.184 31.046 32.664 33.961 32.606 31.309 31.806 31.951 31.754 29.796 29.471 29.521 29.361 28.584 28.204 28.479 27.529 29.626 30.734 30.209 27.849 27.426 26.656 25.936 25.771 26.061 25.266 25.186 24.876 24.174 24.934 26.981 27.519 26.421 24.189 23.336 23.364 22.841 23.921 23.996 23.584 22.806 21.844 21.641 21.431 22.194 20.951 19.536 18.761 18.741 18.834 18.859 18.889 19.774 20.596 20.004 19.006 19.601 19.131 18.489 18.144 18.634 18.851 17.679 17.614 17.769 21.299 22.509 21.514 16.689 16.034 15.136 15.041 14.931 14.421 14.289 14.281 14.121 14.354 14.894 14.861 13.674 12.466 9.641 7.611 6.799 6.819 6.366 5.379 5.374 6.251 6.251 6.781 5.604 3.626 3.246 3.291 3.229 3.209 3.211 3.294 4.494 5.024 5.769 4.754 4.711 4.894 4.916 4.284 3.414 3.129 2.984 2.746 2.466 2.141 1.851 1.646 1.607 1.583 1.403 1.314 1.367 1.314 1.442 1.401 1.242 0.976 0.608 0.551 -0.036 -0.051 -0.069 -0.051 -0.064 -0.066 -0.061 0.145 0.811 0.842 0.895 0.911 0.928 0.997 0.996 1.034 1.063 1.035 1.031 1.015 0.992 0.994 0.969 0.896 0.819 0.762 0.683 0.637 0.604 0.622 0.607 0.572 0.582 0.581 0.576 0.569 0.584 0.564 0.586 0.591 0.574 0.499 0.491 0.479 0.479 0.464 0.474 0.464 0.431 0.439 0.424 0.411 0.416 0.411 0.424 0.414 0.406 0.391 0.409 0.391 0.401 0.436 0.421 0.444 0.471 0.466 0.476 0.461
75.266 74.909 74.731 74.471 74.289 74.246 74.286 74.114 74.169 74.409 74.751 74.829 74.654 74.536 74.434 74.441 74.466 74.441 74.404 74.381 74.434 74.436 74.409 74.306 74.181 74.131 74.064 74.004 74.119 72.286 70.659 69.286 68.354 66.471 66.441 64.534 63.729 62.264 61.786 61.609 61.759 62.174 62.331 62.369 62.309 62.256 62.146 62.004 62.009 62.209 62.531 63.111 62.891 62.919 63.619 64.446 64.609 63.051 61.976 61.846 61.869 62.824 63.161 63.001 62.866 63.631 63.001 64.764 65.694 63.671 63.341 62.439 62.129 61.871 62.004 62.516 62.446 62.416 63.256 64.131 62.719 62.811 63.104 63.556 64.879 62.719 62.661 64.641 63.889 63.229 62.974 62.956 62.846 62.411 62.861 62.549 64.011 62.791 62.924 65.086 64.421 62.809 62.881 65.281 67.114 66.836 64.861 66.206 66.944 67.874 68.851 68.159 67.724 67.346 65.594 65.171 65.051 65.119 66.089 67.724 67.329 65.526 64.819 64.791 65.624 67.071 68.411 65.629 65.324 68.289 66.834 65.704 65.329 63.361 62.369 62.144 61.799 61.591 61.349 61.144 60.876 60.619 60.456 60.224 59.974 59.819 59.571 59.364 59.154 58.911 58.709 58.499 58.281 58.079 57.899 57.736 57.509 57.321 57.096 56.896 56.671 56.396 56.099 55.801 55.556 55.331 55.044 54.886 54.644 54.359 54.106 53.821 53.541 53.286 52.991 52.756 52.449 52.141 51.816 51.569 51.299 51.076 50.831 50.614 50.384 50.154 49.896 49.636 49.341 49.106 48.836 48.574 48.306 48.029 47.789 47.551 47.314 47.116 46.849 46.631 46.439 46.304 46.246 46.101 45.181 44.354 44.336 44.301 44.159 44.326 43.691 45.686 45.146 44.351 43.534 42.836 42.506 42.016 44.981 47.021 47.936 48.106 47.934 41.284 40.446 40.179 40.159 39.456 38.991 37.634 37.001 36.726 36.676 36.589 36.764 36.601 36.366 38.419 40.229 40.971 40.151 38.426 36.831 34.906 34.274 34.931 36.119 36.161 35.104 33.206 33.189 32.764 32.284 31.996 31.086 30.744 30.666 31.329 30.971 30.029 30.021 29.824 30.026 29.464 29.369 29.129 28.741 28.479 28.691 28.984 28.681 27.636 28.924 27.339 26.756 26.586 26.044 25.764 25.816 25.974 25.394 25.324 24.604 24.026 26.141 27.314 27.404 26.689 25.981 23.144 24.004 22.771 22.144 22.726 22.339 23.014 22.026 21.469 20.944 21.491 19.224 18.806 18.644 18.686 18.784 18.799 18.819 20.231 20.836 20.764 20.361 20.414 19.229 18.476 18.416 18.751 18.239 17.494 17.254 17.741 21.686 22.479 20.126 15.904 15.814 15.039 14.841 14.429 14.336 14.261 14.376 13.709 13.804 14.366 13.666 12.549 11.956 10.544 7.296 6.591 7.329 6.564 6.084 5.679 6.464 5.631 4.591 3.441 3.301 3.296 3.221 3.401 3.611 3.269 4.306 5.196 5.284 4.964 4.786 4.794 4.481 3.779 3.451 3.034 2.869 2.694 2.371 2.061 1.811 1.569 1.584 1.52 1.436 1.28 1.337 1.454 1.329 1.371 1.084 0.719 0.772 -0.059 -0.066 -0.064 -0.044 -0.056 -0.056 -0.059 -0.062 0.784 0.89 0.825 0.879 0.929 0.943 0.986 1.014 1.031 1.022 0.998 1.009 1.019 0.989 0.984 0.964 0.873 0.767 0.743 0.707 0.683 0.633 0.625 0.627 0.619 0.583 0.586 0.591 0.586 0.556 0.571 0.596 0.586 0.579 0.546 0.544 0.526 0.496 0.451 0.449 0.464 0.454 0.444 0.424 0.434 0.416 0.431 0.429 0.441 0.429 0.414 0.401 0.409 0.379 0.401 0.429 0.444 0.449 0.479 0.466 0.456 0.459
75.191 74.254 73.939 73.939 73.801 73.674 73.689 73.951 74.331 74.581 74.631 74.434 74.251 74.196 74.194 74.189 74.169 74.124 74.059 74.081 74.141 74.131 74.061 73.949 73.866 73.814 73.786 73.761 73.156 72.041 70.521 69.051 67.824 66.234 64.961 63.766 62.679 62.086 61.836 61.769 62.076 62.216 62.249 62.271 62.236 62.229 62.096 62.006 62.249 63.021 63.899 63.274 62.704 64.709 64.304 63.004 64.664 63.824 63.509 63.146 61.866 61.989 62.466 61.769 61.854 61.919 61.916 63.321 63.014 62.721 63.986 63.476 61.961 61.466 61.786 61.959 61.566 62.986 62.051 64.621 62.921 62.514 63.999 62.844 62.591 62.404 62.484 63.181 64.661 63.879 63.494 62.924 62.681 62.139 62.096 62.359 63.574 63.036 62.509 62.389 65.086 62.504 62.624 64.699 63.441 65.204 64.956 65.399 67.636 67.576 68.124 67.589 67.549 67.534 66.596 65.009 64.801 64.676 64.511 64.354 64.719 66.124 65.524 65.644 65.094 65.934 66.399 64.719 65.379 65.461 65.484 63.819 63.104 62.616 62.251 62.006 61.684 61.501 61.251 61.009 60.771 60.511 60.319 60.114 59.874 59.719 59.506 59.291 59.069 58.834 58.659 58.466 58.246 58.034 57.866 57.699 57.424 57.236 57.056 56.819 56.601 56.324 56.014 55.721 55.464 55.254 55.001 54.784 54.564 54.304 54.036 53.749 53.456 53.189 52.919 52.661 52.374 52.084 51.771 51.509 51.254 51.039 50.761 50.571 50.344 50.091 49.834 49.594 49.309 49.066 48.784 48.514 48.276 48.004 47.751 47.514 47.269 47.044 46.781 46.581 46.441 46.319 46.226 46.404 45.331 44.319 44.594 44.869 44.161 44.044 43.704 43.194 43.376 42.824 42.931 42.919 41.911 41.714 41.289 41.571 44.401 45.454 45.054 40.431 40.406 40.306 40.181 40.476 38.394 37.459 36.769 36.714 36.629 37.499 36.589 36.546 36.181 39.196 40.444 40.581 39.681 37.636 36.144 34.846 34.721 34.139 34.441 35.579 33.609 33.731 33.244 32.656 32.201 32.224 31.771 31.199 30.581 30.241 29.956 29.824 29.739 29.629 29.524 29.701 29.789 29.031 28.739 28.439 29.449 28.874 28.691 27.604 27.904 26.716 26.456 26.154 25.909 25.679 26.476 25.464 25.129 24.941 24.231 25.429 26.764 27.531 27.119 26.574 23.906 23.401 23.166 22.306 22.249 21.774 21.701 21.434 21.266 21.044 20.894 21.289 19.646 18.636 18.569 18.619 18.699 18.706 19.106 20.911 19.141 20.574 20.734 20.359 20.446 19.726 18.871 19.559 19.716 17.829 17.451 17.399 19.419 20.194 17.059 15.816 15.176 15.001 14.646 14.296 14.231 14.336 13.686 13.381 14.331 14.431 12.229 9.886 8.209 8.429 6.704 6.649 6.951 6.464 6.771 6.016 5.634 4.271 3.221 3.284 3.351 3.209 3.286 3.746 3.504 4.134 5.216 5.399 5.319 5.226 4.851 4.489 3.691 3.231 3.011 2.781 2.511 2.261 1.971 1.749 1.536 1.42 1.596 1.477 1.463 1.441 1.403 1.352 1.039 0.932 0.623 -0.054 -0.061 -0.054 -0.061 -0.059 -0.049 -0.056 -0.046 0.08 0.754 0.867 0.864 0.929 0.947 0.961 0.991 1.036 1.044 1.026 0.969 0.987 0.993 0.981 0.947 0.93 0.836 0.755 0.737 0.719 0.686 0.665 0.623 0.622 0.619 0.601 0.589 0.579 0.579 0.581 0.584 0.581 0.571 0.564 0.564 0.579 0.566 0.544 0.514 0.464 0.461 0.451 0.454 0.444 0.449 0.446 0.419 0.431 0.419 0.434 0.411 0.431 0.411 0.411 0.396 0.376 0.426 0.451 0.454 0.429 0.436 0.471 0.474
75.074 73.556 73.496 73.404 73.271 73.414 73.794 74.176 74.324 74.319 74.296 73.969 73.904 73.854 73.906 73.896 73.866 73.846 73.816 73.821 73.826 73.789 73.704 73.611 73.581 73.536 73.514 73.571 72.884 71.734 70.536 69.061 66.841 65.621 63.951 62.776 62.309 62.149 62.036 62.089 62.169 62.244 62.251 62.226 62.179 62.214 62.104 61.981 62.009 62.726 63.436 63.111 63.574 65.729 66.341 65.104 66.086 62.926 65.951 63.629 62.239 62.544 63.134 62.536 62.259 61.699 61.639 61.761 62.341 62.309 64.459 63.649 64.419 62.484 62.656 61.444 61.184 61.156 62.701 62.606 61.981 63.931 63.176 62.414 61.974 62.631 62.369 63.001 64.611 63.876 65.501 64.209 62.716 62.269 62.884 62.936 63.606 63.524 63.269 61.826 61.764 61.934 62.104 62.904 62.364 62.774 63.196 64.914 65.751 65.084 65.691 65.516 65.836 66.421 66.641 65.641 64.981 64.384 64.296 64.129 64.749 67.806 66.639 65.506 65.881 67.206 65.429 64.064 64.731 64.191 65.741 64.811 66.119 64.389 62.059 61.834 61.561 61.376 61.116 60.896 60.661 60.389 60.189 59.981 59.804 59.629 59.404 59.174 58.936 58.764 58.634 58.394 58.164 57.946 57.749 57.576 57.356 57.151 56.961 56.736 56.531 56.229 55.939 55.674 55.381 55.174 54.919 54.694 54.461 54.176 53.946 53.679 53.376 53.096 52.841 52.599 52.276 51.996 51.711 51.476 51.189 50.979 50.711 50.501 50.274 50.031 49.799 49.529 49.264 49.004 48.699 48.451 48.221 47.934 47.704 47.471 47.231 47.019 46.739 46.546 46.421 46.284 46.249 47.794 49.081 45.824 44.334 44.079 43.899 43.696 43.589 43.079 42.776 42.349 42.154 42.064 42.339 45.266 45.886 42.481 43.171 42.474 40.621 40.489 40.451 40.514 40.149 40.096 37.774 37.346 36.861 36.676 36.589 38.116 39.664 37.251 37.229 38.401 39.411 39.864 39.094 34.734 34.264 34.184 34.224 34.566 34.089 33.844 33.136 33.441 33.019 32.301 31.949 31.964 31.521 31.379 31.329 31.304 31.656 30.351 29.619 29.599 30.279 30.994 30.231 28.389 28.074 27.851 27.564 28.154 28.204 27.344 27.899 27.339 26.236 25.959 25.709 26.706 25.999 25.029 24.769 24.566 24.491 26.266 27.104 27.489 26.801 26.371 23.441 22.496 22.236 21.954 21.819 21.696 21.466 21.194 21.034 20.854 21.421 20.354 18.826 18.449 18.529 18.579 18.611 18.634 20.016 19.984 19.076 21.374 21.929 21.564 21.141 19.906 18.791 18.869 19.311 17.149 17.834 17.626 17.249 16.066 15.899 15.851 15.216 14.869 14.511 14.229 13.974 13.659 13.356 13.434 13.686 13.079 10.639 8.591 7.264 6.509 7.259 7.276 7.009 6.964 6.509 5.441 4.441 3.191 3.249 3.286 3.239 3.214 3.321 3.611 5.006 4.424 4.806 5.106 5.549 5.181 4.561 3.806 3.241 2.959 2.721 2.401 2.126 1.866 1.659 1.484 1.545 1.511 1.574 1.503 1.482 1.28 1.274 0.954 0.841 0.512 -0.051 -0.061 -0.049 -0.064 -0.059 -0.051 -0.059 -0.06 0.582 0.78 0.896 0.952 0.991 0.966 0.995 1.01 1.048 1.087 1.047 1.001 0.993 0.974 0.943 0.961 0.882 0.798 0.756 0.77 0.739 0.697 0.659 0.604 0.6 0.588 0.586 0.581 0.574 0.609 0.596 0.561 0.596 0.586 0.579 0.591 0.594 0.591 0.566 0.574 0.569 0.541 0.489 0.459 0.459 0.474 0.459 0.469 0.469 0.431 0.439 0.416 0.391 0.386 0.414 0.424 0.404 0.384 0.381 0.421 0.449 0.431 0.416 0.461 0.494
73.509 73.199 73.006 73.031 73.281 73.656 73.861 73.941 73.981 73.886 73.669 73.469 73.854 73.609 73.591 73.554 73.521 73.529 73.529 73.519 73.471 73.439 73.361 73.291 73.281 73.231 73.234 73.271 72.714 71.464 70.721 70.131 66.841 65.726 65.316 63.141 62.379 62.401 62.274 62.239 62.316 62.421 62.639 62.554 62.466 63.054 62.909 62.746 62.721 62.444 63.111 63.849 64.399 65.979 66.141 66.556 66.576 65.279 64.679 62.351 62.429 62.754 62.796 62.301 61.704 61.754 63.694 61.884 61.671 61.359 62.574 64.844 66.796 65.486 63.511 62.006 61.771 61.971 62.076 61.771 61.684 61.124 60.644 61.809 62.599 62.059 63.346 63.614 63.684 63.016 66.211 64.931 62.979 62.091 62.064 63.384 62.476 62.226 61.909 61.759 62.331 62.846 61.576 61.786 61.781 61.704 61.939 64.654 64.371 63.636 64.129 65.194 66.086 65.469 65.259 65.229 67.239 64.324 64.016 63.899 63.739 65.734 67.651 67.479 67.964 67.979 66.811 63.774 63.531 63.761 66.606 67.091 66.426 62.601 61.911 61.679 61.459 61.191 60.956 60.744 60.486 60.289 60.091 59.876 59.691 59.509 59.271 59.084 58.884 58.681 58.506 58.296 58.071 57.859 57.686 57.471 57.276 57.124 56.936 56.696 56.464 56.151 55.871 55.571 55.321 55.124 54.871 54.606 54.396 54.124 53.824 53.561 53.291 53.019 52.764 52.491 52.269 51.941 51.639 51.374 51.119 50.899 50.656 50.441 50.219 49.966 49.726 49.451 49.169 48.939 48.639 48.391 48.139 47.881 47.649 47.414 47.196 46.986 46.721 46.496 46.394 46.271 46.221 47.196 48.241 46.816 44.971 44.079 43.846 43.601 43.571 43.016 42.681 42.889 44.081 43.364 43.306 47.826 48.679 47.561 46.399 43.594 41.151 40.796 40.344 40.786 40.179 39.081 37.529 38.064 37.059 36.606 36.606 37.274 37.804 41.161 41.444 39.079 37.231 38.256 36.934 35.624 34.256 34.169 34.104 34.011 33.869 33.766 33.664 33.551 32.844 32.109 31.879 31.649 31.309 31.216 30.899 30.589 30.991 33.429 30.419 29.929 31.759 30.731 30.351 28.396 28.041 27.809 27.456 27.136 26.931 26.811 28.336 27.889 27.121 26.414 25.621 25.666 25.319 24.814 24.641 24.436 25.114 26.686 27.441 27.279 26.569 24.679 22.631 22.361 21.914 21.714 21.939 21.461 21.189 21.061 20.851 20.811 20.964 19.561 18.461 18.399 18.434 18.511 18.491 18.676 20.549 18.799 18.989 20.999 21.614 21.949 21.999 21.784 21.389 20.039 19.171 17.376 17.199 16.591 16.491 15.996 16.286 15.339 14.481 14.281 14.364 13.894 13.404 13.349 14.511 15.596 13.051 10.771 9.291 8.374 6.304 5.654 6.164 6.586 6.716 6.876 6.386 4.664 3.231 3.236 3.244 3.231 3.191 3.276 3.406 4.091 6.226 4.086 4.669 5.089 4.761 4.281 3.539 3.169 2.909 2.694 2.374 2.051 1.774 1.594 1.424 1.463 1.522 1.433 1.565 1.571 1.348 1.218 0.846 0.433 0.01 -0.112 0.004 -0.054 -0.061 -0.059 -0.051 -0.06 0.087 0.858 0.863 0.918 0.981 1.015 1.034 1.047 1.08 1.083 1.097 1.092 1.058 0.987 0.966 0.925 0.904 0.85 0.789 0.732 0.717 0.724 0.725 0.667 0.638 0.605 0.614 0.629 0.636 0.626 0.621 0.611 0.609 0.601 0.609 0.581 0.576 0.584 0.604 0.586 0.596 0.596 0.611 0.584 0.541 0.511 0.516 0.484 0.479 0.444 0.446 0.441 0.456 0.431 0.404 0.419 0.441 0.454 0.424 0.389 0.384 0.419 0.391 0.441 0.439 0.446 0.471
72.781 72.674 72.804 73.156 73.399 73.481 73.554 73.574 73.601 73.434 73.199 73.494 73.184 73.196 73.194 73.171 73.161 73.126 73.181 73.194 73.124 73.144 73.106 73.066 73.976 73.954 73.716 73.324 72.729 71.479 70.776 69.146 66.414 67.484 65.101 62.896 62.469 62.341 62.284 62.314 63.626 63.606 63.131 63.216 62.779 63.301 63.989 64.049 63.851 62.946 62.289 62.421 63.806 65.909 66.936 67.271 66.746 65.899 64.276 64.016 62.809 62.539 62.979 61.746 61.406 63.121 65.191 64.124 62.024 62.066 60.814 61.324 62.571 62.749 63.301 62.976 62.836 63.554 62.594 61.761 61.174 60.359 60.324 60.304 60.404 60.989 62.524 64.496 64.254 63.494 62.981 62.716 61.684 60.826 60.949 61.979 61.729 61.719 61.789 61.671 61.321 61.274 61.051 61.371 61.241 62.379 63.779 63.094 61.929 62.256 62.476 62.579 63.471 64.684 64.816 64.511 64.541 65.944 63.914 63.644 63.544 63.464 65.871 69.274 69.979 68.144 67.846 65.389 63.556 63.516 63.736 66.116 65.701 62.051 61.764 61.534 61.306 61.074 60.824 60.621 60.369 60.159 59.964 59.759 59.539 59.341 59.181 58.976 58.764 58.599 58.416 58.209 57.984 57.766 57.571 57.366 57.166 57.016 56.869 56.644 56.366 56.091 55.789 55.539 55.226 54.996 54.804 54.546 54.314 54.036 53.766 53.499 53.204 52.934 52.706 52.411 52.139 51.839 51.569 51.321 51.066 50.854 50.611 50.394 50.169 49.904 49.646 49.384 49.126 48.859 48.591 48.336 48.084 47.829 47.589 47.339 47.149 46.904 46.666 46.471 46.394 46.271 46.599 46.791 46.849 45.551 45.316 44.104 43.826 43.569 43.176 42.861 42.536 43.951 44.239 44.151 46.619 48.544 49.121 49.071 48.534 46.489 40.676 40.906 40.994 41.516 40.871 38.576 37.944 37.759 36.654 36.566 36.966 36.806 39.099 41.876 41.811 41.534 41.331 38.519 36.779 36.711 35.451 34.554 34.239 34.009 33.841 33.604 33.261 33.181 32.864 33.126 33.074 31.834 31.179 31.276 30.604 30.309 30.689 33.859 32.986 29.844 30.329 29.519 30.061 28.306 27.971 27.721 27.411 27.131 26.959 26.646 26.411 26.119 27.016 26.676 26.121 26.014 24.969 24.601 24.409 24.176 24.541 26.936 27.489 26.929 26.356 24.239 22.726 22.421 21.716 21.429 23.084 21.374 21.114 20.884 20.726 21.149 20.311 18.664 18.291 18.294 18.384 18.459 18.419 19.001 19.679 18.299 18.154 18.551 19.496 20.374 21.411 22.101 22.099 21.139 17.829 15.586 16.149 16.699 15.939 15.176 15.531 14.459 14.156 13.929 13.926 13.416 13.399 14.461 15.411 16.221 11.514 9.434 8.049 6.664 5.486 4.509 4.206 4.629 6.234 6.444 4.531 3.141 3.201 3.246 3.206 3.211 3.171 3.456 4.419 4.274 4.901 3.739 4.759 4.356 3.859 3.324 3.096 2.889 2.606 2.319 2.016 1.774 1.536 1.431 1.567 1.512 1.509 1.452 1.32 1.244 0.899 0.804 0.236 -0.079 -0.054 -0.074 -0.049 -0.064 -0.064 -0.054 -0.049 0.648 0.827 0.9 0.949 0.999 1.016 1.06 1.078 1.147 1.158 1.109 1.107 1.075 1.019 0.986 0.942 0.871 0.78 0.751 0.689 0.673 0.711 0.691 0.693 0.637 0.616 0.624 0.634 0.639 0.649 0.631 0.614 0.636 0.611 0.614 0.601 0.584 0.601 0.604 0.586 0.571 0.559 0.601 0.594 0.571 0.576 0.554 0.521 0.539 0.516 0.479 0.496 0.469 0.444 0.431 0.414 0.389 0.421 0.431 0.421 0.374 0.361 0.411 0.411 0.429 0.421 0.441 0.434
72.334 72.589 72.921 73.049 73.071 73.121 73.206 73.231 73.174 72.954 72.759 72.744 72.934 72.916 72.804 72.779 72.799 72.774 72.791 72.821 72.801 72.829 72.834 73.019 73.934 74.594 75.311 74.659 73.766 72.006 70.606 68.951 67.101 67.059 65.126 63.596 63.096 62.699 62.394 63.359 65.809 64.844 63.981 64.541 63.699 63.111 63.571 63.949 63.561 62.881 62.291 62.079 64.411 66.214 68.444 68.709 66.961 65.874 65.301 64.374 62.986 62.566 61.786 61.861 63.219 66.196 68.141 63.284 63.719 64.859 64.096 60.946 60.506 60.629 61.344 61.134 60.809 61.299 62.121 61.171 60.384 60.184 60.224 60.244 60.229 60.411 62.696 63.654 62.334 62.559 61.944 61.001 60.531 60.491 61.436 62.519 61.461 61.454 61.311 61.229 62.021 62.899 60.819 61.066 60.739 61.316 63.101 60.974 61.586 61.346 61.299 62.656 62.099 62.814 64.546 65.419 64.969 63.654 63.896 63.749 63.241 63.104 63.374 65.761 67.671 68.631 67.861 67.566 64.809 63.249 64.979 64.531 64.354 61.974 61.651 61.444 61.159 60.946 60.696 60.506 60.246 60.064 59.879 59.659 59.406 59.224 59.089 58.871 58.676 58.491 58.304 58.096 57.884 57.666 57.464 57.279 57.089 56.876 56.734 56.534 56.269 55.981 55.649 55.414 55.154 54.931 54.679 54.466 54.231 53.949 53.696 53.421 53.134 52.824 52.621 52.351 52.064 51.766 51.486 51.229 51.001 50.806 50.529 50.324 50.084 49.871 49.604 49.329 49.074 48.809 48.521 48.269 47.996 47.776 47.521 47.291 47.096 46.846 46.606 46.476 46.394 46.479 46.571 47.166 44.696 44.561 45.416 44.226 43.891 43.454 43.316 43.551 42.484 43.329 43.381 44.094 47.471 48.869 49.131 48.991 47.426 43.046 40.651 40.461 41.084 41.614 42.661 37.876 38.484 36.714 36.596 36.844 36.939 37.044 40.686 42.149 41.461 41.984 41.726 37.819 36.879 36.979 36.086 36.291 35.914 34.636 34.204 34.121 33.501 33.339 32.499 32.131 32.369 32.309 31.409 31.066 30.474 30.184 30.281 33.036 33.299 29.286 29.236 30.504 28.479 28.081 29.271 28.984 27.661 27.226 26.939 26.674 26.246 25.854 25.721 25.751 25.716 25.064 24.679 24.379 24.016 23.906 24.061 26.179 27.409 26.651 26.004 23.329 22.474 21.881 21.166 21.264 20.726 20.336 20.266 20.516 20.776 20.964 19.326 18.251 18.186 18.309 18.319 18.339 18.416 18.386 18.411 18.374 18.146 18.091 17.969 18.494 21.349 22.314 21.801 20.209 16.714 15.414 15.344 15.934 16.319 15.741 15.884 15.724 15.141 13.576 13.381 13.139 13.546 14.266 15.041 12.754 8.969 7.501 6.254 5.926 7.584 8.196 5.391 3.494 5.281 4.929 3.219 3.149 3.234 3.201 3.161 3.061 5.384 6.344 6.659 3.951 3.521 4.136 4.396 3.786 3.256 3.019 2.796 2.539 2.229 1.941 1.666 1.501 1.354 1.508 1.509 1.628 1.364 1.339 1.066 0.56 0.43 -0.071 0.019 -0.186 -0.045 -0.061 -0.066 -0.056 -0.049 0.154 0.819 0.861 0.937 0.973 0.983 1.031 1.04 1.089 1.154 1.166 1.13 1.107 1.097 1.049 1.009 0.956 0.842 0.767 0.704 0.691 0.693 0.645 0.658 0.653 0.618 0.646 0.629 0.639 0.651 0.644 0.641 0.666 0.629 0.609 0.619 0.614 0.601 0.554 0.574 0.576 0.569 0.579 0.586 0.576 0.584 0.576 0.591 0.574 0.549 0.559 0.534 0.506 0.474 0.479 0.449 0.434 0.421 0.416 0.434 0.419 0.421 0.406 0.381 0.404 0.426 0.424 0.431 0.429 0.439
72.344 72.876 72.804 72.736 72.759 72.881 72.939 72.881 72.674 72.459 72.299 72.314 72.514 72.464 72.381 72.399 72.409 72.449 72.451 72.454 72.454 72.484 72.474 72.476 72.486 73.084 74.586 73.396 73.239 72.701 71.896 70.874 69.544 67.501 65.511 64.576 63.954 63.541 63.276 63.604 65.004 65.371 63.501 65.694 64.721 63.829 64.034 63.186 64.679 63.056 62.874 61.311 63.689 65.599 68.994 69.519 67.501 65.806 64.671 63.296 61.841 61.951 61.301 62.956 68.301 69.714 70.796 68.779 64.171 65.134 63.771 61.806 60.764 61.384 61.381 60.484 60.251 60.456 61.026 60.679 60.826 60.949 61.289 60.964 60.599 60.121 60.221 60.224 60.404 60.276 60.126 60.139 60.139 60.166 61.756 63.931 61.981 61.574 61.141 60.919 61.609 61.246 61.569 63.554 61.006 60.931 60.806 61.094 61.954 60.806 60.244 60.456 61.314 62.756 64.089 63.481 62.559 63.291 64.114 64.136 63.289 62.886 62.731 62.596 63.854 67.124 68.041 67.829 64.946 63.014 66.956 63.994 63.846 61.806 61.501 61.261 60.989 60.804 60.561 60.364 60.106 59.931 59.729 59.549 59.326 59.116 58.941 58.769 58.579 58.371 58.181 57.959 57.786 57.571 57.351 57.189 56.991 56.804 56.584 56.376 56.149 55.824 55.519 55.281 55.086 54.844 54.576 54.359 54.111 53.849 53.571 53.316 53.031 52.771 52.534 52.254 51.971 51.694 51.416 51.166 50.946 50.721 50.461 50.249 50.031 49.796 49.539 49.254 48.999 48.724 48.449 48.196 47.946 47.711 47.449 47.241 47.034 46.791 46.589 46.461 46.371 46.734 46.449 45.754 44.219 45.096 45.129 44.469 44.774 44.089 43.811 43.201 42.499 42.304 41.859 42.806 47.716 49.004 49.179 48.686 44.224 40.666 40.549 40.394 40.869 41.141 38.709 37.306 37.721 36.619 36.524 36.416 36.361 38.351 41.854 41.821 41.599 42.111 40.524 35.151 35.056 34.624 34.194 34.631 36.321 38.174 35.976 34.971 35.001 35.126 32.701 32.026 31.801 31.589 31.261 31.451 31.256 30.636 31.694 32.791 30.569 29.104 29.576 29.966 29.656 31.504 32.076 31.009 30.701 28.971 26.881 26.476 26.171 25.736 25.591 25.579 25.401 24.814 24.494 24.194 23.854 23.884 24.546 23.391 23.596 25.116 25.279 22.676 22.171 21.361 21.141 21.601 20.376 19.579 19.549 19.059 19.394 19.296 18.344 18.064 18.131 18.239 18.249 18.274 19.156 18.799 18.329 18.201 18.109 17.934 17.736 19.581 21.754 22.319 21.386 18.741 15.586 15.359 15.224 15.161 15.094 14.481 14.171 14.026 14.919 14.369 14.066 13.519 13.546 12.291 10.784 8.964 9.166 10.171 6.271 5.469 7.529 8.174 6.576 3.384 4.144 3.359 3.166 3.211 3.157 3.161 3.144 4.495 7.805 7.418 5.09 3.467 3.842 3.736 3.513 3.189 2.931 2.686 2.421 2.119 1.854 1.634 1.406 1.261 1.353 1.459 1.459 1.321 1.111 0.817 0.457 0.096 -0.156 -0.031 -0.111 -0.071 -0.066 -0.066 -0.066 -0.054 0.715 0.897 0.914 0.937 0.973 1.028 1.014 1.043 1.084 1.136 1.151 1.114 1.106 1.095 1.056 0.963 0.886 0.829 0.762 0.702 0.636 0.626 0.62 0.617 0.601 0.621 0.604 0.629 0.641 0.624 0.646 0.651 0.634 0.631 0.659 0.674 0.636 0.641 0.611 0.601 0.584 0.606 0.604 0.624 0.634 0.601 0.599 0.579 0.576 0.566 0.574 0.601 0.554 0.541 0.499 0.454 0.434 0.429 0.431 0.419 0.399 0.414 0.409 0.401 0.381 0.391 0.431 0.401 0.411 0.421 0.409
72.231 72.514 72.289 72.341 72.404 72.571 72.664 72.519 72.401 72.064 71.916 72.009 71.996 72.049 72.096 72.056 72.079 72.136 72.131 72.094 72.104 72.124 72.131 72.161 72.111 72.111 72.109 72.059 72.306 73.541 73.316 72.824 71.866 71.319 69.176 66.624 64.956 64.469 64.601 65.661 63.959 64.726 65.301 64.786 64.691 63.816 63.626 63.441 63.734 62.424 62.274 62.651 63.601 65.459 67.149 67.354 65.164 63.431 63.181 62.214 61.266 62.214 60.739 61.101 67.786 69.736 70.121 69.684 66.739 63.411 61.696 65.331 63.171 62.296 62.816 61.001 60.429 60.679 60.954 60.581 61.521 61.324 61.474 61.879 61.069 59.961 59.976 60.006 60.581 61.426 61.381 61.341 60.054 60.034 60.606 62.299 62.259 61.469 60.904 60.929 60.451 60.571 62.049 62.654 60.046 61.891 60.351 60.564 60.801 60.824 60.389 59.956 60.256 60.809 61.251 62.469 61.789 62.541 63.314 63.909 63.851 62.829 62.491 62.349 62.331 66.479 67.821 67.674 67.009 65.871 64.324 63.674 62.761 61.649 61.344 61.116 60.894 60.656 60.416 60.191 59.961 59.759 59.616 59.404 59.201 59.011 58.826 58.681 58.484 58.304 58.099 57.879 57.694 57.459 57.251 57.064 56.891 56.711 56.519 56.284 56.034 55.719 55.429 55.149 54.924 54.714 54.479 54.286 54.019 53.709 53.451 53.201 52.971 52.661 52.419 52.194 51.899 51.594 51.306 51.071 50.864 50.664 50.404 50.206 49.959 49.716 49.456 49.181 48.916 48.644 48.381 48.134 47.891 47.624 47.414 47.174 46.989 46.729 46.534 46.424 46.364 46.981 45.981 45.036 44.471 44.631 44.876 43.859 45.369 46.454 45.196 44.586 43.451 43.766 42.436 44.046 46.251 46.901 48.324 48.144 42.086 40.746 40.539 40.671 40.851 38.579 37.741 37.021 36.854 36.556 36.409 36.366 36.006 38.251 40.944 41.344 41.699 41.779 38.866 36.164 34.701 34.344 34.104 33.944 35.629 38.569 34.834 34.089 34.724 35.014 32.841 31.926 31.714 31.499 30.619 30.276 30.329 30.416 31.616 32.156 30.011 29.014 28.871 28.486 30.504 33.144 33.684 33.181 32.524 30.261 27.391 26.494 25.916 25.574 25.431 25.314 24.849 24.574 24.254 23.971 23.916 24.409 24.004 23.811 23.981 23.069 22.669 22.346 21.959 21.294 21.066 21.426 19.711 19.671 19.844 18.731 18.454 18.179 17.994 17.959 18.051 18.179 18.139 18.241 18.221 17.759 18.741 18.386 17.906 17.649 17.319 19.316 20.519 21.634 20.476 17.196 15.399 15.279 15.226 15.691 14.631 14.156 13.739 13.731 13.384 14.619 14.179 13.439 11.946 10.316 8.869 7.411 6.146 7.559 6.301 6.966 6.386 4.781 4.089 3.884 3.179 3.161 3.255 3.176 3.366 3.846 3.525 5.587 7.32 4.462 3.611 3.597 3.7 3.311 3.072 2.802 2.532 2.281 2.041 1.756 1.536 1.394 1.239 1.372 1.333 1.364 1.174 0.917 0.679 0.221 -0.186 -0.009 0.029 0.006 -0.047 -0.066 -0.047 -0.061 0.741 0.875 0.945 0.944 1.007 0.982 1.003 1.045 1.046 1.102 1.109 1.118 1.135 1.12 1.074 1.051 0.97 0.841 0.782 0.76 0.717 0.668 0.606 0.621 0.659 0.605 0.609 0.601 0.591 0.606 0.629 0.641 0.636 0.649 0.646 0.639 0.669 0.674 0.659 0.656 0.659 0.631 0.601 0.626 0.609 0.606 0.616 0.599 0.594 0.579 0.574 0.614 0.581 0.574 0.559 0.541 0.499 0.474 0.484 0.431 0.419 0.424 0.436 0.436 0.404 0.399 0.401 0.374 0.396 0.401 0.441 0.416 0.411
71.839 71.889 71.849 71.936 72.046 72.281 72.214 72.149 71.836 71.591 71.561 71.654 71.696 71.701 71.709 71.689 71.746 71.789 71.774 71.716 71.724 71.711 71.791 71.874 71.766 71.729 71.796 71.731 72.929 73.426 73.176 73.696 72.784 72.444 72.139 71.336 69.511 67.316 65.924 67.231 66.096 66.409 66.299 66.216 65.489 63.059 63.386 63.184 62.951 62.904 62.559 64.331 62.684 62.184 63.164 64.449 63.584 62.306 61.361 60.721 60.804 60.599 60.344 60.424 66.704 68.234 68.796 68.669 67.149 63.434 60.909 61.674 61.144 62.201 64.694 61.331 60.251 60.849 61.206 61.439 61.884 61.089 60.214 59.611 60.066 59.856 59.804 59.639 60.356 62.189 63.226 63.084 60.541 60.024 60.049 60.101 60.526 61.009 60.724 60.499 60.609 60.676 60.704 61.119 61.544 62.269 61.421 60.544 59.996 59.521 60.001 59.991 59.676 60.356 60.364 60.481 60.746 61.054 61.649 62.379 62.594 64.406 62.746 62.151 61.971 63.184 66.581 67.219 67.849 64.469 62.744 64.344 62.391 61.514 61.236 61.019 60.734 60.524 60.289 60.061 59.836 59.689 59.529 59.319 59.086 58.929 58.734 58.569 58.414 58.219 58.019 57.784 57.569 57.369 57.156 56.954 56.806 56.649 56.386 56.166 55.906 55.579 55.314 55.034 54.789 54.581 54.376 54.159 53.889 53.621 53.366 53.109 52.879 52.609 52.319 52.044 51.771 51.464 51.196 50.976 50.776 50.579 50.319 50.116 49.889 49.644 49.366 49.104 48.869 48.599 48.304 48.069 47.794 47.594 47.341 47.126 46.926 46.656 46.474 46.344 46.484 46.969 45.084 44.641 44.179 44.084 44.671 43.779 45.871 46.916 46.724 44.886 43.024 43.011 42.491 43.419 42.951 42.851 42.531 45.259 41.811 40.729 40.609 41.604 42.184 39.586 37.524 36.754 36.651 36.519 36.361 36.429 37.311 37.664 38.724 39.076 39.791 40.204 38.841 36.949 34.901 34.664 33.959 33.866 34.046 34.431 32.859 32.554 32.279 32.829 34.031 33.241 32.581 32.184 32.526 31.989 30.599 30.041 29.549 30.091 28.944 29.054 29.244 28.699 30.809 33.564 33.231 33.359 33.524 30.394 25.991 25.919 26.684 26.156 25.439 25.046 24.596 24.429 23.984 23.706 23.694 23.511 23.294 22.921 22.709 22.676 22.336 21.999 21.716 21.389 21.081 21.506 20.619 19.816 19.056 18.579 18.211 17.941 17.876 17.961 17.981 18.034 18.046 18.289 18.771 17.744 18.191 17.636 18.079 17.911 17.001 17.036 17.786 18.256 17.904 15.446 15.364 15.211 15.186 16.169 14.471 13.841 13.366 12.959 13.224 13.251 13.029 12.891 9.616 7.994 7.536 6.576 5.051 5.661 8.346 3.491 6.614 4.091 4.419 3.286 3.209 3.196 3.168 3.243 3.117 3.359 4.347 5.16 4.467 3.665 3.58 3.551 3.486 3.02 2.722 2.452 2.183 1.958 1.759 1.549 1.354 1.279 1.239 1.342 1.324 1.137 0.886 0.101 -0.061 -0.049 -0.046 -0.128 -0.031 -0.061 -0.044 -0.015 0.147 0.781 0.928 0.974 0.985 1.008 0.991 0.986 1.014 1.042 1.061 1.116 1.103 1.11 1.117 1.099 1.021 0.954 0.831 0.762 0.753 0.737 0.686 0.653 0.641 0.643 0.643 0.641 0.626 0.594 0.634 0.646 0.641 0.644 0.644 0.654 0.654 0.639 0.651 0.649 0.649 0.656 0.656 0.626 0.631 0.621 0.611 0.619 0.619 0.591 0.604 0.606 0.599 0.586 0.581 0.566 0.541 0.531 0.501 0.489 0.446 0.416 0.429 0.446 0.444 0.431 0.429 0.389 0.401 0.386 0.391 0.419 0.409 0.411 0.404
71.419 71.441 71.436 71.529 71.664 71.956 71.869 71.776 71.504 71.289 71.239 71.279 71.304 71.349 71.314 71.324 71.389 71.456 71.426 71.354 71.376 71.381 71.489 71.514 71.421 71.429 71.411 71.459 72.644 72.704 72.584 73.319 73.346 73.816 74.141 72.956 71.566 71.514 70.356 68.776 68.209 67.499 66.509 66.794 66.329 64.006 63.574 62.946 62.969 63.696 63.824 63.991 62.629 63.309 61.671 62.906 62.826 62.536 62.131 61.644 60.649 60.566 60.434 60.411 61.156 63.179 64.546 65.069 65.266 64.276 61.259 60.619 62.341 62.599 62.984 62.099 60.031 59.921 60.804 62.104 60.831 60.154 59.099 58.974 59.056 59.759 59.714 59.804 60.099 60.116 62.171 61.854 60.026 59.876 59.886 59.811 59.796 59.959 60.461 60.589 60.561 60.396 60.364 60.179 60.706 61.836 62.054 60.994 60.536 59.774 59.314 59.599 59.256 59.629 59.981 59.549 59.744 59.906 60.456 60.751 61.446 65.011 64.824 62.499 61.791 61.934 63.579 66.516 65.781 63.171 63.474 63.919 63.721 61.631 61.136 60.864 60.594 60.351 60.144 59.944 59.759 59.559 59.371 59.214 59.021 58.844 58.661 58.466 58.274 58.139 57.916 57.701 57.476 57.261 57.064 56.856 56.719 56.541 56.309 56.016 55.779 55.481 55.196 54.929 54.681 54.486 54.274 54.026 53.796 53.521 53.259 53.011 52.731 52.481 52.206 51.959 51.659 51.364 51.121 50.909 50.694 50.456 50.206 50.014 49.796 49.551 49.291 49.024 48.799 48.499 48.231 47.981 47.746 47.506 47.271 47.049 46.851 46.599 46.426 46.274 46.864 46.561 45.009 44.359 44.251 44.144 44.789 44.291 46.146 47.091 46.379 43.606 42.134 41.944 41.246 41.466 41.756 41.781 41.366 41.479 41.274 41.144 42.516 42.241 40.369 37.826 37.544 37.011 36.631 36.716 36.956 36.189 36.029 35.919 36.354 37.181 37.786 37.921 37.749 35.026 34.854 34.209 33.821 33.791 33.781 33.454 32.709 32.419 32.154 31.866 31.621 31.866 32.391 32.461 33.286 33.644 31.351 29.954 30.146 28.984 28.859 28.891 28.604 29.104 31.989 33.726 33.429 33.051 32.899 27.681 25.941 26.116 26.131 25.221 26.704 26.276 24.939 24.111 24.941 23.741 23.729 23.424 22.906 22.619 22.666 22.644 22.326 21.779 21.629 21.441 21.354 20.979 20.614 20.419 20.036 18.784 17.974 17.791 17.791 17.944 17.931 17.926 17.994 18.356 18.481 18.376 20.204 17.226 17.106 16.874 16.966 16.401 16.066 15.441 15.379 15.334 15.289 15.111 14.811 14.516 14.074 14.359 13.849 12.704 13.469 13.111 12.369 14.101 9.254 6.689 5.976 5.284 5.411 8.031 7.059 3.604 4.576 4.361 3.451 3.209 3.171 3.118 3.156 3.079 3.57 5.512 5.297 4.722 3.818 3.47 3.372 3.362 3.026 2.589 2.317 2.106 1.861 1.689 1.538 1.367 1.276 1.221 1.403 1.246 0.86 0.53 -0.051 -0.134 -0.054 -0.051 -0.104 -0.166 -0.024 -0.046 0.022 0.888 0.896 0.958 0.997 1.023 1.012 1.026 1.019 1.065 1.084 1.07 1.083 1.116 1.102 1.108 1.048 0.98 0.882 0.823 0.77 0.711 0.709 0.719 0.695 0.69 0.659 0.641 0.654 0.641 0.626 0.644 0.644 0.649 0.646 0.646 0.651 0.646 0.626 0.616 0.674 0.641 0.651 0.646 0.639 0.641 0.644 0.646 0.649 0.646 0.626 0.619 0.611 0.611 0.599 0.589 0.599 0.561 0.559 0.531 0.509 0.481 0.451 0.434 0.446 0.439 0.414 0.434 0.434 0.404 0.406 0.389 0.381 0.414 0.421 0.404 0.399
70.909 70.989 71.089 71.191 71.369 71.481 71.559 71.234 71.071 70.941 70.909 70.864 70.966 70.969 70.936 70.956 71.054 71.104 71.019 70.996 70.996 71.046 71.581 71.454 71.081 71.096 71.131 71.239 71.829 71.544 71.736 72.131 71.239 71.956 73.419 73.674 73.191 73.004 71.904 70.481 69.459 69.264 68.091 66.689 67.071 65.006 64.554 64.376 65.261 65.834 68.759 64.209 62.429 61.644 62.681 63.031 61.284 61.216 60.661 62.221 60.829 60.269 61.084 60.241 60.179 60.769 60.371 62.204 66.471 66.024 63.476 62.084 64.766 62.089 60.491 61.186 61.011 60.149 59.874 60.521 60.051 59.901 59.159 58.969 59.514 59.759 59.721 59.736 60.226 60.734 60.964 60.251 59.711 59.721 59.649 59.604 59.521 59.436 59.624 60.399 60.599 60.374 60.154 59.131 59.174 59.836 58.876 59.246 59.571 59.741 59.779 59.354 59.316 59.446 58.994 59.171 59.954 60.054 59.394 59.914 60.969 62.021 64.396 63.279 61.559 61.416 61.781 61.844 64.529 64.059 66.236 65.809 63.529 61.186 60.934 60.656 60.474 60.226 60.026 59.839 59.629 59.464 59.301 59.086 58.874 58.711 58.524 58.331 58.154 58.036 57.796 57.581 57.366 57.146 56.976 56.749 56.589 56.429 56.236 55.961 55.674 55.424 55.174 54.856 54.599 54.374 54.159 53.941 53.701 53.414 53.144 52.911 52.634 52.384 52.111 51.854 51.556 51.289 51.026 50.824 50.606 50.366 50.141 49.924 49.691 49.464 49.181 48.906 48.696 48.384 48.131 47.891 47.676 47.444 47.201 46.984 46.789 46.536 46.371 46.231 47.421 46.146 45.199 44.301 44.236 44.181 44.516 44.389 46.426 47.114 46.381 45.284 44.859 44.256 42.946 41.434 40.449 40.159 39.921 39.484 39.076 39.316 40.089 40.361 38.141 37.596 37.496 36.801 36.549 37.841 36.744 36.036 35.901 35.924 36.446 35.934 35.979 38.181 37.649 35.794 35.749 34.554 33.679 33.571 33.564 33.464 32.561 32.249 31.994 31.754 31.529 31.491 31.434 32.544 36.014 35.866 33.786 32.184 32.864 28.831 28.791 28.584 27.406 28.034 29.224 31.226 32.586 33.449 31.756 28.306 27.714 26.726 26.094 25.051 25.926 26.666 25.109 23.964 24.214 23.536 23.241 23.976 22.769 22.436 22.246 22.046 21.771 21.534 21.514 21.466 21.296 20.721 20.431 20.224 20.569 18.989 17.741 17.684 17.776 17.819 17.824 17.836 17.731 17.804 17.981 19.696 20.074 17.419 16.504 16.144 18.966 16.821 16.074 15.691 15.336 15.186 15.274 15.351 14.616 14.639 14.511 13.201 12.634 12.416 12.729 12.576 10.759 8.619 6.831 5.509 5.926 3.926 3.509 5.084 3.411 3.909 4.166 3.759 3.235 3.2 3.169 3.158 3.333 3.85 4.996 6.735 4.487 3.744 3.526 3.397 3.426 3.137 2.57 2.173 1.968 1.791 1.585 1.481 1.382 1.338 1.257 1.215 0.98 0.68 0.191 0.019 -0.131 -0.071 -0.014 -0.039 -0.04 -0.136 0.085 0.62 0.874 0.958 1.008 1.022 1.017 1.057 1.055 1.063 1.09 1.113 1.083 1.092 1.097 1.098 1.073 1.035 0.949 0.858 0.809 0.777 0.74 0.707 0.715 0.709 0.7 0.688 0.639 0.634 0.654 0.644 0.631 0.646 0.666 0.661 0.654 0.651 0.631 0.649 0.679 0.646 0.634 0.649 0.659 0.681 0.646 0.649 0.631 0.671 0.654 0.626 0.619 0.621 0.614 0.629 0.601 0.601 0.566 0.529 0.526 0.504 0.476 0.456 0.479 0.444 0.429 0.464 0.436 0.419 0.421 0.419 0.401 0.391 0.386 0.409 0.421 0.429 0.401
70.536 70.571 70.701 70.841 70.944 70.994 70.959 70.734 70.746 70.614 70.606 70.524 70.569 70.591 70.584 70.646 70.719 70.791 70.656 70.611 70.634 70.626 70.729 70.726 70.764 70.779 70.769 70.734 70.731 70.746 70.689 70.739 71.504 71.676 71.871 72.691 72.939 72.284 72.274 72.549 71.556 71.519 71.494 70.324 67.764 66.751 65.981 66.784 66.559 66.926 67.756 64.461 63.231 63.009 64.241 61.999 60.436 60.344 60.404 60.401 60.259 60.129 61.366 64.394 60.146 60.896 60.486 61.329 62.566 66.326 65.751 63.479 61.521 62.029 61.269 60.964 60.419 61.266 59.749 60.064 59.714 59.774 59.729 59.489 60.029 59.396 59.526 59.424 60.216 61.756 60.911 59.894 59.716 59.589 59.446 59.486 59.444 59.251 59.094 59.864 60.474 60.674 58.809 58.366 58.199 58.201 58.014 57.879 57.801 58.319 58.991 59.111 58.791 59.204 58.839 58.874 59.144 60.096 58.869 59.256 59.976 61.344 61.599 63.109 61.741 61.166 61.024 61.109 63.004 65.261 65.549 65.794 62.336 60.784 60.709 60.596 60.394 60.116 59.931 59.701 59.499 59.339 59.124 58.951 58.771 58.644 58.439 58.221 58.021 57.846 57.664 57.481 57.269 57.059 56.871 56.661 56.476 56.321 56.091 55.836 55.536 55.286 55.034 54.711 54.519 54.306 54.074 53.841 53.604 53.314 53.074 52.829 52.544 52.266 52.014 51.751 51.454 51.176 50.939 50.719 50.511 50.284 50.051 49.849 49.619 49.364 49.101 48.839 48.584 48.324 48.056 47.794 47.591 47.351 47.136 46.949 46.711 46.476 46.329 46.526 48.876 49.744 45.609 44.906 44.944 44.769 44.834 45.244 46.529 46.971 47.059 47.221 46.876 46.334 43.426 42.481 40.496 40.579 40.721 40.611 40.066 39.464 38.776 37.871 37.439 36.959 36.774 36.684 37.021 37.279 36.069 35.919 35.844 35.931 36.556 36.446 35.651 37.386 36.521 37.036 36.689 35.686 34.064 33.516 33.799 33.136 32.596 32.101 31.836 31.611 31.406 31.234 31.176 32.996 35.661 34.339 34.496 32.481 28.979 28.724 28.781 28.179 27.344 31.084 31.669 31.246 28.596 29.176 29.009 28.481 28.369 25.996 25.336 24.799 24.589 24.476 23.991 23.594 23.574 23.619 24.006 23.139 23.611 23.189 22.566 21.779 21.466 21.251 21.179 21.114 21.021 20.766 20.224 20.011 19.721 18.356 17.651 17.634 17.689 17.766 17.791 18.321 18.134 17.626 19.836 20.206 18.571 18.151 17.881 16.281 18.386 18.716 14.814 15.091 15.866 16.161 15.101 14.536 14.246 14.159 14.259 12.734 12.471 12.759 12.009 10.764 10.041 8.699 6.801 4.764 4.079 3.766 3.496 3.531 4.089 3.726 3.404 3.254 3.228 3.145 3.082 3.07 3.895 4.93 5.043 4.714 3.761 3.617 3.43 3.477 3.28 2.656 2.065 1.823 1.677 1.56 1.478 1.439 1.456 1.343 1.166 0.699 0.506 -0.014 -0.111 0.054 -0.054 -0.048 -0.079 -0.081 -0.069 0.564 0.782 0.925 1.009 1.044 1.06 1.07 1.102 1.104 1.132 1.109 1.092 1.083 1.083 1.09 1.089 1.068 1 0.922 0.855 0.838 0.816 0.776 0.738 0.719 0.711 0.704 0.699 0.651 0.654 0.659 0.661 0.649 0.654 0.654 0.664 0.661 0.671 0.641 0.651 0.659 0.649 0.659 0.646 0.649 0.644 0.639 0.681 0.656 0.676 0.651 0.641 0.644 0.634 0.636 0.621 0.609 0.586 0.566 0.566 0.599 0.526 0.491 0.461 0.456 0.464 0.436 0.416 0.446 0.431 0.409 0.439 0.424 0.424 0.401 0.389 0.424 0.421 0.429 0.406
70.106 70.211 70.276 70.474 70.516 70.516 70.481 70.419 70.171 70.116 70.131 70.169 70.151 70.154 70.226 70.314 70.391 70.434 70.314 70.231 70.261 70.254 70.271 70.329 70.344 70.389 70.414 70.424 71.054 70.771 70.369 70.651 71.316 70.841 70.674 70.856 71.926 70.474 70.674 70.566 71.809 71.571 71.846 72.021 71.384 69.196 68.279 67.681 68.081 66.966 66.949 66.126 64.516 62.594 67.116 64.666 60.109 60.066 60.219 62.011 62.349 61.506 61.616 61.681 61.194 62.761 64.166 62.226 61.114 61.209 61.379 62.331 60.871 60.754 63.554 62.024 59.966 59.666 59.681 61.104 59.666 59.286 58.884 58.771 58.759 58.864 59.346 59.536 60.214 60.259 60.081 59.726 59.521 59.614 59.269 59.361 59.391 59.294 58.991 59.066 59.651 59.329 58.301 58.134 58.071 57.984 57.874 57.771 57.649 57.649 57.616 57.656 57.696 57.836 58.026 59.621 59.116 58.979 58.616 58.489 58.851 59.409 61.939 62.229 62.601 61.249 60.806 60.661 60.551 61.804 63.499 65.294 64.046 60.931 60.729 60.544 60.259 60.011 59.816 59.591 59.409 59.191 59.064 58.844 58.686 58.524 58.329 58.124 57.931 57.771 57.579 57.364 57.151 56.931 56.774 56.591 56.366 56.189 55.974 55.716 55.441 55.134 54.886 54.611 54.409 54.209 53.989 53.764 53.506 53.259 52.986 52.749 52.474 52.219 51.959 51.671 51.346 51.084 50.864 50.649 50.441 50.181 49.979 49.774 49.511 49.289 49.006 48.756 48.516 48.234 47.966 47.714 47.494 47.261 47.061 46.861 46.621 46.404 46.334 46.791 48.844 50.511 46.766 45.366 44.361 44.601 44.454 44.514 45.096 45.964 46.239 46.594 46.914 45.099 42.944 42.141 41.031 41.786 41.186 40.901 40.874 40.899 40.719 38.119 37.309 36.791 36.721 36.616 37.619 36.281 35.991 35.886 35.834 35.801 36.574 35.619 35.446 35.839 34.836 35.459 35.336 35.311 35.111 35.311 33.766 32.554 32.404 32.239 32.221 31.601 31.279 31.699 31.284 35.636 35.216 34.179 32.379 31.074 29.584 28.681 28.801 28.541 28.599 32.034 32.599 31.696 29.934 28.106 26.546 26.189 26.814 25.526 25.304 24.979 24.549 24.344 23.914 23.496 23.311 23.284 22.761 22.631 23.876 24.134 21.911 22.069 21.654 21.066 20.791 20.654 20.499 20.214 19.969 20.429 19.049 17.684 18.154 17.694 17.649 17.629 17.724 20.496 19.176 17.684 20.224 20.611 17.794 19.441 21.234 20.221 17.606 16.959 14.319 13.951 13.836 14.029 14.961 14.839 14.286 14.054 13.206 12.371 12.546 12.144 11.196 9.584 8.414 6.919 5.619 4.796 4.504 6.104 4.684 3.611 3.966 3.329 3.229 3.216 3.137 3.08 2.974 3.831 5.933 5.954 4.647 3.639 3.409 3.429 3.403 3.254 2.572 2.055 1.776 1.606 1.542 1.482 1.468 1.387 1.133 0.952 0.636 0.064 0.01 -0.021 0.004 -0.049 -0.049 -0.054 -0.049 0.123 0.75 0.865 0.945 1.033 1.046 1.099 1.09 1.088 1.133 1.134 1.126 1.118 1.112 1.097 1.088 1.101 1.079 1.017 0.924 0.887 0.894 0.833 0.793 0.761 0.739 0.764 0.748 0.734 0.679 0.646 0.634 0.661 0.659 0.686 0.656 0.661 0.651 0.679 0.699 0.661 0.649 0.689 0.654 0.646 0.674 0.666 0.659 0.654 0.666 0.664 0.681 0.671 0.654 0.661 0.639 0.659 0.619 0.619 0.596 0.569 0.544 0.551 0.526 0.504 0.474 0.446 0.459 0.429 0.441 0.416 0.424 0.434 0.439 0.424 0.431 0.394 0.384 0.404 0.424 0.436 0.404
69.671 69.824 69.926 70.069 70.024 70.051 69.956 69.739 69.696 69.711 69.766 69.729 69.724 69.779 69.876 69.944 70.051 70.054 69.936 69.871 69.889 69.906 69.904 69.924 69.941 69.979 70.069 70.124 70.226 70.211 70.149 70.904 70.466 70.024 70.101 70.139 71.781 71.116 70.124 70.026 70.476 70.846 72.336 71.779 71.431 71.094 70.411 69.719 68.961 67.881 67.424 68.314 65.331 63.494 62.659 62.636 60.271 60.054 60.059 62.029 61.334 60.406 60.529 60.371 60.749 63.254 62.819 61.489 62.054 61.686 61.294 61.989 60.446 60.724 60.974 60.116 60.146 59.554 59.771 62.251 59.651 59.196 58.799 58.521 58.551 58.731 59.081 58.849 59.186 59.159 59.196 59.356 59.476 59.301 59.099 59.221 59.624 59.641 59.241 58.796 58.559 58.396 58.119 58.024 57.929 57.871 57.771 57.656 57.549 57.479 57.409 57.311 57.321 57.399 57.331 57.671 58.309 58.991 58.954 58.551 58.704 59.576 60.431 61.576 62.114 61.764 60.821 60.456 60.329 60.166 61.519 64.116 63.376 62.659 61.441 60.411 60.176 59.951 59.714 59.469 59.296 59.094 58.926 58.726 58.564 58.414 58.241 58.004 57.801 57.631 57.444 57.264 57.046 56.841 56.669 56.459 56.284 56.084 55.851 55.601 55.321 55.016 54.806 54.531 54.309 54.111 53.896 53.686 53.426 53.196 52.904 52.681 52.396 52.136 51.874 51.586 51.274 50.989 50.776 50.571 50.351 50.111 49.899 49.711 49.446 49.204 48.921 48.671 48.421 48.141 47.894 47.641 47.419 47.169 46.939 46.739 46.556 46.354 46.401 46.961 46.634 48.676 49.824 45.936 44.006 43.911 43.286 44.061 44.479 44.489 44.134 44.794 44.694 43.589 42.526 42.584 42.894 42.324 41.374 41.049 40.814 41.449 40.011 37.974 37.414 37.194 36.694 36.741 37.279 36.104 35.934 35.874 37.369 36.839 39.339 42.621 37.299 34.604 34.426 34.249 33.966 33.614 33.024 33.266 32.406 32.941 34.214 32.549 32.866 31.264 31.216 31.239 31.139 34.111 35.079 32.601 31.781 30.101 28.806 28.714 29.564 28.579 29.511 32.866 32.944 31.511 29.716 29.106 27.186 25.814 25.474 25.281 25.366 25.299 24.664 24.391 23.836 23.449 23.601 23.026 22.739 22.711 22.096 22.214 21.596 21.321 20.914 21.111 20.999 21.116 20.149 20.001 19.809 19.821 18.016 18.234 18.331 17.576 17.596 17.599 18.964 21.011 19.586 17.636 17.744 18.291 19.414 20.921 21.634 21.499 20.656 17.701 14.936 13.676 13.541 13.296 13.081 13.191 13.911 13.201 12.591 12.146 12.586 11.481 10.311 8.009 6.319 5.874 4.819 4.614 4.339 3.674 3.206 3.414 3.426 3.296 3.232 3.093 3.077 3.014 3.516 5.073 5.951 4.926 3.734 3.519 3.371 3.281 3.019 2.492 1.965 1.742 1.585 1.552 1.545 1.443 1.251 1.067 0.712 0.337 0.147 0.245 0.091 -0.039 -0.004 -0.053 -0.059 -0.022 0.776 0.797 0.873 0.972 1.032 1.054 1.115 1.111 1.131 1.137 1.167 1.154 1.138 1.14 1.102 1.084 1.045 1.031 0.956 0.905 0.893 0.864 0.842 0.786 0.765 0.752 0.775 0.741 0.726 0.699 0.699 0.674 0.686 0.674 0.689 0.704 0.679 0.686 0.639 0.664 0.699 0.681 0.686 0.666 0.656 0.694 0.656 0.661 0.671 0.664 0.674 0.649 0.656 0.674 0.671 0.651 0.664 0.659 0.631 0.626 0.591 0.571 0.554 0.556 0.541 0.491 0.474 0.464 0.441 0.426 0.444 0.406 0.414 0.431 0.411 0.396 0.401 0.409 0.381 0.389 0.404 0.404 0.391
69.256 69.399 69.559 69.594 69.631 69.579 69.399 69.264 69.269 69.279 69.346 69.334 69.299 69.409 69.504 69.611 69.709 69.684 69.544 69.476 69.496 69.519 69.556 69.559 69.586 69.639 69.699 69.744 69.794 69.761 69.739 70.091 69.834 69.766 69.781 69.756 70.201 69.911 69.714 69.614 69.489 69.474 69.984 70.371 71.091 71.089 71.606 71.051 70.259 68.781 68.849 69.164 67.201 66.094 62.344 61.341 60.749 60.331 60.771 60.126 61.316 60.601 61.019 62.099 61.379 62.681 61.936 64.466 65.239 61.681 61.594 61.349 60.761 59.894 61.766 59.524 59.504 61.784 60.039 59.334 59.654 59.339 58.926 59.221 58.886 58.659 58.556 58.504 58.874 58.771 58.629 58.934 59.256 58.986 59.039 59.374 59.754 59.734 59.384 59.004 58.819 58.496 58.146 57.926 57.819 57.734 57.639 57.559 57.499 57.401 57.331 57.324 58.244 58.649 58.191 57.274 57.421 57.486 58.069 58.641 58.356 58.566 58.956 62.611 62.794 60.644 60.946 60.401 60.104 59.999 60.046 61.441 61.789 62.136 62.274 61.006 60.089 59.854 59.649 59.376 59.179 58.981 58.791 58.601 58.409 58.234 58.054 57.886 57.679 57.501 57.346 57.189 56.936 56.746 56.589 56.364 56.181 55.956 55.749 55.486 55.204 54.916 54.711 54.424 54.214 54.019 53.806 53.591 53.316 53.074 52.816 52.616 52.276 52.054 51.774 51.524 51.201 50.931 50.719 50.514 50.286 50.049 49.849 49.621 49.401 49.136 48.849 48.591 48.341 48.064 47.811 47.561 47.316 47.489 46.851 46.704 46.489 46.306 46.351 47.064 46.434 47.951 48.934 49.486 48.369 43.389 42.476 42.094 42.196 42.694 42.711 43.366 44.249 44.684 43.871 43.839 42.149 41.636 41.851 41.161 40.981 40.386 38.931 37.896 37.429 37.426 36.651 36.891 36.366 36.001 35.914 35.864 39.776 42.141 42.226 42.619 40.936 37.199 34.399 34.209 34.009 33.584 32.711 32.586 32.489 32.106 33.049 32.339 34.346 32.591 31.144 30.786 30.611 31.394 32.254 30.819 31.334 28.861 28.556 28.636 29.546 29.774 31.189 33.264 33.406 32.626 29.529 28.939 28.959 26.271 25.224 25.761 25.139 24.444 24.564 24.409 24.094 23.529 23.786 23.841 22.609 22.876 21.959 21.784 21.564 21.516 20.971 20.766 20.859 20.924 20.141 19.809 19.581 18.586 17.486 17.339 17.584 17.504 17.516 17.569 19.306 20.434 17.424 17.131 16.506 18.599 20.004 21.319 21.704 21.076 20.009 16.936 14.524 13.409 13.149 12.889 12.654 12.769 12.244 12.649 14.261 12.824 12.066 10.521 9.069 6.341 5.206 4.694 4.081 4.709 5.254 4.739 4.326 3.276 3.206 3.241 3.152 3.15 3.169 3.103 4.078 4.734 5.163 4.241 3.508 3.283 3.056 2.81 2.315 1.989 1.767 1.634 1.499 1.507 1.382 1.132 0.777 0.617 0.084 0.209 1.917 2.79 2.964 0.11 0.054 -0.028 0.635 0.924 0.982 0.989 0.96 0.975 1.051 1.079 1.131 1.147 1.142 1.15 1.137 1.13 1.116 1.127 1.064 1.023 0.962 0.903 0.864 0.859 0.853 0.816 0.754 0.777 0.758 0.766 0.774 0.739 0.729 0.721 0.699 0.711 0.706 0.699 0.711 0.699 0.691 0.691 0.689 0.684 0.709 0.686 0.664 0.686 0.664 0.679 0.679 0.656 0.684 0.684 0.661 0.661 0.679 0.656 0.644 0.656 0.649 0.654 0.636 0.601 0.564 0.576 0.551 0.554 0.519 0.504 0.494 0.461 0.451 0.444 0.449 0.441 0.439 0.431 0.439 0.431 0.414 0.406 0.371 0.394 0.401 0.411 0.384
68.841 68.944 69.064 69.164 69.169 69.129 69.054 68.841 68.886 68.966 68.984 68.956 68.929 69.076 69.169 69.239 69.319 69.326 69.219 69.116 69.154 69.154 69.169 69.199 69.209 69.196 69.244 69.266 69.376 69.441 69.451 70.741 70.144 69.399 69.389 69.381 69.391 69.364 69.364 69.259 69.214 69.131 69.031 69.149 69.321 69.669 70.936 70.421 70.356 69.241 69.366 69.226 69.559 70.109 65.741 62.226 61.656 61.354 61.159 60.936 63.684 63.336 61.291 62.621 61.239 61.776 60.824 63.494 66.791 62.584 60.249 60.899 60.649 59.829 59.591 60.076 59.531 61.671 61.191 60.259 59.671 60.539 60.011 58.931 59.381 59.981 59.079 58.424 58.501 58.549 58.456 58.364 58.431 58.584 58.964 59.644 59.984 59.746 59.431 59.341 59.679 59.269 58.401 57.929 57.756 57.629 57.559 57.479 57.416 57.341 57.266 57.269 58.444 59.099 59.536 59.194 58.074 57.261 57.266 57.464 57.319 57.356 57.979 60.856 61.256 59.666 62.304 61.239 60.039 59.761 59.651 59.606 61.106 61.221 61.241 61.859 60.321 59.756 59.541 59.304 59.081 58.901 58.689 58.519 58.319 58.134 57.924 57.731 57.549 57.381 57.239 57.069 56.809 56.649 56.529 56.286 56.066 55.859 55.649 55.346 55.066 54.811 54.609 54.381 54.191 53.979 53.776 53.494 53.231 52.976 52.759 52.499 52.184 51.949 51.676 51.424 51.121 50.846 50.679 50.451 50.236 50.001 49.794 49.579 49.341 49.071 48.781 48.516 48.246 47.976 47.709 47.476 47.234 47.041 46.796 46.636 46.424 46.254 46.314 46.941 46.024 44.594 45.421 44.219 45.839 43.636 42.649 41.979 41.974 41.914 42.069 42.909 43.511 44.736 43.549 43.286 42.049 44.799 46.391 46.441 42.134 39.974 38.386 37.696 37.166 36.879 36.596 37.746 36.156 35.921 35.186 37.319 42.109 42.489 42.766 42.339 39.809 35.784 34.384 34.166 33.896 33.331 32.644 32.549 32.474 32.294 33.001 31.159 31.221 30.889 30.756 30.324 30.559 30.971 30.656 31.051 30.229 28.541 28.529 29.469 29.146 30.814 32.994 33.479 33.094 31.564 28.409 28.529 28.586 26.601 25.916 25.459 24.514 24.144 23.744 23.556 23.424 23.554 24.324 24.511 23.266 22.686 22.046 21.881 21.434 22.046 21.041 20.599 20.459 20.104 19.686 19.374 19.211 17.741 17.601 17.879 17.419 17.419 17.419 17.786 18.734 17.036 17.514 17.566 16.459 18.421 20.986 21.639 21.394 20.684 18.396 14.709 13.649 13.336 12.749 12.456 12.294 12.406 12.704 12.094 14.374 12.679 12.354 9.186 7.819 6.996 4.584 4.154 3.926 4.961 4.731 4.594 3.884 3.207 3.219 3.131 3.094 3.31 3.303 3.574 4.038 4.292 4.223 3.829 3.34 2.938 2.499 2.157 1.855 1.746 1.63 1.514 1.422 1.304 0.998 0.605 0.214 0.015 0.119 1.313 2.648 3.48 4.105 3.706 0.035 0.844 0.953 1.014 1.051 1.048 1.014 1.027 1.055 1.086 1.141 1.146 1.142 1.103 1.115 1.103 1.1 1.073 1.012 0.929 0.843 0.843 0.825 0.813 0.791 0.807 0.777 0.741 0.771 0.754 0.719 0.709 0.704 0.716 0.709 0.726 0.739 0.721 0.736 0.761 0.729 0.706 0.716 0.684 0.681 0.674 0.661 0.711 0.694 0.691 0.694 0.671 0.664 0.679 0.691 0.659 0.666 0.649 0.654 0.661 0.659 0.626 0.616 0.616 0.591 0.556 0.574 0.556 0.509 0.474 0.509 0.471 0.499 0.471 0.446 0.439 0.414 0.406 0.431 0.426 0.389 0.389 0.396 0.364 0.364 0.374 0.314
