ncols 443
nrows 32
xllcorner    460056
yllcorner    87072
cellsize     2
NODATA_value -9999
47.419 47.249 47.064 47.661 47.414 46.009 45.519 45.321 45.181 44.974 44.744 44.556 44.431 44.294 44.134 43.926 43.741 43.574 43.364 43.179 42.971 42.776 42.591 42.384 42.194 41.989 41.806 41.629 41.474 41.309 41.166 41.066 40.986 40.886 40.784 40.716 40.659 40.574 40.491 40.406 40.316 40.251 40.164 40.124 40.069 39.989 39.936 39.889 39.846 39.781 39.709 39.664 39.606 39.581 39.539 39.531 39.481 39.506 39.494 39.451 39.431 39.414 39.389 39.371 39.354 39.309 39.269 39.234 39.189 39.161 39.129 39.076 38.986 38.921 38.916 38.861 38.831 38.809 38.774 38.701 38.684 38.906 38.821 41.119 40.659 39.161 38.684 38.559 38.404 38.281 38.181 38.081 37.999 37.941 37.891 37.881 37.829 37.764 37.674 37.651 37.559 37.476 37.394 37.276 37.176 37.094 36.971 36.869 36.761 36.641 36.471 36.334 36.204 36.044 35.861 35.706 35.509 35.331 35.111 34.869 34.634 34.404 34.146 33.836 33.526 33.176 32.829 32.464 32.084 31.709 31.326 30.924 30.539 30.169 29.776 29.409 29.064 28.664 28.321 27.966 27.619 27.296 26.916 26.539 26.121 25.709 25.296 24.891 24.511 24.059 23.644 23.309 23.039 23.966 22.834 22.646 22.506 22.104 22.219 21.689 22.531 20.931 20.344 20.064 19.549 19.376 18.726 18.316 18.399 18.421 18.346 20.906 16.999 16.791 16.701 16.579 16.506 16.191 15.619 15.061 15.054 14.291 14.729 19.831 19.826 18.204 16.514 14.406 13.814 13.694 13.609 13.566 13.076 12.801 13.694 14.726 14.669 13.809 13.341 13.354 13.366 13.376 13.399 13.386 13.386 13.359 13.414 13.404 13.386 13.339 13.361 13.394 13.406 13.319 13.236 13.229 13.234 13.159 12.836 12.544 12.176 11.856 11.714 11.596 11.366 11.209 11.156 11.061 10.306 11.076 12.219 12.429 11.731 12.234 11.256 10.346 10.159 9.944 10.064 11.021 11.344 11.759 11.251 10.821 11.526 11.971 12.349 12.874 11.921 9.711 9.616 9.501 9.431 9.396 9.384 9.994 9.661 8.936 8.766 8.271 8.356 8.249 7.709 7.656 7.566 7.581 7.974 8.964 10.581 9.881 10.154 10.369 9.476 8.799 8.786 10.639 12.201 12.949 10.564 6.736 6.379 6.846 6.509 8.096 12.899 13.046 12.979 12.861 11.004 9.239 9.336 8.114 7.104 7.199 7.539 7.326 7.101 6.914 6.731 6.714 6.796 6.721 6.534 6.381 6.319 6.356 6.409 6.331 6.354 5.706 5.614 5.581 5.901 7.241 7.689 6.026 5.014 4.554 4.466 4.426 4.924 4.369 4.274 4.209 4.306 4.674 4.649 4.901 5.481 5.191 4.391 4.714 5.321 4.981 5.104 5.114 5.184 5.244 4.881 4.851 4.806 4.876 4.959 5.009 6.121 5.039 5.824 8.149 7.749 7.686 7.854 7.781 7.069 7.366 6.701 6.309 6.209 8.779 8.904 8.876 8.876 8.921 8.929 8.909 8.369 5.934 8.049 9.449 9.889 9.914 10.059 9.954 9.914 9.616 8.054 6.941 7.799 6.739 7.166 7.436 7.636 7.744 7.629 6.976 6.686 6.311 6.296 6.244 7.644 7.099 7.284 7.854 8.021 7.996 7.276 7.079 6.044 6.646 6.951 8.616 8.461 8.456 7.444 7.601 7.056 6.336 6.914 5.826 5.186 5.426 5.599 5.239 5.106 5.584 6.039 5.121 5.104 5.046 5.416 5.289 5.079 5.181 4.939 4.871 4.816 4.756 4.676 4.739 4.644 4.619 5.141 4.769 4.556 4.531 5.366 5.414 5.321 5.011 5.076 4.946 4.374 4.334 4.149
47.514 47.321 47.126 48.016 47.121 45.899 45.549 45.416 45.256 45.051 44.814 44.674 44.514 44.389 44.231 44.014 43.826 43.641 43.444 43.264 43.054 42.854 42.674 42.464 42.274 42.126 41.901 41.731 41.571 41.419 41.284 41.221 41.136 41.026 40.931 40.886 40.814 40.751 40.631 40.571 40.481 40.439 40.371 40.294 40.269 40.189 40.131 40.119 40.056 39.991 39.946 39.911 39.834 39.811 39.786 39.759 39.731 39.744 39.754 39.716 39.696 39.664 39.631 39.601 39.566 39.536 39.494 39.434 39.396 39.384 39.306 39.246 39.189 39.154 39.141 39.091 39.059 39.041 38.984 38.949 39.074 40.911 41.021 41.914 40.736 38.936 38.799 38.724 38.551 38.389 38.309 38.226 38.166 38.121 38.064 38.019 37.974 37.901 37.821 37.751 37.651 37.561 37.481 37.374 37.249 37.169 37.061 36.944 36.821 36.684 36.529 36.366 36.204 36.051 35.871 35.684 35.511 35.324 35.101 34.866 34.606 34.356 34.074 33.784 33.476 33.106 32.744 32.364 31.991 31.596 31.176 30.801 30.399 30.036 29.631 29.244 28.919 28.521 28.146 27.786 27.449 27.079 26.736 26.381 25.991 25.576 25.171 24.779 24.379 23.984 23.586 23.211 22.921 23.181 23.301 23.761 23.434 22.636 21.641 21.341 23.584 21.711 20.431 20.014 19.724 19.076 18.421 18.231 18.644 18.476 17.701 17.379 16.946 16.829 16.741 16.656 16.584 16.369 15.721 14.899 14.744 14.356 15.261 20.131 20.974 19.716 18.154 15.681 13.784 13.776 13.739 13.554 12.994 13.524 14.099 14.459 13.801 13.484 13.484 13.516 13.544 13.544 13.574 13.494 13.529 13.551 13.566 13.566 13.561 13.531 13.516 13.479 13.476 13.536 13.434 13.566 13.424 13.196 13.029 12.786 12.524 12.299 12.129 11.989 11.776 11.634 11.754 11.594 11.956 12.019 11.969 14.224 15.166 16.414 11.584 10.246 10.151 10.031 10.291 11.076 10.586 11.114 13.391 13.781 14.106 14.371 14.661 14.976 15.044 10.231 9.654 9.551 9.469 9.391 9.371 9.824 8.699 8.556 8.451 8.731 9.049 8.794 8.519 7.714 7.529 7.529 7.641 8.741 9.921 9.629 10.424 10.029 9.066 8.739 8.876 10.594 12.544 12.629 10.199 6.331 6.414 6.436 6.386 7.476 9.804 11.839 10.541 10.349 10.609 9.816 10.061 8.686 8.074 7.711 7.931 7.719 7.826 7.036 6.894 6.946 6.814 6.539 6.486 6.521 6.741 7.319 7.166 6.621 6.391 5.714 5.601 6.639 5.981 6.429 6.446 5.226 4.744 4.601 4.499 4.471 4.451 4.449 4.306 4.234 4.274 4.664 4.766 4.389 4.276 4.694 4.864 5.379 5.951 5.089 4.999 5.061 5.134 5.039 5.024 4.899 4.889 5.119 5.016 5.079 6.136 5.456 6.026 8.854 9.616 9.569 9.546 9.581 9.371 9.264 8.866 6.124 7.016 9.179 9.904 9.936 9.999 9.879 9.874 9.754 8.621 5.761 7.584 8.784 8.874 8.946 8.836 8.911 8.886 8.791 7.999 5.244 8.569 9.414 9.489 9.499 9.614 9.531 9.536 9.199 7.416 5.491 5.831 6.044 8.551 9.416 9.479 9.451 9.456 9.451 9.411 8.829 7.281 7.349 7.341 9.521 10.064 9.971 9.831 9.694 9.581 9.451 8.856 6.309 5.506 8.214 8.674 8.071 7.684 6.866 6.821 5.771 5.726 5.356 5.754 7.006 5.486 5.449 5.266 5.016 5.154 4.926 4.851 4.844 4.801 4.751 4.771 4.699 4.594 4.519 5.474 5.724 4.674 4.404 4.481 5.894 6.016 5.121 4.764
47.584 47.369 47.606 48.199 46.609 45.844 45.631 45.486 45.321 45.114 44.919 44.764 44.629 44.481 44.301 44.096 43.919 43.731 43.539 43.346 43.149 42.964 42.774 42.554 42.391 42.199 42.019 41.846 41.679 41.579 41.461 41.401 41.281 41.166 41.114 41.061 40.986 40.899 40.806 40.709 40.669 40.606 40.551 40.499 40.434 40.381 40.339 40.314 40.251 40.189 40.149 40.099 40.051 40.029 40.026 39.999 39.994 39.996 39.969 39.951 39.941 39.914 39.854 39.839 39.821 39.774 39.719 39.654 39.621 39.579 39.539 39.496 39.441 39.411 39.369 39.351 39.276 39.221 39.171 39.294 39.946 41.149 41.069 39.291 39.189 39.041 38.931 38.811 38.644 38.566 38.456 38.401 38.349 38.319 38.259 38.204 38.136 38.089 37.986 37.884 37.794 37.694 37.586 37.446 37.351 37.224 37.126 36.981 36.866 36.716 36.561 36.411 36.241 36.091 35.904 35.691 35.484 35.306 35.091 34.829 34.579 34.316 34.021 33.724 33.404 33.029 32.666 32.271 31.889 31.484 31.076 30.669 30.271 29.901 29.504 29.146 28.774 28.389 28.044 27.666 27.316 26.964 26.601 26.234 25.884 25.496 25.056 24.671 24.269 23.934 23.541 23.189 22.851 22.536 22.321 23.269 24.399 22.469 21.676 21.966 21.781 20.679 20.459 20.144 19.774 18.894 18.744 18.719 18.446 17.924 17.614 17.259 16.974 16.876 16.794 16.729 16.581 15.791 15.054 14.841 14.811 14.376 14.246 16.124 20.044 21.066 18.521 14.329 13.829 13.904 13.714 13.526 13.729 14.434 14.624 13.951 13.614 13.609 13.659 13.669 13.686 13.701 13.724 13.674 13.711 13.699 13.714 13.724 13.756 13.704 13.694 13.644 13.626 13.719 13.649 13.531 13.421 13.351 13.196 13.009 12.896 12.696 12.554 12.396 12.191 12.039 12.111 12.359 12.306 13.541 16.736 19.576 18.926 17.601 13.709 10.814 10.981 10.309 10.211 10.404 10.476 10.801 15.134 15.404 15.634 15.756 15.841 15.824 15.591 10.966 9.711 9.596 9.524 9.471 9.446 9.629 8.784 8.666 8.546 8.476 8.779 9.316 10.576 10.244 9.261 8.151 7.456 7.351 7.294 7.614 7.824 8.584 6.989 8.771 9.531 10.816 12.799 12.494 8.889 6.401 6.486 6.519 6.459 9.574 12.726 12.079 13.066 12.271 9.836 9.449 9.469 8.314 8.634 9.434 9.069 8.171 8.454 7.671 8.019 7.651 6.891 7.644 7.756 7.614 7.644 7.814 11.669 9.489 6.861 6.411 6.309 7.239 6.951 7.051 6.761 5.234 4.954 4.804 4.606 4.524 4.491 4.466 4.381 4.291 4.201 4.261 4.256 4.269 4.346 4.689 5.124 5.944 5.214 5.034 5.076 5.069 5.094 5.539 4.929 5.134 7.136 9.701 6.681 5.046 6.324 5.174 6.496 8.899 9.516 9.684 9.741 9.826 9.809 9.839 8.964 6.459 6.694 8.699 8.759 8.859 8.829 8.821 8.814 8.766 8.399 6.116 6.056 6.326 6.184 5.939 5.754 5.904 6.244 5.536 6.439 5.464 8.611 9.661 9.871 9.939 10.186 9.916 9.859 9.369 7.689 5.494 5.794 6.049 8.596 9.879 10.256 10.401 10.454 10.221 10.064 8.861 5.884 6.304 7.774 9.544 10.116 10.174 10.594 10.564 10.449 10.146 8.736 5.726 5.451 8.634 9.909 9.876 9.669 9.416 9.196 8.954 8.696 7.696 6.509 7.219 6.089 5.531 5.636 5.154 6.081 5.284 5.129 5.034 4.961 4.906 4.859 4.784 4.716 4.646 4.609 4.579 4.569 4.486 4.664 6.519 6.804 5.234 4.449
47.654 47.441 48.231 47.859 46.274 45.906 45.749 45.591 45.386 45.181 45.011 44.859 44.731 44.561 44.384 44.151 43.986 43.804 43.611 43.439 43.236 43.056 42.859 42.671 42.516 42.299 42.119 41.989 41.801 41.689 41.586 41.524 41.424 41.344 41.286 41.201 41.134 41.029 40.966 40.901 40.846 40.776 40.741 40.656 40.626 40.599 40.586 40.511 40.459 40.419 40.376 40.324 40.286 40.256 40.261 40.229 40.224 40.239 40.229 40.171 40.176 40.129 40.104 40.086 40.049 40.011 39.941 39.894 39.826 39.786 39.756 39.726 39.696 39.641 39.589 39.541 39.476 39.451 39.421 40.811 41.091 39.771 39.531 39.439 39.306 39.146 39.059 38.951 38.801 38.691 38.634 38.579 38.534 38.499 38.434 38.331 38.284 38.211 38.111 38.004 37.916 37.806 37.666 37.551 37.434 37.311 37.181 37.031 36.901 36.761 36.601 36.444 36.266 36.106 35.921 35.709 35.509 35.319 35.066 34.799 34.534 34.229 33.949 33.649 33.329 32.971 32.576 32.196 31.804 31.411 31.004 30.594 30.189 29.831 29.394 29.004 28.661 28.276 27.951 27.569 27.214 26.869 26.499 26.111 25.769 25.384 25.001 24.621 24.224 23.876 23.521 23.164 22.844 22.531 22.221 21.956 21.716 21.704 22.316 22.184 22.779 22.844 20.701 19.951 19.386 19.131 18.969 18.526 18.344 17.924 17.501 17.166 17.051 16.939 16.849 16.699 16.359 15.501 14.846 14.926 14.894 14.541 14.334 14.261 16.424 19.251 14.371 13.964 13.964 13.974 13.634 13.666 14.654 14.959 14.094 13.724 13.759 13.794 13.819 13.821 13.834 13.851 13.879 13.884 13.904 13.889 13.891 13.894 13.861 13.844 13.834 13.836 13.806 13.766 14.476 14.011 13.669 13.486 13.431 13.394 13.214 13.021 12.894 12.741 12.574 12.446 12.509 12.811 12.524 13.884 18.239 19.289 19.361 18.361 15.544 11.224 11.054 10.514 10.346 10.499 10.489 10.836 15.736 15.441 15.174 14.874 14.579 14.289 13.991 11.296 9.801 9.669 9.621 9.559 9.636 9.899 8.774 8.719 8.571 8.534 8.424 8.879 9.476 10.204 10.281 10.349 9.306 7.854 7.491 7.269 7.089 7.246 7.224 8.601 9.804 11.106 13.116 12.124 9.251 6.469 6.519 6.534 6.551 11.241 12.811 12.076 13.321 11.716 8.606 7.321 7.694 7.476 7.689 7.654 7.344 7.411 7.141 7.101 6.961 6.841 6.814 6.801 6.769 6.661 6.659 6.506 8.756 10.049 7.646 6.869 6.871 8.656 9.811 10.354 7.259 6.339 5.991 5.011 4.739 4.659 4.531 4.456 4.469 4.386 4.171 4.379 4.581 4.611 5.271 5.484 5.046 6.244 6.446 5.019 5.109 5.071 5.106 5.901 7.679 9.601 11.289 11.376 9.364 5.549 6.244 5.234 5.789 7.206 7.411 7.684 8.109 7.936 8.339 8.489 8.414 6.306 5.331 5.734 6.174 6.024 7.121 5.501 6.049 6.339 6.151 5.466 5.591 5.444 5.549 5.549 5.429 5.366 5.371 5.331 5.269 5.899 8.096 8.081 8.474 8.104 8.396 8.349 8.474 8.331 7.481 5.586 5.611 5.659 8.366 8.984 9.039 9.004 9.054 9.064 8.981 8.619 6.359 7.371 7.181 8.394 8.564 8.594 8.866 9.144 9.266 9.311 8.669 6.124 6.276 8.866 9.916 10.236 10.419 10.419 10.421 10.319 9.599 7.966 7.601 7.329 8.491 8.051 6.936 6.701 6.141 5.224 5.176 5.126 5.089 5.044 4.999 4.936 4.924 4.884 4.799 4.766 4.714 4.601 4.546 5.229 6.041 5.464 4.536
47.701 47.674 48.496 47.186 46.261 45.989 45.839 45.694 45.466 45.281 45.124 44.964 44.821 44.639 44.439 44.259 44.066 43.869 43.694 43.521 43.329 43.149 42.959 42.786 42.614 42.391 42.239 42.091 41.959 41.839 41.761 41.651 41.569 41.506 41.434 41.361 41.301 41.211 41.126 41.061 41.011 40.981 40.939 40.874 40.809 40.799 40.756 40.694 40.681 40.621 40.559 40.536 40.496 40.489 40.491 40.471 40.449 40.489 40.454 40.461 40.414 40.389 40.339 40.334 40.289 40.236 40.146 40.086 40.034 40.009 39.989 39.961 39.899 39.881 39.831 39.731 39.709 40.269 40.454 40.074 39.971 39.789 39.669 39.556 39.421 39.271 39.121 39.046 38.931 38.859 38.804 38.746 38.701 38.636 38.596 38.541 38.444 38.349 38.244 38.109 38.036 37.911 37.779 37.664 37.506 37.369 37.241 37.106 36.959 36.786 36.634 36.494 36.286 36.094 35.936 35.724 35.526 35.304 35.051 34.791 34.494 34.206 33.926 33.594 33.251 32.886 32.521 32.121 31.726 31.339 30.939 30.514 30.099 29.746 29.351 28.954 28.596 28.214 27.859 27.501 27.134 26.789 26.429 26.044 25.659 25.299 24.899 24.561 24.176 23.811 23.484 23.161 22.831 22.499 22.199 21.871 21.591 21.361 21.104 21.836 22.861 22.396 19.771 19.394 19.396 19.239 19.074 18.551 18.149 17.776 17.414 17.221 17.136 16.996 16.819 16.514 15.884 15.354 15.171 14.961 14.899 14.651 14.459 14.291 14.216 14.201 14.011 14.001 14.031 13.954 13.706 14.614 14.881 14.099 13.894 13.944 13.916 13.961 13.991 14.004 14.044 14.024 14.084 14.111 14.094 14.114 14.094 14.081 14.059 14.024 14.044 14.009 13.946 13.926 14.626 15.124 14.166 14.949 14.756 13.656 13.504 13.339 13.179 13.061 12.919 12.839 12.979 12.851 12.714 12.361 16.671 18.834 19.581 18.821 17.726 13.449 11.054 10.554 10.361 10.366 10.556 10.864 13.639 13.799 13.239 12.851 12.951 12.984 12.879 10.716 10.224 9.896 10.416 10.811 11.624 10.199 8.871 8.944 8.669 8.601 8.479 8.536 9.214 8.626 9.201 9.526 9.049 9.101 9.361 8.831 8.466 7.446 6.951 7.466 8.299 10.111 12.141 11.756 7.526 6.539 6.634 6.609 6.786 11.209 12.729 11.826 12.216 11.261 8.419 7.281 7.291 7.111 7.074 7.114 7.541 7.509 7.216 7.059 6.974 6.844 6.681 6.646 6.514 6.309 6.811 6.676 8.409 9.476 7.391 6.564 8.644 8.259 8.036 9.574 7.904 7.701 7.831 5.516 4.771 5.001 5.094 4.656 4.531 4.434 4.344 5.394 5.739 4.731 5.181 4.991 4.994 5.349 6.401 5.036 5.079 5.241 7.126 10.504 11.249 11.889 11.924 11.269 9.794 5.666 5.161 5.271 5.314 5.309 5.374 5.314 5.314 5.316 5.366 5.554 5.336 5.394 5.436 5.346 5.354 5.361 5.516 5.451 5.494 5.501 5.574 5.529 5.629 5.621 5.884 5.616 5.506 5.509 5.471 5.386 5.424 5.444 5.474 5.481 5.776 5.494 5.914 5.576 5.681 5.534 5.479 5.614 5.719 5.384 6.259 6.446 6.111 6.036 6.696 6.669 6.429 6.041 6.279 6.461 5.661 5.696 5.939 6.056 6.769 6.451 6.231 7.376 7.091 6.224 6.156 8.031 8.426 8.921 9.186 9.389 9.649 9.826 9.391 7.679 8.466 7.304 9.041 9.796 9.481 9.106 8.726 7.786 6.581 6.066 5.696 5.119 5.134 5.351 5.154 5.014 4.981 5.154 4.841 4.779 4.701 4.654 4.691 5.864 7.136
47.744 48.009 48.639 46.784 46.266 46.124 45.959 45.746 45.529 45.369 45.234 45.071 44.911 44.704 44.519 44.329 44.164 43.981 43.791 43.624 43.444 43.246 43.066 42.891 42.706 42.519 42.379 42.239 42.086 41.981 41.886 41.824 41.729 41.661 41.604 41.511 41.439 41.366 41.279 41.226 41.186 41.144 41.106 41.059 41.026 40.989 40.951 40.906 40.864 40.814 40.781 40.769 40.724 40.716 40.709 40.699 40.726 40.726 40.694 40.674 40.646 40.619 40.571 40.554 40.499 40.434 40.361 40.314 40.271 40.256 40.234 40.191 40.154 40.074 40.019 39.991 40.024 42.884 41.376 40.181 40.021 39.904 39.759 39.616 39.524 39.376 39.254 39.156 39.086 39.014 38.966 38.926 38.849 38.786 38.731 38.644 38.584 38.464 38.361 38.224 38.124 38.001 37.871 37.759 37.579 37.461 37.324 37.169 37.009 36.866 36.684 36.499 36.321 36.114 35.949 35.734 35.499 35.269 35.039 34.776 34.484 34.196 33.901 33.564 33.199 32.846 32.454 32.024 31.646 31.244 30.874 30.469 30.059 29.681 29.299 28.916 28.524 28.169 27.806 27.436 27.076 26.714 26.346 25.981 25.604 25.256 24.889 24.504 24.114 23.784 23.416 23.104 22.811 22.509 22.194 21.869 21.569 21.301 21.019 20.836 21.454 20.541 19.769 19.341 19.089 19.039 18.711 18.506 18.066 17.614 17.389 17.296 17.169 16.976 16.659 16.086 15.534 15.331 15.271 15.124 14.909 14.929 14.809 14.514 14.294 14.054 13.929 14.061 14.064 13.774 14.671 15.191 14.224 13.969 14.041 14.094 14.099 14.131 14.144 14.151 14.184 14.196 14.284 14.289 14.301 14.271 14.281 14.276 14.236 14.211 14.201 14.156 14.086 14.044 14.579 15.219 14.099 15.121 16.159 14.416 13.716 13.539 13.371 13.304 13.206 13.121 13.036 12.979 12.999 12.894 15.111 18.316 19.424 19.171 18.089 14.311 11.521 10.926 10.506 10.431 10.634 10.656 11.099 10.826 10.516 10.316 12.071 12.754 12.726 10.571 10.391 9.774 10.469 11.819 11.806 11.056 10.139 9.739 8.886 8.556 8.501 8.564 11.119 9.204 10.776 10.851 10.421 9.951 8.539 8.159 8.134 8.246 8.726 7.491 7.104 6.841 6.764 6.704 6.669 6.644 6.729 6.651 6.929 13.039 13.886 12.121 12.501 10.809 8.134 8.059 7.789 7.796 7.201 7.491 9.311 9.304 7.916 7.159 7.004 6.861 6.834 6.774 6.619 6.459 6.591 6.486 9.396 8.414 7.249 6.771 6.956 6.396 5.959 8.539 7.676 7.474 7.669 5.886 4.884 4.749 4.736 4.661 4.554 4.244 4.731 5.184 5.731 5.891 5.679 4.924 4.949 5.099 5.289 5.131 6.596 9.654 11.204 11.861 12.039 11.409 9.856 8.704 5.361 6.216 6.139 5.429 5.369 5.351 5.374 5.416 5.386 5.459 5.426 5.466 5.461 5.571 5.521 5.456 5.466 5.446 5.511 5.616 5.659 6.449 6.301 5.741 5.666 5.671 5.661 5.674 5.641 5.559 5.526 5.484 5.549 5.471 5.771 5.539 5.591 5.621 5.679 5.724 5.744 5.704 5.639 5.756 6.349 5.644 5.821 5.806 5.831 5.826 6.546 5.904 5.901 5.666 6.456 6.494 5.804 5.671 5.771 5.944 6.061 5.784 5.769 5.756 5.726 6.309 5.904 5.651 5.809 5.854 6.961 6.981 7.669 7.964 7.756 6.776 7.271 7.379 9.346 10.194 10.414 10.374 10.101 9.731 9.354 8.856 7.181 5.449 6.359 7.676 6.184 5.864 5.144 5.036 4.941 4.904 4.876 4.851 4.814 5.981 7.116
47.809 48.569 48.059 46.689 46.334 46.224 46.041 45.804 45.614 45.476 45.314 45.164 44.989 44.786 44.601 44.416 44.241 44.079 43.884 43.726 43.534 43.351 43.186 43.001 42.821 42.651 42.494 42.364 42.234 42.139 42.049 41.961 41.896 41.821 41.759 41.689 41.616 41.524 41.449 41.384 41.361 41.306 41.266 41.234 41.239 41.184 41.134 41.099 41.066 41.029 40.991 40.971 40.934 40.931 40.941 40.971 40.964 40.954 40.921 40.899 40.864 40.834 40.821 40.774 40.711 40.641 40.574 40.576 40.549 40.504 40.461 40.456 40.399 40.309 40.306 40.769 40.879 41.301 40.476 40.229 40.121 39.976 39.864 39.736 39.626 39.514 39.416 39.341 39.286 39.206 39.151 39.079 39.006 38.944 38.846 38.769 38.684 38.576 38.454 38.331 38.196 38.079 37.954 37.804 37.666 37.526 37.391 37.226 37.071 36.884 36.731 36.546 36.351 36.161 35.926 35.751 35.491 35.279 35.029 34.749 34.456 34.161 33.829 33.506 33.136 32.764 32.394 31.981 31.561 31.179 30.774 30.379 29.999 29.626 29.231 28.841 28.469 28.136 27.754 27.404 27.029 26.694 26.324 25.959 25.586 25.246 24.859 24.514 24.109 23.754 23.386 23.044 22.769 22.514 22.201 21.924 21.619 21.299 20.991 20.731 20.551 20.464 19.934 19.426 18.809 18.486 18.371 18.316 17.839 17.574 17.421 17.291 17.111 16.781 16.184 15.651 15.459 15.374 15.304 15.211 15.034 14.776 14.586 14.621 14.579 15.964 13.941 13.976 13.871 14.349 15.109 14.384 14.076 14.149 14.199 14.206 14.264 14.261 14.279 14.301 14.284 14.361 14.439 14.486 14.489 14.476 14.479 14.451 14.414 14.364 14.341 14.289 14.244 14.236 15.304 15.346 14.649 14.174 15.779 15.456 13.851 13.619 13.536 13.501 13.421 13.459 13.784 13.869 13.546 13.111 14.024 17.939 18.989 15.484 13.511 12.359 11.926 11.101 10.619 10.464 10.531 10.656 10.564 11.066 11.144 10.316 10.664 10.921 10.661 10.079 9.999 9.896 9.921 10.411 10.529 13.564 14.881 14.131 11.371 9.251 8.734 8.661 9.671 9.484 10.801 10.341 10.356 9.919 9.019 8.544 8.134 8.049 7.696 9.069 8.214 8.224 7.414 7.119 6.726 6.744 6.819 6.769 9.046 13.364 13.221 12.614 13.211 11.326 9.736 10.111 10.029 9.699 8.964 8.914 8.794 9.184 7.929 7.869 7.369 7.214 7.076 6.901 6.724 6.599 6.661 6.379 6.501 6.794 7.729 6.319 6.369 5.896 5.924 6.511 6.226 7.464 6.149 5.126 4.839 4.704 4.854 4.901 5.199 4.841 6.269 5.254 4.854 5.396 6.789 4.991 5.044 5.086 5.191 5.421 5.699 8.779 11.629 11.394 10.496 7.189 5.181 5.294 5.299 6.756 6.971 5.821 5.494 5.471 5.521 5.534 5.741 5.894 5.564 5.584 5.554 5.824 5.671 5.581 5.586 5.589 5.851 5.754 5.809 5.996 5.744 5.679 5.626 5.581 5.571 5.579 5.624 5.654 5.651 5.709 5.609 5.589 5.904 6.106 6.146 6.094 5.886 5.844 5.881 5.849 5.821 5.989 6.714 5.936 6.004 6.121 6.346 6.171 6.014 6.019 5.999 5.921 6.044 6.119 6.169 5.976 6.339 6.454 6.184 6.431 6.461 6.426 6.136 6.319 5.881 5.744 5.729 5.701 6.261 5.684 5.636 6.096 6.041 6.404 6.586 7.091 8.166 8.814 9.199 9.581 9.974 10.294 10.196 8.926 6.529 6.039 7.779 9.371 9.181 8.519 8.006 7.216 5.979 5.029 4.994 5.094 5.024 4.864 5.436
48.239 49.299 47.679 46.614 46.459 46.296 46.096 45.861 45.714 45.586 45.419 45.276 45.079 44.871 44.686 44.526 44.329 44.171 44.001 43.814 43.631 43.469 43.289 43.101 42.936 42.786 42.634 42.496 42.396 42.301 42.196 42.119 42.061 41.986 41.924 41.861 41.784 41.694 41.621 41.569 41.531 41.516 41.451 41.431 41.411 41.389 41.356 41.281 41.236 41.196 41.174 41.146 41.131 41.139 41.166 41.186 41.186 41.149 41.144 41.149 41.101 41.079 41.054 40.981 40.891 40.829 40.816 40.831 40.809 40.781 40.756 40.669 40.609 40.619 40.764 41.286 41.534 40.659 40.486 40.359 40.239 40.104 39.946 39.834 39.734 39.629 39.559 39.506 39.451 39.369 39.306 39.244 39.164 39.094 39.006 38.874 38.771 38.666 38.556 38.409 38.299 38.166 38.029 37.869 37.719 37.599 37.446 37.276 37.111 36.944 36.756 36.599 36.379 36.184 35.969 35.731 35.489 35.271 34.999 34.734 34.416 34.114 33.779 33.446 33.069 32.709 32.324 31.926 31.529 31.111 30.721 30.314 29.906 29.541 29.154 28.799 28.419 28.046 27.704 27.359 26.999 26.639 26.286 25.934 25.569 25.206 24.824 24.456 24.094 23.731 23.396 23.031 22.719 22.431 22.149 21.909 21.651 21.346 21.031 20.824 20.661 20.521 19.919 19.516 19.201 18.556 18.504 18.044 17.791 17.571 17.361 17.134 16.844 16.299 15.689 15.499 15.461 15.434 15.344 15.221 15.074 14.896 14.936 14.651 16.014 14.839 15.201 14.026 14.539 14.864 14.316 14.189 14.241 14.291 14.319 14.379 14.419 14.399 14.421 14.426 14.464 14.551 14.624 14.659 14.656 14.646 14.616 14.616 14.574 14.529 14.509 14.511 14.436 14.374 15.214 15.071 14.664 14.496 14.534 16.171 14.931 13.784 13.714 13.681 13.626 13.791 14.334 13.489 13.371 13.211 13.824 13.834 12.559 14.869 13.559 12.354 12.036 11.399 10.666 10.654 10.541 10.694 10.659 10.669 10.874 10.314 10.254 11.089 10.629 10.144 10.636 11.041 10.089 9.991 9.879 14.671 16.149 16.194 15.496 13.496 12.046 8.816 8.706 9.451 10.859 10.516 11.119 8.676 8.664 8.799 9.004 9.104 8.364 9.046 9.599 11.674 12.666 12.176 8.109 6.834 6.959 6.874 10.589 13.596 12.859 12.839 13.189 8.941 7.311 8.349 8.539 9.371 9.334 10.024 9.964 9.584 8.049 7.566 7.496 8.211 7.444 7.544 7.071 7.129 8.449 7.676 6.756 7.576 7.159 6.869 6.184 7.331 7.411 6.701 7.499 9.176 7.341 5.119 4.854 4.849 5.694 6.071 5.271 4.744 5.506 5.051 4.919 4.954 5.004 5.089 5.121 5.096 5.121 5.241 5.244 7.296 10.191 8.956 5.549 5.204 5.304 5.391 5.446 5.549 6.136 5.861 5.791 5.939 5.791 5.941 5.776 5.976 5.749 5.754 5.739 5.864 5.854 5.921 5.826 5.854 5.964 5.866 5.771 5.734 5.661 5.639 5.631 5.634 5.624 5.606 5.584 5.621 5.711 5.791 5.756 5.734 5.831 5.836 5.831 5.849 5.901 6.124 6.249 6.226 6.446 6.036 5.839 5.856 5.886 5.904 5.914 5.919 6.231 6.744 6.126 5.881 5.861 6.771 6.241 5.806 5.806 5.836 5.811 5.794 6.314 6.484 6.069 6.371 5.946 5.796 5.786 5.779 6.034 6.049 5.936 6.491 6.364 6.401 5.859 6.586 5.756 6.089 6.991 7.981 8.291 8.899 9.211 8.399 6.069 6.241 8.701 9.919 10.379 10.159 9.751 9.269 8.831 8.009 6.431 5.976 5.611 5.054 6.301
49.466 49.401 47.016 46.696 46.536 46.399 46.159 45.919 45.816 45.666 45.531 45.356 45.164 44.969 44.769 44.629 44.419 44.256 44.069 43.914 43.759 43.574 43.411 43.191 43.049 42.924 42.759 42.659 42.531 42.444 42.374 42.296 42.226 42.179 42.061 42.014 41.929 41.861 41.804 41.751 41.726 41.686 41.639 41.629 41.606 41.556 41.511 41.469 41.449 41.404 41.389 41.364 41.369 41.341 41.374 41.394 41.404 41.364 41.371 41.346 41.319 41.276 41.211 41.136 41.056 41.036 41.059 41.074 41.076 41.036 40.989 40.936 40.961 41.159 41.566 41.264 40.881 40.726 40.616 40.464 40.344 40.226 40.066 39.959 39.886 39.806 39.741 39.666 39.609 39.551 39.469 39.374 39.311 39.209 39.119 38.999 38.891 38.771 38.641 38.506 38.356 38.231 38.084 37.936 37.801 37.626 37.491 37.319 37.141 36.974 36.816 36.621 36.414 36.216 35.994 35.769 35.521 35.261 35.006 34.706 34.386 34.081 33.751 33.414 33.021 32.626 32.254 31.844 31.479 31.081 30.684 30.269 29.879 29.491 29.104 28.721 28.364 27.999 27.649 27.311 26.966 26.621 26.284 25.901 25.531 25.194 24.811 24.434 24.064 23.709 23.349 22.954 22.649 22.349 22.096 21.851 21.599 21.346 21.109 20.966 20.846 20.374 19.891 19.401 19.086 18.631 18.259 18.009 17.749 17.436 17.186 16.936 16.486 15.786 15.586 15.534 15.499 15.414 15.361 15.871 15.026 14.874 14.941 15.799 16.834 14.911 14.699 14.109 14.744 14.326 14.329 14.364 14.434 14.509 14.516 14.569 14.591 14.596 14.611 14.624 14.699 14.746 14.851 14.839 14.804 14.791 14.759 14.791 14.729 14.721 14.711 14.644 14.586 14.576 15.351 15.044 14.674 14.464 14.444 14.879 14.944 14.086 13.914 13.809 13.749 13.781 13.669 13.666 13.526 13.304 15.114 16.966 19.006 19.056 16.426 12.651 12.131 11.676 11.029 11.244 10.601 10.656 10.696 10.541 10.436 10.356 10.274 10.269 10.651 12.159 12.719 12.651 10.511 10.306 10.526 15.754 15.209 16.716 16.576 13.656 13.194 9.026 8.736 8.664 9.649 12.684 12.331 10.104 8.289 8.074 8.024 8.939 9.236 8.001 10.216 12.139 13.309 12.336 7.679 6.944 7.941 7.024 10.471 13.671 12.639 13.026 12.561 7.451 7.321 7.271 7.306 7.116 7.054 7.136 7.724 8.091 7.666 7.619 7.496 7.409 7.389 7.226 7.124 6.949 6.721 6.779 7.739 9.409 8.674 7.649 7.679 8.789 7.631 7.636 8.761 12.921 11.396 6.954 4.856 4.849 5.999 6.201 4.756 4.914 4.971 5.356 5.074 5.014 5.004 5.134 5.339 5.224 5.631 5.491 5.451 5.584 6.091 5.164 5.251 5.399 5.461 5.521 5.561 5.649 5.769 5.796 5.904 5.904 6.219 6.459 5.896 5.981 5.924 5.884 5.906 5.899 5.874 5.879 5.864 5.826 5.799 5.731 5.651 5.644 5.671 5.646 5.701 5.794 5.774 5.696 5.604 5.619 5.579 5.629 5.621 5.671 5.691 5.686 5.711 5.766 5.894 6.311 6.431 6.509 6.821 6.074 5.859 5.864 5.884 5.911 5.911 5.931 5.924 5.931 5.889 5.904 5.909 5.881 5.894 5.866 5.831 5.841 5.849 5.851 6.094 6.141 5.894 6.459 6.229 5.754 6.384 6.126 5.849 5.736 5.741 5.761 5.921 6.089 6.074 6.194 5.721 5.646 5.646 5.911 5.681 5.961 7.514 6.969 6.179 6.686 8.241 9.024 9.514 9.914 10.489 10.331 10.139 9.511 7.939 6.191 5.849 5.099 6.781
49.659 48.424 47.011 46.771 46.626 46.436 46.194 46.029 45.916 45.784 45.634 45.446 45.249 45.081 44.896 44.699 44.529 44.334 44.179 44.024 43.856 43.684 43.494 43.326 43.184 43.051 42.884 42.776 42.684 42.586 42.521 42.466 42.399 42.336 42.234 42.174 42.091 42.054 41.984 41.964 41.914 41.861 41.819 41.811 41.789 41.729 41.699 41.646 41.606 41.599 41.566 41.544 41.539 41.554 41.554 41.596 41.609 41.576 41.556 41.531 41.489 41.434 41.361 41.306 41.279 41.261 41.306 41.299 41.316 41.231 41.249 44.934 47.999 42.271 41.441 41.166 40.991 40.876 40.741 40.606 40.461 40.356 40.231 40.129 40.046 39.979 39.904 39.811 39.749 39.679 39.581 39.509 39.424 39.321 39.229 39.091 38.979 38.834 38.716 38.596 38.449 38.296 38.136 37.984 37.841 37.689 37.541 37.366 37.184 37.004 36.829 36.641 36.414 36.199 35.999 35.764 35.544 35.284 34.996 34.709 34.386 34.064 33.701 33.336 32.976 32.594 32.216 31.801 31.404 31.019 30.621 30.241 29.834 29.451 29.081 28.679 28.284 27.941 27.584 27.239 26.894 26.534 26.234 25.856 25.516 25.146 24.789 24.369 24.001 23.644 23.294 22.926 22.614 22.334 22.049 21.816 21.596 21.399 21.209 21.171 20.901 20.236 19.569 19.079 18.709 18.291 18.149 17.929 17.511 17.214 17.016 16.799 16.244 15.704 15.604 15.561 15.511 16.651 16.959 17.484 16.046 15.261 15.736 14.814 15.366 15.381 14.304 14.429 14.559 14.459 14.486 14.551 14.636 14.646 14.691 14.764 14.811 14.821 14.829 14.886 14.961 15.006 15.071 15.036 14.996 14.986 14.986 14.954 14.876 14.879 14.904 15.286 15.464 15.339 15.816 15.451 14.999 14.791 14.944 14.534 14.254 14.136 14.099 13.924 14.399 14.144 14.336 14.134 13.929 14.256 18.146 19.716 20.339 19.476 18.326 13.361 12.316 11.981 11.059 11.036 10.584 10.586 10.624 10.521 10.479 10.381 10.374 11.296 13.596 14.581 13.624 11.184 10.014 9.881 11.221 15.969 16.041 15.961 15.511 12.499 9.076 9.311 8.756 9.416 10.744 13.326 13.496 11.319 8.794 8.149 8.001 8.089 8.186 8.279 11.094 12.164 13.394 12.311 7.846 7.114 7.389 7.111 12.929 13.819 13.119 13.431 12.361 7.724 7.739 7.766 7.746 7.721 7.714 7.606 7.626 7.724 7.751 7.714 7.661 7.511 7.384 7.254 7.181 7.104 6.739 6.609 6.576 7.744 6.739 6.739 6.804 6.339 6.091 6.016 8.524 10.366 10.599 7.239 7.084 6.161 7.081 6.126 4.924 5.019 5.054 5.139 5.284 5.544 5.261 5.279 5.574 5.381 9.879 10.246 6.771 5.584 5.239 5.401 6.739 7.184 5.674 5.689 5.699 5.799 5.859 6.034 6.171 6.181 5.906 5.914 6.064 6.251 5.864 6.246 5.906 5.809 5.746 5.746 6.121 5.939 5.694 5.684 5.654 5.696 5.704 5.671 5.764 5.791 5.816 5.806 5.669 5.651 5.644 5.641 5.636 5.701 5.691 5.736 5.731 5.761 5.786 5.796 5.849 5.849 5.899 5.899 5.936 5.891 5.916 5.956 5.994 6.014 6.024 5.969 5.986 5.999 5.951 5.996 5.936 5.941 5.914 5.924 5.921 5.944 5.884 5.871 5.866 5.806 5.826 5.801 5.806 5.816 5.776 5.734 5.776 5.731 5.691 5.676 5.669 5.694 6.024 6.189 6.231 5.829 5.744 5.631 5.631 5.651 6.426 5.724 5.634 6.596 7.586 8.571 8.999 9.441 9.749 9.214 7.869 6.684 5.619 5.246 4.996
49.519 47.384 47.011 46.874 46.701 46.494 46.279 46.154 46.009 45.869 45.719 45.506 45.326 45.159 44.979 44.794 44.604 44.446 44.276 44.136 43.981 43.809 43.616 43.481 43.304 43.196 43.056 42.934 42.849 42.756 42.684 42.626 42.556 42.474 42.391 42.326 42.249 42.214 42.171 42.099 42.069 42.036 42.019 41.989 41.946 41.889 41.884 41.819 41.769 41.769 41.751 41.744 41.726 41.734 41.774 41.789 41.751 41.746 41.726 41.726 41.651 41.571 41.501 41.499 41.514 41.486 41.516 41.521 41.509 41.524 44.751 49.059 47.236 43.056 41.419 41.264 41.126 40.979 40.856 40.724 40.579 40.474 40.409 40.314 40.246 40.164 40.089 39.976 39.884 39.819 39.739 39.634 39.526 39.416 39.311 39.194 39.071 38.939 38.814 38.654 38.521 38.351 38.221 38.051 37.881 37.719 37.574 37.391 37.216 37.031 36.854 36.681 36.449 36.251 36.014 35.779 35.524 35.269 34.961 34.689 34.381 34.034 33.684 33.314 32.951 32.541 32.164 31.736 31.344 30.969 30.549 30.176 29.789 29.416 29.026 28.659 28.271 27.911 27.536 27.211 26.854 26.509 26.176 25.826 25.469 25.101 24.729 24.351 23.994 23.599 23.244 22.876 22.534 22.261 22.031 21.794 21.576 21.416 21.309 21.204 20.771 20.031 19.269 18.711 18.401 18.236 18.119 17.716 17.256 17.054 16.914 16.746 16.331 15.779 15.601 15.604 15.539 17.834 18.051 17.886 18.159 16.964 14.639 15.306 15.884 15.149 14.584 14.554 14.581 14.661 14.699 14.764 14.804 14.841 14.904 14.996 15.096 15.146 15.201 15.191 15.229 15.276 15.306 15.296 15.206 15.211 15.181 15.139 15.091 15.076 15.536 16.696 16.474 16.696 16.551 16.224 16.016 15.409 15.636 15.101 14.419 14.326 14.274 14.159 14.101 14.076 13.909 13.781 13.681 13.389 16.159 19.311 20.321 19.879 18.861 13.951 12.574 11.791 11.156 10.731 10.646 10.596 10.581 10.999 10.864 11.089 12.169 13.299 14.644 13.354 12.084 10.671 10.014 9.961 10.066 12.851 13.409 15.219 13.711 9.766 9.379 9.216 9.036 10.739 9.869 9.906 9.754 9.819 9.341 9.184 8.756 8.589 7.871 9.686 11.319 12.246 12.986 11.421 7.399 7.229 7.146 7.796 13.264 14.316 15.576 16.041 15.664 13.881 12.626 9.741 8.481 8.136 8.426 8.401 7.774 7.696 7.784 7.754 7.694 7.521 7.404 7.221 7.099 7.474 7.021 6.716 6.681 6.684 6.124 6.219 6.079 5.779 5.819 5.829 7.369 8.436 10.771 6.511 5.494 6.806 8.351 6.729 5.519 5.256 5.144 5.251 5.339 6.086 6.354 5.816 6.911 9.261 12.156 12.326 11.021 7.816 5.746 6.044 6.299 6.579 5.944 5.824 5.864 5.934 5.891 6.096 6.474 6.054 5.894 5.959 6.489 6.451 5.849 6.004 5.859 5.816 5.796 5.749 5.741 5.764 5.674 5.751 5.729 5.744 5.706 5.741 5.829 5.814 5.859 5.791 5.669 5.649 5.679 5.704 5.736 5.751 5.789 5.846 5.866 5.876 5.914 5.909 5.971 5.969 5.986 5.984 5.994 5.999 5.986 6.104 6.181 6.186 6.204 6.186 6.156 6.136 6.124 6.121 6.141 6.124 6.151 6.116 6.084 6.061 6.004 6.009 5.974 5.956 5.934 5.901 5.886 5.876 5.816 5.779 5.791 5.769 5.729 5.684 5.691 5.669 5.739 6.099 6.286 5.944 5.974 6.119 5.899 5.726 6.304 5.776 5.769 5.599 5.581 6.506 6.371 7.744 8.314 8.521 7.654 6.981 5.556 5.106 4.851
48.909 47.291 47.086 46.961 46.794 46.581 46.364 46.244 46.131 45.989 45.801 45.606 45.431 45.254 45.074 44.896 44.734 44.584 44.396 44.256 44.086 43.886 43.746 43.596 43.456 43.329 43.189 43.096 43.041 42.941 42.861 42.806 42.729 42.639 42.574 42.486 42.441 42.396 42.366 42.319 42.234 42.224 42.216 42.171 42.106 42.089 42.026 41.994 41.966 41.954 41.936 41.934 41.931 41.931 41.959 41.964 41.934 41.921 41.896 41.864 41.786 41.734 41.689 41.704 41.714 41.691 41.726 41.686 41.716 42.324 44.016 43.221 43.894 41.631 41.519 41.366 41.231 41.106 40.974 40.851 40.746 40.671 40.589 40.511 40.421 40.331 40.229 40.131 40.044 39.946 39.856 39.749 39.629 39.514 39.394 39.249 39.139 38.999 38.861 38.724 38.591 38.421 38.269 38.106 37.939 37.786 37.609 37.429 37.249 37.076 36.899 36.681 36.444 36.264 36.046 35.801 35.511 35.266 34.984 34.681 34.376 34.004 33.651 33.279 32.909 32.511 32.126 31.726 31.314 30.916 30.529 30.136 29.761 29.391 29.006 28.609 28.254 27.901 27.546 27.181 26.834 26.486 26.124 25.771 25.419 25.044 24.689 24.284 23.944 23.549 23.191 22.834 22.506 22.244 22.016 21.781 21.591 21.426 21.319 21.181 20.524 19.796 19.039 18.581 18.356 18.231 17.951 17.436 17.171 16.999 16.886 16.746 16.451 15.929 15.691 15.681 17.014 18.194 17.984 18.204 18.049 15.516 14.641 14.536 15.096 17.014 15.146 14.759 14.781 14.831 14.886 14.949 14.976 15.046 15.106 15.246 15.381 15.444 15.514 15.529 15.491 15.511 15.519 15.491 15.471 15.461 15.406 15.364 15.344 15.334 16.141 16.744 16.854 16.271 16.426 16.116 15.959 16.104 15.929 15.741 14.799 14.534 14.411 14.406 14.286 14.194 14.076 13.991 13.821 13.631 14.556 18.876 19.951 20.246 19.279 17.471 12.684 11.729 12.069 11.224 11.141 10.621 10.601 10.594 11.636 13.394 13.739 13.006 13.321 13.986 16.181 14.286 10.109 10.049 11.354 15.899 14.294 11.476 9.744 8.994 9.189 9.799 9.514 11.434 9.694 8.769 9.009 8.639 8.686 9.689 10.436 9.739 7.901 9.631 12.019 12.699 12.834 9.546 7.311 7.326 7.294 8.576 13.869 14.986 16.221 17.066 17.376 16.989 16.449 12.381 8.949 9.234 9.389 12.294 10.904 8.606 8.466 7.784 7.839 7.434 7.314 7.226 7.106 9.176 9.821 10.949 8.086 6.359 6.119 5.969 5.866 5.834 5.869 5.849 7.426 9.086 10.489 6.421 4.959 4.954 6.321 8.041 7.199 6.759 5.279 5.326 5.524 5.754 6.549 7.351 7.999 11.879 12.941 12.231 9.661 6.416 6.174 5.981 5.909 5.889 5.946 5.994 6.006 5.964 5.956 5.934 5.921 5.934 5.924 5.926 5.921 5.911 5.919 5.906 5.904 5.884 5.856 5.864 5.866 5.859 5.849 5.826 5.779 5.741 5.766 5.779 5.821 5.854 5.821 5.764 5.719 5.689 5.794 5.854 5.921 5.924 5.986 6.031 6.071 6.139 6.156 6.196 6.261 6.256 6.191 6.124 6.101 6.094 6.166 6.326 6.399 6.309 6.391 6.379 6.396 6.324 6.291 6.284 6.296 6.336 6.354 6.301 6.586 6.396 6.196 6.201 6.186 6.189 6.154 6.089 6.006 6.011 5.971 5.919 5.831 5.806 5.806 5.749 5.721 5.704 5.671 5.839 6.001 5.624 6.544 6.844 6.336 5.809 5.841 5.719 5.689 5.641 5.629 6.059 5.566 5.571 5.734 5.874 6.814 6.206 5.691 5.141 4.891
47.971 47.309 47.191 47.046 46.851 46.636 46.466 46.334 46.246 46.061 45.886 45.704 45.519 45.364 45.179 44.994 44.811 44.674 44.534 44.374 44.214 44.021 43.879 43.746 43.589 43.476 43.351 43.266 43.176 43.101 43.059 43.001 42.914 42.826 42.749 42.666 42.636 42.596 42.549 42.504 42.444 42.409 42.394 42.354 42.311 42.246 42.211 42.159 42.156 42.094 42.104 42.119 42.094 42.131 42.116 42.131 42.086 42.074 42.041 41.991 41.931 41.901 41.891 41.899 41.931 41.984 42.116 41.954 42.206 43.489 44.114 42.041 41.811 41.696 41.576 41.454 41.316 41.191 41.084 40.981 40.924 40.849 40.786 40.686 40.576 40.446 40.359 40.266 40.169 40.049 39.941 39.826 39.676 39.584 39.489 39.346 39.191 39.066 38.926 38.794 38.614 38.484 38.329 38.169 37.966 37.814 37.634 37.481 37.284 37.104 36.926 36.691 36.479 36.279 36.034 35.816 35.529 35.254 34.999 34.669 34.301 33.976 33.636 33.231 32.854 32.474 32.094 31.696 31.261 30.899 30.499 30.131 29.751 29.361 29.001 28.591 28.226 27.851 27.516 27.151 26.804 26.459 26.094 25.729 25.364 24.979 24.639 24.226 23.874 23.499 23.116 22.771 22.494 22.231 22.001 21.771 21.561 21.424 21.356 20.994 20.221 19.479 18.801 18.509 18.349 18.181 17.669 17.321 17.214 17.079 16.916 16.804 16.514 16.081 15.781 16.866 18.194 18.466 17.924 17.049 16.641 14.936 14.716 14.739 14.994 15.266 14.741 14.849 14.931 14.996 15.069 15.096 15.164 15.236 15.366 15.521 15.606 15.729 15.796 15.811 15.741 15.766 15.766 15.754 15.719 15.681 15.621 15.604 15.579 15.536 15.899 16.584 16.116 16.031 15.801 15.609 15.624 15.611 15.494 15.726 15.374 14.846 14.906 14.546 14.376 14.269 14.179 14.084 13.966 14.051 13.766 18.236 19.509 20.356 18.426 16.284 12.989 11.989 12.979 11.626 11.341 10.651 10.644 10.866 11.134 13.211 11.339 12.659 15.774 16.574 16.996 16.861 11.661 10.314 11.014 12.809 9.846 9.191 9.121 9.024 8.994 8.954 9.014 10.251 10.474 9.869 9.484 9.444 9.091 9.984 10.606 10.621 12.114 12.554 12.106 12.896 12.566 9.066 7.489 7.441 7.416 10.564 14.084 14.124 16.371 16.854 17.044 17.021 15.234 8.479 7.761 7.754 7.869 8.461 10.081 8.056 8.299 8.134 8.129 8.929 9.581 8.756 8.661 10.896 11.921 14.711 12.146 7.506 6.471 6.046 6.009 5.844 5.886 5.886 8.069 9.864 9.629 6.279 5.006 4.961 6.069 6.654 7.904 7.476 6.109 5.624 6.119 5.814 7.734 8.631 11.629 12.841 12.509 10.714 7.311 6.534 6.044 5.934 6.036 6.076 6.161 6.099 6.024 6.036 6.004 5.986 5.969 6.021 6.024 6.081 6.089 6.124 6.191 6.141 6.329 6.061 6.054 6.094 6.124 6.166 6.526 6.049 6.011 5.971 5.856 5.776 5.756 5.746 5.741 5.734 5.706 5.824 5.976 6.086 6.184 6.246 6.551 6.344 6.421 6.519 6.444 6.454 6.464 6.464 6.511 6.324 6.181 6.194 6.274 6.459 6.449 6.416 6.436 6.819 7.129 6.941 6.504 6.601 6.951 6.846 7.589 6.511 7.634 6.621 6.636 7.109 7.031 6.956 6.544 6.361 6.366 6.714 6.286 6.109 5.971 5.899 5.886 5.816 5.756 5.779 5.739 5.756 5.704 5.656 5.731 6.021 5.694 5.639 6.156 5.894 5.609 5.644 5.801 6.086 5.616 5.599 5.556 5.636 5.966 5.626 5.781 5.151 4.974
47.629 47.386 47.286 47.106 46.919 46.706 46.566 46.444 46.346 46.156 45.956 45.791 45.621 45.429 45.269 45.121 44.956 44.789 44.649 44.469 44.309 44.161 44.016 43.886 43.746 43.624 43.536 43.444 43.346 43.279 43.224 43.156 43.089 43.001 42.936 42.869 42.824 42.769 42.729 42.661 42.631 42.604 42.571 42.516 42.469 42.421 42.384 42.361 42.331 42.299 42.291 42.299 42.281 42.301 42.281 42.286 42.261 42.219 42.146 42.116 42.096 42.036 42.076 42.119 42.079 42.111 43.054 42.999 43.004 43.184 42.204 42.036 41.909 41.794 41.659 41.531 41.434 41.316 41.229 41.164 41.081 41.031 40.939 40.829 40.716 40.584 40.499 40.401 40.299 40.194 40.059 39.929 39.801 39.659 39.536 39.414 39.264 39.111 38.976 38.834 38.671 38.524 38.366 38.181 38.004 37.859 37.689 37.516 37.334 37.126 36.936 36.729 36.514 36.284 36.029 35.796 35.529 35.261 34.971 34.646 34.296 33.964 33.594 33.221 32.834 32.451 32.056 31.671 31.284 30.879 30.496 30.106 29.716 29.341 28.969 28.584 28.206 27.844 27.491 27.141 26.759 26.394 26.024 25.669 25.296 24.931 24.564 24.176 23.786 23.416 23.064 22.751 22.479 22.214 21.969 21.731 21.566 21.414 21.336 20.601 19.851 19.096 18.671 18.496 18.349 17.961 17.486 17.311 17.216 17.124 16.949 16.794 16.641 16.409 15.969 16.856 18.531 17.279 15.804 15.231 15.031 14.929 14.776 14.529 14.769 14.981 14.936 15.051 15.119 15.171 15.221 15.304 15.374 15.441 15.544 15.684 15.844 15.976 16.066 16.016 15.981 16.006 16.001 16.014 15.966 15.919 15.876 15.834 15.796 15.741 15.844 15.956 15.954 15.724 15.609 15.606 15.784 15.911 15.376 15.126 15.694 15.454 14.886 14.586 14.434 14.356 14.246 14.106 13.921 13.721 13.604 14.031 16.941 16.441 14.124 13.131 13.001 12.311 12.049 11.881 10.979 10.741 10.629 10.731 11.051 10.944 12.239 16.321 16.829 16.989 16.591 16.021 13.264 10.704 10.394 10.641 10.304 10.306 11.059 11.224 10.041 12.954 11.724 10.574 10.016 9.016 8.919 9.759 9.036 9.396 11.484 11.281 14.176 13.871 13.954 15.091 12.311 7.981 7.594 7.536 7.529 11.959 14.386 12.896 11.284 13.491 13.581 16.591 14.976 9.064 7.736 7.829 7.881 7.939 7.891 7.801 7.759 7.836 7.649 7.576 7.996 8.926 8.281 10.599 11.619 14.959 11.814 8.431 7.644 6.569 5.989 7.459 8.271 7.991 7.711 8.914 8.666 7.704 5.111 5.226 6.336 5.121 6.016 7.634 6.541 6.084 7.126 7.606 9.114 11.239 12.611 12.784 11.171 6.809 5.881 6.304 6.281 6.081 6.544 6.144 6.106 6.044 6.039 6.044 6.026 6.084 6.139 6.309 7.096 7.124 6.721 7.299 6.666 6.591 6.574 6.674 6.236 6.254 6.259 6.221 7.269 6.521 6.629 6.264 6.114 5.986 5.816 5.776 5.784 5.756 5.826 5.954 6.154 6.254 6.489 6.669 6.511 6.491 6.546 6.651 6.541 6.514 6.511 6.474 6.534 6.411 6.236 6.261 6.374 6.451 7.416 8.084 8.414 8.091 8.059 8.211 8.469 8.656 7.424 6.739 7.249 6.884 7.864 6.884 6.671 6.736 7.249 6.659 6.506 6.394 6.516 7.646 7.241 6.251 6.121 5.994 5.909 5.906 5.924 5.931 5.924 5.896 5.844 5.766 5.706 5.681 5.649 5.634 5.806 5.721 5.546 5.521 5.951 5.864 5.626 5.594 5.581 5.581 5.626 5.601 5.556 5.259 5.126
47.644 47.519 47.364 47.194 46.974 46.804 46.681 46.571 46.434 46.199 46.034 45.881 45.736 45.516 45.366 45.224 45.064 44.931 44.756 44.609 44.446 44.299 44.156 44.004 43.909 43.776 43.686 43.594 43.529 43.464 43.406 43.324 43.251 43.161 43.104 43.051 43.004 42.944 42.919 42.829 42.804 42.784 42.731 42.694 42.664 42.624 42.561 42.556 42.501 42.486 42.476 42.469 42.471 42.471 42.446 42.439 42.396 42.316 42.269 42.244 42.229 42.231 42.244 42.254 42.704 42.576 42.921 43.286 43.004 42.366 42.184 42.081 41.981 41.876 41.739 41.631 41.551 41.454 41.384 41.316 41.249 41.176 41.069 40.949 40.856 40.739 40.631 40.511 40.389 40.294 40.141 40.029 39.894 39.729 39.586 39.461 39.311 39.181 39.029 38.869 38.709 38.551 38.391 38.224 38.069 37.889 37.701 37.536 37.356 37.151 36.976 36.761 36.529 36.294 36.071 35.821 35.556 35.271 34.969 34.621 34.261 33.919 33.576 33.174 32.794 32.406 32.019 31.651 31.229 30.859 30.456 30.084 29.694 29.309 28.944 28.579 28.191 27.819 27.444 27.099 26.724 26.384 25.994 25.609 25.224 24.851 24.484 24.089 23.736 23.346 23.016 22.734 22.451 22.189 21.944 21.746 21.559 21.416 20.854 20.164 19.481 18.879 18.644 18.486 18.226 17.699 17.451 17.321 17.251 17.106 16.951 16.831 16.631 16.596 16.114 15.824 16.951 15.921 15.389 15.181 15.079 15.109 14.831 14.674 15.079 15.079 15.136 15.226 15.269 15.374 15.414 15.501 15.586 15.666 15.789 15.946 16.106 16.264 16.284 16.209 16.219 16.216 16.256 16.244 16.209 16.156 16.099 16.084 16.039 15.961 15.946 15.966 15.919 15.921 15.711 15.589 15.671 15.686 15.434 15.329 15.124 15.739 15.304 14.756 14.669 14.431 14.294 14.214 14.041 13.999 14.069 13.476 14.396 13.989 14.039 13.161 12.934 12.299 12.286 12.106 11.774 11.359 10.646 10.641 10.781 10.519 11.001 16.094 16.809 16.234 13.849 10.861 11.141 13.839 10.679 10.376 10.281 11.384 11.321 14.579 14.521 18.381 18.774 18.961 15.501 10.226 9.039 9.271 9.329 9.279 9.966 12.746 14.276 13.696 14.606 14.734 11.981 7.716 7.699 7.616 7.694 12.521 14.556 11.811 9.964 10.291 10.476 10.016 9.861 8.094 8.319 8.014 7.974 7.966 7.891 7.804 7.781 7.724 7.639 7.561 7.501 8.024 7.191 7.081 10.251 7.754 7.001 7.396 7.116 6.521 6.129 10.046 13.046 8.916 6.144 7.124 7.456 6.304 5.611 6.206 5.474 5.214 5.336 5.854 7.766 6.864 6.164 7.314 10.744 12.404 12.854 11.634 8.069 6.074 6.031 6.064 6.236 6.231 6.201 6.126 6.121 6.114 6.101 6.191 6.249 6.591 6.704 6.589 6.556 7.959 6.504 6.426 6.479 6.894 6.709 7.644 7.326 6.339 6.314 6.286 7.624 7.199 7.116 6.386 6.304 6.266 6.131 6.229 6.011 5.954 6.156 6.241 6.269 6.316 6.359 6.491 6.499 6.554 6.566 6.569 6.641 7.081 6.804 6.631 6.536 6.451 6.324 6.319 6.449 6.511 8.734 10.251 10.381 10.466 10.534 10.616 10.609 9.796 7.174 6.816 8.294 7.551 8.961 9.711 9.456 8.859 9.224 8.991 8.381 8.209 6.916 6.619 6.994 6.334 6.219 6.066 5.969 6.014 6.051 6.156 6.191 6.179 6.089 5.986 5.901 5.826 5.774 5.726 5.669 5.636 5.581 5.524 5.734 5.791 5.746 6.169 6.006 5.579 5.594 5.589 5.696 5.416 5.481
47.716 47.596 47.446 47.234 47.039 46.926 46.781 46.701 46.491 46.314 46.134 45.984 45.814 45.636 45.464 45.331 45.201 45.046 44.901 44.764 44.619 44.434 44.309 44.184 44.056 43.976 43.871 43.744 43.684 43.644 43.599 43.491 43.429 43.341 43.286 43.214 43.159 43.121 43.069 43.006 42.976 42.951 42.911 42.849 42.819 42.756 42.734 42.709 42.676 42.669 42.634 42.641 42.636 42.641 42.631 42.556 42.526 42.466 42.414 42.401 42.381 42.381 42.424 42.396 43.981 43.661 50.024 49.206 45.626 42.409 42.251 42.159 42.049 41.954 41.834 41.731 41.684 41.621 41.564 41.454 41.379 41.306 41.196 41.109 40.996 40.871 40.739 40.621 40.489 40.389 40.236 40.101 39.944 39.804 39.664 39.509 39.349 39.206 39.064 38.894 38.759 38.586 38.429 38.259 38.074 37.904 37.729 37.559 37.376 37.181 36.971 36.781 36.559 36.301 36.081 35.811 35.531 35.271 34.954 34.604 34.259 33.889 33.566 33.151 32.754 32.361 31.994 31.601 31.216 30.809 30.439 30.076 29.669 29.291 28.906 28.539 28.166 27.819 27.409 27.054 26.694 26.304 25.921 25.546 25.174 24.751 24.374 24.004 23.664 23.289 22.991 22.714 22.421 22.171 21.934 21.716 21.591 21.254 20.446 19.751 19.189 18.796 18.616 18.424 17.946 17.599 17.446 17.364 17.281 17.119 16.961 16.849 16.681 16.384 16.159 15.911 15.614 15.441 15.331 15.321 15.114 14.924 14.676 14.949 15.201 15.231 15.306 15.386 15.501 15.569 15.654 15.731 15.799 15.906 16.011 16.131 16.276 16.401 16.501 16.421 16.439 16.466 16.484 16.424 16.406 16.374 16.359 16.309 16.261 16.196 16.131 16.044 15.869 17.509 17.571 17.556 16.241 15.476 15.251 15.061 14.906 14.974 15.101 15.026 15.554 15.299 14.711 14.486 14.276 14.046 13.969 13.711 14.214 13.546 13.186 13.266 13.411 15.046 15.461 13.976 11.799 11.714 10.639 10.624 10.621 10.561 10.466 10.481 13.669 12.096 11.096 13.666 16.629 16.139 13.444 10.619 10.481 10.501 11.269 11.959 12.669 14.806 18.241 18.281 15.396 11.291 10.281 9.719 9.346 10.304 10.864 13.779 14.169 13.671 15.046 14.169 9.996 7.866 7.849 7.736 7.834 12.459 14.304 10.446 8.736 9.101 8.169 9.171 8.589 8.699 9.021 9.271 8.096 8.561 8.414 7.796 7.776 7.754 7.669 7.526 7.424 7.309 7.124 6.994 6.899 6.954 7.106 6.784 8.269 7.089 7.276 8.761 9.916 6.519 6.001 6.531 6.214 7.106 9.281 8.749 5.744 5.381 5.401 5.539 5.974 8.296 7.521 7.196 11.199 12.434 12.031 9.866 6.756 6.534 6.421 6.761 6.361 6.309 6.229 6.236 6.199 6.224 6.316 6.634 6.754 6.569 6.589 6.589 7.431 8.549 7.011 6.809 6.966 6.796 6.599 8.026 7.236 6.829 6.699 6.839 8.151 6.831 6.556 6.586 6.414 6.441 6.644 6.824 6.416 6.279 6.421 6.439 6.464 6.444 6.456 6.601 8.059 8.084 8.384 8.596 9.149 9.736 9.796 8.749 6.856 6.534 6.389 6.401 6.539 6.546 8.789 10.824 11.741 11.879 12.004 11.756 11.324 9.886 7.369 6.929 8.281 7.474 9.369 10.816 11.099 10.964 10.851 10.711 10.576 10.071 7.791 6.654 6.876 6.394 6.246 6.126 6.076 6.106 6.211 6.316 6.361 6.689 6.726 6.751 6.254 6.094 6.016 5.919 5.826 5.719 5.694 5.586 5.566 5.514 5.544 5.879 6.021 5.874 6.264 5.616 5.714 5.579 6.181
47.839 47.704 47.509 47.291 47.144 47.029 46.924 46.761 46.596 46.429 46.226 46.074 45.904 45.741 45.564 45.429 45.286 45.154 45.036 44.864 44.724 44.579 44.466 44.349 44.216 44.141 44.054 43.954 43.894 43.826 43.761 43.681 43.604 43.521 43.484 43.404 43.341 43.296 43.211 43.201 43.169 43.114 43.059 43.031 42.971 42.926 42.899 42.879 42.871 42.829 42.811 42.814 42.814 42.789 42.746 42.706 42.666 42.619 42.579 42.584 42.554 42.549 42.541 42.569 44.129 44.399 51.796 45.044 42.536 42.479 42.291 42.234 42.119 42.026 41.934 41.874 41.804 41.744 41.684 41.591 41.509 41.416 41.334 41.209 41.101 40.979 40.841 40.711 40.579 40.449 40.299 40.129 40.001 39.854 39.689 39.546 39.389 39.251 39.086 38.914 38.779 38.614 38.436 38.276 38.104 37.929 37.744 37.559 37.406 37.206 37.006 36.801 36.566 36.321 36.084 35.806 35.519 35.191 34.896 34.579 34.221 33.879 33.524 33.149 32.724 32.336 31.954 31.564 31.169 30.791 30.404 30.029 29.646 29.246 28.869 28.524 28.129 27.731 27.336 27.006 26.644 26.256 25.851 25.481 25.084 24.681 24.284 23.914 23.569 23.251 22.971 22.669 22.396 22.144 21.924 21.771 21.611 21.534 20.111 19.401 19.014 18.799 18.594 18.196 17.696 17.521 17.499 17.374 17.269 17.149 17.014 16.794 16.644 16.489 16.226 15.976 15.726 15.501 15.309 15.154 15.879 17.661 14.944 15.154 15.336 15.424 15.489 15.574 15.709 15.759 15.859 15.939 16.049 16.179 16.254 16.374 16.484 16.569 16.614 16.649 16.666 16.719 16.711 16.656 16.614 16.561 16.541 16.526 16.436 16.359 16.366 16.186 15.981 18.664 18.951 18.934 18.079 15.791 15.541 15.164 14.894 16.641 16.249 15.439 15.159 14.791 14.689 14.454 14.281 14.036 13.826 13.611 13.244 15.384 15.679 15.849 15.849 15.861 15.846 14.724 11.214 10.789 10.659 10.691 10.651 10.591 10.546 10.684 10.676 11.354 15.041 16.224 16.879 16.754 14.429 11.279 10.429 10.421 10.451 10.416 10.751 11.574 11.494 11.534 10.716 9.939 9.771 9.941 10.971 11.134 11.484 14.131 13.916 14.001 15.161 12.931 8.134 7.961 7.931 7.851 7.929 8.071 8.844 8.671 9.254 9.364 9.681 10.386 10.769 8.964 9.506 9.439 8.251 8.734 8.499 8.181 7.784 7.766 7.641 7.599 7.601 7.391 7.169 7.079 6.961 7.929 7.201 6.901 8.991 8.479 6.599 7.309 12.859 11.006 7.421 6.481 6.086 7.166 10.239 10.306 6.689 5.709 5.494 5.569 5.809 6.241 6.526 6.666 7.344 10.664 10.099 6.926 6.601 6.454 6.779 6.556 6.646 6.569 6.286 6.299 6.301 6.406 7.791 7.324 6.644 6.729 6.829 6.691 6.979 7.771 8.121 10.259 11.119 10.956 6.951 8.681 7.234 9.526 10.074 9.919 9.144 8.679 9.266 7.716 7.149 6.586 6.606 7.211 6.856 6.594 6.606 6.621 6.646 6.669 6.681 7.389 9.826 10.541 10.751 10.969 11.136 11.209 10.794 9.276 6.721 6.609 6.471 6.659 6.664 6.581 9.191 10.624 10.956 10.931 10.864 10.744 10.656 9.946 7.664 6.981 7.276 7.086 9.589 10.976 11.634 11.716 11.719 11.724 11.464 10.061 7.291 6.669 6.909 6.521 6.326 6.151 6.126 6.204 6.349 6.424 6.869 7.151 6.846 6.961 6.744 6.681 6.564 6.296 6.199 6.039 5.909 5.794 5.721 5.691 5.639 5.596 5.556 5.531 5.549 5.699 6.489 5.854 5.814
47.964 47.761 47.576 47.391 47.251 47.136 47.024 46.836 46.681 46.531 46.339 46.181 46.006 45.854 45.691 45.531 45.411 45.291 45.144 45.009 44.851 44.704 44.594 44.491 44.404 44.301 44.236 44.136 44.054 43.994 43.939 43.841 43.766 43.701 43.644 43.554 43.516 43.446 43.391 43.361 43.346 43.281 43.259 43.229 43.141 43.101 43.074 43.036 43.024 42.999 42.966 42.969 42.966 42.931 42.891 42.854 42.816 42.776 42.744 42.714 42.709 42.696 42.756 43.009 44.326 46.006 49.739 42.781 42.589 42.481 42.371 42.296 42.199 42.101 42.039 41.976 41.951 41.874 41.784 41.731 41.621 41.521 41.436 41.311 41.214 41.076 40.924 40.819 40.649 40.516 40.351 40.216 40.056 39.924 39.744 39.609 39.426 39.299 39.121 38.986 38.799 38.611 38.459 38.294 38.101 37.934 37.734 37.591 37.411 37.234 37.034 36.829 36.574 36.339 36.079 35.781 35.489 35.184 34.854 34.519 34.161 33.836 33.481 33.094 32.724 32.289 31.911 31.519 31.091 30.714 30.356 29.979 29.569 29.189 28.794 28.429 28.051 27.664 27.296 26.939 26.541 26.181 25.756 25.399 24.991 24.621 24.196 23.826 23.516 23.214 22.924 22.639 22.381 22.136 22.099 21.974 21.119 20.394 19.749 19.249 18.989 18.776 18.489 17.971 17.636 17.516 17.454 17.429 17.289 17.194 17.019 16.831 16.634 16.459 16.234 16.019 15.766 15.529 15.336 15.254 15.131 15.104 15.159 15.366 15.519 15.586 15.669 15.781 15.881 15.954 16.054 16.126 16.241 16.389 16.519 16.641 16.749 16.821 16.836 16.884 16.936 16.956 16.941 16.891 16.824 16.814 16.739 16.684 16.614 16.509 16.546 16.426 16.279 18.614 18.979 18.929 17.831 15.841 15.719 15.259 16.541 19.594 19.614 19.541 19.014 18.334 15.031 14.466 14.261 14.046 13.821 13.646 13.184 15.976 16.109 16.184 16.226 15.881 15.871 13.841 11.489 10.901 10.671 10.681 10.661 10.644 10.599 10.934 13.826 15.931 16.546 16.896 16.554 16.819 16.256 13.894 10.751 10.449 10.476 10.574 10.509 12.019 12.186 10.511 9.919 10.069 9.984 9.884 9.991 10.646 11.454 12.501 13.314 14.591 14.749 12.226 8.139 8.111 8.034 7.976 8.396 8.239 8.341 8.329 8.406 8.506 8.636 8.864 8.864 8.904 8.976 8.894 9.194 9.109 9.214 8.559 8.999 8.011 7.966 7.541 7.449 7.944 7.204 7.089 10.744 9.531 7.006 7.364 7.266 6.734 6.509 6.564 10.831 8.956 7.014 5.614 5.774 6.224 7.536 7.446 6.689 6.834 5.856 5.951 6.164 6.161 6.489 6.821 7.406 5.984 6.461 6.376 6.474 6.551 6.596 6.654 7.346 6.506 6.351 6.436 6.514 6.599 7.744 8.401 6.871 6.991 7.579 8.849 10.109 11.829 12.504 13.094 13.404 12.376 7.681 7.389 8.546 12.689 13.129 13.096 13.054 12.966 12.911 12.829 11.786 7.121 6.856 7.444 7.274 7.174 7.676 7.701 7.744 8.766 8.401 7.036 9.749 11.091 11.409 11.434 11.344 11.126 10.764 9.614 7.069 6.684 6.564 7.609 6.879 6.736 8.254 9.194 9.139 9.434 9.316 9.084 8.739 8.729 8.306 7.044 6.886 6.874 9.441 10.131 10.306 10.454 10.554 10.671 10.651 9.839 7.616 7.136 7.181 6.504 6.334 6.256 6.224 6.314 6.411 6.504 6.824 7.751 6.979 6.699 9.091 7.586 6.514 6.591 6.431 6.346 6.234 6.066 5.989 5.914 5.804 5.724 5.669 5.624 5.554 5.539 5.489 5.411 5.491
48.051 47.874 47.659 47.481 47.341 47.266 47.106 46.944 46.771 46.601 46.434 46.266 46.114 45.959 45.809 45.644 45.526 45.419 45.274 45.126 44.981 44.866 44.729 44.659 44.554 44.474 44.396 44.299 44.256 44.166 44.084 43.986 43.924 43.851 43.789 43.721 43.686 43.606 43.576 43.549 43.519 43.431 43.419 43.351 43.294 43.264 43.194 43.201 43.189 43.164 43.131 43.126 43.119 43.054 42.999 42.994 42.956 42.934 42.894 42.884 42.871 42.891 43.026 44.726 43.561 43.869 42.751 42.726 42.649 42.541 42.454 42.346 42.269 42.216 42.136 42.091 42.036 41.949 41.899 41.799 41.686 41.604 41.516 41.409 41.289 41.146 41.021 40.894 40.744 40.609 40.444 40.286 40.149 39.969 39.789 39.631 39.466 39.294 39.139 38.969 38.806 38.614 38.476 38.314 38.131 37.944 37.744 37.581 37.411 37.221 36.994 36.801 36.606 36.354 36.081 35.779 35.461 35.151 34.839 34.489 34.124 33.746 33.411 33.031 32.614 32.201 31.844 31.469 31.074 30.686 30.291 29.894 29.484 29.116 28.741 28.366 27.969 27.601 27.219 26.831 26.449 26.064 25.691 25.279 24.904 24.484 24.141 23.804 23.499 23.179 22.909 22.631 22.376 22.196 24.604 24.044 20.691 20.049 19.546 19.221 18.989 18.689 18.261 17.824 17.611 17.514 17.446 17.389 17.309 17.234 17.051 16.846 16.676 16.461 16.221 15.961 15.741 15.544 15.334 15.111 14.984 15.346 15.506 15.624 15.719 15.781 15.891 15.986 16.071 16.186 16.239 16.369 16.494 16.561 16.706 16.844 16.921 16.956 16.996 17.066 17.109 17.114 17.101 17.086 17.016 16.989 16.941 16.856 16.754 16.686 16.739 16.494 16.296 18.899 18.981 18.936 16.881 15.921 15.769 15.176 15.929 19.571 19.596 19.621 19.669 19.744 15.741 14.476 14.286 14.089 13.894 13.669 13.316 15.619 16.049 16.024 15.949 15.911 15.896 14.011 12.269 11.226 11.254 10.679 10.719 10.731 10.811 15.181 16.306 16.816 16.779 16.129 15.579 16.319 16.894 15.519 11.256 10.511 10.621 12.131 12.129 11.261 11.739 10.704 10.114 9.869 9.854 10.394 10.131 9.671 9.596 10.414 13.826 14.839 14.121 9.846 8.259 8.244 8.151 8.164 11.821 13.776 13.744 11.084 9.826 8.894 8.726 8.821 8.871 8.891 8.926 8.914 8.919 9.014 9.614 9.151 9.254 8.529 12.351 9.524 10.601 9.789 7.961 7.759 9.386 8.621 6.716 7.054 7.204 6.744 6.514 7.201 6.474 7.996 8.674 7.399 6.401 7.274 7.626 7.394 6.964 6.971 7.384 6.166 6.201 7.289 9.226 7.764 7.204 6.434 6.486 6.736 6.836 6.904 6.636 6.534 6.594 6.459 6.516 6.716 6.861 6.811 7.149 8.254 7.756 7.511 10.676 13.084 13.499 13.714 13.904 13.886 13.589 12.751 9.051 7.846 8.734 12.869 13.536 13.659 13.801 13.746 13.674 13.424 10.999 7.314 7.424 9.184 9.739 10.121 10.361 10.509 10.644 10.589 8.424 7.286 9.541 10.274 10.109 9.721 9.399 8.931 8.751 8.546 6.871 6.739 6.661 7.369 6.811 6.954 6.621 6.639 6.846 6.866 7.976 7.259 6.766 6.854 7.021 7.084 6.966 6.934 7.681 7.544 7.784 8.264 8.221 8.566 8.991 9.011 7.326 7.354 6.759 6.566 6.426 6.339 6.306 6.441 6.551 6.536 6.924 6.611 6.524 7.844 9.861 9.679 9.026 8.351 7.211 6.889 6.469 6.366 6.751 6.779 6.609 5.886 5.789 5.741 5.686 5.631 5.569 5.469 5.389
48.129 47.944 47.734 47.586 47.459 47.369 47.216 47.059 46.884 46.684 46.534 46.384 46.231 46.054 45.896 45.776 45.659 45.539 45.396 45.244 45.126 45.004 44.889 44.819 44.696 44.619 44.549 44.476 44.404 44.324 44.221 44.141 44.086 44.029 43.966 43.891 43.834 43.769 43.726 43.736 43.679 43.616 43.554 43.494 43.454 43.431 43.386 43.324 43.346 43.311 43.286 43.294 43.229 43.176 43.116 43.121 43.111 43.074 43.066 43.011 43.066 43.204 43.531 43.279 43.276 42.919 42.851 42.789 42.684 42.589 42.494 42.421 42.339 42.316 42.226 42.211 42.131 42.054 41.966 41.881 41.796 41.671 41.574 41.464 41.346 41.231 41.076 40.959 40.814 40.671 40.511 40.351 40.169 40.021 39.871 39.694 39.499 39.314 39.129 38.991 38.794 38.614 38.466 38.281 38.109 37.899 37.746 37.566 37.374 37.219 37.024 36.801 36.566 36.301 36.034 35.746 35.434 35.111 34.781 34.434 34.091 33.709 33.329 32.971 32.571 32.149 31.764 31.381 30.999 30.594 30.196 29.836 29.414 29.031 28.644 28.254 27.874 27.506 27.094 26.731 26.356 25.954 25.584 25.186 24.801 24.401 24.059 23.764 23.471 23.156 22.871 22.624 22.419 22.276 22.204 22.321 20.351 19.819 19.501 19.229 18.956 18.569 18.071 17.739 17.619 17.526 17.449 17.429 17.311 17.274 17.056 16.829 16.649 16.444 16.166 15.889 15.696 15.489 15.189 15.031 15.526 16.034 15.729 15.784 15.866 15.999 16.119 16.174 16.304 16.376 16.469 16.594 16.724 16.836 16.974 17.069 17.156 17.191 17.216 17.259 17.286 17.271 17.266 17.271 17.196 17.161 17.101 17.024 16.946 16.861 16.854 16.616 17.386 18.911 18.991 18.891 17.096 15.964 15.781 15.134 17.246 19.591 19.616 19.634 19.669 18.881 14.711 14.486 14.306 14.124 13.921 13.739 13.496 14.594 15.341 14.934 14.586 15.724 15.954 14.711 12.101 11.459 11.186 10.709 10.726 10.701 10.969 13.674 16.871 16.351 15.796 15.059 14.501 15.476 15.756 11.556 10.826 10.844 10.551 11.149 11.449 11.699 11.716 11.086 10.329 10.256 10.094 10.209 9.911 9.551 10.574 12.834 14.381 14.856 13.341 8.884 8.661 8.391 8.301 8.749 14.044 15.349 15.149 13.989 12.401 12.091 9.229 8.901 8.951 8.921 8.976 9.031 9.016 9.046 10.004 8.999 8.854 10.916 14.884 15.956 15.426 13.294 8.554 8.064 9.206 7.246 6.819 6.706 6.989 6.834 6.831 7.154 5.929 8.186 8.511 6.441 6.611 7.971 7.514 6.714 6.781 7.034 6.706 6.749 8.376 9.984 10.609 9.596 7.854 6.756 6.764 7.771 6.959 6.801 6.654 6.586 6.574 6.614 6.766 7.161 7.144 7.009 7.239 7.866 8.619 7.886 9.736 13.436 13.609 13.239 12.736 10.896 10.074 9.156 7.571 7.816 7.229 10.031 10.864 11.189 11.674 10.726 11.606 10.996 9.616 7.451 6.986 9.934 11.229 11.526 11.591 11.636 11.599 11.114 9.001 7.174 7.354 7.366 7.029 7.204 7.239 6.866 6.846 6.909 7.461 6.811 6.676 6.991 6.939 6.899 6.739 6.789 6.769 6.749 7.666 7.014 6.784 6.924 6.984 7.194 7.091 6.854 6.906 6.819 6.779 6.799 6.746 6.734 6.706 6.679 6.759 6.729 6.696 6.621 6.441 6.394 6.379 6.501 6.541 6.574 7.894 7.144 6.494 8.934 10.591 11.104 10.676 10.276 9.881 9.474 8.734 7.824 8.531 7.021 7.126 5.919 5.839 5.821 5.781 5.694 5.656 5.609 5.541
48.221 48.029 47.831 47.696 47.606 47.479 47.314 47.131 46.959 46.811 46.631 46.474 46.309 46.166 46.006 45.916 45.769 45.659 45.494 45.354 45.266 45.169 45.049 44.959 44.874 44.764 44.689 44.629 44.561 44.461 44.381 44.324 44.241 44.164 44.089 44.054 43.979 43.936 43.911 43.866 43.804 43.781 43.724 43.664 43.606 43.561 43.519 43.511 43.514 43.466 43.444 43.404 43.349 43.291 43.249 43.269 43.259 43.239 43.224 43.206 43.336 44.154 47.104 43.231 43.061 42.996 42.924 42.849 42.774 42.676 42.571 42.504 42.434 42.386 42.319 42.281 42.206 42.139 42.036 41.961 41.861 41.746 41.634 41.514 41.371 41.264 41.136 41.021 40.846 40.704 40.541 40.401 40.219 40.054 39.879 39.721 39.521 39.349 39.186 39.021 38.824 38.639 38.464 38.284 38.094 37.899 37.719 37.546 37.366 37.184 37.001 36.776 36.534 36.284 36.026 35.729 35.384 35.059 34.744 34.381 34.036 33.636 33.281 32.879 32.496 32.104 31.704 31.339 30.891 30.496 30.119 29.734 29.336 28.979 28.551 28.184 27.771 27.371 27.011 26.624 26.251 25.826 25.436 25.039 24.656 24.334 24.036 23.729 23.424 23.121 22.869 22.651 22.536 22.231 21.339 20.649 20.101 19.756 19.516 19.231 18.889 18.369 17.926 17.699 17.601 17.511 17.451 17.344 17.289 17.176 16.996 16.806 16.591 16.341 16.056 15.806 15.601 15.261 15.216 15.606 16.959 17.949 16.611 15.966 16.046 16.204 16.311 16.414 16.529 16.609 16.714 16.831 16.966 17.096 17.219 17.294 17.364 17.391 17.426 17.456 17.449 17.436 17.414 17.466 17.374 17.339 17.259 17.174 17.099 17.026 17.009 16.624 17.976 18.936 18.981 18.904 16.646 16.059 15.799 15.091 18.229 19.596 19.591 19.659 19.674 19.456 15.424 14.731 14.294 14.116 13.939 13.739 13.559 13.024 13.096 12.614 12.684 12.559 12.331 12.361 12.116 12.061 11.139 10.686 10.754 10.776 11.169 11.494 15.859 14.754 16.804 13.949 13.406 12.506 11.546 10.979 10.721 10.539 10.574 10.519 11.109 10.974 10.791 10.666 10.369 10.286 10.226 10.116 10.334 10.124 11.339 13.339 14.729 14.301 10.739 8.949 9.454 8.491 8.411 9.486 14.364 15.426 14.891 14.841 14.731 14.681 10.209 9.026 9.036 9.011 9.009 9.106 9.131 9.039 8.786 8.674 8.624 11.821 15.046 16.081 15.246 12.854 8.259 8.139 8.084 6.954 6.854 6.666 6.594 6.621 6.564 6.516 5.971 9.719 8.594 5.851 5.811 6.146 6.311 6.501 6.724 6.466 6.721 8.596 10.259 11.176 11.506 10.529 9.204 7.029 7.076 6.951 6.951 6.736 6.746 6.691 6.719 6.966 7.139 7.266 7.284 7.196 9.061 9.831 7.849 8.656 8.924 11.866 10.101 8.879 8.194 7.191 7.051 7.036 7.909 8.389 7.869 7.071 6.959 7.089 8.754 7.031 6.986 7.059 7.051 7.019 6.969 9.684 10.929 10.979 10.814 10.694 10.526 10.316 9.269 7.089 6.964 6.901 6.904 6.929 7.316 6.931 6.924 6.929 7.034 6.881 6.786 7.819 7.009 7.276 7.151 6.944 6.954 6.954 7.524 7.286 6.964 7.164 7.344 8.666 8.416 7.254 7.209 6.919 6.889 6.936 6.861 6.834 6.811 6.794 7.556 7.394 6.729 6.614 6.514 6.466 6.429 6.554 6.604 6.659 7.689 8.094 6.951 9.406 10.759 11.431 11.739 11.746 11.271 10.819 10.011 7.996 8.586 7.259 6.351 5.884 5.874 5.834 5.821 5.746 5.689 5.701 5.659
48.304 48.119 47.954 47.806 47.744 47.584 47.406 47.251 47.059 46.916 46.721 46.586 46.401 46.286 46.141 46.021 45.926 45.774 45.634 45.504 45.404 45.294 45.199 45.099 45.014 44.931 44.854 44.784 44.686 44.609 44.531 44.441 44.394 44.314 44.244 44.214 44.106 44.081 44.064 44.011 43.974 43.921 43.834 43.781 43.756 43.696 43.669 43.641 43.649 43.626 43.599 43.529 43.456 43.441 43.409 43.396 43.386 43.376 43.379 43.814 45.856 43.746 43.529 43.176 43.114 43.066 42.954 42.879 42.806 42.744 42.651 42.591 42.554 42.496 42.404 42.359 42.271 42.216 42.094 42.006 41.889 41.784 41.699 41.581 41.444 41.291 41.166 41.024 40.886 40.741 40.589 40.429 40.256 40.096 39.901 39.711 39.549 39.369 39.236 39.034 38.861 38.666 38.476 38.294 38.106 37.899 37.721 37.541 37.329 37.144 36.961 36.751 36.479 36.244 35.956 35.649 35.324 34.984 34.644 34.294 33.951 33.576 33.191 32.814 32.409 32.016 31.619 31.226 30.809 30.374 29.994 29.619 29.249 28.851 28.449 28.089 27.681 27.274 26.871 26.476 26.111 25.711 25.316 24.949 24.596 24.269 23.976 23.706 23.399 23.121 22.874 22.761 22.481 21.681 20.956 20.381 20.026 19.756 19.501 19.166 18.799 18.244 17.844 17.684 17.604 17.539 17.456 17.356 17.264 17.116 16.941 16.766 16.491 16.234 15.999 15.684 15.404 15.309 15.621 17.839 17.346 16.774 16.086 16.159 16.296 16.426 16.514 16.656 16.751 16.859 16.989 17.119 17.221 17.379 17.476 17.546 17.606 17.641 17.656 17.664 17.654 17.616 17.614 17.626 17.539 17.509 17.424 17.344 17.224 17.221 17.144 16.846 16.316 16.894 17.164 17.461 16.246 16.229 16.329 14.956 18.051 19.604 19.621 19.636 19.691 19.071 17.134 15.051 14.624 14.291 13.969 13.751 13.524 13.214 12.849 12.479 12.234 11.841 11.564 11.296 11.561 11.239 10.849 10.759 10.759 10.804 10.861 10.916 11.749 11.026 13.494 12.311 11.159 11.276 11.066 10.904 12.539 13.406 11.174 10.494 10.941 11.156 10.741 10.394 10.636 10.389 10.689 10.889 9.981 10.444 13.034 14.659 15.019 13.744 9.501 9.324 9.161 8.624 8.536 11.329 15.411 15.979 14.414 12.781 13.876 12.686 9.004 9.139 9.161 9.139 9.076 9.049 9.006 8.949 8.819 8.749 8.719 11.994 15.474 16.259 15.184 12.141 8.501 8.224 7.726 6.979 6.739 7.051 9.106 8.826 7.154 6.601 8.739 14.494 10.586 6.396 5.974 5.776 6.139 6.749 6.546 7.219 9.346 10.556 11.624 11.604 10.869 10.016 7.724 6.704 7.614 6.999 6.871 6.814 6.819 6.809 6.924 7.819 8.641 7.546 7.404 8.354 13.161 13.246 11.161 8.761 7.689 7.156 7.161 7.299 7.154 7.584 7.099 7.101 7.209 7.661 8.976 7.579 7.066 7.119 8.526 7.164 7.106 7.134 7.114 7.086 7.051 8.454 9.429 8.724 8.496 8.234 7.676 7.394 7.156 8.336 7.841 7.349 7.056 8.079 7.436 7.049 7.436 7.026 7.434 6.954 6.979 7.856 7.054 8.314 7.741 7.309 7.111 7.784 9.291 7.651 7.374 7.744 8.069 8.659 8.151 7.459 7.534 7.784 7.454 7.161 6.909 7.056 6.914 6.924 8.104 7.066 6.746 6.684 6.636 6.561 6.484 6.594 6.649 6.754 6.799 6.714 7.446 9.059 9.469 10.021 10.416 10.849 11.219 11.116 9.779 7.279 6.356 7.226 6.069 5.879 5.886 5.874 5.819 5.806 5.744 5.749 5.701
48.374 48.184 48.039 47.939 47.846 47.659 47.514 47.359 47.171 47.006 46.869 46.686 46.556 46.379 46.291 46.146 46.016 45.891 45.756 45.634 45.536 45.421 45.359 45.256 45.131 45.081 45.019 44.914 44.839 44.734 44.679 44.609 44.534 44.476 44.404 44.336 44.251 44.251 44.229 44.159 44.119 44.051 44.011 43.931 43.889 43.829 43.811 43.791 43.784 43.744 43.671 43.649 43.589 43.546 43.551 43.546 43.564 43.489 43.599 44.346 46.594 45.184 43.651 43.241 43.194 43.114 43.031 42.939 42.889 42.804 42.764 42.689 42.624 42.551 42.481 42.404 42.321 42.236 42.141 42.024 41.949 41.859 41.724 41.634 41.491 41.354 41.201 41.079 40.926 40.791 40.624 40.449 40.284 40.124 39.951 39.756 39.581 39.401 39.214 39.046 38.869 38.664 38.461 38.279 38.114 37.916 37.716 37.536 37.324 37.139 36.934 36.696 36.431 36.191 35.876 35.579 35.256 34.909 34.584 34.204 33.859 33.469 33.081 32.701 32.296 31.909 31.501 31.149 30.746 30.284 29.891 29.504 29.124 28.714 28.324 27.929 27.546 27.156 26.756 26.351 25.954 25.576 25.201 24.839 24.524 24.221 23.934 23.659 23.359 23.144 22.981 22.759 21.971 21.216 20.636 20.244 20.016 19.709 19.386 19.091 18.741 18.221 17.831 17.751 17.759 17.619 17.489 17.371 17.236 17.034 16.829 16.601 16.374 16.126 15.774 15.374 15.479 15.844 16.949 18.211 16.576 16.176 16.256 16.401 16.539 16.624 16.764 16.889 16.979 17.116 17.229 17.376 17.499 17.646 17.751 17.806 17.839 17.881 17.896 17.869 17.881 17.856 17.851 17.806 17.764 17.666 17.584 17.504 17.404 17.434 17.374 17.264 17.131 16.924 16.621 16.464 16.494 17.736 15.594 14.919 19.104 19.591 19.599 19.616 19.679 19.044 16.764 14.824 14.501 14.534 14.089 13.959 13.771 13.651 13.404 12.664 12.176 11.899 11.651 11.414 11.226 11.081 10.959 10.821 10.779 10.856 10.886 10.849 11.379 11.876 11.481 11.314 11.771 11.031 10.999 12.584 16.159 16.466 14.519 10.561 10.841 12.526 12.179 10.589 10.461 10.706 10.559 11.281 10.531 13.694 13.314 15.136 14.911 12.339 8.976 8.819 8.754 8.676 8.644 14.124 15.976 16.149 14.661 11.759 11.756 10.774 9.496 13.221 12.109 10.384 9.191 9.146 9.151 9.049 9.046 8.779 8.819 11.769 15.626 16.331 15.149 11.871 8.436 8.379 7.596 7.049 6.749 8.181 11.096 11.144 7.659 6.274 6.834 14.386 10.464 6.724 6.329 6.074 6.161 6.369 8.129 9.876 10.786 11.561 11.499 10.671 9.581 7.626 6.689 6.781 6.926 7.014 6.964 6.911 6.916 7.006 7.549 7.421 7.939 8.386 9.461 13.061 14.359 14.121 12.261 8.166 8.964 7.359 7.214 7.229 7.401 7.881 7.151 7.166 7.169 7.684 7.476 7.271 7.219 7.271 8.439 7.151 7.149 7.146 7.151 7.281 7.491 7.179 7.181 7.186 7.214 8.299 7.159 7.124 7.181 9.436 9.066 9.126 8.591 9.221 9.411 8.171 7.569 7.196 7.186 7.031 6.964 7.289 7.091 7.971 8.666 9.219 8.269 7.579 7.714 7.611 7.409 7.431 7.456 7.286 7.386 7.374 7.426 7.714 7.326 7.531 7.664 7.271 7.101 7.109 7.569 6.869 6.824 6.806 6.696 6.641 7.034 7.089 6.669 7.111 9.039 7.351 6.761 6.731 6.714 7.191 8.641 9.319 9.811 10.124 9.266 6.634 6.499 6.821 7.384 9.201 6.924 5.891 5.859 5.839 5.769 5.789 5.724
48.446 48.286 48.166 48.071 47.924 47.769 47.629 47.441 47.286 47.121 46.969 46.784 46.636 46.509 46.421 46.259 46.134 45.974 45.884 45.749 45.649 45.589 45.501 45.401 45.306 45.219 45.144 45.066 44.984 44.876 44.816 44.756 44.691 44.591 44.549 44.464 44.419 44.411 44.336 44.261 44.234 44.171 44.104 44.056 44.014 43.986 43.959 43.916 43.886 43.816 43.769 43.724 43.686 43.674 43.676 43.686 43.666 43.731 44.171 45.816 44.251 45.009 43.384 43.336 43.219 43.139 43.061 43.021 42.969 42.904 42.841 42.769 42.686 42.614 42.586 42.471 42.399 42.296 42.179 42.081 41.956 41.849 41.754 41.614 41.511 41.384 41.224 41.099 40.944 40.809 40.649 40.471 40.301 40.144 39.984 39.786 39.609 39.419 39.249 39.036 38.869 38.686 38.494 38.304 38.119 37.919 37.704 37.526 37.319 37.126 36.871 36.626 36.381 36.104 35.789 35.479 35.161 34.831 34.499 34.134 33.746 33.361 32.986 32.574 32.176 31.781 31.374 31.009 30.621 30.219 29.789 29.404 29.011 28.606 28.189 27.796 27.386 27.026 26.641 26.231 25.826 25.451 25.074 24.741 24.461 24.151 23.869 23.631 23.354 23.186 23.044 22.301 21.509 20.859 20.464 20.219 19.984 19.661 19.306 19.016 18.759 18.341 18.026 17.876 17.836 17.674 17.529 17.339 17.164 16.964 16.721 16.476 20.186 21.181 16.759 15.581 16.204 16.474 16.699 16.571 16.266 16.356 16.446 16.619 16.751 16.879 17.016 17.116 17.241 17.381 17.509 17.631 17.799 17.946 17.996 18.034 18.066 18.074 18.064 18.071 18.056 18.034 18.054 17.981 17.911 17.844 17.744 17.674 17.581 17.684 17.549 17.411 17.301 17.169 16.959 16.761 16.786 17.051 15.471 14.879 18.931 19.334 19.636 19.579 19.679 19.444 20.186 19.144 17.581 14.834 15.369 15.504 15.099 13.769 13.771 13.114 12.751 12.016 11.731 11.481 11.291 11.149 11.019 10.934 10.926 10.846 10.899 10.879 11.371 11.409 11.131 11.701 11.961 11.754 11.381 16.061 16.889 17.464 16.776 12.589 10.814 11.239 11.131 10.584 10.414 10.514 10.471 10.101 10.964 13.676 14.536 15.784 14.356 10.229 9.019 8.979 8.894 8.789 9.109 11.964 15.671 15.394 13.806 11.761 11.651 9.674 12.154 15.841 15.499 15.156 13.614 11.786 11.246 9.856 9.719 9.169 8.989 14.406 16.036 16.411 15.061 10.146 8.449 8.844 9.164 10.079 7.894 10.189 8.356 9.906 6.696 6.456 6.119 6.339 7.004 6.796 6.581 6.319 6.436 6.616 8.144 10.199 11.316 11.209 10.294 9.154 7.146 6.766 6.834 6.906 7.129 7.084 7.066 7.049 7.074 7.289 7.409 7.364 7.419 7.851 12.546 14.189 14.389 12.501 8.379 7.991 9.326 8.911 8.811 7.391 7.534 8.854 7.336 7.301 7.284 8.741 9.646 7.781 7.966 8.494 9.064 7.296 7.309 7.326 7.276 7.836 8.211 7.351 7.234 7.271 8.766 9.814 7.204 7.184 7.516 10.661 10.616 9.299 9.181 8.104 8.684 9.844 7.374 7.329 7.234 7.031 6.989 6.981 7.131 8.909 8.749 8.649 8.999 7.556 7.359 7.356 7.329 7.299 7.266 7.284 7.329 7.356 7.294 7.301 9.764 10.351 10.131 9.414 7.654 7.169 7.366 7.011 7.561 7.441 6.789 6.706 6.676 7.211 6.759 6.999 7.834 7.481 8.421 7.281 6.709 6.636 6.851 6.581 6.839 7.934 7.581 6.354 7.429 6.201 11.071 12.209 11.844 10.616 8.361 6.969 6.511 5.789 5.741
48.554 48.429 48.319 48.191 48.041 47.879 47.709 47.541 47.384 47.214 47.076 46.904 46.746 46.634 46.534 46.364 46.236 46.116 46.004 45.886 45.801 45.704 45.624 45.516 45.459 45.371 45.276 45.199 45.071 45.021 44.961 44.876 44.806 44.726 44.654 44.604 44.569 44.516 44.476 44.394 44.344 44.286 44.206 44.174 44.126 44.096 44.036 44.006 43.969 43.906 43.831 43.791 43.781 43.779 43.809 43.801 44.169 45.819 46.129 46.184 48.271 48.726 45.491 43.304 43.276 43.164 43.101 43.044 43.024 42.966 42.881 42.824 42.749 42.676 42.589 42.494 42.421 42.361 42.236 42.129 42.001 41.901 41.791 41.654 41.529 41.379 41.251 41.099 40.966 40.791 40.651 40.471 40.321 40.146 39.971 39.801 39.621 39.454 39.269 39.081 38.911 38.696 38.494 38.304 38.109 37.921 37.704 37.504 37.296 37.064 36.826 36.589 36.339 36.026 35.704 35.364 35.034 34.706 34.361 34.006 33.641 33.254 32.856 32.474 32.041 31.664 31.249 30.856 30.461 30.096 29.676 29.281 28.886 28.469 28.064 27.654 27.261 26.844 26.459 26.081 25.679 25.319 24.964 24.669 24.421 24.116 23.844 23.594 23.424 23.329 22.919 21.756 21.129 20.664 20.409 20.204 19.911 19.599 19.249 19.006 18.749 18.471 18.224 18.016 17.861 17.714 17.531 17.331 17.111 16.856 16.516 17.741 24.874 18.339 17.881 16.131 16.084 16.439 16.436 16.491 20.546 17.404 16.721 16.874 16.999 17.154 17.244 17.354 17.519 17.639 17.806 17.984 18.104 18.184 18.234 18.276 18.309 18.311 18.299 18.296 18.254 18.256 18.259 18.214 18.066 17.981 17.911 17.811 17.754 18.144 17.854 17.674 17.621 17.479 17.191 16.851 16.964 15.736 14.984 14.804 15.301 17.624 17.546 18.089 18.596 19.409 21.094 21.086 18.959 16.814 16.744 16.724 16.396 13.871 13.704 13.206 13.256 12.109 12.076 12.141 12.084 11.231 11.234 11.859 11.744 10.936 10.906 10.959 10.944 10.994 10.991 11.054 11.841 12.129 11.296 16.636 18.459 19.734 18.096 15.826 11.181 11.454 10.904 11.509 11.629 10.529 10.199 10.271 12.221 13.716 15.261 15.114 13.171 9.259 9.159 9.101 9.049 8.911 10.319 14.146 12.829 10.529 9.766 10.976 11.814 10.959 13.121 15.796 16.019 16.166 15.961 15.654 15.284 13.786 9.286 9.844 9.134 14.481 16.161 16.289 14.949 10.016 8.634 11.481 13.999 14.926 10.021 7.429 7.279 6.704 6.791 6.701 6.236 6.864 7.364 7.039 6.869 6.901 7.481 6.926 6.684 8.634 10.361 10.034 8.546 7.201 7.596 7.076 6.974 7.191 7.246 7.159 7.141 7.169 7.304 7.434 7.466 7.511 7.654 11.746 13.999 14.564 13.249 10.081 7.516 7.549 7.719 9.291 9.559 7.941 7.769 8.691 7.629 7.511 7.469 7.851 9.644 8.136 7.864 7.934 9.216 7.501 7.524 7.794 7.451 7.686 8.366 8.219 8.111 7.866 7.814 9.409 8.906 8.284 8.729 10.259 8.576 7.826 9.929 7.844 8.444 8.481 7.519 7.379 7.236 7.094 7.069 7.066 7.096 7.239 7.341 7.701 7.959 7.371 7.391 7.371 7.371 7.366 7.791 7.649 7.479 7.441 7.366 7.491 9.634 11.549 11.801 10.584 7.771 7.266 7.639 7.246 7.154 6.981 6.881 6.794 6.696 6.741 7.189 6.896 6.919 7.069 7.476 7.721 9.091 7.526 6.739 6.704 6.529 6.459 6.669 7.099 8.324 6.629 13.011 13.256 12.921 12.546 12.146 11.791 11.326 9.781 7.454
48.676 48.564 48.446 48.326 48.139 47.984 47.799 47.651 47.474 47.316 47.161 47.034 46.871 46.754 46.654 46.499 46.371 46.256 46.139 46.026 45.934 45.861 45.771 45.654 45.589 45.501 45.424 45.304 45.221 45.144 45.084 45.024 44.929 44.859 44.766 44.741 44.704 44.641 44.579 44.501 44.444 44.376 44.296 44.289 44.226 44.194 44.134 44.089 44.031 43.964 43.886 43.864 43.864 43.851 43.854 45.316 44.539 44.661 44.481 43.964 44.716 45.219 43.361 43.291 43.226 43.189 43.109 43.054 43.009 42.984 42.936 42.874 42.776 42.679 42.601 42.514 42.441 42.344 42.256 42.126 42.039 41.926 41.789 41.654 41.529 41.409 41.231 41.091 40.951 40.766 40.636 40.466 40.321 40.156 39.979 39.784 39.639 39.451 39.286 39.099 38.891 38.681 38.504 38.299 38.116 37.896 37.691 37.484 37.244 37.014 36.764 36.509 36.234 35.931 35.606 35.291 34.964 34.614 34.269 33.886 33.476 33.106 32.719 32.319 31.909 31.519 31.116 30.744 30.324 29.936 29.534 29.124 28.736 28.309 27.904 27.509 27.119 26.696 26.321 25.906 25.551 25.221 24.934 24.621 24.349 24.066 23.819 23.629 23.644 23.304 22.106 21.356 20.894 20.616 20.379 20.149 19.859 19.529 19.216 18.991 18.731 18.461 18.231 18.064 17.891 17.729 17.529 17.316 17.011 16.506 17.546 22.419 23.629 21.746 17.666 17.131 18.924 16.506 17.214 17.331 21.224 19.121 17.111 17.129 17.266 17.406 17.501 17.639 17.776 17.906 18.076 18.251 18.399 18.456 18.464 18.519 18.556 18.561 18.534 18.526 18.526 18.509 18.466 18.406 18.269 18.169 18.066 17.999 17.976 18.151 18.054 17.746 17.931 17.689 17.261 16.889 17.584 15.576 15.071 14.974 14.931 15.944 18.636 18.536 18.341 19.431 21.316 20.824 18.711 16.776 16.716 16.736 16.506 15.576 14.126 13.119 12.631 12.221 12.366 12.921 12.041 11.306 11.439 11.996 11.766 11.154 10.979 11.001 10.979 10.971 10.966 11.036 11.351 12.074 11.629 14.624 17.946 19.684 18.876 16.931 12.484 11.679 12.084 14.014 14.654 12.054 11.044 10.679 11.159 14.896 16.041 15.224 10.649 9.319 9.279 9.216 9.121 9.091 13.754 15.094 14.964 14.936 13.724 9.796 9.414 9.701 10.671 12.286 13.176 15.231 15.604 15.964 16.134 11.831 9.131 9.366 9.709 15.216 16.469 16.184 14.584 9.716 8.664 9.196 11.054 12.071 7.049 7.114 7.111 6.579 6.876 6.389 6.346 6.669 7.901 7.236 6.869 8.221 9.351 8.484 6.769 6.786 9.191 8.114 7.004 7.051 7.416 7.631 7.341 7.376 7.301 7.281 7.264 7.331 8.041 8.469 8.204 7.686 9.394 13.726 14.599 13.691 11.034 9.654 8.056 7.859 7.744 8.194 9.594 9.071 7.859 7.919 8.134 7.656 7.649 7.734 9.699 7.746 7.659 7.689 8.741 7.624 8.291 9.414 8.944 9.444 8.341 7.401 7.379 7.329 8.254 11.784 8.756 7.646 7.874 9.131 9.564 10.869 10.951 8.491 8.386 8.851 7.464 7.854 7.676 7.196 7.161 7.126 7.081 7.184 7.274 7.644 7.421 8.004 10.389 9.094 7.941 7.861 10.674 10.671 9.046 7.516 7.479 7.454 9.336 11.746 12.174 10.746 7.716 7.416 7.456 7.471 7.719 7.726 7.651 7.156 7.039 7.064 6.991 7.011 7.071 7.036 6.951 7.514 8.781 8.129 6.876 6.729 6.974 8.249 7.291 6.781 7.139 8.546 12.381 12.784 13.156 13.286 13.186 12.844 12.484 12.041 11.511
48.836 48.701 48.589 48.431 48.246 48.071 47.919 47.769 47.569 47.409 47.251 47.121 46.991 46.889 46.764 46.606 46.496 46.379 46.269 46.181 46.079 46.006 45.866 45.766 45.706 45.621 45.564 45.419 45.341 45.251 45.199 45.116 45.051 44.986 44.916 44.881 44.821 44.749 44.674 44.619 44.556 44.494 44.414 44.346 44.299 44.246 44.199 44.166 44.099 44.006 43.964 43.919 43.909 43.896 43.951 43.946 44.871 47.186 44.669 43.776 43.394 43.346 43.366 43.311 43.314 43.161 43.094 43.061 43.034 42.971 42.939 42.869 42.796 42.704 42.619 42.526 42.436 42.359 42.259 42.136 42.051 41.926 41.814 41.699 41.566 41.429 41.251 41.094 40.961 40.794 40.644 40.459 40.311 40.139 39.974 39.811 39.651 39.461 39.294 39.109 38.919 38.706 38.499 38.301 38.101 37.874 37.676 37.451 37.201 36.966 36.699 36.439 36.144 35.849 35.529 35.184 34.851 34.469 34.104 33.741 33.361 32.961 32.556 32.144 31.754 31.344 30.959 30.581 30.199 29.774 29.384 28.966 28.589 28.154 27.746 27.304 26.926 26.529 26.141 25.764 25.434 25.146 24.854 24.554 24.319 24.041 23.819 23.739 23.696 22.596 21.684 21.151 20.849 20.579 20.324 20.044 19.756 19.481 19.204 18.966 18.706 18.429 18.221 18.059 17.896 17.744 17.456 17.939 19.714 16.234 17.574 18.389 16.636 16.754 17.521 28.401 23.946 20.424 24.241 23.666 23.766 28.171 19.076 17.431 17.544 17.656 17.769 17.934 18.051 18.214 18.399 18.509 18.594 18.616 18.651 18.691 18.724 18.734 18.719 18.701 18.726 18.664 18.659 18.596 18.421 18.361 18.244 18.136 18.099 18.336 18.446 17.851 17.856 17.629 17.611 17.049 16.009 15.641 15.489 15.396 15.251 15.859 19.601 20.131 20.114 20.194 21.374 20.666 19.429 19.029 18.559 17.961 15.624 16.169 13.886 13.621 13.504 13.554 12.984 13.146 12.476 11.856 12.414 11.611 11.231 11.214 11.359 10.999 11.014 11.024 11.014 11.074 11.089 11.709 11.276 11.694 17.194 19.071 19.621 17.789 15.386 14.074 12.691 14.954 15.921 12.201 10.666 11.711 13.396 15.614 15.864 14.194 9.979 9.449 9.429 9.374 9.261 10.086 15.341 15.011 14.954 14.926 12.541 9.726 9.351 9.446 9.474 9.519 9.481 10.451 12.166 12.874 14.631 10.481 9.154 9.166 11.604 15.471 16.699 16.209 13.894 9.104 8.841 8.471 8.019 7.369 7.174 6.999 6.896 8.259 7.459 6.419 7.781 7.179 10.316 8.599 7.859 8.286 9.144 10.326 10.339 7.289 6.944 7.096 7.204 7.226 7.414 8.579 8.159 7.444 7.391 7.369 7.431 7.861 9.096 9.904 8.804 8.794 11.054 13.934 13.894 11.074 7.974 8.719 9.151 8.619 8.086 7.889 8.841 8.874 8.051 8.019 8.281 7.901 7.884 7.899 9.269 8.039 7.799 8.274 9.286 7.701 7.939 8.864 7.996 8.301 8.331 7.539 7.546 7.486 7.979 9.976 7.944 7.706 8.459 10.924 11.791 12.314 11.554 9.634 8.199 8.701 8.099 8.061 7.879 7.321 7.264 7.299 7.296 7.234 7.476 7.816 7.636 9.719 11.559 11.449 10.436 8.224 9.281 10.684 8.786 7.574 7.484 7.499 10.106 11.681 12.296 10.841 8.086 7.474 7.386 7.444 7.446 7.396 7.244 7.089 7.194 7.169 6.996 7.024 7.084 7.119 7.059 7.509 8.609 7.586 6.914 6.934 7.611 9.089 8.591 7.881 7.254 6.861 10.349 11.716 12.071 12.419 12.839 13.206 13.281 12.471 10.769
48.961 48.869 48.711 48.546 48.364 48.169 48.029 47.851 47.679 47.536 47.369 47.241 47.124 46.991 46.841 46.741 46.616 46.504 46.399 46.301 46.229 46.126 46.001 45.906 45.839 45.731 45.649 45.551 45.456 45.376 45.311 45.239 45.161 45.081 45.039 44.984 44.919 44.844 44.771 44.711 44.629 44.536 44.499 44.431 44.356 44.309 44.261 44.201 44.101 44.031 43.969 43.939 43.931 43.909 43.916 44.099 46.494 45.079 45.946 43.479 43.339 43.349 43.281 43.261 43.179 43.131 43.094 43.061 43.031 42.979 42.906 42.809 42.761 42.699 42.609 42.509 42.426 42.344 42.216 42.104 42.014 41.919 41.789 41.686 41.551 41.406 41.271 41.111 40.974 40.801 40.649 40.494 40.291 40.129 39.964 39.839 39.639 39.471 39.301 39.139 38.949 38.734 38.514 38.309 38.106 37.884 37.654 37.389 37.154 36.899 36.641 36.374 36.049 35.741 35.399 35.059 34.714 34.346 33.956 33.589 33.226 32.856 32.429 32.004 31.606 31.216 30.786 30.386 30.014 29.609 29.204 28.791 28.371 27.996 27.586 27.171 26.759 26.374 26.001 25.634 25.341 25.069 24.774 24.521 24.271 24.044 23.936 24.004 22.974 22.054 21.409 21.059 20.789 20.561 20.261 19.961 19.689 19.466 19.196 18.961 18.701 18.464 18.249 18.039 17.904 17.601 17.019 17.641 20.321 16.669 16.891 17.199 17.014 16.999 17.051 20.516 17.579 19.774 18.434 17.431 17.694 17.541 17.669 17.761 17.854 17.966 18.116 18.221 18.359 18.534 18.664 18.771 18.799 18.841 18.896 18.941 18.941 18.916 18.921 18.944 18.919 18.886 18.861 18.811 18.626 18.501 18.381 18.279 18.281 18.476 18.174 17.989 17.961 17.536 18.586 18.766 16.594 15.916 15.796 15.686 17.344 19.754 19.251 19.461 19.559 20.146 21.544 20.521 20.161 20.271 20.044 17.699 14.319 14.054 13.891 13.784 13.701 13.559 13.459 13.371 13.204 12.686 11.611 11.356 11.336 11.319 11.554 11.234 11.074 11.059 11.071 11.034 11.099 11.161 11.559 11.659 15.339 18.286 19.759 18.561 16.756 15.036 14.306 11.756 13.684 11.976 11.181 10.631 14.054 15.641 15.274 11.264 9.636 9.599 9.579 9.466 9.416 12.329 16.359 16.311 14.966 14.441 10.289 9.356 9.364 9.344 9.384 9.476 9.506 9.484 9.446 9.431 9.569 9.954 9.141 9.166 10.246 13.911 15.396 15.986 13.696 9.024 8.856 8.706 8.611 8.289 9.069 8.029 7.081 10.396 8.479 7.434 7.531 7.551 7.986 8.204 8.656 9.336 8.506 8.564 10.524 10.739 7.534 7.256 7.611 7.431 7.921 9.404 7.896 7.499 7.494 7.534 7.674 8.166 8.006 8.451 9.931 13.039 12.046 12.021 12.411 8.431 8.099 8.136 8.294 9.119 8.861 8.089 8.264 9.459 8.204 8.394 8.889 8.094 8.074 8.076 8.489 8.151 8.174 8.256 8.954 7.871 7.836 7.831 8.244 9.034 8.389 7.999 7.681 7.654 8.414 9.571 8.981 7.886 8.019 10.004 11.934 12.984 12.134 10.734 8.926 8.069 7.716 7.976 8.184 7.486 7.364 7.731 7.851 7.504 7.816 7.664 7.971 11.014 12.359 12.206 10.929 8.216 7.556 7.756 7.859 8.056 7.546 7.554 9.681 11.641 12.244 10.924 8.641 7.544 7.719 7.709 7.504 7.421 7.684 7.184 7.206 7.196 7.094 7.066 7.136 7.129 7.111 9.121 10.671 10.331 9.396 7.674 7.351 8.891 10.044 9.016 6.744 5.939 5.909 7.376 9.314 9.911 12.034 12.861 13.161 12.124 9.084
49.111 49.009 48.821 48.669 48.489 48.316 48.159 47.964 47.796 47.644 47.484 47.349 47.231 47.089 46.954 46.854 46.726 46.636 46.516 46.439 46.341 46.249 46.126 46.029 45.934 45.879 45.749 45.649 45.556 45.471 45.426 45.316 45.241 45.176 45.126 45.091 45.011 44.914 44.819 44.774 44.681 44.606 44.551 44.489 44.406 44.329 44.249 44.206 44.121 44.019 43.981 43.954 43.929 43.956 44.299 44.526 44.469 44.516 44.664 43.396 43.244 43.264 43.234 43.194 43.124 43.099 43.064 43.021 42.969 42.921 42.864 42.796 42.706 42.639 42.564 42.471 42.396 42.281 42.194 42.071 41.974 41.899 41.761 41.654 41.529 41.401 41.239 41.089 40.966 40.809 40.646 40.494 40.326 40.156 39.966 39.806 39.629 39.486 39.276 39.106 38.951 38.764 38.541 38.319 38.104 37.866 37.626 37.366 37.099 36.804 36.534 36.264 35.956 35.626 35.311 34.944 34.584 34.224 33.834 33.469 33.071 32.699 32.279 31.876 31.461 31.031 30.626 30.221 29.806 29.411 29.001 28.604 28.196 27.809 27.399 27.004 26.599 26.219 25.891 25.551 25.264 24.994 24.739 24.481 24.256 24.126 23.981 23.231 22.269 21.659 21.291 21.001 20.724 20.469 20.186 19.881 19.656 19.451 19.206 18.946 18.704 18.529 18.311 18.054 17.831 17.469 17.111 18.721 22.354 17.679 17.206 17.169 17.221 17.226 17.396 17.284 17.766 18.024 17.664 17.769 17.721 17.876 17.926 18.061 18.194 18.296 18.414 18.546 18.694 18.821 18.929 19.001 19.029 19.074 19.106 19.136 19.141 19.124 19.131 19.156 19.144 19.066 19.009 18.974 18.809 18.656 18.554 18.464 18.566 18.686 18.356 18.179 17.944 18.081 20.189 19.491 16.706 16.074 15.899 15.744 20.661 20.784 20.546 20.309 20.116 20.381 21.541 20.229 19.471 19.411 19.399 18.204 15.874 14.111 14.409 14.361 13.936 13.764 13.659 13.534 13.291 13.106 11.741 11.421 11.904 11.591 12.666 11.989 11.336 11.109 11.114 11.106 11.089 11.369 12.131 11.484 13.919 17.661 19.291 19.359 17.476 15.481 14.741 12.846 11.276 12.156 11.741 10.599 11.784 14.371 14.181 10.091 9.759 9.759 9.709 9.604 10.166 15.419 16.926 15.869 15.036 14.144 10.824 9.811 9.591 9.419 9.379 9.414 9.509 9.521 9.394 9.371 9.386 9.309 9.296 11.946 11.146 10.296 9.379 9.829 10.114 9.034 8.876 8.761 8.744 8.701 8.564 8.266 7.956 9.136 8.734 7.339 7.426 7.644 7.491 8.054 8.566 8.554 7.126 7.489 8.344 10.329 9.604 8.379 7.644 8.344 9.479 8.456 7.651 7.594 7.599 7.684 8.954 8.426 8.166 8.439 9.726 12.259 11.514 9.221 8.534 9.276 8.231 8.179 8.269 8.316 9.444 8.941 10.214 10.011 9.484 8.989 9.746 8.666 8.481 8.354 8.484 8.436 8.424 8.404 8.859 8.251 8.284 8.526 10.006 11.289 9.014 8.739 7.791 7.814 8.249 8.816 7.876 7.916 7.954 9.921 11.396 12.711 12.779 11.299 8.861 7.986 7.866 7.656 7.634 7.624 7.561 7.524 7.489 7.569 7.976 7.881 9.869 11.766 12.626 11.644 9.971 7.681 7.576 7.566 8.139 9.394 7.601 7.569 9.146 11.589 12.224 11.036 10.246 10.366 10.179 10.424 10.221 7.954 7.684 7.609 7.266 7.394 7.301 7.059 7.129 7.216 7.316 10.289 11.549 11.446 10.424 8.961 7.074 6.789 7.461 9.206 8.349 5.996 5.979 5.926 5.906 8.371 12.151 13.119 12.799 11.646 7.709
49.224 49.101 48.911 48.776 48.601 48.439 48.249 48.094 47.934 47.769 47.604 47.459 47.319 47.191 47.066 46.966 46.866 46.756 46.661 46.556 46.444 46.339 46.234 46.161 46.041 45.971 45.851 45.741 45.641 45.586 45.484 45.399 45.316 45.256 45.234 45.149 45.074 45.004 44.899 44.819 44.731 44.661 44.574 44.501 44.429 44.334 44.271 44.189 44.111 44.009 43.939 43.941 43.931 43.976 46.434 46.861 43.779 44.454 43.579 43.266 43.209 43.161 43.154 43.081 43.031 43.016 42.979 42.934 42.894 42.851 42.796 42.711 42.629 42.594 42.521 42.419 42.319 42.211 42.119 42.024 41.919 41.836 41.714 41.604 41.491 41.354 41.231 41.101 40.944 40.781 40.621 40.479 40.319 40.149 39.994 39.806 39.644 39.469 39.279 39.121 38.944 38.746 38.554 38.341 38.086 37.851 37.609 37.326 37.036 36.756 36.459 36.146 35.831 35.506 35.171 34.819 34.444 34.071 33.686 33.314 32.936 32.549 32.111 31.699 31.284 30.876 30.451 30.026 29.644 29.224 28.801 28.434 28.026 27.621 27.239 26.834 26.431 26.094 25.774 25.489 25.209 24.921 24.676 24.469 24.296 24.254 23.421 22.499 21.841 21.511 21.256 20.956 20.681 20.386 20.104 19.854 19.646 19.419 19.201 18.924 18.709 18.539 18.289 18.106 17.704 17.169 17.591 17.654 18.136 17.374 17.406 17.314 17.361 17.516 18.661 17.736 18.341 18.059 17.949 18.046 18.076 18.149 18.294 18.409 18.509 18.619 18.716 18.886 19.044 19.126 19.206 19.256 19.294 19.334 19.356 19.379 19.381 19.349 19.351 19.349 19.304 19.239 19.179 19.136 18.989 18.834 18.719 18.654 18.774 19.269 18.549 18.286 17.889 19.214 19.881 18.529 16.456 16.251 16.031 15.894 21.104 21.339 21.461 21.529 21.551 21.499 21.606 21.274 21.001 20.774 20.564 20.291 19.099 14.239 14.376 14.099 14.036 13.886 13.734 13.586 13.211 12.836 11.834 11.436 11.676 11.594 12.604 13.671 12.494 11.244 11.161 11.164 11.129 11.124 11.214 11.406 12.174 15.989 18.571 19.811 18.271 16.484 14.996 13.891 11.319 13.651 14.171 13.151 11.646 10.706 10.109 9.994 9.921 9.899 9.839 9.774 12.526 16.131 16.876 15.366 15.181 13.941 13.489 12.539 11.141 9.721 9.456 9.434 9.441 9.456 9.419 9.411 9.431 9.419 9.384 14.901 16.459 16.834 14.201 10.229 9.151 9.004 8.876 8.766 8.796 8.781 8.716 8.696 8.406 7.879 7.381 7.321 8.014 8.134 7.926 8.191 8.489 8.446 7.441 7.666 8.361 10.134 10.194 10.586 8.861 8.349 9.316 7.894 7.706 7.729 7.786 8.704 9.439 8.644 8.954 10.044 10.491 10.826 11.031 10.816 9.906 10.541 8.569 8.526 8.479 8.336 8.559 9.954 9.381 9.546 10.506 10.336 10.156 10.599 10.614 9.411 8.829 8.501 8.489 9.116 9.934 9.529 9.669 9.861 9.594 9.941 9.344 11.239 9.281 8.254 9.366 8.891 8.001 7.996 9.059 9.076 10.776 12.221 13.206 11.846 10.146 7.806 8.324 8.094 7.891 7.741 7.689 7.786 7.771 8.039 7.629 8.529 11.116 12.479 12.219 10.934 8.824 7.596 7.586 7.596 7.959 8.321 7.619 7.599 8.924 11.506 12.386 11.836 11.849 11.894 11.936 11.899 10.876 8.339 7.964 8.291 7.471 10.076 9.394 7.766 7.274 7.119 8.819 10.914 11.976 11.176 9.369 8.206 6.821 6.809 6.751 8.234 7.921 6.009 5.964 5.964 5.916 10.849 12.536 13.289 12.436 10.756 6.414
49.364 49.216 49.039 48.896 48.711 48.549 48.359 48.204 48.056 47.871 47.731 47.596 47.444 47.319 47.204 47.074 46.966 46.864 46.766 46.671 46.549 46.451 46.344 46.241 46.156 46.026 45.939 45.801 45.729 45.634 45.544 45.474 45.396 45.346 45.291 45.206 45.111 45.036 44.939 44.841 44.771 44.691 44.626 44.516 44.434 44.339 44.271 44.166 44.054 43.959 43.924 43.899 43.909 43.964 45.331 46.524 44.196 46.211 43.271 43.154 43.104 43.069 43.024 42.999 42.951 42.934 42.889 42.826 42.776 42.729 42.664 42.626 42.529 42.466 42.396 42.324 42.229 42.124 42.056 41.964 41.836 41.761 41.654 41.539 41.409 41.334 41.176 41.061 40.914 40.776 40.601 40.466 40.311 40.146 39.951 39.809 39.659 39.496 39.286 39.099 38.906 38.736 38.516 38.299 38.074 37.821 37.551 37.284 37.004 36.684 36.364 36.041 35.731 35.391 35.046 34.691 34.309 33.914 33.541 33.146 32.766 32.386 31.959 31.531 31.101 30.699 30.286 29.849 29.456 29.046 28.606 28.229 27.829 27.446 27.069 26.649 26.296 25.996 25.691 25.386 25.141 24.914 24.639 24.481 24.479 23.934 22.779 22.066 21.719 21.486 21.214 20.911 20.619 20.321 20.081 19.839 19.611 19.419 19.204 18.961 18.741 18.474 18.249 17.941 17.856 17.421 17.721 17.729 17.606 17.644 17.561 17.609 17.576 17.656 19.739 19.474 18.586 19.511 18.299 18.311 18.371 18.471 18.581 18.661 18.771 18.904 19.061 19.204 19.361 19.431 19.491 19.526 19.561 19.629 19.609 19.616 19.609 19.619 19.601 19.584 19.531 19.431 19.339 19.311 19.154 19.021 18.906 18.824 19.069 19.414 18.496 18.299 18.241 19.859 19.551 17.496 16.646 16.686 16.544 16.241 19.266 19.506 19.884 20.684 20.336 20.874 21.516 20.909 21.179 21.359 21.384 21.476 20.336 14.494 14.401 14.196 14.126 14.006 13.871 13.664 12.966 12.689 12.214 11.851 11.919 11.656 15.096 15.926 14.601 11.979 11.366 11.209 11.174 11.196 11.226 11.634 11.879 13.979 17.789 19.601 19.084 17.241 15.691 14.596 11.566 12.246 13.771 13.556 11.954 11.221 10.254 10.104 10.056 10.071 9.931 9.984 13.931 16.761 16.229 15.961 16.079 14.954 14.226 13.449 11.851 9.906 9.534 9.509 9.489 9.511 9.481 9.486 9.501 9.516 10.811 15.619 16.861 16.531 15.171 10.359 9.356 9.334 9.229 8.931 8.891 8.824 8.804 8.739 8.301 7.654 7.549 7.474 8.109 8.219 8.089 8.339 8.786 8.566 7.794 7.844 7.906 8.171 9.711 11.346 12.026 10.004 8.089 7.831 7.796 7.856 8.419 10.184 10.626 9.539 9.294 11.211 12.769 12.819 12.106 9.291 9.076 10.246 9.709 9.791 10.229 10.256 10.476 10.681 11.006 10.799 10.664 10.339 10.181 10.304 9.889 8.689 8.614 8.584 8.474 8.971 9.329 8.464 8.564 8.366 8.409 9.146 8.611 10.751 9.289 8.751 9.716 9.581 8.976 8.156 8.159 8.131 9.509 11.654 12.864 12.361 10.939 8.444 8.411 9.091 7.949 7.871 7.811 7.911 7.944 8.516 7.906 10.199 11.849 12.539 11.511 10.301 9.854 8.611 8.774 8.784 8.276 8.006 7.734 7.644 9.266 11.451 12.271 12.209 12.136 12.141 12.144 11.919 10.981 8.784 8.059 7.491 8.629 10.776 11.104 10.486 9.284 8.361 9.861 11.529 11.851 10.429 7.581 6.861 6.966 6.811 6.894 7.971 8.016 6.079 6.086 5.994 7.914 11.809 12.899 13.136 12.051 8.691 5.844
49.449 49.314 49.149 48.994 48.801 48.659 48.491 48.324 48.171 47.996 47.851 47.724 47.581 47.454 47.331 47.216 47.084 46.966 46.876 46.756 46.671 46.539 46.464 46.341 46.261 46.129 46.019 45.886 45.801 45.726 45.629 45.516 45.464 45.399 45.334 45.239 45.154 45.061 44.974 44.834 44.739 44.681 44.599 44.521 44.414 44.341 44.249 44.109 43.986 43.901 43.864 43.871 43.881 43.969 46.076 47.381 45.281 44.676 43.154 43.061 43.004 42.951 42.901 42.854 42.851 42.816 42.771 42.709 42.656 42.586 42.536 42.491 42.439 42.346 42.271 42.206 42.136 42.054 41.926 41.869 41.761 41.674 41.579 41.454 41.356 41.239 41.121 40.994 40.876 40.749 40.586 40.456 40.286 40.139 39.959 39.781 39.639 39.436 39.284 39.111 38.931 38.709 38.494 38.279 38.024 37.784 37.474 37.176 36.911 36.621 36.279 35.961 35.621 35.266 34.936 34.566 34.159 33.796 33.409 33.004 32.609 32.209 31.769 31.344 30.951 30.519 30.096 29.676 29.239 28.834 28.429 28.046 27.651 27.241 26.886 26.541 26.199 25.904 25.621 25.314 25.079 24.854 24.696 24.594 24.089 23.154 22.341 21.926 21.689 21.436 21.181 20.836 20.541 20.259 20.019 19.824 19.624 19.406 19.191 18.969 18.719 18.444 18.086 17.571 18.526 18.171 18.131 17.684 17.854 18.161 18.226 17.859 17.846 18.204 19.679 20.231 18.576 18.584 18.524 18.641 18.716 18.804 18.881 18.951 19.064 19.179 19.341 19.526 19.636 19.686 19.751 19.829 19.834 19.859 19.861 19.861 19.844 19.869 19.826 19.799 19.704 19.599 19.504 19.431 19.306 19.194 19.081 18.999 19.144 18.821 18.569 18.221 19.796 19.841 17.951 16.574 16.854 16.569 16.359 17.326 18.681 18.464 18.526 18.574 19.034 20.554 21.331 19.646 19.834 20.009 19.451 19.931 18.401 15.341 16.836 15.899 15.379 14.144 14.114 14.006 13.566 14.196 12.554 12.156 12.009 13.476 17.134 17.069 16.416 14.324 12.199 11.271 11.256 11.264 11.274 11.384 11.779 11.711 16.866 18.861 19.691 17.461 14.259 11.749 11.526 11.416 11.571 11.684 11.376 10.779 10.366 10.301 10.236 10.181 10.071 11.361 16.121 16.869 15.904 14.849 16.301 16.486 12.939 11.544 10.489 9.926 9.659 9.601 9.596 9.584 9.554 9.531 9.571 9.536 11.654 16.131 17.169 16.309 14.209 9.404 9.376 9.389 9.254 9.106 9.029 8.976 8.929 8.769 7.914 7.479 7.669 7.736 8.036 8.181 8.339 8.439 8.136 8.054 7.851 8.014 8.064 8.069 8.166 10.779 12.114 9.776 7.969 7.961 7.971 8.036 9.289 9.759 10.851 9.351 10.071 11.681 13.281 13.441 12.041 9.381 8.971 11.246 11.311 10.834 10.016 9.634 9.239 10.514 10.116 8.919 8.699 8.709 8.644 8.759 8.696 8.696 8.631 8.584 8.451 8.704 9.401 8.381 8.451 8.451 8.354 9.261 9.471 8.464 8.246 8.861 9.561 8.644 8.251 8.596 8.229 8.346 8.649 11.079 12.186 11.776 11.091 9.549 7.971 9.261 8.169 7.996 7.924 7.936 8.446 8.084 8.734 11.184 12.304 12.121 10.784 8.889 9.134 8.299 8.451 8.464 7.969 7.846 7.719 7.711 9.231 10.786 10.954 10.814 10.626 10.641 10.519 10.501 10.304 8.496 7.934 7.561 9.841 11.236 11.976 11.894 11.314 10.596 10.811 11.976 11.274 9.444 7.024 6.879 6.829 6.724 7.451 7.629 7.716 6.174 6.094 6.106 8.876 12.221 13.206 12.774 11.684 7.866 5.861
