ncols 473
nrows 31
xllcorner    460048
yllcorner    94272
cellsize     2
NODATA_value -9999
-2.057 -2.022 -2.12 -2.107 -2.182 -2.153 -2.011 -2.106 -2.081 -2.026 -2.041 -2.015 -2.067 -2.087 -2.082 -2.098 -2.094 -2.015 -2.028 -2.172 -2.001 -2.083 -2.051 -2.148 -2.065 -2.06 -2.048 -2.068 -2.037 -2.035 -2.058 -2.005 -2.055 -2.03 -2.073 -2.088 -2.095 -2.195 -2.048 -1.998 -2.059 -2.101 -2.098 -2.02 -2.084 -2.015 -2.056 -2.101 -2.07 -2.026 -2.041 -2.073 -2.097 -2.117 -2.135 -1.981 -2.045 -1.999 -2.137 -2.161 -2.004 -2.074 -2.051 -2.103 -2.018 -1.977 -2.161 -2.081 -1.988 -2.142 -2.004 -2.052 -2.064 -2.085 -2.042 -2.009 -2.031 -2.108 -1.995 -2.06 -2.121 -1.986 -1.968 -1.997 -2.065 -2.031 -1.952 -2.018 -2.061 -1.999 -2.084 -2.04 -1.997 -2.058 -1.944 -1.958 -2.021 -2.048 -1.987 -2.081 -2.011 -2.047 -2.013 -2.036 -2.003 -2.03 -2 -2.009 -2.012 -2.088 -2.096 -1.989 -2.039 -2.008 -2.001 -2.058 -2.038 -2.063 -2.034 -1.985 -2.082 -2.05 -2.035 -2.062 -2.024 -1.989 -1.987 -1.99 -1.972 -2.032 -2.052 -2.033 -2.04 -1.961 -1.99 -2.04 -2.028 -2.056 -1.993 -2.012 -1.929 -2.089 -2.034 -2.043 -2.051 -2.042 -2.009 -1.903 -1.962 -2.017 -1.99 -2.015 -2.071 -1.976 -1.967 -1.993 -1.955 -1.976 -1.963 -2.011 -2.016 -2.042 -1.998 -1.975 -1.945 -1.939 -2.028 -2.105 -2.018 -2.001 -2.15 -1.941 -1.975 -1.982 -2.029 -2.077 -2.058 -2.029 -1.995 -2.03 -1.952 -1.972 -1.915 -2.004 -2.068 -2.037 -2.082 -2.013 -2.019 -1.909 -1.943 -2.046 -2.009 -2.073 -2.006 -2.079 -1.977 -2 -1.926 -1.965 -2.025 -2.009 -1.976 -2.135 -1.994 -2.034 -2.075 -2.08 -1.998 -2.024 -1.959 -2.109 -2.044 -2.082 -2.049 -1.985 -1.972 -2.074 -1.929 -2.024 -2.034 -2.01 -2.002 -2.059 -2.147 -2.06 -2.07 -2.007 -2.134 -2.024 -1.986 -2.071 -2.093 -1.957 -2.001 -2.07 -2.095 -2.069 -2.042 -2.086 -2.075 -2.057 -1.94 -1.961 -2.027 -9999 -9999 -2.023 -1.916 -2.181 -2.071 -2.026 -9999 -9999 -9999 -9999 -9999 -9999 -9999 -9999 -9999 -9999 -9999 -9999 -9999 -9999 -9999 -9999 -9999 -9999 -9999 -9999 -9999 -9999 -9999 -9999 -9999 -9999 -9999 -9999 -9999 -9999 -9999 -9999 -9999 -9999 -9999 -9999 -9999 -9999 -9999 -9999 -9999 -9999 -9999 -9999 -9999 -9999 -9999 -9999 -9999 -9999 -9999 -9999 -9999 -9999 -9999 -9999 -9999 -9999 -9999 -9999 -9999 -9999 -9999 -9999 -9999 -9999 -9999 -9999 -9999 -9999 -9999 -9999 -9999 -9999 -9999 -9999 -9999 -9999 -9999 -9999 -9999 -9999 -9999 -9999 -9999 -9999 -9999 -9999 -9999 -9999 -9999 -9999 -9999 -9999 -9999 -9999 -9999 -9999 -9999 -9999 -9999 -9999 -9999 -9999 -9999 -9999 -9999 -9999 -9999 -9999 -9999 -9999 -9999 -9999 -9999 -9999 -9999 -9999 -9999 -9999 -9999 -9999 -9999 -9999 -9999 -9999 -9999 -9999 -9999 -9999 -9999 -9999 -9999 -9999 -9999 -9999 -9999 -9999 -9999 -9999 -9999 -9999 -9999 -9999 -9999 -9999 -9999 -9999 -9999 -9999 -9999 -9999 -9999 -9999 -9999 -9999 -9999 -9999 -9999 -9999 -9999 -9999 -9999 -9999 -9999 -9999 -9999 -9999 -9999 -9999 -9999 -9999 -9999 -9999 -9999 -9999 -9999 -9999 -9999 -9999 -9999 -9999 -9999 -9999 -9999 -9999 -9999 -9999 -9999 -9999 -9999 -9999 -9999 -9999 -9999 -9999 -9999 -9999 -9999 -9999 -9999 -9999 -9999 -9999 -9999 -9999 -9999 -9999 -9999 -9999 -9999 -9999 -9999 -9999 -9999 -9999 -9999 -9999 -9999 -9999 -9999
-1.987 -2.096 -2.06 -2.062 -2.214 -2.069 -2.09 -2.148 -2.119 -2.012 -2.096 -2.114 -2.085 -2.067 -2.054 -2.075 -2.124 -2.081 -2.074 -2.008 -2.011 -2.138 -2.064 -2.046 -2.122 -2.084 -2.125 -2.024 -2.073 -2.115 -2.009 -1.988 -2.066 -2.075 -2.083 -2.071 -2.069 -2.056 -2.036 -2.024 -2.1 -2.154 -2.088 -2.08 -2.105 -2.081 -2.041 -2.078 -2.15 -1.994 -2.041 -2.187 -2.023 -2.124 -2.059 -2.024 -2.122 -2.009 -1.982 -2.006 -2.109 -2.058 -1.981 -1.983 -2.145 -1.996 -2.136 -2.066 -2.071 -2.103 -2.027 -2.155 -2.038 -2.075 -2.085 -1.957 -2.037 -2.186 -2.059 -1.978 -2.055 -2.032 -2.015 -1.963 -2.051 -2.011 -2.027 -1.951 -2.126 -2.009 -2.109 -1.993 -2.116 -1.977 -1.975 -2.082 -2.051 -2.026 -2.022 -1.989 -2.036 -2.085 -1.985 -2.011 -2.032 -2.026 -2.005 -2.042 -1.995 -2.011 -2.058 -2.088 -2.024 -2.002 -2.002 -2.005 -2.007 -2.087 -2.036 -2.017 -2.027 -1.945 -2.017 -2.049 -2.004 -1.946 -2 -2.004 -2.021 -2.012 -2.014 -2.039 -2.012 -1.981 -1.911 -1.962 -2.083 -2.06 -1.998 -1.965 -1.958 -1.947 -1.975 -2.037 -2.084 -2.037 -1.995 -2.002 -1.962 -2.016 -1.981 -2.009 -2.057 -2.047 -1.977 -1.972 -1.969 -1.975 -1.967 -1.987 -2.122 -2.069 -1.972 -1.913 -1.894 -2 -1.948 -2.031 -2.075 -2.022 -2.039 -1.993 -1.925 -1.964 -1.963 -2.121 -2.102 -2.032 -1.974 -2.101 -1.987 -1.983 -1.947 -2.015 -2.093 -2.029 -2.022 -2.004 -1.991 -1.991 -1.93 -2.025 -2.063 -2.09 -2.055 -2.099 -1.965 -1.99 -1.96 -1.938 -1.995 -2.093 -2.074 -2.12 -2.033 -1.999 -1.937 -1.917 -2.001 -1.999 -2.014 -2.005 -2.049 -1.988 -2.025 -1.997 -2.033 -2.029 -2.082 -2.061 -2.07 -2.05 -2.003 -2.048 -2.091 -2.036 -1.971 -2.009 -2.063 -1.957 -2.025 -2.032 -2.078 -2.026 -9999 -9999 -2.166 -9999 -2.079 -2.067 -1.991 -2.024 -2.069 -9999 -2.119 -2.015 -9999 -2.04 -2.096 -2.065 -2.142 -2.057 -9999 -9999 -9999 -9999 -9999 -9999 -9999 -9999 -9999 -9999 -9999 -9999 -9999 -9999 -9999 -9999 -9999 -9999 -9999 -9999 -9999 -9999 -9999 -9999 -9999 -9999 -9999 -9999 -9999 -9999 -9999 -9999 -9999 -9999 -9999 -9999 -9999 -9999 -9999 -9999 -9999 -9999 -9999 -9999 -9999 -9999 -9999 -9999 -9999 -9999 -9999 -9999 -9999 -9999 -9999 -9999 -9999 -9999 -9999 -9999 -9999 -9999 -9999 -9999 -9999 -9999 -9999 -9999 -9999 -9999 -9999 -9999 -9999 -9999 -9999 -9999 -9999 -9999 -9999 -9999 -9999 -9999 -9999 -9999 -9999 -9999 -9999 -9999 -9999 -9999 -9999 -9999 -9999 -9999 -9999 -9999 -9999 -9999 -9999 -9999 -9999 -9999 -9999 -9999 -9999 -9999 -9999 -9999 -9999 -9999 -9999 -9999 -9999 -9999 -9999 -9999 -9999 -9999 -9999 -9999 -9999 -9999 -9999 -9999 -9999 -9999 -9999 -9999 -9999 -9999 -9999 -9999 -9999 -9999 -9999 -9999 -9999 -9999 -9999 -9999 -9999 -9999 -9999 -9999 -9999 -9999 -9999 -9999 -9999 -9999 -9999 -9999 -9999 -9999 -9999 -9999 -9999 -9999 -9999 -9999 -9999 -9999 -9999 -9999 -9999 -9999 -9999 -9999 -9999 -9999 -9999 -9999 -9999 -9999 -9999 -9999 -9999 -9999 -9999 -9999 -9999 -9999 -9999 -9999 -9999 -9999 -9999 -9999 -9999 -9999 -9999 -9999 -9999 -9999 -9999 -9999 -9999 -9999 -9999 -9999 -9999 -9999 -9999 -9999 -9999 -9999 -9999 -9999 -9999 -9999 -9999 -9999 -9999 -9999 -9999 -9999 -9999 -9999 -9999 -9999 -9999
-2.067 -2.052 -2.028 -2.059 -2.139 -2.057 -2.102 -2.078 -2.087 -1.997 -2.125 -2.093 -2.114 -2.121 -2.087 -2.052 -2.043 -2.034 -2.072 -2.064 -2.103 -2.032 -2.05 -2.138 -2.075 -2.122 -2.077 -2.066 -1.929 -2.096 -2.079 -2.04 -2.078 -2.074 -2.01 -2.066 -2.113 -2.095 -2.045 -2.054 -2.116 -2.058 -2.083 -2.035 -2.009 -2.045 -2.028 -2.147 -2.067 -2.097 -2.037 -2.042 -2.054 -2.161 -2.034 -2.069 -2.136 -2.071 -2.006 -2.021 -2.011 -1.998 -2.019 -2.039 -2.068 -1.959 -2.094 -2.062 -2.108 -2.05 -2.129 -2.101 -2.048 -2.033 -2.051 -2.032 -2.035 -2.129 -1.991 -2.088 -2.149 -1.985 -2.037 -2.031 -2.041 -2.035 -2.048 -2.002 -2.113 -2.001 -2.061 -2.049 -2 -2.008 -1.985 -2.028 -2.1 -2.052 -2.059 -2.03 -2.02 -2.07 -2.004 -1.985 -2.054 -2.051 -2.012 -2.046 -2.029 -2.036 -2.058 -2.087 -2.031 -2.016 -2.043 -2.024 -2.047 -2.053 -2.014 -2.038 -1.994 -2.011 -2.096 -2.028 -2.039 -1.978 -1.946 -1.973 -2.023 -2.006 -2.003 -2.013 -2.013 -2.042 -2.021 -1.942 -2.082 -1.976 -2.059 -1.947 -1.958 -1.981 -1.948 -2.009 -2.105 -2.001 -2.054 -1.977 -1.961 -1.975 -2.03 -2.009 -2.036 -2.042 -1.949 -1.966 -1.923 -2.049 -1.997 -2.005 -2.064 -2.038 -1.996 -2.008 -1.891 -1.998 -1.997 -2.014 -2.122 -2.01 -1.968 -1.999 -2.012 -2.043 -2.015 -2.124 -2.082 -2.03 -1.997 -1.956 -1.991 -2.004 -1.971 -2.005 -2.055 -2.006 -2.009 -2.066 -1.972 -2.013 -1.964 -2.053 -2.017 -2.016 -2.104 -2.058 -2.04 -1.938 -1.887 -2.018 -2.032 -2.023 -2.032 -2.091 -2.03 -2.002 -1.964 -1.961 -1.96 -2.063 -2.026 -1.982 -2.019 -2.007 -1.962 -2.006 -2.006 -1.996 -2.041 -2.049 -2.007 -2.017 -2.066 -2.037 -2.108 -2.068 -2.018 -2.071 -2.08 -1.985 -1.993 -2.064 -2.086 -2.033 -2.082 -9999 -2.063 -2.093 -2.137 -2.18 -2.031 -2.041 -1.954 -9999 -2.01 -9999 -1.993 -2.074 -9999 -9999 -2.067 -1.997 -1.949 -2.051 -2.011 -9999 -9999 -9999 -9999 -9999 -9999 -9999 -9999 -9999 -9999 -9999 -9999 -9999 -9999 -9999 -9999 -9999 -9999 -9999 -9999 -9999 -9999 -9999 -9999 -9999 -9999 -9999 -9999 -9999 -9999 -9999 -9999 -9999 -9999 -9999 -9999 -9999 -9999 -9999 -9999 -9999 -9999 -9999 -9999 -9999 -9999 -9999 -9999 -9999 -9999 -9999 -9999 -9999 -9999 -9999 -9999 -9999 -9999 -9999 -9999 -9999 -9999 -9999 -9999 -9999 -9999 -9999 -9999 -9999 -9999 -9999 -9999 -9999 -9999 -9999 -9999 -9999 -9999 -9999 -9999 -9999 -9999 -9999 -9999 -9999 -9999 -9999 -9999 -9999 -9999 -9999 -9999 -9999 -9999 -9999 -9999 -9999 -9999 -9999 -9999 -9999 -9999 -9999 -9999 -9999 -9999 -9999 -9999 -9999 -9999 -9999 -9999 -9999 -9999 -9999 -9999 -9999 -9999 -9999 -9999 -9999 -9999 -9999 -9999 -9999 -9999 -9999 -9999 -9999 -9999 -9999 -9999 -9999 -9999 -9999 -9999 -9999 -9999 -9999 -9999 -9999 -9999 -9999 -9999 -9999 -9999 -9999 -9999 -9999 -9999 -9999 -9999 -9999 -9999 -9999 -9999 -9999 -9999 -9999 -9999 -9999 -9999 -9999 -9999 -9999 -9999 -9999 -9999 -9999 -9999 -9999 -9999 -9999 -9999 -9999 -9999 -9999 -9999 -9999 -9999 -9999 -9999 -9999 -9999 -9999 -9999 -9999 -9999 -9999 -9999 -9999 -9999 -9999 -9999 -9999 -9999 -9999 -9999 -9999 -9999 -9999 -9999 -9999 -9999 -9999 -9999 -9999 -9999 -9999 -9999 -9999 -9999 -9999 -9999 -9999 -9999 -9999 -9999
-2.015 -2.087 -2.109 -2.09 -2.112 -2.071 -2.166 -2.116 -2.284 -2.065 -2.036 -2.056 -2.01 -2.106 -2.188 -2.045 -2.076 -2.074 -2.106 -2.159 -2.106 -2.181 -2.096 -2.073 -2.234 -2.105 -2.042 -2.06 -2.089 -2.126 -2.117 -2.042 -2.038 -2.115 -2.116 -2.055 -2.068 -2.045 -2.084 -2.089 -2.04 -2.027 -2.072 -2.051 -2.045 -1.991 -2.067 -2.105 -2.081 -2.026 -1.991 -2.039 -2.089 -2.082 -2.029 -1.969 -2.093 -1.95 -2.069 -2.043 -2.067 -1.972 -1.986 -2.008 -2.054 -1.977 -2.062 -2.087 -2.034 -2.042 -2.089 -2.067 -2.035 -2.02 -1.945 -1.99 -2.046 -2.146 -2.003 -2.049 -2.004 -2.056 -1.977 -2.004 -2.001 -1.92 -1.973 -1.988 -2.088 -2.08 -1.977 -2.12 -2.079 -1.941 -2.043 -2.008 -2.044 -2.026 -2.003 -2.002 -2.025 -2.017 -1.986 -2.006 -2.036 -2.067 -2.035 -1.99 -1.944 -2.128 -2 -2.01 -1.97 -2.021 -2.004 -2.009 -1.994 -2.072 -1.996 -1.959 -2.013 -1.927 -2.075 -2.114 -2.022 -2.092 -1.959 -1.953 -1.99 -2.069 -2.055 -2.045 -1.99 -2.032 -1.983 -1.991 -2.092 -2.014 -2.007 -1.961 -1.997 -1.963 -2.058 -2.049 -2.087 -1.985 -2.011 -2.005 -2.008 -1.966 -2.061 -1.999 -2.057 -2.026 -1.977 -1.974 -1.964 -2.038 -1.986 -2.077 -2.056 -2.016 -1.961 -2 -1.917 -1.993 -2.048 -2.04 -2.041 -2.033 -2.03 -1.985 -1.952 -1.948 -2.066 -2.033 -2.057 -2.078 -2.005 -1.986 -2.007 -2.004 -1.995 -1.969 -2.045 -2.007 -2.023 -1.97 -1.979 -1.953 -1.962 -2.092 -2.027 -2.11 -2.073 -2.035 -1.975 -2.095 -1.961 -1.971 -2.052 -2.036 -2.135 -2.079 -2.015 -2.06 -1.997 -1.999 -1.973 -2.096 -2.037 -2.05 -2.005 -2.063 -2.016 -1.862 -1.95 -1.962 -2.071 -2.022 -1.99 -2.015 -2.086 -2.001 -2.008 -1.993 -2.041 -2.107 -2.026 -1.989 -2.023 -1.994 -2.039 -1.992 -2.007 -1.979 -2.041 -2.082 -2.084 -2.187 -9999 -2.036 -1.99 -2.024 -1.99 -9999 -9999 -2.008 -9999 -9999 -2.01 -2.032 -2.102 -2.021 -9999 -9999 -2.081 -9999 -9999 -9999 -9999 -9999 -9999 -9999 -9999 -9999 -9999 -9999 -9999 -9999 -9999 -9999 -9999 -9999 -9999 -9999 -9999 -9999 -9999 -9999 -9999 -9999 -9999 -9999 -9999 -9999 -9999 -9999 -9999 -9999 -9999 -9999 -9999 -9999 -9999 -9999 -9999 -9999 -9999 -9999 -9999 -9999 -9999 -9999 -9999 -9999 -9999 -9999 -9999 -9999 -9999 -9999 -9999 -9999 -9999 -9999 -9999 -9999 -9999 -9999 -9999 -9999 -9999 -9999 -9999 -9999 -9999 -9999 -9999 -9999 -9999 -9999 -9999 -9999 -9999 -9999 -9999 -9999 -9999 -9999 -9999 -9999 -9999 -9999 -9999 -9999 -9999 -9999 -9999 -9999 -9999 -9999 -9999 -9999 -9999 -9999 -9999 -9999 -9999 -9999 -9999 -9999 -9999 -9999 -9999 -9999 -9999 -9999 -9999 -9999 -9999 -9999 -9999 -9999 -9999 -9999 -9999 -9999 -9999 -9999 -9999 -9999 -9999 -9999 -9999 -9999 -9999 -9999 -9999 -9999 -9999 -9999 -9999 -9999 -9999 -9999 -9999 -9999 -9999 -9999 -9999 -9999 -9999 -9999 -9999 -9999 -9999 -9999 -9999 -9999 -9999 -9999 -9999 -9999 -9999 -9999 -9999 -9999 -9999 -9999 -9999 -9999 -9999 -9999 -9999 -9999 -9999 -9999 -9999 -9999 -9999 -9999 -9999 -9999 -9999 -9999 -9999 -9999 -9999 -9999 -9999 -9999 -9999 -9999 -9999 -9999 -9999 -9999 -9999 -9999 -9999 -9999 -9999 -9999 -9999 -9999 -9999 -9999 -9999 -9999 -9999 -9999 -9999 -9999 -9999 -9999 -9999 -9999 -9999 -9999 -9999 -9999 -9999
-2.015 -2.063 -2.095 -2.053 -2.144 -2.141 -2.093 -2.06 -2.166 -2.008 -1.992 -2.038 -2.096 -2.1 -2.189 -2.051 -2.077 -2.078 -2.034 -2.039 -2.101 -2.138 -2.043 -1.983 -2.102 -2.069 -2.109 -2.106 -2.132 -1.998 -2.055 -2.009 -2.17 -2.063 -2.099 -2.082 -2.034 -2.111 -2.087 -2.113 -2.059 -1.971 -2.125 -2.104 -2.056 -1.977 -2.078 -2.102 -2.116 -2.005 -2.008 -2.038 -2.11 -2.135 -2.043 -2.067 -2.212 -2.065 -2.152 -2.036 -2.09 -2.105 -2.063 -2.015 -1.949 -1.916 -2.041 -2.053 -2.026 -2.014 -2.095 -2.008 -2.039 -2.125 -2.057 -2.091 -2.001 -2.035 -2.021 -2.039 -2.04 -2.092 -1.979 -1.966 -2.03 -2.013 -2.084 -2.121 -1.993 -2.018 -2.111 -2.033 -2.04 -2.106 -2.048 -1.954 -2.027 -2.073 -2.049 -1.98 -2.038 -2.066 -1.957 -2.101 -2.032 -1.996 -1.963 -1.97 -1.95 -2.022 -2.103 -2.03 -2.01 -1.986 -2.046 -2.032 -2.001 -2.053 -1.966 -1.978 -1.968 -1.975 -2.031 -2.115 -2.022 -2.044 -1.962 -1.994 -2.004 -2.04 -2.038 -1.979 -2.039 -1.962 -2.089 -2.016 -2.036 -2.027 -2.038 -1.938 -1.96 -2.045 -1.959 -2.045 -2.067 -2.035 -1.998 -1.955 -1.953 -2.017 -1.98 -1.982 -2.029 -1.978 -1.988 -1.994 -1.961 -2.04 -1.994 -2.06 -2.021 -2.039 -1.966 -2.023 -1.897 -2.043 -2.094 -2.06 -2.03 -2.058 -1.945 -2.021 -1.975 -1.914 -2.069 -2.1 -2.015 -2.074 -2.026 -1.928 -1.978 -2.024 -2.056 -2.029 -2.024 -2.026 -2.015 -2.007 -2.027 -2.017 -1.954 -2.029 -2.048 -2.077 -2.196 -2.068 -1.936 -1.964 -1.923 -1.966 -2.054 -2.144 -2.129 -2.027 -1.977 -2.016 -1.973 -1.977 -1.898 -1.986 -2.051 -2.047 -2.019 -2.06 -2.059 -2.008 -2.03 -1.97 -1.975 -2.098 -2.018 -1.921 -2.08 -2.023 -2.013 -2.104 -2.012 -9999 -2.034 -2.012 -2.032 -1.969 -2.07 -2.012 -1.987 -1.945 -2.041 -1.992 -9999 -2.126 -1.985 -2.014 -2.012 -1.994 -2.019 -2.019 -1.99 -2.134 -9999 -9999 -2.112 -2.052 -2.158 -2.014 -1.936 -9999 -9999 -2.08 -9999 -9999 -9999 -9999 -9999 -9999 -9999 -9999 -9999 -9999 -9999 -9999 -9999 -9999 -9999 -9999 -9999 -9999 -9999 -9999 -9999 -9999 -9999 -9999 -9999 -9999 -9999 -9999 -9999 -9999 -9999 -9999 -9999 -9999 -9999 -9999 -9999 -9999 -9999 -9999 -9999 -9999 -9999 -9999 -9999 -9999 -9999 -9999 -9999 -9999 -9999 -9999 -9999 -9999 -9999 -9999 -9999 -9999 -9999 -9999 -9999 -9999 -9999 -9999 -9999 -9999 -9999 -9999 -9999 -9999 -9999 -9999 -9999 -9999 -9999 -9999 -9999 -9999 -9999 -9999 -9999 -9999 -9999 -9999 -9999 -9999 -9999 -9999 -9999 -9999 -9999 -9999 -9999 -9999 -9999 -9999 -9999 -9999 -9999 -9999 -9999 -9999 -9999 -9999 -9999 -9999 -9999 -9999 -9999 -9999 -9999 -9999 -9999 -9999 -9999 -9999 -9999 -9999 -9999 -9999 -9999 -9999 -9999 -9999 -9999 -9999 -9999 -9999 -9999 -9999 -9999 -9999 -9999 -9999 -9999 -9999 -9999 -9999 -9999 -9999 -9999 -9999 -9999 -9999 -9999 -9999 -9999 -9999 -9999 -9999 -9999 -9999 -9999 -9999 -9999 -9999 -9999 -9999 -9999 -9999 -9999 -9999 -9999 -9999 -9999 -9999 -9999 -9999 -9999 -9999 -9999 -9999 -9999 -9999 -9999 -9999 -9999 -9999 -9999 -9999 -9999 -9999 -9999 -9999 -9999 -9999 -9999 -9999 -9999 -9999 -9999 -9999 -9999 -9999 -9999 -9999 -9999 -9999 -9999 -9999 -9999 -9999 -9999 -9999 -9999 -9999 -9999 -9999 -9999 -9999 -9999 -9999 -9999 -9999 -9999
-2.048 -2.005 -2.028 -2.067 -2.029 -2.092 -2.096 -2.051 -2.13 -2.019 -2.078 -2.031 -2.089 -2.029 -2.152 -2.096 -2.004 -2.129 -2.079 -2.185 -2.063 -2.085 -2.099 -2.039 -2.04 -2.108 -2.048 -2.053 -2.109 -2.157 -2.047 -2.064 -2.066 -2.054 -2.136 -2.076 -1.975 -2.107 -2.15 -2.126 -1.968 -2.026 -2.062 -2.086 -2.093 -1.927 -2.08 -2.143 -2.089 -1.997 -1.963 -2.128 -2.078 -2.082 -2.007 -2.003 -2.116 -2.006 -2.043 -1.94 -2.101 -2.102 -2.076 -2.036 -2.116 -2.078 -2.023 -2.006 -2.073 -2.073 -1.972 -2.059 -2.02 -2.04 -2.071 -2.1 -2.013 -1.992 -1.921 -2.042 -2.021 -2.022 -2.092 -1.96 -2.012 -1.961 -2.032 -2.095 -2.052 -1.931 -1.951 -2.014 -2.077 -2.033 -2.051 -1.94 -2.069 -2.044 -2.019 -2.033 -1.968 -1.995 -2 -2.039 -2.093 -2.058 -2.002 -1.936 -1.921 -2.047 -2.061 -2.09 -2.059 -1.975 -2.037 -1.985 -2.016 -2.108 -2.001 -1.981 -1.979 -2.044 -2.108 -2.065 -2.04 -2.06 -2.04 -1.99 -1.951 -2.038 -2.034 -2.015 -2.002 -2.028 -2 -2.007 -2.064 -1.989 -2.052 -1.997 -1.966 -1.984 -1.94 -2.042 -2.078 -1.961 -1.992 -2.041 -1.962 -2.049 -1.994 -2.019 -2.075 -2.02 -1.965 -1.965 -1.975 -1.986 -2.037 -2.036 -1.986 -2.026 -1.942 -1.977 -1.958 -2.003 -1.949 -2.075 -1.999 -2.031 -2.024 -2.035 -1.974 -1.977 -1.954 -2.036 -2.039 -2.023 -2.004 -1.976 -1.972 -2.047 -2.08 -2.011 -2.052 -2.04 -2.046 -1.954 -2.082 -2 -1.979 -2.036 -2.079 -2.046 -2.019 -2.041 -2.011 -1.96 -1.948 -1.996 -1.995 -2.148 -2.141 -2.069 -2.022 -2.013 -2.032 -2.033 -2.071 -1.938 -2 -1.983 -2.014 -2.068 -2.121 -2.061 -2.047 -2.081 -2.045 -2.058 -2.025 -1.987 -2.058 -2.118 -1.984 -2.127 -2.106 -1.949 -2.01 -2.057 -2.019 -2.021 -2.168 -2.067 -2.116 -9999 -2.086 -2.047 -2.058 -2.093 -2.039 -2.094 -1.99 -9999 -1.964 -2.044 -2.034 -1.998 -1.948 -9999 -9999 -1.985 -1.974 -1.983 -9999 -9999 -2.046 -2.063 -9999 -9999 -9999 -9999 -9999 -9999 -9999 -9999 -9999 -9999 -9999 -9999 -9999 -9999 -9999 -9999 -9999 -9999 -9999 -9999 -9999 -9999 -9999 -9999 -9999 -9999 -9999 -9999 -9999 -9999 -9999 -9999 -9999 -9999 -9999 -9999 -9999 -9999 -9999 -9999 -9999 -9999 -9999 -9999 -9999 -9999 -9999 -9999 -9999 -9999 -9999 -9999 -9999 -9999 -9999 -9999 -9999 -9999 -9999 -9999 -9999 -9999 -9999 -9999 -9999 -9999 -9999 -9999 -9999 -9999 -9999 -9999 -9999 -9999 -9999 -9999 -9999 -9999 -9999 -9999 -9999 -9999 -9999 -9999 -9999 -9999 -9999 -9999 -9999 -9999 -9999 -9999 -9999 -9999 -9999 -9999 -9999 -9999 -9999 -9999 -9999 -9999 -9999 -9999 -9999 -9999 -9999 -9999 -9999 -9999 -9999 -9999 -9999 -9999 -9999 -9999 -9999 -9999 -9999 -9999 -9999 -9999 -9999 -9999 -9999 -9999 -9999 -9999 -9999 -9999 -9999 -9999 -9999 -9999 -9999 -9999 -9999 -9999 -9999 -9999 -9999 -9999 -9999 -9999 -9999 -9999 -9999 -9999 -9999 -9999 -9999 -9999 -9999 -9999 -9999 -9999 -9999 -9999 -9999 -9999 -9999 -9999 -9999 -9999 -9999 -9999 -9999 -9999 -9999 -9999 -9999 -9999 -9999 -9999 -9999 -9999 -9999 -9999 -9999 -9999 -9999 -9999 -9999 -9999 -9999 -9999 -9999 -9999 -9999 -9999 -9999 -9999 -9999 -9999 -9999 -9999 -9999 -9999 -9999 -9999 -9999 -9999 -9999 -9999 -9999 -9999 -9999 -9999 -9999 -9999 -9999 -9999 -9999 -9999 -9999
-2.123 -2.007 -2.041 -2.094 -2.078 -2.077 -2.107 -2.06 -2.078 -2.084 -2.081 -2.01 -2.083 -2.159 -2.023 -2.142 -2.076 -2.137 -2.091 -2.046 -2.076 -1.992 -2.027 -2.047 -2.127 -2.07 -2.113 -2.125 -2.058 -2.198 -2.027 -2.046 -2.014 -2.048 -2.095 -2.129 -2.046 -2.05 -9999 -2.074 -2.009 -2.066 -2.084 -2.038 -2.026 -2.011 -2.039 -2.229 -2.034 -2.095 -2.122 -2.107 -2.075 -2.068 -2.091 -2.018 -2.031 -2.127 -1.952 -2.095 -2.071 -2.071 -2.028 -2.072 -2.074 -2.054 -1.993 -2.064 -2.028 -2.099 -2.079 -2.068 -1.987 -2.072 -2.121 -2.132 -2.017 -1.978 -1.968 -2.067 -2.065 -2.05 -2.002 -2.047 -1.94 -2.06 -2.046 -1.968 -1.972 -1.943 -2.003 -2.043 -2.023 -2.014 -2.073 -1.963 -2.057 -2.057 -2.036 -2.092 -2.014 -1.951 -1.98 -2.107 -2.136 -2.059 -1.99 -1.967 -1.947 -2.062 -2.074 -2.02 -2.043 -1.991 -2.044 -2.016 -2.035 -2.112 -1.987 -1.964 -1.996 -1.903 -2.138 -2.064 -2.056 -2.005 -1.955 -2.034 -1.97 -2.081 -2.052 -2.026 -1.983 -2.008 -1.997 -1.964 -2.08 -2.012 -1.989 -2.014 -2.007 -2.062 -1.963 -2.027 -2.111 -2.045 -2.017 -1.973 -1.923 -1.993 -1.992 -2.011 -2.027 -2.066 -2.047 -1.906 -2.048 -1.962 -2.011 -2.022 -2.006 -1.966 -1.956 -2.008 -1.903 -1.999 -2.033 -2.042 -2.019 -1.984 -2.055 -1.959 -1.978 -1.956 -1.919 -2.02 -2.017 -2.004 -2.026 -2.019 -1.996 -2.023 -2.023 -2.06 -2.051 -2.03 -2.033 -1.969 -1.973 -1.968 -2.042 -2.083 -2.072 -2.084 -2.106 -2.056 -2.019 -1.899 -1.962 -1.986 -2.065 -2.066 -2.104 -2.051 -2.02 -2.005 -2.053 -1.978 -1.963 -2.02 -2.093 -1.993 -2.068 -2.005 -1.986 -2.014 -2.042 -2.051 -1.978 -2.064 -1.987 -1.99 -1.985 -2.153 -1.988 -2.005 -2.02 -1.948 -1.977 -2.013 -2.081 -2.035 -2.066 -2.04 -1.981 -1.914 -1.958 -2.078 -9999 -9999 -2.162 -2.1 -2.062 -1.982 -2.047 -2.01 -2.057 -2.067 -2.009 -2.015 -9999 -2.081 -9999 -2.046 -2.023 -9999 -9999 -2.095 -2.219 -9999 -9999 -9999 -9999 -9999 -9999 -9999 -9999 -9999 -9999 -9999 -9999 -9999 -9999 -9999 -9999 -9999 -9999 -9999 -9999 -9999 -9999 -9999 -9999 -9999 -9999 -9999 -9999 -9999 -9999 -9999 -9999 -9999 -9999 -9999 -9999 -9999 -9999 -9999 -9999 -9999 -9999 -9999 -9999 -9999 -9999 -9999 -9999 -9999 -9999 -9999 -9999 -9999 -9999 -9999 -9999 -9999 -9999 -9999 -9999 -9999 -9999 -9999 -9999 -9999 -9999 -9999 -9999 -9999 -9999 -9999 -9999 -9999 -9999 -9999 -9999 -9999 -9999 -9999 -9999 -9999 -9999 -9999 -9999 -9999 -9999 -9999 -9999 -9999 -9999 -9999 -9999 -9999 -9999 -9999 -9999 -9999 -9999 -9999 -9999 -9999 -9999 -9999 -9999 -9999 -9999 -9999 -9999 -9999 -9999 -9999 -9999 -9999 -9999 -9999 -9999 -9999 -9999 -9999 -9999 -9999 -9999 -9999 -9999 -9999 -9999 -9999 -9999 -9999 -9999 -9999 -9999 -9999 -9999 -9999 -9999 -9999 -9999 -9999 -9999 -9999 -9999 -9999 -9999 -9999 -9999 -9999 -9999 -9999 -9999 -9999 -9999 -9999 -9999 -9999 -9999 -9999 -9999 -9999 -9999 -9999 -9999 -9999 -9999 -9999 -9999 -9999 -9999 -9999 -9999 -9999 -9999 -9999 -9999 -9999 -9999 -9999 -9999 -9999 -9999 -9999 -9999 -9999 -9999 -9999 -9999 -9999 -9999 -9999 -9999 -9999 -9999 -9999 -9999 -9999 -9999 -9999 -9999 -9999 -9999 -9999 -9999 -9999 -9999 -9999 -9999 -9999 -9999 -9999 -9999 -9999 -9999 -9999 -9999
-2.129 -2.058 -1.956 -2.107 -2.018 -2.142 -2.112 -2.074 -2.095 -2.085 -2.059 -2.056 -2.097 -2.107 -2.119 -2.113 -2.083 -2.07 -2.075 -2.075 -2.047 -2.091 -2.038 -2.135 -2.087 -2.038 -2.059 -2.115 -2.082 -2.087 -2.054 -1.997 -2.073 -1.976 -2.137 -2.152 -2.051 -2.088 -2.002 -2.129 -2.002 -2.135 -2.103 -2.123 -2.105 -2.006 -2.126 -2.176 -2.073 -2.026 -2.083 -2.032 -2.048 -2.084 -2.034 -2.058 -2.118 -2.073 -2.05 -2.093 -2.071 -2.049 -1.998 -2.042 -2.048 -2.13 -2.042 -2.088 -2.057 -2.06 -2.094 -2.048 -2.044 -2.041 -2.084 -2.147 -2.126 -2.052 -2.056 -2.019 -2.041 -1.966 -2.016 -2.102 -1.991 -2.078 -2.027 -2.008 -1.933 -1.969 -2.073 -2.081 -2.026 -2.162 -1.931 -1.995 -2.016 -2.084 -2.07 -2.021 -1.952 -1.906 -2.032 -2.094 -2.14 -2.004 -2.068 -2.003 -1.99 -1.992 -2.034 -2.011 -1.978 -2.016 -2.016 -2.04 -2.036 -2.116 -2.115 -1.97 -1.927 -2.005 -2.053 -2.023 -2.05 -2.032 -2.016 -1.947 -2.022 -2.066 -2.092 -2.033 -2.001 -2.04 -1.928 -2.005 -2.058 -2.011 -1.979 -2.005 -1.967 -1.981 -1.979 -1.963 -2.016 -2.116 -1.957 -2.055 -1.958 -1.948 -2.055 -2.072 -2.026 -2.085 -2.019 -1.973 -1.943 -1.95 -1.966 -2.025 -2.048 -2.015 -1.994 -1.98 -1.93 -2.007 -2.068 -2.051 -2.049 -2.004 -1.997 -1.966 -1.955 -2.031 -1.961 -2.024 -2.058 -2.078 -1.996 -1.996 -1.97 -2.005 -2.062 -2.022 -2.015 -2.033 -1.974 -1.929 -1.893 -1.949 -1.996 -2.005 -2.065 -2.026 -2.083 -2.038 -1.968 -1.967 -2.044 -1.969 -2.02 -2.043 -2.19 -2.071 -2.016 -1.974 -2.006 -1.946 -1.997 -2.001 -1.98 -2.132 -1.986 -1.917 -2.027 -2.023 -1.938 -2.082 -2.006 -2.051 -2.127 -2.023 -2.031 -2.077 -2.029 -1.98 -1.993 -1.971 -2.133 -1.957 -2.064 -2.017 -2 -2.079 -2.014 -1.988 -2.008 -2.055 -1.97 -9999 -2.035 -2.04 -2.038 -2.068 -2.068 -2.06 -2.028 -2.016 -9999 -2.036 -1.992 -1.964 -9999 -9999 -2.107 -2.096 -9999 -9999 -9999 -2.033 -1.956 -2.089 -9999 -9999 -9999 -9999 -9999 -9999 -9999 -9999 -9999 -9999 -9999 -9999 -9999 -9999 -9999 -9999 -9999 -9999 -9999 -9999 -9999 -9999 -9999 -9999 -9999 -9999 -9999 -9999 -9999 -9999 -9999 -9999 -9999 -9999 -9999 -9999 -9999 -9999 -9999 -9999 -9999 -9999 -9999 -9999 -9999 -9999 -9999 -9999 -9999 -9999 -9999 -9999 -9999 -9999 -9999 -9999 -9999 -9999 -9999 -9999 -9999 -9999 -9999 -9999 -9999 -9999 -9999 -9999 -9999 -9999 -9999 -9999 -9999 -9999 -9999 -9999 -9999 -9999 -9999 -9999 -9999 -9999 -9999 -9999 -9999 -9999 -9999 -9999 -9999 -9999 -9999 -9999 -9999 -9999 -9999 -9999 -9999 -9999 -9999 -9999 -9999 -9999 -9999 -9999 -9999 -9999 -9999 -9999 -9999 -9999 -9999 -9999 -9999 -9999 -9999 -9999 -9999 -9999 -9999 -9999 -9999 -9999 -9999 -9999 -9999 -9999 -9999 -9999 -9999 -9999 -9999 -9999 -9999 -9999 -9999 -9999 -9999 -9999 -9999 -9999 -9999 -9999 -9999 -9999 -9999 -9999 -9999 -9999 -9999 -9999 -9999 -9999 -9999 -9999 -9999 -9999 -9999 -9999 -9999 -9999 -9999 -9999 -9999 -9999 -9999 -9999 -9999 -9999 -9999 -9999 -9999 -9999 -9999 -9999 -9999 -9999 -9999 -9999 -9999 -9999 -9999 -9999 -9999 -9999 -9999 -9999 -9999 -9999 -9999 -9999 -9999 -9999 -9999 -9999 -9999 -9999 -9999 -9999 -9999 -9999 -9999 -9999 -9999 -9999 -9999 -9999 -9999 -9999 -9999 -9999 -9999
-2.069 -2.125 -1.976 -2.083 -2.06 -2.13 -2.153 -2.097 -2.112 -2.04 -2.048 -2.087 -2.033 -2.028 -2.124 -2.04 -2.002 -2.141 -2.073 -2.155 -2.098 -2.107 -2.068 -2.105 -2.086 -2.131 -2.075 -2.178 -2.062 -2.096 -2.042 -2.103 -2.06 -2.048 -2.09 -2.173 -9999 -2.101 -2.097 -2.118 -2.095 -2.089 -2.192 -2.141 -2.005 -2.117 -2.027 -2.18 -2.062 -2.153 -2.07 -2.028 -2.037 -2.226 -2.075 -2.096 -2.085 -1.988 -2.045 -2.069 -2.1 -2.036 -1.995 -2.002 -2.138 -2.099 -1.991 -1.953 -2.015 -2.104 -2.079 -2.002 -2.226 -2.014 -2.02 -2.06 -2.077 -2 -2.06 -2.107 -2.126 -1.963 -1.96 -2.029 -2.03 -2.061 -2.029 -2.07 -1.936 -1.998 -2.127 -2.106 -1.992 -1.976 -1.884 -2.051 -1.963 -2.023 -2.079 -2.001 -1.968 -1.991 -2.053 -2.039 -2.141 -2.079 -1.986 -1.956 -2.011 -2.071 -1.992 -2.088 -1.965 -1.999 -2.033 -2.105 -2.044 -2.063 -2.049 -1.983 -1.925 -2.006 -1.944 -2.091 -2.102 -2.146 -1.984 -1.987 -1.911 -2.138 -2.103 -2 -2.035 -2.01 -2.04 -1.96 -2.059 -2.094 -1.987 -2.001 -1.988 -2.073 -1.991 -1.954 -2.015 -2.106 -1.99 -2.007 -1.999 -2.036 -2.056 -2.081 -1.966 -2.101 -2.018 -1.984 -1.995 -1.977 -1.977 -2.042 -2.063 -2.02 -1.949 -1.973 -1.988 -1.975 -2.015 -1.997 -2.027 -1.973 -2.024 -1.966 -1.971 -2.06 -1.951 -2.075 -1.978 -2 -1.982 -2.065 -1.937 -1.938 -2.104 -2.048 -2.049 -2.044 -1.969 -2.003 -1.948 -1.915 -1.95 -2.03 -2.022 -2.057 -2.052 -2.037 -1.933 -1.959 -2.023 -2.02 -1.982 -1.987 -2.079 -2.073 -2.063 -2.025 -2.006 -1.946 -2.016 -2.02 -2.098 -2.058 -2.026 -2.029 -1.919 -1.958 -1.937 -2.032 -2.081 -2.094 -2.063 -2.07 -2.019 -2.032 -2.096 -1.906 -1.987 -1.958 -2.012 -2.007 -1.987 -2.091 -2.042 -2.006 -1.98 -1.97 -2.001 -1.971 -2.029 -2.127 -2.042 -2.006 -2.048 -1.993 -2.069 -2.039 -1.943 -1.909 -9999 -2.007 -2.076 -2.032 -1.974 -9999 -2.02 -2.022 -9999 -2.036 -2.121 -2.067 -9999 -2.069 -9999 -2.156 -1.909 -9999 -9999 -9999 -9999 -9999 -9999 -9999 -9999 -9999 -9999 -9999 -9999 -9999 -9999 -9999 -9999 -9999 -9999 -9999 -9999 -9999 -9999 -9999 -9999 -9999 -9999 -9999 -9999 -9999 -9999 -9999 -9999 -9999 -9999 -9999 -9999 -9999 -9999 -9999 -9999 -9999 -9999 -9999 -9999 -9999 -9999 -9999 -9999 -9999 -9999 -9999 -9999 -9999 -9999 -9999 -9999 -9999 -9999 -9999 -9999 -9999 -9999 -9999 -9999 -9999 -9999 -9999 -9999 -9999 -9999 -9999 -9999 -9999 -9999 -9999 -9999 -9999 -9999 -9999 -9999 -9999 -9999 -9999 -9999 -9999 -9999 -9999 -9999 -9999 -9999 -9999 -9999 -9999 -9999 -9999 -9999 -9999 -9999 -9999 -9999 -9999 -9999 -9999 -9999 -9999 -9999 -9999 -9999 -9999 -9999 -9999 -9999 -9999 -9999 -9999 -9999 -9999 -9999 -9999 -9999 -9999 -9999 -9999 -9999 -9999 -9999 -9999 -9999 -9999 -9999 -9999 -9999 -9999 -9999 -9999 -9999 -9999 -9999 -9999 -9999 -9999 -9999 -9999 -9999 -9999 -9999 -9999 -9999 -9999 -9999 -9999 -9999 -9999 -9999 -9999 -9999 -9999 -9999 -9999 -9999 -9999 -9999 -9999 -9999 -9999 -9999 -9999 -9999 -9999 -9999 -9999 -9999 -9999 -9999 -9999 -9999 -9999 -9999 -9999 -9999 -9999 -9999 -9999 -9999 -9999 -9999 -9999 -9999 -9999 -9999 -9999 -9999 -9999 -9999 -9999 -9999 -9999 -9999 -9999 -9999 -9999 -9999 -9999 -9999 -9999 -9999 -9999 -9999
-2.091 -2.103 -2.038 -2.052 -2.1 -2.108 -2.051 -2.137 -2.056 -2.051 -2.051 -2.031 -2.068 -2.047 -2.088 -2.116 -2.071 -2.097 -2.087 -2.123 -2.094 -2.185 -2.067 -2.131 -2.063 -2.077 -2.027 -2.097 -2.066 -1.995 -2.06 -2.137 -2.023 -2.064 -2.072 -2.07 -2.067 -2.092 -2.095 -2.057 -2.14 -2.063 -2.064 -2.138 -2.041 -2.063 -2.1 -2.046 -2.02 -2.048 -2.11 -2.078 -2.075 -2.157 -2.081 -2.112 -2.089 -2.094 -2.079 -2.169 -2.195 -2.083 -2.053 -2.032 -2.062 -2.055 -2.012 -2.036 -2.007 -2.138 -2.084 -2.103 -2.076 -2.021 -2.113 -2.067 -2.118 -1.974 -2.063 -2.118 -2.126 -1.993 -1.939 -1.983 -2.097 -2.127 -2.003 -2.032 -1.945 -1.964 -2.089 -2.228 -2.035 -2.033 -1.895 -1.972 -2.097 -2.123 -2.035 -2.014 -1.976 -2.057 -2.089 -2.105 -2.106 -1.964 -1.96 -1.946 -2.065 -2.145 -2.047 -2.072 -2.027 -1.963 -2.118 -2.06 -2.064 -2.012 -2.032 -2.006 -1.917 -1.99 -2 -2.063 -2.017 -2.06 -1.945 -1.952 -1.971 -2.122 -2.067 -2.063 -1.944 -2.011 -1.993 -2.05 -2.03 -2.112 -2.009 -1.961 -1.988 -2 -2.077 -2.021 -1.959 -2.094 -2.032 -1.98 -1.979 -1.974 -2.032 -2.091 -2.014 -2.058 -2.053 -2 -2.02 -2.023 -2.011 -1.996 -2.052 -2.026 -1.913 -2.031 -2.002 -2.023 -1.968 -1.963 -2.009 -1.935 -1.944 -2.052 -1.966 -1.968 -2.091 -2.081 -2.044 -1.984 -1.961 -2.04 -1.923 -1.977 -2.082 -2.107 -2.036 -1.985 -2.06 -1.962 -1.936 -2.147 -2.015 -1.978 -2.061 -1.989 -1.996 -2.078 -1.927 -1.917 -1.995 -2.024 -2.076 -2.054 -2.065 -2.081 -2.054 -2.015 -2.026 -2.091 -2.022 -2.038 -2.07 -2.06 -2.05 -2.041 -1.971 -1.998 -2.047 -2.01 -2.053 -2.066 -2.104 -2.015 -2.043 -2.013 -2.027 -1.91 -1.98 -1.995 -2.045 -2.02 -2.015 -2.199 -9999 -1.957 -1.992 -1.97 -1.926 -1.993 -1.961 -1.979 -9999 -2.062 -2.02 -1.982 -9999 -2.063 -2.028 -9999 -1.97 -2.007 -2.04 -2.104 -1.97 -9999 -9999 -2.048 -2.04 -1.939 -9999 -9999 -9999 -9999 -9999 -9999 -2.023 -9999 -9999 -9999 -9999 -9999 -9999 -9999 -9999 -9999 -9999 -9999 -9999 -9999 -9999 -9999 -9999 -9999 -9999 -9999 -9999 -9999 -9999 -9999 -9999 -9999 -9999 -9999 -9999 -9999 -9999 -9999 -9999 -9999 -9999 -9999 -9999 -9999 -9999 -9999 -9999 -9999 -9999 -9999 -9999 -9999 -9999 -9999 -9999 -9999 -9999 -9999 -9999 -9999 -9999 -9999 -9999 -9999 -9999 -9999 -9999 -9999 -9999 -9999 -9999 -9999 -9999 -9999 -9999 -9999 -9999 -9999 -9999 -9999 -9999 -9999 -9999 -9999 -9999 -9999 -9999 -9999 -9999 -9999 -9999 -9999 -9999 -9999 -9999 -9999 -9999 -9999 -9999 -9999 -9999 -9999 -9999 -9999 -9999 -9999 -9999 -9999 -9999 -9999 -9999 -9999 -9999 -9999 -9999 -9999 -9999 -9999 -9999 -9999 -9999 -9999 -9999 -9999 -9999 -9999 -9999 -9999 -9999 -9999 -9999 -9999 -9999 -9999 -9999 -9999 -9999 -9999 -9999 -9999 -9999 -9999 -9999 -9999 -9999 -9999 -9999 -9999 -9999 -9999 -9999 -9999 -9999 -9999 -9999 -9999 -9999 -9999 -9999 -9999 -9999 -9999 -9999 -9999 -9999 -9999 -9999 -9999 -9999 -9999 -9999 -9999 -9999 -9999 -9999 -9999 -9999 -9999 -9999 -9999 -9999 -9999 -9999 -9999 -9999 -9999 -9999 -9999 -9999 -9999 -9999 -9999 -9999 -9999 -9999 -9999 -9999 -9999 -9999 -9999 -9999 -9999 -9999 -9999 -9999 -9999 -9999 -9999 -9999 -9999 -9999 -9999 -9999 -9999 -9999
-2.005 -2.127 -2.089 -2.093 -2.033 -2.07 -2.059 -2.115 -2.102 -2.1 -2.049 -2.023 -2.073 -2.078 -2.034 -2.079 -2.029 -2.116 -2.052 -2.098 -2.112 -2.179 -2.039 -2.1 -2.166 -2.005 -2.053 -1.968 -2.181 -2.066 -2.104 -2.095 -2.027 -2.024 -2.03 -2.072 -2.031 -2.098 -1.999 -2.055 -2.153 -2.171 -2.134 -2.02 -2.113 -2.067 -2.006 -2.002 -2.153 -2.034 -2.11 -2.029 -2.028 -2.109 -2.059 -2.161 -2.071 -2.064 -2.097 -2.133 -2.09 -2.043 -2.061 -2.09 -2.101 -2.023 -2.019 -1.994 -2.089 -2.087 -2.04 -2.113 -2.009 -2.038 -2.155 -2.118 -2.025 -2.07 -1.985 -2.058 -2.095 -2.016 -2.022 -2.137 -2.058 -2.083 -2.045 -2.112 -1.965 -1.947 -2.045 -2.082 -2.041 -2.022 -2.037 -2.057 -2.048 -2.142 -2.026 -1.93 -1.967 -2.05 -2.08 -2.095 -2.018 -1.984 -1.934 -2.005 -1.941 -2.121 -2.069 -2.023 -1.894 -1.952 -2.053 -1.996 -2.145 -2.026 -1.991 -2.018 -1.959 -1.972 -2.06 -2.151 -2.029 -2.016 -1.938 -1.987 -1.996 -2.017 -2.139 -2.055 -1.981 -1.984 -2.019 -2.068 -2.052 -2.075 -2.019 -2.027 -2.008 -2.065 -2.056 -2.039 -2.002 -1.951 -2.035 -2.025 -2.018 -1.956 -1.996 -2.09 -1.981 -2.019 -2.005 -1.996 -1.98 -1.998 -2.019 -2.021 -2.04 -2.009 -1.967 -1.995 -2.02 -1.983 -2.003 -2.055 -2.042 -2.005 -1.968 -2.017 -1.92 -1.932 -2.078 -2.077 -2.003 -1.998 -1.947 -2.066 -1.992 -2.007 -2.014 -2.072 -2.053 -2.017 -2.077 -1.921 -1.975 -1.958 -2.047 -1.966 -2.049 -1.999 -2.025 -1.991 -1.983 -1.917 -1.933 -2.059 -2.008 -2.038 -2.034 -2.085 -2.031 -2.005 -1.983 -2.048 -2.014 -2.083 -1.985 -2.065 -2.006 -1.99 -1.939 -2.013 -1.967 -2.046 -1.994 -1.994 -2.031 -2 -1.973 -2.089 -1.963 -1.987 -2.012 -1.958 -1.942 -2.033 -2.049 -2.083 -2.16 -2.056 -1.973 -2.049 -2.04 -2.018 -2.028 -2.104 -2.074 -2.048 -1.981 -1.891 -2.024 -2.07 -1.956 -9999 -2.09 -9999 -2.089 -9999 -9999 -2.042 -9999 -2.032 -9999 -1.981 -9999 -9999 -9999 -2.005 -2.06 -9999 -1.951 -9999 -9999 -9999 -9999 -9999 -9999 -9999 -9999 -9999 -9999 -9999 -9999 -9999 -9999 -9999 -9999 -9999 -9999 -9999 -9999 -9999 -9999 -9999 -9999 -9999 -9999 -9999 -9999 -9999 -9999 -9999 -9999 -9999 -9999 -9999 -9999 -9999 -9999 -9999 -9999 -9999 -9999 -9999 -9999 -9999 -9999 -9999 -9999 -9999 -9999 -9999 -9999 -9999 -9999 -9999 -9999 -9999 -9999 -9999 -9999 -9999 -9999 -9999 -9999 -9999 -9999 -9999 -9999 -9999 -9999 -9999 -9999 -9999 -9999 -9999 -9999 -9999 -9999 -9999 -9999 -9999 -9999 -9999 -9999 -9999 -9999 -9999 -9999 -9999 -9999 -9999 -9999 -9999 -9999 -9999 -9999 -9999 -9999 -9999 -9999 -9999 -9999 -9999 -9999 -9999 -9999 -9999 -9999 -9999 -9999 -9999 -9999 -9999 -9999 -9999 -9999 -9999 -9999 -9999 -9999 -9999 -9999 -9999 -9999 -9999 -9999 -9999 -9999 -9999 -9999 -9999 -9999 -9999 -9999 -9999 -9999 -9999 -9999 -9999 -9999 -9999 -9999 -9999 -9999 -9999 -9999 -9999 -9999 -9999 -9999 -9999 -9999 -9999 -9999 -9999 -9999 -9999 -9999 -9999 -9999 -9999 -9999 -9999 -9999 -9999 -9999 -9999 -9999 -9999 -9999 -9999 -9999 -9999 -9999 -9999 -9999 -9999 -9999 -9999 -9999 -9999 -9999 -9999 -9999 -9999 -9999 -9999 -9999 -9999 -9999 -9999 -9999 -9999 -9999 -9999 -9999 -9999 -9999 -9999 -9999 -9999 -9999 -9999 -9999 -9999 -9999 -9999 -9999
-2.026 -2.01 -2.102 -2.058 -2.098 -2.057 -2.052 -2.06 -2.101 -2.083 -2.092 -2.038 -2.067 -2.177 -2.126 -2.099 -2.159 -2.07 -2.052 -2.076 -2.044 -2.032 -2.054 -2.087 -2.095 -2.137 -2.086 -2.093 -2.095 -2.111 -2.081 -2.061 -2.051 -2.048 -2.147 -2.029 -2.085 -2.122 -2.063 -2.034 -2.054 -2.107 -2.101 -2.011 -2.144 -2.069 -2.064 -1.973 -2.061 -2.101 -2.048 -1.987 -2.039 -2.03 -2.068 -2.037 -2.068 -2.024 -2.033 -2.035 -2.088 -2.017 -2.033 -2.063 -2.124 -2.103 -1.992 -2.038 -2.013 -2.071 -2.082 -2.01 -1.983 -2.085 -2.132 -2.12 -2.015 -2.034 -2.059 -2.107 -2.187 -2.049 -1.951 -1.995 -2.087 -2.146 -2.08 -2.053 -1.975 -1.961 -2.103 -2.093 -2.06 -2.036 -1.952 -2.092 -2.063 -2.152 -2.173 -2.01 -1.95 -1.982 -2.083 -2.037 -2.041 -1.998 -1.971 -1.965 -1.982 -2.073 -2.049 -2.017 -1.927 -1.935 -2.041 -1.988 -2.087 -2.045 -1.996 -1.964 -1.983 -2.117 -2.041 -2.105 -2.062 -1.992 -1.965 -1.983 -1.958 -2.085 -2.123 -1.951 -2.024 -1.923 -2.047 -2.016 -2.019 -2.023 -2.024 -1.974 -2.013 -1.949 -2.019 -1.942 -2.091 -2.081 -2.058 -1.958 -1.989 -2.047 -1.96 -2.082 -2.03 -2.002 -1.976 -2.064 -1.96 -2 -1.964 -2.01 -2.08 -2.047 -2.023 -2.001 -2.03 -1.98 -2.003 -2.009 -2.001 -1.986 -1.937 -2.026 -1.983 -1.973 -2.02 -2.058 -2.005 -1.995 -1.942 -2.049 -2.015 -1.997 -2.022 -2.084 -2.049 -1.957 -2.046 -1.99 -1.963 -1.963 -2.02 -1.962 -1.995 -2.008 -1.99 -2.01 -1.969 -1.969 -1.914 -2.097 -2.059 -2.059 -1.991 -1.944 -2.011 -1.977 -1.979 -2.034 -1.973 -2.09 -2.036 -2.053 -2.005 -1.988 -1.966 -1.976 -2.012 -2.027 -2.119 -1.957 -2.096 -2.054 -2.037 -2.018 -1.956 -1.972 -2.008 -1.989 -2.048 -2.052 -2.018 -2.087 -2.088 -2.042 -2.019 -2.029 -1.98 -2.11 -2.037 -2.136 -2.085 -2.072 -1.976 -2.03 -1.961 -2.022 -2.014 -1.943 -2.073 -9999 -9999 -1.986 -2.091 -2.051 -1.986 -9999 -2.066 -9999 -2.09 -1.979 -2.057 -2.074 -9999 -2.106 -9999 -9999 -9999 -2.059 -9999 -9999 -9999 -9999 -9999 -9999 -9999 -9999 -9999 -9999 -9999 -9999 -9999 -9999 -9999 -9999 -9999 -9999 -9999 -9999 -9999 -9999 -9999 -9999 -9999 -9999 -9999 -9999 -9999 -9999 -9999 -9999 -9999 -9999 -9999 -9999 -9999 -9999 -9999 -9999 -9999 -9999 -9999 -9999 -9999 -9999 -9999 -9999 -9999 -9999 -9999 -9999 -9999 -9999 -9999 -9999 -9999 -9999 -9999 -9999 -9999 -9999 -9999 -9999 -9999 -9999 -9999 -9999 -9999 -9999 -9999 -9999 -9999 -9999 -9999 -9999 -9999 -9999 -9999 -9999 -9999 -9999 -9999 -9999 -9999 -9999 -9999 -9999 -9999 -9999 -9999 -9999 -9999 -9999 -9999 -9999 -9999 -9999 -9999 -9999 -9999 -9999 -9999 -9999 -9999 -9999 -9999 -9999 -9999 -9999 -9999 -9999 -9999 -9999 -9999 -9999 -9999 -9999 -9999 -9999 -9999 -9999 -9999 -9999 -9999 -9999 -9999 -9999 -9999 -9999 -9999 -9999 -9999 -9999 -9999 -9999 -9999 -9999 -9999 -9999 -9999 -9999 -9999 -9999 -9999 -9999 -9999 -9999 -9999 -9999 -9999 -9999 -9999 -9999 -9999 -9999 -9999 -9999 -9999 -9999 -9999 -9999 -9999 -9999 -9999 -9999 -9999 -9999 -9999 -9999 -9999 -9999 -9999 -9999 -9999 -9999 -9999 -9999 -9999 -9999 -9999 -9999 -9999 -9999 -9999 -9999 -9999 -9999 -9999 -9999 -9999 -9999 -9999 -9999 -9999 -9999 -9999 -9999 -9999 -9999 -9999 -9999 -9999 -9999 -9999
-2.045 -2.052 -1.986 -2.06 -2.047 -2.093 -2.077 -2.096 -2.101 -2.133 -2.069 -2.137 -2.043 -2.102 -2.163 -2.058 -2.122 -2.079 -2.02 -2.208 -2.071 -2.024 -2.135 -2.087 -2.086 -2.117 -2.061 -2.093 -2.046 -2.104 -2.166 -2.122 -2.029 -2.119 -2.097 -2.073 -1.979 -2.103 -2.087 -2.19 -2.092 -2.078 -2.04 -2.049 -1.998 -2.082 -2.041 -2.103 -2.037 -2.117 -2.09 -2.025 -2.003 -2.023 -2.052 -2.065 -2.104 -2.026 -2.081 -2.11 -2.097 -2.039 -2.004 -2.107 -2.028 -2.032 -2.047 -1.938 -2.038 -2.092 -2.051 -2.008 -1.949 -2.006 -2.136 -2.134 -2.09 -2.019 -2.109 -2.072 -2.118 -2.105 -2.033 -2.073 -2.047 -2.082 -2.074 -2.043 -2.015 -2.089 -2.143 -2.106 -2.026 -2.043 -1.957 -1.989 -2.074 -2.072 -2.031 -2.038 -1.986 -1.98 -2.073 -2.103 -2.088 -2.095 -1.895 -1.986 -2.087 -2.048 -2.031 -2.127 -1.906 -1.966 -2.013 -2.095 -2.074 -2.098 -2.012 -1.953 -2.038 -2.018 -2.138 -2.039 -2.046 -2.053 -1.972 -2.012 -1.997 -2.051 -2.112 -2.023 -1.994 -1.981 -1.989 -2.082 -2.003 -1.997 -2.05 -2.012 -1.958 -1.934 -1.991 -2.008 -2.045 -2.013 -1.976 -2.035 -2.001 -2.011 -1.968 -2.02 -2.097 -2.046 -1.986 -2.018 -1.999 -1.977 -2.018 -2.013 -2.055 -2.028 -1.969 -1.97 -1.978 -2.035 -2.071 -1.994 -2.083 -2.009 -1.921 -2.041 -2.017 -1.96 -2.128 -2.08 -2.033 -2.015 -1.97 -1.983 -2.004 -2.005 -2.07 -2.055 -2.113 -2.004 -2.082 -1.992 -2.023 -1.975 -2.078 -2.002 -2.028 -2 -2.032 -2.046 -1.979 -1.966 -1.949 -1.955 -2.069 -2.05 -2.013 -2.01 -2.001 -1.947 -2.064 -2.055 -2.031 -2.094 -1.993 -2.007 -2.05 -1.96 -1.991 -1.973 -1.956 -1.984 -2.023 -1.994 -2.038 -2.072 -2.033 -2.134 -1.97 -1.974 -2.005 -2.054 -1.965 -2.043 -2.06 -1.992 -1.976 -2.024 -2.051 -1.975 -1.969 -2.034 -2.027 -2.026 -2.088 -2.068 -2.02 -1.994 -2.005 -2.033 -1.931 -1.972 -1.986 -9999 -2.011 -2.091 -2.025 -1.96 -1.977 -2.018 -2.03 -9999 -9999 -2.014 -2.106 -9999 -9999 -9999 -9999 -9999 -1.926 -1.985 -9999 -2.02 -9999 -9999 -9999 -9999 -9999 -9999 -9999 -9999 -9999 -9999 -9999 -9999 -9999 -9999 -9999 -9999 -9999 -9999 -9999 -9999 -9999 -9999 -9999 -9999 -9999 -9999 -9999 -9999 -9999 -9999 -9999 -9999 -9999 -9999 -9999 -9999 -9999 -9999 -9999 -9999 -9999 -9999 -9999 -9999 -9999 -9999 -9999 -9999 -9999 -9999 -9999 -9999 -9999 -9999 -9999 -9999 -9999 -9999 -9999 -9999 -9999 -9999 -9999 -9999 -9999 -9999 -9999 -9999 -9999 -9999 -9999 -9999 -9999 -9999 -9999 -9999 -9999 -9999 -9999 -9999 -9999 -9999 -9999 -9999 -9999 -9999 -9999 -9999 -9999 -9999 -9999 -9999 -9999 -9999 -9999 -9999 -9999 -9999 -9999 -9999 -9999 -9999 -9999 -9999 -9999 -9999 -9999 -9999 -9999 -9999 -9999 -9999 -9999 -9999 -9999 -9999 -9999 -9999 -9999 -9999 -9999 -9999 -9999 -9999 -9999 -9999 -9999 -9999 -9999 -9999 -9999 -9999 -9999 -9999 -9999 -9999 -9999 -9999 -9999 -9999 -9999 -9999 -9999 -9999 -9999 -9999 -9999 -9999 -9999 -9999 -9999 -9999 -9999 -9999 -9999 -9999 -9999 -9999 -9999 -9999 -9999 -9999 -9999 -9999 -9999 -9999 -9999 -9999 -9999 -9999 -9999 -9999 -9999 -9999 -9999 -9999 -9999 -9999 -9999 -9999 -9999 -9999 -9999 -9999 -9999 -9999 -9999 -9999 -9999 -9999 -9999 -9999 -9999 -9999 -9999 -9999 -9999 -9999 -9999 -9999 -9999 -9999 -9999
-2.097 -2.056 -2.068 -2.025 -2.085 -2.077 -2.106 -2.104 -2.059 -2.046 -2.01 -2.063 -2.072 -2.042 -2.132 -2.061 -2.088 -2.018 -2.017 -2.07 -2.134 -2.081 -2.116 -2.113 -2.064 -2.095 -2.181 -2.091 -2.083 -2.117 -2.106 -2.229 -2.101 -2.03 -2.092 -2.106 -2.049 -2.095 -2.085 -2.2 -2.121 -2.035 -2.13 -2.106 -2.031 -2.033 -2.08 -2.13 -2.111 -2.06 -2.128 -2.005 -2.069 -2.054 -2.017 -2.12 -2.13 -2.03 -2.058 -2.082 -2.025 -2.014 -2.053 -2.083 -1.969 -1.97 -1.988 -2.126 -2.059 -2.041 -2.058 -1.993 -2.028 -2.01 -2.12 -2.075 -2.003 -1.97 -2.018 -2.082 -2.08 -2.069 -1.923 -1.997 -2.094 -2.063 -2.081 -1.953 -1.979 -2.083 -2.049 -2.096 -2.002 -1.927 -1.979 -2.021 -1.999 -2.116 -2.103 -2.032 -1.95 -1.974 -2.121 -2.084 -2.007 -1.959 -1.962 -1.992 -2.057 -2.096 -2.002 -2.005 -2.006 -1.995 -2.084 -1.994 -2.099 -2.039 -1.987 -1.946 -1.983 -2.027 -2.162 -2.084 -2.073 -2.053 -2.018 -2.015 -1.967 -2.036 -2.097 -2.04 -2.021 -1.955 -1.986 -2.144 -2.073 -2.044 -1.943 -2.021 -1.994 -1.975 -2.007 -2.053 -2.01 -2.054 -1.983 -1.996 -1.986 -1.927 -2.074 -2.056 -2.039 -2.039 -1.958 -2.003 -1.998 -2.004 -1.971 -2.01 -1.989 -2.068 -1.983 -1.937 -1.962 -1.962 -2 -1.971 -2.02 -1.989 -1.978 -1.968 -2.052 -1.985 -1.964 -2.007 -2.002 -1.989 -2.07 -2.037 -1.963 -1.95 -1.994 -2.098 -2.05 -2.022 -2.08 -2.006 -1.907 -2.026 -1.941 -1.989 -2.025 -2.067 -2.016 -1.984 -1.992 -1.951 -1.93 -2.043 -2.072 -2.036 -2.037 -2.002 -2.022 -1.997 -2.042 -1.998 -2.009 -2.066 -2.038 -2.023 -1.968 -1.952 -2.04 -1.994 -1.969 -2.059 -2.035 -2.015 -2.087 -2.059 -2.003 -1.99 -2.105 -1.981 -1.979 -2.081 -2.035 -2.01 -2 -2.028 -2.036 -1.964 -1.983 -1.976 -1.992 -2.136 -2.045 -2.012 -2.046 -2.137 -1.942 -1.954 -2.04 -1.959 -1.971 -1.951 -1.932 -1.982 -2.057 -2.145 -2.114 -2.145 -1.988 -1.909 -9999 -1.962 -9999 -9999 -1.986 -2.043 -9999 -1.956 -9999 -9999 -9999 -9999 -9999 -9999 -9999 -9999 -9999 -9999 -9999 -9999 -9999 -9999 -9999 -9999 -9999 -9999 -9999 -9999 -9999 -9999 -9999 -9999 -9999 -9999 -9999 -9999 -9999 -9999 -9999 -9999 -9999 -9999 -9999 -9999 -9999 -9999 -9999 -9999 -9999 -9999 -9999 -9999 -9999 -9999 -9999 -9999 -9999 -9999 -9999 -9999 -9999 -9999 -9999 -9999 -9999 -9999 -9999 -9999 -9999 -9999 -9999 -9999 -9999 -9999 -9999 -9999 -9999 -9999 -9999 -9999 -9999 -9999 -9999 -9999 -9999 -9999 -9999 -9999 -9999 -9999 -9999 -9999 -9999 -9999 -9999 -9999 -9999 -9999 -9999 -9999 -9999 -9999 -9999 -9999 -9999 -9999 -9999 -9999 -9999 -9999 -9999 -9999 -9999 -9999 -9999 -9999 -9999 -9999 -9999 -9999 -9999 -9999 -9999 -9999 -9999 -9999 -9999 -9999 -9999 -9999 -9999 -9999 -9999 -9999 -9999 -9999 -9999 -9999 -9999 -9999 -9999 -9999 -9999 -9999 -9999 -9999 -9999 -9999 -9999 -9999 -9999 -9999 -9999 -9999 -9999 -9999 -9999 -9999 -9999 -9999 -9999 -9999 -9999 -9999 -9999 -9999 -9999 -9999 -9999 -9999 -9999 -9999 -9999 -9999 -9999 -9999 -9999 -9999 -9999 -9999 -9999 -9999 -9999 -9999 -9999 -9999 -9999 -9999 -9999 -9999 -9999 -9999 -9999 -9999 -9999 -9999 -9999 -9999 -9999 -9999 -9999 -9999 -9999 -9999 -9999 -9999 -9999 -9999 -9999 -9999 -9999 -9999 -9999 -9999 -9999 -9999 -9999
-2.072 -2.055 -2.056 -2.069 -2.065 -2.054 -2.203 -2.097 -2.101 -2.095 -2.031 -2.143 -2.065 -2.063 -2.064 -2.092 -2.05 -2.102 -2.005 -2.128 -2.121 -2.06 -2.112 -2.093 -2.126 -2.057 -1.998 -2.064 -2.027 -2.071 -2.078 -2.157 -2.156 -2.136 -2.106 -2.119 -2.059 -2.026 -2.024 -2.073 -2.054 -2.032 -2.087 -2.11 -2.07 -1.967 -2.063 -2.052 -2.061 -2.095 -2.104 -2.028 -1.995 -2.106 -2.148 -2.077 -1.996 -2.071 -2.07 -2.093 -1.989 -2.074 -2.041 -2.059 -2.071 -2.068 -2.026 -2.003 -2.097 -2.143 -2.157 -1.968 -2.026 -2.041 -2.13 -2.112 -1.94 -2.038 -2.002 -2.089 -2.138 -2.113 -1.944 -2.019 -2.054 -2.019 -2.061 -1.962 -2.022 -2.049 -2.11 -2.061 -2.013 -1.921 -1.895 -1.996 -2.065 -2.153 -2.041 -1.988 -1.963 -2.09 -2.06 -2.035 -2.056 -1.99 -1.982 -1.978 -2.091 -2 -2.112 -1.957 -2.025 -1.998 -2.014 -2.019 -2.055 -2.115 -1.991 -1.933 -2.019 -2.031 -2.102 -2.089 -1.991 -2 -1.99 -2.052 -2.006 -2.041 -2.06 -1.975 -2.028 -1.951 -1.963 -2.053 -2.043 -2.029 -2.012 -1.97 -1.992 -1.991 -1.958 -2.021 -2.091 -2.045 -1.975 -1.989 -1.949 -1.881 -1.935 -2.054 -2.062 -2.056 -2.021 -2.007 -1.956 -1.974 -2.001 -2.061 -2.018 -1.978 -1.977 -1.992 -2.035 -1.995 -2.019 -2.027 -2.013 -2.023 -1.964 -1.957 -1.977 -1.966 -1.981 -1.986 -2.048 -1.987 -2.034 -1.973 -1.961 -1.993 -1.992 -2.045 -2.062 -2.026 -2.012 -2.006 -1.964 -1.956 -2.035 -2.011 -2.003 -1.996 -2.004 -1.959 -2.03 -2.044 -2.017 -1.994 -2.023 -2.06 -2.027 -2.048 -1.94 -1.994 -2.078 -1.996 -1.971 -2.096 -2.031 -1.962 -1.97 -1.953 -2.098 -1.972 -1.934 -2.088 -2.068 -2.105 -2.06 -2.075 -2.057 -2.018 -1.981 -9999 -2.052 -1.981 -2.022 -1.98 -1.949 -9999 -1.987 -9999 -2.111 -2.111 -1.946 -9999 -2.123 -2.023 -1.989 -2.094 -2.047 -9999 -1.898 -1.956 -2.019 -2.02 -1.963 -1.992 -1.942 -2.084 -1.952 -2.121 -2.046 -2.008 -9999 -2.039 -9999 -9999 -9999 -9999 -9999 -1.991 -9999 -1.968 -9999 -9999 -1.991 -9999 -9999 -2.016 -1.994 -9999 -9999 -9999 -9999 -9999 -9999 -9999 -9999 -9999 -9999 -9999 -9999 -9999 -9999 -9999 -9999 -9999 -9999 -9999 -9999 -9999 -9999 -9999 -9999 -9999 -9999 -9999 -9999 -9999 -9999 -9999 -9999 -9999 -9999 -9999 -9999 -9999 -9999 -9999 -9999 -9999 -9999 -9999 -9999 -9999 -9999 -9999 -9999 -9999 -9999 -9999 -9999 -9999 -9999 -9999 -9999 -9999 -9999 -9999 -9999 -9999 -9999 -9999 -9999 -9999 -9999 -9999 -9999 -9999 -9999 -9999 -9999 -9999 -9999 -9999 -9999 -9999 -9999 -9999 -9999 -9999 -9999 -9999 -9999 -9999 -9999 -9999 -9999 -9999 -9999 -9999 -9999 -9999 -9999 -9999 -9999 -9999 -9999 -9999 -9999 -9999 -9999 -9999 -9999 -9999 -9999 -9999 -9999 -9999 -9999 -9999 -9999 -9999 -9999 -9999 -9999 -9999 -9999 -9999 -9999 -9999 -9999 -9999 -9999 -9999 -9999 -9999 -9999 -9999 -9999 -9999 -9999 -9999 -9999 -9999 -9999 -9999 -9999 -9999 -9999 -9999 -9999 -9999 -9999 -9999 -9999 -9999 -9999 -9999 -9999 -9999 -9999 -9999 -9999 -9999 -9999 -9999 -9999 -9999 -9999 -9999 -9999 -9999 -9999 -9999 -9999 -9999 -9999 -9999 -9999 -9999 -9999 -9999 -9999 -9999 -9999 -9999 -9999 -9999 -9999 -9999 -9999 -9999 -9999 -9999 -9999 -9999 -9999 -9999 -9999 -9999 -9999 -9999 -9999 -9999 -9999 -9999 -9999 -9999 -9999
-2.007 -2.098 -2.047 -2.023 -2.054 -2.032 -2.088 -2.071 -2.073 -2.116 -2.068 -2.042 -2.108 -2.049 -2.088 -2.136 -2.152 -2.058 -2.021 -2.047 -2.113 -2.02 -2.129 -2.126 -2.149 -2.023 -2.06 -2.1 -2.069 -2.13 -2.05 -2.013 -2.021 -2.097 -2.065 -2.096 -2.048 -2.06 -2.006 -2.008 -2.078 -2.113 -2.107 -2.052 -2.101 -2.065 -2.064 -2.101 -2.044 -2.034 -2.091 -2.02 -2.067 -2.137 -2.025 -2.034 -2.095 -1.983 -2.125 -2.159 -2.006 -2.094 -9999 -2.071 -2.099 -1.994 -1.976 -1.982 -2.115 -2.13 -2.084 -1.996 -1.942 -2.055 -2.017 -2.009 -2.077 -1.979 -2.094 -2.123 -2.121 -2.071 -2.094 -1.996 -2.154 -2.157 -2.092 -1.983 -2.021 -2.053 -2.147 -2.119 -2.01 -2.063 -1.957 -2.027 -2.105 -2.004 -2 -2.024 -1.934 -2.047 -1.968 -2.052 -2.196 -2.056 -1.998 -2.022 -2.016 -2.02 -2.021 -2.038 -2.015 -2.025 -2.009 -2.005 -1.993 -2.041 -2.01 -2.018 -2.003 -1.998 -1.975 -2.045 -2.039 -1.971 -1.952 -2.039 -1.963 -2.074 -2.019 -1.99 -1.946 -2.04 -2 -2.013 -2.037 -2.057 -1.974 -2.002 -1.954 -1.987 -1.991 -1.995 -2.024 -2.047 -2.003 -1.947 -2.036 -1.991 -1.972 -2.017 -2.021 -2.029 -2.025 -2.001 -2.028 -1.931 -1.943 -2.035 -2.101 -2 -1.976 -1.993 -2.05 -1.977 -2.029 -2.007 -1.992 -2.086 -1.946 -1.943 -2.063 -1.975 -2.04 -2.045 -2.013 -1.997 -1.996 -2.058 -1.906 -1.985 -2.074 -2.009 -2.029 -2.069 -2.009 -1.998 -2.04 -2.045 -1.925 -2.015 -1.984 -1.975 -2.072 -1.984 -1.977 -2.136 -2.076 -1.98 -2.003 -2.013 -1.964 -2.027 -1.942 -1.989 -2.025 -1.996 -1.989 -2.097 -2.104 -2.012 -1.983 -1.977 -2.018 -1.862 -1.951 -2.036 -1.982 -1.998 -2.08 -2.032 -1.997 -2.039 -2.009 -2.012 -2.036 -1.991 -1.912 -2.077 -2.061 -1.98 -2.001 -1.959 -2.007 -2.034 -9999 -2.069 -2.084 -2.065 -2.046 -2.023 -1.997 -1.947 -2.045 -1.973 -2.032 -1.956 -2.016 -2.072 -2.024 -9999 -1.99 -2.071 -2.061 -2.01 -9999 -1.976 -2.007 -9999 -2.076 -9999 -9999 -2.026 -9999 -2.089 -2.037 -2.08 -1.974 -9999 -9999 -9999 -2.079 -2.074 -9999 -9999 -9999 -9999 -9999 -9999 -9999 -9999 -9999 -9999 -9999 -9999 -9999 -9999 -9999 -9999 -9999 -9999 -9999 -9999 -9999 -9999 -9999 -9999 -9999 -9999 -9999 -9999 -9999 -9999 -9999 -9999 -9999 -9999 -9999 -9999 -9999 -9999 -9999 -9999 -9999 -9999 -9999 -9999 -9999 -9999 -9999 -9999 -9999 -9999 -9999 -9999 -9999 -9999 -9999 -9999 -9999 -9999 -9999 -9999 -9999 -9999 -9999 -9999 -9999 -9999 -9999 -9999 -9999 -9999 -9999 -9999 -9999 -9999 -9999 -9999 -9999 -9999 -9999 -9999 -9999 -9999 -9999 -9999 -9999 -9999 -9999 -9999 -9999 -9999 -9999 -9999 -9999 -9999 -9999 -9999 -9999 -9999 -9999 -9999 -9999 -9999 -9999 -9999 -9999 -9999 -9999 -9999 -9999 -9999 -9999 -9999 -9999 -9999 -9999 -9999 -9999 -9999 -9999 -9999 -9999 -9999 -9999 -9999 -9999 -9999 -9999 -9999 -9999 -9999 -9999 -9999 -9999 -9999 -9999 -9999 -9999 -9999 -9999 -9999 -9999 -9999 -9999 -9999 -9999 -9999 -9999 -9999 -9999 -9999 -9999 -9999 -9999 -9999 -9999 -9999 -9999 -9999 -9999 -9999 -9999 -9999 -9999 -9999 -9999 -9999 -9999 -9999 -9999 -9999 -9999 -9999 -9999 -9999 -9999 -9999 -9999 -9999 -9999 -9999 -9999 -9999 -9999 -9999 -9999 -9999 -9999 -9999 -9999 -9999 -9999 -9999 -9999 -9999 -9999 -9999 -9999 -9999 -9999
-2.077 -2.054 -2.003 -2.055 -2.079 -1.961 -2.05 -2.057 -2.091 -2.092 -2.02 -2.019 -2.14 -2.072 -2.122 -2.152 -2.152 -2.021 -2.063 -2.105 -2.093 -2.037 -2.074 -2.045 -2.097 -2.036 -2.061 -2.056 -2.129 -2.104 -2.158 -2.074 -2.026 -2.2 -2.109 -2.03 -9999 -2.129 -2.111 -2.02 -2.096 -2.055 -2.083 -2.047 -2.03 -2.1 -2.102 -2.232 -2.032 -2.08 -2.086 -2.072 -2.084 -2.063 -2.081 -2.047 -2.006 -2.083 -2.05 -2.074 -2.06 -2.072 -2.008 -2.048 -1.996 -1.957 -2.047 -2.051 -2.168 -2.218 -1.975 -2.076 -2.073 -2.216 -2.116 -2.059 -1.988 -2.022 -2.042 -2.068 -2.058 -2.068 -2.101 -2.044 -2.162 -2.04 -2.128 -1.988 -2.039 -1.978 -2.072 -2.068 -1.977 -1.999 -1.949 -2.015 -2.07 -2.026 -1.955 -2.032 -2.016 -2.061 -2.054 -2.049 -2.065 -1.958 -2.013 -2.032 -2.097 -2.043 -2.094 -1.986 -2.015 -1.979 -2.004 -2.014 -2.045 -1.953 -2.027 -2.073 -2.016 -2.052 -1.991 -2.031 -2.042 -1.949 -2.01 -2.021 -1.956 -2.021 -2.115 -2.1 -1.966 -1.988 -2.021 -2.019 -2.005 -1.996 -1.985 -1.973 -1.989 -1.989 -2.02 -1.99 -2.007 -2.065 -1.983 -1.946 -2.034 -1.982 -1.992 -2.053 -2.053 -1.995 -1.985 -1.956 -2.016 -2.032 -2.027 -2.042 -2.055 -2.007 -1.929 -1.952 -2.004 -1.968 -2.023 -1.992 -2.003 -2.039 -1.962 -1.993 -1.973 -1.971 -1.946 -2.069 -2.008 -1.982 -2.011 -1.956 -1.972 -1.945 -2.048 -2.034 -2.004 -1.991 -2.069 -1.994 -2.037 -2.05 -2.023 -1.994 -2.017 -1.949 -2.108 -2.027 -2.002 -2.062 -2.035 -2.016 -2.037 -2.082 -1.919 -2.06 -2.012 -1.91 -2.071 -2.021 -2.044 -2.046 -2.048 -1.973 -2.044 -1.939 -1.948 -2.006 -1.953 -2.057 -1.998 -2.056 -2.127 -2.017 -1.95 -2.051 -2 -2.003 -2.025 -2.067 -1.982 -1.994 -2.04 -1.986 -1.99 -2.07 -1.931 -1.982 -1.951 -2.028 -2.054 -2.047 -2.057 -2.074 -2.098 -1.918 -1.981 -1.966 -1.99 -1.983 -2.031 -2.106 -2.011 -2.078 -2.07 -2.039 -2.057 -1.909 -9999 -1.985 -2.045 -2.063 -2.011 -2.019 -2.109 -2.018 -2.043 -1.956 -9999 -2.119 -1.931 -9999 -9999 -2.075 -1.998 -2.048 -9999 -9999 -9999 -9999 -9999 -9999 -9999 -9999 -9999 -9999 -9999 -9999 -9999 -9999 -9999 -9999 -9999 -9999 -9999 -9999 -9999 -9999 -9999 -9999 -9999 -9999 -9999 -9999 -9999 -9999 -9999 -9999 -9999 -9999 -9999 -9999 -9999 -9999 -9999 -9999 -9999 -9999 -9999 -9999 -9999 -9999 -9999 -9999 -9999 -9999 -9999 -9999 -9999 -9999 -9999 -9999 -9999 -9999 -9999 -9999 -9999 -9999 -9999 -9999 -9999 -9999 -9999 -9999 -9999 -9999 -9999 -9999 -9999 -9999 -9999 -9999 -9999 -9999 -9999 -9999 -9999 -9999 -9999 -9999 -9999 -9999 -9999 -9999 -9999 -9999 -9999 -9999 -9999 -9999 -9999 -9999 -9999 -9999 -9999 -9999 -9999 -9999 -9999 -9999 -9999 -9999 -9999 -9999 -9999 -9999 -9999 -9999 -9999 -9999 -9999 -9999 -9999 -9999 -9999 -9999 -9999 -9999 -9999 -9999 -9999 -9999 -9999 -9999 -9999 -9999 -9999 -9999 -9999 -9999 -9999 -9999 -9999 -9999 -9999 -9999 -9999 -9999 -9999 -9999 -9999 -9999 -9999 -9999 -9999 -9999 -9999 -9999 -9999 -9999 -9999 -9999 -9999 -9999 -9999 -9999 -9999 -9999 -9999 -9999 -9999 -9999 -9999 -9999 -9999 -9999 -9999 -9999 -9999 -9999 -9999 -9999 -9999 -9999 -9999 -9999 -9999 -9999 -9999 -9999 -9999 -9999 -9999 -9999 -9999 -9999 -9999 -9999 -9999 -9999 -9999 -9999 -9999 -9999 -9999
-2.119 -2.156 -2.042 -2.044 -2.142 -2.018 -2.109 -2.076 -2.154 -2.123 -2.045 -2.048 -2.071 -2.061 -2.09 -2.122 -2.043 -2.085 -2.154 -2.033 -2.049 -2.064 -2.057 -2.105 -2.044 -2.101 -2.109 -2.028 -2.088 -2.119 -2.101 -2.095 -2.056 -2.15 -2.05 -2.068 -2.076 -2.078 -2.108 -2.105 -2.05 -2.021 -2.074 -2.111 -2.108 -2.096 -2.132 -2.168 -2.087 -2.076 -2.081 -2.049 -2.052 -2.144 -2.103 -2.079 -2.076 -2.072 -2.071 -2.052 -2.012 -2.066 -2.123 -2.078 -2.139 -2.015 -2.07 -2.099 -2.07 -2.12 -2.11 -2.04 -2.043 -2.076 -2.081 -2.075 -1.928 -2.09 -2.108 -2.107 -2.061 -2.053 -2.016 -1.994 -2.111 -2.045 -2.066 -2.031 -1.997 -2.048 -2.032 -2.054 -2.008 -1.961 -1.996 -2.021 -2.115 -2.092 -1.957 -1.977 -1.999 -2.065 -2.018 -1.968 -2.077 -2.043 -1.954 -1.932 -2.019 -2.064 -1.997 -1.968 -1.96 -2.056 -2.004 -2.124 -2.106 -1.987 -1.976 -2.045 -2.031 -2.057 -2.081 -1.994 -2.034 -2.051 -1.937 -2.071 -1.955 -2.025 -2.053 -1.985 -1.969 -1.956 -2.069 -2.045 -2.02 -2.004 -1.989 -1.948 -2.033 -2.01 -2.023 -1.999 -2.082 -2.082 -2.007 -2.051 -1.992 -2.046 -1.999 -2.062 -2.069 -2.083 -2.035 -1.926 -2.036 -2.022 -1.977 -2.044 -1.994 -2.004 -1.984 -1.945 -1.967 -2.017 -2.017 -2.041 -2.046 -2.047 -2.041 -1.976 -1.929 -2.015 -1.955 -1.999 -2.06 -1.977 -1.944 -1.959 -2.006 -1.925 -1.99 -2.059 -2.035 -2.025 -2.032 -2.025 -2.004 -2.019 -2.009 -2.028 -1.991 -1.982 -2.018 -1.946 -1.998 -2.062 -1.975 -2.025 -2.052 -2.011 -1.962 -2.004 -2.008 -1.936 -1.998 -2.013 -2.099 -2.042 -2.006 -1.974 -2.003 -1.963 -2.004 -2.002 -1.954 -2.038 -2.054 -1.986 -2.146 -1.988 -2.011 -1.944 -2.017 -1.985 -2.051 -2.073 -2.05 -1.968 -2.095 -2.017 -2.086 -1.954 -2.017 -1.994 -2.018 -9999 -9999 -2.101 -2.06 -2.062 -2.005 -1.963 -1.944 -9999 -1.935 -9999 -2.066 -9999 -9999 -2.084 -2.162 -2.022 -2.071 -2.007 -9999 -9999 -2.05 -2.009 -2.014 -2.038 -2.114 -2.009 -2.057 -2.008 -2 -2.044 -1.988 -2.033 -9999 -2.17 -2.125 -2.026 -2.062 -2.061 -9999 -9999 -9999 -9999 -9999 -9999 -9999 -9999 -9999 -9999 -9999 -9999 -9999 -9999 -9999 -9999 -9999 -9999 -9999 -9999 -9999 -9999 -9999 -9999 -9999 -9999 -9999 -9999 -9999 -9999 -9999 -9999 -9999 -9999 -9999 -9999 -9999 -9999 -9999 -9999 -9999 -9999 -9999 -9999 -9999 -9999 -9999 -9999 -9999 -9999 -9999 -9999 -9999 -9999 -9999 -9999 -9999 -9999 -9999 -9999 -9999 -9999 -9999 -9999 -9999 -9999 -9999 -9999 -9999 -9999 -9999 -9999 -9999 -9999 -9999 -9999 -9999 -9999 -9999 -9999 -9999 -9999 -9999 -9999 -9999 -9999 -9999 -9999 -9999 -9999 -9999 -9999 -9999 -9999 -9999 -9999 -9999 -9999 -9999 -9999 -9999 -9999 -9999 -9999 -9999 -9999 -9999 -9999 -9999 -9999 -9999 -9999 -9999 -9999 -9999 -9999 -9999 -9999 -9999 -9999 -9999 -9999 -9999 -9999 -9999 -9999 -9999 -9999 -9999 -9999 -9999 -9999 -9999 -9999 -9999 -9999 -9999 -9999 -9999 -9999 -9999 -9999 -9999 -9999 -9999 -9999 -9999 -9999 -9999 -9999 -9999 -9999 -9999 -9999 -9999 -9999 -9999 -9999 -9999 -9999 -9999 -9999 -9999 -9999 -9999 -9999 -9999 -9999 -9999 -9999 -9999 -9999 -9999 -9999 -9999 -9999 -9999 -9999 -9999 -9999 -9999 -9999 -9999 -9999 -9999 -9999 -9999 -9999 -9999 -9999 -9999 -9999 -9999 -9999 -9999 -9999 -9999
-2.083 -2.122 -2.06 -2.033 -2.063 -2.024 -2.12 -2.063 -2 -2.083 -2.067 -2.024 -2.024 -2.049 -2.091 -2.059 -2.064 -2.095 -2.216 -2.124 -2.05 -2.11 -2.075 -2.069 -2.117 -2.056 -2.033 -2.078 -2.065 -2.08 -2.01 -2.087 -2.102 -2.021 -2.092 -2.083 -2.036 -2.138 -2.047 -2.09 -2.05 -2.022 -2.134 -2.079 -2.196 -2.09 -2.063 -2.021 -2.081 -2.038 -2.039 -2.059 -2.051 -2.115 -2.148 -2.018 -2.083 -2.06 -2.097 -2.089 -2.014 -2.02 -2.038 -2.128 -2.066 -2.004 -2.001 -2.035 -2.044 -2.097 -2.037 -2.042 -2.028 -2.078 -2.043 -2.093 -2.036 -2.069 -2.117 -2.074 -2.009 -2.042 -2.058 -1.987 -2.11 -2.065 -2.102 -2.034 -2.083 -2.053 -2.058 -2.089 -2.061 -1.95 -2.025 -1.997 -2.128 -2.079 -2.021 -1.954 -1.932 -2.054 -1.945 -2.059 -2.04 -2.014 -2.033 -1.998 -2.023 -2.029 -2.04 -1.955 -1.994 -2.031 -2.053 -2.07 -2.092 -1.979 -1.968 -1.987 -2.102 -2.07 -1.978 -2.053 -2.024 -2.058 -1.932 -2.026 -1.977 -1.974 -2.027 -2.044 -1.959 -1.972 -2.022 -1.995 -2.118 -1.956 -1.951 -1.959 -2.013 -2.03 -1.983 -1.972 -2.051 -2.077 -2.029 -1.994 -2.023 -1.983 -1.998 -1.977 -1.993 -1.996 -2.032 -2.033 -2.015 -1.975 -2.018 -2.019 -2.051 -2.003 -1.988 -2.012 -1.979 -1.995 -2.006 -2.05 -2.076 -2.014 -2.001 -2.062 -1.956 -2.038 -1.984 -2.006 -2.089 -2.031 -2.004 -1.978 -1.983 -1.961 -2.029 -1.971 -2.043 -2.02 -1.983 -2.011 -2.045 -2.037 -1.977 -1.935 -2.001 -1.969 -2.067 -2.007 -1.943 -2.008 -1.992 -1.969 -2.114 -2.039 -2.069 -2.034 -2.019 -1.913 -1.949 -2.029 -2.076 -2.085 -2.01 -1.985 -1.997 -1.941 -2.009 -2.001 -1.955 -2.075 -2.166 -2.005 -2.011 -1.988 -1.946 -1.913 -2.087 -2.052 -1.971 -2.04 -2.01 -2.028 -1.972 -1.97 -2.007 -1.992 -1.999 -1.921 -2.07 -9999 -9999 -2.078 -2.191 -1.958 -2.005 -1.941 -1.988 -9999 -2.053 -9999 -2.016 -9999 -9999 -2.136 -2.122 -2.014 -2.131 -1.947 -1.923 -1.954 -2.016 -9999 -9999 -9999 -2.095 -2.054 -2.086 -2.024 -2.016 -2.001 -1.91 -1.945 -2.116 -2.035 -2.113 -2.02 -9999 -9999 -9999 -9999 -9999 -9999 -9999 -9999 -9999 -9999 -9999 -9999 -9999 -9999 -9999 -9999 -9999 -9999 -9999 -9999 -9999 -9999 -9999 -9999 -9999 -9999 -9999 -9999 -9999 -9999 -9999 -9999 -9999 -9999 -9999 -9999 -9999 -9999 -9999 -9999 -9999 -9999 -9999 -9999 -9999 -9999 -9999 -9999 -9999 -9999 -9999 -9999 -9999 -9999 -9999 -9999 -9999 -9999 -9999 -9999 -9999 -9999 -9999 -9999 -9999 -9999 -9999 -9999 -9999 -9999 -9999 -9999 -9999 -9999 -9999 -9999 -9999 -9999 -9999 -9999 -9999 -9999 -9999 -9999 -9999 -9999 -9999 -9999 -9999 -9999 -9999 -9999 -9999 -9999 -9999 -9999 -9999 -9999 -9999 -9999 -9999 -9999 -9999 -9999 -9999 -9999 -9999 -9999 -9999 -9999 -9999 -9999 -9999 -9999 -9999 -9999 -9999 -9999 -9999 -9999 -9999 -9999 -9999 -9999 -9999 -9999 -9999 -9999 -9999 -9999 -9999 -9999 -9999 -9999 -9999 -9999 -9999 -9999 -9999 -9999 -9999 -9999 -9999 -9999 -9999 -9999 -9999 -9999 -9999 -9999 -9999 -9999 -9999 -9999 -9999 -9999 -9999 -9999 -9999 -9999 -9999 -9999 -9999 -9999 -9999 -9999 -9999 -9999 -9999 -9999 -9999 -9999 -9999 -9999 -9999 -9999 -9999 -9999 -9999 -9999 -9999 -9999 -9999 -9999 -9999 -9999 -9999 -9999 -9999 -9999 -9999 -9999 -9999 -9999 -9999 -9999 -9999 -9999 -9999
-2.055 -2.137 -2.077 -2.019 -2.042 -2.038 -2.111 -2.08 -2.079 -2.099 -2.1 -2.006 -2.092 -2.044 -2.057 -2.116 -2.068 -2.075 -2.171 -2.085 -2.085 -2.139 -2.132 -2.02 -2.088 -2.033 -2.019 -2.104 -2.113 -2.081 -2.045 -2.087 -2.048 -2.07 -2.06 -2.107 -2.06 -2.092 -2.079 -2.018 -2.116 -2.103 -2.04 -2.064 -9999 -2.161 -2.035 -2.039 -2.075 -2.062 -2.002 -2.093 -2.074 -2.054 -2.101 -2.066 -2.055 -2.074 -2.013 -2.132 -1.998 -2.014 -2.042 -2.039 -2.067 -2.055 -1.983 -2.104 -2.116 -2.039 -2.021 -2.106 -2.082 -9999 -2.014 -2.119 -1.993 -2.062 -9999 -2.133 -2.043 -2.026 -1.967 -2.029 -2.152 -2.087 -2.056 -2.04 -2.079 -2.086 -1.988 -2.064 -2.031 -1.98 -1.96 -2.059 -2.117 -2.036 -2.098 -1.978 -1.987 -1.999 -2.135 -2.053 -1.976 -1.963 -2.017 -2.089 -1.976 -2.037 -2.048 -2.085 -2.046 -2.073 -2.059 -2.032 -2.043 -2.005 -2.033 -2.021 -1.96 -2.015 -2.002 -2.01 -2.007 -2.021 -1.974 -2.045 -1.935 -2.017 -2.023 -2.049 -2.038 -1.97 -2.014 -2.042 -2.032 -2.049 -2.047 -1.966 -2.066 -2.057 -2.05 -1.961 -2.049 -2.036 -2.048 -2.065 -2.043 -1.97 -1.972 -1.996 -1.999 -1.989 -2.014 -1.996 -2.001 -1.977 -2.001 -2.032 -2.007 -2.007 -1.992 -1.994 -1.984 -1.968 -2.042 -1.998 -2.04 -2.026 -1.97 -2.015 -1.986 -1.967 -1.961 -2.02 -2.006 -2.031 -1.983 -1.923 -2.02 -1.943 -1.991 -1.993 -2.058 -2.072 -2.002 -1.995 -2.058 -2.016 -1.977 -2.03 -1.973 -1.951 -2.039 -2.022 -1.926 -1.944 -2.075 -1.972 -1.934 -1.998 -1.992 -2.008 -2.065 -1.921 -1.97 -1.994 -2.067 -2.095 -1.994 -2.008 -2.005 -1.98 -1.966 -1.978 -2.001 -2.068 -2.061 -2.021 -1.974 -2.04 -1.977 -9999 -2.023 -2.028 -9999 -2.035 -1.975 -2.023 -1.993 -1.975 -2.028 -2.015 -1.981 -1.982 -1.989 -2.037 -1.993 -2.012 -2.094 -2.047 -1.959 -2.026 -2.097 -1.996 -2.032 -2.041 -2.061 -1.974 -9999 -2.041 -2.047 -2.064 -2.02 -1.955 -9999 -1.906 -9999 -9999 -9999 -9999 -2.062 -2.108 -2.017 -2 -2.038 -1.899 -2.068 -9999 -2.049 -2.009 -2.118 -2.009 -2.054 -2.084 -9999 -2.016 -9999 -9999 -9999 -9999 -9999 -9999 -9999 -9999 -9999 -9999 -9999 -9999 -9999 -9999 -9999 -9999 -9999 -9999 -9999 -9999 -9999 -9999 -9999 -9999 -9999 -9999 -9999 -9999 -9999 -9999 -9999 -9999 -9999 -9999 -9999 -9999 -9999 -9999 -9999 -9999 -9999 -9999 -9999 -9999 -9999 -9999 -9999 -9999 -9999 -9999 -9999 -9999 -9999 -9999 -9999 -9999 -9999 -9999 -9999 -9999 -9999 -9999 -9999 -9999 -9999 -9999 -9999 -9999 -9999 -9999 -9999 -9999 -9999 -9999 -9999 -9999 -9999 -9999 -9999 -9999 -9999 -9999 -9999 -9999 -9999 -9999 -9999 -9999 -9999 -9999 -9999 -9999 -9999 -9999 -9999 -9999 -9999 -9999 -9999 -9999 -9999 -9999 -9999 -9999 -9999 -9999 -9999 -9999 -9999 -9999 -9999 -9999 -9999 -9999 -9999 -9999 -9999 -9999 -9999 -9999 -9999 -9999 -9999 -9999 -9999 -9999 -9999 -9999 -9999 -9999 -9999 -9999 -9999 -9999 -9999 -9999 -9999 -9999 -9999 -9999 -9999 -9999 -9999 -9999 -9999 -9999 -9999 -9999 -9999 -9999 -9999 -9999 -9999 -9999 -9999 -9999 -9999 -9999 -9999 -9999 -9999 -9999 -9999 -9999 -9999 -9999 -9999 -9999 -9999 -9999 -9999 -9999 -9999 -9999 -9999 -9999 -9999 -9999 -9999 -9999 -9999 -9999 -9999 -9999 -9999 -9999 -9999 -9999 -9999 -9999 -9999 -9999 -9999 -9999 -9999
-2.024 -2.125 -2.105 -2.021 -2.027 -2.051 -2.062 -2.055 -2.083 -2.081 -2.094 -2.11 -2.105 -2.065 -2.049 -2.099 -2.091 -2.032 -2.083 -2.025 -2.127 -2.102 -2.14 -2.064 -2.114 -2.137 -2.035 -2.023 -2.076 -2.058 -2.075 -2.063 -2.083 -2.063 -2.084 -2.154 -2.057 -2.109 -2.135 -2.06 -2.078 -2.098 -1.976 -2.07 -9999 -2.151 -2.015 -2.128 -2.06 -2.106 -2.1 -2.126 -2.13 -9999 -2.057 -2.12 -2.123 -2.038 -1.992 -2.036 -2.047 -2.049 -2.037 -1.997 -2.01 -2.028 -2.096 -2.1 -2.076 -2.162 -2.101 -2.105 -2.052 -2.103 -9999 -2.051 -2.001 -2.053 -2.084 -2.014 -2.152 -2.041 -2.007 -2.059 -2.079 -2.069 -2.129 -2.071 -2.15 -2.098 -2.024 -2.023 -1.976 -2.042 -2.009 -1.997 -2.047 -2.126 -2.014 -2.05 -2.022 -2.06 -2.064 -2.016 -2.076 -9999 -2.054 -2.013 -1.959 -2.038 -1.997 -2.032 -1.981 -2.098 -2.015 -2.029 -2.079 -2.019 -2.099 -2.046 -1.993 -2.043 -1.989 -2.083 -1.998 -1.983 -2.018 -2.01 -1.996 -2.015 -1.972 -2.044 -2.008 -1.999 -2.002 -2.071 -1.966 -2.002 -2.012 -2.001 -1.981 -2.027 -2.024 -1.973 -1.93 -2.009 -1.995 -2.079 -1.988 -2.049 -2.01 -2.052 -1.97 -2.097 -2.037 -1.964 -2.01 -1.97 -1.975 -2.042 -2.001 -1.966 -2.014 -1.95 -1.957 -1.967 -2.052 -2.037 -2.068 -1.971 -1.906 -2.06 -1.98 -2.035 -2.002 -1.998 -1.969 -2.01 -2.015 -1.95 -1.937 -1.984 -1.967 -1.968 -1.984 -2.052 -2.051 -2.024 -1.99 -2.002 -2.034 -2.042 -1.997 -1.977 -2.007 -2.02 -1.961 -2.048 -2.034 -2.103 -1.966 -2.038 -2.02 -1.978 -1.973 -1.972 -1.956 -2.026 -2.002 -2.102 -2.061 -2.035 -2.051 -1.971 -1.926 -1.959 -1.968 -1.989 -2.07 -1.969 -1.92 -1.942 -1.978 -9999 -2.011 -2.082 -2.022 -1.947 -2.05 -1.97 -2.054 -2.034 -2.016 -1.966 -2.044 -1.987 -2.034 -2.036 -2.046 -2.036 -2.104 -1.98 -1.955 -1.968 -2.024 -1.993 -2.019 -1.975 -2.047 -2.056 -9999 -2.022 -2.086 -2.045 -1.968 -1.912 -1.97 -1.947 -9999 -1.991 -2.014 -1.99 -2.004 -2.141 -2.078 -1.998 -2.01 -1.922 -2.008 -2.043 -2.069 -9999 -2.081 -2.06 -2.029 -2.066 -2.039 -2.103 -2.175 -9999 -9999 -9999 -9999 -9999 -9999 -9999 -9999 -9999 -9999 -9999 -9999 -9999 -9999 -9999 -9999 -9999 -9999 -9999 -9999 -9999 -9999 -9999 -9999 -9999 -9999 -9999 -9999 -9999 -9999 -9999 -9999 -9999 -9999 -9999 -9999 -9999 -9999 -9999 -9999 -9999 -9999 -9999 -9999 -9999 -9999 -9999 -9999 -9999 -9999 -9999 -9999 -9999 -9999 -9999 -9999 -9999 -9999 -9999 -9999 -9999 -9999 -9999 -9999 -9999 -9999 -9999 -9999 -9999 -9999 -9999 -9999 -9999 -9999 -9999 -9999 -9999 -9999 -9999 -9999 -9999 -9999 -9999 -9999 -9999 -9999 -9999 -9999 -9999 -9999 -9999 -9999 -9999 -9999 -9999 -9999 -9999 -9999 -9999 -9999 -9999 -9999 -9999 -9999 -9999 -9999 -9999 -9999 -9999 -9999 -9999 -9999 -9999 -9999 -9999 -9999 -9999 -9999 -9999 -9999 -9999 -9999 -9999 -9999 -9999 -9999 -9999 -9999 -9999 -9999 -9999 -9999 -9999 -9999 -9999 -9999 -9999 -9999 -9999 -9999 -9999 -9999 -9999 -9999 -9999 -9999 -9999 -9999 -9999 -9999 -9999 -9999 -9999 -9999 -9999 -9999 -9999 -9999 -9999 -9999 -9999 -9999 -9999 -9999 -9999 -9999 -9999 -9999 -9999 -9999 -9999 -9999 -9999 -9999 -9999 -9999 -9999 -9999 -9999 -9999 -9999 -9999 -9999 -9999 -9999 -9999 -9999 -9999 -9999 -9999 -9999 -9999 -9999 -9999
-2.037 -2.13 -2.117 -2.051 -2.03 -2.046 -2.093 -2.021 -2.096 -2.105 -2.052 -2.064 -2.041 -2.083 -2.111 -2.059 -2.092 -2.095 -2.056 -2.115 -2.007 -2.057 -2.151 -2.062 -2.106 -2.099 -1.997 -2.097 -2.095 -2.06 -2.025 -2.134 -2.121 -2.014 -2.115 -2.028 -2.108 -2.118 -2.15 -2.018 -2.119 -2.037 -2.175 -2.085 -2.085 -2.042 -2.033 -2.135 -2.213 -2.031 -2.043 -2.082 -2.05 -2.247 -2.032 -1.945 -2.022 -2.063 -2.057 -2.057 -2.055 -2.047 -2.051 -2.056 -2.107 -2.072 -2.101 -2.057 -2.09 -2.042 -2.078 -2.032 -2.14 -2.038 -2.111 -2.044 -2.044 -2.109 -2.068 -2.009 -2.081 -2.063 -2.053 -2.068 -2.049 -2.026 -2.046 -2.086 -2.003 -2.132 -2.095 -2.108 -2.082 -2.1 -2.039 -2.046 -2.019 -2.204 -2.06 -2.067 -1.959 -1.951 -2.04 -1.985 -2.095 -2.05 -2.006 -2.001 -2.007 -2.043 -1.985 -2.031 -1.971 -2.013 -2.046 -1.984 -2.002 -2.043 -2.036 -2.029 -2.049 -1.978 -2.044 -2.056 -1.981 -2.052 -2.052 -1.997 -2.022 -1.972 -1.98 -1.955 -2.029 -1.946 -2.044 -2.043 -2.037 -2.004 -2.012 -2.001 -1.976 -1.948 -2.029 -2.028 -2.007 -2.037 -2.077 -1.994 -2.004 -2.021 -1.962 -2.053 -1.98 -2.016 -2.01 -2 -2.004 -1.965 -1.971 -2.046 -2.003 -1.989 -1.984 -2.018 -1.979 -1.974 -1.954 -1.998 -2.079 -2.06 -2.016 -2.081 -1.994 -2.031 -2.08 -2.016 -1.975 -2.001 -1.985 -1.967 -1.966 -1.932 -2.034 -1.926 -1.925 -1.996 -2.032 -1.974 -2.043 -2.022 -2.033 -2.004 -1.978 -2.077 -1.96 -2.044 -1.968 -1.97 -2.015 -2.048 -1.922 -1.962 -2.069 -1.974 -2.042 -1.986 -1.974 -2.011 -1.976 -2.021 -2.141 -2.003 -2.043 -2.066 -1.977 -1.975 -1.971 -2.003 -2.025 -2.021 -1.952 -2.056 -2.091 -1.959 -9999 -2.089 -2.189 -2.002 -2.069 -1.971 -2.001 -1.967 -2.005 -1.976 -1.957 -1.986 -9999 -2.022 -1.98 -2.027 -2.047 -1.962 -2.044 -2.014 -1.987 -1.992 -1.972 -1.97 -2.065 -1.939 -2.011 -2.085 -2.112 -2.058 -2.007 -1.971 -1.929 -2.066 -1.909 -2.036 -9999 -9999 -1.986 -2.306 -2.116 -1.982 -2.106 -1.972 -9999 -1.915 -1.971 -9999 -2.038 -1.994 -9999 -9999 -9999 -1.967 -9999 -2.083 -9999 -9999 -9999 -9999 -9999 -9999 -9999 -9999 -9999 -9999 -9999 -9999 -9999 -9999 -9999 -9999 -9999 -9999 -9999 -9999 -9999 -9999 -9999 -9999 -9999 -9999 -9999 -9999 -9999 -9999 -9999 -9999 -9999 -9999 -9999 -9999 -9999 -9999 -9999 -9999 -9999 -9999 -9999 -9999 -9999 -9999 -9999 -9999 -9999 -9999 -9999 -9999 -9999 -9999 -9999 -9999 -9999 -9999 -9999 -9999 -9999 -9999 -9999 -9999 -9999 -9999 -9999 -9999 -9999 -9999 -9999 -9999 -9999 -9999 -9999 -9999 -9999 -9999 -9999 -9999 -9999 -9999 -9999 -9999 -9999 -9999 -9999 -9999 -9999 -9999 -9999 -9999 -9999 -9999 -9999 -9999 -9999 -9999 -9999 -9999 -9999 -9999 -9999 -9999 -9999 -9999 -9999 -9999 -9999 -9999 -9999 -9999 -9999 -9999 -9999 -9999 -9999 -9999 -9999 -9999 -9999 -9999 -9999 -9999 -9999 -9999 -9999 -9999 -9999 -9999 -9999 -9999 -9999 -9999 -9999 -9999 -9999 -9999 -9999 -9999 -9999 -9999 -9999 -9999 -9999 -9999 -9999 -9999 -9999 -9999 -9999 -9999 -9999 -9999 -9999 -9999 -9999 -9999 -9999 -9999 -9999 -9999 -9999 -9999 -9999 -9999 -9999 -9999 -9999 -9999 -9999 -9999 -9999 -9999 -9999 -9999 -9999 -9999 -9999 -9999 -9999 -9999 -9999 -9999 -9999 -9999 -9999 -9999 -9999 -9999 -9999 -9999 -9999
-2.056 -2.095 -2.044 -2.067 -1.995 -2.084 -2.069 -2.025 -2.087 -2.11 -2.051 -2.047 -2.09 -2.14 -2.075 -2.073 -2.16 -2.113 -2.078 -2.087 -2.055 -2.07 -2.093 -2.107 -2.127 -2.109 -2.022 -2.076 -2.121 -2.049 -2.013 -2.064 -2.079 -2.057 -2.101 -2.036 -2.123 -2.142 -2.134 -2.087 -2.044 -2.064 -2.051 -2.069 -2.073 -2.09 -2.059 -2.092 -2.045 -2.057 -2.034 -2.068 -2.014 -2.044 -2.054 -2.064 -2.104 -2.109 -2.098 -2.038 -2.044 -2.023 -2.039 -1.981 -2.096 -2.086 -2.053 -2.103 -2.062 -1.999 -2.043 -2.066 -2.068 -2.027 -2.026 -2.044 -2.085 -2.048 -2.049 -2.162 -2.035 -2.029 -2.109 -2.018 -2.025 -1.987 -2.083 -2.157 -2.074 -2.075 -2.115 -2.105 -2.077 -2.08 -2.048 -1.98 -2.111 -2.06 -2.115 -2.015 -2.034 -1.964 -2.024 -1.942 -2.016 -9999 -2.089 -2.012 -1.972 -1.952 -2.035 -2.078 -2.108 -1.947 -1.981 -2.066 -1.97 -2.065 -1.982 -2.001 -2.027 -1.994 -2.017 -2.014 -1.983 -2.052 -2.026 -1.925 -1.986 -1.976 -2.056 -1.991 -1.991 -2.014 -2.042 -2.091 -2.076 -2.026 -2.084 -2.019 -2.029 -1.935 -2.012 -1.971 -2.021 -2.055 -2.176 -2.088 -1.989 -1.996 -1.972 -2.016 -2.029 -2.085 -2.016 -1.98 -2.039 -1.965 -2.027 -2.036 -2.056 -2.037 -2.027 -1.991 -2.006 -2.021 -2.065 -2.036 -2.082 -2.007 -2.026 -2.033 -2.014 -2.001 -1.979 -1.954 -1.986 -2.028 -1.986 -1.977 -1.965 -1.986 -1.962 -2.004 -2.025 -2.011 -2.045 -1.97 -2.057 -2.059 -2.049 -1.99 -1.963 -2.009 -2.055 -2.006 -1.961 -2.022 -2.073 -2.079 -2.013 -1.967 -1.966 -1.994 -2.034 -2.087 -1.988 -2.049 -1.986 -1.99 -2.034 -1.996 -2.039 -2.017 -2.004 -2.003 -2.021 -1.94 -2.006 -2.055 -1.963 -2.105 -2.048 -1.982 -2.032 -2.033 -1.97 -2.031 -2.117 -2.008 -1.965 -1.941 -1.999 -1.975 -2.01 -1.859 -9999 -2.015 -2.023 -2.051 -2.078 -2.082 -2.036 -1.949 -2.01 -2.041 -2.021 -2.065 -2.032 -2.045 -2.006 -2.138 -1.993 -2.081 -9999 -2.003 -1.896 -2.078 -1.979 -9999 -1.924 -2.072 -2.05 -9999 -9999 -2.032 -2.036 -2.118 -1.927 -9999 -9999 -9999 -2.161 -2.064 -2.1 -2.094 -2.037 -2.038 -9999 -9999 -2.062 -9999 -9999 -9999 -9999 -9999 -9999 -9999 -9999 -9999 -9999 -9999 -9999 -9999 -9999 -9999 -9999 -9999 -9999 -9999 -9999 -9999 -9999 -9999 -9999 -9999 -9999 -9999 -9999 -9999 -9999 -9999 -9999 -9999 -9999 -9999 -9999 -9999 -9999 -9999 -9999 -9999 -9999 -9999 -9999 -9999 -9999 -9999 -9999 -9999 -9999 -9999 -9999 -9999 -9999 -9999 -9999 -9999 -9999 -9999 -9999 -9999 -9999 -9999 -9999 -9999 -9999 -9999 -9999 -9999 -9999 -9999 -9999 -9999 -9999 -9999 -9999 -9999 -9999 -9999 -9999 -9999 -9999 -9999 -9999 -9999 -9999 -9999 -9999 -9999 -9999 -9999 -9999 -9999 -9999 -9999 -9999 -9999 -9999 -9999 -9999 -9999 -9999 -9999 -9999 -9999 -9999 -9999 -9999 -9999 -9999 -9999 -9999 -9999 -9999 -9999 -9999 -9999 -9999 -9999 -9999 -9999 -9999 -9999 -9999 -9999 -9999 -9999 -9999 -9999 -9999 -9999 -9999 -9999 -9999 -9999 -9999 -9999 -9999 -9999 -9999 -9999 -9999 -9999 -9999 -9999 -9999 -9999 -9999 -9999 -9999 -9999 -9999 -9999 -9999 -9999 -9999 -9999 -9999 -9999 -9999 -9999 -9999 -9999 -9999 -9999 -9999 -9999 -9999 -9999 -9999 -9999 -9999 -9999 -9999 -9999 -9999 -9999 -9999 -9999 -9999 -9999 -9999 -9999 -9999 -9999 -9999 -9999 -9999 -9999 -9999 -9999 -9999
-2.013 -2.137 -2.035 -2.058 -2.034 -2.088 -2.043 -1.976 -2.077 -2.066 -2.055 -2.055 -2.012 -2.073 -2.099 -2.044 -2.026 -2.104 -1.99 -2.048 -2.067 -2.088 -2.135 -2.067 -2.18 -2.154 -2.084 -2.066 -2.092 -2.121 -2.059 -2.018 -2.053 -2.142 -2.135 -2.063 -2.013 -2.099 -2.135 -2.046 -1.989 -2.034 -2.086 -2.076 -2.055 -2.116 -2.031 -2.102 -2.077 -2.043 -2.164 -2.162 -2.044 -2.094 -2.112 -2.019 -2.097 -2.088 -2.137 -2.141 -2.034 -2.037 -2.034 -1.995 -9999 -2.172 -2.031 -2.066 -2.093 -2.006 -2.007 -2.087 -2.086 -2.086 -2.117 -2.048 -2.141 -2.095 -2.037 -2.082 -2.038 -2.088 -2.091 -2.022 -2.029 -2.149 -2.073 -2.082 -2.13 -2 -2.025 -2.057 -2.054 -2.002 -2.072 -2.01 -2.03 -2.01 -2.184 -2.069 -1.999 -1.921 -2.043 -1.955 -2.04 -2.062 -2.153 -2.084 -1.954 -1.96 -2.086 -2.023 -2.053 -1.993 -1.967 -2.031 -2.013 -2.009 -1.975 -2.021 -2.014 -1.997 -2.014 -2.04 -2.103 -2.037 -2.001 -1.977 -1.944 -1.959 -2.07 -2.036 -2.022 -2.005 -1.977 -1.956 -1.953 -2.051 -2.044 -2.028 -2.007 -1.974 -1.928 -1.965 -1.99 -1.966 -2.066 -2.032 -2.021 -1.965 -2.012 -1.996 -2.058 -2.016 -2.038 -2.08 -2.076 -2.004 -2.076 -2.037 -2.025 -1.969 -2.006 -2.064 -2.052 -1.961 -2.022 -1.951 -2.029 -2.032 -2.004 -1.995 -1.985 -1.978 -1.951 -1.986 -1.976 -2.008 -2.007 -2.012 -1.962 -1.905 -1.99 -2.022 -1.999 -1.989 -2.001 -2.019 -2.04 -2.034 -2.119 -2.026 -2.033 -2.022 -1.971 -2.035 -1.97 -2.005 -1.988 -1.963 -2.075 -1.951 -1.973 -1.958 -1.976 -2.014 -1.962 -2.052 -2.02 -1.931 -2.012 -1.941 -1.923 -1.986 -2.037 -2.036 -2.037 -1.995 -2.061 -2.025 -1.986 -2.098 -2.053 -1.996 -2.067 -2.011 -1.956 -2.039 -2.174 -2.008 -1.956 -2.118 -2.017 -2.004 -2.01 -2.046 -1.906 -2.042 -1.976 -1.99 -2.082 -2.014 -1.981 -9999 -9999 -2.078 -2.018 -2.022 -2.005 -2.013 -1.98 -2.098 -1.906 -1.945 -2.014 -1.997 -1.952 -2.041 -2.093 -1.955 -1.934 -2.015 -2.014 -1.936 -9999 -1.982 -9999 -9999 -1.973 -2.052 -2.228 -2.087 -2.16 -2.111 -2.141 -1.995 -9999 -2.006 -9999 -9999 -2.199 -9999 -9999 -9999 -9999 -9999 -9999 -9999 -9999 -9999 -9999 -9999 -9999 -9999 -9999 -9999 -9999 -9999 -9999 -9999 -9999 -9999 -9999 -9999 -9999 -9999 -9999 -9999 -9999 -9999 -9999 -9999 -9999 -9999 -9999 -9999 -9999 -9999 -9999 -9999 -9999 -9999 -9999 -9999 -9999 -9999 -9999 -9999 -9999 -9999 -9999 -9999 -9999 -9999 -9999 -9999 -9999 -9999 -9999 -9999 -9999 -9999 -9999 -9999 -9999 -9999 -9999 -9999 -9999 -9999 -9999 -9999 -9999 -9999 -9999 -9999 -9999 -9999 -9999 -9999 -9999 -9999 -9999 -9999 -9999 -9999 -9999 -9999 -9999 -9999 -9999 -9999 -9999 -9999 -9999 -9999 -9999 -9999 -9999 -9999 -9999 -9999 -9999 -9999 -9999 -9999 -9999 -9999 -9999 -9999 -9999 -9999 -9999 -9999 -9999 -9999 -9999 -9999 -9999 -9999 -9999 -9999 -9999 -9999 -9999 -9999 -9999 -9999 -9999 -9999 -9999 -9999 -9999 -9999 -9999 -9999 -9999 -9999 -9999 -9999 -9999 -9999 -9999 -9999 -9999 -9999 -9999 -9999 -9999 -9999 -9999 -9999 -9999 -9999 -9999 -9999 -9999 -9999 -9999 -9999 -9999 -9999 -9999 -9999 -9999 -9999 -9999 -9999 -9999 -9999 -9999 -9999 -9999 -9999 -9999 -9999 -9999 -9999 -9999 -9999 -9999 -9999 -9999 -9999 -9999 -9999 -9999 -9999 -9999 -9999 -9999 -9999 -9999
-2.079 -2.106 -2.048 -2.04 -2.029 -2.04 -2.073 -2.079 -2.079 -2.061 -2.072 -2.056 -2.033 -2.099 -2.059 -2.049 -2.07 -2.063 -2.032 -2.011 -2.105 -2.06 -2.097 -2.032 -2.025 -2.171 -2.037 -2.063 -2.112 -2.028 -2.063 -2.093 -2.117 -2.118 -2.136 -2.124 -2.052 -2.113 -2.171 -2.065 -2.094 -2.07 -2.097 -2.043 -2.03 -2.026 -2.039 -2.097 -2.129 -2.07 -2.049 -2.059 -2.155 -2.085 -2.041 -2.093 -2.058 -2.008 -2.157 -2.089 -2.08 -2.062 -2.034 -2.057 -2.023 -2.175 -2.052 -2.011 -2.069 -2.107 -2.065 -2.071 -2.192 -2.013 -2.064 -2.003 -2.084 -2.08 -2.052 -2.061 -2.129 -2.103 -2.057 -2.092 -2.069 -2.08 -2.122 -2.097 -2.068 -1.929 -2.042 -2.031 -2.065 -2.109 -2.067 -2.073 -1.946 -2.012 -2.122 -2.039 -2.116 -1.953 -1.988 -2.058 -2.044 -2.082 -1.969 -2.03 -2.021 -1.995 -2.113 -2.099 -2.116 -1.999 -1.968 -2.025 -2.053 -2.031 -2.074 -1.96 -1.986 -1.938 -1.951 -2.068 -2.041 -1.991 -2.066 -2.014 -1.983 -1.943 -2.069 -1.976 -1.958 -1.982 -1.985 -2.03 -1.95 -2.022 -2.072 -2.07 -1.979 -1.917 -1.976 -1.975 -1.993 -2.032 -2.06 -2.057 -1.993 -1.978 -2.036 -2.054 -2.083 -2.042 -1.999 -2.063 -2.042 -2.075 -1.969 -2.062 -2.056 -2.028 -1.975 -1.974 -1.956 -1.965 -1.989 -1.999 -2.043 -1.99 -2.019 -2.028 -2.037 -2.007 -1.943 -2.016 -1.972 -2.051 -1.976 -1.969 -2.035 -1.998 -2.025 -1.983 -2.068 -2 -1.99 -1.918 -2.017 -1.987 -2.046 -2.092 -2.015 -2.003 -2.047 -2.016 -1.956 -1.95 -2.018 -2.089 -1.959 -2.043 -2.003 -1.957 -2.094 -1.988 -1.977 -2.018 -2.124 -2.036 -2.096 -2.007 -1.996 -2.091 -2.024 -2.023 -2.063 -2.107 -1.972 -2.055 -1.954 -1.993 -2.059 -1.919 -2.046 -2.009 -2.099 -2.017 -2.076 -1.996 -1.956 -2.047 -2.017 -1.909 -1.91 -1.945 -1.945 -1.983 -1.999 -2.049 -2.104 -2.076 -2.046 -2.023 -2.049 -2.006 -2.024 -1.959 -1.963 -9999 -1.99 -2.028 -2.036 -9999 -2.049 -2 -1.971 -9999 -2.062 -2.028 -2.005 -2.051 -2.103 -1.998 -2.176 -2.053 -9999 -2.042 -2.062 -1.946 -1.973 -9999 -2.019 -2.047 -2.095 -2.059 -2.072 -2.053 -9999 -9999 -2.125 -2.063 -9999 -9999 -9999 -9999 -9999 -9999 -9999 -9999 -9999 -9999 -9999 -9999 -9999 -9999 -9999 -9999 -9999 -9999 -9999 -9999 -9999 -9999 -9999 -9999 -9999 -9999 -9999 -9999 -9999 -9999 -9999 -9999 -9999 -9999 -9999 -9999 -9999 -9999 -9999 -9999 -9999 -9999 -9999 -9999 -9999 -9999 -9999 -9999 -9999 -9999 -9999 -9999 -9999 -9999 -9999 -9999 -9999 -9999 -9999 -9999 -9999 -9999 -9999 -9999 -9999 -9999 -9999 -9999 -9999 -9999 -9999 -9999 -9999 -9999 -9999 -9999 -9999 -9999 -9999 -9999 -9999 -9999 -9999 -9999 -9999 -9999 -9999 -9999 -9999 -9999 -9999 -9999 -9999 -9999 -9999 -9999 -9999 -9999 -9999 -9999 -9999 -9999 -9999 -9999 -9999 -9999 -9999 -9999 -9999 -9999 -9999 -9999 -9999 -9999 -9999 -9999 -9999 -9999 -9999 -9999 -9999 -9999 -9999 -9999 -9999 -9999 -9999 -9999 -9999 -9999 -9999 -9999 -9999 -9999 -9999 -9999 -9999 -9999 -9999 -9999 -9999 -9999 -9999 -9999 -9999 -9999 -9999 -9999 -9999 -9999 -9999 -9999 -9999 -9999 -9999 -9999 -9999 -9999 -9999 -9999 -9999 -9999 -9999 -9999 -9999 -9999 -9999 -9999 -9999 -9999 -9999 -9999 -9999 -9999 -9999 -9999 -9999 -9999 -9999 -9999 -9999 -9999 -9999 -9999 -9999 -9999 -9999 -9999 -9999 -9999 -9999
-2.072 -2.089 -2.046 -2.031 -2.033 -2.008 -2.123 -2.033 -2.048 -2.092 -2.028 -2.05 -2.079 -2.069 -2.084 -2.034 -2.092 -2.069 -2.091 -2.043 -2.087 -2.067 -2.107 -2.092 -2.078 -2.09 -2.056 -2.03 -2.067 -2.024 -2.086 -2.078 -2.103 -2.04 -1.996 -2.128 -2.078 -2.058 -2.122 -2.049 -2.123 -2.083 -2.094 -2.076 -2.162 -2.018 -2.057 -2.103 -2.11 -2.231 -2.07 -2.076 -2.088 -2.068 -2.092 -1.996 -2.03 -2.018 -2.02 -2.09 -2.061 -2.067 -2.132 -2.086 -2.022 -2.093 -2.103 -2.032 -2.055 -2.021 -2.071 -2.012 -2.109 -2.128 -2.018 -2.031 -2.113 -2.114 -2.121 -2.042 -2.017 -2.126 -2.049 -2.027 -2.012 -1.976 -2.001 -2.041 -2.076 -2.032 -2.002 -2.025 -2.101 -2.023 -2.015 -2.001 -2.07 -2.072 -2.105 -2.042 -2.045 -2.067 -1.982 -2.084 -2.01 -1.981 -1.981 -1.983 -2.008 -2.012 -2.07 -2.077 -2.053 -2.06 -2.02 -2.022 -2.036 -2.026 -2.05 -2.056 -1.948 -1.996 -1.978 -2.011 -2.057 -2.011 -2.073 -1.951 -1.966 -2.005 -2.071 -2.101 -2.117 -1.937 -1.959 -2.012 -1.971 -1.975 -2.08 -2.053 -2.028 -1.976 -1.93 -1.968 -2.04 -2.008 -2.035 -2.082 -2.009 -1.945 -1.992 -1.988 -2.059 -2.009 -2.096 -2.029 -2.021 -2.054 -1.97 -1.968 -2.044 -2.028 -1.981 -2.069 -2.013 -1.956 -1.954 -2.039 -2.061 -2.049 -2.012 -2.011 -2.023 -1.996 -1.977 -1.97 -1.973 -2.141 -2.061 -1.939 -2.038 -1.949 -2.005 -1.928 -2.024 -2.028 -1.999 -1.98 -2.008 -2.018 -2.034 -1.974 -1.954 -2.046 -2.049 -2.027 -1.923 -1.934 -1.935 -2.016 -1.959 -2.003 -2.002 -1.99 -2.001 -1.972 -2.009 -2.085 -2.095 -2.005 -2.039 -2.003 -1.976 -1.985 -1.978 -1.929 -1.991 -2.087 -1.967 -2.055 -1.983 -2.001 -2.022 -2.024 -2.021 -2.024 -2.062 -2.107 -2.032 -2.071 -1.981 -2.044 -2.014 -1.89 -1.899 -2.009 -2.039 -2.029 -1.931 -9999 -2.093 -2.008 -1.999 -1.988 -2.018 -2.046 -1.985 -1.979 -1.929 -1.988 -2.046 -2.144 -2.072 -2.06 -2.11 -1.984 -1.978 -1.923 -1.999 -2.045 -1.99 -1.99 -2.084 -2.049 -9999 -1.964 -2 -2.027 -2.021 -9999 -2.023 -9999 -2.061 -9999 -2.106 -2.004 -1.983 -2.065 -1.964 -9999 -2.117 -2.053 -1.969 -9999 -9999 -9999 -9999 -9999 -9999 -9999 -9999 -9999 -9999 -9999 -9999 -9999 -9999 -9999 -9999 -9999 -9999 -9999 -9999 -9999 -9999 -9999 -9999 -9999 -9999 -9999 -9999 -9999 -9999 -9999 -9999 -9999 -9999 -9999 -9999 -9999 -9999 -9999 -9999 -9999 -9999 -9999 -9999 -9999 -9999 -9999 -9999 -9999 -9999 -9999 -9999 -9999 -9999 -9999 -9999 -9999 -9999 -9999 -9999 -9999 -9999 -9999 -9999 -9999 -9999 -9999 -9999 -9999 -9999 -9999 -9999 -9999 -9999 -9999 -9999 -9999 -9999 -9999 -9999 -9999 -9999 -9999 -9999 -9999 -9999 -9999 -9999 -9999 -9999 -9999 -9999 -9999 -9999 -9999 -9999 -9999 -9999 -9999 -9999 -9999 -9999 -9999 -9999 -9999 -9999 -9999 -9999 -9999 -9999 -9999 -9999 -9999 -9999 -9999 -9999 -9999 -9999 -9999 -9999 -9999 -9999 -9999 -9999 -9999 -9999 -9999 -9999 -9999 -9999 -9999 -9999 -9999 -9999 -9999 -9999 -9999 -9999 -9999 -9999 -9999 -9999 -9999 -9999 -9999 -9999 -9999 -9999 -9999 -9999 -9999 -9999 -9999 -9999 -9999 -9999 -9999 -9999 -9999 -9999 -9999 -9999 -9999 -9999 -9999 -9999 -9999 -9999 -9999 -9999 -9999 -9999 -9999 -9999 -9999 -9999 -9999 -9999 -9999 -9999 -9999 -9999 -9999 -9999 -9999 -9999 -9999 -9999 -9999 -9999
-2.171 -2.052 -2.098 -2.068 -2.064 -2.022 -2.061 -2.056 -2.102 -2.124 -2.096 -2.103 -2.028 -2.026 -2.044 -2.03 -2.071 -2.119 -2.088 -2.104 -2.024 -2.041 -2.022 -2.068 -2.119 -2.089 -2.051 -2.107 -2.123 -2.101 -2.172 -2.088 -2.107 -2.082 -2.033 -2.089 -2.058 -2.04 -2.066 -2.191 -2.061 -2.031 -2.09 -2.13 -2.096 -2.025 -2.076 -2.132 -2.109 -2.135 -2.134 -2.029 -2.126 -2.082 -2.096 -2.066 -2.054 -2.031 -1.984 -2.115 -2.12 -2.144 -2.067 -2.06 -2.003 -2.131 -2.059 -2.018 -2.054 -2.07 -2.001 -2.032 -2.103 -2.276 -2.105 -2.096 -2.075 -2.05 -2.073 -2.04 -2.158 -2.048 -2.027 -2.038 -2.05 -2.027 -2.042 -2.047 -2.05 -1.954 -2.018 -2.001 -2.036 -2.006 -2.036 -1.997 -2.038 -2.033 -2.059 -2.049 -2.012 -2.062 -2.074 -2.09 -2.107 -9999 -2.016 -1.902 -1.934 -1.969 -2.09 -2.229 -1.992 -1.962 -2.008 -1.964 -1.993 -2.103 -2.071 -2.019 -1.951 -1.989 -1.971 -2.091 -2.021 -2.113 -2.123 -2.028 -1.951 -1.965 -2.04 -2.062 -2.041 -1.983 -1.914 -2.008 -2.019 -2.027 -2.063 -2.049 -2.072 -2.056 -1.9 -1.964 -1.972 -2.041 -2.012 -2.072 -2.02 -1.95 -1.98 -1.984 -2.143 -2.027 -2.07 -2.075 -1.982 -1.999 -1.969 -1.975 -2.039 -1.996 -1.98 -2.058 -1.968 -1.978 -1.996 -2.04 -2.016 -1.994 -2.053 -2.068 -1.992 -1.892 -2.006 -2.016 -2.006 -2.02 -2.043 -2.012 -2 -2.006 -1.947 -1.967 -2.011 -1.994 -1.974 -1.991 -1.963 -1.965 -2.063 -2.05 -2.062 -1.995 -2.062 -2.025 -1.97 -2 -2.037 -1.998 -1.962 -2.013 -2.012 -1.989 -1.967 -2.079 -1.987 -1.917 -2.011 -1.985 -2.05 -1.972 -2.08 -2.036 -1.997 -2.005 -1.987 -1.979 -2.047 -1.991 -2.063 -2.021 -2.061 -2.011 -2.098 -2.084 -2.04 -2.01 -2.052 -2.067 -1.927 -1.958 -1.999 -1.981 -1.927 -1.919 -2.015 -2.069 -1.926 -9999 -2.033 -2.051 -1.995 -2.003 -2.046 -2.089 -2.024 -2.028 -1.947 -1.996 -1.984 -2.105 -2.049 -1.957 -1.98 -2.019 -1.957 -1.941 -2.07 -2.047 -2.06 -9999 -2 -1.955 -2.039 -2.021 -1.989 -1.982 -1.982 -1.988 -2.003 -1.995 -2.044 -9999 -2.059 -2.048 -2.081 -2.078 -1.983 -2.005 -2.012 -2.057 -9999 -9999 -2.096 -9999 -9999 -9999 -9999 -9999 -9999 -9999 -9999 -9999 -9999 -9999 -9999 -9999 -9999 -9999 -9999 -9999 -9999 -9999 -9999 -9999 -9999 -9999 -9999 -9999 -9999 -9999 -9999 -9999 -9999 -9999 -9999 -9999 -9999 -9999 -9999 -9999 -9999 -9999 -9999 -9999 -9999 -9999 -9999 -9999 -9999 -9999 -9999 -9999 -9999 -9999 -9999 -9999 -9999 -9999 -9999 -9999 -9999 -9999 -9999 -9999 -9999 -9999 -9999 -9999 -9999 -9999 -9999 -9999 -9999 -9999 -9999 -9999 -9999 -9999 -9999 -9999 -9999 -9999 -9999 -9999 -9999 -9999 -9999 -9999 -9999 -9999 -9999 -9999 -9999 -9999 -9999 -9999 -9999 -9999 -9999 -9999 -9999 -9999 -9999 -9999 -9999 -9999 -9999 -9999 -9999 -9999 -9999 -9999 -9999 -9999 -9999 -9999 -9999 -9999 -9999 -9999 -9999 -9999 -9999 -9999 -9999 -9999 -9999 -9999 -9999 -9999 -9999 -9999 -9999 -9999 -9999 -9999 -9999 -9999 -9999 -9999 -9999 -9999 -9999 -9999 -9999 -9999 -9999 -9999 -9999 -9999 -9999 -9999 -9999 -9999 -9999 -9999 -9999 -9999 -9999 -9999 -9999 -9999 -9999 -9999 -9999 -9999 -9999 -9999 -9999 -9999 -9999 -9999 -9999 -9999 -9999 -9999 -9999 -9999 -9999 -9999 -9999 -9999 -9999 -9999 -9999 -9999 -9999 -9999 -9999 -9999 -9999
-2.086 -2.064 -2.042 -2.076 -2.045 -1.994 -2.009 -2.031 -2.077 -2.096 -2.013 -2.023 -2.039 -2.089 -1.979 -2.058 -2.136 -2.071 -2.133 -2.089 -2.116 -2.035 -2.072 -2.151 -2.121 -2.075 -2.126 -2.079 -2.11 -2.008 -2.034 -2.093 -2.137 -2.112 -2.072 -2.07 -2.062 -2.081 -2.104 -2.081 -2.097 -2.086 -2.063 -2.072 -2.09 -2.078 -2.107 -2.088 -2.09 -2.069 -2.059 -2.074 -2.176 -2.13 -2.054 -2.085 -9999 -2.018 -2.002 -2.109 -1.974 -2.025 -2.024 -2.094 -2.051 -2.119 -2.082 -2.046 -2.066 -2.072 -2.089 -2.065 -2.034 -2.016 -2.053 -2.057 -2.035 -1.986 -2.017 -1.999 -2.028 -2.027 -2.016 -1.971 -2.047 -1.994 -2.136 -2.037 -2.097 -1.941 -1.992 -2.064 -2.081 -2.112 -2.063 -1.992 -2.059 -2.087 -2.095 -1.991 -9999 -1.916 -2.033 -2.091 -2.12 -2.078 -2.032 -2.034 -2.049 -2.091 -2.1 -2.079 -2.102 -1.938 -1.996 -2.033 -2.05 -2.034 -2.071 -2.088 -1.975 -2.011 -2.023 -2.163 -2.022 -2.043 -2.015 -1.972 -1.999 -2.007 -1.989 -2.047 -2.098 -1.987 -1.897 -2.004 -2.042 -2.034 -1.999 -2.029 -1.992 -2.047 -1.976 -1.949 -2.01 -1.99 -2.053 -2.003 -2.093 -1.954 -1.985 -2.021 -2.022 -2.065 -2.019 -2.003 -1.973 -1.975 -2.007 -2.033 -2.071 -2.007 -2.014 -2.051 -1.958 -1.921 -1.943 -2.019 -2.067 -1.999 -2.001 -2.033 -1.958 -1.944 -1.953 -2.02 -1.96 -2.034 -2.026 -1.967 -1.985 -1.991 -1.979 -1.928 -2.012 -1.943 -1.983 -2.057 -1.992 -1.948 -2.011 -2.002 -2.03 -1.978 -2.006 -2.105 -1.984 -1.963 -1.99 -1.934 -2.022 -2.002 -1.971 -2.016 -9999 -2.088 -1.954 -1.994 -2.073 -1.996 -2.041 -1.973 -1.997 -2.071 -1.979 -1.981 -2.044 -1.979 -2.006 -1.991 -2.012 -2.038 -2.041 -1.974 -1.998 -2.077 -1.992 -2.001 -2.079 -2.028 -1.998 -1.978 -2.017 -2.03 -2.037 -1.953 -1.898 -2.016 -2.019 -2.032 -1.972 -2.005 -2.017 -1.979 -2.021 -2.059 -2.001 -1.906 -1.946 -1.95 -1.997 -2.022 -1.984 -2.019 -2.05 -2.105 -2.065 -1.951 -2.074 -1.982 -2.041 -2.226 -2.11 -2.022 -2.089 -2.014 -9999 -2.025 -1.97 -2.006 -2.076 -9999 -2.036 -1.994 -2.117 -2.128 -2.054 -2.058 -2.04 -2.077 -2.099 -2.035 -2.036 -2.01 -2.077 -1.944 -9999 -9999 -9999 -9999 -9999 -9999 -9999 -9999 -9999 -9999 -9999 -9999 -9999 -9999 -9999 -9999 -9999 -9999 -9999 -9999 -9999 -9999 -9999 -9999 -9999 -9999 -9999 -9999 -9999 -9999 -9999 -9999 -9999 -9999 -9999 -9999 -9999 -9999 -9999 -9999 -9999 -9999 -9999 -9999 -9999 -9999 -9999 -9999 -9999 -9999 -9999 -9999 -9999 -9999 -9999 -9999 -9999 -9999 -9999 -9999 -9999 -9999 -9999 -9999 -9999 -9999 -9999 -9999 -9999 -9999 -9999 -9999 -9999 -9999 -9999 -9999 -9999 -9999 -9999 -9999 -9999 -9999 -9999 -9999 -9999 -9999 -9999 -9999 -9999 -9999 -9999 -9999 -9999 -9999 -9999 -9999 -9999 -9999 -9999 -9999 -9999 -9999 -9999 -9999 -9999 -9999 -9999 -9999 -9999 -9999 -9999 -9999 -9999 -9999 -9999 -9999 -9999 -9999 -9999 -9999 -9999 -9999 -9999 -9999 -9999 -9999 -9999 -9999 -9999 -9999 -9999 -9999 -9999 -9999 -9999 -9999 -9999 -9999 -9999 -9999 -9999 -9999 -9999 -9999 -9999 -9999 -9999 -9999 -9999 -9999 -9999 -9999 -9999 -9999 -9999 -9999 -9999 -9999 -9999 -9999 -9999 -9999 -9999 -9999 -9999 -9999 -9999 -9999 -9999 -9999 -9999 -9999 -9999 -9999 -9999 -9999 -9999 -9999 -9999 -9999 -9999 -9999 -9999 -9999 -9999 -9999 -9999
-2.109 -2.11 -2.028 -2.042 -2.043 -2.004 -2.035 -2.018 -2.044 -2.109 -2.062 -2.105 -2.031 -2.09 -2.062 -2.186 -2.084 -2.047 -2.132 -2.111 -2.061 -2.101 -2.057 -2.116 -2.02 -2.103 -2.134 -2.072 -2.13 -2.074 -2.094 -2.061 -2.019 -2.045 -2.084 -2.059 -2.103 -2.088 -2.115 -2.07 -2.003 -2.075 -2.075 -2.146 -2.195 -2.037 -2.057 -2.102 -2.05 -2.115 -2.127 -2.045 -2.158 -2.096 -2.103 -2.044 -2.147 -2.155 -1.998 -2.016 -2.086 -1.999 -2.046 -2.042 -2.029 -2.131 -2.077 -2.044 -2.099 -2.116 -2.033 -2.063 -2.018 -2.045 -2.038 -2.085 -2.068 -1.98 -2.06 -1.979 -2.113 -2.103 -2.104 -1.99 -2.01 -2.078 -2.141 -2.07 -1.978 -2.099 -2.087 -2.079 -2.098 -2.111 -1.963 -1.931 -2.001 -2.055 -2.025 -2.092 -1.925 -1.959 -1.934 -2.038 -2.13 -2.057 -2.064 -1.994 -2.167 -2.047 -2.073 -2.067 -2.015 -1.898 -2.011 -1.967 -2.037 -2.119 -2.059 -2.077 -1.986 -1.883 -2.029 -2.104 -2.147 -2.036 -2.011 -2.014 -1.994 -2.122 -1.973 -1.995 -2.085 -1.998 -1.927 -2.005 -2.051 -2.045 -2.071 -2.091 -2.063 -1.974 -2.027 -1.987 -2.028 -2.04 -2.091 -2.009 -2.059 -1.957 -1.979 -2.029 -2.076 -2.05 -2.065 -2.058 -1.99 -1.964 -1.978 -2.066 -2.019 -2 -2.079 -2.029 -1.943 -1.955 -1.919 -2.09 -1.975 -1.98 -2.017 -2.008 -2.026 -2.015 -1.978 -2.084 -2.027 -2.043 -1.99 -2.002 -2.014 -2.037 -2.02 -1.93 -2.038 -1.93 -1.96 -2.029 -1.986 -1.955 -2.053 -2.043 -2.104 -1.994 -1.961 -2.043 -1.972 -2.032 -2.061 -1.925 -1.971 -2.009 -2.025 -1.97 -2.027 -2.078 -2.039 -1.993 -1.96 -2.011 -2.007 -1.989 -2.03 -2.029 -1.945 -1.978 -1.998 -2.024 -2.023 -1.983 -1.937 -1.974 -2.038 -1.993 -1.968 -2.129 -1.964 -1.98 -2.027 -2.078 -1.945 -2.127 -2.097 -2.043 -1.954 -2.007 -2.078 -2.142 -1.957 -1.956 -2.071 -1.989 -9999 -2.089 -2.029 -2.2 -2.095 -2.038 -2.058 -2.1 -2.064 -1.96 -1.995 -1.982 -2.049 -2.163 -1.993 -1.996 -1.956 -2.033 -2.021 -1.998 -2.059 -1.964 -9999 -2.029 -2.052 -2.053 -1.919 -2.016 -2.021 -2.014 -9999 -1.946 -2.023 -2.016 -2.096 -2.056 -2.06 -1.982 -1.958 -2.009 -2.118 -2.014 -2.077 -2.012 -9999 -9999 -9999 -9999 -9999 -9999 -9999 -9999 -9999 -9999 -9999 -9999 -9999 -9999 -9999 -9999 -9999 -9999 -9999 -9999 -9999 -9999 -9999 -9999 -9999 -9999 -9999 -9999 -9999 -9999 -9999 -9999 -9999 -9999 -9999 -9999 -9999 -9999 -9999 -9999 -9999 -9999 -9999 -9999 -9999 -9999 -9999 -9999 -9999 -9999 -9999 -9999 -9999 -9999 -9999 -9999 -9999 -9999 -9999 -9999 -9999 -9999 -9999 -9999 -9999 -9999 -9999 -9999 -9999 -9999 -9999 -9999 -9999 -9999 -9999 -9999 -9999 -9999 -9999 -9999 -9999 -9999 -9999 -9999 -9999 -9999 -9999 -9999 -9999 -9999 -9999 -9999 -9999 -9999 -9999 -9999 -9999 -9999 -9999 -9999 -9999 -9999 -9999 -9999 -9999 -9999 -9999 -9999 -9999 -9999 -9999 -9999 -9999 -9999 -9999 -9999 -9999 -9999 -9999 -9999 -9999 -9999 -9999 -9999 -9999 -9999 -9999 -9999 -9999 -9999 -9999 -9999 -9999 -9999 -9999 -9999 -9999 -9999 -9999 -9999 -9999 -9999 -9999 -9999 -9999 -9999 -9999 -9999 -9999 -9999 -9999 -9999 -9999 -9999 -9999 -9999 -9999 -9999 -9999 -9999 -9999 -9999 -9999 -9999 -9999 -9999 -9999 -9999 -9999 -9999 -9999 -9999 -9999 -9999 -9999 -9999 -9999 -9999 -9999 -9999 -9999 -9999 -9999 -9999 -9999 -9999 -9999
-2.066 -2.094 -2.026 -2.133 -2.062 -2.063 -2.05 -2.051 -2.014 -2.061 -2.085 -2.163 -2.068 -2.11 -2.044 -2.071 -2.092 -2.034 -2.027 -2.09 -2.06 -2.105 -2.067 -2.045 -2.047 -1.998 -2.044 -2.132 -2.038 -2.06 -2.039 -2.049 -2.051 -2.008 -2.112 -2.028 -2.126 -2.034 -2.018 -2.07 -2.098 -2.079 -2.056 -2.172 -2.143 -2.052 -2.023 -2.091 -2.064 -2.119 -2.053 -2.005 -2.166 -2.131 -2.105 -2.08 -2.061 -2.052 -2.126 -2.122 -2.079 -2.128 -2.104 -2.069 -2.046 -9999 -2.065 -2.058 -2.079 -2.061 -2.044 -2.069 -2.113 -2.032 -2.087 -9999 -9999 -2.035 -2.051 -1.978 -2.113 -1.993 -2.007 -2.033 -2.087 -2.104 -2.08 -2.068 -2.047 -2.07 -2.137 -2.008 -2.079 -2.066 -2.006 -1.949 -2.045 -2.143 -2.09 -2.155 -1.964 -1.931 -2.037 -2.081 -2.15 -2.094 -2.016 -2.025 -2.027 -2.075 -2.016 -2.058 -2.083 -2.018 -2.015 -2.091 -2.04 -2.106 -2.037 -2.068 -1.976 -1.95 -1.997 -2.062 -2.064 -2.076 -2.065 -2.014 -1.951 -2.019 -2.08 -2.047 -1.982 -2.018 -1.918 -2.032 -2.057 -2.065 -2.067 -2.074 -2.028 -1.965 -1.949 -2.012 -1.998 -2.067 -2.059 -2.043 -2.06 -1.948 -1.976 -1.999 -2.004 -2.095 -2.042 -1.979 -1.907 -2.008 -1.97 -2.045 -2.008 -2.005 -2.017 -2.06 -1.97 -1.963 -1.945 -2.027 -2.007 -1.992 -2.054 -2.03 -2.052 -1.955 -1.955 -2.011 -2.044 -2.007 -2.016 -1.978 -2.016 -1.976 -2.042 -1.98 -2.039 -1.988 -1.98 -2.009 -1.984 -1.944 -2.017 -1.994 -2.013 -1.989 -1.965 -2.01 -1.975 -1.964 -2.007 -1.951 -2.041 -2.038 -1.944 -1.975 -2.016 -2.012 -2.057 -2.065 -2.03 -1.953 -1.997 -2.04 -2.035 -2.056 -2.031 -2.019 -2.063 -1.982 -2.094 -2.069 -1.967 -1.991 -2.108 -2.04 -2.008 -2.044 -2.022 -1.967 -1.962 -1.987 -1.94 -1.971 -2.035 -2.098 -2.043 -1.915 -1.979 -2.107 -1.989 -1.953 -2.031 -1.991 -2.076 -2.077 -2.016 -2.108 -2.07 -1.997 -1.974 -1.938 -1.941 -2.052 -2.062 -2.002 -2.053 -2.071 -2.071 -2.077 -1.975 -2.037 -2.071 -2.034 -9999 -2.014 -9999 -2.1 -2.035 -1.947 -2.01 -2.004 -1.977 -2.125 -2.073 -2.066 -2.016 -2.034 -2.062 -2.014 -2.072 -1.976 -1.99 -2.054 -2.03 -2.108 -2.003 -2.004 -9999 -9999 -9999 -9999 -9999 -9999 -9999 -9999 -9999 -9999 -9999 -9999 -9999 -9999 -9999 -9999 -9999 -9999 -9999 -9999 -9999 -9999 -9999 -9999 -9999 -9999 -9999 -9999 -9999 -9999 -9999 -9999 -9999 -9999 -9999 -9999 -9999 -9999 -9999 -9999 -9999 -9999 -9999 -9999 -9999 -9999 -9999 -9999 -9999 -9999 -9999 -9999 -9999 -9999 -9999 -9999 -9999 -9999 -9999 -9999 -9999 -9999 -9999 -9999 -9999 -9999 -9999 -9999 -9999 -9999 -9999 -9999 -9999 -9999 -9999 -9999 -9999 -9999 -9999 -9999 -9999 -9999 -9999 -9999 -9999 -9999 -9999 -9999 -9999 -9999 -9999 -9999 -9999 -9999 -9999 -9999 -9999 -9999 -9999 -9999 -9999 -9999 -9999 -9999 -9999 -9999 -9999 -9999 -9999 -9999 -9999 -9999 -9999 -9999 -9999 -9999 -9999 -9999 -9999 -9999 -9999 -9999 -9999 -9999 -9999 -9999 -9999 -9999 -9999 -9999 -9999 -9999 -9999 -9999 -9999 -9999 -9999 -9999 -9999 -9999 -9999 -9999 -9999 -9999 -9999 -9999 -9999 -9999 -9999 -9999 -9999 -9999 -9999 -9999 -9999 -9999 -9999 -9999 -9999 -9999 -9999 -9999 -9999 -9999 -9999 -9999 -9999 -9999 -9999 -9999 -9999 -9999 -9999 -9999 -9999 -9999 -9999 -9999 -9999 -9999 -9999 -9999 -9999 -9999 -9999 -9999 -9999
-2.087 -2.053 -2.022 -2.069 -2.045 -2.075 -2.054 -2.046 -2.023 -2.033 -2.082 -2.122 -2.017 -2.007 -2.087 -2.052 -2.056 -2.031 -2.02 -2.048 -2.144 -2.099 -2.075 -2.039 -2.111 -2.04 -2.19 -2.075 -2.082 -2.109 -2.077 -2.057 -2.096 -2.026 -2.095 -2.082 -2.113 -2.104 -2.095 -2.051 -2.045 -2.058 -2.106 -2.128 -2.072 -2.051 -2.018 -2.053 -2.071 -2.061 -2.062 -1.904 -2.167 -2.132 -2.069 -2.07 -2.04 -2.082 -2.123 -2.116 -2.152 -2.063 -2.1 -2.047 -2.125 -2.117 -2.084 -2.088 -2.123 -2.08 -2.106 -1.969 -2.115 -1.977 -2.071 -2.021 -2.067 -1.945 -2.042 -2.07 -2.219 -2.04 -1.999 -1.964 -2.108 -2.113 -2.036 -2.04 -2.035 -2.049 -2.093 -2.093 -2.041 -2.056 -2.019 -1.967 -2.036 -2.076 -2.077 -2.12 -1.974 -1.912 -2.006 -2.058 -2.127 -2.031 -1.995 -1.965 -2.025 -2.076 -2.115 -2.077 -2.049 -1.97 -2.021 -2.053 -2.096 -2.054 -2.045 -1.995 -1.916 -1.944 -2.02 -2.008 -2.072 -2.12 -1.999 -1.952 -2.002 -2.086 -2.116 -2.175 -1.975 -1.975 -1.948 -1.982 -1.992 -2.05 -2.087 -2.065 -1.99 -1.966 -1.971 -2.011 -2.055 -2.122 -2.054 -1.942 -2.038 -1.931 -1.938 -2.028 -2.01 -2.035 -2.081 -2.09 -2.008 -2.057 -1.948 -2.046 -2.044 -2.026 -2.057 -2.043 -1.965 -1.991 -1.944 -2.049 -1.985 -2.014 -2.073 -2.042 -1.965 -2.023 -2.025 -2.029 -2.034 -1.977 -2.048 -2.021 -2.004 -2.011 -2.007 -2.001 -2.046 -2.007 -2.07 -2.02 -1.98 -1.939 -1.984 -1.963 -1.931 -2.019 -1.984 -2.014 -2.018 -2.001 -1.976 -1.939 -2.047 -1.994 -1.972 -1.973 -1.964 -2.007 -2.043 -2.001 -2.034 -2.046 -2.124 -2.01 -2.013 -1.972 -2.001 -1.981 -1.933 -2.011 -1.976 -2.069 -2.066 -1.977 -2.067 -2.021 -1.989 -2.085 -1.999 -1.976 -1.971 -1.952 -2.011 -2.038 -2.094 -2.096 -2.051 -1.998 -1.939 -2.049 -1.981 -1.954 -2.071 -2.058 -2.069 -1.985 -2.026 -2.132 -2.032 -2.021 -1.955 -1.991 -1.99 -9999 -2.03 -1.987 -9999 -2.013 -2.063 -2.076 -1.982 -1.958 -2.067 -1.937 -1.926 -2.072 -2.022 -2.047 -2.06 -1.984 -1.991 -1.988 -1.984 -2.125 -1.944 -2.138 -2.078 -2.053 -2.019 -9999 -2.013 -2.048 -9999 -9999 -2.065 -2.206 -2.069 -2.061 -2.093 -2.028 -1.996 -9999 -9999 -9999 -9999 -9999 -9999 -9999 -9999 -9999 -9999 -9999 -9999 -9999 -9999 -9999 -9999 -9999 -9999 -9999 -9999 -9999 -9999 -9999 -9999 -9999 -9999 -9999 -9999 -9999 -9999 -9999 -9999 -9999 -9999 -9999 -9999 -9999 -9999 -9999 -9999 -9999 -9999 -9999 -9999 -9999 -9999 -9999 -9999 -9999 -9999 -9999 -9999 -9999 -9999 -9999 -9999 -9999 -9999 -9999 -9999 -9999 -9999 -9999 -9999 -9999 -9999 -9999 -9999 -9999 -9999 -9999 -9999 -9999 -9999 -9999 -9999 -9999 -9999 -9999 -9999 -9999 -9999 -9999 -9999 -9999 -9999 -9999 -9999 -9999 -9999 -9999 -9999 -9999 -9999 -9999 -9999 -9999 -9999 -9999 -9999 -9999 -9999 -9999 -9999 -9999 -9999 -9999 -9999 -9999 -9999 -9999 -9999 -9999 -9999 -9999 -9999 -9999 -9999 -9999 -9999 -9999 -9999 -9999 -9999 -9999 -9999 -9999 -9999 -9999 -9999 -9999 -9999 -9999 -9999 -9999 -9999 -9999 -9999 -9999 -9999 -9999 -9999 -9999 -9999 -9999 -9999 -9999 -9999 -9999 -9999 -9999 -9999 -9999 -9999 -9999 -9999 -9999 -9999 -9999 -9999 -9999 -9999 -9999 -9999 -9999 -9999 -9999 -9999 -9999 -9999 -9999 -9999 -9999 -9999 -9999 -9999 -9999 -9999 -9999 -9999 -9999 -9999 -9999 -9999
