ncols 451
nrows 30
xllcorner    460000
yllcorner    88868
cellsize     2
NODATA_value -9999
25.242 24.755 24.745 24.955 24.842 25.32 24.967 24.925 25.062 25.412 27.22 26.967 25.275 25.207 25.237 25.257 25.33 25.362 25.4 26.882 25.582 25.535 25.55 25.545 25.775 25.737 25.662 25.69 25.765 25.845 25.832 25.842 25.85 25.9 25.897 25.94 25.982 26.052 26.07 26.06 26.097 26.117 26.127 26.142 26.147 26.075 26.15 26.207 26.157 26.097 26.122 26.157 26.165 26.14 26.142 26.19 26.222 26.212 26.147 26.15 26.14 26.122 26.345 26.977 26.405 26.085 26.145 26.122 27.082 26.09 25.502 24.802 24.512 24.325 23.222 22.502 22.462 22.775 24.49 24.46 24.625 25.187 25.507 25.49 25.94 26.03 26.1 26.067 25.962 25.93 25.97 25.91 25.9 25.92 25.927 25.84 25.82 25.817 25.86 25.925 25.867 25.87 25.722 25.687 25.877 26.147 25.807 28.537 26.14 25.732 25.792 25.692 25.672 25.882 26.072 25.76 25.747 29.717 35.29 26.145 25.862 34.052 27.315 32.862 44.332 35.117 27.05 34.897 31.58 35.2 35.092 40.372 46.492 28.937 29.162 36.237 43.8 34.222 36.617 46 41.74 45.652 41.7 40.627 37.785 27.695 26.037 26.257 26.555 27.057 27.057 25.977 26.004 26.154 26.107 25.974 25.959 25.962 26.014 25.924 25.844 25.829 25.839 25.869 25.672 25.622 25.682 25.574 25.762 25.717 25.602 25.604 25.587 25.429 25.359 25.247 25.164 25.114 25.069 24.994 24.952 24.949 24.889 24.892 24.839 24.842 24.667 24.587 24.629 24.639 24.542 24.382 24.314 24.164 24.129 24.034 23.882 23.777 23.694 23.647 23.682 23.607 23.579 23.429 23.417 23.372 23.329 23.174 23.172 23.129 23.039 23.079 23.022 22.984 22.987 22.977 22.934 22.994 22.847 22.719 22.719 22.792 22.669 22.567 22.579 22.622 22.577 22.512 22.482 22.444 22.509 22.554 22.624 22.709 22.779 22.657 22.659 22.644 22.517 22.332 22.272 22.139 22.087 22.034 22.027 22.054 22.107 22.474 23.402 25.697 23.934 23.437 22.359 24.907 25.259 30.864 25.769 21.734 27.442 29.262 21.629 23.232 27.414 23.642 21.654 21.624 21.432 21.227 21.022 20.939 20.839 20.772 20.652 20.604 20.574 20.564 20.494 20.407 20.334 20.227 20.174 20.099 20.044 19.979 19.917 19.892 19.864 19.837 19.797 19.807 19.789 19.762 19.749 19.717 19.729 19.684 19.637 19.602 19.582 19.542 19.472 19.432 19.374 19.317 19.259 19.199 19.162 19.102 19.039 18.982 18.929 18.892 18.842 18.812 18.754 18.702 18.682 18.634 18.589 18.567 18.512 18.477 18.447 18.419 18.377 18.377 18.332 18.264 18.174 18.094 18.009 17.947 17.947 17.884 17.839 17.764 17.702 17.614 17.514 17.422 17.354 17.242 17.122 17.037 16.917 16.862 16.792 16.732 16.692 16.664 16.647 16.677 16.664 16.684 16.724 16.747 16.732 16.757 16.767 16.759 16.739 16.754 16.742 16.752 16.737 16.729 16.702 16.719 16.652 16.669 16.627 16.612 16.574 16.569 16.497 16.467 16.422 16.392 16.327 16.277 16.244 16.199 16.134 16.072 16.004 15.982 15.924 15.874 15.827 15.734 15.692 15.604 15.649 15.814 16.684 17.637 15.722 15.612 15.684 15.877 15.754 16.067 16.302 16.229 15.507 14.832 14.634 14.559 14.509 14.417 14.362 14.312 14.247 14.177 14.124 14.079 14.057 14.022 13.917 13.832 13.769 13.717 13.639 13.567 13.479 13.399 13.314 13.239 13.144 13.052 12.997 12.924 12.842 12.732 12.639 12.522 12.392 12.314 12.174 12.042 11.927 11.817 11.642 11.537 11.424 11.322 11.247 11.164 11.047 10.922 10.826
24.73 24.795 24.76 24.865 24.905 24.852 25 25.065 25.297 26.082 26.22 25.182 25.1 25.202 25.23 25.245 25.377 25.375 25.417 26.38 28.52 25.575 25.71 25.595 25.745 25.77 25.772 25.825 25.825 25.85 25.83 25.85 25.882 25.895 25.917 25.97 25.997 26.042 26.092 26.102 26.12 26.122 26.137 26.127 26.125 26.09 26.09 26.382 26.137 26.127 26.117 26.157 26.185 26.155 26.117 26.18 26.2 26.202 26.162 26.14 26.16 26.12 26.31 28.117 27.77 26.065 26.14 26.165 26.237 26.142 25.715 25.047 25.177 24.985 23.595 22.547 22.477 22.54 23.287 24.382 24.405 24.997 25.482 25.595 26.07 26.027 26.02 26.097 25.985 25.932 25.98 25.95 25.89 25.847 25.815 25.815 25.865 25.885 25.877 25.892 25.825 25.922 25.752 25.662 25.662 26.015 25.842 25.825 25.755 25.72 25.777 25.705 25.64 26.462 28.86 26.245 26.112 26.695 26.987 26.095 27.63 34.79 25.945 28.24 34.072 40.837 33.45 38.275 30.392 26.312 31.517 42.675 41.017 36.405 38.367 38.362 40.322 27.775 40.45 44.562 43.417 44.12 32.147 38.49 33.447 28.207 26.137 26.505 26.562 27.287 27.324 25.929 25.927 26.002 25.942 25.939 25.862 25.847 25.872 25.802 25.797 25.874 25.959 25.994 25.672 25.579 25.519 25.487 25.514 25.644 25.594 25.659 25.552 25.334 25.244 25.112 25.047 25.017 24.974 24.924 24.899 24.832 24.787 24.749 24.702 24.632 24.544 24.512 24.492 24.484 24.364 24.292 24.209 24.014 23.917 23.877 23.784 23.662 23.654 23.617 23.614 23.524 23.474 23.424 23.359 23.297 23.229 22.994 23.087 23.072 23.049 22.964 22.814 22.882 22.904 22.894 22.792 22.802 22.769 22.804 22.662 22.634 22.529 22.502 22.489 22.519 22.517 22.447 22.369 22.347 22.367 22.404 22.474 22.487 22.499 22.574 22.484 22.519 22.372 22.209 22.109 22.052 21.932 21.912 21.927 21.982 22.079 22.212 22.407 24.207 23.892 22.564 25.427 24.172 21.989 21.984 21.682 21.069 26.859 26.217 21.359 20.834 25.749 25.762 23.044 21.642 21.092 21.022 20.912 20.822 20.747 20.647 20.564 20.484 20.484 20.464 20.412 20.329 20.259 20.147 20.082 19.992 19.919 19.877 19.837 19.777 19.754 19.717 19.687 19.672 19.659 19.612 19.609 19.584 19.579 19.549 19.514 19.469 19.452 19.354 19.339 19.284 19.204 19.187 19.132 19.062 19.019 18.939 18.872 18.797 18.757 18.722 18.662 18.649 18.574 18.582 18.517 18.482 18.422 18.384 18.349 18.337 18.309 18.272 18.219 18.209 18.172 18.114 18.032 17.947 17.877 17.812 17.792 17.727 17.679 17.602 17.554 17.484 17.374 17.284 17.192 17.097 16.959 16.874 16.782 16.697 16.622 16.584 16.532 16.499 16.462 16.474 16.482 16.494 16.532 16.554 16.587 16.629 16.587 16.574 16.562 16.577 16.544 16.597 16.567 16.552 16.532 16.544 16.489 16.509 16.459 16.444 16.437 16.387 16.357 16.327 16.277 16.234 16.164 16.132 16.097 16.029 15.982 15.919 15.844 15.809 15.792 15.737 15.652 15.577 15.549 15.464 15.604 16.247 16.819 15.534 16.217 15.342 15.979 16.122 15.769 16.144 16.229 15.789 14.737 14.522 14.464 14.382 14.357 14.259 14.204 14.162 14.099 14.054 13.962 13.907 13.889 13.859 13.762 13.699 13.612 13.572 13.474 13.389 13.307 13.244 13.142 13.069 12.984 12.914 12.854 12.782 12.704 12.577 12.462 12.359 12.227 12.127 12.022 11.889 11.759 11.634 11.504 11.377 11.302 11.214 11.129 11.019 10.917 10.834 10.714
25.092 24.877 24.837 24.822 24.965 24.947 25.02 25.08 25.072 25.122 25.077 25.062 25.122 25.36 25.592 25.65 25.417 25.37 27.755 28.875 26.147 25.72 25.737 25.63 28.315 26.692 25.907 25.922 25.892 25.86 25.872 25.87 25.897 25.922 25.947 25.99 26.005 26.045 26.115 26.14 26.155 26.137 26.142 26.167 26.17 26.162 26.222 26.59 26.21 26.2 26.13 26.14 26.155 26.147 26.132 26.177 26.195 26.21 26.157 26.135 26.13 26.127 26.1 26.775 27.47 26.242 26.16 26.11 26.747 26.35 25.962 25.407 24.73 24.642 23.982 22.67 22.475 22.502 22.925 23.882 24.267 24.717 25.297 25.455 25.615 25.91 26.067 25.982 25.945 25.897 25.887 25.932 25.802 25.835 25.91 25.712 25.942 25.877 25.817 25.86 25.79 25.75 25.69 25.592 25.487 25.82 25.762 25.667 25.722 25.755 25.857 26.285 25.677 25.735 26.477 26.997 25.74 26.842 30.077 25.835 27.007 35.177 35.902 29.887 42.247 40.4 32.587 36.525 31.145 26.152 37.367 41.07 41.88 46.055 43.522 41.015 40.672 28.59 38.602 35.802 40.455 42.652 40.625 40.912 31.267 26.142 26.18 26.575 26.595 26.802 26.502 25.864 25.882 25.927 25.959 25.959 25.804 25.822 25.764 25.819 25.764 25.787 25.827 25.797 25.609 25.609 25.554 25.429 25.337 25.374 25.417 25.462 25.542 25.352 25.204 25.057 24.967 24.902 24.844 24.789 24.779 24.767 24.657 24.649 24.574 24.527 24.462 24.424 24.284 24.354 24.322 24.222 24.139 23.934 23.837 25.549 23.822 23.612 23.514 23.577 23.564 23.414 23.287 23.249 23.229 23.232 23.197 22.949 22.937 22.974 23.002 22.912 22.719 22.732 22.749 22.724 22.752 22.729 22.757 22.584 22.534 22.514 22.427 22.399 22.414 22.472 22.477 22.437 22.342 22.239 22.294 22.312 22.369 22.364 22.374 22.424 22.412 22.367 22.294 22.124 21.997 21.952 21.862 21.849 21.854 21.927 22.044 22.217 23.537 25.244 22.134 25.637 24.209 22.304 21.904 21.712 21.467 20.897 21.514 20.722 21.849 20.622 23.759 24.174 23.342 21.587 21.019 20.879 20.802 20.719 20.612 20.529 20.477 20.407 20.392 20.374 20.327 20.229 20.159 20.064 19.999 19.909 19.844 19.789 19.734 19.642 19.592 19.599 19.544 19.559 19.517 19.499 19.469 19.459 19.419 19.382 19.334 19.322 19.279 19.207 19.182 19.112 19.077 19.024 18.974 18.894 18.849 18.787 18.727 18.624 18.597 18.532 18.494 18.464 18.412 18.382 18.372 18.327 18.292 18.249 18.207 18.192 18.159 18.127 18.094 18.067 18.014 17.984 17.912 17.802 17.724 17.689 17.622 17.589 17.532 17.477 17.392 17.314 17.209 17.127 17.032 16.934 16.804 16.722 16.612 16.542 16.467 16.407 16.364 16.329 16.289 16.292 16.292 16.312 16.354 16.409 16.404 16.414 16.404 16.402 16.384 16.389 16.379 16.419 16.419 16.417 16.377 16.387 16.342 16.357 16.312 16.279 16.269 16.244 16.207 16.182 16.109 16.077 16.019 15.977 15.939 15.884 15.832 15.759 15.704 15.652 15.619 15.572 15.494 15.414 15.407 15.309 15.487 16.277 17.797 17.537 16.289 15.632 16.137 16.112 15.749 15.879 16.054 15.157 14.442 14.367 14.304 14.237 14.187 14.122 14.077 14.004 13.939 13.892 13.834 13.782 13.734 13.689 13.609 13.529 13.467 13.397 13.307 13.209 13.119 13.067 13.009 12.907 12.832 12.744 12.682 12.607 12.522 12.407 12.352 12.217 12.072 11.982 11.874 11.754 11.584 11.499 11.387 11.267 11.182 11.097 10.992 10.907 10.807 10.704 10.569
24.875 25.09 24.947 24.867 24.872 25.005 25.035 25.067 25.04 25.085 25.252 25.227 25.65 26.357 29.022 26.79 25.62 25.44 26.022 25.705 25.79 25.72 25.76 25.735 26.562 29.022 25.972 25.925 25.82 25.785 25.87 25.91 25.917 25.947 25.962 25.992 26.325 26.757 26.165 26.15 26.187 26.157 26.172 26.167 26.152 26.142 26.12 26.125 26.197 26.215 26.16 26.142 26.152 26.145 26.132 26.152 26.185 26.197 26.167 26.112 26.135 26.122 26.117 26.185 26.665 26.61 26.057 26.087 27.215 26.72 26.07 25.515 25.042 24.657 24.302 22.92 22.54 22.477 22.665 23.565 24.057 24.572 25.092 25.447 25.405 25.862 25.977 25.955 25.88 25.897 25.875 25.885 25.775 25.772 25.805 25.727 25.917 25.755 25.795 25.827 26.792 25.722 25.707 25.682 25.82 25.825 25.735 25.622 25.735 25.717 25.707 25.63 27.085 25.697 25.847 25.805 25.792 28.052 25.832 25.832 28.96 34.595 30.027 28.272 42.697 40.092 28.087 31.75 26.057 26.19 42.137 41.957 33.437 32.4 29.977 40.452 40.3 36.167 27.355 29.852 34.745 37.21 37.902 31.877 26.267 26.212 26.097 27.115 26.9 27.027 27.262 25.812 25.857 25.982 25.907 25.782 25.709 25.744 25.754 25.757 25.802 25.927 25.872 25.674 25.797 25.622 25.537 25.459 25.464 25.264 25.242 25.319 25.322 25.272 25.172 24.947 24.852 24.869 24.754 24.689 24.724 24.704 24.572 24.559 24.509 24.382 24.344 24.324 24.269 24.262 24.199 24.097 23.919 23.914 23.804 24.462 23.607 23.532 23.474 23.487 23.459 23.262 23.127 23.169 23.172 23.099 23.059 22.917 22.907 22.964 22.907 22.844 22.717 22.684 22.652 22.664 22.662 22.712 22.574 22.444 22.432 22.442 22.419 22.299 22.349 22.389 22.442 22.289 22.262 22.202 22.224 22.247 22.334 22.309 22.327 22.409 22.387 22.429 22.114 21.937 21.897 21.877 21.809 21.767 21.772 21.887 22.519 26.377 23.019 23.274 22.107 22.657 21.942 21.852 21.704 21.657 21.269 20.712 20.477 23.154 24.659 20.609 21.397 21.454 21.079 22.499 21.269 20.767 20.662 20.592 20.527 20.439 20.372 20.324 20.324 20.284 20.214 20.137 20.069 19.982 19.892 19.817 19.737 19.704 19.619 19.527 19.479 19.464 19.422 19.394 19.367 19.334 19.329 19.289 19.259 19.244 19.192 19.157 19.129 19.059 19.034 18.964 18.904 18.869 18.817 18.759 18.702 18.624 18.544 18.474 18.419 18.359 18.337 18.302 18.269 18.262 18.212 18.167 18.154 18.134 18.087 18.044 18.034 17.984 17.947 17.922 17.869 17.859 17.779 17.672 17.617 17.537 17.489 17.449 17.377 17.319 17.244 17.174 17.072 16.974 16.882 16.799 16.687 16.564 16.477 16.404 16.332 16.267 16.214 16.157 16.114 16.114 16.122 16.137 16.167 16.219 16.204 16.219 16.222 16.217 16.217 16.239 16.249 16.242 16.249 16.242 16.219 16.219 16.182 16.174 16.142 16.124 16.104 16.092 16.042 16.009 15.964 15.914 15.867 15.832 15.777 15.734 15.679 15.609 15.564 15.494 15.459 15.399 15.329 15.282 15.274 15.184 15.314 16.174 16.804 17.212 15.844 15.622 16.407 16.487 15.932 15.994 15.609 14.507 14.264 14.194 14.144 14.029 14.002 13.977 13.902 13.849 13.782 13.732 13.667 13.639 13.597 13.517 13.439 13.382 13.277 13.217 13.134 13.024 12.944 12.917 12.797 12.734 12.667 12.559 12.514 12.432 12.367 12.259 12.187 12.024 11.902 11.817 11.697 11.579 11.454 11.369 11.244 11.162 11.027 10.952 10.862 10.747 10.657 10.569 10.459
24.85 24.852 24.88 24.902 25.02 25.09 25 25 25.102 25.19 25.365 25.235 25.275 25.37 27.045 27.1 25.537 25.507 25.895 25.77 25.707 25.67 25.695 25.687 25.692 26.682 28.167 30.077 28.172 25.81 25.84 25.907 25.922 26.03 26.335 26.912 27.2 26.915 26.11 26.12 26.19 26.185 26.182 26.192 26.177 26.195 26.147 26.165 26.16 26.222 26.17 26.137 26.15 26.147 26.13 26.125 26.162 26.205 26.172 26.135 26.127 26.127 26.107 26.11 26.535 26.835 26.092 26.09 26.282 26.207 26.147 26.14 25.512 24.72 24.587 23.395 22.557 22.477 22.507 23.357 24.722 24.69 24.855 25.442 25.792 25.827 25.915 25.937 25.895 25.852 25.842 25.762 25.757 25.882 25.735 25.717 25.737 25.837 25.782 25.817 26.87 25.802 25.85 25.595 25.535 25.592 25.75 25.607 26.13 25.63 25.617 25.565 25.562 25.56 26.707 25.765 26.3 25.695 25.69 25.702 28.12 41.72 40.49 27.247 41.27 41.347 39.09 42.942 35.157 29.472 35.925 33.592 26.09 35.265 26.117 32.822 46.027 45.84 44.125 37.572 35.06 28.807 37.192 33.29 26.22 26.81 26.495 26.685 27.277 27.98 26.744 25.764 25.804 25.814 25.784 25.739 25.774 25.782 25.749 25.657 25.817 25.687 25.842 25.489 25.589 25.482 25.477 25.442 25.612 25.374 25.164 25.114 25.192 25.237 25.237 24.954 24.764 24.794 24.667 24.574 24.564 24.544 24.424 24.497 24.369 24.367 24.259 24.219 24.162 24.089 24.037 23.959 23.784 23.782 23.734 23.594 23.542 23.427 23.382 23.292 23.257 23.117 23.202 23.272 23.079 22.997 22.892 22.792 22.847 22.769 22.767 22.737 22.734 22.759 22.529 22.524 22.557 22.564 22.532 22.344 22.354 22.417 22.322 22.207 22.239 22.232 22.294 22.234 22.189 22.114 22.182 22.167 22.294 22.237 22.372 22.359 22.274 22.234 22.057 21.844 21.817 21.747 21.687 21.662 21.697 21.932 22.527 25.787 23.894 22.264 22.024 21.952 21.787 23.154 24.654 21.449 21.264 20.564 22.734 22.512 24.464 21.022 22.249 23.232 20.984 21.379 21.282 20.629 20.519 20.484 20.397 20.329 20.292 20.259 20.249 20.184 20.129 20.057 19.969 19.877 19.789 19.704 19.619 19.539 19.494 19.422 19.354 19.309 19.259 19.264 19.192 19.164 19.169 19.147 19.124 19.109 19.052 18.997 19.002 18.917 18.862 18.812 18.724 18.704 18.644 18.577 18.539 18.469 18.399 18.314 18.272 18.234 18.219 18.189 18.132 18.129 18.072 18.069 18.014 18.004 17.947 17.907 17.907 17.857 17.804 17.769 17.722 17.702 17.652 17.527 17.464 17.399 17.344 17.307 17.224 17.164 17.114 17.012 16.927 16.829 16.747 16.644 16.549 16.454 16.342 16.259 16.197 16.112 16.039 16.019 15.964 15.959 15.942 15.947 15.984 16.024 16.022 16.047 16.047 16.067 16.052 16.067 16.064 16.082 16.099 16.067 16.052 16.062 16.019 15.999 15.964 15.932 15.937 15.914 15.877 15.847 15.792 15.754 15.704 15.654 15.612 15.564 15.504 15.447 15.404 15.337 15.299 15.222 15.169 15.109 15.099 15.007 15.152 16.144 16.677 17.047 15.754 15.684 15.927 15.947 15.814 15.722 14.792 14.202 14.124 14.022 13.964 13.887 13.834 13.802 13.719 13.664 13.622 13.549 13.484 13.447 13.417 13.349 13.277 13.189 13.089 13.034 12.962 12.849 12.779 12.724 12.632 12.539 12.482 12.429 12.367 12.249 12.202 12.107 11.992 11.847 11.734 11.629 11.544 11.434 11.312 11.224 11.134 10.992 10.907 10.812 10.722 10.619 10.552 10.442 10.346
24.87 24.98 25.007 24.945 24.957 25.082 25.002 25.192 25.435 25.227 25.45 25.437 25.33 25.347 25.667 25.585 25.63 25.507 26.577 25.895 25.712 25.755 25.675 25.77 25.74 26.277 28.452 29.032 27.267 25.875 25.852 26.047 26.677 27.09 27.002 27.04 26.222 26.1 26.097 26.105 26.217 26.245 26.207 26.212 26.192 26.195 26.17 26.145 26.14 26.197 26.197 26.14 26.172 26.157 26.127 26.127 26.147 26.182 26.185 26.14 26.13 26.142 26.15 26.127 26.19 26.402 26.03 26.955 26.635 26.265 26.267 25.937 25.592 24.885 24.617 24.017 22.7 22.497 22.475 22.995 23.765 24.185 24.817 25.26 25.432 25.49 25.997 25.935 25.82 25.78 25.715 25.71 25.685 25.805 25.76 25.787 25.807 25.865 25.802 25.86 28.925 25.895 25.985 25.545 25.42 25.475 25.785 25.592 25.55 25.51 25.485 25.472 25.482 25.577 29.315 25.865 25.627 25.425 25.707 25.785 31.33 40.5 40.325 28.062 38.517 39.522 36.297 43.942 40.582 37.372 39.567 40.915 33.677 27.71 26.02 29.005 44.097 42.102 38.885 39.52 31.625 33.62 30.042 28.452 26.202 25.837 26.03 26.37 26.917 27.092 26.034 25.739 25.834 25.779 25.757 25.749 25.664 25.672 25.794 25.699 25.724 25.694 25.647 25.414 25.394 25.394 25.334 25.392 25.357 25.302 25.247 25.072 25.007 25.089 25.034 24.789 24.699 24.739 24.587 24.494 24.464 24.414 24.339 24.327 24.274 24.149 24.124 24.079 24.112 23.997 23.857 23.794 23.829 23.664 23.529 23.422 23.397 23.364 23.282 23.199 23.204 23.179 23.149 23.179 23.129 22.942 22.772 22.702 22.739 22.704 22.767 22.637 22.594 22.637 22.549 22.547 22.557 22.467 22.462 22.337 22.264 22.314 22.302 22.194 22.177 22.182 22.209 22.184 22.122 22.029 22.059 22.237 22.312 22.212 22.257 22.189 22.199 22.069 21.967 21.792 21.697 21.617 21.564 21.547 21.619 21.874 22.869 23.259 25.384 21.762 21.799 24.714 22.952 26.524 29.899 21.467 24.009 20.457 22.937 24.737 27.042 24.637 22.704 24.732 23.562 21.097 21.552 20.672 20.409 20.337 20.294 20.254 20.214 20.194 20.157 20.094 20.044 19.959 19.867 19.779 19.694 19.592 19.527 19.442 19.367 19.292 19.224 19.184 19.097 19.102 19.052 19.009 18.987 18.964 18.944 18.922 18.884 18.837 18.819 18.782 18.714 18.624 18.567 18.517 18.462 18.419 18.377 18.314 18.254 18.182 18.124 18.097 18.077 18.039 17.989 17.977 17.957 17.922 17.869 17.847 17.819 17.767 17.737 17.697 17.654 17.617 17.589 17.574 17.494 17.402 17.319 17.257 17.197 17.147 17.082 17.027 16.947 16.882 16.762 16.687 16.609 16.504 16.412 16.337 16.234 16.127 16.052 15.974 15.922 15.874 15.817 15.769 15.764 15.774 15.819 15.834 15.847 15.884 15.889 15.877 15.889 15.884 15.877 15.899 15.927 15.909 15.869 15.874 15.852 15.839 15.832 15.764 15.797 15.749 15.699 15.684 15.639 15.597 15.542 15.504 15.457 15.417 15.357 15.302 15.244 15.199 15.132 15.077 15.017 14.964 14.929 14.849 15.002 16.082 17.089 16.877 15.187 15.182 15.742 16.072 15.564 14.887 14.149 13.999 13.962 13.872 13.782 13.709 13.677 13.602 13.557 13.514 13.442 13.397 13.337 13.269 13.224 13.154 13.094 12.999 12.917 12.844 12.769 12.694 12.619 12.539 12.454 12.379 12.292 12.247 12.167 12.084 11.997 11.904 11.802 11.664 11.559 11.494 11.399 11.299 11.202 11.104 10.974 10.847 10.767 10.697 10.602 10.502 10.409 10.314 10.216
24.967 24.962 24.98 25.002 25.052 25.002 25.037 25.155 25.56 25.352 25.315 25.332 25.37 25.46 25.515 25.72 25.64 25.597 25.55 25.717 25.74 25.692 25.657 25.687 25.942 27.96 31.025 31.177 29.057 27.65 26.207 26.307 26.477 26.437 26.112 26.032 26.06 26.09 26.105 26.102 26.172 26.25 26.262 26.217 26.192 26.202 26.205 26.195 26.14 26.205 26.237 26.172 26.155 26.165 26.137 26.112 26.12 26.16 26.172 26.16 26.112 26.12 26.137 26.135 26.095 26.13 26.267 26.027 26.092 26.027 26.3 26.182 26.052 25.382 24.695 24.38 22.922 22.472 22.447 22.617 24.175 24.522 24.542 25.062 25.325 25.32 25.667 25.83 25.862 25.772 25.702 25.692 25.677 25.667 25.745 25.815 25.767 25.777 26.252 25.88 25.86 25.685 25.575 25.5 25.597 25.312 25.74 25.58 25.5 25.402 25.447 25.545 27.64 25.717 25.747 26.465 25.545 29.822 27.375 25.792 28.787 32.252 31.227 29.767 38.482 35.362 40.165 34.785 43.355 45.327 41.895 44.802 39.935 30.527 26.005 32.705 29.592 34.55 34.702 36.637 31.362 35.015 27.797 26.115 26.102 25.99 26.22 26.36 26.172 26.2 26.157 25.732 25.789 25.752 25.674 25.679 25.737 25.614 25.634 25.697 25.662 25.619 25.519 25.369 25.367 25.322 25.312 25.277 25.299 25.212 25.137 25.107 24.929 24.839 24.824 24.727 24.592 24.542 24.477 24.422 24.354 24.284 24.247 24.177 24.077 24.057 23.934 23.934 23.952 23.864 23.739 23.647 23.644 23.544 23.444 23.274 23.192 23.112 23.262 23.012 23.007 23.004 23.044 23.029 22.927 22.882 22.689 22.607 22.562 22.594 22.667 22.697 22.644 23.014 22.474 22.529 22.499 22.419 22.322 22.349 22.237 22.134 22.119 22.132 22.079 22.047 22.064 22.047 22.014 21.974 22.012 22.149 22.187 21.979 21.974 22.024 21.967 21.872 21.869 21.739 21.594 21.514 21.479 21.419 21.464 21.597 22.784 24.862 23.467 21.672 25.797 27.014 26.202 30.582 26.934 21.259 20.864 20.309 20.067 24.037 23.924 23.112 22.082 21.527 20.802 21.307 23.057 21.129 20.284 20.222 20.199 20.179 20.147 20.082 20.052 20.014 19.934 19.862 19.754 19.657 19.562 19.477 19.384 19.324 19.257 19.164 19.099 19.039 18.969 18.944 18.902 18.862 18.832 18.827 18.802 18.764 18.734 18.692 18.662 18.614 18.554 18.489 18.417 18.382 18.314 18.279 18.222 18.172 18.112 18.029 17.989 17.957 17.934 17.889 17.854 17.827 17.782 17.789 17.749 17.714 17.689 17.647 17.614 17.552 17.492 17.462 17.457 17.429 17.384 17.254 17.167 17.122 17.062 16.989 16.934 16.864 16.799 16.732 16.637 16.547 16.474 16.372 16.294 16.197 16.094 16.004 15.907 15.852 15.784 15.727 15.672 15.629 15.617 15.617 15.627 15.672 15.692 15.722 15.689 15.709 15.702 15.732 15.719 15.729 15.757 15.729 15.714 15.697 15.697 15.674 15.662 15.622 15.614 15.592 15.549 15.497 15.464 15.432 15.404 15.344 15.302 15.247 15.217 15.134 15.077 15.029 14.962 14.902 14.837 14.799 14.767 14.699 14.919 15.904 16.492 15.932 14.789 15.007 15.352 15.369 14.947 14.074 13.887 13.854 13.799 13.679 13.619 13.564 13.507 13.427 13.359 13.324 13.257 13.197 13.139 13.074 13.042 12.969 12.912 12.832 12.754 12.677 12.589 12.524 12.429 12.377 12.297 12.212 12.132 12.059 11.992 11.904 11.834 11.734 11.654 11.507 11.409 11.364 11.269 11.152 11.059 10.942 10.807 10.724 10.637 10.534 10.464 10.357 10.282 10.177 10.079
24.922 24.9 25.092 25.11 25.057 24.98 25.15 25.237 25.367 25.715 25.287 25.485 25.485 25.53 25.55 25.72 25.677 25.66 25.525 26.237 26.63 25.787 25.73 25.702 26.152 26.042 26.027 26.215 30.042 30.945 26.275 25.902 25.945 26.012 26.017 26.05 26.075 26.095 26.125 26.13 26.155 26.24 26.277 26.207 26.192 26.2 26.222 26.207 26.16 26.165 26.255 26.235 26.18 26.182 26.18 26.122 26.122 26.135 26.162 26.142 26.097 26.09 26.122 26.14 26.112 26.087 26.127 26.15 26.045 25.982 26.365 26.265 25.88 25.527 25.125 24.907 23.417 22.542 22.46 22.475 23.22 23.805 24.277 24.71 25.267 25.195 25.587 25.777 25.72 25.69 25.655 25.642 25.64 25.6 25.67 25.74 25.79 25.79 26.07 26.447 26.015 25.495 25.467 25.472 25.475 25.38 25.65 25.59 25.485 25.377 26.642 25.742 27.895 27.582 25.435 27.655 26.565 27.282 26.99 25.745 25.737 25.902 26.25 27.08 38.49 48.125 46.712 29.305 37.927 48.285 34.195 44.177 46.977 43.602 32.087 41.87 36.832 25.982 31.407 38.487 45.312 45.495 32.89 27.377 26.252 26.162 26.352 26.255 26.04 25.967 25.874 25.699 25.729 25.694 25.677 25.614 25.542 25.477 25.537 25.537 25.524 25.587 25.502 25.289 25.239 25.259 25.237 25.192 25.249 25.137 25.107 24.989 24.987 24.952 24.769 24.577 24.497 24.424 24.332 24.299 24.222 24.177 24.102 24.072 23.989 23.867 23.809 23.754 23.797 23.699 23.577 23.497 23.489 23.454 23.354 23.177 23.129 23.077 23.057 22.827 22.837 22.787 22.767 22.754 22.767 22.714 22.577 22.567 22.474 22.649 22.637 22.609 22.387 22.522 22.402 22.427 22.364 22.402 22.327 22.219 22.084 22.022 22.014 22.014 21.994 21.977 21.972 21.907 21.899 21.867 21.927 22.059 22.087 21.929 21.922 21.902 21.859 21.809 21.732 21.664 21.497 21.439 21.352 21.302 21.339 21.469 21.882 22.107 21.504 21.574 21.964 22.234 25.669 29.594 26.939 23.357 21.884 20.199 19.992 20.029 19.987 20.034 22.012 25.167 22.127 22.174 23.102 21.469 20.182 20.112 20.082 20.069 20.032 19.964 19.942 19.874 19.827 19.759 19.647 19.537 19.464 19.367 19.269 19.204 19.159 19.059 18.969 18.912 18.839 18.807 18.744 18.732 18.694 18.652 18.647 18.619 18.577 18.529 18.487 18.434 18.407 18.329 18.262 18.239 18.179 18.147 18.082 18.042 17.992 17.889 17.852 17.802 17.784 17.757 17.729 17.687 17.674 17.659 17.607 17.562 17.534 17.499 17.462 17.422 17.349 17.334 17.302 17.297 17.237 17.102 17.034 16.979 16.889 16.847 16.792 16.732 16.664 16.602 16.517 16.432 16.352 16.259 16.179 16.087 15.979 15.877 15.794 15.714 15.632 15.594 15.532 15.482 15.449 15.457 15.469 15.499 15.499 15.554 15.534 15.517 15.542 15.539 15.539 15.552 15.557 15.552 15.544 15.529 15.519 15.524 15.472 15.454 15.452 15.412 15.397 15.342 15.312 15.267 15.254 15.202 15.134 15.127 15.059 14.969 14.924 14.894 14.829 14.734 14.697 14.647 14.627 14.594 14.844 15.492 16.302 15.202 14.482 14.609 14.942 14.617 13.994 13.744 13.689 13.639 13.584 13.494 13.439 13.369 13.302 13.252 13.182 13.132 13.064 13.042 12.969 12.912 12.902 12.842 12.747 12.664 12.574 12.512 12.437 12.357 12.279 12.219 12.117 12.039 11.977 11.877 11.807 11.734 11.659 11.567 11.487 11.364 11.282 11.214 11.114 10.999 10.902 10.807 10.684 10.607 10.507 10.402 10.324 10.224 10.169 10.072 9.989
24.915 24.95 25.087 25.162 25.005 25.015 25.125 25.187 26.257 26.697 25.325 25.482 25.48 25.53 25.577 25.537 25.62 25.672 25.607 25.785 25.867 25.792 25.802 25.775 25.75 25.787 25.777 25.797 30.702 27.825 25.935 25.927 25.942 26.012 26.07 26.067 26.09 26.112 26.137 26.157 26.122 26.21 26.292 26.255 26.232 26.205 26.232 26.202 26.165 26.162 26.205 26.252 26.192 26.18 26.165 26.122 26.107 26.122 26.155 26.15 26.112 26.087 26.11 26.102 26.1 26.087 26.095 26.647 26.125 26.025 26.242 26.187 25.972 25.43 24.865 24.972 23.932 22.695 22.45 22.38 22.907 23.692 24.222 24.595 25.282 25.32 25.382 25.655 25.625 25.645 25.652 25.592 25.572 25.557 25.567 25.68 25.717 25.742 25.647 25.85 25.712 25.45 25.367 25.537 25.395 25.275 25.507 25.65 25.472 25.365 25.41 25.322 25.367 26.502 29.257 37.195 38.975 25.857 25.895 26.275 27.14 26.035 25.76 26.65 37.832 44.012 41.39 33.817 42.605 45.792 32.165 43.6 46.452 45.055 37.19 46.845 27.037 34.625 45.522 37.675 34.95 32.847 40.205 35.687 28.68 26.157 26.122 26.075 26.117 25.995 25.819 25.672 25.752 25.657 25.569 25.549 25.492 25.444 25.429 25.437 25.392 25.714 25.564 25.199 25.197 25.177 25.152 25.152 25.272 25.107 25.154 24.994 24.949 24.937 24.902 24.527 24.337 24.324 24.197 24.122 24.067 24.052 23.997 23.877 23.794 23.747 23.659 23.619 23.554 23.512 23.497 23.407 23.499 23.547 23.224 23.087 23.164 23.084 22.837 22.789 22.794 22.819 22.752 22.812 22.649 22.624 22.724 22.599 22.547 22.509 22.512 22.474 22.377 22.317 22.219 22.357 22.217 22.349 22.134 22.019 21.952 21.959 21.904 21.899 21.894 21.939 21.942 21.884 21.829 21.822 21.859 21.884 21.887 21.807 21.822 21.869 21.854 21.852 21.667 21.454 21.364 21.302 21.207 21.172 21.179 21.449 22.602 21.679 21.829 21.407 21.244 22.207 24.562 22.622 24.994 25.322 20.667 20.057 19.909 19.919 19.887 19.937 21.019 22.077 23.037 22.739 22.892 21.262 20.039 19.984 19.967 19.924 19.902 19.854 19.819 19.772 19.689 19.614 19.499 19.434 19.342 19.242 19.124 19.084 19.019 18.932 18.837 18.769 18.719 18.669 18.602 18.589 18.552 18.514 18.482 18.447 18.417 18.374 18.339 18.282 18.244 18.169 18.119 18.082 18.042 18.002 17.959 17.892 17.842 17.759 17.722 17.674 17.647 17.617 17.574 17.542 17.537 17.504 17.462 17.417 17.387 17.349 17.322 17.269 17.212 17.177 17.142 17.134 17.104 16.979 16.882 16.809 16.747 16.702 16.654 16.592 16.524 16.454 16.372 16.292 16.209 16.142 16.032 15.947 15.852 15.739 15.649 15.577 15.499 15.434 15.397 15.342 15.287 15.294 15.307 15.294 15.317 15.349 15.352 15.339 15.342 15.354 15.362 15.357 15.407 15.369 15.367 15.374 15.374 15.349 15.324 15.299 15.282 15.274 15.224 15.207 15.167 15.119 15.089 15.022 14.987 14.952 14.889 14.814 14.752 14.724 14.669 14.597 14.544 14.509 14.489 14.464 14.639 15.809 16.354 15.894 14.949 14.494 14.729 14.192 13.682 13.549 13.524 13.462 13.407 13.284 13.259 13.189 13.117 13.067 13.009 12.959 12.899 12.869 12.792 12.752 12.732 12.674 12.577 12.497 12.409 12.372 12.267 12.202 12.102 12.027 11.959 11.859 11.814 11.729 11.637 11.562 11.522 11.432 11.342 11.249 11.139 11.059 10.989 10.889 10.789 10.667 10.532 10.477 10.379 10.272 10.202 10.114 10.044 9.957 9.859
24.92 25.02 25.015 25.135 25.045 25.112 25.092 25.445 25.9 25.855 25.385 25.43 25.425 25.45 26.035 25.755 25.61 25.71 25.692 25.81 25.87 25.82 25.817 25.797 25.822 25.882 25.86 25.972 29.085 26.162 26 25.955 25.952 26.017 26.065 26.087 26.087 26.112 26.145 26.147 26.137 26.177 26.265 26.292 26.225 26.205 26.24 26.225 26.21 26.172 26.177 26.245 26.23 26.182 26.185 26.142 26.112 26.112 26.135 26.16 26.127 26.11 26.122 26.1 26.097 26.035 26.077 26.275 26.165 26.082 25.982 26.082 25.975 25.512 24.912 25.212 24.257 22.832 22.472 22.397 22.605 23.775 23.885 24.412 25.002 25.392 25.292 25.637 25.622 25.59 25.592 25.59 25.617 25.555 25.46 25.517 25.537 25.497 25.552 25.542 25.41 25.337 25.355 25.495 26.1 29.53 26.852 25.617 25.52 25.372 25.302 25.74 31.432 35.04 28.68 44.257 44.827 34.052 28.067 27.71 27.08 27.105 25.712 25.722 27.437 26.732 29.572 28.937 37.677 40.772 28.702 43.83 41.327 35.415 47.665 48.442 27.562 36.972 45.612 27.882 26.2 32.567 41.855 34.99 26.77 25.887 25.897 26.255 26.415 26.64 25.959 25.617 25.719 25.674 25.632 25.499 25.484 25.427 25.359 25.292 25.317 25.542 25.397 25.174 25.144 25.092 25.039 25.084 25.279 24.992 24.894 24.989 24.904 24.792 24.837 24.479 24.262 24.172 24.074 23.992 23.967 23.932 23.854 23.759 23.682 23.722 23.699 23.507 23.434 23.489 23.474 23.344 23.317 23.237 23.152 22.989 22.964 22.907 22.742 22.679 22.694 22.614 22.582 22.522 22.587 22.479 22.469 22.434 22.407 22.199 22.259 22.407 22.292 22.177 22.137 22.157 22.189 22.169 22.004 21.927 21.907 21.899 21.864 21.834 21.914 21.899 21.864 21.804 21.774 21.722 21.799 21.794 21.724 21.684 21.699 21.687 21.772 21.744 21.557 21.349 21.302 21.154 21.052 21.269 21.304 21.192 21.579 21.729 21.629 21.097 21.037 21.187 21.059 21.002 23.987 21.069 20.509 19.962 19.807 19.824 19.787 20.217 21.234 21.159 21.374 22.934 23.012 21.332 19.902 19.834 19.824 19.789 19.747 19.737 19.679 19.627 19.579 19.492 19.377 19.297 19.209 19.119 19.019 18.974 18.909 18.809 18.729 18.652 18.587 18.522 18.489 18.462 18.407 18.369 18.352 18.294 18.242 18.204 18.189 18.152 18.102 18.024 18.002 17.954 17.899 17.847 17.819 17.764 17.699 17.629 17.569 17.519 17.477 17.479 17.417 17.369 17.374 17.347 17.302 17.257 17.239 17.214 17.172 17.139 17.074 17.032 16.997 16.964 16.937 16.832 16.754 16.669 16.607 16.564 16.482 16.452 16.409 16.342 16.237 16.134 16.079 15.989 15.904 15.809 15.717 15.594 15.517 15.444 15.374 15.289 15.262 15.197 15.154 15.129 15.142 15.149 15.139 15.169 15.172 15.172 15.179 15.187 15.197 15.212 15.242 15.229 15.224 15.212 15.199 15.189 15.174 15.154 15.137 15.122 15.079 15.077 15.009 14.969 14.929 14.857 14.842 14.794 14.749 14.677 14.617 14.559 14.522 14.482 14.444 14.377 14.402 14.347 14.497 15.607 15.892 15.514 15.009 14.304 13.977 13.647 13.479 13.392 13.357 13.304 13.209 13.137 13.089 13.004 12.977 12.892 12.839 12.812 12.754 12.684 12.642 12.607 12.577 12.499 12.419 12.327 12.262 12.197 12.099 12.034 11.952 11.857 11.772 11.714 11.642 11.594 11.507 11.432 11.389 11.272 11.189 11.089 10.989 10.944 10.869 10.757 10.642 10.534 10.412 10.314 10.267 10.164 10.094 9.992 9.912 9.832 9.751
24.98 24.952 25.062 25.085 25.105 25.147 25.25 25.137 25.202 25.832 26.13 25.482 25.455 25.515 25.747 25.725 25.617 25.697 25.687 25.79 25.77 25.82 25.932 25.822 25.857 25.895 25.88 25.885 25.977 26.425 26.147 26.032 25.98 25.977 26.062 26.1 26.12 26.127 26.17 26.172 26.16 26.157 26.217 26.31 26.3 26.227 26.23 26.232 26.232 26.205 26.167 26.247 26.235 26.195 26.192 26.162 26.132 26.112 26.11 26.157 26.14 26.11 26.107 26.112 26.087 26.065 26.065 26.602 26.082 26.065 25.992 26.35 26.082 26.03 25.09 24.78 24.575 23.207 22.47 22.432 22.457 23.332 23.915 24.225 24.855 25.26 25.112 25.397 25.58 25.542 25.532 25.527 25.522 25.465 25.447 28.105 29.63 25.407 25.455 25.545 25.457 25.422 25.37 25.407 25.495 26.532 25.3 25.532 25.415 25.317 25.275 27.2 41 36.882 35.622 41.367 43.245 30.54 26.135 25.835 30.94 27.512 25.68 25.677 25.6 25.815 27.36 38.102 46.59 38.125 28.56 30.832 27.715 36.69 43.65 46.512 37.945 41.647 48.172 37.15 33.095 37.06 43.035 38.442 29.615 25.802 26.067 26.362 26.757 26.907 26.269 25.572 25.622 25.687 25.502 25.442 25.397 25.337 25.322 25.309 25.349 25.462 25.307 25.202 25.189 25.092 24.934 25.022 25.157 24.979 24.869 24.819 24.779 24.704 24.659 24.597 24.147 24.079 23.947 23.897 23.839 23.794 23.742 23.662 23.627 23.742 23.544 23.359 23.277 23.359 23.254 23.237 23.137 23.072 22.904 22.837 22.847 22.787 22.694 22.622 22.502 22.454 22.467 22.367 22.372 22.294 22.307 22.272 22.224 22.114 22.159 22.257 22.142 21.947 21.952 22.007 22.107 21.974 21.899 21.887 21.837 21.759 21.777 21.759 21.779 21.834 21.727 21.712 21.664 21.617 21.659 21.647 21.632 21.572 21.599 21.642 21.689 21.534 21.442 21.329 21.117 21.014 20.967 21.659 21.837 21.184 22.349 22.122 21.044 20.937 21.334 21.069 20.889 20.837 20.847 20.899 20.447 19.829 19.707 19.699 19.694 19.739 20.272 20.244 20.564 22.352 22.619 21.057 19.732 19.689 19.654 19.637 19.594 19.569 19.552 19.482 19.437 19.334 19.242 19.162 19.099 19.014 18.907 18.857 18.757 18.694 18.599 18.537 18.462 18.424 18.372 18.324 18.259 18.202 18.177 18.159 18.087 18.047 18.042 17.989 17.944 17.869 17.842 17.822 17.762 17.724 17.687 17.619 17.529 17.477 17.412 17.372 17.319 17.319 17.282 17.232 17.212 17.194 17.154 17.114 17.104 17.059 17.022 16.982 16.927 16.889 16.849 16.842 16.804 16.689 16.607 16.532 16.487 16.432 16.362 16.329 16.259 16.204 16.114 16.044 15.937 15.862 15.772 15.667 15.574 15.464 15.387 15.322 15.232 15.167 15.102 15.037 15.007 14.972 14.979 14.992 14.994 15.007 15.002 15.009 15.022 15.017 15.004 15.027 15.059 15.062 15.049 15.064 15.032 15.032 15.027 15.019 14.987 14.969 14.954 14.914 14.874 14.817 14.767 14.709 14.687 14.659 14.602 14.552 14.479 14.427 14.379 14.342 14.297 14.259 14.277 14.217 14.394 15.352 16.434 15.474 14.617 13.959 13.702 13.442 13.287 13.219 13.187 13.114 13.022 12.944 12.887 12.827 12.799 12.737 12.687 12.637 12.572 12.512 12.467 12.429 12.434 12.349 12.262 12.159 12.089 11.999 11.909 11.839 11.769 11.709 11.632 11.537 11.462 11.424 11.354 11.289 11.219 11.137 11.049 10.942 10.859 10.789 10.727 10.614 10.499 10.399 10.287 10.212 10.127 10.052 9.979 9.874 9.802 9.739 9.631
25.082 25.035 25.18 25.042 25.09 25.227 25.167 25.137 25.285 25.342 25.947 25.432 25.46 25.755 25.64 25.642 25.595 25.652 25.652 25.76 27.68 25.965 25.957 25.83 25.837 25.867 25.942 25.89 25.877 26.795 27.11 26.317 26.027 25.987 26.017 26.077 26.085 26.125 26.175 26.19 26.175 26.15 26.205 26.305 26.327 26.27 26.232 26.212 26.197 26.192 26.18 26.147 26.18 26.207 26.18 26.15 26.132 26.09 26.102 26.13 26.137 26.107 26.097 26.087 26.097 26.07 26.002 26.917 26.11 25.945 26.387 27.89 26.532 25.985 25.542 25.075 24.292 23.585 22.447 22.4 22.347 23.085 23.625 24.38 25.075 25.16 25.332 25.285 25.507 25.527 25.537 25.625 25.58 25.48 25.497 26.452 25.497 25.395 25.392 25.462 25.507 25.5 25.38 25.337 25.375 25.305 25.255 25.432 25.46 30.042 34.102 27.367 36.7 28.415 38.085 32.295 31.177 27.885 25.687 25.602 25.567 25.587 25.665 25.712 25.492 25.652 30.715 30.495 44.24 37.082 38.72 37.977 38.272 45.16 39.617 45.815 44.077 41.742 44.995 46.262 41.552 38.432 41.83 40.302 26.705 25.842 26.055 26.6 27.277 27.495 26.327 25.519 25.652 25.532 25.427 25.367 25.352 25.287 25.297 25.267 25.264 25.509 25.524 25.357 25.314 25.179 24.994 25.104 24.969 24.882 24.764 24.719 24.759 24.592 24.459 24.379 24.044 24.009 23.869 23.729 23.707 23.632 23.567 23.514 23.489 23.554 23.322 23.169 23.209 23.287 23.122 23.034 22.924 22.897 22.937 22.722 22.692 22.667 22.599 22.422 22.374 22.377 22.402 22.289 22.244 22.237 22.159 22.097 22.034 22.007 21.977 22.042 21.884 21.802 21.762 21.789 21.854 21.829 21.817 21.757 21.757 21.704 21.709 21.647 21.622 21.637 21.634 21.589 21.557 21.499 21.542 21.547 21.594 21.569 21.509 21.617 21.459 21.387 21.304 21.222 21.059 20.879 21.117 21.804 21.544 21.547 21.952 21.322 21.412 20.947 20.974 21.179 20.802 20.807 22.144 20.759 20.224 19.692 19.572 19.602 19.537 19.594 20.237 20.362 21.087 22.232 21.789 20.239 19.594 19.549 19.512 19.494 19.452 19.424 19.404 19.364 19.302 19.237 19.152 19.069 18.967 18.892 18.812 18.739 18.644 18.582 18.489 18.399 18.329 18.277 18.224 18.184 18.122 18.057 18.019 17.979 17.937 17.892 17.884 17.809 17.792 17.749 17.699 17.669 17.634 17.582 17.522 17.477 17.382 17.334 17.287 17.234 17.202 17.187 17.122 17.079 17.057 17.032 17.014 16.984 16.942 16.909 16.879 16.844 16.809 16.754 16.729 16.704 16.657 16.557 16.467 16.382 16.317 16.277 16.229 16.157 16.119 16.059 15.979 15.894 15.797 15.732 15.622 15.542 15.437 15.354 15.269 15.187 15.114 15.044 14.967 14.902 14.882 14.864 14.844 14.862 14.837 14.849 14.864 14.872 14.872 14.879 14.877 14.892 14.917 14.929 14.917 14.919 14.889 14.892 14.862 14.844 14.852 14.837 14.809 14.757 14.704 14.684 14.622 14.587 14.559 14.502 14.464 14.442 14.364 14.289 14.249 14.199 14.167 14.139 14.162 14.082 14.492 15.667 15.919 14.827 14.142 13.632 13.454 13.267 13.117 13.024 13.014 12.934 12.862 12.782 12.717 12.657 12.597 12.552 12.497 12.459 12.397 12.349 12.289 12.262 12.227 12.189 12.092 11.999 11.919 11.822 11.747 11.672 11.599 11.534 11.464 11.404 11.342 11.264 11.177 11.117 11.047 11.004 10.914 10.797 10.722 10.662 10.582 10.479 10.354 10.269 10.159 10.082 10.009 9.939 9.839 9.769 9.699 9.594 9.496
25.42 27.102 25.09 25.04 25.082 25.177 25.197 25.187 25.217 25.317 25.36 25.412 25.487 25.53 25.59 25.59 25.627 25.69 28.02 37.887 32.375 25.847 25.96 25.757 25.812 25.875 26.01 26.99 26.192 25.93 26.14 26.13 26.075 26.047 26.027 26.085 26.107 26.11 26.172 26.217 26.212 26.17 26.207 26.28 26.315 26.305 26.26 26.205 26.205 26.182 26.177 26.162 26.172 26.177 26.165 26.15 26.142 26.117 26.092 26.115 26.13 26.092 26.07 26.085 26.075 26.055 25.972 27.762 26.435 25.89 25.99 26.462 26.35 25.915 25.367 24.827 24.715 24.072 22.66 22.407 22.352 22.682 23.565 24.215 24.62 25.242 25.327 25.345 25.74 25.577 25.472 25.502 25.51 25.427 25.432 25.447 25.36 25.445 25.417 25.407 25.452 25.522 25.405 25.335 25.395 25.467 25.295 25.302 37.777 46.442 48.522 39.365 28.237 26.195 36.657 31.017 25.822 25.49 25.662 25.627 25.585 25.56 25.552 25.597 25.437 29.28 43.342 44.292 45.3 33.895 36.027 33.237 36.322 40.71 29.942 36.88 40.382 35.18 37.03 42.047 43.95 39.48 39.765 35.767 26.135 26.16 25.92 26.352 27.052 27.257 26.574 25.512 25.672 25.579 25.447 25.409 25.299 25.267 25.297 25.282 25.449 25.579 25.382 25.542 25.389 25.172 24.884 25.157 24.962 24.824 24.804 24.679 24.619 24.439 24.464 24.129 23.999 23.894 23.767 23.669 23.512 23.487 23.399 23.352 23.294 23.224 23.102 23.084 23.134 23.147 22.917 22.779 22.812 22.774 22.769 22.644 22.654 22.599 22.559 22.369 22.342 22.337 22.272 22.187 22.132 22.124 22.077 21.977 21.917 21.899 21.902 21.927 21.802 21.697 21.684 21.717 21.704 21.689 21.647 21.607 21.587 21.569 21.574 21.547 21.519 21.549 21.509 21.457 21.417 21.404 21.429 21.404 21.404 21.452 21.422 21.347 21.347 21.204 21.169 20.974 20.849 20.802 21.432 21.942 21.599 22.924 22.854 21.034 21.039 20.729 22.204 21.562 20.717 20.777 20.887 20.997 20.117 19.559 19.439 19.452 19.434 19.467 20.259 20.042 19.947 21.359 21.054 19.684 19.464 19.394 19.377 19.354 19.302 19.302 19.279 19.244 19.209 19.127 19.039 18.982 18.887 18.807 18.712 18.614 18.537 18.457 18.359 18.267 18.207 18.162 18.102 18.027 17.999 17.929 17.849 17.802 17.782 17.737 17.707 17.677 17.629 17.579 17.542 17.497 17.469 17.432 17.379 17.314 17.249 17.162 17.137 17.079 17.062 17.022 16.977 16.954 16.897 16.879 16.867 16.834 16.772 16.757 16.737 16.692 16.664 16.587 16.579 16.559 16.507 16.404 16.312 16.254 16.197 16.164 16.092 16.037 15.999 15.924 15.837 15.774 15.679 15.599 15.509 15.424 15.342 15.242 15.149 15.067 14.994 14.959 14.879 14.792 14.789 14.732 14.724 14.729 14.707 14.734 14.719 14.712 14.729 14.732 14.749 14.752 14.759 14.774 14.787 14.757 14.747 14.742 14.769 14.729 14.712 14.682 14.652 14.614 14.577 14.527 14.489 14.437 14.459 14.372 14.334 14.299 14.229 14.174 14.117 14.064 14.042 14.029 14.054 13.974 14.349 15.484 15.992 15.674 13.899 13.469 13.309 13.099 12.957 12.854 12.819 12.777 12.669 12.592 12.554 12.489 12.449 12.389 12.329 12.289 12.234 12.174 12.119 12.079 12.077 12.034 11.927 11.824 11.739 11.649 11.587 11.512 11.439 11.382 11.334 11.252 11.167 11.102 11.039 10.972 10.914 10.857 10.774 10.654 10.579 10.519 10.429 10.344 10.232 10.127 10.029 9.962 9.904 9.807 9.747 9.667 9.574 9.482 9.381
25.212 25.702 25.032 25.017 25.112 25.27 25.295 25.267 25.317 25.507 25.375 25.487 25.502 25.56 25.715 25.665 25.757 25.887 32.135 35.457 26.237 25.86 25.88 25.792 25.907 26.917 28.187 25.962 25.947 26.34 26.435 27.927 26.262 26.142 26.075 26.055 26.125 26.142 26.18 26.247 26.212 26.185 26.187 26.23 26.265 26.317 26.27 26.227 26.19 26.172 26.182 26.195 26.142 26.172 26.177 26.157 26.132 26.112 26.11 26.107 26.125 26.105 26.075 26.075 26.055 26.03 25.982 26.77 27.222 25.917 25.907 26.09 26.407 26.082 25.46 24.957 24.26 24.447 23.125 22.417 22.415 22.457 23.76 23.872 24.41 24.955 25.185 25.05 26.415 25.835 25.46 25.482 25.535 25.445 25.397 25.402 25.36 25.51 25.52 25.497 25.63 25.5 25.545 25.552 25.422 25.485 25.44 25.555 37.272 44.717 47.075 44.342 26.305 26.55 29.162 28.267 25.275 25.37 25.452 25.457 25.57 25.442 25.445 25.507 25.442 33.287 42.527 37.88 43.802 39.332 28.572 26.987 39.592 31.657 28.34 27.905 38.362 30.93 30.577 30.282 39.875 39.045 34.562 30.657 29.162 25.817 25.98 26.247 26.727 26.88 26.357 25.477 25.644 25.547 25.444 25.459 25.372 25.424 25.407 25.322 25.484 25.304 25.164 25.122 25.157 25.007 24.769 25.052 25.087 25.062 24.689 24.657 24.539 24.547 24.362 24.039 24.032 23.747 23.654 23.552 23.442 23.364 23.347 23.249 23.152 23.057 23.004 23.062 23.039 23.029 22.772 22.739 22.837 22.737 22.614 22.529 22.517 22.477 22.329 22.294 22.299 22.247 22.139 22.057 22.034 22.027 21.974 21.872 21.809 21.847 21.774 21.739 21.664 21.597 21.569 21.569 21.562 21.522 21.522 21.502 21.497 21.424 21.447 21.394 21.382 21.374 21.362 21.334 21.317 21.324 21.302 21.279 21.264 21.227 21.204 21.142 21.149 21.114 21.049 20.872 20.777 20.722 21.234 21.862 21.974 21.762 21.159 21.279 20.627 22.284 21.224 20.854 21.274 20.504 20.442 20.469 19.919 19.424 19.284 19.384 19.304 19.329 20.124 19.827 19.954 21.687 20.387 19.444 19.302 19.257 19.244 19.224 19.182 19.159 19.162 19.154 19.099 19.019 18.927 18.884 18.774 18.732 18.592 18.522 18.427 18.334 18.222 18.132 18.054 18.017 17.952 17.882 17.854 17.767 17.709 17.669 17.612 17.569 17.549 17.504 17.452 17.424 17.384 17.339 17.307 17.264 17.222 17.149 17.092 17.012 16.989 16.919 16.902 16.852 16.829 16.812 16.754 16.729 16.719 16.677 16.634 16.594 16.592 16.549 16.529 16.472 16.429 16.409 16.349 16.254 16.157 16.104 16.047 16.014 15.959 15.899 15.854 15.809 15.724 15.639 15.559 15.479 15.402 15.314 15.237 15.127 15.044 14.962 14.907 14.837 14.772 14.699 14.667 14.629 14.612 14.594 14.594 14.612 14.609 14.574 14.579 14.599 14.602 14.592 14.629 14.622 14.629 14.624 14.609 14.604 14.584 14.557 14.569 14.509 14.509 14.469 14.422 14.387 14.364 14.332 14.309 14.239 14.177 14.142 14.094 14.034 13.987 13.932 13.912 13.872 13.902 13.822 14.129 15.077 16.502 16.392 15.539 16.239 13.489 12.989 12.759 12.689 12.624 12.584 12.484 12.419 12.384 12.359 12.284 12.244 12.207 12.129 12.079 11.999 11.954 11.919 11.894 11.839 11.712 11.617 11.547 11.489 11.409 11.374 11.314 11.242 11.169 11.089 11.014 10.944 10.917 10.849 10.792 10.727 10.639 10.507 10.459 10.372 10.302 10.194 10.099 10.029 9.914 9.839 9.764 9.702 9.632 9.549 9.447 9.372 9.274
27.92 25.177 25.047 25.085 25.897 25.222 25.28 25.305 25.385 25.39 25.472 25.445 25.545 25.585 25.81 25.692 25.76 26.337 32.135 36.497 28.55 26.067 25.917 25.84 25.917 25.94 25.965 25.98 26.017 25.97 26.487 28.067 26.5 26.16 26.12 26.087 26.115 26.15 26.172 26.22 26.237 26.237 26.175 26.25 26.27 26.312 26.312 26.235 26.2 26.18 26.187 26.185 26.177 26.155 26.162 26.195 26.145 26.11 26.112 26.1 26.112 26.097 26.052 26.045 26.035 25.992 25.962 25.907 25.877 26.157 27.33 26.482 26.412 26.13 25.76 25.102 24.41 24.955 24.367 22.437 22.395 22.332 23.055 23.877 24.262 24.807 25.245 25.16 27.035 25.572 25.502 25.582 25.805 25.502 25.41 25.37 25.415 25.515 25.475 25.397 25.77 25.442 25.497 25.732 25.687 25.615 25.4 26.165 29.895 40.77 42.805 38.33 29.317 25.237 25.312 25.28 25.18 25.302 25.922 25.382 25.422 29.272 30.262 28.087 25.49 27.59 34.325 28.715 30.825 30.437 26.592 29.207 44.462 44.002 30.997 33.56 39.637 31.72 36.825 29.87 40.25 39.015 26.027 30.382 31.69 26.325 27.055 26.337 26.44 26.887 26.294 25.449 25.549 25.559 25.504 25.352 25.664 25.614 25.464 25.524 25.462 25.207 25.142 24.982 25.064 24.874 24.649 24.899 24.942 24.717 24.657 24.572 24.317 24.252 24.069 23.902 23.919 23.657 23.537 23.429 23.354 23.292 23.237 23.152 23.264 23.819 23.119 23.124 23.062 22.859 22.742 22.712 22.597 22.529 22.439 22.409 22.314 22.352 22.272 22.217 22.127 22.094 22.052 22.007 22.037 21.944 21.889 21.772 21.722 21.702 21.667 21.604 21.544 21.497 21.452 21.474 21.434 21.429 21.417 21.392 21.384 21.357 21.332 21.279 21.344 21.277 21.299 21.257 21.239 21.209 21.329 21.217 21.147 21.067 21.042 20.932 20.912 20.982 20.929 20.767 20.684 20.539 20.967 21.379 22.187 21.469 22.134 21.782 20.692 21.742 20.504 21.072 21.104 21.989 21.362 21.574 19.784 19.267 19.172 19.239 19.134 19.254 19.957 19.859 19.809 20.449 19.597 19.269 19.127 19.094 19.087 19.082 19.049 19.039 19.064 19.042 18.987 18.904 18.852 18.759 18.662 18.589 18.467 18.394 18.297 18.184 18.079 18.017 17.934 17.864 17.822 17.769 17.707 17.617 17.547 17.494 17.467 17.412 17.394 17.354 17.307 17.277 17.237 17.194 17.159 17.109 17.077 17.039 16.952 16.889 16.842 16.797 16.759 16.709 16.672 16.677 16.612 16.604 16.549 16.527 16.494 16.482 16.454 16.407 16.367 16.354 16.317 16.267 16.224 16.127 16.022 15.934 15.917 15.877 15.814 15.752 15.714 15.677 15.597 15.524 15.467 15.364 15.284 15.204 15.137 15.024 14.954 14.879 14.789 14.739 14.667 14.629 14.582 14.547 14.507 14.502 14.499 14.504 14.497 14.459 14.452 14.452 14.449 14.452 14.467 14.467 14.467 14.447 14.449 14.439 14.424 14.394 14.397 14.364 14.354 14.307 14.264 14.227 14.194 14.172 14.129 14.092 14.022 13.982 13.937 13.899 13.849 13.789 13.747 13.722 13.732 13.652 13.934 14.954 15.072 15.849 15.497 13.879 13.129 12.834 12.634 12.512 12.452 12.419 12.309 12.267 12.222 12.187 12.119 12.077 12.052 11.992 11.917 11.837 11.787 11.764 11.709 11.654 11.537 11.452 11.407 11.327 11.269 11.202 11.139 11.069 11.012 10.962 10.879 10.819 10.792 10.719 10.652 10.604 10.534 10.394 10.322 10.252 10.179 10.077 9.994 9.897 9.804 9.719 9.657 9.579 9.517 9.422 9.339 9.234 9.169
25.2 27.04 35.617 27.22 27.307 25.205 25.527 25.46 25.342 25.47 25.54 25.53 25.685 25.67 25.765 25.797 26.152 27.102 26.922 29.712 30.31 28.3 25.92 25.842 26.247 26.112 26.182 26.055 26.062 26.115 26.055 26.82 26.775 26.182 26.17 26.137 26.092 26.142 26.197 26.227 26.245 26.235 26.187 26.257 26.265 26.277 26.33 26.27 26.235 26.195 26.182 26.195 26.197 26.167 26.142 26.185 26.165 26.117 26.1 26.087 26.105 26.1 26.037 26.025 26.022 25.992 25.957 25.9 25.88 25.862 30.675 28.082 26.957 26.545 25.782 25.215 24.565 24.67 24.667 22.57 22.362 22.302 22.695 26.547 25.812 24.687 25.227 25.542 25.727 25.385 25.495 25.557 25.5 25.517 28.522 27.372 25.422 25.45 25.435 25.455 25.545 25.352 25.495 25.507 25.487 25.657 25.377 25.405 27.625 28.56 28.78 27.322 25.642 25.192 25.372 25.047 25.277 25.065 25.205 25.462 26.215 38.877 41.135 35.225 33.875 25.39 25.532 25.772 29.842 34.522 34.017 37.052 47.342 47.687 31.2 43.287 45.232 34.285 39.747 35.767 33.207 25.272 26.887 28.197 27.97 25.395 26.17 26.35 26.6 27.002 26.177 25.342 25.534 25.519 25.502 25.397 25.339 25.282 25.289 25.259 25.234 25.047 24.894 24.792 24.742 24.649 24.602 24.564 24.572 24.592 24.457 24.229 24.159 24.109 23.919 23.802 23.692 23.564 23.417 23.292 23.199 23.197 23.092 22.994 23.269 23.792 23.014 22.952 22.917 22.709 22.607 22.582 22.502 22.434 22.344 22.292 22.239 22.254 22.184 22.169 22.107 22.057 21.999 22.012 21.972 21.952 21.792 21.674 21.612 21.582 21.574 21.502 21.394 21.354 21.324 21.344 21.327 21.329 21.302 21.284 21.237 21.244 21.207 21.187 21.247 21.207 21.214 21.159 21.152 21.137 21.122 21.084 21.054 20.962 20.919 20.832 20.777 20.737 20.689 20.592 20.499 20.399 20.564 20.987 21.837 21.487 22.609 20.674 23.204 22.689 20.219 20.369 20.479 21.072 22.714 22.844 19.807 19.082 19.067 19.117 19.122 19.259 20.722 19.574 19.889 20.434 19.677 19.107 18.969 18.952 18.929 18.932 18.914 18.914 18.919 18.892 18.874 18.812 18.732 18.652 18.549 18.477 18.347 18.237 18.137 18.044 17.907 17.872 17.787 17.737 17.699 17.637 17.562 17.459 17.397 17.334 17.309 17.257 17.234 17.192 17.124 17.089 17.057 17.022 16.989 16.947 16.894 16.882 16.824 16.764 16.707 16.637 16.617 16.584 16.564 16.532 16.474 16.464 16.429 16.399 16.357 16.327 16.324 16.292 16.237 16.207 16.159 16.124 16.042 15.977 15.894 15.797 15.769 15.739 15.704 15.629 15.592 15.539 15.479 15.414 15.344 15.279 15.209 15.107 15.034 14.939 14.872 14.797 14.714 14.667 14.582 14.524 14.494 14.454 14.432 14.434 14.379 14.392 14.389 14.339 14.332 14.322 14.304 14.314 14.327 14.337 14.327 14.289 14.274 14.264 14.259 14.229 14.234 14.217 14.189 14.142 14.084 14.054 14.042 13.977 13.957 13.899 13.852 13.812 13.767 13.727 13.682 13.627 13.562 13.542 13.552 13.477 13.774 14.574 15.252 15.044 15.317 13.457 12.784 12.592 12.422 12.332 12.277 12.222 12.164 12.119 12.049 12.037 11.984 11.942 11.909 11.827 11.739 11.697 11.639 11.607 11.544 11.479 11.379 11.289 11.234 11.182 11.122 11.064 11.004 10.944 10.874 10.814 10.744 10.684 10.654 10.582 10.537 10.479 10.384 10.272 10.192 10.124 10.052 9.952 9.869 9.767 9.679 9.627 9.552 9.469 9.387 9.289 9.244 9.134 9.074
27.252 27.815 36.51 26.185 32.715 25.322 25.522 25.517 25.535 25.47 25.545 25.605 25.625 25.71 25.887 25.792 25.752 25.707 28.125 28.327 27.98 26.892 28.332 27.152 26.017 25.955 26.052 26.03 26.047 26.282 26.545 26.125 26.247 27.932 26.62 26.185 26.152 26.127 26.182 26.192 26.21 26.225 26.197 26.235 26.267 26.267 26.3 26.31 26.255 26.215 26.185 26.197 26.21 26.205 26.127 26.137 26.17 26.105 26.08 26.062 26.07 26.07 26.03 26.007 26.012 26.002 26 25.932 27.102 25.895 28.467 28.265 28.895 26.277 25.787 25.677 24.9 25.017 25.12 22.712 22.345 22.39 22.427 23.725 25.645 24.532 25.107 25.297 25.772 25.277 25.477 25.472 25.505 25.575 29.63 27.385 25.412 25.44 25.457 25.415 27.832 25.35 25.515 25.51 25.475 25.25 25.005 25.185 24.92 25.182 25.247 26.082 25.35 25.225 27.447 33.93 33.085 39.34 40.137 33.82 25.887 41.292 45.825 47.265 37.225 25.36 25.452 28.78 39.942 45.092 35.175 38.915 46.507 45.185 34.165 42.837 31.102 30.04 43.38 38.75 27.375 25.525 27.18 26.53 25.422 25.52 26.242 25.692 27.195 26.917 25.992 25.424 25.474 25.559 25.447 25.214 25.162 25.042 25.157 25.147 24.919 24.944 24.814 24.654 24.584 24.524 24.469 24.347 24.299 24.324 24.154 24.067 24.044 24.004 23.822 23.704 23.632 23.492 23.332 23.177 23.089 23.019 22.914 22.852 22.759 22.777 22.914 23.544 24.049 22.732 22.574 22.564 22.487 22.449 22.467 22.219 22.182 22.144 22.169 22.029 22.052 22.019 21.932 22.064 22.069 21.919 21.769 21.604 21.539 21.509 21.489 21.389 21.312 21.254 21.269 21.224 21.244 21.247 21.192 21.149 21.082 21.052 21.099 21.074 21.129 21.124 21.104 21.017 20.992 21.019 20.999 20.974 20.922 20.879 20.789 20.707 20.624 20.572 20.542 20.404 20.357 20.269 20.414 20.747 21.277 22.889 22.407 20.749 22.587 21.984 20.154 21.869 22.989 21.149 20.152 20.227 19.802 18.957 18.969 19.012 19.007 20.222 22.904 22.234 22.964 21.609 19.389 18.969 18.812 18.802 18.797 18.797 18.784 18.744 18.784 18.762 18.739 18.679 18.597 18.529 18.389 18.319 18.179 18.087 17.992 17.897 17.799 17.712 17.637 17.612 17.534 17.464 17.414 17.319 17.264 17.187 17.157 17.102 17.054 17.039 16.977 16.922 16.899 16.877 16.862 16.812 16.772 16.739 16.704 16.614 16.584 16.527 16.477 16.457 16.434 16.412 16.354 16.324 16.294 16.267 16.219 16.177 16.179 16.162 16.079 16.049 15.999 15.972 15.914 15.819 15.742 15.659 15.634 15.619 15.562 15.522 15.474 15.434 15.389 15.317 15.247 15.174 15.107 15.014 14.942 14.869 14.767 14.704 14.632 14.547 14.474 14.422 14.387 14.362 14.327 14.309 14.279 14.257 14.252 14.214 14.179 14.167 14.157 14.144 14.157 14.157 14.139 14.114 14.099 14.094 14.079 14.049 14.054 14.019 14.004 13.982 13.919 13.882 13.857 13.789 13.789 13.712 13.679 13.624 13.572 13.547 13.484 13.452 13.389 13.354 13.347 13.244 13.659 14.114 14.552 15.497 14.052 13.034 12.624 12.414 12.247 12.137 12.119 12.062 12.007 11.934 11.909 11.874 11.837 11.792 11.714 11.659 11.577 11.534 11.482 11.434 11.397 11.322 11.242 11.154 11.109 11.064 10.984 10.927 10.884 10.817 10.742 10.689 10.617 10.567 10.529 10.454 10.407 10.354 10.267 10.137 10.079 9.987 9.929 9.849 9.769 9.692 9.582 9.514 9.427 9.349 9.279 9.179 9.127 9.049 8.984
28.512 29.53 32.652 29.262 26.345 25.615 25.375 25.44 25.545 25.505 25.51 25.63 25.672 25.66 25.695 25.705 25.695 25.697 26.302 25.885 25.985 25.945 26.002 25.987 26.39 26.367 25.99 26.05 26.095 26.577 26.382 26.222 27.587 27.875 28.885 26.232 26.222 26.142 26.175 26.2 26.2 26.235 26.217 26.217 26.257 26.267 26.287 26.322 26.315 26.227 26.195 26.195 26.2 26.21 26.135 26.105 26.132 26.115 26.072 26.077 26.05 26.057 26.007 25.997 25.997 26.015 26.01 25.98 26.097 26.037 26.155 27.955 28.107 27.417 28.74 25.7 25.135 25.257 25.455 23.79 22.345 22.327 22.312 23.195 24.77 24.452 24.797 25.147 27.885 27.987 25.495 25.565 27.302 29.557 25.707 25.49 25.467 25.432 25.37 27.387 40.9 31.207 25.49 25.537 25.422 25.182 25.145 25.4 25.365 25.222 25.665 25.187 25.36 25.872 43.032 42.382 38.532 48.45 43.565 34.56 35.707 37.102 45.1 47.192 38.002 32.7 34.04 36.835 46.167 38.347 35.332 40.702 45.337 38.437 40.12 31.14 25.385 29.112 44.475 45.222 31.955 26.707 30.32 25.572 25.335 26.062 25.567 26.735 27.575 27.257 25.832 25.304 25.422 25.472 25.177 25.144 25.074 24.934 24.934 24.979 24.802 24.834 24.739 24.587 24.472 24.437 24.359 24.277 24.212 24.122 24.037 23.979 23.977 23.929 23.817 23.692 23.527 23.442 23.247 23.097 22.989 22.939 22.834 22.787 22.677 22.632 22.677 22.739 22.744 22.622 22.584 22.522 22.352 22.382 22.337 22.159 22.127 22.244 22.212 21.939 21.912 21.897 22.019 22.064 21.952 21.877 21.684 21.599 21.549 21.474 21.397 21.297 21.224 21.187 21.209 21.139 21.149 21.112 21.047 21.012 20.942 20.927 20.959 20.949 20.972 20.967 20.962 20.884 20.832 20.864 20.879 20.859 20.882 20.764 20.694 20.619 20.632 20.497 20.327 20.294 20.212 20.077 20.342 20.932 21.422 21.902 23.542 20.144 19.982 19.962 20.872 21.427 21.094 20.059 19.939 19.712 19.397 18.829 18.792 18.842 20.342 21.059 22.209 21.789 25.459 21.514 19.032 18.737 18.674 18.667 18.664 18.679 18.652 18.609 18.642 18.629 18.627 18.547 18.464 18.392 18.257 18.192 18.039 17.949 17.839 17.737 17.652 17.552 17.522 17.447 17.392 17.362 17.269 17.187 17.119 17.042 17.002 16.959 16.919 16.879 16.842 16.827 16.774 16.732 16.707 16.679 16.642 16.602 16.554 16.484 16.452 16.382 16.334 16.317 16.292 16.264 16.219 16.172 16.154 16.137 16.089 16.042 16.019 15.979 15.952 15.902 15.834 15.784 15.729 15.664 15.604 15.529 15.507 15.467 15.439 15.379 15.357 15.332 15.267 15.214 15.142 15.069 14.997 14.917 14.844 14.752 14.677 14.582 14.522 14.427 14.354 14.312 14.279 14.244 14.179 14.177 14.169 14.129 14.112 14.072 14.029 14.004 13.994 13.972 13.964 13.959 13.952 13.924 13.914 13.912 13.902 13.839 13.867 13.839 13.832 13.792 13.732 13.692 13.654 13.614 13.592 13.532 13.484 13.417 13.374 13.352 13.327 13.259 13.207 13.162 13.147 13.032 13.494 14.122 14.779 15.049 13.237 12.524 12.422 12.244 12.054 11.982 11.959 11.914 11.862 11.789 11.732 11.707 11.672 11.622 11.569 11.507 11.437 11.382 11.319 11.277 11.252 11.184 11.102 11.044 10.982 10.919 10.849 10.787 10.729 10.682 10.614 10.542 10.507 10.424 10.377 10.327 10.277 10.202 10.122 10.014 9.944 9.884 9.834 9.729 9.637 9.577 9.457 9.402 9.302 9.247 9.152 9.092 9.022 8.937 8.876
26.4 31.187 29.767 30.575 25.515 25.305 25.36 25.587 25.552 25.545 25.512 25.53 25.545 25.702 25.742 25.76 25.832 26.9 25.907 25.915 26.042 26.045 26.007 25.96 25.975 25.97 26.005 26.475 27.557 26.585 29.402 26.197 26.435 31.24 27.467 26.285 26.25 26.192 26.182 26.2 26.212 26.252 26.235 26.217 26.23 26.242 26.27 26.292 26.335 26.262 26.2 26.187 26.177 26.195 26.14 26.07 26.102 26.115 26.077 26.045 26.052 26.052 26.025 25.997 25.982 26.007 26.02 26.035 30.092 28.867 27.407 26.645 25.945 30.12 26.107 25.607 25.32 25.142 25.07 24.225 22.407 22.302 22.285 22.69 25.117 25.432 24.585 24.977 27.167 25.08 25.527 26.095 25.727 26.605 25.6 25.402 25.26 25.232 25.292 30.255 35.12 28.262 25.05 25.737 25.46 25.335 25.627 25.47 25.317 25.097 25.135 25.422 25.31 28.825 43.132 43.197 45.627 48.207 39.702 44.837 30.447 42.452 34.68 47.13 45.065 43.905 41.337 45.752 49 35.325 42.042 39.542 44.695 42.202 30.45 26.85 25.367 34.822 44.042 43.665 32.622 30.692 36.7 28.035 25.25 26.31 26.307 27.802 27.165 27.317 25.769 25.199 25.247 25.449 25.127 24.972 25.044 24.967 24.837 24.827 24.744 24.674 24.549 24.549 24.419 24.339 24.269 24.234 24.152 24.117 23.967 23.909 23.844 23.729 23.697 23.649 23.499 23.359 23.229 23.092 22.904 22.812 22.772 22.732 22.652 22.489 22.607 22.592 22.682 22.572 22.499 22.362 22.349 22.187 22.227 22.127 21.984 22.004 21.947 21.899 21.897 22.069 21.897 21.899 21.842 21.707 21.604 21.592 21.587 21.484 21.337 21.249 21.149 21.104 21.124 21.089 21.032 20.972 20.924 20.859 20.802 20.779 20.817 20.832 20.782 20.769 20.774 20.717 20.669 20.709 20.699 20.777 20.832 20.664 20.612 20.557 20.629 20.519 20.224 20.104 20.002 19.947 20.252 20.909 21.057 21.774 22.007 19.929 19.844 19.944 19.784 19.774 19.979 19.754 19.899 20.047 19.132 18.729 18.689 22.892 22.434 21.914 20.437 19.639 19.972 19.442 18.754 18.644 18.542 18.567 18.554 18.542 18.494 18.442 18.499 18.492 18.457 18.424 18.329 18.249 18.142 18.052 17.902 17.779 17.712 17.612 17.509 17.417 17.384 17.312 17.264 17.212 17.162 17.062 16.982 16.907 16.857 16.809 16.797 16.737 16.709 16.679 16.637 16.592 16.567 16.537 16.482 16.472 16.414 16.359 16.309 16.247 16.222 16.197 16.167 16.142 16.084 16.032 16.019 15.979 15.949 15.902 15.859 15.832 15.784 15.744 15.684 15.604 15.577 15.499 15.464 15.397 15.379 15.322 15.302 15.267 15.249 15.202 15.149 15.092 15.039 14.949 14.917 14.792 14.717 14.619 14.539 14.444 14.402 14.307 14.244 14.177 14.142 14.109 14.069 14.012 13.992 13.979 13.957 13.897 13.869 13.829 13.799 13.792 13.809 13.802 13.767 13.752 13.744 13.732 13.717 13.687 13.669 13.647 13.634 13.602 13.552 13.504 13.482 13.442 13.417 13.349 13.302 13.224 13.199 13.117 13.109 13.059 12.959 12.937 12.932 12.824 13.234 13.852 14.302 13.279 12.799 12.364 12.227 12.054 11.904 11.837 11.802 11.754 11.704 11.617 11.607 11.574 11.519 11.474 11.414 11.359 11.292 11.219 11.169 11.147 11.104 11.042 10.969 10.889 10.842 10.782 10.729 10.644 10.572 10.529 10.472 10.392 10.339 10.294 10.237 10.182 10.127 10.064 9.982 9.889 9.827 9.769 9.702 9.604 9.532 9.427 9.327 9.274 9.184 9.134 9.029 8.954 8.887 8.799 8.761
29.43 25.27 30.895 27.007 25.41 25.455 25.39 25.612 25.53 25.515 25.572 25.575 25.607 27.707 26.497 25.992 26.94 32.592 25.937 25.952 26.11 26.155 25.995 26.025 25.982 25.942 26.152 26.035 26.232 26.155 26.155 26.19 26.195 26.46 27.14 26.432 26.27 26.237 26.19 26.185 26.205 26.217 26.227 26.197 26.222 26.237 26.247 26.25 26.312 26.282 26.202 26.185 26.152 26.17 26.157 26.075 26.047 26.1 26.1 26.055 26.047 26.037 26.017 26.007 25.985 25.975 25.99 25.995 26.177 32.585 28.752 25.985 25.942 25.96 26.635 25.845 25.942 25.55 25.217 24.682 22.715 22.312 22.295 22.452 23.58 25.12 24.387 24.885 25.25 25.727 25.74 26.02 27.19 25.712 25.497 25.352 25.33 29.155 27.785 25.62 29.292 25.295 25.807 26.515 25.505 25.207 25.325 25.262 24.952 24.765 24.81 25.637 24.927 26.992 37.327 44.107 45.465 44.237 44.18 43.895 41.68 38.28 43.035 45.902 45.71 38.71 30.327 42.215 45.082 38.59 34.61 38.615 45.3 35.055 32.582 30.595 25.47 31.127 37.307 35.625 35.205 38.59 42.73 28.717 25.47 25.652 26.302 27.4 27.145 27.155 25.834 25.124 25.119 25.257 25.002 24.947 24.884 24.862 24.822 24.689 24.639 24.582 24.494 24.424 24.377 24.279 24.194 24.244 24.174 24.137 23.957 23.839 23.739 24.134 23.824 23.624 23.384 23.239 23.174 22.999 22.844 22.787 22.692 22.627 22.562 22.477 22.387 22.499 22.482 22.487 22.382 22.329 22.272 22.129 22.087 21.989 21.929 21.847 21.807 21.862 21.912 21.922 21.854 21.882 21.737 21.647 21.512 21.482 21.494 21.389 21.312 21.207 21.164 21.024 21.077 21.029 20.894 20.867 20.814 20.747 20.659 20.674 20.694 20.654 20.647 20.604 20.607 20.544 20.527 20.539 20.554 20.769 20.694 20.522 20.404 20.474 20.387 20.344 20.097 19.979 19.862 19.782 20.034 20.604 20.537 22.434 20.964 19.719 19.924 19.709 19.617 19.709 19.707 19.647 19.624 19.444 19.017 18.552 18.577 18.867 23.549 24.777 20.089 19.317 19.087 18.844 18.582 18.489 18.429 18.432 18.412 18.397 18.347 18.334 18.364 18.362 18.332 18.274 18.184 18.089 17.982 17.917 17.759 17.644 17.579 17.484 17.384 17.304 17.244 17.172 17.144 17.069 17.024 16.927 16.884 16.787 16.729 16.689 16.659 16.599 16.544 16.527 16.489 16.469 16.434 16.402 16.347 16.324 16.284 16.229 16.174 16.117 16.069 16.049 16.022 15.984 15.942 15.882 15.887 15.827 15.784 15.737 15.709 15.667 15.629 15.564 15.522 15.457 15.394 15.339 15.309 15.279 15.227 15.184 15.182 15.144 15.117 15.052 15.012 14.949 14.889 14.829 14.754 14.644 14.569 14.477 14.387 14.317 14.242 14.169 14.107 14.009 13.992 13.942 13.902 13.867 13.824 13.817 13.789 13.704 13.672 13.667 13.632 13.599 13.604 13.599 13.594 13.547 13.552 13.539 13.527 13.489 13.497 13.474 13.464 13.417 13.367 13.324 13.292 13.252 13.219 13.144 13.114 13.037 13.002 12.937 12.874 12.842 12.782 12.724 12.712 12.589 13.009 13.614 14.544 13.564 12.809 12.189 12.042 11.877 11.729 11.677 11.639 11.602 11.549 11.477 11.434 11.392 11.372 11.312 11.234 11.197 11.107 11.049 11.014 10.984 10.967 10.909 10.839 10.737 10.712 10.634 10.577 10.507 10.452 10.384 10.337 10.282 10.217 10.152 10.097 10.039 9.999 9.934 9.849 9.747 9.679 9.612 9.577 9.477 9.389 9.324 9.229 9.152 9.064 8.999 8.937 8.842 8.784 8.724 8.671
25.277 25.292 25.302 25.35 25.742 25.685 25.427 25.545 25.517 25.522 25.68 25.852 25.757 25.852 29.36 26.187 26.097 30.562 26.027 25.967 26.197 26.34 26.167 26.13 26.06 25.935 26.05 26.04 26.11 26.215 26.227 26.235 26.292 26.597 27.067 26.905 26.37 26.26 26.212 26.172 26.167 26.197 26.235 26.215 26.2 26.23 26.23 26.242 26.265 26.3 26.227 26.157 26.157 26.155 26.15 26.102 26.04 26.075 26.11 26.067 26.04 26.05 26.012 26.002 25.967 25.945 25.937 25.95 25.897 28.897 30.612 29.052 25.802 25.972 26.92 25.875 25.722 25.662 25.317 24.782 23.377 22.36 22.317 22.297 23.182 23.922 24.17 24.772 25.235 25.13 25.507 25.58 25.445 25.892 25.25 25.155 25.13 25.26 25.37 33.38 31.925 25.345 27.185 25.647 25.67 25.122 25.002 24.905 24.787 26.402 32.065 31.902 28.927 25.92 28.29 38.67 37.685 32.575 38.442 41.007 30.985 41.952 36.37 47.75 43.887 26.805 35.942 31.667 33.567 36.68 43.942 39.812 45.07 38.005 44.96 34.037 25.455 25.527 27.757 25.462 34.535 40.192 40.23 34.095 26.89 25.99 26.307 26.402 26.612 26.68 25.684 25.069 25.134 25.059 24.904 24.879 24.807 24.757 24.689 24.572 24.487 24.469 24.374 24.309 24.264 24.232 24.092 24.084 24.097 23.907 23.787 23.714 23.587 23.624 23.687 23.497 23.337 23.157 23.067 22.929 22.789 22.674 22.594 22.527 22.429 22.409 22.304 22.279 22.434 22.557 22.414 22.199 22.224 22.062 21.992 21.952 21.884 21.787 21.722 21.782 21.802 21.894 21.924 21.874 21.602 21.469 21.469 21.332 21.284 21.254 21.247 21.172 21.064 20.989 20.979 20.892 20.777 20.757 20.697 20.634 20.534 20.504 20.514 20.487 20.494 20.464 20.397 20.384 20.367 20.394 20.382 20.617 20.674 20.499 20.287 20.362 20.267 20.104 19.899 19.794 19.702 19.674 19.839 20.257 20.257 21.054 19.779 19.869 19.924 19.552 21.109 20.564 19.472 19.532 20.117 20.369 19.017 20.784 19.179 20.692 18.464 18.667 21.029 19.242 19.349 18.764 18.467 18.384 18.297 18.294 18.257 18.257 18.222 18.214 18.227 18.202 18.159 18.102 18.034 17.939 17.839 17.777 17.607 17.522 17.422 17.349 17.247 17.162 17.124 17.072 17.009 16.962 16.902 16.807 16.764 16.707 16.627 16.562 16.499 16.504 16.434 16.417 16.364 16.337 16.307 16.262 16.229 16.194 16.137 16.072 16.004 15.974 15.924 15.914 15.884 15.827 15.792 15.729 15.732 15.692 15.627 15.564 15.547 15.507 15.479 15.429 15.364 15.324 15.262 15.214 15.159 15.139 15.099 15.044 15.039 15.007 14.959 14.914 14.879 14.832 14.747 14.674 14.584 14.509 14.414 14.324 14.247 14.162 14.087 14.004 13.967 13.864 13.837 13.764 13.722 13.702 13.669 13.644 13.614 13.522 13.502 13.467 13.457 13.412 13.414 13.389 13.394 13.372 13.344 13.342 13.344 13.314 13.304 13.302 13.262 13.232 13.169 13.144 13.089 13.052 13.024 12.969 12.912 12.857 12.814 12.752 12.692 12.632 12.589 12.534 12.504 12.409 12.749 13.279 13.644 13.174 12.284 11.982 11.864 11.692 11.567 11.507 11.477 11.444 11.392 11.322 11.297 11.234 11.204 11.122 11.097 11.037 10.997 10.924 10.879 10.862 10.824 10.734 10.679 10.594 10.579 10.504 10.442 10.359 10.287 10.242 10.182 10.114 10.052 9.992 9.949 9.907 9.857 9.787 9.709 9.607 9.564 9.487 9.432 9.359 9.262 9.192 9.119 9.037 8.939 8.874 8.782 8.707 8.682 8.649 8.584
25.267 25.355 25.462 25.505 25.735 25.687 25.44 25.497 25.497 25.645 25.715 25.8 25.797 25.907 27.145 31.19 31.107 33.935 26.017 25.972 26.107 26.302 26.055 26.015 26.19 26.122 26.095 26.117 26.872 26.317 26.257 26.322 26.64 26.712 26.475 26.732 26.565 26.22 26.24 26.18 26.162 26.177 26.23 26.197 26.19 26.222 26.227 26.222 26.217 26.242 26.277 26.162 26.127 26.13 26.155 26.15 26.067 26.025 26.07 26.067 26.025 26.03 26.042 25.987 25.957 25.945 25.972 25.957 25.895 27.992 32.215 26.562 25.782 25.952 25.947 25.92 25.805 25.527 25.815 24.767 23.795 22.6 22.272 22.22 23.082 24.1 24.607 24.62 25.142 26.517 25.35 25.492 25.807 25.055 25.202 25.305 25.44 25.437 25.737 33.412 28.822 25.037 25.045 25.052 25.177 25.01 24.882 24.79 25.255 30.222 32.687 28.357 33.732 24.64 24.927 26.955 25.597 24.732 35.487 37.837 38.187 30.247 41.347 45.015 41.425 40.44 31.762 25.28 25.675 35.032 27.465 38.497 43.262 34.925 37.477 31.03 25.102 25.095 25.21 25.237 34.417 39.665 37.06 32.8 26.23 27.42 25.957 26.535 25.897 26.332 25.569 25.069 25.014 24.919 24.847 24.812 24.742 24.667 24.602 24.457 24.367 24.364 24.269 24.184 24.197 24.157 24.042 23.989 23.894 23.864 23.892 23.734 23.547 23.662 23.639 23.464 23.247 23.167 23.034 22.937 22.709 22.612 22.519 22.427 22.317 22.314 22.229 22.189 22.149 22.272 22.217 22.174 22.054 22.102 22.044 21.847 21.772 21.747 21.712 21.837 21.814 21.917 21.714 21.639 21.542 21.434 21.542 21.309 21.219 21.169 21.104 21.052 20.972 20.992 20.929 20.787 20.719 20.669 20.537 20.509 20.424 20.359 20.329 20.342 20.334 20.282 20.257 20.262 20.237 20.244 20.242 20.469 20.512 20.389 20.162 20.097 19.957 19.877 19.802 19.712 19.604 19.532 19.559 19.679 19.662 20.149 19.754 20.249 21.117 19.459 19.769 19.392 19.417 19.389 19.622 20.459 19.224 20.339 22.557 18.429 18.369 18.492 18.894 18.724 18.852 18.909 18.357 18.247 18.159 18.159 18.157 18.142 18.109 18.099 18.084 18.029 18.007 17.934 17.874 17.779 17.672 17.614 17.482 17.367 17.299 17.239 17.139 17.054 16.979 16.949 16.912 16.827 16.769 16.694 16.637 16.574 16.497 16.449 16.397 16.369 16.304 16.269 16.204 16.187 16.154 16.129 16.067 16.027 16.002 15.932 15.867 15.829 15.767 15.752 15.719 15.699 15.637 15.592 15.562 15.547 15.494 15.432 15.374 15.352 15.314 15.267 15.199 15.169 15.119 15.062 15.032 14.984 14.954 14.914 14.884 14.842 14.822 14.767 14.722 14.659 14.584 14.504 14.427 14.352 14.252 14.147 14.064 13.979 13.929 13.852 13.797 13.717 13.649 13.599 13.559 13.524 13.499 13.449 13.424 13.357 13.332 13.274 13.249 13.217 13.217 13.194 13.189 13.184 13.149 13.152 13.157 13.127 13.127 13.104 13.064 13.029 12.969 12.939 12.907 12.882 12.819 12.787 12.714 12.662 12.614 12.569 12.504 12.439 12.397 12.337 12.329 12.247 12.317 12.919 13.504 13.627 12.364 11.832 11.689 11.542 11.387 11.339 11.309 11.262 11.222 11.164 11.134 11.094 11.039 10.977 10.924 10.867 10.837 10.764 10.727 10.719 10.684 10.612 10.527 10.444 10.427 10.347 10.302 10.207 10.162 10.099 10.047 9.964 9.904 9.862 9.829 9.774 9.697 9.649 9.579 9.497 9.432 9.359 9.304 9.234 9.159 9.039 8.989 8.914 8.837 8.759 8.667 8.652 8.622 8.587 8.544
25.355 25.382 25.417 25.512 25.517 25.615 25.517 25.46 25.567 25.71 25.882 25.792 25.925 25.945 25.9 33.825 28.285 27.032 26.037 26 26.075 26.26 26.085 26.072 26.155 26.25 26.187 26.162 26.812 26.375 26.237 26.302 27.09 27.332 26.807 26.455 26.667 26.397 26.287 26.207 26.15 26.132 26.192 26.215 26.2 26.212 26.222 26.22 26.195 26.222 26.255 26.192 26.142 26.112 26.152 26.145 26.09 26.047 26.05 26.06 26.04 25.997 26.007 25.982 25.957 25.927 25.947 25.96 25.897 26.117 27.277 26.1 25.785 25.862 25.82 26.007 25.815 25.46 25.88 24.94 24.212 22.97 22.337 22.23 22.442 23.715 23.812 24.327 25.477 25.97 24.975 28.952 29.89 30.127 30.057 25.317 25.185 25.09 25.3 25.227 28.692 24.895 24.897 25.12 25.285 24.945 24.82 24.792 30.997 34.812 29.565 26.24 33.35 27.012 24.635 24.435 24.607 31.64 45.305 47.792 47.822 38.015 44.862 38.705 31.36 31.095 26.345 25.24 26.952 25.622 25.127 26.732 39.03 26.535 33.012 25.337 24.917 24.952 26.157 29.112 28.532 28.27 27.917 26.252 28.725 29.335 25.52 25.972 25.555 25.945 25.247 25.057 24.884 24.854 25.002 24.774 24.699 24.614 24.554 24.337 24.274 24.294 24.187 24.097 24.074 24.029 23.992 23.984 23.937 23.902 23.914 23.782 23.549 23.602 23.599 23.474 23.252 23.172 22.974 22.947 22.712 22.514 22.457 22.354 22.212 22.197 22.162 22.104 22.139 21.999 22.049 22.129 22.162 22.034 21.947 21.817 21.727 21.674 21.654 21.739 21.684 21.792 21.707 21.622 21.514 21.397 21.357 21.162 21.097 21.024 20.957 20.924 20.922 20.894 20.814 20.719 20.604 20.444 20.399 20.349 20.312 20.249 20.234 20.229 20.192 20.162 20.124 20.154 20.124 20.097 20.087 20.327 20.347 20.152 20.019 19.987 19.857 19.819 19.699 19.599 19.484 19.427 19.372 19.307 19.487 19.509 19.774 19.854 22.024 20.377 19.337 19.632 19.277 19.207 19.279 19.307 18.644 18.244 24.819 18.527 18.232 18.372 18.749 18.562 19.929 18.712 18.259 18.134 18.032 18.014 18.002 18.002 17.947 17.924 17.924 17.894 17.849 17.809 17.707 17.637 17.554 17.499 17.392 17.289 17.212 17.107 17.022 16.924 16.862 16.817 16.749 16.712 16.644 16.582 16.532 16.472 16.402 16.332 16.267 16.237 16.184 16.144 16.069 16.039 16.002 15.954 15.942 15.889 15.847 15.794 15.719 15.669 15.617 15.594 15.549 15.542 15.504 15.449 15.422 15.357 15.324 15.279 15.229 15.187 15.154 15.112 15.059 15.009 14.969 14.924 14.869 14.839 14.784 14.769 14.714 14.674 14.657 14.599 14.542 14.464 14.427 14.347 14.252 14.179 14.089 13.977 13.902 13.824 13.777 13.684 13.637 13.547 13.509 13.437 13.402 13.347 13.324 13.264 13.274 13.177 13.124 13.114 13.084 13.054 13.047 13.022 13.017 12.987 12.992 12.959 12.979 12.937 12.944 12.937 12.879 12.854 12.787 12.764 12.732 12.667 12.624 12.602 12.532 12.477 12.424 12.367 12.312 12.249 12.199 12.167 12.159 12.059 12.067 12.657 13.332 13.284 12.332 11.642 11.502 11.352 11.199 11.177 11.142 11.109 11.082 11.032 10.979 10.932 10.882 10.802 10.762 10.712 10.682 10.602 10.597 10.549 10.529 10.469 10.397 10.304 10.252 10.229 10.164 10.072 10.002 9.959 9.884 9.842 9.784 9.727 9.684 9.617 9.559 9.514 9.454 9.362 9.277 9.227 9.187 9.104 9.024 8.952 8.874 8.817 8.764 8.699 8.632 8.619 8.602 8.557 8.514
25.51 25.442 25.477 25.727 25.632 25.745 25.505 25.512 25.657 25.767 25.787 25.81 26.09 25.945 25.857 28.855 28.98 27.167 26.097 26.035 26.065 26.175 26.187 26.265 26.185 26.22 26.217 26.132 26.192 26.225 26.28 26.4 26.322 26.235 26.252 26.725 26.947 26.565 26.322 26.237 26.152 26.122 26.16 26.2 26.215 26.232 26.24 26.215 26.175 26.187 26.227 26.225 26.137 26.087 26.132 26.142 26.085 26.05 26.007 26.05 26.037 25.99 25.982 25.965 25.962 25.897 25.917 25.93 25.912 25.877 26.21 25.922 25.767 25.76 26.127 26.182 25.9 25.567 25.635 24.975 23.927 23.37 22.452 22.262 22.27 23.162 23.825 24.157 24.717 25.045 25.765 30.875 26.587 30.415 25.6 26.947 25.702 28.127 26.012 29.827 38.665 26.35 24.815 26.257 24.792 24.992 24.757 25.737 33.535 34.432 33.285 34.942 28.665 24.48 28.147 29.165 24.462 33.705 44.49 46.045 45.855 45.602 40.34 28.53 25.042 25.057 24.987 37.367 31.355 31.917 33.23 36.985 37.807 26.235 34.702 32.942 28.07 25.437 32.992 35.932 29.845 33.832 29.902 25.19 25.07 25.075 25.24 25.442 25.51 25.67 25.124 24.909 24.847 24.782 24.772 24.699 24.607 24.542 24.399 24.237 24.187 24.159 24.107 24.049 23.954 23.939 23.942 24.057 24.149 24.132 24.212 23.909 23.457 23.499 23.362 23.219 23.042 23.069 22.944 22.749 22.657 22.434 22.407 22.247 22.139 22.072 22.012 21.954 21.974 21.969 21.857 21.994 21.964 21.834 21.884 21.847 21.802 21.622 21.567 21.592 21.644 21.582 21.557 21.534 21.457 21.334 21.177 21.027 20.972 20.922 20.897 20.879 20.789 20.747 20.689 20.602 20.424 20.289 20.264 20.192 20.172 20.087 20.092 20.089 20.059 20.049 20.044 20.019 20.022 19.997 19.999 20.094 20.162 20.054 19.872 19.822 19.797 19.779 19.587 19.439 19.372 19.292 19.274 19.182 19.257 19.542 19.777 19.347 19.512 19.187 19.167 20.079 19.182 19.047 19.134 19.204 18.587 18.152 21.082 18.122 18.069 18.297 18.689 20.064 19.459 18.957 18.247 18.022 17.927 17.897 17.884 17.839 17.809 17.799 17.752 17.739 17.684 17.659 17.572 17.519 17.429 17.362 17.254 17.159 17.089 17.004 16.919 16.827 16.764 16.689 16.654 16.572 16.544 16.477 16.424 16.342 16.274 16.217 16.139 16.092 16.072 15.997 15.942 15.902 15.867 15.829 15.794 15.749 15.717 15.652 15.592 15.517 15.482 15.432 15.404 15.382 15.329 15.289 15.264 15.227 15.179 15.124 15.059 15.047 15.014 14.977 14.919 14.877 14.862 14.787 14.709 14.654 14.624 14.602 14.559 14.499 14.464 14.427 14.384 14.294 14.237 14.144 14.074 14.004 13.907 13.792 13.727 13.654 13.602 13.527 13.484 13.374 13.342 13.277 13.214 13.167 13.132 13.112 13.079 13.027 12.977 12.902 12.897 12.867 12.864 12.847 12.834 12.802 12.814 12.777 12.779 12.752 12.759 12.729 12.724 12.672 12.632 12.567 12.534 12.474 12.457 12.399 12.352 12.294 12.239 12.184 12.162 12.082 12.037 12.012 11.984 11.889 12.099 12.632 13.547 12.872 12.012 11.452 11.317 11.162 11.047 11.019 10.984 10.939 10.917 10.857 10.819 10.779 10.744 10.677 10.627 10.569 10.514 10.484 10.459 10.409 10.394 10.312 10.257 10.179 10.114 10.067 10.004 9.922 9.869 9.804 9.762 9.687 9.629 9.574 9.524 9.467 9.429 9.367 9.304 9.227 9.147 9.104 9.072 8.977 8.912 8.844 8.789 8.737 8.674 8.622 8.589 8.572 8.504 8.494 8.449
25.407 25.44 25.8 25.59 25.572 25.58 25.532 25.605 25.775 25.785 25.807 25.845 26.042 25.94 25.885 26.052 25.97 26.3 26.157 26.065 26.04 26.167 26.132 26.16 26.195 26.147 26.172 26.147 26.285 26.272 26.307 26.245 26.247 26.23 26.39 26.225 26.372 26.525 26.417 26.23 26.202 26.135 26.162 26.19 26.212 26.252 26.23 26.25 26.185 26.172 26.185 26.215 26.16 26.11 26.09 26.102 26.072 26.057 25.985 26.012 26.037 26.002 26 25.965 25.96 25.925 25.897 25.927 25.927 25.842 25.815 25.737 25.725 25.81 26.115 27.415 25.915 25.645 25.525 25.052 24.3 23.792 22.642 22.245 22.247 22.75 23.715 24.027 24.577 28.1 25.082 26.07 25.075 25.067 26 25.027 25.642 30.802 37.125 42.17 40.017 33.54 26.775 33.992 24.727 24.74 24.737 24.62 27.432 27.16 31.47 39.402 24.895 31.68 35.632 34.72 24.507 33.232 39.442 40.987 40.415 38.805 28.855 24.932 25.02 24.995 28.915 45.755 42.125 37.665 44.377 47.14 38.632 34.045 43.257 41.227 32.322 34.745 36.567 37.61 40.717 41.087 32.025 25.107 24.962 24.802 24.87 24.952 25.082 25.455 24.877 24.749 24.832 25.162 24.724 24.664 24.519 24.422 24.312 24.164 24.087 24.089 24.037 23.964 23.869 23.977 23.932 23.967 23.974 24.169 24.249 23.992 23.379 23.327 23.362 23.067 23.102 22.967 22.907 22.679 22.512 22.369 22.247 22.204 22.022 22.002 21.899 21.867 21.854 21.884 21.829 21.722 21.837 21.769 21.922 21.782 21.742 21.629 21.449 21.449 21.602 21.517 21.447 21.407 21.322 21.217 21.099 21.054 20.909 20.977 20.837 20.782 20.737 20.709 20.642 20.529 20.409 20.199 20.139 20.052 19.972 19.942 19.974 19.952 19.907 19.897 19.897 19.912 19.887 19.914 19.912 19.974 19.934 19.949 19.744 19.667 19.609 19.619 19.534 19.337 19.257 19.204 19.124 19.127 19.477 19.457 20.102 19.269 19.179 19.039 19.057 19.879 19.047 19.044 18.964 18.959 18.387 18.012 18.009 17.984 17.932 18.222 18.537 20.139 20.614 19.354 18.124 17.902 17.782 17.759 17.762 17.734 17.714 17.657 17.634 17.584 17.592 17.529 17.444 17.404 17.324 17.254 17.142 17.047 16.972 16.907 16.799 16.719 16.649 16.574 16.534 16.459 16.409 16.357 16.314 16.257 16.144 16.084 16.029 15.977 15.942 15.884 15.809 15.779 15.717 15.659 15.659 15.599 15.557 15.502 15.432 15.354 15.322 15.289 15.252 15.239 15.184 15.137 15.092 15.067 15.029 14.967 14.919 14.894 14.874 14.827 14.777 14.754 14.687 14.637 14.549 14.472 14.442 14.427 14.362 14.314 14.277 14.227 14.182 14.079 14.052 13.969 13.917 13.814 13.732 13.634 13.589 13.514 13.444 13.374 13.327 13.232 13.192 13.129 13.079 13.002 12.987 12.944 12.934 12.867 12.817 12.737 12.709 12.684 12.672 12.659 12.649 12.637 12.629 12.609 12.629 12.569 12.567 12.529 12.544 12.494 12.449 12.412 12.359 12.289 12.289 12.219 12.184 12.117 12.077 12.047 11.954 11.917 11.869 11.847 11.812 11.749 12.242 13.099 14.222 12.809 12.472 11.254 11.139 10.992 10.889 10.874 10.854 10.799 10.752 10.712 10.674 10.647 10.592 10.534 10.482 10.432 10.384 10.349 10.312 10.292 10.264 10.204 10.134 10.047 9.987 9.929 9.852 9.779 9.752 9.692 9.614 9.527 9.489 9.432 9.407 9.362 9.312 9.249 9.167 9.094 9.037 8.974 8.942 8.872 8.802 8.734 8.684 8.649 8.564 8.587 8.669 9.267 9.204 8.504 8.609
25.505 25.475 25.672 25.642 25.977 25.707 25.592 25.682 25.717 25.765 26.162 26.32 25.89 25.977 25.892 25.925 26.002 26.565 26.222 26.162 26.115 26.235 26.195 26.172 26.242 26.207 26.195 26.187 26.207 26.157 26.192 26.557 26.232 26.252 26.232 26.225 26.292 26.537 26.942 26.352 26.217 26.172 26.187 26.19 26.247 26.237 26.232 26.262 26.217 26.162 26.127 26.177 26.195 26.127 26.085 26.12 26.085 26.06 26.017 25.985 25.995 26.012 26.02 25.987 25.97 25.937 25.915 25.947 25.947 25.892 25.81 25.765 25.752 25.815 26.582 27.162 27.795 25.782 25.525 25.595 24.727 23.962 23 22.245 22.172 22.387 23.442 23.782 24.297 29.117 28.477 25.535 24.925 25.367 27.45 25.37 28.67 39.97 43.11 45.74 42.852 39.117 31.735 31.172 28.222 24.735 24.572 24.537 25.812 37.302 40.592 35.407 26.085 34.307 35.77 31.435 27.262 27.997 27.177 27.335 28.487 26.29 24.902 24.977 24.875 24.87 33.585 42.337 45.135 39.267 43.155 45.73 37.685 39.21 41.715 40.077 31.775 39.407 33.217 40.312 37.885 34.342 40.122 26.567 29.26 25.492 24.915 24.81 24.867 24.775 24.667 24.684 24.727 24.702 24.629 24.532 24.484 24.284 24.197 24.119 24.004 23.919 23.899 23.899 23.854 23.959 24.039 23.927 23.932 23.949 23.924 23.602 23.224 23.277 23.209 23.014 23.034 22.919 22.629 22.504 22.379 22.279 22.134 22.059 21.977 21.907 21.827 21.764 21.774 21.764 21.714 21.644 21.599 21.664 21.677 21.677 21.599 21.629 21.419 21.427 21.419 21.562 21.292 21.347 21.224 21.302 21.044 20.992 20.837 20.789 20.724 20.672 20.572 20.552 20.467 20.417 20.247 20.094 19.994 19.897 19.859 19.854 19.887 19.814 19.769 19.787 19.842 19.772 19.747 19.737 19.814 19.879 19.797 19.742 19.629 19.547 19.564 19.522 19.427 19.217 19.132 19.069 19.069 19.182 19.359 20.347 20.239 19.129 19.087 19.502 18.942 18.989 18.934 18.924 18.887 19.904 18.264 17.874 17.892 17.922 17.847 18.142 18.412 18.189 18.654 19.789 18.702 17.924 17.684 17.657 17.622 17.614 17.559 17.537 17.492 17.462 17.442 17.412 17.319 17.277 17.212 17.149 17.024 16.937 16.847 16.772 16.672 16.597 16.524 16.454 16.402 16.342 16.297 16.234 16.177 16.129 16.044 16.004 15.937 15.872 15.824 15.774 15.684 15.627 15.574 15.509 15.502 15.452 15.414 15.357 15.302 15.229 15.157 15.127 15.094 15.104 15.027 14.984 14.942 14.939 14.889 14.817 14.784 14.774 14.719 14.649 14.629 14.599 14.557 14.477 14.402 14.317 14.279 14.254 14.174 14.117 14.102 14.052 14.012 13.914 13.854 13.789 13.742 13.659 13.584 13.489 13.434 13.359 13.297 13.227 13.177 13.107 13.032 12.969 12.922 12.867 12.829 12.774 12.742 12.709 12.657 12.589 12.574 12.514 12.504 12.487 12.464 12.437 12.462 12.439 12.424 12.404 12.399 12.372 12.362 12.327 12.262 12.224 12.182 12.129 12.109 12.057 12.004 11.959 11.929 11.874 11.759 11.714 11.699 11.647 11.632 11.554 11.739 12.734 14.064 12.949 12.412 11.072 10.937 10.837 10.717 10.692 10.707 10.674 10.622 10.574 10.534 10.517 10.459 10.399 10.347 10.297 10.269 10.249 10.207 10.164 10.124 10.077 10.002 9.929 9.882 9.787 9.702 9.664 9.612 9.569 9.497 9.419 9.352 9.297 9.262 9.217 9.177 9.104 9.029 8.962 8.899 8.859 8.827 8.757 8.684 8.654 8.602 8.542 8.479 10.439 10.427 9.722 11.604 9.109 10.316
25.467 25.54 25.59 25.63 25.642 25.572 25.65 25.875 25.847 25.772 25.99 26.087 26.12 26.002 25.92 25.94 26.07 26.102 26.145 26.21 26.125 26.162 26.43 26.145 26.27 26.295 26.152 26.207 26.222 26.222 26.26 26.265 26.242 26.392 26.262 26.27 26.242 26.345 26.782 26.615 26.247 26.197 26.16 26.182 26.227 26.222 26.245 26.235 26.175 26.145 26.1 26.132 26.167 26.175 26.085 26.097 26.102 26.07 26.05 26.015 25.977 26.027 26.045 26.01 25.95 25.955 25.91 25.927 25.952 25.922 25.882 25.8 25.777 25.935 27.297 27.15 28.137 26.802 25.45 25.527 25.09 24.71 23.632 22.337 22.162 22.165 23.03 23.702 24.262 25.347 25.315 26.02 24.795 24.82 28.005 33 41.902 40.965 45.977 45.212 36.86 47.82 34.907 40.547 40.767 25.902 25.332 25.675 24.682 34.54 37.555 35.927 25.76 25.945 28.885 26.332 29.502 29.15 25.782 26.74 32.697 34.532 24.885 24.917 24.797 24.785 30.415 39.902 40.282 33.125 43.467 46.62 36.05 37.82 31.777 26.265 36.202 36.527 24.637 31.517 34.425 41.09 35.385 25.645 31.68 28.095 26.405 26.395 25.427 25.595 24.774 24.619 24.684 24.599 24.507 24.374 24.287 24.187 24.119 24.054 23.932 23.807 23.737 23.762 23.814 23.899 23.877 23.712 23.654 23.619 23.567 23.452 23.104 23.119 23.117 23.074 22.779 22.732 22.527 22.449 22.332 22.187 22.047 21.924 21.862 21.789 21.734 21.667 21.694 21.594 21.577 21.529 21.532 21.464 21.532 21.567 21.554 21.454 21.347 21.254 21.247 21.269 21.212 21.212 21.264 21.352 20.957 20.792 20.762 20.669 20.652 20.557 20.412 20.354 20.222 20.217 20.122 19.952 19.892 19.752 19.734 19.734 19.732 19.727 19.699 19.712 19.679 19.622 19.582 19.584 19.624 19.729 19.617 19.564 19.482 19.399 19.429 19.424 19.304 19.147 19.014 18.937 18.907 19.067 19.459 20.662 19.302 19.547 19.242 18.862 19.617 18.919 18.867 18.822 18.812 18.889 18.187 17.777 17.707 17.799 17.732 18.057 18.389 18.117 18.399 20.312 19.467 18.109 17.567 17.542 17.487 17.467 17.449 17.427 17.379 17.339 17.314 17.272 17.214 17.172 17.087 17.019 16.899 16.819 16.734 16.642 16.547 16.474 16.384 16.332 16.292 16.209 16.167 16.104 16.059 16.007 15.914 15.882 15.804 15.747 15.699 15.632 15.562 15.457 15.419 15.397 15.329 15.304 15.247 15.189 15.132 15.079 15.012 14.972 14.954 14.922 14.904 14.844 14.814 14.817 14.742 14.674 14.629 14.582 14.559 14.514 14.462 14.429 14.394 14.312 14.207 14.132 14.092 14.069 14.014 13.934 13.907 13.864 13.822 13.752 13.694 13.624 13.567 13.504 13.429 13.347 13.287 13.207 13.172 13.077 13.037 12.952 12.889 12.814 12.784 12.702 12.664 12.624 12.589 12.527 12.459 12.434 12.407 12.357 12.352 12.329 12.304 12.287 12.312 12.252 12.252 12.237 12.214 12.192 12.189 12.162 12.092 12.049 12.007 11.954 11.944 11.892 11.834 11.772 11.744 11.689 11.609 11.537 11.502 11.467 11.447 11.367 11.642 12.419 13.479 11.507 11.232 10.904 10.804 10.692 10.572 10.562 10.559 10.524 10.504 10.462 10.407 10.377 10.342 10.287 10.214 10.179 10.144 10.099 10.082 10.044 10.024 9.954 9.887 9.812 9.747 9.682 9.607 9.547 9.492 9.444 9.389 9.292 9.229 9.184 9.124 9.112 9.072 8.994 8.917 8.854 8.777 8.742 8.702 8.652 8.594 8.577 8.514 8.444 8.457 11.159 10.207 9.297 9.897 9.792 11.381
25.5 25.645 25.707 25.58 25.527 25.737 25.97 25.807 25.88 25.765 25.79 25.897 26.102 26.042 26.055 25.987 26.087 26.06 26.07 26.247 26.257 26.162 26.27 26.245 26.165 26.36 26.197 26.167 26.227 26.24 26.272 26.282 26.307 26.282 26.255 26.32 26.29 26.355 26.322 26.5 26.442 26.24 26.182 26.177 26.202 26.167 26.192 26.2 26.165 26.127 26.105 26.122 26.135 26.157 26.14 26.08 26.107 26.077 26.06 26.04 25.975 26.032 26.055 26.012 25.95 25.945 25.912 25.905 25.932 25.912 25.882 25.845 25.785 25.87 27.395 28.39 28.285 27.372 25.737 25.625 24.972 24.695 24.402 22.737 22.172 22.117 22.547 23.502 23.997 24.355 24.822 25.03 30.255 32.617 38.422 41.732 36.255 38.442 42.045 42.115 43.405 44.727 41.215 42.357 43.255 34.547 31.927 25.595 24.387 25.14 26.285 25.615 24.11 24.092 24.922 27.845 38.857 30.752 35.335 36.37 38.347 47.532 24.88 27.892 29.175 27.54 24.625 26.612 27.602 26.402 40.13 45.285 44.227 37.547 25.302 37 41.142 34.852 24.612 40.355 36.845 36.69 26.915 26.525 29.61 26.325 26.952 27.887 25.95 25.552 24.787 24.547 24.654 24.499 24.369 24.304 24.224 24.114 24.059 23.944 23.827 23.689 23.597 23.607 23.837 23.672 23.554 23.557 23.422 23.427 23.317 23.309 23.094 23.064 23.034 22.969 22.612 22.527 22.572 22.482 22.302 22.102 21.952 21.852 21.772 21.739 21.657 21.627 21.612 21.542 21.462 21.412 21.424 21.414 21.327 21.347 21.354 21.319 21.322 21.194 21.129 21.047 21.137 21.084 21.094 21.159 20.767 20.734 20.659 20.552 20.457 20.377 20.254 20.144 20.099 20.037 19.902 19.887 19.869 19.684 19.657 19.649 19.614 19.614 19.619 19.599 19.542 19.499 19.467 19.464 19.517 19.477 19.429 19.464 19.387 19.267 19.232 19.252 19.174 19.019 18.867 18.782 18.847 19.127 19.597 19.879 20.844 18.804 19.164 19.119 18.697 18.692 18.717 18.712 20.404 18.844 18.149 17.682 17.699 17.594 17.684 18.027 18.212 18.014 18.084 20.032 20.114 18.104 17.444 17.412 17.392 17.359 17.339 17.307 17.259 17.194 17.174 17.152 17.114 17.049 16.944 16.889 16.799 16.699 16.607 16.537 16.437 16.339 16.269 16.199 16.164 16.097 16.037 15.992 15.942 15.884 15.827 15.764 15.702 15.647 15.582 15.527 15.447 15.347 15.277 15.242 15.204 15.162 15.114 15.042 15.002 14.942 14.882 14.844 14.807 14.789 14.759 14.687 14.662 14.649 14.599 14.539 14.484 14.424 14.409 14.362 14.299 14.252 14.224 14.159 14.037 13.957 13.934 13.894 13.844 13.794 13.747 13.697 13.672 13.564 13.529 13.472 13.427 13.362 13.289 13.199 13.134 13.084 13.034 12.944 12.897 12.809 12.754 12.684 12.607 12.552 12.539 12.454 12.427 12.372 12.332 12.274 12.247 12.197 12.199 12.164 12.144 12.122 12.134 12.089 12.082 12.072 12.057 12.022 12.012 11.997 11.939 11.892 11.847 11.789 11.767 11.704 11.654 11.602 11.569 11.527 11.462 11.379 11.352 11.292 11.284 11.214 11.397 12.102 12.892 12.194 11.399 10.752 10.677 10.562 10.467 10.454 10.447 10.394 10.359 10.322 10.307 10.259 10.242 10.182 10.124 10.054 10.047 9.977 9.962 9.937 9.877 9.839 9.759 9.702 9.642 9.574 9.519 9.444 9.392 9.354 9.267 9.189 9.129 9.064 9.024 8.984 8.927 8.889 8.824 8.734 8.687 8.672 8.624 8.599 8.534 8.492 8.454 8.367 8.997 11.064 9.787 8.579 8.542 8.764 9.901
25.595 25.68 25.677 25.637 25.59 25.682 25.83 25.8 25.842 25.887 25.832 25.88 25.965 26.04 26.147 26.157 26.085 26.15 26.105 26.282 26.337 26.237 26.215 26.332 26.187 26.36 26.27 26.227 26.252 26.255 26.325 26.302 26.297 26.27 26.282 26.357 26.32 26.337 26.302 26.605 26.692 26.407 26.212 26.182 26.152 26.165 26.135 26.172 26.175 26.142 26.1 26.112 26.11 26.145 26.175 26.105 26.11 26.102 26.045 26.05 26.002 25.98 26.027 26.022 25.975 25.955 25.917 25.88 25.915 25.907 25.887 25.862 25.785 25.777 25.817 26.507 25.992 26.215 26.017 25.627 24.967 24.192 24.147 23.172 22.14 22.09 22.26 23.367 23.735 23.987 24.907 31.102 41.49 45.105 42.495 42.252 31.117 30.672 39.095 42.05 36.867 40.645 29.457 36.727 34.817 36.922 38.302 27.27 24.307 24.127 24.137 24.112 24.592 24.532 24.077 24.08 32.767 27.455 38.58 41.215 44.645 42.652 37.137 42.65 43.762 45.33 31.53 24.502 24.637 24.675 28.607 41.14 38.947 34.915 42.307 31.837 40.367 27.785 28.025 39.202 29.805 24.7 24.835 26.155 26.48 31.267 28.482 26.85 26.19 25.335 24.619 24.519 24.537 24.479 24.757 24.304 24.197 24.072 23.987 23.809 23.699 23.574 23.522 23.519 23.599 23.534 23.382 23.442 23.512 23.219 23.177 23.067 23.114 22.977 23.029 22.807 22.604 22.352 22.407 22.237 22.129 22.039 21.897 21.779 21.667 21.644 21.612 21.597 21.539 21.469 21.407 21.364 21.332 21.334 21.267 21.177 21.209 21.194 21.124 21.127 21.102 20.974 20.902 20.872 20.807 20.719 20.604 20.517 20.469 20.427 20.329 20.202 20.114 20.029 19.952 19.834 19.764 19.777 19.737 19.592 19.587 19.537 19.537 19.499 19.457 19.487 19.542 19.434 19.359 19.439 19.494 19.322 19.317 19.397 19.299 19.179 19.099 18.992 18.954 18.844 18.707 18.687 18.762 18.874 18.997 19.329 21.349 21.244 18.619 18.657 18.854 18.574 19.342 20.019 19.137 19.729 18.187 17.582 17.629 17.564 17.527 17.937 18.249 17.962 17.914 19.317 19.842 18.004 17.327 17.302 17.287 17.262 17.209 17.167 17.124 17.082 17.034 17.004 16.972 16.934 16.832 16.759 16.667 16.559 16.484 16.432 16.337 16.212 16.177 16.092 16.044 15.984 15.937 15.859 15.819 15.767 15.717 15.667 15.604 15.542 15.474 15.407 15.317 15.209 15.152 15.099 15.052 15.004 14.964 14.934 14.867 14.787 14.729 14.694 14.674 14.654 14.627 14.582 14.527 14.507 14.462 14.389 14.342 14.292 14.249 14.219 14.172 14.089 14.054 13.959 13.892 13.797 13.749 13.707 13.672 13.627 13.579 13.534 13.509 13.419 13.379 13.327 13.277 13.222 13.149 13.069 13.007 12.922 12.887 12.792 12.749 12.667 12.597 12.547 12.472 12.399 12.374 12.309 12.282 12.224 12.172 12.119 12.082 12.054 12.027 12.009 11.994 11.962 11.944 11.902 11.924 11.902 11.882 11.862 11.839 11.837 11.759 11.727 11.664 11.619 11.602 11.547 11.504 11.454 11.402 11.339 11.304 11.229 11.187 11.147 11.139 11.059 11.112 11.204 14.149 13.212 11.757 10.612 10.537 10.409 10.329 10.309 10.314 10.269 10.257 10.224 10.197 10.164 10.132 10.084 10.014 9.944 9.907 9.849 9.807 9.819 9.787 9.737 9.657 9.589 9.537 9.487 9.424 9.357 9.307 9.244 9.182 9.092 9.027 8.977 8.919 8.862 8.844 8.784 8.714 8.637 8.604 8.587 8.552 8.487 8.457 8.414 8.384 8.332 9.424 11.592 8.942 8.829 8.712 11.297 8.601
25.602 25.905 25.635 25.64 25.672 25.745 25.772 25.88 25.86 26.03 25.897 25.887 26.107 26.14 26.337 26.182 26.132 26.39 26.257 26.325 26.397 26.312 26.24 26.287 26.215 26.31 26.347 26.222 26.22 26.21 26.23 26.252 26.33 26.25 26.282 26.312 26.277 26.337 26.267 26.29 26.502 26.595 26.42 26.182 26.177 26.135 26.137 26.162 26.172 26.177 26.117 26.122 26.115 26.135 26.192 26.155 26.112 26.105 26.075 26.065 26.015 25.985 26.015 26.032 25.977 25.982 25.93 25.895 25.897 25.917 25.89 25.872 25.8 25.8 25.772 25.802 26.027 26.547 26.382 25.672 25.092 24.242 24.095 23.467 22.125 22.117 22.087 22.927 23.652 23.87 24.765 35.81 41.835 44.635 42.302 37.017 25.13 25.355 32.155 37.75 29.477 29.497 29.17 24.44 31.807 28.925 32.795 25.195 24.245 25.27 26.175 24.685 25.632 27.742 24.247 24.06 25.735 25.22 43.735 45.802 33.727 33.727 34.432 45.342 45.537 47.457 38.555 24.347 32.215 35.765 37.9 34.275 31.05 28.857 30.46 30.367 35.222 25.732 25.63 27.662 24.605 29.897 24.665 29.512 29.317 27.36 26.87 25.652 26.145 25.042 24.529 24.787 24.529 24.299 24.229 24.157 24.007 23.932 23.852 23.699 23.607 23.454 23.404 23.414 23.549 23.444 23.282 23.354 23.337 23.199 23.089 22.954 22.899 22.804 22.719 22.542 22.269 22.269 22.269 22.122 22.062 21.942 21.812 21.712 21.617 21.587 21.549 21.557 21.492 21.442 21.379 21.307 21.309 21.262 21.169 21.172 21.067 21.057 20.984 20.964 20.887 20.829 20.812 20.784 20.642 20.547 20.424 20.342 20.324 20.287 20.144 20.042 19.934 19.869 19.769 19.704 19.604 19.587 19.569 19.567 19.497 19.467 19.432 19.359 19.344 19.342 19.372 19.327 19.227 19.314 19.257 19.257 19.187 19.184 19.122 19.112 19.014 18.907 18.807 18.687 18.589 18.802 18.787 19.132 19.287 20.919 18.767 19.204 18.602 19.034 19.072 18.947 18.554 19.534 18.607 19.382 17.829 17.399 17.467 17.472 17.414 17.784 18.057 17.967 18.029 19.517 19.389 17.717 17.239 17.237 17.189 17.127 17.079 17.017 17.004 16.979 16.922 16.877 16.847 16.804 16.702 16.657 16.547 16.437 16.362 16.282 16.222 16.104 16.049 15.954 15.922 15.877 15.829 15.774 15.729 15.689 15.594 15.552 15.499 15.434 15.362 15.284 15.207 15.099 15.034 14.974 14.927 14.879 14.847 14.774 14.699 14.674 14.607 14.572 14.549 14.527 14.487 14.417 14.384 14.374 14.312 14.232 14.174 14.129 14.074 14.039 13.999 13.914 13.859 13.802 13.754 13.657 13.572 13.532 13.534 13.472 13.434 13.374 13.349 13.274 13.252 13.169 13.137 13.067 12.989 12.922 12.867 12.797 12.752 12.677 12.612 12.514 12.489 12.404 12.344 12.272 12.237 12.174 12.149 12.089 12.027 11.979 11.952 11.892 11.862 11.842 11.842 11.822 11.792 11.757 11.764 11.754 11.734 11.717 11.692 11.662 11.622 11.547 11.517 11.474 11.452 11.399 11.344 11.274 11.262 11.189 11.109 11.062 10.994 10.947 10.942 10.902 10.967 11.679 14.439 11.854 11.282 10.487 10.417 10.307 10.202 10.207 10.199 10.169 10.139 10.109 10.079 10.059 10.014 9.982 9.904 9.847 9.804 9.769 9.744 9.747 9.669 9.637 9.589 9.517 9.452 9.392 9.322 9.274 9.182 9.162 9.092 8.994 8.942 8.877 8.837 8.767 8.737 8.687 8.627 8.564 8.517 8.522 8.462 8.424 8.392 8.357 8.292 8.259 9.629 10.687 8.389 8.759 9.082 10.879 8.246
