ncols 455
nrows 31
xllcorner    460030
yllcorner    92218
cellsize     2
NODATA_value -9999
6.259 7.183 6.937 6.384 7.091 5.983 5.927 6.075 6.111 6.12 6.639 6.392 6.527 6.578 6.919 7.696 9.577 12.898 13.104 12.881 8.38 8.804 9.711 9.428 10.025 11.076 9.542 10.103 10.4 16.728 19.301 23.48 23.15 19.588 25.773 24.251 22.122 19.378 21.752 23.395 23.804 22.214 20.143 15.889 11.456 11.373 11.513 11.684 12.294 12.928 13.062 13.19 13.202 13.812 20.054 24.193 26.465 25.982 26.41 25.86 18.36 14.971 14.912 14.894 14.882 14.908 14.889 14.892 15.061 15.168 15.242 15.257 18.164 17.86 16.234 16.633 16.617 16.676 16.73 16.817 16.812 17.22 17.216 19.131 19.313 17.482 17.524 17.569 17.697 17.774 17.966 18.1 18.313 18.834 22.404 27.725 29.954 30.28 29.29 25.207 22.77 20.497 20.254 22.532 30.537 32.766 24.752 20.797 20.57 21.229 23.68 23.669 21.848 21.883 21.961 21.967 23.023 23.26 22.336 22.825 24.981 23.55 23.194 23.046 23.243 24.376 22.338 22.468 23.525 24.997 26.2 24.507 23.232 23.229 24.475 25.139 30.024 29.077 25.631 25.265 32.162 33.236 23.643 22.999 23.947 23.665 23.436 22.006 21.905 21.793 21.744 21.683 21.54 21.467 21.393 21.694 26.996 30.481 26.504 24.476 22.564 22.589 22.571 22.61 22.335 26.546 28.805 22.939 21.445 21.354 21.375 21.331 21.281 21.154 20.948 20.75 20.621 20.431 20.229 21.682 25.966 24.735 30.949 34.877 34.486 29.582 22.709 27.934 23.608 22.532 18.676 17.861 17.725 17.615 17.342 17.265 17.073 16.843 16.651 16.423 16.232 16.021 15.901 15.714 15.5 15.301 15.139 14.995 14.766 14.558 14.401 14.237 14.088 13.945 13.879 13.847 15.014 26.15 22.605 13.534 19.93 25.395 22.63 23.761 21.278 25.875 26.134 25.101 21.983 18.149 15.007 13.771 13.301 13.297 13.321 13.392 13.491 13.578 13.724 13.757 13.827 13.71 13.568 13.457 13.413 13.398 13.796 13.195 13.099 17.145 17.666 13.812 12.785 12.831 12.925 13.872 15.229 13.097 13.269 13.254 13.378 13.418 13.476 13.491 13.565 13.587 13.655 13.673 13.669 13.736 13.809 14.003 13.943 13.984 14.145 15.101 14.344 14.378 14.487 14.588 14.636 14.629 16.859 29.552 32.747 26.676 18.221 19.429 31.308 27.37 18.274 14.274 14.371 14.556 15.154 22.346 26.427 15.241 14.608 14.697 14.372 14.283 14.204 14.054 13.865 17.832 19.112 13.877 13.428 13.714 19.49 18.924 15.267 13.02 12.839 12.737 12.639 12.55 12.464 12.41 12.342 12.277 12.125 12.047 11.997 12 11.97 11.934 11.865 11.752 11.655 11.584 11.568 11.527 11.448 11.443 11.348 11.241 11.173 11.087 11 10.814 10.618 10.416 10.037 9.674 9.347 10.619 11.188 9.973 10.4 15.441 22.602 24.728 26.859 27.732 20.089 11.822 9.255 9.471 14.214 21.515 21.01 19.327 12.286 8.561 8.351 9.016 8.24 7.996 8.384 12.105 22.152 25.555 25.056 22.901 11.949 7.541 7.466 13.476 19.145 23.958 26.465 28.095 29 28.851 24.021 20.88 25.871 20.901 20.911 20.334 14.526 5.997 6.044 6.063 6.105 6.274 9.295 12.549 10.614 6.56 5.922 6.058 4.394 3.938 3.446 3.272 3.181 3.123 3.145 3.158 3.237 3.307 3.334 3.329 3.318 3.288 3.253 3.203 3.201 3.162 3.096 3.069 3.05 3.007 3.001 2.983 2.985 2.958 2.961 2.925 2.936 2.919 2.925 2.906 2.877 2.851 2.81 2.755 2.714 2.668 2.612 2.654 2.506 2.683 2.457 2.466 2.47 2.47 2.476 2.467 2.477 2.479 2.483
5.015 5.253 5.479 5.743 6.029 5.877 6.008 6.116 6.182 6.229 6.756 6.497 6.588 7.212 7.733 7.329 8.531 14.822 15.45 13.837 7.365 8.044 9.429 9.279 9.585 9.488 9.467 9.99 15.27 17.517 22 23.406 23.293 23.353 24.808 24.749 21.87 17.897 21.959 23.721 24.893 24.433 21.305 16.176 11.655 11.429 11.554 11.687 12.202 12.889 13.121 13.193 13.214 15.359 22.529 25.045 26.456 26.011 26.359 26.021 23.412 13.996 14.914 14.981 15 15.02 15.019 15.004 15.063 15.267 15.261 16.33 20.447 20.642 16.899 16.605 16.59 16.67 16.848 17.659 16.858 17.886 17.241 17.25 18.119 18.032 17.861 17.667 17.746 17.886 18.375 20.348 21.165 19.176 21.15 26.686 29.588 28.904 28.899 23.492 19.761 20.152 20.199 22.045 26.063 26.087 21.363 20.577 20.597 20.627 20.977 23.226 22.013 21.899 21.984 22.02 22.616 22.069 21.96 22.174 23.146 23.627 22.184 22.243 22.826 23.046 23.221 22.379 22.474 25.309 26.535 25.468 22.971 22.758 23.601 24.717 28.808 29.144 28.992 35.796 39.389 37.193 26.422 26.3 25.137 28.083 26.257 22.606 22.457 22.378 22.393 22.328 22.215 21.988 21.94 22.181 23.724 26.358 25.757 22.797 22.737 22.773 22.778 25.31 30.727 34.33 37.019 36.141 25.494 21.859 21.705 21.695 21.627 21.47 21.255 21.085 20.927 20.755 20.539 21.85 24.823 25.473 27.4 32.793 33.922 32.075 26.628 33.812 26.899 22.189 18.304 18.139 17.961 17.787 17.62 17.453 17.284 17.072 16.947 16.717 16.511 16.341 16.156 15.999 15.734 15.522 15.441 15.336 15.136 14.855 14.676 14.553 14.313 14.178 14.098 14.029 15.103 20.338 15.843 13.705 17.883 24.326 23.668 22.08 26.619 25.6 28.499 28.087 21.599 18.293 18.989 17.828 13.546 13.527 13.507 13.559 13.682 13.76 14.003 14.01 13.966 13.829 13.701 13.625 13.603 13.573 13.386 13.317 16.037 19.941 23.148 17.625 13.842 13.073 13.088 13.198 13.3 13.348 13.486 13.468 13.502 13.564 13.569 13.687 13.77 13.835 13.826 13.862 13.885 13.905 14.008 14.811 14.032 14.147 14.33 15.137 14.426 14.535 14.552 14.648 14.652 14.684 15.008 21.026 24.069 18.539 15.323 18.728 24.43 26.571 24.411 16.918 14.666 14.485 15.821 21.655 22.815 14.855 14.968 18.813 22.277 20.244 17.231 14.294 14.126 14.323 14.352 13.747 13.601 13.507 13.391 13.274 13.215 13.109 13.024 12.987 12.892 12.801 12.704 12.64 12.605 12.497 12.393 12.288 12.249 12.309 12.253 12.158 12.072 11.986 11.939 11.77 11.695 11.621 11.606 11.633 11.594 11.522 11.456 11.422 11.399 11.372 11.214 10.953 10.646 10.42 10.308 16.879 22.829 19.387 11.441 10.552 12.468 15.077 19.548 23.097 17.707 13.086 9.545 9.244 9.987 10.431 10.947 10.855 9.193 9.959 15.883 18.091 10.948 8.287 8.249 8.27 10.199 12.189 10.913 11.798 9.06 7.874 7.776 8.189 11.567 21.333 26.393 26.029 26.313 23.25 25.265 28.215 26.802 24.142 21.762 26.048 15.253 6.034 6.009 6.108 6.153 6.192 6.51 7.233 6.543 6.21 5.902 6.365 4.962 4.441 4.211 3.779 3.428 3.306 3.283 3.152 3.229 3.265 3.283 3.299 3.291 3.288 3.253 3.232 3.189 3.196 3.112 3.099 3.081 3.029 3.032 3.009 2.98 2.975 2.971 2.976 2.969 2.979 2.981 2.943 2.928 2.905 2.865 2.81 2.762 2.7 2.661 2.608 2.581 2.531 2.494 2.517 2.496 2.477 2.497 2.482 2.496 2.478 2.492
5.124 5.313 5.491 5.67 5.723 5.9 6.137 6.268 6.304 6.293 6.743 6.71 6.725 6.798 7.036 7.431 13.178 15.829 15.938 15.314 13.966 15.269 12.956 11.68 10.463 9.55 9.564 9.917 15.577 14.854 18.261 21.696 23.261 22.091 23.705 23.851 21.224 14.833 17.329 21.409 24.437 23.977 17.674 14.218 14.85 13.626 12.678 12.062 12.384 15.601 17.091 15.843 13.292 15.379 23.6 25.991 26.478 26.427 26.43 26.299 25.315 15.495 14.866 15.098 15.073 15.072 15.124 15.044 15.11 15.337 15.436 17.128 20.031 20.906 18.455 19.866 17.29 16.707 16.872 17.408 16.794 17.261 17.031 17.145 17.384 21.955 23.511 22.813 22.712 19.474 25.749 28.509 27.983 22.881 19.948 23.566 26.512 26.598 24.173 19.93 20.628 22.056 20.275 20.368 21.456 21.334 20.557 20.683 21.049 20.654 21.055 24.42 26.271 22.55 22.022 22.05 22.341 22.257 22.701 22.639 22.684 23.969 22.823 22.617 22.521 22.44 23.254 22.414 22.535 24.55 26.254 25.352 23.561 22.908 23.018 23.589 27.494 30.329 33.898 40.619 40.946 38.113 29.485 24.746 32.123 30.872 26.323 24.084 24.617 25.572 23.632 22.981 22.819 22.615 22.522 22.386 22.433 23.174 23.516 25.364 26.039 23.252 24.955 27.705 32.97 36.985 37.509 38.309 38.83 29.433 28.517 22.106 21.999 21.916 21.663 21.511 21.264 21.047 20.866 20.92 24.469 27.487 28.387 29.151 30.375 30.505 33.253 31.636 22.218 23.867 18.456 18.374 18.195 18.082 17.869 17.657 17.453 17.324 17.189 17.014 16.822 16.616 16.363 16.152 15.944 15.774 15.681 15.604 15.411 15.158 14.888 14.74 14.561 14.401 14.309 14.261 14.175 14.125 14.054 14.015 18.798 21.487 22.55 26.434 26.583 27.965 30.519 29.461 25.377 23.49 23.291 21.017 14.426 13.776 13.797 13.841 13.89 14.037 14.228 14.148 14.072 13.969 13.88 13.78 14.216 14.197 13.623 13.512 13.539 17.236 19.373 17.68 14.119 13.243 13.299 13.489 13.496 13.619 13.856 13.599 13.598 13.741 13.755 13.872 13.943 13.989 14.026 13.972 14.01 14.012 14.109 14.969 14.215 14.394 14.383 14.503 14.548 14.64 14.738 14.797 14.854 14.851 14.861 17.044 16.357 15.079 14.919 14.933 21.485 27.838 26.208 19.449 18.018 15.138 15.01 15.096 15.346 15.039 18.865 33.316 33.486 32.812 24.369 15.522 14.515 14.12 13.958 15.067 13.787 13.617 13.575 13.5 13.424 13.264 13.177 13.173 13.088 12.995 12.899 12.835 12.813 12.713 12.606 12.546 12.472 12.431 12.397 12.333 12.284 12.216 12.389 12.077 11.99 11.887 11.848 11.789 11.741 11.702 11.656 11.652 11.663 11.657 11.495 11.284 11.116 10.954 12.819 23.137 26.708 24.414 14.504 10.353 15.259 17.701 11.397 15.559 11.137 10.133 9.603 9.483 9.409 9.305 9.205 9.072 9.16 20.206 25.15 26.09 17.928 8.842 9.161 8.511 8.512 8.481 8.482 8.435 8.446 8.327 8.184 8.114 10.452 18.636 20.353 19.505 21.466 25.731 24.892 27.057 25.815 25.158 26.604 22.041 9.337 6.317 6.18 6.176 6.189 7.087 8.298 8.744 7.452 7.436 6.006 6.04 5.943 4.75 4.508 4.505 4.399 4.14 3.783 3.317 3.219 3.227 3.257 3.273 3.234 3.255 3.261 3.228 3.169 3.197 3.164 3.147 3.079 3.066 3.062 3.047 3.028 3.019 3.029 3.006 3.015 3.031 2.991 3.001 2.98 2.937 2.914 2.873 2.829 2.786 2.719 2.686 2.625 2.618 2.57 2.53 2.511 2.531 2.505 2.523 2.502 2.507 2.487
5.241 5.433 5.557 5.749 5.831 6.054 6.206 6.336 6.339 6.313 6.804 6.952 6.738 7.146 6.801 7.844 16.923 17.079 17.222 17.302 17.39 17.391 16.252 12.558 11.567 9.542 9.647 9.718 11.896 12.794 16.496 18.453 20.528 22.444 22.395 19.535 14.762 11.123 15.506 21.727 22.281 23.387 20.145 22.733 21.102 18.986 16.889 19.019 20.574 21.133 20.279 20.298 15.084 14.913 23.669 25.665 25.616 25.563 25.548 25.123 23.989 14.064 14.84 15.164 15.169 15.173 15.144 15.319 15.135 15.436 15.528 15.412 16.817 20.716 19.726 21.944 18.241 16.675 16.818 17.527 18.71 17.679 16.751 16.918 18.928 25.852 24.831 22.912 25.348 26.177 28.767 29.281 28.939 27.087 20.556 19.511 21.392 21.186 22.063 22.54 23.242 21.518 20.046 21.844 21.462 20.484 20.599 20.702 21.96 20.939 20.819 24.559 26.778 25.005 21.971 22.058 22.359 22.315 23.397 22.343 23.103 23.554 24.004 22.584 22.768 22.711 23.259 24.59 25.696 24.556 22.91 24.883 25.359 23.254 23.028 23.504 29.934 34.192 37.312 40.691 40.699 36.523 32.095 29.602 32.506 32.205 27.668 25.048 25.871 29.681 27.025 23.69 23.261 23.084 23.067 22.947 22.901 23.08 29.1 30.645 30.858 26.505 34.957 37.285 34.262 36.418 35.514 37.519 34.799 32.944 34.484 27.835 23.586 22.201 22.056 21.828 21.596 21.389 21.169 21.004 21.276 23.784 22.4 20.309 20.691 28.96 29.968 29.386 23.061 20.626 19.719 18.57 18.474 18.322 18.102 17.894 17.672 17.505 17.397 17.348 17.092 16.9 16.672 16.387 16.228 16.068 15.991 15.793 15.64 15.425 15.235 15.001 14.828 14.699 14.611 14.526 14.454 14.37 14.29 17.105 22.294 27.824 30.673 30.874 29.845 29.934 32.339 30.322 26.729 27.961 24.461 23.664 16.044 14.062 14.053 14.08 14.038 14.139 14.876 14.394 14.215 14.137 14.075 13.964 14.184 14.667 13.824 13.735 15.139 16.647 18.441 15.895 13.486 13.438 13.99 19.693 13.755 16.831 15.319 15.066 13.909 13.888 13.984 13.993 14.091 14.142 14.141 14.162 14.216 14.237 14.298 14.358 14.448 14.479 14.56 14.654 14.748 14.844 14.903 14.893 14.991 15.02 15.114 15.278 15.41 15.505 15.388 15.368 16.18 23.275 24.764 20.906 20.316 16.118 15.525 15.23 15.366 15.413 24.637 36.996 38.123 36.544 27.08 17.709 17.474 14.504 14.191 14.096 13.908 13.844 13.805 13.839 13.661 13.455 13.345 13.305 13.212 13.148 13.065 13.006 12.96 12.881 12.795 12.73 12.671 12.603 12.669 12.902 12.719 12.498 12.356 12.271 12.219 12.189 12.258 12.076 12.011 11.961 11.888 11.825 11.775 11.732 11.613 11.512 11.442 11.339 14.21 23.432 24.334 20.762 14.606 17.552 25.804 25.901 16.476 10.422 10.213 9.934 9.83 9.74 9.655 9.551 9.445 9.339 13.203 23.107 28.823 27.982 18.344 9.434 8.857 8.825 8.832 8.918 10.083 8.9 10.115 9.226 10.998 10.438 8.571 9.558 9.818 11.693 14.297 20.205 20.34 16.794 21.072 24.666 20.434 15.165 7.104 6.968 6.809 6.531 6.21 15.868 16.904 18.69 15.155 12.856 9.383 8.44 6.831 5.522 4.642 5.245 4.742 4.54 4.574 4.407 3.898 3.392 3.23 3.223 3.254 3.242 3.258 3.221 3.237 3.202 3.179 3.137 3.074 3.1 3.079 3.059 3.047 3.035 3.064 3.092 3.046 3.073 3.024 3.012 2.999 2.96 2.955 2.929 2.864 2.841 2.779 2.727 2.683 2.674 2.636 2.593 2.566 2.533 2.513 2.531 2.524 2.545 2.532
5.278 5.414 5.6 5.794 6.034 6.089 6.31 6.39 6.454 6.44 7.697 8.109 7.523 6.865 7.015 7.312 16.062 17.338 17.098 17.169 17.425 16.693 13.469 12.26 11.008 10.724 10.862 12.457 13.119 16.749 19 19.929 21.501 22.249 18.101 11.692 12.293 11.399 18.186 22.346 23.493 22.795 22.541 25.095 23.206 22.298 16.781 19.435 23.746 23.433 22.477 21.027 18.087 16.259 16.305 16.277 14.772 15.846 16.116 16.07 14.471 14.799 14.329 15.218 15.512 15.585 15.491 15.61 15.309 15.466 15.677 15.586 15.482 18.167 18.891 17.889 16.923 16.936 16.999 19.963 20.136 18.63 20.048 20.469 20.753 26.175 26.226 23.199 25.972 28.162 29.344 28.806 28.514 27.516 21.936 22.319 23.152 24.675 25.32 25.645 25.933 22.838 20.139 20.954 22.837 20.763 20.831 20.917 21.214 21.438 22.329 23.707 24.412 23.077 23.074 23.667 23.019 23.111 24.135 24.917 25.048 24.303 24.078 24.226 23.243 23.581 25.031 27.895 27.391 26.128 22.712 24.149 25.134 25.14 23.606 24.133 36.861 37.673 39.313 40.007 39.189 36.658 33.798 28.188 29.951 30.267 26.24 25.233 25.483 28.378 29.937 24.131 23.642 23.446 23.395 23.262 23.299 25.092 31.188 31.816 30.568 34.039 36.681 38.131 36.866 38.849 40.268 40.374 35.353 38.758 41.078 36.995 31.377 22.95 22.351 22.161 21.983 21.73 21.482 21.292 21.065 20.836 20.567 20.334 20.044 19.905 23.092 22.138 19.158 19.049 18.84 18.75 18.644 18.523 18.341 18.132 17.875 17.699 17.574 17.511 17.351 17.138 16.938 16.719 16.611 16.403 16.257 16.086 15.891 15.734 15.503 15.313 15.134 15.005 14.918 14.818 14.725 14.622 14.745 20.29 26.172 29.508 30.036 31.628 29.177 30.376 30.686 31.739 29.283 28.77 24.7 22.69 19.873 14.549 14.245 14.252 14.265 14.316 14.773 14.945 14.461 14.354 14.273 14.121 14.084 14.207 13.996 14.003 14.368 14.67 16.981 15.233 13.753 13.771 14.108 16.864 21.335 22 20.986 20.821 14.64 14.001 14.09 14.155 14.198 14.226 14.324 14.365 14.387 14.345 14.419 14.454 14.588 14.713 14.713 14.805 14.917 15.045 15.084 15.13 15.2 15.254 15.365 15.589 15.818 15.944 15.847 15.855 15.748 17.061 18.002 16.725 28.753 17.506 15.511 15.543 15.565 17.501 27.226 35.814 36.993 35.721 29.801 21.713 16.815 14.523 14.444 14.265 14.15 14.08 14.129 17.538 15.045 13.713 13.595 13.518 13.41 13.348 13.258 13.174 15.04 13.855 13.009 12.914 12.848 12.771 14.188 18.561 22.733 19.192 12.975 12.423 12.43 12.448 12.438 12.322 12.27 12.226 12.175 12.105 11.982 11.898 11.797 11.727 11.666 11.622 11.935 15.66 17.203 15.317 12.011 20.012 26.642 28.825 21.955 11.363 10.43 10.252 10.122 10.017 9.879 9.783 9.7 9.589 10.111 21.278 28.676 26.8 14.926 9.276 9.191 9.174 9.206 10.176 15.157 12.678 15.735 15.548 13.573 11.525 9.176 8.991 8.701 11.05 14.085 13.488 22.031 23.276 28.899 25.25 27.828 19.308 16.112 7.682 7.356 7.421 6.807 7.407 12.102 17.876 16.688 22.334 13.253 16.385 11.358 6.116 5.88 6.032 6.103 5.781 5.131 4.628 4.56 4.542 4.203 3.722 3.312 3.272 3.214 3.224 3.218 3.194 3.197 3.155 3.11 3.144 3.109 3.131 3.107 3.092 3.113 3.109 3.086 3.101 3.101 3.047 3.015 3.018 2.992 2.961 2.908 2.861 2.822 2.786 2.756 2.736 2.697 2.66 2.635 2.595 2.59 2.591 2.583 2.577 2.543
6.675 6.443 6.294 6.218 6.377 6.213 6.273 6.456 6.481 6.526 8.18 7.702 7.327 7.221 7.13 7.321 13.182 17.213 16.997 16.916 17.483 15.221 12.586 12.676 11.184 10.898 11.688 17.631 19.157 20.178 20.136 20.313 22.072 22.706 18.929 12.315 13.437 11.813 15.79 23.356 23.677 19.503 18.173 22.067 22.469 23.439 23.356 21.952 23.651 23.68 19.037 16.765 15.341 14.42 14.147 14.33 17.465 26.37 26.675 26.609 26.667 25.647 15.756 15.46 15.424 15.476 15.476 15.401 15.443 15.49 15.666 15.76 15.601 16.738 19.672 17.359 17.107 20.76 21.827 22.036 22.178 22.336 22.111 21.229 20.251 24.067 26.979 26.11 24.975 27.112 28.604 28.295 26.54 23.02 22.667 23.527 23.809 26.016 26.422 26.667 26.86 24.766 20.35 20.482 20.542 20.754 21.622 22.847 24.175 24.104 24.523 23.946 22.072 26.042 28.235 26.71 26.124 27.194 26.853 24.744 24.627 24.462 24.227 24.707 23.322 24.807 26.96 28.344 28.265 26.605 23.215 23.252 24.39 25.391 24.887 24.556 32.766 36.874 37.543 38.907 35.977 32.945 29.048 27.446 27.58 27.413 25.834 25.817 27.633 33.227 36.812 29.577 24.451 23.789 23.811 23.675 25.732 32.959 34.511 34.441 34.302 29.763 37.677 39.256 37.371 35.855 40.783 39.423 39.663 41.663 41.755 39.116 32.67 22.822 22.615 22.48 22.262 22.063 21.817 21.616 21.287 21.135 20.9 20.636 20.343 20.078 19.838 19.597 19.366 19.225 19.089 18.916 18.852 18.741 18.539 18.362 18.149 17.896 17.775 17.73 17.536 17.312 17.175 17.052 16.927 16.747 16.641 16.524 16.386 16.083 15.775 15.656 15.488 15.318 15.202 15.061 14.935 14.847 15.222 20.489 25.607 27.163 27.937 28.983 31.672 28.481 30.456 31.927 31.054 28.783 24.656 21.408 20.731 15.237 14.468 14.407 14.442 14.484 16.036 17.151 15.238 14.515 14.452 15.154 15.198 14.593 14.203 14.231 14.227 14.435 16.703 16.206 13.977 13.911 14.613 19.953 23.537 26.306 26.372 22.965 16.43 14.146 14.194 14.287 14.355 14.397 14.437 14.436 14.576 14.588 14.664 14.686 14.774 14.893 14.969 14.946 15.102 15.206 15.305 15.368 15.488 15.577 15.616 15.919 16.158 16.308 16.204 16.23 16.128 16.041 16.003 17.288 20.579 16.478 15.8 15.798 16.141 18.481 24.528 31.431 32.351 27.642 25.617 21.481 17.057 15.191 16.546 14.519 15.39 14.861 17.176 21.477 20.298 15.193 13.896 13.727 13.62 13.568 13.585 16.775 21.793 18.122 13.203 13.088 13.639 13.799 20.04 29.015 32.508 31.306 20.785 12.658 12.648 12.666 12.606 12.544 12.514 12.473 12.415 12.315 12.232 12.191 12.124 12.026 11.903 11.818 11.753 14.637 15.324 13.784 12.144 24.833 30.717 28.328 24.107 20.095 10.7 10.554 10.408 10.275 10.131 10.028 9.924 10.689 10.293 14.708 16.441 14.742 10.583 9.674 9.605 9.608 9.686 18.843 14.433 13.11 25.479 22.095 15.843 9.812 9.638 9.482 9.196 9.462 13.318 14.859 19.775 19.662 25.578 24.198 19.808 23.642 22.365 8.675 7.901 8.129 8.49 7.934 12.281 16.592 20.077 27.34 10.008 17.566 17.279 12.484 11.978 13.624 7.666 5.969 6.007 6.075 5.612 4.933 4.607 4.546 4.492 4.129 3.538 3.258 3.192 3.184 3.185 3.163 3.178 3.177 3.131 3.139 3.136 3.157 3.152 3.139 3.134 3.152 3.141 3.109 3.097 3.076 3.02 3.007 2.972 2.946 2.867 2.843 2.791 2.785 2.744 2.701 2.707 2.668 2.636 2.662 2.623 2.613 2.567
11.06 8.323 6.387 6.719 7.306 6.422 6.346 6.552 6.627 6.596 6.979 7.098 7.128 8.249 8.059 8.33 9.467 16.495 17.06 16.913 17.249 15.816 12.762 12.294 10.725 9.842 10.411 15.561 20.095 18.858 21.111 21.237 22.52 22.882 23.786 23.192 20.986 14.051 12.052 18.733 20.567 22.943 21.902 15.953 17.51 22.509 22.754 21.457 22.501 23.174 20.81 17.114 15.089 14.346 14.186 14.413 23.161 27.041 27.765 26.74 27.406 27.478 21.293 15.516 15.499 15.589 15.561 15.804 16.036 15.548 15.748 15.797 15.705 17.002 21.012 19.579 18.562 21.899 23.013 23.334 23.464 23.325 22.373 21.379 20.34 20.199 24.145 25.083 21.069 20.876 27.676 24.447 19.414 21.127 21.863 23.155 22.874 25.728 26.67 26.387 26.077 25.473 20.566 20.413 20.923 23.195 25.589 26.312 26.693 25.644 24.937 24.556 22.352 24.201 28.151 27.977 28.204 28.53 28.635 24.814 24.627 24.573 23.509 25.67 27.16 28.562 29.052 29.483 29.7 25.61 23.447 23.18 27.075 25.476 25.924 24.011 28.27 33.198 34.257 33.054 29.32 24.766 26.125 26.767 25.176 24.695 24.669 26.956 34.396 40.339 38.748 39.603 29.054 24.127 24.136 25.516 32.274 35.704 33.777 39.212 32.988 26.301 37.72 35.291 36.594 34.985 37.802 37.718 36.839 41.826 41.442 39.748 32.477 25.707 22.899 22.768 22.517 22.358 22.182 21.992 21.645 21.373 21.211 20.957 20.643 20.393 20.175 19.913 19.655 19.44 19.309 19.15 19.013 18.879 18.764 18.597 18.364 18.128 17.958 17.823 17.69 17.53 17.395 17.259 17.131 17.002 16.826 16.755 16.598 16.452 16.102 15.951 15.797 15.627 15.47 15.318 15.179 15.112 15.034 18.343 26.169 27.214 28.683 29.408 32.5 29.851 31.313 31.715 30.393 29.121 26.346 20.551 20.216 14.759 14.69 14.693 14.714 14.783 17.046 18.264 15.342 14.624 15.097 17.581 15.691 14.852 15.175 14.54 14.421 14.558 15.876 14.839 14.136 14.048 16.885 20.18 24.795 26.244 27.53 25.515 18.599 14.388 14.416 14.44 14.508 14.578 14.626 14.649 14.752 14.843 14.876 14.967 15.021 15.077 15.145 15.188 15.323 15.391 15.523 15.61 15.662 15.785 15.883 16.188 16.359 16.494 16.467 16.498 16.415 16.367 16.33 18.278 16.419 16.961 16.343 16.034 16.11 21.66 28.503 28.871 28.488 25.38 22.201 16.103 15.165 16.274 17.214 17.722 16.374 16.057 16.713 20.719 22.771 18.936 14.122 14.002 13.905 13.8 13.849 17.22 21.971 20.544 14.705 13.648 17.614 18.803 23.093 31.478 32.734 31.417 27.487 12.812 12.856 12.846 12.802 12.756 12.686 12.66 12.625 15.003 15.596 13.429 12.617 12.742 12.167 12.089 12.904 23.424 25.943 19.166 15.521 24.963 27.784 29.784 24.351 22.442 11.107 10.919 10.743 10.679 12.821 13.943 18.174 26.33 24.049 17.791 10.037 10.061 10.145 10.121 10.074 12.055 11.842 21.665 25.21 24.638 31.311 27.878 15.37 10.079 10.02 9.847 9.638 12.286 20.278 15.116 24.001 19.379 16.569 23.376 20.348 25.097 24.03 8.823 8.116 8.329 8.814 12.76 16.931 21.635 22.225 22.57 16.238 23.661 22.356 23.069 24.787 22.069 17.144 6.314 5.983 5.99 5.962 6.008 6.045 5.392 4.811 4.564 4.559 4.455 3.935 3.427 3.203 3.133 3.174 3.179 3.174 3.157 3.18 3.181 3.182 3.196 3.173 3.191 3.178 3.154 3.131 3.076 3.072 3.018 2.989 2.929 2.929 2.918 2.855 2.831 2.777 2.776 2.757 2.71 2.703 2.703 2.676 2.661 2.678
14.97 10.148 6.331 7.246 6.872 6.545 6.39 6.641 6.727 6.725 7.283 7.751 7.305 7.91 8.072 7.702 10.747 16.657 16.434 16.169 11.505 10.642 9.756 9.82 9.623 9.94 10.859 16.631 19.484 20.272 20.995 22.417 22.739 23.186 25.209 24.722 22.223 15.335 13.798 16.365 17.553 22.642 21.374 16.656 13.247 15.516 15.918 14.322 16.867 20.263 18.196 18.187 16.066 14.314 14.295 14.237 23.145 26.986 27.605 27.607 27.664 27.322 20.057 15.56 15.601 15.56 15.576 17.374 17.897 15.693 15.856 15.879 15.872 16.767 20.775 18.627 17.433 21.197 23.137 23.497 23.298 23.17 22.481 21.516 20.475 19.77 18.916 18.853 18.433 18.564 22.923 19.969 18.629 22.62 23.232 21.149 19.93 22.853 25.363 24.368 23.273 21.682 22.681 21.006 23.264 26.863 27.234 27.564 27.723 25.964 23.344 22.164 21.522 23.383 28.587 28.871 28.788 28.573 28.239 25.309 24.397 22.778 22.752 26.79 29.528 29.957 30.216 30.182 29.837 26.013 24.116 22.872 27.101 26.807 28.271 25.43 24.669 27.982 26.46 25.569 24.018 24.005 24.848 27.686 28.521 28.152 25.381 30.469 39.051 40.235 40.562 41.358 33.813 29.225 31.223 29.35 34.585 36.488 39.015 40.167 39.123 26.8 30.026 30.503 27.597 27.326 31.609 31.493 37.857 38.462 38.664 37.468 33.992 28.089 23.145 22.954 22.768 22.618 22.484 22.317 22 21.706 21.521 21.249 20.96 20.705 20.487 20.268 19.999 19.707 19.559 19.369 19.188 19.047 18.887 18.796 18.618 18.404 18.19 18.026 17.875 17.748 17.596 17.438 17.294 17.175 17.05 16.921 16.843 16.751 16.528 16.247 16.068 15.927 15.753 15.596 15.456 15.408 15.319 16.01 23.882 27.26 28.086 28.927 29.249 30.624 30.453 29.94 29.237 29.077 25.803 22.888 19.461 14.887 14.869 14.873 14.881 14.982 15.018 15.483 15.661 14.855 15.387 16.032 15.153 17.311 16.954 16.297 14.642 14.869 16.107 14.756 14.395 14.246 15.207 18.926 20.459 24.848 26.696 24.342 16.016 14.594 14.576 14.63 14.661 14.787 14.787 14.885 14.998 15.009 15.063 15.146 15.248 15.272 15.376 15.498 15.53 15.632 15.836 15.791 16 16.012 16.137 16.48 16.554 16.677 16.672 16.689 16.646 16.644 16.63 16.59 16.654 17.491 18.182 16.215 16.179 17.757 22.335 25.446 20.881 20.781 18.339 15.469 15.3 15.369 24.352 23.221 19.295 15.622 14.892 17.113 20.841 17.157 14.4 14.21 14.088 14.035 13.95 14.454 16.458 22.083 26.483 23.826 19.421 19.241 21.509 26.486 28.798 27.625 17.126 13.453 13.174 13.046 13 12.942 12.913 12.873 16.938 23.666 25.192 21.608 21.755 20.882 14.292 12.337 14.39 22.428 22.945 19.606 15.689 14.768 20.657 15.705 19.895 12.284 11.486 11.321 11.19 11.468 21.068 29.106 29.994 34.735 33.657 21.4 12.196 10.276 10.386 10.414 10.369 11.336 13.833 25.386 30.971 31.369 32.841 26.517 13.224 10.501 10.382 10.288 10.094 13.733 21.055 25.88 22.82 18.435 10.145 13.237 20.885 26.732 24.997 9.311 8.259 9.102 8.872 16.978 25.438 25.681 23.433 26.412 24.767 25.232 26.39 22.012 26.305 26.397 19.63 12.876 5.984 5.981 5.938 5.953 5.925 5.952 6.054 5.884 5.183 4.654 4.588 4.542 4.384 3.815 3.316 3.178 3.175 3.204 3.209 3.22 3.221 3.207 3.203 3.208 3.185 3.19 3.173 3.129 3.088 3.047 3.035 2.976 2.966 2.942 2.895 2.856 2.86 2.829 2.796 2.77 2.758 2.759 2.74 2.724 2.708
15.104 12.041 6.622 6.697 6.512 6.534 6.441 6.718 6.83 6.807 7.055 7.192 7.718 7.462 8.007 8.427 8.82 15.605 15.954 16.045 9.869 9.014 9.479 9.633 9.87 10.279 10.975 14.753 18.079 19.065 21.535 23.685 22.065 23.929 23.901 25.238 20.509 12.931 17.59 19.827 16.055 15.95 16.085 14.823 13.641 12.617 12.66 12.743 13.696 15.055 14.297 13.952 14.177 14.238 14.309 14.227 22.626 26.959 27.955 28.028 28.013 27.427 23.823 18.086 15.647 15.628 15.666 17.503 18.603 15.833 15.879 15.941 15.972 17.727 21.082 20.157 18.259 20.205 22.569 22.509 22.03 21.142 21.061 18.879 18.225 18.923 18.658 18.352 18.328 18.431 18.532 18.77 21.256 22.17 24.009 23.316 20.074 19.957 20.56 20.099 19.77 19.806 21.8 21.2 21.853 27.747 27.49 27.078 26.657 24.907 20.937 21.629 22.35 23.092 27.379 28.184 27.588 26.358 24.205 22.939 22.46 22.646 22.723 24.102 30.116 29.766 29.323 28.972 28.067 25.653 23.301 22.967 25.069 26.003 26.032 26.008 27.719 26.744 23.831 24.343 24.142 25.313 31.873 34.548 33.984 34.153 34.857 34.264 40.981 42.862 41.767 38.624 35.758 33.414 34.096 31.655 28.685 36.323 35.197 35.896 37.667 35.278 25.028 31.029 24.331 25.795 36.151 38.695 41.146 39.581 40.355 35.636 30.914 24.417 23.419 23.236 23.006 22.873 22.743 22.654 22.424 22.122 21.791 21.594 21.257 21.015 20.8 20.627 20.261 19.993 19.768 19.599 19.457 19.288 19.031 18.92 18.802 18.587 18.43 18.267 18.147 17.986 17.847 17.655 17.48 17.32 17.21 17.054 17.015 16.989 16.861 16.732 16.54 16.266 16.096 15.942 15.797 15.706 15.546 15.937 23.524 27.199 27.946 28.056 26.778 29.983 29.284 27.169 27.154 26.151 25.409 24.113 18.308 15.07 15.104 15.085 15.093 15.173 15.194 15.236 18.106 17.999 15.948 14.889 14.901 15.553 16.09 16.177 14.824 15.28 16.091 14.977 14.482 17.991 15.369 17.614 18.73 20.197 23.134 17.66 14.731 14.686 14.73 14.779 14.879 14.955 15.052 15.091 15.175 15.266 15.302 15.404 15.419 15.479 15.578 15.66 15.774 15.823 15.979 16.076 16.195 16.293 16.407 16.637 16.746 16.884 16.878 16.938 16.914 16.923 16.922 16.841 16.798 16.701 16.601 16.479 16.421 17.862 23.615 22.483 18.223 16.394 15.8 15.609 15.464 17.804 16.119 22.903 19.409 19.881 20.969 15.568 16.007 14.908 14.597 14.508 14.42 14.297 14.212 14.264 20.789 27.273 31.983 28.381 19.678 13.758 14.48 17.534 21.201 18.066 13.652 13.44 13.373 13.274 13.231 13.178 13.161 21.913 22.408 32.189 32.106 33.649 33.593 30.1 19.383 12.638 12.544 15.608 15.785 13.722 12.423 12.334 12.418 12.248 12.118 11.888 11.692 11.493 11.493 12.74 22.472 31.617 31.772 33.935 25.766 23.786 17.392 12.286 11.708 10.676 10.74 11.315 15.66 26.976 25.6 28.431 25.186 15.539 12.05 10.995 10.904 11.001 17.539 23.539 28.284 24.881 15.597 13.993 11.942 14.27 19.544 23.372 14.74 8.292 12.718 11.531 9.956 13.979 22.642 19.421 22.27 21.706 23.561 24.66 25.121 22.523 25.495 24.937 25.215 13.706 6.021 5.943 5.921 5.974 5.942 5.926 5.944 5.961 5.98 6.042 5.723 4.951 4.621 4.696 4.537 4.226 3.639 3.24 3.214 3.213 3.249 3.227 3.244 3.262 3.188 3.2 3.182 3.16 3.138 3.098 3.062 3.022 2.964 2.935 2.944 2.915 2.902 2.898 2.895 2.839 2.832 2.835 2.814 2.777 2.746
15.042 8.858 6.597 7.188 6.823 6.753 6.541 6.8 6.877 6.919 6.98 7.44 7.993 7.511 7.767 7.923 8.35 14.252 14.453 14.578 10.507 9.433 9.539 9.886 10.018 10.053 10.102 10.192 12.16 17.563 22.328 24.4 25.438 22.687 24.015 24.509 22.134 14.713 16.229 22.836 16.232 15.685 14.721 15.258 13.959 15.332 12.757 12.824 13.001 13.117 13.162 13.463 14.126 14.294 14.327 14.838 23.672 26.95 27.944 28.057 27.997 27.44 25.914 17.642 15.707 15.663 15.755 16.307 18.627 16.582 15.996 16.083 16.065 17.126 20.459 21.785 19.518 17.842 17.602 16.914 16.719 16.918 16.974 17.106 17.562 18.309 19.031 18.432 18.441 18.526 18.576 18.726 18.972 20.924 23.528 23.758 20.203 19.595 19.673 19.917 19.776 19.785 20.626 21.914 21.271 25.672 25.196 23.428 21.938 21.478 21.275 22.032 22.018 22.735 23.23 23.802 22.89 22.288 22.746 22.566 22.676 22.86 22.927 24.267 28.319 27.763 28.208 27.779 23.393 22.913 23.305 23.221 23.364 23.626 23.924 27.618 30.318 27.189 23.85 24.061 24.645 28.845 38.217 38.694 39.577 35.694 38.236 33.788 35.53 41.026 38.951 40.527 40.217 40.491 34.087 31.796 28.919 36.409 35.765 37.867 37.604 36.258 26.575 25.907 29.922 29.652 41.344 39.363 41.524 40.431 35.751 35.999 30.805 25.075 23.642 23.537 23.594 23.083 22.944 22.84 22.703 22.428 22.142 21.835 21.565 21.342 21.155 20.915 20.637 20.316 20.004 19.815 19.689 19.571 19.347 19.071 18.929 18.848 18.691 18.469 18.333 18.195 18.065 17.869 17.686 17.542 17.39 17.266 17.2 17.21 17.074 17.017 16.879 16.69 16.348 16.175 16.033 15.905 15.781 15.738 18.034 24.688 25.39 27.338 26.4 27.233 28.673 28.315 26.852 25.116 24.087 22.609 16.455 15.319 15.325 15.35 15.299 15.42 15.451 16.386 17.428 15.148 15.181 15.105 15.08 15.133 15.367 15.184 14.987 15.47 16.361 15.117 20.679 21.896 21.397 24.222 21.829 18.171 15.947 14.91 14.906 14.911 14.979 15.054 15.087 15.171 15.271 15.296 15.344 15.404 15.477 15.575 15.598 15.68 15.82 15.905 16.06 16.082 16.179 16.3 16.416 16.486 16.678 16.918 17.013 17.094 17.099 17.145 17.177 17.177 17.154 17.069 17.018 16.939 16.892 18.45 19.188 16.775 17.828 20.016 16.262 16.188 15.987 15.803 15.706 15.794 15.514 15.393 16.209 15.189 16.726 15.031 15.045 15.876 14.839 14.774 14.685 14.592 14.486 14.33 21.12 27.855 30.739 26.53 19.857 14.055 13.956 19.669 22.63 18.143 14.462 13.559 13.543 13.524 13.519 13.458 13.436 17.802 28.218 35.406 34.538 34.025 31.917 29.146 15.987 12.91 12.792 12.725 12.646 12.624 12.61 12.569 12.533 12.472 12.377 12.225 14.45 18.126 16.221 14.503 23.729 30.577 24.608 25.977 22.397 23.179 19.827 22.424 17.829 11.067 11.433 13.184 17.154 26.213 20.611 19.01 15.931 17.181 11.798 11.46 11.329 13.574 25.455 27.206 31.264 29.268 27.169 31.338 25.211 21.676 25.67 21.958 10.04 8.665 19.421 13.03 10.778 8.726 11.504 13.075 19.954 26.194 12.305 11.55 14.108 14.334 15.654 17.248 20.66 13.348 7.253 6.224 6.021 6.27 7.476 7.298 7.17 5.942 5.932 5.89 6.096 7.462 9.818 5.841 4.767 4.578 4.564 4.441 4.061 3.5 3.247 3.215 3.234 3.231 3.243 3.244 3.217 3.223 3.207 3.143 3.091 3.058 3.025 3.014 2.979 2.945 2.956 2.939 2.922 2.901 2.893 2.885 2.881 2.857 2.805
15.001 8.591 6.344 6.782 7.123 6.871 6.603 6.893 6.956 7.23 7.218 7.785 7.97 8.165 8.416 8.581 8.801 9.129 9.228 9.514 10.091 10.169 10.068 10.224 10.448 11.727 11.899 12.203 12.281 17.992 20.454 21.902 21.837 24.648 25.51 25.175 23.831 14.065 14.288 16.665 14.573 13.932 18.347 13.03 14.291 15.451 12.88 12.943 13.061 13.875 16.175 20.986 20.16 19.296 15.809 15.186 24.845 27.089 27.931 28.033 27.972 27.626 26.708 18.448 15.637 15.758 16.385 15.956 18.345 17.212 15.963 16.141 16.212 16.134 20.203 23.177 22.427 17.408 17.123 16.675 16.747 16.761 16.915 16.963 17.415 18.805 19.398 18.517 18.607 18.625 18.663 18.694 18.803 21.746 23.337 22.731 19.875 19.746 19.772 19.89 19.945 20.134 22.606 23.445 21.245 21.26 21.736 22.401 21.812 21.527 21.295 21.351 21.747 22.38 22.55 22.416 22.439 22.635 22.524 22.508 23.104 24.379 23.276 26.827 25.146 24.625 25.337 25.443 23.079 28.626 31.556 27.562 29.205 24.071 23.763 24.526 29.028 30.039 24.754 23.993 24.759 34.52 40.222 39.934 43.5 41.975 42.818 38.781 38.692 39.439 40.703 41.129 38.535 41.47 37.903 36.37 35.859 35.238 37.146 37.386 34.776 33.42 36.336 32.961 31.886 30.407 39.532 38.89 40.362 39.145 35.243 32.1 30.207 24.763 23.803 24.014 25.434 23.381 23.183 23.021 22.938 22.743 22.47 22.178 21.874 21.589 21.391 21.585 21.424 20.7 20.35 20.115 19.901 19.811 19.655 19.343 19.031 18.887 18.788 18.673 18.532 18.301 18.223 18.085 17.973 17.802 17.592 17.534 17.402 17.307 17.206 17.161 17.115 16.898 16.673 16.479 16.308 16.167 16.068 15.92 15.998 18.976 22.508 24.769 22.508 24.509 24.461 25.252 21.208 22.16 20.771 17.019 15.582 15.583 15.563 15.559 15.579 15.689 15.748 16.082 16.89 15.413 15.402 15.371 15.323 15.373 15.288 15.232 15.206 15.693 16.353 16.895 22.751 23.954 27.774 24.79 23.566 19.723 15.243 15.159 15.093 15.101 15.176 15.233 15.31 15.332 15.438 15.53 15.543 15.679 15.803 15.801 15.911 15.947 16.024 16.165 16.292 16.447 16.414 16.552 16.639 16.786 16.909 17.188 17.32 17.352 17.319 17.339 17.357 17.385 17.385 17.338 17.286 17.205 17.181 20.32 22.705 21.508 22.233 18.94 17.2 16.931 16.292 16.116 16.031 15.921 15.868 15.624 15.474 15.409 15.331 15.238 15.16 15.084 15.038 14.978 14.911 14.806 14.672 14.538 17.496 26.534 29.118 24.29 16.361 15.12 16.42 21.789 23.023 22.518 17.901 14.691 14.663 14.034 13.744 13.85 14.305 14.25 21.665 28.579 32.765 32.795 26.368 17.817 13.669 13.197 13.085 12.963 13.028 12.908 14.078 13.143 12.792 12.76 12.708 12.594 21.994 29.55 23.246 20.047 27.679 23.633 17.264 15.126 19.344 24.52 22.93 26.998 17.67 11.577 11.496 12.892 14.33 17.057 14.805 14.482 12.725 13.14 12.682 12.547 13.691 24.76 27.763 26.814 30.959 32.633 25.852 30.723 29.274 29.396 24.688 17.344 11.114 11.679 12.943 15.472 9.194 8.925 11.401 22.205 26.207 27.25 15.639 8.155 7.84 7.78 11.711 17.922 16.978 12.397 7.077 6.886 6.586 12.685 17.409 17.729 14.095 5.891 5.868 6.466 10.18 13.895 15.161 12.797 7.508 5.729 5.022 4.587 4.533 4.491 4.346 3.858 3.403 3.238 3.246 3.249 3.252 3.197 3.219 3.175 3.162 3.12 3.085 3.049 3.015 3.046 3.015 3.005 2.996 2.98 2.974 2.938 2.916 2.903 2.859
14.965 7.973 6.328 6.646 6.988 7.234 6.665 6.895 7.007 8.009 7.195 7.64 7.826 8.004 8.198 8.378 8.58 8.833 9.113 10.516 11.929 11.891 10.337 10.43 10.419 10.551 10.682 10.987 12.934 19.194 20.357 19.125 19.414 20.644 25.906 30.16 29.418 23.456 14.282 20.074 21.257 20.317 17.297 13.279 12.981 13.606 12.962 12.979 13.445 16.083 22.997 25.63 22.833 23.679 20.587 17.643 24.902 26.974 27.163 27.106 27.135 27.074 26.678 17.292 15.474 15.776 16.932 16.095 16.102 16.11 16.041 16.224 16.207 16.248 16.604 21.005 21.68 17.849 16.773 16.674 16.928 16.842 16.879 16.962 17.494 19.352 19.892 18.661 18.705 18.599 18.75 18.805 18.879 19.766 22.37 22.341 20.199 19.861 19.827 19.885 19.985 20.29 24.458 27.454 28.421 27.028 23.058 22.32 21.346 21.151 21.236 21.579 25.22 25.053 23.498 22.599 22.56 22.455 22.517 22.524 22.936 23.297 23.107 24.717 24.309 24.693 24.263 23.763 23.314 32.26 33.474 33.325 34.524 29.229 23.731 24.932 26.437 29.676 28.795 24.138 24.244 35.831 42.063 40.949 39.633 43.511 42.489 30.043 37.957 40.412 38.55 38.921 39.424 38.363 37.783 40.84 41.917 38.887 34.052 34.818 33.845 36.434 37.072 35.438 33.783 30.854 36.819 33.48 35.802 32.364 35.736 33.91 27.525 24.222 24.056 23.98 23.894 23.678 23.516 23.342 23.187 23.112 22.838 22.586 22.214 21.94 21.688 24.082 22.799 21.013 20.706 20.359 20.166 20.02 19.912 19.672 19.384 19.073 18.907 18.838 18.692 18.541 18.395 18.261 18.171 17.969 17.876 17.832 17.689 17.532 17.388 17.308 17.198 17.087 16.947 16.716 16.588 16.432 16.32 16.19 16.138 16.595 20.796 23.13 20.232 21.514 19.803 17.892 16.037 17.887 15.907 15.813 15.83 15.861 15.872 15.867 15.882 15.985 16.013 15.874 15.807 15.719 15.658 15.579 15.538 15.519 15.471 15.451 15.38 15.948 16.563 16.609 23.066 24.947 26.095 26.408 24.984 22.619 15.614 15.346 15.28 15.338 15.332 15.44 15.564 15.608 15.638 15.78 15.807 15.919 15.92 16.033 16.207 16.239 16.347 16.391 16.509 16.592 16.68 16.738 16.898 17.011 17.216 17.48 17.58 17.579 17.6 17.622 17.62 17.594 17.606 17.588 17.547 17.475 17.65 19.991 22.418 23.483 28.518 23.786 23.796 19.926 16.842 16.532 16.354 16.261 16.096 15.841 15.762 15.574 15.523 15.47 15.401 15.338 15.261 15.21 15.099 14.99 14.848 14.733 14.623 17.636 22.853 18.643 17.361 21.873 19.245 20.336 21.749 21.033 18.715 18.832 18.39 15.438 18.642 16.127 18.315 18.684 22.338 29.549 31.324 34.459 28.866 18.497 13.712 15.105 18.56 21.802 21.069 17.06 19.066 17.018 14.384 13.032 13.028 13.65 26.963 34.357 35.911 32.992 36.905 26.56 14.545 15.683 22.85 18.977 29.768 28.091 15.711 11.9 11.961 12.3 13.52 13.89 12.88 12.775 12.615 12.361 12.317 12.735 22.318 30.001 29.07 29.253 24.664 28.818 22.66 27.864 33.627 32.168 29.282 21.698 13.848 14.552 18.11 11.944 9.218 9.176 10.474 18.147 24.879 29.791 14.415 9.047 8.162 8.7 9.297 8.846 8.774 8.413 7.288 7.241 6.982 12.402 20.121 24.587 16.725 6.781 5.96 7.682 15.108 21.785 19.196 19.133 13.222 5.778 5.931 5.949 5.4 4.719 4.534 4.509 4.458 4.216 3.745 3.384 3.269 3.241 3.252 3.208 3.197 3.187 3.163 3.125 3.106 3.073 3.076 3.055 3.024 3.043 3.041 3.024 2.969 2.941 2.922
14.689 5.285 6.133 6.637 6.778 7.77 6.716 7.005 7.109 7.471 7.308 7.632 7.716 7.907 8.142 8.282 8.646 9.493 13.287 14.172 14.09 14.038 11.515 10.68 10.564 10.602 10.764 10.929 11.276 15.081 21.108 19.194 22.909 25.853 28.372 30.492 30.942 27.6 17.009 21.129 22.838 20.808 17.003 14.035 14.077 14.095 13.941 13.77 14.604 14.309 18.515 28.315 28.523 24.845 23.432 17.904 20.611 22.462 22.749 21.774 21.617 20.896 20.941 18.801 16.362 16.001 16.335 16.297 16.374 18.015 16.249 16.206 16.346 16.364 16.336 18.093 18.827 17.219 16.804 16.788 16.878 16.976 16.983 17.056 17.631 19.099 20.208 18.681 18.785 18.806 18.804 18.949 19.335 19.152 19.278 20.848 21.176 21.794 21.419 20.579 20.332 20.249 27.64 30.894 31.003 29.789 22.127 21.34 21.152 21.211 21.265 21.878 23.967 24.851 23.305 22.854 22.434 22.481 22.531 22.579 24.469 25.576 25.384 23.071 23.187 23.368 23.719 24.647 23.889 32.112 35.019 34.533 33.095 27.777 24.584 24.728 26.777 27.871 30.068 26.259 24.312 28.669 41.485 41.015 41.903 40.039 41.503 29.002 30.243 35.905 36.742 38.573 35.691 33.465 36.968 38.849 40.291 36.513 34.287 36.407 37.209 35.31 35.591 34.753 34.934 31.203 29.501 28.69 36.847 32.181 33.686 30.107 24.987 24.377 24.307 24.185 24.093 23.921 23.764 23.62 23.463 23.294 23.143 22.868 22.577 22.295 21.969 22.216 22.383 21.275 20.995 20.705 20.401 20.221 20.114 19.932 19.726 19.378 19.076 18.995 18.886 18.77 18.58 18.442 18.345 18.192 18.086 18.012 17.933 17.783 17.605 17.478 17.453 17.315 17.18 17.04 16.866 16.715 16.601 16.474 16.403 16.305 16.484 17.009 16.443 16.883 16.101 16.009 16.02 16.09 16.096 16.095 16.089 16.154 16.165 16.176 16.172 16.239 16.237 16.071 15.983 15.906 15.865 15.79 15.736 15.695 15.672 15.676 15.625 16.07 16.638 16.81 23.717 26.462 27.923 28.594 26.736 25.425 18.502 15.514 15.481 15.552 15.628 15.677 15.764 15.827 15.922 15.965 16.051 16.086 16.212 16.339 16.443 16.536 16.601 16.605 16.743 16.784 16.871 16.976 17.044 17.233 17.461 17.665 17.754 17.783 18.369 17.99 17.941 17.915 17.842 17.804 17.789 17.79 17.827 18.478 19.525 21.701 26.174 24.096 23.131 21.312 17.471 17.117 16.874 16.676 16.394 16.156 16.035 15.923 15.9 15.879 15.782 15.655 15.558 15.48 15.36 15.225 15.053 14.991 14.868 14.663 14.569 14.497 15.634 18.647 15.46 16.799 19.466 17.378 18.354 20.982 19.769 21.276 26.652 25.519 21.096 18.781 28.42 32.425 29.701 29.952 29.515 24.476 17.055 26.444 32.834 33.086 31.049 28.648 33.104 26.682 16.435 13.396 13.343 14.81 26.657 34.271 31.091 28.175 32.076 21.72 16.275 16.311 22.453 25.293 34.475 25.441 13.693 12.424 12.266 12.369 12.448 12.559 16.704 21.049 12.602 13.131 12.695 13.072 20.439 27.727 30.834 20.37 21.21 14.953 13.908 25.187 27.526 27.248 23.749 18.526 17.947 16.881 14.643 11.651 9.875 9.433 9.393 12.284 18.882 18.459 16.865 16.588 11.513 9.448 8.325 8.164 7.981 7.805 7.611 7.442 8.218 17.433 21.75 24.624 17.746 6.891 8.972 11.655 15.04 23.605 21.431 22.325 10.171 5.866 5.833 5.815 5.878 6.024 7.155 10.289 6.404 9.095 4.901 4.419 4.098 3.656 3.306 3.227 3.231 3.213 3.203 3.209 3.194 3.163 3.157 3.145 3.129 3.095 3.106 3.092 3.059 3.024 2.978
14.609 8.295 6.511 6.68 6.882 7.948 6.832 7.042 7.259 7.231 7.265 7.455 7.688 7.896 8.134 8.483 9.051 10.081 13.834 15.442 15.676 14.785 11.942 10.638 10.66 10.777 10.905 11.07 11.214 17.127 22.253 18.413 20.004 20.356 27.898 32.21 31.88 30.827 19.72 18.124 20.076 17.373 15.41 15.381 14.419 14.419 14.701 14.895 16.28 17.9 19.181 23.354 26.632 28.455 24.162 15.961 16.105 16.619 16.636 17.432 19.45 16.902 17.135 20.633 16.504 15.623 15.64 15.763 15.829 16.465 16.494 16.282 16.52 16.518 16.472 18.918 20.831 21.381 20.342 17.377 16.943 17.945 18.675 17.49 17.467 20.095 21.1 18.762 18.815 18.855 18.912 19.385 25.024 19.872 19.316 19.516 19.616 19.996 20.555 21.482 23.269 26.351 28.129 32.612 31.629 29.357 23.377 21.606 21.145 21.221 21.361 21.557 21.855 22.772 22.876 23.696 22.563 22.477 22.483 22.565 25.425 25.728 25.307 23.036 23.276 23.693 23.401 23.278 26.252 34.739 35.255 35.917 27.442 32.008 27.322 28.326 26.68 27.264 28.807 29.577 24.997 27.272 31.208 34.171 39.582 39.629 33.035 34.116 27.312 28.669 35.323 36.577 36.707 37.604 36.685 33.586 32.403 31.582 33.354 35.71 36.903 37.347 36.86 35.44 35.974 30.868 25.58 25.662 30.506 31.909 28.137 25.795 24.642 24.545 24.483 24.401 24.277 24.169 24.017 23.94 23.682 23.517 23.4 23.125 22.83 22.557 22.232 22.056 21.759 21.552 21.326 20.998 20.687 20.468 20.328 20.179 19.946 19.7 19.348 19.172 19.079 18.987 18.808 18.624 18.534 18.408 18.243 18.192 18.1 17.956 17.802 17.712 17.618 17.511 17.332 17.329 17.161 17.047 16.927 16.766 16.609 16.543 16.539 16.513 16.517 16.46 16.357 16.274 16.359 16.383 16.386 16.413 16.382 16.417 16.478 16.458 16.446 16.585 16.526 16.345 16.242 16.156 16.143 16.029 15.952 15.942 15.901 15.899 15.828 16.476 16.963 16.243 20.023 28.656 29.17 30.953 29.425 28.289 25.276 15.793 15.777 15.791 15.87 15.954 16.021 16.044 16.163 16.214 16.244 16.356 16.451 16.55 16.62 16.699 16.768 16.928 16.995 17.073 17.128 17.241 17.369 17.442 17.706 17.828 18.112 17.973 20.823 18.753 18.159 18.255 18.301 18.202 18.088 18.067 18.19 18.597 19.469 19.311 20.481 20.303 19.816 18.424 18.055 17.782 17.558 17.35 17.048 16.799 16.522 16.416 16.257 16.209 16.065 15.955 15.815 15.71 15.604 15.451 15.27 15.23 15.072 14.941 14.84 14.766 14.73 14.673 14.704 14.766 14.952 17.096 19.935 23.662 27.093 26.623 29.097 30.204 27.199 22.547 25.255 27.813 31.854 28.805 22.652 18.441 21.436 28.647 33.478 34.291 32.699 31.171 35.441 30.862 21.581 17.184 17.208 13.579 15.888 21.149 25.694 26.164 32.959 26.036 25.883 20.999 17.856 21.247 19.396 17.029 13.282 12.788 12.791 14.053 12.808 12.935 19.55 16.078 13.013 12.982 13.042 13.029 16.68 31.619 32.86 26.114 18.046 14.082 12.229 15.7 15.275 14.987 14.706 16.207 18.433 16.324 13.156 10.859 9.838 9.857 9.8 9.647 9.639 9.886 17.44 19.096 16.352 10.691 8.638 8.453 8.269 8.195 7.979 7.846 7.911 11.549 14.478 15.909 9.728 6.95 6.785 10.752 14.721 22.921 22.333 22.706 7.782 5.846 5.839 5.803 5.834 5.811 7.688 12.413 9.713 13.886 5.084 4.523 4.466 4.409 4.346 3.981 3.54 3.236 3.226 3.255 3.252 3.237 3.222 3.19 3.19 3.175 3.171 3.171 3.143 3.102 3.078
14.396 8.004 6.725 6.792 6.768 7.165 6.917 7.144 7.289 7.324 7.332 7.663 7.777 8.165 8.595 8.935 9.346 10.416 14.112 15.995 16.253 14.707 11.761 10.699 10.769 10.9 10.991 11.13 11.303 18.92 19.339 15.325 17.417 19.539 27.425 31.149 31.253 27.428 19.994 13.645 16.281 15.968 15.202 14.911 14.272 14.07 14.094 14.208 14.688 15.126 14.851 17.372 19.787 18.771 15.838 15.607 16.038 16.743 16.83 19.652 23.661 23.667 23.588 23.274 17.574 16.641 16.595 16.606 16.568 16.626 16.5 16.464 16.546 16.589 16.569 17.486 21.74 23.722 22.426 19 18.319 21.52 22.613 21.456 20.367 19.786 21.058 18.748 18.891 18.898 18.951 19.724 23.377 20.956 19.4 19.54 19.695 19.812 19.786 19.967 21.473 27.305 26.223 28.101 29.46 26.219 23.72 23.562 21.812 21.848 21.954 23.449 23.206 24.174 23.962 23.273 22.559 22.42 22.469 22.564 22.639 23.806 24.276 23.11 23.145 23.887 23.498 23.324 23.344 27.838 34.337 31.725 33.928 35.203 36.486 32.647 26.287 26.651 27.424 29.194 28.602 26.708 25.643 27.33 39.031 35.121 36.415 36.758 29.205 25.262 32.417 31.788 33.032 32.698 31.434 27.885 25.501 27.405 33.54 35.226 35.98 37.346 36.547 36.356 35.066 27.949 25.237 25.172 25.206 27.054 24.942 24.903 24.754 24.712 24.676 24.554 24.449 24.358 24.259 24.136 24.003 23.785 23.586 23.404 23.201 22.856 22.59 22.271 21.952 21.824 21.616 21.344 21.037 20.699 20.528 20.406 20.184 19.942 19.669 19.362 19.221 19.138 19.022 18.865 18.729 18.614 18.492 18.426 18.307 18.149 18.045 17.892 17.841 17.695 17.552 17.486 17.409 17.322 17.227 17.06 16.91 16.859 16.824 16.765 16.777 16.726 17.316 16.712 16.65 16.731 16.684 16.686 16.651 16.709 16.759 16.783 16.758 16.849 16.799 16.658 16.544 16.431 16.378 16.274 16.207 16.393 16.159 16.1 16.037 17.025 16.669 16.093 16.569 27.832 29.75 30.626 29.756 27.867 23.989 16.449 16.27 16.204 16.137 16.307 16.298 16.279 16.388 16.507 16.548 16.62 16.692 16.766 16.866 16.953 17.057 17.16 17.188 17.343 17.426 17.503 17.623 17.654 17.89 18.049 18.103 18.12 18.22 18.326 18.363 18.365 18.446 18.449 18.411 18.384 18.553 18.965 21.162 21.543 21.317 18.911 18.704 18.574 18.483 18.328 18.158 18.037 17.822 17.481 17.148 16.985 16.803 16.694 16.505 16.291 16.078 15.961 15.81 15.664 15.539 15.428 15.281 15.16 15.111 15.147 15.076 14.991 14.969 15.013 15.109 16.042 18.794 23.856 30.39 30.221 31.622 32.551 29.37 24.986 27.704 29.14 30.803 23.176 25.009 20.347 20.408 28.383 31.992 29.639 31.906 31.455 34.541 34.077 23.368 26.35 26.777 20.125 13.841 18.403 30.415 30.768 34.61 30.712 34.751 30.66 21.571 15.264 15.507 14.193 13.903 13.572 18.503 21.881 19.299 14.727 13.138 13.629 13.343 14.546 15.057 14.129 21.731 28.71 31.061 32.628 20.512 14.328 12.499 12.172 12.233 11.878 11.914 15.159 17.337 13.687 13.371 10.435 10.301 10.385 10.411 10.268 10.303 12.754 20.197 23.242 16.728 9.547 8.963 9.077 8.579 8.376 8.272 8.215 11.706 17.523 15.583 8.095 7.396 7.183 7.053 13.339 17.688 22.312 24.986 23.014 7.761 5.995 5.836 5.837 5.809 6.095 13.684 18.041 16.626 10.198 5.897 5.74 5.277 4.591 4.473 4.434 4.396 4.272 3.871 3.423 3.316 3.309 3.3 3.291 3.274 3.272 3.239 3.239 3.228 3.157 3.121
12.857 5.006 6.453 6.698 6.776 8.025 6.969 7.239 7.375 7.457 7.461 7.835 8.235 8.695 8.957 9.148 9.402 10.414 14.216 16.031 16.211 14.636 12.14 10.973 10.926 11.025 11.169 11.299 11.556 18.878 14.878 17.853 16.176 17.489 20.86 24.916 28.189 25.346 17.668 13.557 16.503 16.944 14.722 14.305 14.127 14.269 14.137 14.165 14.238 14.34 14.492 14.687 19.273 15.716 15.887 15.978 15.902 16.822 18.312 25.251 25.823 25.119 25.833 25.904 20.247 17.615 16.609 16.553 16.575 16.566 16.77 16.501 16.672 16.726 16.793 22.354 24.497 23.803 23.375 22.187 20.781 22.298 23.182 23.492 22.269 23.042 22.067 20.738 21.071 19.576 19.032 19.102 19.234 19.291 19.431 19.586 19.757 19.892 19.984 22.034 24.953 21.667 22.613 25.269 28.007 26.922 25.932 24.988 22.954 23.198 22.928 26.944 27.029 25.974 26.523 25.493 25.22 25.362 25.49 25.414 25.473 25.464 25.407 25.465 25.316 24.634 23.955 23.979 23.912 25.044 27.943 28.414 34.004 36.669 35.842 29.801 29.428 25.437 27.71 27.871 31.174 34.46 30.474 28.964 35.021 30.896 25.887 31.31 29.11 25.601 25.667 25.54 25.542 25.884 25.582 25.627 25.698 26.358 31.943 34.443 35.334 35.271 36.122 35.051 33.427 27.365 26.592 25.341 25.405 26.533 25.198 25.067 24.933 24.871 24.824 24.702 24.573 24.508 24.417 24.348 24.176 23.969 23.771 23.658 23.445 23.146 23.065 22.942 22.256 22.042 21.877 21.607 21.36 20.996 20.777 20.597 20.403 20.164 19.939 19.691 19.466 19.277 19.215 19.069 18.943 18.814 18.713 18.671 18.511 18.377 18.232 18.161 18.049 17.891 17.748 17.651 17.634 17.603 17.496 17.394 17.346 17.176 17.112 18.834 17.376 17.145 24.503 19.94 17.002 17.053 17.046 16.993 17.004 17.044 17.06 17.029 17.061 17.09 17.252 16.885 16.772 16.703 16.591 16.885 16.946 17.774 16.563 16.316 16.242 17.441 16.62 16.5 15.792 19.714 24.157 26.65 27.837 24.501 20.102 18.717 18.658 17.551 16.07 16.174 16.368 16.492 16.543 16.684 16.865 16.938 17.029 17.11 17.132 17.233 17.34 17.394 17.461 17.541 17.684 17.758 17.81 17.877 18.1 18.275 18.317 18.366 18.405 18.457 18.51 18.581 18.601 18.644 18.64 18.631 18.796 19.062 19.779 20.024 20.351 18.866 18.826 18.733 18.71 18.641 18.502 18.367 18.258 18.102 17.773 17.563 17.364 17.144 16.946 16.718 16.454 16.19 15.976 15.824 15.772 15.62 15.511 15.409 15.326 15.315 15.247 15.277 15.286 15.28 15.316 15.585 19.137 26.001 28.885 32.116 32.702 33.107 29.671 22.672 23.806 23.289 28.182 23.063 18.734 19.522 19.748 23.56 24.61 26.493 25.991 30.616 31.52 29.03 30.67 31.053 31.512 27.797 14.195 19.068 27.841 28.882 26.218 27.316 26.13 28.024 20.423 14.947 13.23 13.267 13.308 16.57 25.246 26.579 27.751 20.66 13.562 13.49 14.667 14.352 14.269 15.474 17.714 18.496 18.085 21.155 18.162 13.509 12.637 12.491 13.925 12.323 11.986 11.913 13.427 11.632 11.384 10.867 10.789 11.242 12.168 10.859 11.789 14.136 18.925 24.235 21.284 14.453 14.379 14.946 9.01 8.811 8.667 8.523 10.236 9.152 8.279 7.741 7.605 7.476 7.614 11.938 17.564 19.634 19.923 8.118 6.665 6.462 6.22 6.011 5.881 5.859 5.802 6.058 5.876 5.764 6.654 6.74 5.697 5.616 5.39 4.752 4.464 4.404 4.384 4.379 4.219 3.712 3.409 3.317 3.319 3.307 3.328 3.318 3.284 3.266 3.198
5.137 4.872 6.456 6.591 6.735 8.097 7.102 7.258 7.492 7.548 7.546 8.024 8.295 8.785 9.03 9.242 9.409 10.709 14.237 15.824 16.102 14.553 13.139 11.156 11.043 11.169 11.282 11.939 12.403 14.119 21.248 23.057 20.453 14.691 18.657 21.007 20.391 17.767 17.404 15.34 15.965 17.619 14.954 14.354 15.651 16.02 15.029 14.243 14.246 14.35 14.851 15.018 15.227 14.843 17.152 16.501 15.677 15.731 18.781 25.257 25.981 25.234 25.86 25.561 19.283 17.628 16.612 16.632 16.563 16.62 16.924 16.575 16.694 16.822 16.887 23.805 26.755 26.829 26.291 23.176 23.418 23.181 24.358 23.597 23.067 24.583 24.831 30.016 31.711 27.064 19.29 19.079 19.215 19.309 19.449 19.586 19.745 19.852 19.981 20.189 20.376 20.562 20.931 22.509 24.761 24.027 23.583 21.442 21.512 21.307 21.388 23.774 22.216 21.881 22.116 22.668 22.709 22.628 22.953 22.962 23.111 23.245 23.408 23.542 23.756 23.78 23.447 23.522 23.545 23.587 25.522 29.381 34.569 31.305 31.465 38.065 40.652 36.07 33.429 33.129 36.953 37.651 37.175 36.332 30.403 26.009 25.571 25.424 25.418 25.99 25.594 25.761 25.728 25.767 26.435 26.514 25.812 25.913 28.561 31.087 33.866 35.005 34.965 31.767 28.056 29.648 28.847 25.807 26.176 31.004 26.486 25.959 25.133 25.056 25.004 24.897 24.869 24.697 24.617 24.52 24.366 24.127 23.966 23.822 23.719 23.733 25.615 26.408 24.672 22.351 22.052 21.829 21.575 21.284 21.03 20.817 20.617 20.408 20.185 19.919 19.738 19.504 19.355 19.31 19.168 19.091 18.909 18.836 18.702 18.575 18.451 18.353 18.231 18.16 18 17.943 17.876 17.834 17.707 17.604 17.525 17.444 17.481 23.657 19.805 17.816 23.01 23.816 17.641 17.406 17.352 17.309 17.298 17.379 17.354 17.362 17.302 17.298 18.787 18.491 17.001 16.884 16.788 17.454 20.618 18.301 18.128 16.521 16.495 17.71 16.66 16.474 15.945 15.872 16.12 19.554 25.105 22.912 20.645 18.773 18.824 17.507 16.061 16.172 16.357 16.551 16.675 16.918 17.014 17.401 17.306 17.459 17.55 17.714 19.682 17.9 17.791 17.839 17.899 17.971 18.062 18.115 18.352 18.66 18.567 18.655 18.673 18.723 18.812 18.847 18.861 18.847 18.855 18.871 19.051 19.184 19.205 19.27 19.123 18.995 18.959 18.934 18.875 18.799 18.703 18.601 18.55 18.374 18.179 17.965 17.782 17.622 17.41 17.165 16.857 16.504 16.172 16.001 15.966 15.871 15.735 15.652 15.586 15.53 15.498 15.517 15.509 15.558 15.643 15.563 19.749 23.035 27.63 31.039 31.217 30.531 25.648 17.884 15.545 16.38 23.527 22.212 16.538 16.795 17.378 15.208 19.467 19.324 16.808 21.566 22.204 22.813 30.548 32.463 34.388 28.334 18.511 18.608 14.868 17.064 20.844 26.938 22.565 16.472 15.683 13.302 13.486 13.635 13.674 20.033 30.227 26.42 28.643 20.249 14.659 13.672 13.63 13.62 14.205 20.011 22.522 26.479 17.911 16.796 13.899 13.213 13.219 13.83 19.59 20.088 15.635 12.628 12.04 11.885 11.638 11.402 11.371 11.528 11.54 11.336 11.511 15.151 15.697 26.746 23.832 15.492 13.872 13.988 9.466 9.39 9.114 8.909 8.715 8.402 8.229 8.354 7.964 7.903 7.783 7.86 11.783 10.636 8.587 7.153 6.993 6.875 6.74 6.546 6.358 6.086 5.862 5.99 5.793 9.453 8.59 14.855 7.379 9.496 5.585 5.58 5.554 5.054 4.547 4.412 4.385 4.372 4.35 4.093 3.685 3.393 3.341 3.339 3.332 3.311 3.283
6.614 9.567 8.474 8.416 7.842 7.163 7.134 7.296 7.542 7.615 7.616 7.967 8.254 8.672 8.998 9.306 9.546 10.735 14.295 14.976 15.209 14.426 13.1 11.078 11.18 11.321 11.42 12.175 12.405 13.203 19.34 22.188 21.016 14.311 16.577 19.337 18.631 21.176 18.449 14.586 13.794 17.516 15.861 15.19 14.364 14.473 14.378 14.267 14.306 14.451 14.796 15.386 16.522 14.826 16.745 16.027 15.731 15.765 19.815 25.382 26.015 25.256 25.96 25.491 20.463 17.035 16.623 16.609 16.562 16.645 16.909 16.745 16.746 16.944 17.022 21.069 27.148 28.466 26.047 25.326 26.673 22.934 23.332 24.053 23.251 27.833 31.076 33.705 33.845 31.912 22.139 20.764 19.308 19.282 19.468 19.572 19.727 19.854 19.996 20.191 20.412 20.654 20.889 21.636 21.517 21.279 21.086 21.103 21.176 21.185 21.32 21.95 22.266 22.273 22.203 22.525 22.5 22.945 23.398 22.721 23.17 24.552 23.521 23.445 23.532 23.613 23.662 23.74 23.703 23.803 24.44 29.142 30.291 27.491 32.188 36.871 41.09 40.919 37.44 36.938 37.781 38.561 38.427 37.561 34.953 31.706 25.68 26.269 28.428 32.266 26.941 25.831 26.289 28.098 32.273 29.359 26.435 26.078 26.08 27.36 30.44 28.955 26.951 26.143 25.996 26.731 26.713 26.144 28.707 32.158 26.916 25.603 25.417 25.136 25.048 25.216 30.623 29.513 25.777 24.611 24.521 24.317 24.166 24.053 23.873 25.963 28.111 28.901 25.508 23.395 22.308 22.059 21.814 21.571 21.276 21.089 20.833 20.634 20.441 20.244 19.892 19.729 19.566 19.477 19.391 19.277 19.198 19.011 18.93 18.753 18.742 18.58 18.48 18.37 18.231 18.193 18.142 18.002 17.89 17.767 17.739 17.701 17.746 19.946 18.498 17.656 18.896 18.302 17.619 17.57 17.628 17.554 17.623 17.661 17.598 17.6 17.609 17.617 19.355 17.855 17.321 17.125 17.028 17.472 19.877 20.084 18.068 16.754 16.671 18.083 16.961 16.787 16.118 16.093 20.721 22.976 27.171 29.172 24.464 17.719 18.385 17.806 18.028 16.538 17.046 16.831 17.246 17.314 19.729 20.374 17.722 17.649 17.785 19.426 22.228 19.477 18.104 18.182 18.248 18.747 18.918 18.416 18.617 20.283 18.892 18.923 18.968 19.026 19.094 19.134 19.124 19.082 19.069 19.137 19.224 19.254 19.205 19.236 19.146 19.08 19.092 19.062 18.959 18.902 18.823 18.756 18.681 18.587 18.44 18.293 18.109 17.978 17.834 17.503 17.223 16.824 16.453 16.246 16.203 16.085 15.946 15.872 15.845 15.842 15.771 15.708 15.697 15.781 15.845 15.83 17.023 22.933 26.868 27.457 28.038 23.682 17.766 15.443 15.365 15.317 15.806 15.97 15.325 15.695 14.985 14.92 15.966 18.739 15.34 15.395 16.598 19.933 22.828 28.488 29.085 27.621 25.148 22.535 15.406 14.712 21.665 21.422 20.607 19.711 15.902 16.537 15.327 14.195 15.084 23.339 25.273 33.271 31.415 25.475 19.338 13.984 13.953 13.893 17.433 20.788 17.962 20.451 26.666 22.555 13.612 13.473 14.624 15.567 24.133 28.338 21.113 14.558 12.919 12.325 12.634 13.44 11.887 12.428 11.938 11.744 11.794 11.414 17.515 22.672 24.503 17.39 10.688 10.657 10.12 9.976 11.418 10.999 9.365 9.021 9.819 10.533 8.481 8.45 8.173 7.966 7.848 7.717 7.561 7.409 7.353 7.291 7.049 6.84 6.679 6.485 6.326 7.361 12.912 21.177 9.066 15.871 16.099 14.809 6.418 5.655 5.649 5.601 5.585 5.309 4.728 4.413 4.386 4.407 4.387 4.369 4.083 3.709 3.397 3.362 3.348
11.386 11.792 12.167 9.92 8.268 7.259 7.251 7.372 7.639 7.759 7.711 8.098 8.258 8.591 8.914 9.286 9.599 10.019 11.738 11.968 12.509 12.855 11.937 11.281 11.634 12.272 11.735 11.826 14.61 17.647 23.656 24.677 26.978 26.247 27.783 27.302 23.58 17.974 16.119 15.99 14.773 19.43 25.879 20.169 15.377 14.266 14.374 14.367 14.374 14.485 14.747 15.387 15.103 14.818 15.849 15.802 15.809 16.305 23.442 25.564 26.015 25.412 25.966 25.535 23.033 16.897 16.744 16.679 16.714 16.698 16.86 16.935 16.796 16.995 17.069 19.164 26.401 28.469 21.76 24.171 27.767 22.228 24.732 25.08 28.018 33.163 33.784 34.982 35.695 34.269 31.01 29.406 26.385 20.243 19.413 19.508 19.68 19.923 19.998 20.212 20.44 20.733 21.267 21.752 21.605 22.18 21.65 21.388 21.465 21.274 21.291 21.824 22.804 22.777 21.638 22.128 22.34 22.743 22.977 22.838 23.421 29.393 25.465 23.563 23.702 23.793 23.88 23.943 23.962 23.999 24.066 24.833 24.92 27.427 34.444 39.439 40.371 40.417 36.21 36.999 37.089 38.182 38.654 37.626 33.783 33.178 27.109 28.249 32.813 33.106 28.671 26.796 26.036 29.077 33.332 29.643 26.14 26.171 26.237 26.319 26.358 26.343 26.265 26.24 26.134 26.344 26.012 27.854 27.574 26.517 25.69 25.665 25.649 27.544 31.7 30.636 33.45 33.062 33.857 28.771 26.857 24.474 24.325 24.249 24.183 26.814 26.52 28.558 26.504 24.519 22.582 22.349 22.025 21.794 21.61 21.34 21.117 20.886 20.671 20.502 20.237 19.953 19.807 19.682 19.59 19.533 19.44 19.302 19.137 19.013 18.919 18.802 18.675 18.553 18.454 18.404 18.303 18.173 18.079 17.998 17.96 17.988 17.892 17.93 17.887 17.87 19.578 22.919 18.162 17.81 17.805 17.845 17.831 17.815 17.812 17.785 17.818 18.401 20.091 18.179 17.324 17.248 17.248 18.054 17.267 18.087 17.064 16.942 16.849 18.498 16.98 16.848 16.278 20.179 28.195 31.636 31.286 31.362 27.556 18.291 20.219 19.015 27.087 25.634 28.198 24.216 17.444 17.669 20.404 19.807 17.734 17.915 17.953 18.357 19.734 18.339 18.413 18.504 18.601 21.144 23.463 19.124 18.908 19.061 19.264 19.251 19.298 19.312 19.382 19.445 19.466 19.379 19.325 19.31 19.317 19.343 19.365 19.268 19.112 18.964 18.93 18.921 18.9 18.935 18.862 18.84 18.852 18.838 18.792 18.679 18.478 18.245 18.078 17.772 17.432 16.958 16.657 16.55 16.459 16.347 16.212 16.138 16.132 16.081 16.04 15.9 15.895 15.998 16.057 15.983 15.935 16.177 18.462 21.67 21.238 16.62 15.734 15.704 15.695 15.643 15.611 15.572 16.099 17.213 15.345 15.243 15.213 15.141 15.132 15.085 15.078 15.518 18.925 32.728 32.665 33.172 31.745 22.81 15.356 14.855 14.835 14.715 14.901 14.814 20.347 29 26.459 17.12 16.678 25.343 29.913 30.318 24.814 27.702 20.66 15.013 14.246 15.495 17.439 17.767 18.202 17.551 25.471 21.579 14.821 15.649 22.826 23.569 23.641 30.349 26.336 14.932 17.216 14.216 14.535 12.72 18.168 23.291 14.985 12.283 12.433 11.872 12.106 12.651 18.021 13.796 11.085 10.979 13.481 19.522 22.182 22.467 10.145 9.576 9.824 9.887 9.182 8.979 8.725 8.483 8.221 8.043 7.864 7.764 8.989 8.289 7.351 7.048 6.934 6.723 9.364 11.793 13.543 17.776 11.347 18.135 20.224 17.496 8.047 5.722 5.688 5.683 5.634 5.599 5.585 5.472 5.087 4.57 4.441 4.387 4.338 4.385 4.341 3.963 3.573
11.723 12.168 12.458 10.734 10.673 7.927 7.603 7.468 7.691 7.788 7.872 8.133 8.51 8.865 9.228 9.776 9.818 9.908 10.113 10.378 10.698 11.051 11.421 11.851 12.073 12.12 12.284 13.621 21.716 27.244 28.96 28.991 27.108 26.8 22.503 23.144 20.128 18.513 18.396 17.071 15.617 22.038 25.202 22.844 17.886 14.972 14.661 14.46 14.506 14.587 14.984 16.112 14.726 14.978 15.611 15.887 15.892 15.962 23.941 25.889 25.972 26 26.07 26.019 25.843 16.757 17.18 17.075 17.694 16.777 16.879 17.196 16.862 17.037 17.13 17.25 21.987 21.685 22.816 25.756 27.659 26.533 26.969 26.464 29.486 33.574 34.681 34.808 35.686 35.086 33.508 32.467 29.876 21.103 19.453 19.598 19.68 19.767 19.958 20.172 20.444 20.783 21.06 21.195 23.047 24.028 24.043 24.033 24 24.009 24.004 22.665 21.518 21.736 21.583 22.099 22.37 22.59 22.751 22.934 23.27 25.162 23.537 23.724 23.865 24.056 24.115 24.253 24.277 24.279 24.761 25.46 25.225 28.062 35.967 38.803 39.203 37.781 34.359 35.985 36.871 38.152 38.196 36.981 33.222 31.908 28.736 26.06 26.922 26.734 28.912 26.79 26.188 26.641 28.409 26.555 26.241 26.294 26.363 26.453 26.501 26.406 26.405 26.423 28.101 31.589 32.289 30.248 27.124 26.005 25.862 25.79 26.088 37.845 39.332 37.881 35.209 38.796 40.899 39.369 31.127 24.741 24.589 24.42 24.26 25.928 27.136 26.625 24.604 23.482 22.917 22.586 22.369 22.095 21.884 21.645 21.529 21.158 20.951 20.653 20.499 20.265 20.306 20.765 19.833 19.656 19.605 19.52 19.399 19.249 19.095 18.983 18.881 18.735 18.683 18.604 18.519 18.429 18.303 18.231 18.214 18.174 18.162 18.185 18.178 18.103 21.236 26.675 20.308 18.038 18.045 18.032 18.08 18.063 18.025 17.994 18.012 17.928 18.646 17.788 17.554 17.469 17.408 18.037 18.685 17.391 17.16 17.063 16.981 18.79 17.09 16.976 16.496 23.026 31.334 33.779 32.322 30.619 24.748 20.354 22.097 25.779 29.485 32.901 29.459 29.031 18.803 17.717 18.415 18.569 17.976 18.095 18.156 18.294 18.36 18.43 18.543 18.649 18.743 18.976 21.391 19.921 19.192 19.328 19.44 19.521 20.477 20.964 19.696 19.741 19.793 19.906 19.697 19.599 19.515 19.433 19.387 19.26 19.039 18.953 18.883 18.862 18.842 18.863 18.857 19.012 19.129 19.165 19.134 19.055 18.913 18.651 18.382 18.061 17.637 17.111 17.654 19.08 17.14 16.581 16.453 16.435 16.431 16.357 16.292 16.155 16.128 16.199 16.275 16.185 16.155 16.111 16.139 16.234 16.407 16.01 15.957 15.96 15.918 15.902 15.855 15.835 15.824 16.158 15.657 15.606 15.596 15.543 15.507 15.47 15.457 15.404 16.866 19.678 24.315 29.664 26.207 18.434 15.118 15.036 14.96 14.905 14.911 14.883 22.891 34.796 31.007 22.769 16.102 19.109 26.784 21.121 24.073 21.831 24.358 19.448 15.258 14.527 18.843 21.929 20.231 18.508 16.656 15.82 24.527 27.196 32.608 26.237 31.255 22.696 17.71 13.36 14.375 18.97 20.293 23.012 27.243 31.091 18.677 12.489 12.188 12.095 11.535 11.724 13.211 13.822 12.129 11.342 19.707 24.134 23.773 18.656 10.908 9.989 10.052 9.784 9.536 9.427 9.227 8.969 8.676 8.389 8.167 8.212 11.778 9.325 12.902 7.456 7.231 7.171 19.513 10.943 18.25 12.383 17.742 17.807 22.197 11.583 5.981 5.727 5.689 5.653 5.659 5.634 5.623 5.595 5.586 5.753 5.439 4.952 4.421 4.395 4.363 4.375 4.361
10.853 12.11 12.419 11.428 9.386 8.108 7.626 7.493 7.687 7.901 7.897 8.049 8.486 8.889 9.37 10.161 9.991 10.202 12.581 14.331 14.827 14.176 12.903 11.933 11.856 11.767 12.134 16.323 22.43 26.578 28.927 28.094 25.478 22.401 16.842 20.096 19.207 20.86 20.651 19.841 22.756 25.851 25.713 24.396 19.132 19.638 19.423 19.813 18.979 18.316 18.771 18.84 19.361 19.161 18.774 18.949 17.547 16.84 20.114 24.159 25.327 24.567 25.195 25.455 22.839 16.736 16.894 16.877 17.266 16.935 16.975 17.408 17.162 17.126 17.214 17.295 18.659 24.126 25.077 25.009 25.079 23.223 23.637 26.99 29.235 32.232 33.845 35.761 36.803 35.964 33.284 33.316 31.202 28.141 20.531 19.622 19.72 19.778 19.975 20.149 20.418 20.691 21.003 21.692 23.923 24.538 24.689 24.648 24.633 24.404 24.024 22.283 21.138 21.201 21.61 22.092 22.492 22.614 22.789 22.982 23.254 23.53 23.748 23.958 24.101 24.229 24.419 24.513 24.537 24.547 25.352 30.515 28.541 27.258 32.876 33.125 27.651 31.475 30.381 32.048 35.242 35.582 36.168 35.911 34.355 33.188 29.477 26.05 26.155 26.673 26.417 26.246 26.247 26.27 26.354 26.445 26.427 26.428 26.495 26.593 26.662 26.875 27.369 26.559 28.611 33.862 29.403 27.294 26.289 26.135 26.343 26.04 33.412 35.828 40.281 40.952 40.458 43.822 42.903 42.637 29.896 24.927 24.778 24.618 24.423 24.31 24.719 24.718 23.798 23.494 23.24 22.95 22.652 22.348 22.178 23.16 29.03 22.401 22.251 20.916 20.629 20.429 20.507 21.312 20.318 19.941 19.751 19.718 19.608 19.453 19.352 19.177 19.077 18.948 18.852 18.794 18.736 18.613 18.519 18.47 18.407 18.424 19.27 18.57 18.405 18.348 18.509 19.466 18.321 18.287 18.271 18.25 18.266 18.199 18.187 18.185 18.142 18.086 19.666 21.538 21.925 17.75 17.558 17.758 19.428 17.797 17.365 17.284 17.17 19.165 17.214 17.155 16.702 24.341 31.995 32.893 31.693 31.013 24.287 23.435 25.442 32.8 31.965 33.435 34.834 33.23 30.536 17.889 18.164 19.139 18.24 18.294 18.428 18.513 18.615 18.718 18.841 18.892 19.05 19.066 19.2 19.268 19.355 19.4 19.548 19.658 20.656 22.923 20.006 19.915 20.413 22.717 20.171 19.875 19.8 19.614 19.378 19.245 19.12 19.071 18.965 18.934 18.898 18.897 18.991 19.265 19.251 19.204 19.199 19.195 19.129 18.988 18.789 18.441 18.072 17.657 17.259 17.146 16.958 16.757 16.727 16.691 16.667 16.576 16.528 16.474 16.421 16.454 16.426 16.404 16.378 16.354 16.359 16.397 16.385 16.331 16.221 16.177 16.154 16.123 16.087 16.065 16.035 15.999 15.944 15.9 15.879 15.865 15.829 15.811 15.8 15.755 15.686 16.186 17.574 19.045 16.14 15.538 15.336 15.237 15.166 15.12 15.061 15.324 26.771 28.768 22.109 16.98 15.459 15.548 16.529 17.311 24.002 25.996 25.87 23.26 15.953 15.579 16.373 15.343 14.89 14.785 15.535 22.199 31.648 34.614 27.79 27.445 29.751 20.584 14.139 14.395 18.303 21.745 31.171 33.281 28.633 19.123 12.945 12.677 12.447 12.126 11.907 12.693 13.913 14.134 12.824 12.114 15.592 15.447 23.554 24.475 14.228 10.428 10.342 10.099 9.864 9.704 9.609 9.429 9.218 8.819 10.182 21.412 21.537 20.535 19.357 13.216 7.676 7.455 9.343 8.148 7.726 7.265 12.217 16.766 14.563 7.2 6.203 5.978 5.77 5.708 5.644 5.681 5.727 5.665 5.617 5.594 5.55 5.668 5.65 5.301 4.653 4.412 4.378
7.517 9.767 8.762 7.832 7.397 7.532 7.676 7.564 7.804 7.999 7.959 8.195 8.942 9.133 9.308 9.557 9.782 10.379 14.261 17.062 18.179 16.466 13.922 12.459 11.815 11.878 12.139 13.43 20.116 25.041 26.671 27.815 23.426 22.164 19.146 18.232 23.88 19.272 19.891 26.219 22.908 25.497 25.15 26.47 20.853 19.279 19.947 19.884 19.261 18.873 19.625 21.441 20.98 19.831 19.681 19.897 19.771 19.993 19.363 20.765 21.905 20.09 20.534 22.079 18.624 17.481 20.64 19.379 21.043 22.291 19.841 22.35 19.004 17.126 17.37 17.402 21.074 25.162 26.05 24.892 25.207 20.933 22.651 26.673 29.761 32.609 33.576 34.734 35.705 34.097 34.482 32.46 34.035 35.318 26.598 19.715 19.809 19.856 20.03 20.135 20.359 20.649 20.984 22.152 24.036 24.428 24.566 24.529 24.546 24.367 24.062 22.206 21.189 21.169 21.652 22.137 22.547 22.732 22.875 23.14 23.415 23.691 23.953 24.193 24.323 24.449 24.634 24.755 24.744 24.743 25.51 31.309 31.64 29.196 25.596 27.357 26.672 32.887 31.799 29.657 36.205 36.35 35.546 34.853 33.553 32.347 32.141 30.316 29.59 26.36 26.965 26.569 26.525 26.507 26.52 26.592 26.54 26.578 26.691 26.768 26.975 29.38 30.296 27.583 28.27 28.976 33.412 26.47 27.137 30.82 32.689 26.39 31.301 32.581 38.902 43.03 41.69 42.112 43.868 42.892 33.28 25.819 24.958 24.805 24.615 24.511 24.37 24.178 24.081 23.85 23.53 23.275 23.014 22.734 24.37 30.099 34.215 30.402 26.17 21.251 20.918 20.694 20.558 20.599 20.52 20.29 20.061 19.924 19.826 19.731 19.564 19.437 19.27 19.207 19.059 19.061 18.919 18.885 18.768 18.696 18.661 18.647 19.311 18.709 18.608 18.583 18.532 18.472 18.463 18.535 18.54 18.531 18.458 18.417 18.371 18.433 18.578 18.841 21.79 25.908 22.906 19.429 17.792 17.753 17.716 17.617 17.6 17.483 17.423 19.609 17.392 17.322 16.998 26.337 30.501 31.158 28.587 29.87 27.705 27.736 28.659 32.778 33.192 35.598 35.417 35.145 31.291 20.057 18.315 18.239 18.439 18.583 18.686 18.744 18.875 18.966 19.111 19.183 19.278 19.371 19.469 19.573 19.627 19.721 19.782 19.864 19.845 19.891 19.983 20.031 21 23.571 21.226 20.088 20.028 19.805 19.514 19.3 19.165 19.119 19.056 19.015 18.985 18.969 19.188 19.3 19.23 19.221 19.198 19.196 19.196 19.139 19.01 18.825 18.491 18.096 17.589 17.346 17.205 17.028 16.981 16.989 16.924 16.865 16.799 16.802 16.805 16.745 16.704 16.697 16.661 16.587 16.638 16.678 16.685 16.648 16.58 16.519 16.436 16.402 16.344 16.3 16.258 16.2 16.177 16.159 16.126 16.092 16.078 16.084 16.055 16.038 16.01 16.807 16.052 16.05 15.986 15.738 15.63 15.518 15.454 15.379 15.316 15.265 17.278 18.486 15.67 15.289 15.283 15.981 17.334 18.926 20.492 20.58 21.007 23.234 21.437 24.792 23.979 16.582 14.797 14.782 15.208 19.708 23.931 21.384 19.11 30.266 22.369 22.832 19.233 17.798 24.812 25.947 28.178 28.056 17.327 14.305 13.129 13.348 13.204 12.41 12.388 18.514 19.362 14.737 12.003 11.9 13.067 17.016 21.622 23.557 13.45 10.954 10.623 10.658 10.319 10.172 10.05 9.801 9.646 9.284 13.413 24.849 25.81 26.668 23.971 11.468 8.207 8.027 7.744 7.419 7.202 7.12 8.758 7.294 6.842 6.804 9.075 9.343 6.19 6.04 5.808 5.693 5.666 5.68 5.66 5.672 5.623 5.634 5.613 5.57 5.616 5.587 5.178
8.88 9.768 9.273 6.838 7.104 8.826 10.575 8.034 7.935 8.068 8.11 8.306 9.028 9.166 9.551 9.712 9.919 11.178 14.872 17.208 18.165 16.405 14.399 13.19 11.816 11.966 12.04 12.129 13.586 22.948 26.542 27.697 26.865 26.778 22.136 16.528 16.162 17.218 21.675 22.253 19.486 27.336 25.421 27.092 26.544 24.761 16.856 15.752 15.51 15.652 15.956 16.685 17.744 16.722 16.343 16.679 16.549 17.142 16.631 17.437 18.579 17.758 17.639 17.382 17.347 17.562 21.169 22.248 22.127 22.279 18.901 18.706 17.559 17.185 17.405 17.493 18.973 23.926 22.577 21.802 20.885 24.789 24.859 26.648 28.317 31.808 32.495 33.843 34.006 33.696 32.609 34.418 35.887 34.208 25.868 20.647 20.212 20.092 20.073 20.227 20.336 20.588 21.006 22.813 24.062 24.074 24.153 24.175 24.183 24.14 24.041 21.984 21.136 21.148 21.717 22.221 22.557 22.741 22.915 23.227 23.541 23.843 24.083 24.276 24.487 24.697 25.09 25.018 25.077 24.948 25.847 30.436 31.345 29.901 24.865 28.724 29.353 30.165 33.37 34.635 34.837 32.669 32.923 33.587 34.499 34.924 34.681 32.393 31.47 31.498 26.874 27.265 26.763 26.651 26.693 26.664 26.695 26.764 26.797 26.874 26.923 29.292 30.383 27.867 29.123 30.371 33.151 27.648 29.198 39.729 36.946 27.613 28.621 30.908 39.421 43.843 43.341 43.126 41.709 40.182 34.505 26.257 25.166 25.006 24.837 24.677 24.603 24.428 24.307 24.069 23.89 23.624 25.567 28.604 30.084 33.168 36.53 32.62 30.943 21.562 21.268 20.991 20.974 22.84 22.249 20.638 20.378 20.195 20.036 19.909 19.793 19.685 19.631 19.418 19.323 19.231 19.177 19.049 18.969 18.938 18.938 18.926 18.898 18.847 18.806 18.78 18.735 18.701 18.707 18.712 18.77 18.749 18.694 18.668 18.555 18.925 20.385 19.064 20.95 22.968 24.307 20.455 18.018 17.957 17.881 17.83 17.791 17.687 17.678 20.012 17.557 17.423 17.146 22.656 29.604 29.299 28.523 28.379 26.976 25.635 31.415 31.045 34.097 36.04 35.036 33.665 30.951 21.601 18.528 18.482 18.589 18.825 18.936 19.065 19.193 19.223 19.371 19.409 19.523 19.649 19.65 19.735 19.865 19.975 19.975 20.113 20.127 20.202 20.235 20.217 20.209 20.581 20.322 20.243 20.237 19.989 19.723 19.427 19.207 19.119 19.112 19.103 19.056 19.049 19.251 19.26 19.24 19.248 19.246 19.237 19.24 19.192 19.116 18.971 18.745 18.358 17.899 17.594 17.487 17.413 17.282 17.3 17.293 17.162 17.119 17.138 17.12 17.081 17.041 16.978 16.926 16.897 16.963 16.983 16.96 16.924 16.914 16.838 16.794 16.743 16.676 16.617 16.531 16.448 16.429 16.405 16.38 16.341 16.324 16.343 16.308 16.265 16.272 16.731 16.203 16.295 16.081 15.94 15.883 15.801 15.763 15.655 15.611 15.581 15.581 15.582 15.557 15.526 15.486 15.652 16.168 16.56 17.735 19.529 18.818 22.558 20.793 24.878 21.888 17.006 15.15 15.051 16.512 28.835 27.23 17.999 27.53 29.43 35.462 30.308 24.173 27.18 24.718 28.48 20.932 20.607 18.816 15.301 14.27 16.434 15.47 12.805 12.668 13.712 16.738 13.616 13.692 13.05 19.626 19.725 20.182 13.403 11.718 11.264 11.031 10.901 10.792 10.622 10.493 10.21 10.137 9.721 10.035 21.457 25.649 28.105 22.338 20.317 8.727 8.572 8.352 8.013 7.71 7.839 11.091 8.823 11.793 14.106 11.339 10.497 9.758 6.863 6.273 6.15 5.953 6.789 6.992 5.617 5.609 5.665 5.617 5.693 5.672 5.597 5.562
12.18 12.727 11.737 7.057 7.025 9.445 11.884 8.02 7.987 8.151 8.167 8.245 9.104 9.167 9.693 9.964 10.237 11.208 14.979 17.198 18.147 16.304 14.393 13.296 11.955 12.042 12.089 12.222 12.91 21.804 25.347 26.252 27.819 27.461 21.825 17.697 15.201 18.44 26.038 22.93 15.443 20.145 23.927 25.536 26.358 23.188 15.691 15.434 15.473 15.812 15.734 15.936 16.168 15.915 15.967 16.108 16.195 16.314 16.992 17.785 17.123 18.223 19.267 19.295 18.347 17.761 17.583 17.783 17.728 17.371 21.012 27.959 22.023 17.327 17.503 17.55 22.241 24.987 25.367 22.999 19.652 18.615 23.287 26.168 26.741 29.757 28.648 29.782 32.392 31.555 33.858 34.961 35.648 31.897 30.865 31.541 30.216 22.324 20.218 20.216 20.313 20.559 20.836 21.98 23.859 23.622 23.301 23.551 23.591 22.744 21.462 21.331 21.086 21.159 21.673 22.256 22.579 22.751 22.992 23.277 23.625 23.938 24.2 24.394 24.605 24.801 25.068 25.137 25.171 25.039 25.196 26.311 27.215 26.759 25.032 28.447 30.075 28.544 32.73 34.306 33.835 32.63 29.665 32.546 36.057 35.988 36.015 33.948 36.584 36.656 33.253 27.309 27.362 26.919 26.812 26.805 26.859 26.906 26.973 26.987 27.079 27.263 27.708 32.231 37.385 37.832 31.229 28.891 28.11 33.089 28.004 26.923 26.83 27.302 35.146 41.812 42.414 43.571 42.878 39.048 37.893 31.623 26.548 25.223 25.057 24.896 24.802 24.661 24.389 24.297 24.123 23.904 31.781 31.989 33.763 33.35 35.529 34.402 29.985 22.025 21.566 21.341 21.461 25.688 26.346 23.578 20.537 20.432 20.305 20.119 20.061 19.917 19.817 19.695 19.609 19.476 19.384 19.268 19.154 19.202 19.22 19.233 21.394 22.504 19.455 19.016 18.975 18.953 18.933 18.993 18.855 18.79 18.814 18.847 18.789 18.739 20.075 18.668 18.781 19.197 18.632 18.428 18.158 18.165 18.098 18.027 17.946 17.912 18.018 19.867 17.731 17.596 18.491 21.121 24.172 25.343 27.092 27.849 28.064 26.974 29.887 32.108 35.113 35.83 34.713 31.941 25.75 19.103 18.757 18.784 18.853 19.024 19.179 19.281 19.382 19.482 19.594 19.66 19.751 19.863 19.932 20.034 20.106 20.233 20.256 20.305 20.36 20.402 20.478 20.412 20.444 20.45 20.415 20.433 20.409 20.125 19.829 19.574 19.311 19.222 19.182 19.162 19.125 19.136 19.295 19.268 19.255 19.258 19.259 19.233 19.229 19.186 19.159 19.062 18.827 18.535 18.086 17.847 17.808 17.772 17.757 17.685 17.666 17.54 17.517 17.535 17.496 17.413 17.332 17.257 17.238 17.274 17.297 17.32 17.239 17.212 17.191 17.184 17.151 17.095 17.01 16.956 16.859 16.755 16.682 16.655 16.648 16.641 16.628 16.613 16.581 16.551 16.548 16.473 16.404 16.347 16.237 16.152 16.111 16.081 16.046 15.967 15.905 15.843 15.838 15.846 15.818 15.772 15.767 16.975 18.041 15.922 16.581 17.811 17.317 22.018 23.818 26.751 25.898 20.485 15.661 15.2 15.265 27.581 28.72 18.889 31.654 36.813 35.929 30.305 21.979 24.698 21.885 17.687 14.777 18.064 18.952 17.14 17.117 22.787 16.326 13.01 12.92 13.788 15.178 13.493 16.349 13.723 22.625 23.858 12.8 11.731 11.359 11.311 11.199 11.138 11.102 10.951 10.738 10.628 10.487 10.143 14.589 17.432 23.922 24.612 14.082 12.347 10.65 9.088 8.902 8.624 8.48 9.091 12.221 19.447 21.347 22.41 20.26 19.645 17.517 10.384 6.666 6.51 6.787 9.965 7.7 5.869 5.666 5.65 5.599 5.687 5.704 5.725 5.695
12.377 13.088 11.654 7.083 6.934 7.295 8.426 7.866 8.063 8.329 8.397 8.358 9.085 9.157 9.582 9.847 10.174 11.289 14.943 17.102 18.1 16.278 14.347 13.152 12.064 12.174 12.236 12.429 18.161 18.413 25.213 24.403 26.99 26.467 22.966 21.376 22.417 23.07 21.873 18.764 18.256 22.94 21.043 21.877 22.497 18.405 15.516 15.472 15.569 15.8 15.749 15.927 15.938 16.211 16.044 16.137 16.132 16.227 16.71 17.402 18.782 26.278 25.589 25.569 26.116 23.039 17.552 17.512 17.512 17.447 19.18 24.504 20.591 17.401 17.535 17.719 21.443 24.667 26.677 25.484 22.151 18.752 22.571 28.442 31.26 31.068 28.015 29.088 29.256 30.655 33.919 33.374 32.937 30.508 31.237 31.878 28.967 21.681 20.235 20.327 20.45 20.622 20.87 22.068 23.262 23.418 21.901 21.224 23.127 21.985 21.094 21.087 21.076 21.219 21.835 22.316 22.614 22.833 23.077 23.39 23.719 23.986 24.228 24.475 24.683 24.866 25.09 25.219 25.157 25.126 25.199 25.207 25.14 25.139 25.082 26.48 28.863 30.566 32.531 33.523 30.731 29.865 30.782 35.919 38.593 38.698 36.928 35.226 35.258 36.92 34.261 29.233 27.002 27.369 27.043 27.007 27.043 27.042 27.075 27.074 27.148 27.177 29.021 35.643 38.517 41.312 38.455 32.028 34.412 27.581 27.496 27.452 34.986 35.834 33.076 37.29 40.305 41.747 42.088 39.293 37.694 33.928 27.246 25.437 25.238 25.121 25.007 24.945 24.676 24.562 24.343 24.216 27.77 34.038 33.542 34.448 36.06 35.297 27.778 22.15 21.912 21.607 21.87 26.687 26.859 24.701 20.807 20.605 20.554 20.365 20.252 20.143 20.036 19.972 19.904 19.725 19.644 19.527 19.423 19.399 19.428 19.685 25.795 29.07 21.619 19.207 19.17 19.156 19.164 19.232 19.045 18.984 19.005 19.073 19.022 18.9 19.636 18.712 18.563 18.806 18.809 18.442 18.364 18.324 18.28 18.228 18.146 18.106 18.612 19.243 18.04 19.163 23.404 24.054 29.072 26.38 25.923 26.613 26.042 25.158 28.985 30.003 32.068 34.057 32.403 30.04 25.801 18.903 18.954 19.011 19.108 19.255 19.431 19.529 19.586 19.721 19.844 19.924 19.991 20.104 20.254 20.295 20.368 20.382 20.485 20.624 20.613 20.635 20.666 20.651 20.675 20.705 20.596 20.634 20.548 20.288 19.953 19.687 19.453 19.396 19.286 19.237 19.238 19.263 19.389 19.339 19.247 19.255 19.292 19.242 19.244 19.228 19.163 19.079 18.827 18.528 18.271 18.114 18.14 18.158 18.147 18.14 18.04 17.991 17.972 17.947 17.917 17.823 17.702 17.609 17.592 17.609 17.583 17.596 17.534 17.507 17.51 17.495 17.445 17.395 17.357 17.309 17.192 17.061 17.03 16.97 16.948 16.941 16.954 16.942 16.925 16.886 16.866 16.832 16.769 16.672 16.549 16.453 16.426 16.429 16.383 16.329 16.245 16.145 16.108 16.105 16.098 16.083 16.038 16.569 17.953 15.968 15.942 17.869 21.163 22.369 20.85 19.673 22.121 19.013 16.055 15.36 15.627 19.135 25.449 18.734 30.082 25.781 24.791 26.428 17.695 16.977 19.458 24.979 20.812 20.189 17.022 16.701 17.573 18.269 14.065 13.295 13.096 13.307 13.339 13.253 13.088 13.989 20.704 19.866 12.317 11.872 11.803 11.697 11.51 11.561 11.219 11.017 10.961 10.931 10.847 10.562 13.122 12.424 13.867 12.307 17.386 19.335 16.142 9.761 10.274 9.139 8.727 8.502 11.497 14.796 23.657 27.97 27.099 23.57 22.256 9.01 6.978 6.841 7.2 14.451 14.265 8.7 8.027 9.953 5.911 5.725 5.721 5.739 6.82
12.834 12.814 12.143 6.977 6.865 7.261 8.623 7.968 8.097 8.388 8.561 8.418 8.879 9.232 9.581 9.851 10.184 11.126 14.782 17.011 18.019 16.237 14.3 13.12 12.1 12.221 12.423 12.368 16.959 22.094 26.95 27.333 23.263 25.879 25.947 23.397 24.023 20.886 16.915 18.771 18.925 18.707 23.874 26.903 24.574 19.495 17.816 17.367 16.715 15.731 15.828 15.956 15.982 16.055 16.134 16.21 16.175 16.25 16.304 16.348 19.488 26.125 26.303 25.962 26.378 22.109 17.706 17.656 17.526 17.552 17.473 17.839 18.186 17.571 17.599 17.745 21.916 23.893 25.35 24.743 24.399 21.551 25.647 29.507 29.053 30.282 33.073 31.151 32.358 31.07 32.107 31.475 33.006 33.266 33.291 31.433 30.408 22.687 20.343 20.451 20.499 20.691 20.925 21.902 22.039 21.373 21.109 21.137 21.745 21.948 21.641 21.107 21.224 21.618 22.027 22.501 22.789 23.03 23.278 23.518 23.801 24.035 24.242 24.479 24.718 24.924 25.146 25.162 25.171 25.164 25.169 25.338 25.121 25.226 25.243 25.278 27.841 32.907 32.98 32.934 32.67 32.273 34.073 37.458 39.744 39.242 37.963 36.272 34.061 34.34 33.714 30.025 26.769 27.166 27.51 27.219 27.121 27.172 27.183 27.163 27.203 27.307 30.278 39.281 41.201 40.401 39.01 39.727 33.305 32.059 30.765 34.651 39.615 43.341 39.269 38.94 36.192 39.339 40.946 39.395 36.042 33.435 26.762 25.596 25.451 25.326 25.186 25.091 24.946 24.711 24.732 24.657 28.652 31.271 35.955 35.097 36 32.942 27.657 22.546 22.149 21.884 22.035 24.589 24.67 23.454 20.982 20.866 20.719 20.628 20.487 20.315 20.247 20.169 20.117 20.016 19.94 19.761 19.661 19.699 19.676 19.646 22.22 22.31 19.565 19.462 19.408 19.344 19.314 19.358 19.389 19.269 19.259 19.268 19.444 19.076 20.346 19.469 19.16 18.772 18.718 18.641 18.636 18.534 18.471 18.385 18.312 18.332 19.52 18.689 18.262 19.254 25.84 27.33 30.211 25.148 21.751 21.502 24.66 25.572 19.749 20.447 24.713 27.534 28.259 23.637 22.74 19 19.198 19.294 19.446 19.561 19.681 19.779 19.925 20.041 20.092 20.215 20.249 20.361 20.455 20.529 20.604 20.676 20.748 20.798 20.851 20.886 20.82 20.861 20.829 20.841 20.859 20.929 20.718 20.411 20.055 19.807 19.592 19.542 19.469 19.331 19.304 19.376 19.486 19.496 19.29 19.261 19.267 19.242 19.234 19.243 19.172 19.016 18.808 18.555 18.447 18.452 18.415 18.457 18.546 18.664 18.471 18.381 18.395 18.353 18.279 18.217 18.148 18.107 18.062 18.013 17.962 17.864 17.81 17.778 17.798 17.837 17.805 17.749 17.736 17.721 17.603 17.54 17.469 17.444 17.381 17.308 17.313 17.272 17.224 17.201 17.194 17.178 17.129 17.032 16.912 16.811 16.76 16.723 16.675 16.62 16.564 16.469 16.469 16.426 16.376 16.356 16.353 16.394 17.775 16.725 16.228 16.539 20.632 20.739 18.919 20.235 21.105 16.853 15.759 16.469 22.65 22.56 19.377 19.204 19.588 17.266 18.004 21.877 27.176 26.092 29.058 34.43 33.513 27.383 18.498 15.979 15.634 14.502 13.858 13.625 13.53 13.758 13.637 13.566 13.691 17.116 16.859 14.192 12.456 12.232 12.41 12.196 12.026 11.768 11.517 11.193 11.151 11.192 10.831 10.63 10.502 10.287 10.123 10.042 10.401 18.563 16.915 17.771 13.159 9.583 9.135 10.048 9.939 16.53 22.754 28.569 28.151 16.18 11.473 7.345 7.99 8.329 9.777 18.263 22.971 20.054 19.114 7.312 7.278 6.113 5.887 5.83 9.936
10.592 9.868 9.413 6.929 6.743 7.05 7.938 8.079 8.168 8.374 8.461 8.437 9.786 9.848 13.196 12.259 11.046 10.718 11.364 11.756 11.905 12.008 12.894 12.916 13.057 13.708 16.224 19.894 22.436 24.808 26.354 26.083 19.984 21.434 25.024 21.094 21.604 22.706 19.227 17.535 22.345 28.103 26.156 25.115 25.682 23.931 17.252 17.238 16.653 15.761 15.864 15.933 16.059 16.068 16.327 16.281 16.237 16.283 16.375 16.404 20.65 26.143 26.174 25.967 26.427 22.927 18.281 17.714 17.625 17.62 17.951 23.927 24.538 18.782 17.66 17.828 18.153 18.744 22.491 26.085 26.848 25.882 28.579 30.184 31.114 32.247 33.378 33.55 32.677 30.412 30.659 32.478 37.1 33.493 33.335 30.399 26.308 21.461 20.457 20.576 20.616 20.728 20.938 21.294 21.958 21.381 21.329 24.346 26.316 22.689 21.928 21.508 21.683 22.655 22.327 22.617 22.874 23.097 23.327 23.563 23.802 24.035 24.279 24.518 24.744 24.981 25.195 25.172 25.196 25.201 25.198 25.245 25.207 25.266 25.357 25.421 26.588 30.404 32.269 33.433 33.345 33.601 35.055 38.023 39.529 38.39 31.144 35.083 34.886 33.449 32.902 29.122 27.82 27.135 27.243 27.735 27.371 27.317 27.279 27.29 27.312 27.332 28.548 35.862 38.484 39.194 36.253 31.794 31.85 36.587 39.099 38.739 42.474 41.594 37.425 38.503 42.189 37.03 33.439 35.558 34.444 30.438 25.884 25.743 25.648 25.491 25.364 25.219 25.093 24.907 24.704 25.407 28.985 32.082 35.062 34.697 34.11 33.888 29.021 22.764 22.474 22.211 21.952 21.69 21.836 21.365 21.227 21.099 20.988 20.883 20.775 20.642 24.513 25.164 24.352 20.296 20.135 19.995 21.319 22.797 19.964 19.86 19.826 19.797 19.739 19.694 19.639 19.607 19.583 19.61 19.554 19.503 19.48 19.526 21.017 19.455 21.832 24.51 22.114 19.085 18.853 18.773 18.799 18.712 18.618 18.564 18.567 18.458 20.588 18.363 18.353 20.106 21.774 28.427 25.572 22.946 18.46 18.561 20.645 20.106 18.914 18.818 22.343 21.718 22.654 20.399 19.088 19.178 19.367 19.524 19.663 19.843 19.957 20.081 20.169 20.266 20.307 20.385 20.423 20.567 20.636 20.737 20.783 20.857 20.924 21.001 20.995 20.986 21.078 21.095 21.009 21.071 21.019 21.042 20.816 20.515 20.207 19.973 19.77 19.669 19.562 19.541 19.488 19.488 19.569 19.623 19.582 19.427 19.333 19.322 19.332 19.349 19.188 18.964 18.811 18.712 18.711 18.742 18.743 18.791 18.857 18.873 18.794 18.744 18.714 18.699 18.643 18.561 18.534 18.508 18.468 18.442 18.372 18.315 18.233 18.178 18.134 18.161 18.139 18.153 18.151 18.128 18.052 17.95 17.937 17.915 17.874 17.821 17.806 17.773 17.68 17.638 17.592 17.581 17.527 17.454 17.362 17.279 17.218 17.193 17.521 17.093 16.815 16.738 16.754 16.71 16.69 16.673 16.681 16.616 16.593 16.545 16.515 16.492 16.501 17.078 18.186 18.477 17.22 16.185 16.174 23.524 28.514 27.267 27.449 25.841 17.745 16.064 18.407 24.67 35.458 36.539 33.175 34.762 36.251 25.253 15.989 16.062 16.116 15.138 14.197 14.022 13.76 13.907 13.91 15.135 14.659 15.172 13.495 13.037 12.687 12.699 12.703 12.487 12.193 11.981 11.739 11.704 12.223 11.949 11.147 10.924 10.785 10.458 10.33 10.304 15.51 17.288 17.369 10.286 10.275 9.767 9.588 9.397 9.149 10.931 13.027 19.157 13.824 7.973 7.831 8.828 14.492 8.865 14.577 20.17 16.759 17.595 14.009 10.781 6.581 8.124 6.431 6.243 6.643
6.806 7.854 8.001 7.068 7.235 7.335 8.201 8.186 8.255 8.43 8.527 8.535 9.15 10.117 13.094 13.146 12.016 10.765 13.512 14.841 15.391 15.571 14.927 13.666 14.695 16.802 21.918 24.444 23.164 24.066 27.259 25.289 22.719 24.378 26.747 21.191 18.524 21.147 20.355 17.981 20.641 21.23 23.651 24.617 23.964 23.865 18.52 15.935 15.927 15.938 15.952 16.091 16.121 16.241 16.317 16.386 16.268 16.399 16.416 16.441 21.084 26.176 26.252 26.032 26.413 25.291 19.003 17.731 17.64 17.648 18.417 26.411 27.421 24.27 19.053 17.928 18.021 18.029 22.287 27.549 28.706 28.345 29.577 27.594 26.421 29.032 31.775 31.16 29.401 28.452 29.016 28.772 29.624 30.6 30.301 23.881 20.508 20.527 20.586 20.593 20.698 20.884 21.042 21.202 21.534 22.22 22.969 27.425 27.497 23.628 22.004 21.909 22.232 22.679 22.395 22.642 22.937 23.103 23.361 23.58 23.812 24.088 24.294 24.689 24.757 25.043 25.106 25.171 25.217 25.138 25.167 25.206 25.235 25.39 25.44 25.591 25.672 29.887 32.046 32.748 32.86 32.972 33.901 37.84 38.983 33.302 31.842 30.687 34.878 33.925 34.481 32.067 28.577 27.934 27.111 27.334 27.742 27.501 27.436 27.44 27.466 27.488 27.577 29.367 32.601 33.415 29.631 27.541 30.984 33.818 42.523 41.326 35.772 37.339 38.802 38.922 35.766 34.953 28.696 30.996 27.689 26.633 26.029 25.9 25.826 25.733 25.503 25.422 25.348 25.158 24.96 24.74 25.536 30.79 32.088 35.403 35 31.563 27.929 23.076 22.806 22.487 22.242 22.012 21.803 21.627 21.497 21.324 21.183 21.075 23.167 21.784 31.746 32.478 27.539 21.43 21.246 20.551 20.236 20.905 20.227 20.114 20.049 20.004 20.151 20.67 19.85 19.858 19.913 19.831 19.772 19.703 19.72 19.806 21.852 21.961 25.131 25.474 21.516 19.014 19.034 18.972 18.975 18.915 18.876 18.809 18.888 18.882 20.417 18.636 18.375 18.144 18.263 21.04 20.741 25.078 18.787 18.733 18.818 18.988 19.102 19.119 22.434 20.805 19.206 19.253 19.327 19.427 19.573 19.692 19.821 19.965 20.13 22.132 22.669 20.469 20.59 20.731 20.824 20.839 20.907 20.969 21.002 21.054 21.039 21.194 21.18 21.385 23.198 21.327 21.252 21.23 21.236 21.172 20.969 20.635 20.376 20.143 19.912 19.744 20.515 19.993 20.973 21.89 19.712 19.799 19.8 19.789 19.75 19.649 19.616 19.517 19.289 19.162 19.016 18.991 19.074 19.057 19.062 19.125 19.133 19.118 19.079 19.046 19.008 19.016 18.992 18.93 18.916 18.863 18.804 18.792 18.728 18.698 18.672 18.641 18.597 18.593 18.596 18.583 18.586 18.569 18.456 18.392 18.363 18.363 18.34 18.288 18.262 18.249 18.243 18.197 18.136 18.046 17.974 17.919 17.872 17.819 17.717 18.122 20.979 20.387 17.379 17.221 17.157 17.169 17.263 17.778 18.409 17.073 16.928 16.91 16.884 16.822 16.778 16.754 17.651 17.203 16.723 16.508 16.986 26.924 32.292 31.628 33.763 32.662 21.806 16.34 20.132 24.61 31.014 26.208 22.033 23.083 29.457 25.912 16.215 16.231 15.673 16.457 15.543 14.795 15.249 14.346 14.425 15.603 14.241 13.873 13.677 13.574 13.108 13.706 13.503 12.952 12.87 12.108 12.086 12.022 11.79 11.811 11.581 11.288 11.071 10.793 10.652 10.574 10.576 13.273 12.364 12.269 15.835 19.849 17.076 10.08 9.89 9.491 9.219 8.796 8.499 8.627 13.361 13.036 20.468 15.099 13.87 21.316 10.849 10.97 16.116 9.683 7.546 6.973 8.245 10.218 15.29
12.307 12.533 12.722 8.889 7.297 7.237 8.58 8.32 8.362 8.588 8.652 8.892 8.817 9.388 10.306 12.497 11.256 10.753 14.087 15.292 16.071 16.111 15.307 13.418 12.301 14.516 19.692 24.425 21.451 23.782 26.028 22.403 26.562 26.951 30.316 23.376 17.007 22.235 22.401 22.168 19.649 19.309 23.941 27.501 24.868 22.882 21.211 17.29 15.982 15.981 15.963 16.049 16.098 17.778 17.167 16.861 16.794 16.354 16.403 16.481 22.137 26.219 26.463 26.476 26.528 26.481 20.791 17.811 17.709 17.679 19.542 25.489 29.528 27.759 21.232 17.985 18.088 18.513 24.923 27.132 27.197 29.132 29.425 24.696 25.742 26.947 28.327 29.844 28.594 29.235 29.018 28.504 27.377 30.648 28.649 24.227 20.674 20.634 20.657 20.685 20.766 21.074 21.136 21.28 21.424 22.424 23.338 23.038 22.4 22.318 23.922 24.124 22.467 22.373 22.534 22.646 22.819 23.095 23.896 23.558 23.855 24.065 24.359 24.556 24.809 25.123 25.226 25.172 25.188 25.212 25.235 25.254 25.299 25.351 25.562 25.663 25.716 27.846 31.721 33.441 35.602 33.122 34.195 34.488 30.153 28.038 31.557 28.326 32.662 33.241 34.569 33.661 28.466 30.223 27.778 27.22 27.474 27.888 27.649 27.565 27.613 27.6 27.665 28.451 31.015 29.068 27.545 29.912 35.637 38.69 41.621 41.764 37.513 41.418 39.078 38.523 32.373 29.964 27.321 26.841 26.388 26.297 26.223 26.112 25.948 25.944 25.764 25.601 25.443 25.343 25.2 25.005 24.788 25.704 24.743 30.234 32.868 27.82 23.709 23.412 23.085 22.795 22.499 22.263 22.128 21.883 21.707 21.585 21.41 21.288 21.962 28.392 36.141 33.45 32.814 29.297 29.348 24.05 20.492 20.486 20.45 20.369 20.334 20.234 21.204 23.351 20.101 20.087 20.116 20.038 19.977 19.954 19.876 19.893 23.485 25.53 27.971 24.458 19.352 19.205 19.127 19.111 19.105 19.124 19.058 18.956 19.037 20.375 19.311 18.793 18.419 18.358 18.535 19.775 20.691 23.71 19.335 18.99 19.009 19.211 19.333 19.386 19.385 19.423 19.453 19.549 19.608 19.712 19.813 19.912 20.05 20.776 22.689 27.275 29.665 28.052 21.94 20.896 21.009 21.142 21.205 21.248 21.315 21.308 21.326 21.352 21.359 22.3 23.181 21.395 21.356 21.404 21.413 21.372 21.124 20.773 20.554 20.345 20.014 20.505 26.908 26.256 27.37 26.537 20.027 19.95 19.935 20.002 20.001 19.986 19.865 19.681 19.528 19.444 19.339 19.355 19.371 19.351 19.383 19.398 19.413 19.375 19.344 19.311 19.312 19.301 19.259 19.283 19.272 19.177 19.116 19.104 19.067 19.016 19.022 19.025 19.026 19.004 18.974 18.95 18.995 18.933 18.83 18.808 18.778 18.788 18.742 18.702 18.679 18.666 18.662 18.664 18.606 18.49 18.403 18.328 18.313 18.287 18.234 18.335 20.309 19.893 18.49 17.848 17.665 17.662 17.741 20.679 20.058 17.454 17.397 17.324 17.266 17.197 17.14 17.119 17.056 17.025 16.945 16.886 19.865 26.602 29.613 32.53 34.022 33.319 24.153 17.95 16.212 16.435 17.217 18.178 19.294 17.136 17.96 18.906 23.94 18.937 20.563 24.82 24.662 23.86 25.55 16.14 14.282 14.14 13.978 13.891 13.692 13.57 13.462 14.219 14.359 13.325 12.877 12.524 12.69 12.436 12.347 12.126 13.9 19.408 14.47 12.528 11.166 10.996 11.751 17.929 20.226 21.711 23.684 26.537 17.039 10.96 10.686 10.165 9.651 9.436 9.474 9.183 21.202 21.923 25.76 17.428 14.541 12.571 13.946 11.868 11.069 7.817 7.738 7.044 7.945 19.351 19.55
13.277 12.775 13.39 10.393 7.581 7.393 8.49 8.434 8.458 8.636 8.74 9.575 8.884 9.424 9.992 11.268 12.542 11.653 13.873 15.314 16.108 16.115 15.265 13.223 12.546 14.104 19.312 21.25 17.079 19.716 23.077 23.938 27.649 30.221 28.416 23.054 19.641 24.053 21.353 26.605 26.514 26.922 25.387 27.957 27.901 24.915 24.296 18.757 18.481 18.295 17.75 19.149 21.884 21.591 18.662 18.701 18.86 17.902 17.845 17.935 22.381 25.104 24.67 24.626 25.836 24.495 20.65 19.377 19.237 17.83 19.232 24.639 27.808 27.467 20.39 18.07 18.274 20.752 25.342 26.448 25.722 28.709 27.964 24.989 28.838 33.459 32.743 37.917 37.811 34.937 30.123 28.06 29.121 28.396 23.84 20.797 20.815 20.742 20.744 20.796 20.954 21.177 21.428 21.513 21.618 21.809 21.888 23.607 24.659 24.584 25.203 25.25 24.553 22.406 22.577 22.838 22.756 22.891 23.252 23.6 23.91 24.138 24.368 24.641 24.893 25.142 25.196 25.194 25.18 25.215 25.252 25.27 25.286 25.311 25.546 25.698 25.739 27.855 32.073 35.404 36.923 36.047 34.87 33.906 29.203 26.967 28.609 31.281 30.721 32.736 31.47 32.552 34.033 35.744 36.51 29.255 28.39 27.505 27.947 27.741 27.697 27.68 27.733 27.752 27.716 27.717 27.673 30.353 37.238 38.869 41.13 40.519 40.507 40.084 39.428 36.388 37.969 28.844 30.197 26.684 26.497 26.421 26.339 26.244 26.152 26.059 25.894 25.758 25.652 25.508 25.312 25.18 25.05 24.831 24.616 25.513 25.433 24.059 23.897 23.628 23.343 23.106 22.819 22.578 22.432 22.206 22.026 21.82 21.717 21.56 21.51 27.701 33.838 34.386 35.833 35.87 35.793 31.466 23.136 20.739 20.693 20.626 20.879 20.499 20.462 20.353 20.314 20.297 20.321 20.281 20.223 20.174 20.818 21.05 23.742 27.099 28.365 25.744 19.684 19.337 19.307 19.261 19.273 19.281 19.231 19.317 19.093 20.991 18.922 18.906 18.608 18.802 21.294 20.754 24.87 28.534 21.735 19.619 21.56 22.902 20.591 20.371 20.132 19.726 19.721 19.777 19.887 19.989 20.029 20.146 23.535 27.355 31.931 30.768 33.791 28.326 21.757 21.118 21.251 21.34 21.408 21.461 21.494 21.554 21.594 21.642 21.624 22.625 22.39 21.621 21.584 21.578 21.614 21.537 21.268 20.965 20.751 20.536 20.297 20.081 22.729 29.148 29.961 29.694 21.282 20.217 20.113 20.153 20.187 20.154 20.061 19.939 19.82 19.736 19.681 19.732 19.72 19.675 19.711 19.722 19.685 19.658 19.618 19.569 19.609 19.593 19.592 19.543 19.517 19.467 19.472 19.366 19.403 19.366 19.324 19.336 19.343 19.314 19.31 19.301 19.299 19.254 19.185 19.137 19.119 19.099 19.083 19.076 19.074 19.073 19.081 19.063 19.026 18.911 18.813 18.714 18.716 18.706 18.674 18.631 19.483 19.554 20.276 19.595 18.495 18.42 18.037 18.571 18.392 17.927 17.897 18.341 18.193 17.562 17.482 17.463 17.374 17.31 17.26 17.387 18.89 21.748 29.445 32.092 31.708 30.33 24.371 18.137 17.706 16.58 16.479 16.04 19.667 22.313 30.566 31.716 25.556 19.621 20.534 30.343 32.716 34.608 31.685 20.742 14.997 14.61 14.458 14.215 14.005 13.795 13.581 16.147 13.703 13.325 13.942 14.652 12.937 12.798 12.844 12.895 18.776 24.154 22.145 18.84 17.8 14.493 13.483 15.319 19.939 22.826 26.983 30.083 23.406 11.84 11.41 10.921 10.476 10.271 9.803 9.811 20.879 24.669 12.412 18.052 18.11 17.535 12.638 11.47 9.549 11.074 11.581 7.595 7.504 11.687 22.353
13.718 12.978 13.61 12.64 7.319 7.471 8.338 8.569 8.57 8.718 8.839 9.357 9.058 10.095 10.418 12.235 13.824 12.603 13.203 15.349 16.151 16.065 15.253 13.739 12.712 12.809 14.287 14.419 13.545 17.76 19.28 21.326 27.55 28.743 26.001 23.099 26.999 23.103 23.524 25.552 27.362 26.514 23.921 30.152 27.918 25.185 25.272 20.374 21.316 21.603 21.448 21.981 23.622 22.878 22.699 22.518 22.475 22.548 22.357 22.42 22.77 22.306 23.407 22.077 20.317 18.816 19.547 19.734 19.687 18.715 18.741 21.192 23.695 22.223 18.472 18.139 18.387 19.316 25.043 24.805 24.257 26.901 27.234 26.74 33.087 36.682 37.005 37.92 39.405 38.318 32.42 27.79 28.34 23.483 21.615 20.919 20.867 20.877 20.883 20.929 21.314 26.251 29.335 22.545 22.395 21.849 22.322 25.155 25.281 25.201 25.263 25.274 24.878 22.947 22.71 25.451 24.295 22.831 22.919 23.275 23.804 24.145 24.424 24.747 24.934 25.093 25.211 25.155 25.244 25.25 25.215 25.25 25.267 25.277 25.528 25.784 25.866 26.986 32.922 35.337 36.251 35.26 34.509 34.568 33.067 29.463 27.958 29.602 31.606 33.709 36.917 41.498 38.814 40.321 37.167 37.758 38.021 28.304 27.567 28.056 27.873 27.841 27.861 27.853 27.915 27.855 27.804 29.283 37.681 39.086 40.779 39.525 39.42 34.393 37.776 33.048 32.216 31.29 29.442 26.823 26.687 26.614 26.498 26.405 26.292 26.222 26.082 25.969 25.829 25.691 25.555 25.357 25.133 25.035 24.85 24.659 24.462 24.231 24.056 23.853 23.608 23.416 23.135 22.886 22.712 22.522 22.386 22.178 22.021 21.822 21.7 29.019 35.719 33.772 37.889 37.583 38.024 37.829 30.493 23.902 20.935 22.38 25.689 21.278 20.659 20.617 20.581 20.547 20.552 20.518 20.409 20.369 21.812 24.26 21.546 25.548 27.164 22.605 19.519 19.533 19.516 19.492 19.432 19.426 19.376 19.41 20.321 19.941 19.305 19.399 22.622 24.708 22.257 24.411 28.649 28.773 24.011 24.587 28.347 29.51 28.567 26.659 26.058 22.078 20.076 20.076 20.17 20.228 20.282 20.484 28.702 28.618 33.978 34.236 31.9 31.292 25.297 24.6 22.628 21.594 21.634 21.711 21.767 21.806 21.816 21.858 21.841 21.818 21.819 21.812 21.821 21.833 21.811 21.729 21.449 21.171 20.963 20.806 20.656 21.696 22.036 26.491 31.38 32.896 23.389 20.474 20.421 20.358 20.332 20.345 20.275 20.204 20.119 19.997 20.03 20.087 20.055 19.983 20.02 20.004 19.976 19.924 19.927 19.9 19.892 19.851 19.815 19.813 19.825 19.764 19.717 19.728 19.731 19.706 19.677 19.665 19.657 19.62 19.637 19.628 19.616 19.544 19.461 19.442 19.441 19.457 19.445 19.449 19.411 19.418 19.456 19.441 19.342 19.253 19.177 19.136 19.122 19.107 19.082 19.081 20.342 21.588 21.541 20.463 22.668 21.472 18.469 18.368 18.325 18.316 18.204 18.252 18.057 17.814 17.777 17.75 17.677 17.616 17.54 18.645 18.971 20.435 27.546 26.749 28.447 27.412 22.647 17.011 19.99 18.294 16.939 17.703 27.485 29.118 35.642 28.457 21.318 19.047 18.949 27.086 35.036 33.573 24.375 18.205 15.811 14.998 14.729 14.518 15.057 15.183 14.141 14.04 13.595 14.143 17.282 20.452 16.646 13.337 13.343 13.12 18.215 20.193 25.203 26.654 20.462 14.278 14.989 16.85 21.808 23.666 26.044 26.113 17.119 14.667 16.753 12.992 11.34 10.833 10.664 11.207 11.887 17.743 18.625 25.19 27.464 16.52 11.274 8.886 8.412 9.479 10.067 7.82 8.457 17.031 23.008
