ncols 434
nrows 32
xllcorner    460070
yllcorner    93626
cellsize     2
NODATA_value -9999
-0.904 -0.947 -0.96 -0.947 -0.935 -0.883 -0.874 -0.888 -0.849 -0.831 -0.864 -0.886 -0.837 -0.837 -0.756 -0.832 -0.772 -0.795 -0.855 -0.766 -0.819 -0.81 -0.762 -0.692 -0.701 -0.736 -0.696 -0.737 -0.78 -0.736 -0.695 -0.681 -0.745 -0.681 -0.719 -0.694 -0.678 -0.699 -0.704 -0.623 -0.621 -0.682 -0.637 -0.663 -0.66 -0.649 -0.614 -0.62 -0.618 -0.593 -0.647 -0.626 -0.603 -0.625 -0.658 -0.643 -0.628 -0.618 -0.612 -0.561 -0.689 -0.65 -0.678 -0.684 -0.583 -0.655 -0.628 -0.718 -0.679 -0.701 -0.72 -0.654 -0.685 -0.668 -0.672 -0.687 -0.7 -0.761 -0.7 -0.735 -0.759 -0.733 -0.733 -0.756 -0.7 -0.788 -0.773 -0.719 -0.765 -0.76 -0.74 -0.768 -0.765 -0.82 -0.812 -0.764 -0.785 -0.818 -0.847 -0.849 -0.842 -0.814 -0.869 -0.894 -0.854 -0.869 -0.921 -0.912 -0.878 -0.899 -0.891 -0.914 -0.934 -0.949 -0.932 -0.939 -1.018 -1.023 -1.03 -0.959 -0.954 -0.947 -0.974 -0.997 -1.031 -1.033 -1.046 -1.09 -1.107 -1.111 -1.127 -1.161 -1.177 -1.138 -1.077 -1.064 -1.042 -1.024 -1.017 -1.014 -1.103 -1.167 -1.173 -1.215 -1.214 -1.195 -1.174 -1.186 -1.208 -1.172 -1.177 -1.177 -1.191 -1.214 -1.241 -1.24 -1.266 -1.258 -1.3 -1.308 -1.356 -1.431 -1.396 -1.465 -1.479 -1.508 -1.542 -1.54 -1.564 -1.58 -1.545 -1.482 -1.461 -1.493 -1.505 -1.484 -1.483 -1.476 -1.472 -1.47 -1.508 -1.511 -1.527 -1.518 -1.493 -1.498 -1.485 -1.542 -1.557 -1.575 -1.567 -1.548 -1.569 -1.533 -1.532 -1.544 -1.51 -1.586 -1.567 -1.538 -1.5 -1.548 -1.59 -1.582 -1.552 -1.579 -1.62 -1.622 -1.641 -1.656 -1.656 -1.678 -1.646 -1.661 -1.651 -1.66 -1.608 -1.609 -1.617 -1.678 -1.678 -1.663 -1.711 -1.699 -1.793 -1.782 -1.765 -1.845 -1.794 -1.852 -1.861 -1.794 -1.805 -1.795 -1.853 -1.811 -1.807 -1.826 -1.805 -1.817 -1.838 -1.875 -1.925 -1.824 -1.935 -2.057 -1.932 -1.842 -1.794 -1.955 -2.017 -2 -2.029 -2.081 -2.046 -1.966 -2.009 -2.071 -1.987 -1.948 -1.974 -2.082 -2.033 -2.038 -1.947 -2.055 -2.087 -2.028 -2.068 -2.055 -2.19 -9999 -9999 -9999 -9999 -9999 -2.277 -9999 -9999 -2.147 -9999 -9999 -9999 -2.26 -2.122 -2.282 -2.069 -2.187 -2.095 -2.101 -2.221 -2.123 -2.059 -2.049 -2.096 -2.19 -2.115 -2.071 -2.092 -2.064 -2.054 -2.068 -2.017 -2.105 -2.202 -2.105 -2.043 -2.054 -2.114 -2.067 -2.034 -2.086 -2.139 -2.118 -2.067 -2.103 -2.134 -2.106 -2.04 -2.112 -2.123 -2.063 -2.088 -2.078 -2.042 -2.166 -2.054 -2.093 -2.079 -2.03 -2.036 -2.048 -2.048 -2.07 -2.025 -2.044 -2.095 -2.028 -2.043 -2.031 -2.044 -2.074 -2.051 -2.029 -2.127 -2.051 -2.065 -2.061 -2.051 -2.038 -2.045 -2.007 -2.073 -2.067 -2.169 -2.028 -2.062 -2.059 -2.05 -2.048 -2.071 -2.077 -2.055 -2.054 -2.086 -2.047 -2.065 -2.074 -2.091 -2.022 -2.082 -2.19 -2.089 -2.083 -2.171 -1.993 -2.039 -2.041 -2.145 -2.14 -2.015 -2.08 -2.014 -2.095 -2.083 -2.077 -2.118 -2.18 -2.028 -2.047 -2.023 -2.108 -2.203 -2.058 -2.088 -2.027 -2.055 -2.064 -2.12 -2.064 -2.185 -2.076 -2.013 -2.042 -2.075 -2.167 -2.128 -2.173 -2.064 -2.036 -2.082 -2.071 -2.078 -2.006 -2.119 -2.053 -2.151 -2.107 -2.181 -2.075 -2.175 -2.113 -2.073 -9999 -9999 -2.192 -9999 -2.065 -2.089 -2.075 -2.194 -2.166 -9999 -2.127
-0.903 -0.859 -0.932 -0.888 -0.926 -0.902 -0.87 -0.86 -0.867 -0.885 -0.855 -0.831 -0.827 -0.786 -0.815 -0.855 -0.823 -0.804 -0.837 -0.804 -0.798 -0.717 -0.793 -0.728 -0.707 -0.701 -0.677 -0.735 -0.696 -0.671 -0.732 -0.697 -0.674 -0.702 -0.755 -0.681 -0.648 -0.649 -0.631 -0.626 -0.63 -0.638 -0.665 -0.628 -0.666 -0.673 -0.596 -0.635 -0.655 -0.619 -0.681 -0.647 -0.656 -0.625 -0.679 -0.643 -0.609 -0.616 -0.628 -0.604 -0.649 -0.621 -0.62 -0.669 -0.658 -0.706 -0.596 -0.668 -0.69 -0.682 -0.652 -0.683 -0.696 -0.69 -0.6 -0.673 -0.711 -0.754 -0.764 -0.767 -0.757 -0.693 -0.719 -0.712 -0.743 -0.825 -0.817 -0.774 -0.751 -0.765 -0.808 -0.77 -0.805 -0.823 -0.812 -0.769 -0.796 -0.812 -0.884 -0.887 -0.836 -0.841 -0.804 -0.848 -0.859 -0.859 -0.894 -0.902 -0.9 -0.899 -0.909 -0.922 -0.917 -0.937 -0.919 -0.927 -0.999 -0.959 -0.94 -0.922 -0.924 -0.962 -1.015 -0.988 -1.001 -1.03 -1.085 -1.099 -1.115 -1.135 -1.14 -1.141 -1.113 -1.077 -1.104 -1.062 -1.027 -1.039 -1.049 -1.068 -1.121 -1.187 -1.207 -1.211 -1.223 -1.198 -1.214 -1.201 -1.196 -1.192 -1.186 -1.134 -1.181 -1.224 -1.233 -1.243 -1.282 -1.285 -1.285 -1.296 -1.371 -1.32 -1.375 -1.424 -1.528 -1.523 -1.518 -1.596 -1.544 -1.571 -1.561 -1.482 -1.537 -1.496 -1.496 -1.485 -1.448 -1.501 -1.509 -1.501 -1.486 -1.468 -1.437 -1.467 -1.485 -1.474 -1.48 -1.532 -1.55 -1.582 -1.544 -1.57 -1.61 -1.561 -1.55 -1.581 -1.545 -1.585 -1.566 -1.552 -1.514 -1.492 -1.554 -1.572 -1.512 -1.542 -1.589 -1.608 -1.628 -1.651 -1.653 -1.659 -1.629 -1.635 -1.646 -1.693 -1.637 -1.679 -1.679 -1.715 -1.656 -1.646 -1.729 -1.797 -1.817 -1.85 -1.754 -1.8 -1.958 -1.893 -1.807 -1.846 -1.813 -1.786 -1.775 -1.803 -1.796 -1.787 -1.8 -1.788 -1.868 -1.877 -1.887 -1.935 -1.934 -1.946 -1.866 -1.873 -1.876 -1.97 -1.979 -1.98 -2.084 -1.978 -2.134 -1.989 -1.965 -1.973 -1.947 -2.058 -2.036 -2.039 -2.105 -1.983 -2.029 -2.059 -2.136 -2.12 -2.045 -2.152 -2.155 -2.322 -2.299 -2.246 -9999 -9999 -9999 -2.294 -9999 -9999 -9999 -9999 -2.277 -2.111 -2.221 -2.126 -2.069 -9999 -9999 -9999 -2.088 -2.203 -2.076 -2.061 -2.158 -2.078 -2.052 -2.072 -2.04 -2.165 -2.119 -2.094 -1.985 -2.098 -2.097 -2.1 -2.022 -2.082 -2.104 -2.066 -2.18 -2.053 -2.058 -2.107 -2.134 -2.065 -2.089 -2.084 -2.057 -2.056 -2.006 -2.125 -2.064 -2.081 -2.001 -2.01 -1.997 -2.034 -2.101 -2.016 -2.048 -2.079 -2.082 -2.11 -2.021 -2.014 -2.06 -2.097 -2.047 -2.067 -1.996 -2.072 -2.08 -2.076 -2.088 -2.106 -2.022 -2.024 -2.112 -2.02 -2.022 -2.021 -2.053 -2.014 -2.117 -2.006 -2.143 -2.082 -2.079 -2.129 -2.047 -2.076 -2.009 -2.01 -2.122 -2.029 -2.077 -2.043 -2.057 -2.108 -2.062 -2.118 -2.039 -2.092 -2.073 -2.079 -2.025 -2.042 -2.008 -2.13 -2.071 -2.145 -2.048 -2.166 -2.02 -2.027 -2.128 -2.099 -1.987 -2.094 -1.986 -2.068 -2.045 -2.101 -2.068 -2.092 -2.169 -2.028 -2.111 -2.047 -2.157 -2.054 -2.107 -2.143 -2.113 -2.088 -2.112 -2.108 -2.117 -2.08 -2.08 -2.089 -2.102 -2.055 -2.077 -2.117 -2.102 -2.132 -2.08 -2.054 -2.154 -2.167 -2.032 -2.059 -2.114 -2.234 -2.176 -2.078 -9999 -2.126 -2.091 -2.087 -2.032 -2.152
-0.933 -0.933 -0.944 -0.891 -0.93 -0.88 -0.838 -0.839 -0.785 -0.819 -0.817 -0.791 -0.808 -0.739 -0.81 -0.824 -0.795 -0.781 -0.774 -0.8 -0.792 -0.697 -0.751 -0.705 -0.685 -0.721 -0.693 -0.687 -0.724 -0.637 -0.67 -0.717 -0.664 -0.685 -0.658 -0.636 -0.627 -0.585 -0.634 -0.646 -0.6 -0.65 -0.627 -0.627 -0.544 -0.577 -0.64 -0.604 -0.568 -0.615 -0.591 -0.604 -0.597 -0.57 -0.631 -0.572 -0.636 -0.677 -0.649 -0.587 -0.659 -0.692 -0.681 -0.655 -0.57 -0.638 -0.664 -0.631 -0.582 -0.648 -0.666 -0.632 -0.685 -0.683 -0.662 -0.74 -0.683 -0.652 -0.704 -0.719 -0.726 -0.704 -0.691 -0.758 -0.728 -0.767 -0.758 -0.738 -0.756 -0.748 -0.759 -0.779 -0.734 -0.841 -0.801 -0.79 -0.798 -0.837 -0.887 -0.9 -0.843 -0.824 -0.824 -0.886 -0.934 -0.884 -0.877 -0.891 -0.889 -0.888 -0.9 -0.908 -0.926 -0.942 -0.945 -0.954 -0.958 -0.907 -0.905 -0.857 -0.874 -0.934 -0.979 -0.972 -0.994 -1.053 -1.124 -1.111 -1.125 -1.173 -1.148 -1.136 -1.118 -1.061 -1.119 -1.114 -1.034 -1.039 -1.074 -1.091 -1.135 -1.194 -1.201 -1.223 -1.218 -1.179 -1.195 -1.163 -1.163 -1.181 -1.175 -1.159 -1.194 -1.196 -1.202 -1.23 -1.263 -1.249 -1.267 -1.277 -1.311 -1.344 -1.35 -1.463 -1.523 -1.504 -1.579 -1.528 -1.513 -1.552 -1.525 -1.463 -1.514 -1.484 -1.483 -1.49 -1.419 -1.492 -1.499 -1.457 -1.492 -1.455 -1.432 -1.433 -1.44 -1.472 -1.481 -1.497 -1.513 -1.573 -1.531 -1.618 -1.653 -1.549 -1.576 -1.538 -1.51 -1.492 -1.548 -1.54 -1.498 -1.489 -1.512 -1.519 -1.567 -1.589 -1.575 -1.586 -1.65 -1.653 -1.611 -1.617 -1.644 -1.659 -1.644 -1.701 -1.684 -1.67 -1.724 -1.719 -1.69 -1.682 -1.708 -1.751 -1.773 -1.799 -1.789 -1.786 -1.842 -1.772 -1.797 -1.742 -1.791 -1.8 -1.742 -1.802 -1.826 -1.839 -1.863 -1.919 -1.829 -1.902 -1.893 -1.929 -1.883 -2.057 -2.101 -1.892 -1.898 -1.991 -2.051 -1.99 -2.023 -1.954 -2.166 -2.102 -1.999 -2.004 -1.998 -1.94 -2.076 -2.107 -2.059 -2.106 -2.006 -2.028 -2.131 -2.143 -2.08 -9999 -2.149 -2.101 -2.226 -2.105 -9999 -2.237 -2.261 -2.177 -9999 -9999 -9999 -2.167 -2.229 -2.199 -2.191 -2.146 -2.072 -2.149 -9999 -9999 -2.116 -2.168 -2.202 -2.062 -2.131 -2.047 -2.179 -2.206 -2.093 -2.121 -2.09 -2.042 -2.064 -2.103 -2.072 -2.13 -2.089 -2.062 -2.094 -2.071 -2.086 -2.212 -2.061 -2.059 -2.067 -2.077 -2.062 -2.117 -2.106 -2.059 -2.005 -2.027 -2.084 -2.028 -2.09 -2.062 -2.098 -2.058 -2.079 -2.06 -1.997 -2.021 -2.069 -2.072 -2.055 -2.043 -2.041 -2.086 -2.036 -2.049 -2.117 -2.039 -2.023 -2.065 -1.988 -2.063 -2.109 -2.08 -2.047 -2.03 -1.981 -2.04 -2.059 -2.046 -2.052 -2.047 -2.074 -2.136 -1.998 -2.084 -2.051 -2.025 -2.137 -2.076 -2.044 -2.082 -2.064 -2.077 -2.09 -2.046 -2.048 -2.1 -2.064 -2.048 -2.069 -2.064 -2.104 -2.027 -2.131 -2.109 -1.997 -2.045 -2.077 -2.051 -2.125 -2.131 -2.097 -2.087 -2.087 -2.076 -2.205 -2.079 -2.066 -2.097 -2.087 -2.05 -2.007 -2.143 -2.051 -2.033 -2.111 -2.12 -2.105 -2.115 -2.082 -2.099 -2.146 -2.088 -2.097 -2.071 -2.199 -2.061 -2.068 -2.035 -2.027 -2.08 -2.061 -2.138 -2.053 -2.083 -2.093 -1.975 -2.072 -2.099 -9999 -9999 -9999 -2.133 -2.008 -2.084 -2.119 -9999 -9999 -2.065
-0.886 -0.947 -0.933 -0.874 -0.826 -0.847 -0.807 -0.834 -0.776 -0.845 -0.744 -0.812 -0.794 -0.741 -0.795 -0.782 -0.785 -0.794 -0.748 -0.694 -0.728 -0.714 -0.697 -0.651 -0.684 -0.715 -0.709 -0.7 -0.712 -0.652 -0.657 -0.64 -0.605 -0.664 -0.63 -0.624 -0.625 -0.516 -0.611 -0.599 -0.601 -0.655 -0.642 -0.653 -0.543 -0.66 -0.62 -0.601 -0.586 -0.606 -0.582 -0.57 -0.61 -0.646 -0.621 -0.595 -0.585 -0.61 -0.607 -0.672 -0.647 -0.638 -0.639 -0.641 -0.641 -0.602 -0.672 -0.609 -0.622 -0.635 -0.664 -0.667 -0.707 -0.68 -0.604 -0.673 -0.687 -0.656 -0.722 -0.698 -0.69 -0.691 -0.725 -0.68 -0.724 -0.767 -0.752 -0.724 -0.752 -0.771 -0.772 -0.742 -0.789 -0.829 -0.766 -0.799 -0.8 -0.822 -0.868 -0.893 -0.827 -0.847 -0.93 -0.945 -0.959 -0.872 -0.854 -0.887 -0.864 -0.878 -0.872 -0.904 -0.922 -0.947 -0.941 -0.952 -0.972 -0.925 -0.92 -0.892 -0.922 -0.917 -0.97 -1.011 -1.026 -1.042 -1.087 -1.123 -1.155 -1.187 -1.172 -1.135 -1.127 -1.095 -1.082 -1.094 -1.047 -1.032 -1.099 -1.072 -1.123 -1.188 -1.203 -1.198 -1.173 -1.168 -1.156 -1.158 -1.155 -1.149 -1.161 -1.15 -1.181 -1.206 -1.204 -1.193 -1.223 -1.254 -1.272 -1.259 -1.296 -1.331 -1.385 -1.432 -1.536 -1.631 -1.506 -1.551 -1.56 -1.537 -1.507 -1.509 -1.498 -1.442 -1.455 -1.481 -1.485 -1.452 -1.467 -1.445 -1.442 -1.428 -1.399 -1.381 -1.394 -1.446 -1.453 -1.475 -1.5 -1.532 -1.537 -1.556 -1.565 -1.558 -1.529 -1.558 -1.542 -1.514 -1.59 -1.617 -1.472 -1.509 -1.542 -1.517 -1.605 -1.592 -1.552 -1.585 -1.643 -1.629 -1.587 -1.7 -1.687 -1.699 -1.684 -1.641 -1.71 -1.75 -1.714 -1.714 -1.69 -1.681 -1.73 -1.798 -1.804 -1.75 -1.738 -1.787 -1.746 -1.821 -1.782 -1.756 -1.751 -1.92 -1.791 -1.852 -1.843 -1.832 -1.923 -2.021 -1.83 -1.884 -1.913 -1.947 -1.919 -1.913 -1.935 -1.918 -2.018 -2.021 -1.996 -1.906 -1.951 -1.871 -2.074 -2.035 -2.083 -2.135 -1.967 -1.931 -2.043 -2.06 -2.003 -2.037 -2.131 -2.029 -2.014 -2.055 -2.054 -2.291 -2.049 -2.128 -9999 -9999 -9999 -2.266 -2.088 -2.067 -2.164 -9999 -2.287 -2.223 -2.094 -9999 -2.235 -2.207 -9999 -9999 -9999 -9999 -2.226 -2.119 -2.159 -2.115 -2.151 -2.19 -2.127 -2.195 -2.113 -2.089 -2.032 -2.172 -2.026 -2.123 -2.045 -2.089 -2.072 -2.08 -1.964 -2.052 -2.108 -2.107 -2.069 -2.108 -2.053 -2.049 -2.029 -2.067 -2.054 -2.031 -2.022 -2.055 -2.022 -2.049 -2.075 -2.083 -2.071 -2.08 -2.035 -2.024 -2.083 -2.037 -2.06 -2.031 -2.077 -2.089 -1.985 -2.055 -2.058 -2.064 -2.027 -2.04 -2.095 -2.093 -2.089 -2.119 -2.069 -2.048 -2.038 -2 -1.98 -2.054 -2.128 -1.99 -2.04 -2.053 -2.13 -2.036 -2.014 -2.044 -2.126 -2.038 -2.051 -2.06 -2.065 -2.16 -2.093 -2.087 -2.088 -2.04 -2.056 -2.035 -2.103 -2.14 -2.085 -2.059 -2.031 -2.075 -2.065 -2.043 -2.14 -2.086 -2.075 -2.069 -2.041 -2.171 -2.049 -2.172 -2.034 -2.136 -2.023 -2.13 -2.072 -2.177 -2.157 -2.101 -2.013 -2.037 -2.092 -2.083 -2.07 -2.013 -2.063 -2.004 -2.08 -2.137 -2.132 -2.098 -1.945 -2.086 -2.088 -2.029 -2.055 -2.177 -2.13 -2.116 -2.098 -2.033 -2.115 -2.149 -2.068 -2.132 -2.123 -2.072 -2.017 -2.101 -2.131 -2.117 -9999 -2.069 -2.127 -2.104 -9999 -2.209
-0.877 -0.844 -0.856 -0.899 -0.846 -0.844 -0.772 -0.793 -0.758 -0.784 -0.79 -0.783 -0.78 -0.791 -0.746 -0.795 -0.769 -0.724 -0.7 -0.762 -0.713 -0.674 -0.654 -0.698 -0.648 -0.575 -0.611 -0.69 -0.709 -0.68 -0.62 -0.624 -0.637 -0.65 -0.626 -0.659 -0.607 -0.596 -0.611 -0.591 -0.63 -0.556 -0.566 -0.644 -0.591 -0.546 -0.607 -0.586 -0.555 -0.587 -0.59 -0.61 -0.562 -0.64 -0.643 -0.614 -0.636 -0.654 -0.652 -0.594 -0.658 -0.639 -0.68 -0.68 -0.606 -0.638 -0.626 -0.679 -0.644 -0.637 -0.629 -0.661 -0.671 -0.682 -0.675 -0.681 -0.668 -0.716 -0.699 -0.722 -0.713 -0.616 -0.769 -0.701 -0.723 -0.679 -0.717 -0.721 -0.725 -0.755 -0.759 -0.776 -0.804 -0.779 -0.794 -0.835 -0.817 -0.912 -0.934 -0.901 -0.847 -0.88 -0.924 -0.929 -0.892 -0.827 -0.891 -0.866 -0.851 -0.91 -0.934 -0.914 -0.977 -0.972 -0.994 -0.974 -0.93 -0.919 -0.911 -0.944 -0.922 -0.927 -0.965 -0.995 -1.029 -1.067 -1.092 -1.149 -1.136 -1.125 -1.171 -1.116 -1.117 -1.077 -1.069 -1.077 -1.073 -1.071 -1.119 -1.105 -1.125 -1.199 -1.201 -1.224 -1.196 -1.17 -1.168 -1.174 -1.155 -1.146 -1.156 -1.147 -1.175 -1.179 -1.191 -1.22 -1.207 -1.26 -1.256 -1.255 -1.275 -1.322 -1.373 -1.412 -1.53 -1.569 -1.537 -1.552 -1.547 -1.437 -1.51 -1.498 -1.465 -1.418 -1.461 -1.454 -1.518 -1.443 -1.43 -1.404 -1.423 -1.378 -1.395 -1.372 -1.373 -1.407 -1.453 -1.447 -1.492 -1.487 -1.514 -1.572 -1.544 -1.529 -1.52 -1.538 -1.509 -1.53 -1.606 -1.547 -1.472 -1.557 -1.6 -1.569 -1.602 -1.563 -1.574 -1.612 -1.617 -1.64 -1.633 -1.64 -1.69 -1.739 -1.701 -1.728 -1.663 -1.715 -1.733 -1.702 -1.711 -1.72 -1.747 -1.778 -1.822 -1.737 -1.738 -1.764 -1.789 -1.791 -1.816 -1.794 -1.745 -1.774 -1.776 -1.768 -1.737 -1.837 -1.978 -1.833 -1.863 -1.891 -1.888 -1.881 -1.91 -1.908 -1.897 -1.936 -1.946 -2.06 -1.965 -1.946 -1.84 -1.847 -2.038 -2.032 -2.023 -2.024 -1.994 -2.06 -1.927 -2.047 -1.958 -1.955 -1.953 -2.184 -2.155 -1.998 -2.139 -2.083 -2.083 -2.088 -2.131 -9999 -2.254 -2.204 -2.062 -2.264 -9999 -9999 -9999 -9999 -9999 -9999 -9999 -2.213 -2.179 -9999 -9999 -2.134 -2.134 -2.083 -2.205 -2.099 -2.133 -2.132 -2.094 -2.105 -2.049 -2.016 -2.169 -2.143 -2.066 -2.07 -2.089 -2.159 -2.057 -2.16 -2.099 -2.138 -2.145 -2.044 -2.075 -2.055 -2.123 -2.083 -2.057 -2.074 -2.12 -2.093 -2.061 -2.026 -2.071 -2.107 -2.097 -2.029 -2.005 -2.121 -2.059 -2.163 -2.064 -2 -2.051 -2.092 -2.046 -2.078 -2.102 -2.054 -2.035 -2.068 -2.09 -2.048 -2.054 -2.052 -2.085 -2.059 -2.076 -2.029 -2.011 -2.045 -2.09 -2.055 -2.05 -2.027 -2.033 -2.071 -2.046 -2.015 -2.018 -2.074 -2.028 -2.06 -2.036 -2.103 -2.162 -2.074 -2.061 -2.041 -2.083 -2.068 -2.026 -2.016 -2.074 -2.048 -2.056 -2.073 -2.083 -2.148 -2.085 -2.115 -2.106 -2.062 -2.026 -2.02 -2.094 -2.066 -2.045 -2.143 -2.15 -2.1 -2.1 -2.126 -2.048 -2.087 -2.12 -2.018 -2.066 -2.087 -2.058 -2.102 -2.166 -2.119 -2.03 -2.146 -2.173 -2.106 -2.089 -2.067 -2.187 -2.141 -2.083 -2.125 -2.088 -2.07 -2.104 -2.124 -2.188 -2.034 -2.068 -2.105 -2.125 -2.118 -2.1 -2.001 -2.114 -2.118 -2.064 -2.121 -2.119 -2.054 -2.101 -2.059 -2.159 -2.184
-0.813 -0.929 -0.846 -0.821 -0.844 -0.847 -0.81 -0.78 -0.754 -0.724 -0.745 -0.666 -0.76 -0.764 -0.795 -0.754 -0.729 -0.741 -0.67 -0.652 -0.683 -0.702 -0.676 -0.701 -0.654 -0.649 -0.704 -0.679 -0.636 -0.644 -0.638 -0.652 -0.575 -0.584 -0.594 -0.598 -0.534 -0.555 -0.576 -0.587 -0.587 -0.555 -0.58 -0.593 -0.603 -0.543 -0.552 -0.583 -0.592 -0.547 -0.625 -0.621 -0.617 -0.594 -0.636 -0.587 -0.569 -0.634 -0.584 -0.61 -0.622 -0.624 -0.558 -0.638 -0.616 -0.64 -0.637 -0.63 -0.625 -0.69 -0.641 -0.625 -0.697 -0.677 -0.654 -0.656 -0.692 -0.675 -0.692 -0.678 -0.715 -0.684 -0.714 -0.691 -0.723 -0.718 -0.762 -0.721 -0.785 -0.768 -0.773 -0.813 -0.823 -0.845 -0.846 -0.842 -0.852 -0.957 -0.938 -0.917 -0.88 -0.862 -0.874 -0.875 -0.895 -0.878 -0.913 -0.818 -0.889 -0.923 -0.997 -0.947 -0.949 -1.009 -0.991 -0.965 -0.97 -0.917 -0.906 -0.882 -0.934 -0.917 -0.988 -1.009 -1.042 -1.033 -1.088 -1.098 -1.139 -1.118 -1.141 -1.231 -1.133 -1.067 -1.062 -1.079 -1.072 -1.081 -1.11 -1.123 -1.153 -1.163 -1.205 -1.204 -1.179 -1.215 -1.186 -1.132 -1.142 -1.157 -1.14 -1.117 -1.145 -1.201 -1.18 -1.206 -1.235 -1.248 -1.265 -1.226 -1.286 -1.299 -1.36 -1.404 -1.509 -1.518 -1.469 -1.417 -1.505 -1.499 -1.43 -1.541 -1.459 -1.425 -1.482 -1.527 -1.48 -1.423 -1.433 -1.417 -1.396 -1.342 -1.356 -1.346 -1.33 -1.382 -1.404 -1.43 -1.453 -1.46 -1.517 -1.574 -1.511 -1.543 -1.529 -1.557 -1.498 -1.495 -1.532 -1.508 -1.514 -1.589 -1.614 -1.599 -1.537 -1.52 -1.594 -1.619 -1.622 -1.612 -1.664 -1.654 -1.675 -1.754 -1.726 -1.686 -1.709 -1.694 -1.689 -1.74 -1.706 -1.813 -1.748 -1.808 -1.832 -1.788 -1.834 -1.834 -1.815 -1.783 -1.796 -1.775 -1.838 -1.77 -1.825 -1.819 -1.777 -1.823 -1.886 -1.823 -1.801 -1.894 -1.915 -1.878 -1.825 -2.017 -1.856 -1.946 -1.902 -2.015 -1.994 -1.897 -1.841 -1.835 -1.991 -1.996 -2.042 -2.074 -2.039 -2.003 -1.987 -1.998 -2 -1.964 -1.993 -2.119 -2.023 -2.051 -2.039 -2.014 -2.118 -2.103 -2.063 -2.134 -2.369 -2.305 -2.159 -9999 -9999 -9999 -9999 -9999 -9999 -9999 -2.205 -2.204 -2.241 -9999 -2.307 -2.17 -2.127 -2.084 -2.097 -2.242 -2.174 -9999 -2.085 -2.093 -2.161 -2.115 -2.114 -2.028 -2.105 -2.069 -2.158 -2.166 -2.187 -2.081 -2.043 -2.054 -2.11 -2.071 -2.142 -2.093 -2.056 -2.126 -2.094 -2.049 -2.088 -2.038 -2.029 -2.071 -2.093 -2.056 -2.067 -2.157 -2.044 -2.052 -2.1 -2.074 -2.045 -2.032 -2.019 -2.107 -2.011 -2.03 -2.092 -2.083 -2.062 -2.015 -2.007 -2.029 -2.07 -2.098 -2.137 -2.033 -2.05 -2.105 -2.035 -2.082 -2.081 -2.057 -2.148 -2.067 -2.113 -1.991 -2.025 -2.049 -2.046 -2.083 -2.099 -2.093 -2.122 -2.073 -2.057 -2.035 -2.09 -2.041 -2.029 -2.022 -2.059 -2.103 -2.086 -2.091 -2.076 -2.083 -2.09 -1.973 -2.044 -2.148 -2.05 -1.987 -2.032 -2.059 -2.101 -2.096 -2.032 -2.06 -2.075 -2.053 -2.145 -2.071 -2.132 -2.137 -2.153 -2.058 -2.027 -2.043 -2.139 -2.061 -2.035 -2.08 -2.069 -2.15 -2.068 -2.055 -2.058 -2.066 -2.166 -2.134 -2.197 -2.083 -2.176 -2.091 -2.004 -2.127 -2.023 -2.12 -2.114 -2.116 -2.116 -2.039 -2.13 -2.189 -2.182 -9999 -2.217 -2.006 -2.098 -9999 -2.171 -1.991 -2.038 -2.202
-0.855 -0.867 -0.778 -0.813 -0.746 -0.796 -0.796 -0.769 -0.78 -0.7 -0.724 -0.733 -0.748 -0.768 -0.73 -0.718 -0.682 -0.737 -0.65 -0.693 -0.699 -0.67 -0.641 -0.682 -0.625 -0.677 -0.638 -0.587 -0.642 -0.636 -0.598 -0.605 -0.587 -0.589 -0.603 -0.549 -0.589 -0.594 -0.593 -0.595 -0.616 -0.573 -0.591 -0.587 -0.579 -0.582 -0.573 -0.566 -0.624 -0.567 -0.579 -0.632 -0.62 -0.633 -0.593 -0.603 -0.605 -0.658 -0.641 -0.647 -0.619 -0.631 -0.629 -0.618 -0.625 -0.644 -0.635 -0.592 -0.672 -0.625 -0.653 -0.708 -0.626 -0.66 -0.664 -0.644 -0.698 -0.648 -0.586 -0.673 -0.7 -0.683 -0.683 -0.701 -0.707 -0.765 -0.675 -0.738 -0.766 -0.816 -0.807 -0.802 -0.836 -0.853 -0.814 -0.835 -0.873 -0.909 -0.914 -0.905 -0.867 -0.873 -0.879 -0.859 -0.933 -0.869 -0.899 -0.878 -0.924 -0.917 -0.967 -0.955 -0.953 -0.958 -0.969 -0.939 -0.953 -0.893 -0.879 -0.884 -0.939 -0.934 -0.972 -1.009 -1.037 -1.067 -1.117 -1.148 -1.111 -1.074 -1.175 -1.254 -1.173 -1.099 -1.087 -1.105 -1.115 -1.102 -1.11 -1.12 -1.134 -1.139 -1.233 -1.224 -1.155 -1.167 -1.137 -1.149 -1.132 -1.129 -1.104 -1.107 -1.154 -1.169 -1.165 -1.208 -1.246 -1.238 -1.241 -1.247 -1.229 -1.305 -1.347 -1.466 -1.587 -1.461 -1.496 -1.437 -1.493 -1.463 -1.513 -1.434 -1.421 -1.419 -1.455 -1.461 -1.455 -1.423 -1.417 -1.396 -1.362 -1.347 -1.355 -1.329 -1.339 -1.393 -1.396 -1.429 -1.436 -1.451 -1.479 -1.512 -1.539 -1.542 -1.524 -1.521 -1.49 -1.472 -1.513 -1.462 -1.557 -1.579 -1.564 -1.561 -1.553 -1.581 -1.673 -1.649 -1.643 -1.665 -1.669 -1.689 -1.746 -1.717 -1.736 -1.682 -1.722 -1.676 -1.702 -1.711 -1.72 -1.734 -1.73 -1.782 -1.761 -1.793 -1.757 -1.785 -1.789 -1.767 -1.745 -1.805 -1.761 -1.778 -1.747 -1.814 -1.841 -1.808 -1.824 -1.836 -1.859 -1.974 -1.88 -1.867 -1.882 -1.951 -1.936 -1.91 -1.841 -1.915 -1.926 -1.814 -1.939 -2.054 -1.912 -1.967 -1.894 -1.975 -1.921 -2.126 -1.99 -1.986 -2.002 -2.035 -2.021 -2.132 -2.107 -2.003 -2.094 -2.083 -2.043 -2.052 -9999 -9999 -2.162 -2.281 -2.288 -2.292 -9999 -2.327 -9999 -2.207 -2.28 -2.191 -2.096 -9999 -9999 -2.18 -2.17 -2.118 -2.131 -2.153 -2.122 -2.068 -2.014 -2.14 -2.104 -2.324 -2.073 -2.083 -2.092 -2.18 -2.11 -2.095 -2.092 -2.138 -2.126 -2.177 -2.076 -2.082 -2.096 -2.108 -2.083 -2.114 -2.102 -2.12 -2.137 -2.045 -2.08 -2.056 -1.996 -2.065 -2.077 -2.068 -1.992 -2.094 -2.068 -2.047 -2.115 -2.034 -2.033 -2.065 -2.094 -2.107 -2.043 -2.068 -2.027 -2.031 -2.104 -2.063 -2.056 -2.099 -2.149 -2.006 -2.053 -2.033 -2.106 -2.076 -2.104 -2.055 -2.135 -2.084 -2.063 -2.061 -2.1 -2.033 -2.166 -2.083 -2.071 -2.093 -2.047 -2.069 -2.065 -1.976 -2.089 -2.084 -2.047 -2.033 -2.127 -2.068 -2.02 -2.045 -2.067 -2.056 -2.083 -1.998 -2.085 -2.082 -2.116 -2.123 -2.013 -2.234 -2.055 -2.039 -2.013 -2.06 -2.027 -2.067 -2.063 -2.121 -2.14 -2.105 -2.078 -2.089 -2.006 -2.105 -2.136 -2.048 -2.115 -2.105 -2.154 -2.012 -2.09 -2.085 -2.045 -2.046 -2.022 -2.085 -2.111 -2.073 -2.101 -2.057 -2.091 -2.054 -2.184 -2.185 -2.029 -2.071 -2.061 -2.237 -2.137 -2.041 -2.153 -2.051 -2.1 -2.082 -2.129 -2.176 -2.049 -9999 -2.026 -2.049 -2.145 -2.019
-0.864 -0.814 -0.793 -0.761 -0.754 -0.769 -0.746 -0.74 -0.785 -0.747 -0.687 -0.67 -0.773 -0.658 -0.695 -0.661 -0.75 -0.724 -0.723 -0.649 -0.602 -0.667 -0.545 -0.598 -0.618 -0.654 -0.649 -0.626 -0.588 -0.599 -0.614 -0.547 -0.62 -0.577 -0.534 -0.576 -0.596 -0.612 -0.5 -0.564 -0.578 -0.571 -0.544 -0.594 -0.564 -0.533 -0.52 -0.597 -0.532 -0.586 -0.592 -0.605 -0.602 -0.614 -0.582 -0.635 -0.588 -0.573 -0.557 -0.585 -0.621 -0.598 -0.633 -0.546 -0.59 -0.617 -0.62 -0.62 -0.651 -0.636 -0.64 -0.583 -0.566 -0.617 -0.647 -0.661 -0.679 -0.663 -0.636 -0.634 -0.655 -0.675 -0.659 -0.71 -0.692 -0.694 -0.72 -0.724 -0.809 -0.816 -0.811 -0.813 -0.832 -0.833 -0.852 -0.877 -0.889 -0.897 -0.949 -0.909 -0.88 -0.87 -0.857 -0.872 -0.886 -0.868 -0.901 -0.876 -0.928 -0.963 -0.954 -0.998 -0.952 -0.956 -0.956 -0.953 -0.916 -0.872 -0.937 -0.892 -0.912 -0.937 -0.975 -1.013 -1.002 -1.084 -1.076 -1.125 -1.132 -1.119 -1.18 -1.174 -1.122 -1.097 -1.074 -1.101 -1.114 -1.116 -1.126 -1.121 -1.12 -1.144 -1.164 -1.171 -1.177 -1.149 -1.117 -1.108 -1.112 -1.135 -1.082 -1.148 -1.204 -1.164 -1.227 -1.235 -1.222 -1.214 -1.212 -1.247 -1.272 -1.345 -1.375 -1.432 -1.512 -1.504 -1.509 -1.518 -1.46 -1.464 -1.467 -1.437 -1.486 -1.454 -1.471 -1.424 -1.408 -1.382 -1.413 -1.358 -1.346 -1.293 -1.296 -1.335 -1.362 -1.416 -1.39 -1.363 -1.397 -1.417 -1.463 -1.484 -1.47 -1.471 -1.51 -1.474 -1.495 -1.489 -1.467 -1.502 -1.572 -1.594 -1.581 -1.611 -1.616 -1.659 -1.675 -1.634 -1.662 -1.691 -1.628 -1.708 -1.807 -1.695 -1.72 -1.748 -1.729 -1.689 -1.668 -1.749 -1.702 -1.707 -1.717 -1.669 -1.752 -1.731 -1.742 -1.751 -1.756 -1.714 -1.767 -1.776 -1.758 -1.761 -1.735 -1.803 -1.747 -1.78 -1.819 -1.797 -1.774 -1.912 -1.847 -1.912 -1.874 -1.984 -1.924 -1.903 -1.825 -2.016 -1.893 -1.911 -1.919 -2.055 -2.094 -2.07 -2.026 -2.066 -1.961 -2.037 -2.036 -1.957 -2.031 -2.058 -2.037 -2.092 -2.094 -2.164 -2.065 -2.115 -2.017 -2.031 -2.146 -2.307 -2.27 -2.137 -2.209 -2.164 -2.17 -9999 -9999 -2.239 -2.152 -2.188 -2.083 -9999 -2.073 -2.173 -2.165 -2.148 -2.272 -2.05 -2.298 -2.11 -2.18 -2.091 -2.135 -2.098 -2.083 -2.14 -2.11 -2.09 -2.091 -2.225 -2.169 -2.092 -2.071 -2.122 -2.101 -2.094 -2.046 -2.135 -2.083 -2.083 -2.065 -2.091 -2.09 -2.038 -2.062 -2.119 -2.009 -2.092 -2.042 -2.11 -2.099 -2.053 -2.082 -2.018 -2.065 -2.063 -2.043 -2.065 -2.011 -2.078 -2.094 -2.075 -2.056 -2.082 -2.06 -2.024 -2.07 -2.054 -2.036 -2.041 -2.042 -2.03 -2.012 -2.113 -2.005 -2.07 -2.082 -2.042 -2.078 -2.074 -2.122 -2.053 -2.064 -2.036 -2.101 -2.017 -2.064 -2.117 -2.039 -2.018 -2.026 -2.07 -2.082 -2.073 -2.116 -2.041 -2.044 -2.058 -2.112 -2.045 -2.055 -2.113 -2.046 -2.07 -2.073 -2.056 -2.082 -2.087 -2.086 -2.151 -2.032 -2.1 -2.056 -2.148 -2.082 -2.101 -2.164 -2.102 -2.076 -2.053 -2.078 -2.074 -2.055 -2.064 -2.069 -2.043 -2.016 -2.042 -2.073 -2.106 -2.083 -2.148 -2.101 -2.126 -2.062 -2.049 -2.123 -2.092 -2.13 -2.113 -2.057 -2.084 -2.179 -2.253 -2.045 -2.013 -2.134 -2.067 -2.044 -2.091 -2.133 -2.218 -9999 -2.088 -2.135 -2.083 -9999 -9999 -2.145 -2.021
-0.821 -0.795 -0.791 -0.728 -0.779 -0.774 -0.759 -0.762 -0.72 -0.718 -0.711 -0.731 -0.729 -0.777 -0.748 -0.724 -0.695 -0.652 -0.607 -0.635 -0.659 -0.658 -0.64 -0.673 -0.653 -0.591 -0.645 -0.604 -0.581 -0.567 -0.572 -0.571 -0.596 -0.534 -0.525 -0.553 -0.557 -0.536 -0.494 -0.538 -0.563 -0.551 -0.594 -0.581 -0.55 -0.55 -0.55 -0.572 -0.618 -0.553 -0.621 -0.582 -0.577 -0.584 -0.581 -0.628 -0.618 -0.59 -0.59 -0.599 -0.613 -0.591 -0.59 -0.61 -0.61 -0.63 -0.666 -0.634 -0.63 -0.641 -0.661 -0.646 -0.633 -0.599 -0.615 -0.655 -0.64 -0.638 -0.678 -0.659 -0.666 -0.662 -0.657 -0.677 -0.753 -0.728 -0.743 -0.785 -0.843 -0.815 -0.836 -0.834 -0.788 -0.854 -0.907 -0.879 -0.891 -0.878 -0.925 -0.891 -0.849 -0.835 -0.882 -0.912 -0.946 -0.879 -0.892 -0.932 -0.918 -0.951 -0.938 -0.924 -0.909 -0.943 -0.937 -0.974 -0.918 -0.894 -0.917 -0.914 -0.904 -0.934 -1.004 -1.022 -1.059 -1.087 -1.078 -1.096 -1.088 -1.123 -1.144 -1.126 -1.123 -1.126 -1.123 -1.097 -1.077 -1.091 -1.085 -1.109 -1.15 -1.178 -1.169 -1.13 -1.119 -1.127 -1.154 -1.099 -1.102 -1.131 -1.105 -1.268 -1.189 -1.185 -1.216 -1.218 -1.221 -1.195 -1.192 -1.193 -1.256 -1.326 -1.389 -1.41 -1.447 -1.438 -1.469 -1.421 -1.476 -1.469 -1.505 -1.435 -1.475 -1.471 -1.39 -1.422 -1.404 -1.36 -1.337 -1.345 -1.313 -1.337 -1.34 -1.296 -1.324 -1.322 -1.382 -1.343 -1.396 -1.424 -1.483 -1.518 -1.521 -1.492 -1.513 -1.506 -1.507 -1.509 -1.429 -1.519 -1.552 -1.579 -1.536 -1.577 -1.617 -1.65 -1.627 -1.662 -1.648 -1.689 -1.723 -1.673 -1.761 -1.691 -1.799 -1.797 -1.703 -1.73 -1.671 -1.767 -1.716 -1.673 -1.7 -1.68 -1.723 -1.725 -1.756 -1.765 -1.767 -1.763 -1.773 -1.842 -1.683 -1.798 -1.752 -1.752 -1.767 -1.768 -1.793 -1.832 -1.875 -1.929 -1.903 -1.877 -1.91 -1.945 -1.932 -1.87 -1.935 -1.932 -1.87 -1.872 -1.967 -1.898 -1.975 -1.983 -1.99 -2.116 -1.949 -1.954 -2.043 -1.994 -1.895 -2.029 -2.15 -2.016 -2.141 -2.074 -2.107 -2.123 -2.115 -2.062 -2.174 -2.205 -2.222 -2.182 -9999 -2.179 -9999 -9999 -2.243 -2.179 -2.113 -2.191 -2.144 -2.148 -2.149 -2.327 -2.21 -2.212 -2.197 -2.179 -2.161 -2.429 -2.118 -2.172 -2.12 -2.198 -2.191 -2.152 -2.096 -2.097 -2.029 -2.088 -2.074 -2.16 -2.048 -2.112 -2.097 -2.084 -2.073 -2.058 -2.021 -1.987 -2.024 -2.098 -2.154 -2.052 -2.146 -2.099 -1.995 -2.097 -2.077 -2.062 -2.099 -2.063 -2.089 -2.069 -2.06 -2.024 -2.018 -2.03 -2.099 -2.067 -2.043 -2.11 -2.062 -2.047 -2.023 -2.011 -2.148 -1.995 -1.992 -2.128 -2.022 -2.045 -2.159 -2.089 -2.045 -2.065 -2.071 -2.047 -2.091 -2.054 -2.13 -2.047 -2.032 -2.034 -2.125 -2.096 -2.043 -2.055 -2.065 -2.113 -2.164 -2.052 -2.097 -2.032 -2.026 -2.012 -2.073 -2.047 -2.148 -2.032 -2.044 -2.018 -2.045 -2.053 -2.033 -2.062 -2.007 -2.151 -2.053 -2.031 -2.04 -2.127 -2.041 -2.074 -2.037 -2.057 -2.026 -2.089 -2.095 -1.989 -2.074 -2.037 -2.002 -2.075 -2.093 -2.071 -2.07 -2.102 -2.012 -2.024 -2.052 -2.023 -2.092 -2.13 -2.082 -2.1 -2.051 -2.121 -2.017 -2.063 -2.044 -2.065 -2.089 -2.095 -2.103 -2.14 -2.077 -2.105 -2.167 -2.08 -2.121 -9999 -2.134 -2.062 -2.041 -1.978 -2.243 -2.105 -9999 -2.061
-0.755 -0.776 -0.77 -0.748 -0.751 -0.739 -0.733 -0.677 -0.692 -0.656 -0.681 -0.727 -0.734 -0.71 -0.703 -0.701 -0.612 -0.605 -0.575 -0.633 -0.671 -0.634 -0.615 -0.655 -0.628 -0.524 -0.597 -0.583 -0.544 -0.577 -0.593 -0.563 -0.524 -0.551 -0.525 -0.537 -0.538 -0.495 -0.577 -0.57 -0.564 -0.566 -0.534 -0.59 -0.513 -0.51 -0.542 -0.556 -0.575 -0.626 -0.607 -0.598 -0.555 -0.601 -0.58 -0.536 -0.564 -0.618 -0.591 -0.595 -0.624 -0.64 -0.63 -0.557 -0.629 -0.652 -0.665 -0.644 -0.683 -0.62 -0.647 -0.646 -0.689 -0.585 -0.655 -0.587 -0.613 -0.656 -0.663 -0.668 -0.662 -0.689 -0.716 -0.695 -0.695 -0.78 -0.768 -0.836 -0.804 -0.728 -0.721 -0.825 -0.807 -0.816 -0.875 -0.865 -0.882 -0.873 -0.905 -0.889 -0.849 -0.848 -0.912 -0.892 -0.914 -0.898 -0.928 -0.952 -0.927 -0.916 -0.938 -0.971 -0.884 -0.926 -0.902 -0.92 -0.941 -0.889 -0.928 -0.892 -0.902 -0.981 -0.981 -1.054 -1.082 -1.102 -1.057 -1.097 -1.1 -1.118 -1.114 -1.103 -1.109 -1.173 -1.145 -1.087 -1.081 -1.084 -1.108 -1.139 -1.131 -1.134 -1.2 -1.165 -1.113 -1.103 -1.132 -1.089 -1.109 -1.116 -1.144 -1.176 -1.177 -1.206 -1.202 -1.195 -1.196 -1.186 -1.195 -1.211 -1.282 -1.346 -1.342 -1.379 -1.418 -1.431 -1.407 -1.462 -1.425 -1.406 -1.477 -1.485 -1.447 -1.426 -1.393 -1.394 -1.421 -1.388 -1.331 -1.365 -1.346 -1.362 -1.361 -1.304 -1.316 -1.353 -1.366 -1.333 -1.381 -1.452 -1.485 -1.503 -1.488 -1.493 -1.495 -1.561 -1.557 -1.487 -1.472 -1.514 -1.509 -1.549 -1.567 -1.551 -1.598 -1.608 -1.597 -1.605 -1.636 -1.7 -1.786 -1.714 -1.698 -1.64 -1.688 -1.696 -1.698 -1.717 -1.649 -1.665 -1.614 -1.659 -1.709 -1.739 -1.71 -1.71 -1.739 -1.789 -1.775 -1.802 -1.883 -1.86 -1.777 -1.768 -1.762 -1.732 -1.772 -1.856 -1.811 -1.78 -1.88 -1.881 -1.818 -1.87 -1.882 -1.936 -1.857 -1.885 -1.882 -1.854 -1.898 -1.913 -2.047 -1.87 -1.85 -1.948 -1.975 -1.933 -1.954 -2.066 -2.031 -1.926 -1.939 -1.927 -2.052 -2.043 -2.073 -2.143 -2.079 -2.269 -2.213 -2.199 -2.3 -2.217 -2.067 -2.038 -2.16 -2.299 -9999 -9999 -2.236 -2.228 -2.236 -2.278 -2.134 -2.088 -2.22 -2.206 -2.324 -2.093 -2.162 -2.099 -2.123 -2.113 -2.102 -2.105 -2.221 -2.125 -2.026 -2.199 -2.11 -2.143 -2.166 -2.018 -2.052 -2.062 -2.08 -2.144 -2.069 -2.078 -2.104 -2.11 -2.061 -2.115 -2.122 -2.169 -2.077 -2.041 -2.087 -2.064 -2.106 -2.071 -1.993 -2.063 -2.09 -2.085 -2.077 -2.02 -2.071 -2.068 -2.07 -2.051 -2.117 -2.04 -2.049 -2.105 -2.079 -2.023 -2.119 -2.078 -2.113 -2.093 -2.094 -2.064 -2.054 -2.099 -2.077 -1.998 -2.066 -2.035 -2.012 -2.114 -2.093 -2.041 -1.991 -2.012 -2.054 -1.986 -2.079 -2.041 -2.094 -1.979 -2.104 -2.08 -2.067 -2.024 -2.166 -2.024 -2.08 -2.038 -2.068 -2.075 -2.007 -2.03 -2.072 -2.111 -2.049 -2.084 -2.038 -2.065 -2.132 -2.094 -2.053 -2.102 -2.107 -2.01 -2.066 -1.981 -2.063 -2.142 -2.137 -2.047 -2.026 -2.08 -2.062 -2.167 -2.123 -2.047 -2.075 -2.058 -2.111 -2.05 -2.099 -2.124 -2.048 -2.126 -2.064 -2.063 -2.091 -2.188 -2.037 -2.107 -2.072 -2.096 -2.21 -2.043 -2.297 -2.216 -2.099 -2.044 -2.19 -2.141 -2.225 -9999 -2.101 -2.034 -2.092 -2.098 -2.069 -2.104 -2.112 -2.121 -2.121 -2.02
-0.777 -0.744 -0.714 -0.755 -0.767 -0.686 -0.692 -0.704 -0.688 -0.7 -0.583 -0.642 -0.694 -0.706 -0.648 -0.62 -0.668 -0.612 -0.586 -0.613 -0.589 -0.585 -0.642 -0.613 -0.617 -0.608 -0.555 -0.563 -0.574 -0.537 -0.512 -0.512 -0.527 -0.471 -0.515 -0.528 -0.572 -0.528 -0.52 -0.529 -0.543 -0.525 -0.529 -0.575 -0.542 -0.525 -0.593 -0.579 -0.574 -0.514 -0.621 -0.597 -0.569 -0.588 -0.623 -0.63 -0.576 -0.588 -0.605 -0.573 -0.602 -0.576 -0.602 -0.592 -0.667 -0.614 -0.659 -0.641 -0.602 -0.658 -0.652 -0.667 -0.694 -0.65 -0.654 -0.632 -0.592 -0.695 -0.663 -0.65 -0.613 -0.679 -0.703 -0.746 -0.728 -0.778 -0.784 -0.778 -0.763 -0.796 -0.757 -0.806 -0.808 -0.82 -0.826 -0.853 -0.836 -0.86 -0.915 -0.884 -0.868 -0.906 -0.925 -0.901 -0.947 -0.937 -0.936 -0.94 -0.919 -0.899 -0.978 -0.94 -0.969 -0.937 -0.942 -0.938 -0.921 -0.892 -0.892 -0.951 -0.924 -0.953 -0.982 -1.039 -1.072 -1.099 -1.096 -1.111 -1.087 -1.13 -1.126 -1.144 -1.148 -1.17 -1.106 -1.101 -1.081 -1.059 -1.112 -1.138 -1.118 -1.148 -1.169 -1.146 -1.062 -1.092 -1.102 -1.107 -1.117 -1.172 -1.19 -1.154 -1.188 -1.248 -1.2 -1.191 -1.176 -1.164 -1.217 -1.212 -1.306 -1.325 -1.346 -1.384 -1.413 -1.439 -1.375 -1.42 -1.447 -1.426 -1.418 -1.382 -1.446 -1.511 -1.455 -1.492 -1.406 -1.407 -1.345 -1.366 -1.36 -1.404 -1.412 -1.346 -1.369 -1.374 -1.335 -1.322 -1.412 -1.491 -1.473 -1.516 -1.518 -1.484 -1.52 -1.495 -1.475 -1.439 -1.502 -1.552 -1.552 -1.567 -1.523 -1.534 -1.613 -1.591 -1.598 -1.614 -1.638 -1.727 -1.72 -1.734 -1.732 -1.712 -1.673 -1.685 -1.707 -1.671 -1.653 -1.655 -1.679 -1.668 -1.708 -1.693 -1.742 -1.755 -1.785 -1.77 -1.803 -1.787 -1.879 -1.776 -1.766 -1.755 -1.729 -1.727 -1.775 -1.838 -1.81 -1.787 -1.846 -1.851 -1.768 -1.867 -1.842 -1.915 -1.875 -1.957 -1.86 -1.915 -1.978 -1.976 -1.947 -1.937 -1.953 -1.918 -1.976 -1.958 -1.977 -2.115 -1.99 -1.985 -1.962 -1.992 -1.964 -2.058 -1.997 -2.018 -2.084 -2.065 -2.096 -2.056 -2.076 -2.059 -2.065 -2.089 -2.053 -2.071 -2.179 -9999 -2.196 -2.024 -2.207 -9999 -2.197 -2.25 -9999 -2.215 -2.231 -2.145 -9999 -2.103 -2.117 -2.09 -2.259 -2.184 -2.04 -2.045 -2.217 -2.054 -2.097 -2.1 -2.004 -2.17 -2.212 -2.068 -2.19 -2.1 -2.189 -2.124 -2.182 -2.15 -2.058 -2.144 -2.074 -2.055 -2.072 -2.084 -2.061 -2.122 -2.097 -2.047 -2.033 -2.067 -2.066 -2.096 -2.098 -2.101 -2.035 -2.062 -2.065 -2.095 -2.115 -2.066 -2.132 -2.024 -2.052 -2.024 -2.112 -2.009 -2.02 -2.072 -2.105 -2.084 -2.085 -2.034 -2.103 -2.071 -2.075 -1.996 -2.028 -2.116 -2.02 -2.128 -2.04 -2.059 -2.067 -2 -2.067 -1.99 -2.077 -2.105 -2.085 -2.114 -2.027 -2.077 -2.078 -2.06 -2.004 -2.11 -2.129 -2.166 -2.074 -2.044 -1.989 -2.102 -2.03 -2.045 -2.078 -2.098 -2.055 -1.984 -2.039 -1.996 -2.155 -2.04 -2.02 -2.022 -2.081 -2.111 -2.102 -2.043 -2.016 -2.017 -2.055 -2.131 -1.995 -2.07 -2.082 -2.137 -2.016 -2.191 -2.082 -2.07 -2.057 -2.104 -2.087 -2.087 -2.077 -2.133 -2.206 -2.049 -2.079 -2.163 -2.139 -2.102 -2.091 -2.037 -2.131 -2.15 -2.073 -2.057 -2.078 -2.053 -2.185 -2.15 -2.146 -2.017 -2.067 -2.025 -2.029 -2.058 -2.026 -2.082
-0.751 -0.706 -0.654 -0.646 -0.707 -0.653 -0.669 -0.683 -0.689 -0.686 -0.663 -0.699 -0.675 -0.618 -0.678 -0.657 -0.636 -0.62 -0.569 -0.565 -0.644 -0.54 -0.615 -0.58 -0.604 -0.549 -0.541 -0.493 -0.532 -0.532 -0.479 -0.535 -0.507 -0.526 -0.459 -0.489 -0.535 -0.513 -0.521 -0.498 -0.556 -0.49 -0.565 -0.537 -0.558 -0.52 -0.535 -0.581 -0.596 -0.599 -0.57 -0.555 -0.568 -0.579 -0.596 -0.538 -0.565 -0.601 -0.586 -0.586 -0.616 -0.597 -0.639 -0.635 -0.621 -0.639 -0.578 -0.665 -0.664 -0.624 -0.668 -0.672 -0.697 -0.69 -0.56 -0.622 -0.663 -0.701 -0.675 -0.666 -0.694 -0.664 -0.65 -0.697 -0.757 -0.812 -0.771 -0.795 -0.775 -0.714 -0.761 -0.783 -0.792 -0.849 -0.849 -0.844 -0.868 -0.917 -0.923 -0.864 -0.901 -0.938 -0.899 -0.929 -0.98 -0.946 -0.917 -0.884 -0.924 -0.92 -0.949 -0.927 -0.957 -0.963 -0.975 -0.943 -0.919 -0.875 -0.906 -0.98 -0.966 -0.998 -1.024 -1.045 -1.025 -1.082 -1.128 -1.11 -1.12 -1.139 -1.168 -1.188 -1.164 -1.101 -1.126 -1.115 -1.096 -1.103 -1.117 -1.121 -1.13 -1.162 -1.157 -1.066 -1.055 -1.084 -1.124 -1.132 -1.117 -1.131 -1.175 -1.158 -1.193 -1.21 -1.165 -1.179 -1.206 -1.19 -1.185 -1.24 -1.254 -1.342 -1.34 -1.369 -1.387 -1.404 -1.364 -1.358 -1.446 -1.399 -1.432 -1.437 -1.435 -1.504 -1.504 -1.44 -1.424 -1.335 -1.354 -1.373 -1.361 -1.369 -1.416 -1.381 -1.37 -1.347 -1.369 -1.358 -1.424 -1.455 -1.525 -1.524 -1.517 -1.483 -1.479 -1.489 -1.498 -1.494 -1.537 -1.647 -1.594 -1.57 -1.54 -1.572 -1.591 -1.574 -1.604 -1.699 -1.657 -1.781 -1.778 -1.697 -1.695 -1.735 -1.693 -1.699 -1.764 -1.693 -1.662 -1.66 -1.665 -1.672 -1.672 -1.669 -1.755 -1.836 -1.759 -1.786 -1.772 -1.823 -1.808 -1.8 -1.783 -1.758 -1.742 -1.743 -1.722 -1.772 -1.728 -1.786 -1.838 -1.869 -1.826 -1.864 -1.798 -1.933 -2.014 -1.966 -1.955 -1.961 -1.919 -1.909 -1.893 -2.022 -1.932 -1.956 -1.976 -1.94 -2.06 -1.965 -1.984 -1.912 -1.922 -2.024 -2.115 -2.047 -2.06 -2.106 -2.057 -2.076 -2.019 -2.09 -2.202 -2.064 -1.953 -2.095 -2.139 -2.045 -2.169 -2.203 -2.13 -2.038 -2.14 -2.282 -2.249 -2.26 -2.174 -2.185 -2.075 -2.121 -2.263 -2.247 -2.181 -2.141 -2.098 -9999 -2.045 -2.054 -2.177 -2.083 -2.097 -2.161 -2.114 -2.038 -2.085 -2.127 -2.114 -2.182 -2.112 -2.075 -2.037 -2.163 -2.111 -2.069 -2.075 -2.082 -2.043 -2.067 -2.129 -2.082 -2.138 -2.08 -2.029 -2.097 -2.033 -2.017 -2.039 -2.043 -2.095 -2.043 -2.033 -2.049 -2.064 -2.055 -2.037 -2.079 -2.121 -2.085 -2.132 -2.058 -2.096 -2.097 -2.093 -2.084 -2.058 -2.063 -2.102 -2.096 -2.029 -2.013 -2.074 -2.059 -2.065 -1.998 -1.999 -2.037 -2.026 -2.09 -2.071 -2.053 -2.162 -2.093 -2.07 -2.074 -2.013 -2.032 -2.143 -2.061 -2.018 -2.008 -2.133 -1.997 -2.013 -2.066 -1.981 -2.127 -2.109 -2.04 -2.079 -2.105 -2.143 -1.998 -2.062 -2.018 -2.079 -2.046 -2.168 -2.095 -2.038 -2.08 -2.005 -2.148 -1.995 -2.072 -2.062 -2.058 -2.025 -2 -2.045 -2.096 -2.075 -2.093 -2.122 -2.144 -2.095 -2.02 -2.097 -2.04 -2.096 -2.102 -2.158 -2.138 -2.087 -2.154 -2.109 -2.128 -2.096 -2.077 -2.053 -2.112 -2.149 -2.085 -2.107 -2.099 -2.119 -2.144 -2.169 -2.12 -2.072 -2.103 -1.98 -2.166 -2.066 -2.133
-0.749 -0.689 -0.644 -0.729 -0.735 -0.696 -0.653 -0.671 -0.698 -0.628 -0.595 -0.657 -0.624 -0.623 -0.588 -0.617 -0.619 -0.573 -0.589 -0.594 -0.569 -0.585 -0.573 -0.569 -0.537 -0.48 -0.517 -0.499 -0.449 -0.44 -0.476 -0.504 -0.487 -0.511 -0.53 -0.494 -0.503 -0.529 -0.508 -0.457 -0.508 -0.474 -0.581 -0.545 -0.576 -0.59 -0.537 -0.534 -0.577 -0.571 -0.547 -0.576 -0.575 -0.566 -0.589 -0.587 -0.575 -0.593 -0.595 -0.594 -0.6 -0.597 -0.607 -0.636 -0.645 -0.639 -0.645 -0.657 -0.652 -0.656 -0.635 -0.707 -0.645 -0.617 -0.7 -0.664 -0.678 -0.719 -0.688 -0.622 -0.713 -0.766 -0.735 -0.76 -0.766 -0.737 -0.759 -0.759 -0.781 -0.752 -0.768 -0.771 -0.773 -0.832 -0.805 -0.842 -0.921 -0.878 -0.901 -0.876 -0.893 -0.937 -0.889 -0.926 -0.932 -0.915 -0.912 -0.891 -0.929 -0.964 -0.928 -0.928 -0.944 -0.962 -0.99 -0.973 -0.947 -0.923 -0.942 -0.967 -0.951 -0.981 -1.003 -1.031 -1.015 -1.032 -1.12 -1.112 -1.11 -1.128 -1.186 -1.175 -1.143 -1.087 -1.105 -1.106 -1.079 -1.07 -1.098 -1.128 -1.13 -1.137 -1.131 -1.077 -1.044 -1.099 -1.137 -1.142 -1.114 -1.151 -1.24 -1.13 -1.187 -1.196 -1.156 -1.177 -1.194 -1.18 -1.236 -1.243 -1.263 -1.319 -1.327 -1.306 -1.396 -1.363 -1.384 -1.303 -1.413 -1.414 -1.446 -1.396 -1.516 -1.461 -1.441 -1.416 -1.447 -1.338 -1.338 -1.377 -1.378 -1.395 -1.4 -1.392 -1.374 -1.384 -1.403 -1.405 -1.437 -1.499 -1.477 -1.477 -1.491 -1.464 -1.458 -1.498 -1.492 -1.504 -1.487 -1.479 -1.512 -1.501 -1.512 -1.56 -1.56 -1.573 -1.581 -1.659 -1.618 -1.644 -1.703 -1.667 -1.638 -1.692 -1.721 -1.706 -1.715 -1.731 -1.692 -1.685 -1.636 -1.704 -1.716 -1.728 -1.813 -1.801 -1.761 -1.753 -1.8 -1.718 -1.766 -1.741 -1.791 -1.799 -1.739 -1.73 -1.718 -1.725 -1.81 -1.802 -1.834 -1.896 -1.789 -1.876 -1.879 -1.964 -1.893 -2.02 -1.91 -1.962 -1.948 -1.899 -1.914 -1.965 -1.954 -2.027 -1.946 -1.904 -1.98 -1.988 -1.917 -1.973 -1.94 -1.987 -2.033 -1.981 -2.087 -2.022 -2.068 -1.991 -2.063 -2.085 -2.007 -1.991 -2.054 -2.088 -2.037 -2.151 -2.123 -2.102 -2.086 -2.112 -2.107 -2.172 -2.184 -2.24 -2.171 -2.19 -2.155 -2.089 -9999 -2.238 -2.12 -2.204 -2.174 -2.061 -2.078 -2.064 -2.081 -2.131 -2.167 -2.067 -2.065 -2.162 -2.111 -2.044 -2.124 -2.054 -2.155 -2.047 -2.108 -2.106 -2.039 -2.087 -2.054 -2.06 -2.108 -2.123 -2.109 -2.026 -2.124 -2.089 -2.083 -2.048 -2.114 -2.118 -2.087 -2.187 -2.006 -2.124 -2.168 -2.028 -2.115 -2.06 -2.143 -2.006 -2.111 -2.105 -2.012 -2.068 -2.093 -2.089 -2.132 -2.034 -2.053 -2.069 -2.125 -2.059 -2.149 -2.015 -2.061 -2.042 -2.049 -1.98 -2.074 -2.028 -2.069 -2.083 -2.096 -1.988 -2.083 -2.097 -2.09 -2.024 -2.06 -2.063 -2.066 -2.103 -2.017 -2.135 -2.013 -2.083 -2.005 -2.068 -2.08 -2.081 -2.028 -2.035 -2.081 -2.11 -2.082 -2.026 -2.049 -2.063 -2.177 -2.028 -2.13 -2.021 -2.021 -2.105 -2.035 -2.051 -2.041 -2.071 -2.036 -2.13 -2.093 -2.038 -2.036 -2.043 -2.059 -2.011 -2.128 -2.086 -2.117 -2.093 -1.994 -2.101 -2.05 -2.086 -2.096 -2.076 -2.09 -1.974 -2.128 -2.123 -2.078 -2.057 -2.22 -2.127 -2.088 -2.113 -2.089 -2.095 -2.145 -2.107 -2.248 -2.05 -2.071 -2.146 -2.163 -2.116 -2.071 -2.154
-0.707 -0.725 -0.7 -0.713 -0.701 -0.649 -0.655 -0.683 -0.688 -0.635 -0.645 -0.679 -0.628 -0.616 -0.594 -0.546 -0.554 -0.534 -0.532 -0.529 -0.536 -0.575 -0.558 -0.565 -0.538 -0.556 -0.488 -0.496 -0.487 -0.465 -0.48 -0.468 -0.488 -0.52 -0.514 -0.525 -0.499 -0.551 -0.489 -0.472 -0.538 -0.53 -0.536 -0.479 -0.502 -0.464 -0.526 -0.534 -0.568 -0.554 -0.556 -0.552 -0.501 -0.573 -0.596 -0.549 -0.555 -0.609 -0.616 -0.629 -0.594 -0.569 -0.628 -0.625 -0.66 -0.627 -0.659 -0.638 -0.664 -0.704 -0.709 -0.683 -0.694 -0.73 -0.775 -0.639 -0.712 -0.681 -0.696 -0.712 -0.736 -0.635 -0.696 -0.737 -0.657 -0.717 -0.672 -0.739 -0.733 -0.755 -0.789 -0.751 -0.769 -0.817 -0.816 -0.849 -0.874 -0.884 -0.854 -0.883 -0.912 -0.908 -0.925 -0.896 -0.838 -0.893 -0.914 -0.868 -0.903 -0.957 -0.92 -0.932 -0.964 -0.971 -0.974 -0.951 -0.921 -0.953 -0.979 -0.997 -0.962 -0.977 -1 -1.019 -1.017 -1.03 -1.089 -1.128 -1.115 -1.141 -1.174 -1.168 -1.089 -1.134 -1.136 -1.128 -1.103 -1.104 -1.112 -1.119 -1.093 -1.124 -1.083 -1.087 -1.059 -1.107 -1.164 -1.174 -1.134 -1.18 -1.214 -1.156 -1.154 -1.177 -1.174 -1.195 -1.162 -1.211 -1.232 -1.227 -1.27 -1.304 -1.326 -1.399 -1.361 -1.321 -1.383 -1.416 -1.389 -1.429 -1.452 -1.523 -1.417 -1.431 -1.442 -1.407 -1.372 -1.387 -1.387 -1.431 -1.401 -1.474 -1.443 -1.408 -1.408 -1.383 -1.376 -1.453 -1.454 -1.469 -1.474 -1.465 -1.49 -1.499 -1.46 -1.484 -1.449 -1.442 -1.472 -1.452 -1.477 -1.483 -1.502 -1.52 -1.535 -1.568 -1.659 -1.596 -1.636 -1.69 -1.63 -1.706 -1.659 -1.661 -1.716 -1.72 -1.677 -1.657 -1.733 -1.723 -1.686 -1.695 -1.692 -1.735 -1.777 -1.776 -1.758 -1.696 -1.753 -1.698 -1.741 -1.737 -1.77 -1.776 -1.764 -1.802 -1.785 -1.785 -1.83 -1.773 -1.84 -1.851 -1.778 -1.846 -1.899 -1.886 -1.895 -1.867 -1.886 -1.937 -1.911 -1.91 -1.946 -1.982 -1.988 -2.007 -1.962 -1.945 -1.989 -1.975 -1.939 -2.005 -2.016 -2.04 -2.052 -1.919 -2.053 -1.988 -2.164 -2.024 -2.126 -2.153 -2.066 -2.029 -2.003 -2.033 -1.985 -2.021 -2.078 -2.139 -2.09 -2.127 -2.137 -2.11 -2.207 -2.157 -2.327 -2.105 -9999 -2.128 -2.155 -2.124 -2.322 -9999 -2.052 -9999 -2.097 -2.103 -2.046 -2.032 -2.219 -2.17 -2.079 -9999 -2.135 -2.105 -2.061 -2.136 -2.076 -2.087 -2.085 -2.073 -2.081 -2.086 -2.072 -2.12 -2.149 -2.092 -2.135 -2.066 -2.058 -1.966 -2.114 -2.103 -2.032 -2.162 -2.033 -2.142 -2.093 -2.149 -2.041 -2.065 -2.062 -2.074 -2.114 -2.052 -2.08 -2.099 -1.99 -2.017 -2.013 -2.066 -2.089 -2.07 -2.053 -2.071 -2.034 -2.118 -2.064 -2.046 -2.089 -2.07 -2.096 -2.037 -2.038 -2.074 -2.033 -2.049 -2.15 -2.093 -1.996 -2.12 -2.027 -2.107 -2.078 -2.079 -2.028 -2.075 -2.091 -2.089 -2.088 -2.038 -2.009 -2.068 -2.098 -2.029 -2.133 -2.097 -2.053 -2.055 -2.018 -2.13 -2.061 -2.051 -2.008 -2.073 -2.103 -2.059 -2.083 -2.074 -2.047 -1.987 -2.031 -2.039 -2.045 -2.108 -1.972 -2.121 -2.124 -2.004 -2.124 -2.08 -2.103 -2.071 -2.158 -2.097 -2.126 -2.048 -2.084 -2.032 -2.13 -2.17 -2.126 -2.064 -2.113 -2.06 -2.058 -2.102 -2.089 -2.042 -2.17 -2.041 -2.172 -2.186 -2.054 -2.079 -2.059 -2.104 -2.08 -2.146 -2.024 -2.065 -2.082 -2.033
-0.694 -0.654 -0.685 -0.707 -0.64 -0.648 -0.61 -0.608 -0.634 -0.55 -0.616 -0.584 -0.604 -0.522 -0.567 -0.56 -0.557 -0.498 -0.493 -0.48 -0.559 -0.509 -0.532 -0.526 -0.475 -0.493 -0.459 -0.462 -0.44 -0.488 -0.497 -0.474 -0.464 -0.434 -0.546 -0.497 -0.508 -0.53 -0.52 -0.514 -0.562 -0.545 -0.57 -0.454 -0.549 -0.568 -0.536 -0.567 -0.564 -0.562 -0.534 -0.584 -0.572 -0.606 -0.581 -0.575 -0.607 -0.624 -0.604 -0.594 -0.562 -0.602 -0.613 -0.605 -0.667 -0.656 -0.65 -0.643 -0.689 -0.712 -0.715 -0.702 -0.685 -0.713 -0.723 -0.694 -0.682 -0.655 -0.697 -0.673 -0.707 -0.67 -0.751 -0.782 -0.749 -0.746 -0.723 -0.728 -0.736 -0.736 -0.775 -0.772 -0.74 -0.816 -0.775 -0.83 -0.829 -0.876 -0.882 -0.91 -0.905 -0.882 -0.895 -0.856 -0.859 -0.904 -0.935 -0.908 -0.91 -0.954 -0.993 -0.984 -1.01 -0.95 -0.938 -0.932 -0.948 -0.938 -0.969 -0.979 -0.966 -0.989 -0.996 -1.026 -1.006 -1.034 -1.107 -1.107 -1.069 -1.159 -1.158 -1.142 -1.11 -1.111 -1.111 -1.092 -1.094 -1.083 -1.109 -1.092 -1.108 -1.096 -1.096 -1.078 -1.092 -1.144 -1.147 -1.122 -1.099 -1.139 -1.217 -1.18 -1.131 -1.185 -1.142 -1.168 -1.153 -1.189 -1.207 -1.252 -1.27 -1.336 -1.333 -1.284 -1.353 -1.321 -1.401 -1.452 -1.4 -1.457 -1.409 -1.52 -1.509 -1.392 -1.402 -1.458 -1.409 -1.425 -1.42 -1.398 -1.466 -1.537 -1.472 -1.423 -1.425 -1.398 -1.402 -1.465 -1.473 -1.457 -1.447 -1.448 -1.475 -1.503 -1.482 -1.493 -1.497 -1.419 -1.489 -1.534 -1.471 -1.482 -1.489 -1.484 -1.517 -1.546 -1.625 -1.593 -1.618 -1.661 -1.678 -1.719 -1.663 -1.694 -1.674 -1.675 -1.613 -1.635 -1.71 -1.714 -1.72 -1.703 -1.713 -1.747 -1.741 -1.741 -1.776 -1.753 -1.733 -1.678 -1.704 -1.763 -1.83 -1.711 -1.8 -1.842 -1.792 -1.806 -1.818 -1.857 -1.86 -1.778 -1.721 -1.906 -1.902 -1.814 -1.893 -1.917 -1.956 -1.955 -1.961 -1.911 -1.992 -1.914 -1.947 -1.966 -1.937 -1.916 -1.988 -1.993 -1.908 -1.931 -2.02 -1.94 -2.061 -1.975 -2.025 -2.111 -2.361 -2.147 -2.076 -2.042 -2.09 -2.05 -1.961 -2.001 -2.039 -2.02 -2.009 -2.028 -2.077 -2.071 -2.271 -2.186 -9999 -9999 -9999 -9999 -9999 -9999 -2.189 -9999 -9999 -2.012 -9999 -2.087 -2.145 -2.105 -2.178 -2.116 -2.169 -2.123 -2.132 -2.113 -2.232 -2.156 -2.139 -2.045 -2.211 -2.086 -2.082 -2.21 -2.082 -2.067 -2.054 -2.035 -2.1 -2.079 -2.06 -2.059 -2.129 -2.137 -2.116 -2.107 -2.043 -2.078 -2.042 -2.013 -2.067 -2.035 -2.133 -2.056 -1.998 -2.033 -2.096 -2.055 -2.012 -2.128 -2.04 -2.086 -2.073 -2.11 -2.08 -2.137 -2.046 -2.115 -2.026 -2.053 -2.091 -2.055 -2.053 -2.12 -2.052 -2.032 -2.092 -2.055 -2.069 -2.07 -2.057 -2.035 -2.026 -2.06 -2.049 -2.037 -2.029 -2.121 -2.102 -2.014 -2.049 -2.05 -2.024 -2.068 -2.051 -1.989 -2.077 -2.066 -2.066 -2.126 -2.056 -2.016 -2.102 -2.042 -2.028 -2.114 -2.04 -2.101 -2.035 -2.068 -2.079 -2.062 -2.063 -2.02 -2.034 -2.088 -2.007 -2.075 -2.085 -2.114 -2.101 -2.061 -2.062 -2.128 -2.215 -2.083 -2.021 -2.1 -2.037 -2.055 -2.081 -2.063 -2.173 -2.121 -2.057 -2.044 -2.048 -2.042 -2.11 -2.1 -2.084 -2.09 -2.19 -2.09 -2.134 -1.982 -2.084 -2.047 -2.009 -2.048 -2.097 -2.111 -2.097 -2.116 -2.065 -2.077
-0.69 -0.69 -0.671 -0.678 -0.634 -0.664 -0.606 -0.631 -0.665 -0.634 -0.581 -0.632 -0.583 -0.533 -0.493 -0.548 -0.487 -0.503 -0.504 -0.462 -0.516 -0.505 -0.52 -0.505 -0.507 -0.469 -0.453 -0.458 -0.439 -0.478 -0.463 -0.452 -0.466 -0.505 -0.495 -0.468 -0.481 -0.497 -0.523 -0.521 -0.496 -0.522 -0.529 -0.51 -0.515 -0.536 -0.534 -0.557 -0.546 -0.578 -0.583 -0.565 -0.59 -0.562 -0.584 -0.572 -0.59 -0.569 -0.602 -0.594 -0.599 -0.653 -0.645 -0.655 -0.691 -0.64 -0.674 -0.69 -0.744 -0.723 -0.689 -0.731 -0.769 -0.731 -0.7 -0.742 -0.731 -0.721 -0.706 -0.743 -0.658 -0.749 -0.683 -0.71 -0.659 -0.715 -0.661 -0.698 -0.68 -0.674 -0.727 -0.761 -0.685 -0.778 -0.792 -0.836 -0.838 -0.843 -0.832 -0.905 -0.905 -0.908 -0.909 -0.847 -0.895 -0.893 -0.915 -0.871 -0.901 -0.971 -0.997 -0.998 -0.973 -0.983 -0.973 -0.97 -0.945 -0.942 -0.98 -0.978 -0.967 -0.985 -0.993 -1.072 -1.042 -1.034 -1.086 -1.116 -1.137 -1.145 -1.179 -1.163 -1.146 -1.093 -1.087 -1.09 -1.124 -1.12 -1.13 -1.126 -1.088 -1.095 -1.101 -1.129 -1.091 -1.112 -1.159 -1.144 -1.154 -1.18 -1.179 -1.106 -1.13 -1.157 -1.17 -1.176 -1.178 -1.17 -1.207 -1.242 -1.243 -1.306 -1.268 -1.315 -1.37 -1.398 -1.396 -1.416 -1.383 -1.421 -1.424 -1.49 -1.473 -1.509 -1.462 -1.461 -1.396 -1.426 -1.428 -1.433 -1.523 -1.598 -1.442 -1.454 -1.469 -1.433 -1.442 -1.419 -1.5 -1.485 -1.494 -1.464 -1.482 -1.509 -1.551 -1.545 -1.457 -1.437 -1.54 -1.509 -1.469 -1.483 -1.514 -1.507 -1.523 -1.523 -1.556 -1.587 -1.584 -1.594 -1.68 -1.685 -1.645 -1.664 -1.678 -1.665 -1.653 -1.674 -1.728 -1.681 -1.698 -1.695 -1.792 -1.745 -1.723 -1.696 -1.729 -1.72 -1.71 -1.755 -1.743 -1.812 -1.78 -1.792 -1.875 -1.816 -1.812 -1.741 -1.806 -1.807 -1.836 -1.829 -1.781 -1.846 -1.89 -1.854 -1.901 -1.906 -1.964 -2.062 -1.886 -1.953 -1.967 -1.89 -1.951 -1.881 -1.975 -1.962 -1.976 -1.993 -1.945 -1.93 -2.071 -1.933 -1.98 -2.043 -2.063 -2.17 -2.102 -2.063 -1.992 -2.07 -2.035 -2.008 -2.028 -1.987 -2.05 -2.082 -2.009 -2.069 -2.159 -2.021 -2.071 -9999 -9999 -9999 -2.262 -9999 -9999 -9999 -9999 -9999 -9999 -9999 -2.041 -1.999 -2.077 -2.011 -2.18 -2.153 -2.119 -2.038 -2.1 -2.074 -2.121 -2.071 -2.198 -2.134 -2.065 -2.174 -2.149 -2.143 -2.062 -2.077 -2.098 -2.046 -2.201 -2.056 -2.087 -2.054 -2.104 -2.133 -2.034 -2.116 -2.097 -2.082 -2.038 -2.061 -2.03 -2.112 -2.033 -2.09 -2.054 -2.123 -2.069 -2.062 -2.119 -2.059 -2.039 -2.07 -2.077 -2.058 -2.09 -2.077 -2.162 -2.036 -2.025 -2.044 -2.045 -2.083 -2.066 -2.055 -2.034 -2.085 -2.049 -2.045 -2.078 -2.114 -2.021 -2.048 -2.062 -2.065 -2.012 -2.143 -2.086 -2.055 -2.022 -2.111 -2.063 -2.084 -2.078 -2.096 -2.061 -2.059 -2.039 -2.028 -2.02 -2.116 -2.071 -2.023 -2.094 -2.066 -2.094 -2.127 -2.06 -2.047 -2.013 -2.052 -2.061 -2.066 -2.14 -2.125 -2.1 -2.09 -2.112 -2.07 -2.083 -2.071 -2.022 -2.046 -2.058 -2.034 -2.069 -2.075 -2.093 -2.038 -2.073 -2.124 -2.135 -2.034 -2.12 -2.153 -2.018 -2.104 -2.115 -2.075 -2.051 -2.111 -2.158 -2.13 -2.094 -2.089 -2.091 -2.031 -2.054 -2.142 -2.185 -2.14 -2.138 -2.124 -2.048 -2.054 -2.047 -2.077
-0.712 -0.654 -0.679 -0.644 -0.639 -0.657 -0.579 -0.559 -0.555 -0.562 -0.567 -0.583 -0.551 -0.533 -0.525 -0.534 -0.521 -0.519 -0.443 -0.48 -0.48 -0.491 -0.475 -0.475 -0.483 -0.441 -0.443 -0.453 -0.463 -0.469 -0.464 -0.466 -0.506 -0.488 -0.427 -0.516 -0.496 -0.48 -0.497 -0.506 -0.48 -0.508 -0.49 -0.485 -0.511 -0.493 -0.511 -0.53 -0.511 -0.576 -0.542 -0.519 -0.579 -0.522 -0.547 -0.571 -0.581 -0.565 -0.572 -0.574 -0.615 -0.69 -0.681 -0.673 -0.653 -0.663 -0.678 -0.703 -0.729 -0.745 -0.708 -0.638 -0.772 -0.75 -0.674 -0.711 -0.725 -0.726 -0.761 -0.689 -0.702 -0.72 -0.639 -0.717 -0.712 -0.771 -0.717 -0.64 -0.707 -0.706 -0.722 -0.71 -0.688 -0.764 -0.753 -0.774 -0.825 -0.819 -0.87 -0.917 -0.886 -0.899 -0.797 -0.857 -0.898 -0.861 -0.851 -0.842 -0.889 -0.961 -0.925 -0.963 -0.974 -0.943 -0.943 -0.939 -0.943 -0.979 -0.989 -0.993 -0.98 -0.959 -0.999 -1.019 -1.049 -1.071 -1.106 -1.179 -1.158 -1.127 -1.13 -1.154 -1.134 -1.095 -1.118 -1.082 -1.153 -1.148 -1.11 -1.124 -1.101 -1.121 -1.157 -1.102 -1.034 -1.152 -1.182 -1.137 -1.184 -1.171 -1.146 -1.124 -1.151 -1.152 -1.169 -1.17 -1.148 -1.192 -1.234 -1.231 -1.201 -1.226 -1.299 -1.327 -1.347 -1.373 -1.375 -1.385 -1.397 -1.404 -1.437 -1.498 -1.481 -1.451 -1.406 -1.434 -1.383 -1.43 -1.46 -1.486 -1.531 -1.606 -1.5 -1.468 -1.481 -1.509 -1.487 -1.472 -1.445 -1.452 -1.483 -1.465 -1.473 -1.524 -1.523 -1.52 -1.417 -1.423 -1.496 -1.452 -1.48 -1.484 -1.475 -1.496 -1.525 -1.537 -1.546 -1.586 -1.624 -1.585 -1.632 -1.659 -1.672 -1.659 -1.665 -1.67 -1.66 -1.723 -1.721 -1.7 -1.723 -1.664 -1.703 -1.662 -1.686 -1.715 -1.718 -1.721 -1.754 -1.745 -1.755 -1.811 -1.815 -1.796 -1.863 -1.769 -1.763 -1.738 -1.773 -1.77 -1.881 -1.777 -1.818 -1.811 -1.854 -1.843 -1.881 -1.944 -1.985 -1.95 -1.898 -1.87 -1.929 -1.853 -1.877 -2.074 -1.962 -1.921 -1.983 -1.959 -1.97 -1.92 -1.942 -1.999 -2.221 -2.088 -2.111 -2.105 -2.031 -1.952 -1.959 -2.06 -2.044 -2.038 -1.99 -1.996 -2.026 -1.991 -2.052 -2.051 -2.181 -2.033 -2.088 -9999 -2.267 -2.29 -9999 -9999 -9999 -9999 -9999 -9999 -2.153 -9999 -9999 -2.237 -2.209 -2.098 -2.078 -2.134 -2.085 -2.172 -2.148 -2.112 -2.085 -2.137 -2.055 -2.027 -2.038 -2.065 -2.087 -2.132 -2.128 -2.086 -2.078 -2.102 -2.141 -2.053 -2.022 -2.072 -2.081 -2.026 -2.054 -2.084 -2.095 -2.056 -2.031 -2.082 -2.042 -2.069 -2.143 -2.148 -2.004 -2.114 -2.035 -2.01 -2.07 -2.08 -2.008 -2.074 -2.161 -2.06 -2.07 -2.047 -2.077 -2.117 -2.077 -2.035 -2.052 -2.053 -2.1 -2.066 -2.054 -2.108 -2.031 -2.123 -2.133 -2.087 -2.053 -2.102 -2.028 -2.059 -2.098 -2.054 -2.014 -2.028 -1.997 -2.044 -2.067 -2.052 -2.004 -2.022 -2.07 -2.104 -2.046 -2.062 -2.026 -2.046 -2.03 -2.113 -2.061 -2.073 -2.044 -1.995 -2.068 -2.024 -2.1 -2.031 -2.055 -1.961 -2.054 -1.969 -2.038 -2.04 -2.066 -2.108 -2.147 -2.068 -2.122 -2.13 -2.04 -2.098 -2.021 -2.027 -2.072 -2.159 -2.03 -2.146 -2.078 -2.08 -2.083 -2.072 -2.08 -2.108 -2.174 -2.127 -2.108 -2.116 -2.114 -2.093 -2.124 -2.075 -2.056 -2.072 -2.114 -2.036 -2.088 -2.134 -2.148 -2.175 -2.023 -2.013 -2.219 -2.063
-0.674 -0.682 -0.661 -0.612 -0.601 -0.605 -0.572 -0.578 -0.577 -0.551 -0.565 -0.544 -0.592 -0.54 -0.49 -0.507 -0.48 -0.475 -0.452 -0.441 -0.471 -0.482 -0.462 -0.46 -0.433 -0.469 -0.434 -0.447 -0.431 -0.457 -0.463 -0.476 -0.376 -0.424 -0.437 -0.462 -0.493 -0.521 -0.475 -0.487 -0.468 -0.488 -0.511 -0.439 -0.51 -0.522 -0.526 -0.524 -0.546 -0.551 -0.563 -0.509 -0.554 -0.579 -0.569 -0.586 -0.561 -0.519 -0.553 -0.575 -0.617 -0.649 -0.66 -0.63 -0.658 -0.704 -0.681 -0.711 -0.69 -0.724 -0.688 -0.688 -0.747 -0.717 -0.701 -0.717 -0.74 -0.675 -0.724 -0.671 -0.715 -0.723 -0.71 -0.759 -0.737 -0.716 -0.719 -0.662 -0.702 -0.776 -0.685 -0.713 -0.653 -0.729 -0.745 -0.723 -0.789 -0.827 -0.854 -0.919 -0.854 -0.899 -0.865 -0.815 -0.829 -0.774 -0.819 -0.823 -0.901 -0.929 -0.952 -0.935 -0.967 -0.949 -0.969 -0.943 -0.942 -0.968 -1.002 -1.021 -0.981 -0.929 -0.97 -1.035 -1.018 -1.055 -1.086 -1.125 -1.196 -1.154 -1.078 -1.114 -1.063 -1.095 -1.123 -1.107 -1.135 -1.113 -1.118 -1.134 -1.147 -1.142 -1.169 -1.134 -1.146 -1.214 -1.179 -1.154 -1.147 -1.169 -1.172 -1.128 -1.148 -1.135 -1.15 -1.161 -1.208 -1.191 -1.226 -1.222 -1.22 -1.237 -1.316 -1.297 -1.309 -1.368 -1.331 -1.408 -1.389 -1.359 -1.364 -1.461 -1.455 -1.463 -1.425 -1.445 -1.475 -1.495 -1.502 -1.533 -1.544 -1.605 -1.544 -1.505 -1.518 -1.492 -1.495 -1.493 -1.481 -1.495 -1.489 -1.494 -1.507 -1.514 -1.512 -1.514 -1.432 -1.444 -1.464 -1.438 -1.501 -1.509 -1.513 -1.523 -1.529 -1.525 -1.538 -1.583 -1.571 -1.59 -1.655 -1.694 -1.694 -1.61 -1.664 -1.687 -1.676 -1.66 -1.688 -1.693 -1.684 -1.644 -1.611 -1.676 -1.73 -1.699 -1.756 -1.752 -1.787 -1.733 -1.82 -9999 -1.877 -1.765 -1.796 -1.762 -1.697 -1.714 -1.772 -1.817 -1.796 -1.841 -1.844 -1.847 -1.839 -1.867 -1.878 -1.823 -1.898 -1.898 -1.973 -1.889 -1.938 -1.801 -1.923 -1.965 -1.895 -1.908 -1.99 -1.966 -1.981 -1.919 -1.975 -1.952 -2.141 -1.944 -1.923 -2.019 -2.059 -2.007 -2.046 -2.003 -2.029 -1.952 -1.946 -1.953 -2.025 -2.005 -2.043 -2.05 -2.054 -2.119 -2.071 -2.153 -2.394 -2.223 -9999 -9999 -2.312 -2.206 -2.202 -2.182 -2.12 -2.16 -2.177 -2.117 -2.154 -2.175 -2.004 -2.047 -2.136 -2.063 -2.036 -2.095 -2.141 -2.172 -2.151 -2.176 -2.025 -2.123 -2.113 -2.171 -2.12 -2.089 -2.075 -2.002 -2.099 -2.075 -2.108 -2.118 -2.098 -2.034 -2.144 -2.055 -2.002 -2.083 -2.147 -2.027 -2.07 -2.045 -2.085 -2.072 -2.037 -2.024 -2.047 -2.041 -2.044 -2.061 -2.044 -2.071 -2.102 -2.16 -2.15 -2.092 -2.087 -2.09 -2.062 -2.06 -2.056 -1.993 -2.096 -2.087 -2.06 -2.075 -2.121 -2.09 -2.064 -2.07 -2.094 -2.074 -2.029 -2.062 -2.039 -2.027 -2.08 -2.026 -2.037 -2.046 -2.06 -2.083 -2.032 -2.054 -2.125 -2.097 -2.028 -2.038 -2.065 -2.048 -2.113 -2.052 -2.03 -2.064 -2.14 -2.012 -2.053 -2.135 -2.132 -2.056 -2.085 -2.162 -2.007 -2.072 -2.098 -2.065 -1.99 -2.115 -2.053 -2.063 -2.056 -2.159 -2.109 -2.096 -2.081 -2.05 -2.179 -2.012 -2.146 -2.003 -2.096 -2.037 -2.107 -2.08 -2.124 -2.13 -2.071 -2.013 -2.121 -2.06 -2.036 -2.063 -2.075 -2.145 -2.078 -2.026 -2.047 -2.058 -2.146 -2.08 -2.072 -2.052 -2.13 -2.141 -2.061 -2.143
-0.652 -0.679 -0.631 -0.578 -0.659 -0.567 -0.551 -0.554 -0.543 -0.589 -0.564 -0.562 -0.543 -0.497 -0.42 -0.413 -0.461 -0.475 -0.406 -0.422 -0.474 -0.433 -0.483 -0.479 -0.476 -0.446 -0.471 -0.372 -0.418 -0.453 -0.44 -0.403 -0.417 -0.448 -0.471 -0.435 -0.473 -0.516 -0.444 -0.437 -0.442 -0.468 -0.467 -0.473 -0.523 -0.541 -0.465 -0.544 -0.56 -0.569 -0.534 -0.55 -0.572 -0.542 -0.574 -0.559 -0.55 -0.594 -0.587 -0.576 -0.627 -0.594 -0.614 -0.635 -0.666 -0.675 -0.664 -0.669 -0.683 -0.715 -0.668 -0.684 -0.73 -0.726 -0.686 -0.714 -0.739 -0.751 -0.805 -0.65 -0.756 -0.68 -0.699 -0.69 -0.738 -0.745 -0.75 -0.725 -0.717 -0.768 -0.72 -0.762 -0.755 -0.753 -0.674 -0.746 -0.789 -0.861 -0.906 -0.878 -0.869 -0.886 -0.833 -0.817 -0.827 -0.767 -0.755 -0.827 -0.916 -0.845 -0.912 -0.906 -0.967 -0.956 -0.937 -0.978 -0.927 -0.964 -0.981 -1.003 -0.949 -0.949 -1.024 -1.022 -1.037 -1.042 -1.076 -1.093 -1.129 -1.13 -1.065 -1.097 -1.115 -1.087 -1.143 -1.106 -1.099 -1.129 -1.128 -1.148 -1.129 -1.111 -1.123 -1.129 -1.153 -1.214 -1.149 -1.177 -1.205 -1.132 -1.129 -1.154 -1.149 -1.16 -1.138 -1.184 -1.19 -1.232 -1.186 -1.236 -1.161 -1.229 -1.237 -1.301 -1.306 -1.36 -1.322 -1.357 -1.357 -1.364 -1.355 -1.465 -1.414 -1.369 -1.445 -1.448 -1.488 -1.506 -1.562 -1.573 -1.55 -1.551 -1.573 -1.562 -1.556 -1.52 -1.476 -1.468 -1.484 -1.515 -1.49 -1.502 -1.525 -1.536 -1.474 -1.444 -1.374 -1.395 -1.392 -1.442 -1.586 -1.561 -1.512 -1.507 -1.566 -1.546 -1.522 -1.526 -1.586 -1.598 -1.611 -1.673 -1.674 -1.646 -1.634 -1.647 -1.627 -1.687 -1.667 -1.709 -1.663 -1.69 -1.68 -1.742 -1.863 -1.805 -1.781 -1.821 -1.857 -1.781 -1.909 -1.883 -1.79 -1.755 -1.753 -1.714 -1.645 -1.703 -1.768 -1.84 -1.765 -1.816 -1.849 -1.848 -1.852 -1.895 -1.896 -1.823 -1.837 -1.958 -1.887 -1.827 -1.879 -1.853 -1.848 -1.895 -1.908 -1.829 -1.902 -1.924 -1.931 -1.905 -2.025 -1.926 -2.006 -2.076 -1.911 -1.974 -2.026 -1.959 -2.027 -2.06 -1.925 -1.968 -1.989 -2.037 -2.054 -2.055 -2.002 -2.055 -2.057 -2.098 -1.994 -2.082 -2.222 -2.14 -2.11 -2.175 -2.123 -2.16 -2.158 -2.098 -2.151 -9999 -9999 -2.052 -9999 -2.065 -2.125 -2.113 -2.062 -2.105 -2.069 -2.113 -2.128 -2.153 -2.148 -2.216 -2.1 -2.228 -2.076 -2.142 -2.119 -2.041 -2.011 -2.135 -2.057 -2.085 -2.053 -2.079 -2.067 -2.133 -2.104 -2.138 -2.239 -2.075 -2.112 -2.06 -2.04 -2.109 -2.055 -2.042 -2.108 -2.065 -2.153 -2.096 -2.07 -2.051 -2.021 -2.099 -2.213 -2.063 -2.078 -2.096 -2.055 -2.049 -2.039 -2.09 -2.071 -2.018 -2.107 -2.086 -2.101 -2.086 -2.049 -2.059 -2.076 -2.023 -2.068 -2.064 -2.128 -2.144 -2.021 -2.083 -2.037 -2.075 -2.019 -2.013 -2.036 -2.135 -2.044 -2.099 -2.09 -2.044 -2.058 -2.032 -2.069 -2.065 -2.049 -2.13 -2.062 -2.069 -2.059 -2.081 -2.094 -2.081 -2.047 -2.019 -2.067 -2.082 -2.127 -1.988 -1.994 -2.096 -2.12 -2.111 -2.05 -2.068 -2.055 -2.073 -2.035 -2.097 -2.117 -2.023 -2.025 -2.103 -2.048 -2.084 -2.122 -2.206 -2.085 -2.032 -2.063 -2.063 -2.078 -2.175 -2.049 -2.028 -2.197 -2.088 -2.135 -2.094 -2.149 -2.054 -2.052 -2.172 -2.138 -2.085 -2.062 -2.042 -2.053 -2.161 -1.984 -2.107
-0.639 -0.607 -0.589 -0.578 -0.491 -0.553 -0.528 -0.533 -0.561 -0.541 -0.558 -0.508 -0.5 -0.509 -0.469 -0.455 -0.413 -0.471 -0.5 -0.424 -0.437 -0.469 -0.377 -0.348 -0.466 -0.412 -0.455 -0.384 -0.411 -0.456 -0.454 -0.466 -0.422 -0.393 -0.432 -0.425 -0.444 -0.442 -0.476 -0.467 -0.468 -0.469 -0.476 -0.518 -0.512 -0.492 -0.503 -0.516 -0.548 -0.567 -0.578 -0.551 -0.594 -0.592 -0.594 -0.543 -0.552 -0.564 -0.559 -0.611 -0.599 -0.552 -0.621 -0.643 -0.644 -0.631 -0.657 -0.694 -0.703 -0.713 -0.713 -0.742 -0.726 -0.705 -0.688 -0.734 -0.724 -0.751 -0.647 -0.7 -0.736 -0.703 -0.754 -0.701 -0.728 -0.756 -0.757 -0.775 -0.747 -0.711 -0.769 -0.765 -0.736 -0.752 -0.737 -0.786 -0.766 -0.81 -0.916 -0.891 -0.86 -0.818 -0.803 -0.747 -0.783 -0.75 -0.767 -0.82 -0.882 -0.945 -0.899 -0.967 -0.917 -0.942 -0.91 -0.959 -0.949 -0.96 -0.93 -0.953 -0.942 -0.983 -1.032 -1.025 -1.058 -1.038 -1.089 -1.089 -1.091 -1.099 -1.085 -1.103 -1.077 -1.081 -1.135 -1.127 -1.12 -1.143 -1.126 -1.112 -1.111 -1.107 -1.091 -1.131 -1.145 -1.172 -1.166 -1.218 -1.244 -1.13 -1.114 -1.157 -1.143 -1.153 -1.195 -1.206 -1.205 -1.256 -1.24 -1.224 -1.18 -1.184 -1.216 -1.247 -1.299 -1.286 -1.3 -1.303 -1.359 -1.385 -1.385 -1.475 -1.414 -1.47 -1.505 -1.436 -1.476 -1.517 -1.567 -1.589 -1.552 -1.54 -1.545 -1.512 -1.543 -1.492 -1.51 -1.53 -1.472 -1.501 -1.518 -1.518 -1.523 -1.516 -1.498 -1.452 -1.414 -1.379 -1.395 -1.444 -1.554 -1.559 -1.534 -1.546 -1.51 -1.497 -1.497 -1.518 -1.581 -1.588 -1.619 -1.652 -1.647 -1.628 -1.645 -1.594 -1.621 -1.649 -1.693 -1.639 -1.625 -1.696 -1.71 -1.746 -1.767 -1.797 -1.809 -1.79 -1.937 -1.735 -1.683 -1.785 -1.741 -1.734 -1.725 -1.704 -1.677 -1.744 -1.85 -1.862 -1.843 -1.857 -1.758 -1.842 -1.849 -1.81 -1.792 -1.933 -1.773 -1.89 -1.845 -1.829 -1.904 -1.848 -1.9 -1.851 -1.811 -1.817 -1.837 -1.92 -1.902 -1.949 -1.97 -1.927 -1.948 -2.009 -1.914 -2.065 -2.039 -1.901 -1.862 -2.027 -2.012 -1.946 -2.007 -2.087 -1.959 -2.002 -2.027 -2.107 -2.019 -2.061 -2.062 -2.224 -2.384 -2.333 -2.249 -2.103 -2.106 -2.245 -2.044 -2.178 -9999 -2.12 -2.113 -9999 -9999 -9999 -2.093 -2.091 -2.203 -2.081 -2.184 -2.088 -2.153 -2.189 -2.104 -2.213 -2.189 -2.095 -2.191 -2.119 -2.144 -2.091 -2.119 -2.101 -2.124 -2.041 -2.01 -2.085 -2.116 -2.079 -2.074 -2.09 -2.115 -2.032 -2.095 -2.094 -2.091 -2.101 -2.039 -2.085 -2.106 -2.118 -2.074 -2.109 -2.085 -2.098 -2.127 -2.074 -2.064 -2.106 -2.101 -2.024 -2.064 -2.107 -2.048 -2.116 -2.127 -2.127 -2.06 -2.015 -2.102 -2.108 -2.1 -2.089 -2.071 -2.05 -1.969 -2.08 -2.054 -2.066 -2.14 -2.024 -2.086 -2.041 -2.051 -2.043 -2.069 -2.084 -2.018 -2.023 -2.037 -2.114 -2.104 -2.068 -2.09 -2.142 -2.036 -2.008 -2.03 -2.045 -2.075 -2.013 -2.024 -2.006 -1.968 -2.053 -2.039 -2.084 -2.088 -1.994 -2.03 -2.086 -2.096 -2.089 -2.039 -2.098 -2.077 -2.09 -2.092 -2.09 -2.15 -2.022 -2.071 -2.125 -2.081 -2.099 -2.08 -2.154 -2.093 -2.073 -2.067 -2.042 -2.038 -2.064 -2.081 -2.158 -2.076 -2.113 -2.048 -2.087 -2.012 -2.125 -2.007 -2.016 -2.11 -2.121 -2.112 -2.148 -2.054 -2.105 -2.028 -2.137
-0.631 -0.562 -0.614 -0.571 -0.579 -0.542 -0.538 -0.507 -0.536 -0.537 -0.555 -0.485 -0.472 -0.464 -0.478 -0.456 -0.42 -0.439 -0.403 -0.445 -0.45 -0.438 -0.417 -0.403 -0.396 -0.438 -0.439 -0.401 -0.431 -0.411 -0.427 -0.444 -0.383 -0.44 -0.446 -0.461 -0.459 -0.452 -0.447 -0.476 -0.443 -0.443 -0.471 -0.451 -0.499 -0.485 -0.509 -0.526 -0.532 -0.545 -0.527 -0.56 -0.561 -0.575 -0.56 -0.553 -0.577 -0.527 -0.593 -0.601 -0.588 -0.584 -0.637 -0.632 -0.666 -0.647 -0.635 -0.656 -0.712 -0.671 -0.724 -0.733 -0.689 -0.772 -0.673 -0.696 -0.689 -0.746 -0.724 -0.766 -0.673 -0.757 -0.691 -0.719 -0.747 -0.728 -0.749 -0.757 -0.765 -0.764 -0.749 -0.746 -0.695 -0.76 -0.737 -0.772 -0.809 -0.851 -0.843 -0.831 -0.837 -0.826 -0.777 -0.786 -0.732 -0.687 -0.739 -0.769 -0.857 -0.879 -0.922 -0.933 -0.939 -0.985 -0.969 -0.946 -0.936 -0.932 -0.936 -0.935 -0.898 -1.003 -1.018 -1.027 -1.058 -1.081 -1.061 -1.065 -1.08 -1.007 -1.075 -1.09 -1.097 -1.149 -1.137 -1.115 -1.114 -1.091 -1.107 -1.115 -1.115 -1.106 -1.123 -1.152 -1.158 -1.151 -1.151 -1.14 -1.153 -1.125 -1.1 -1.127 -1.152 -1.18 -1.192 -1.141 -1.228 -1.265 -1.217 -1.216 -1.186 -1.196 -1.218 -1.245 -1.319 -1.287 -1.309 -1.286 -1.375 -1.352 -1.364 -1.428 -1.422 -1.439 -1.454 -1.498 -1.542 -1.557 -1.546 -1.594 -1.574 -1.581 -1.56 -1.514 -1.504 -1.551 -1.517 -1.513 -1.529 -1.525 -1.52 -1.521 -1.528 -1.545 -1.493 -1.446 -1.43 -1.431 -1.453 -1.491 -1.525 -1.522 -1.512 -1.517 -1.464 -1.493 -1.512 -1.508 -1.548 -1.604 -1.622 -1.634 -1.609 -1.614 -1.61 -1.609 -1.656 -1.614 -1.671 -1.653 -1.667 -1.695 -1.756 -1.75 -1.767 -1.794 -1.838 -1.819 -1.804 -1.803 -1.685 -1.786 -1.789 -1.76 -1.658 -1.696 -1.697 -1.788 -1.802 -1.817 -1.82 -1.805 -1.819 -1.807 -1.843 -1.813 -1.833 -1.895 -1.966 -1.906 -1.853 -1.763 -1.82 -1.884 -1.887 -1.885 -1.783 -1.909 -1.917 -1.891 -1.995 -1.99 -1.975 -1.988 -1.97 -2.071 -1.959 -2.062 -1.957 -1.995 -1.877 -2.012 -2.022 -1.98 -1.99 -1.993 -1.961 -2.113 -2.063 -2.045 -2.093 -2.043 -2.061 -2.096 -2.179 -2.143 -2.239 -2.23 -2.251 -2.301 -2.074 -2.155 -9999 -9999 -2.216 -9999 -9999 -9999 -2.128 -2.059 -2.18 -2.099 -2.052 -2.102 -2.162 -2.178 -2.155 -2.133 -2.061 -2.08 -2.138 -2.083 -2.068 -2.16 -2.09 -2.122 -2.133 -2.121 -2.074 -2.095 -2.164 -2.107 -2.095 -2.116 -2.099 -2.071 -2.102 -2.059 -2.103 -2.065 -2.046 -2.095 -2.144 -2.06 -2.106 -2.116 -2.058 -2.086 -2.05 -2.012 -2.118 -2.045 -2.058 -2.06 -2.081 -2.037 -2.081 -2.045 -2.041 -2.105 -2.088 -2.146 -2.101 -2.018 -2.066 -2.026 -2.045 -2.187 -2.083 -2.039 -2.015 -2.03 -2.029 -2.058 -2.032 -2.169 -2.028 -2.002 -2.08 -2.026 -2.047 -2.055 -2.082 -2.059 -2.053 -2.026 -2.059 -2.042 -2.082 -2.136 -2.04 -2.141 -2.082 -2.087 -2.045 -2.024 -2.062 -2.087 -2.065 -2.093 -2.108 -2.089 -2.031 -2.022 -2.001 -2.118 -2.062 -1.982 -2.086 -2.141 -2.171 -1.997 -2.049 -2.01 -2.025 -2.025 -2.075 -2.057 -2.097 -2.098 -2.037 -2.095 -2.153 -2.159 -2.077 -2.145 -2.009 -2.083 -2.056 -2.053 -1.999 -2.1 -2.078 -2.028 -2.165 -2.083 -2.118 -2.047 -2.089 -2.02 -2.102 -2.087 -2.056 -2.058
-0.623 -0.588 -0.611 -0.511 -0.548 -0.541 -0.499 -0.516 -0.452 -0.505 -0.485 -0.463 -0.466 -0.464 -0.451 -0.43 -0.426 -0.459 -0.425 -0.426 -0.452 -0.421 -0.4 -0.421 -0.395 -0.386 -0.409 -0.463 -0.432 -0.458 -0.426 -0.407 -0.43 -0.415 -0.441 -0.444 -0.423 -0.459 -0.463 -0.465 -0.453 -0.48 -0.464 -0.443 -0.494 -0.498 -0.485 -0.474 -0.52 -0.521 -0.534 -0.535 -0.548 -0.555 -0.553 -0.543 -0.524 -0.521 -0.587 -0.583 -0.571 -0.555 -0.583 -0.607 -0.642 -0.6 -0.586 -0.652 -0.672 -0.678 -0.703 -0.684 -0.722 -0.706 -0.724 -0.699 -0.727 -0.703 -0.744 -0.686 -0.7 -0.709 -0.692 -0.683 -0.735 -0.708 -0.765 -0.702 -0.739 -0.785 -0.766 -0.703 -0.747 -0.762 -0.758 -0.801 -0.747 -0.857 -0.874 -0.881 -0.802 -0.819 -0.789 -0.809 -0.739 -0.733 -0.72 -0.749 -0.818 -0.894 -0.897 -0.9 -0.922 -0.972 -0.934 -0.897 -0.924 -0.895 -0.91 -0.942 -0.941 -0.987 -1.05 -1.016 -1.023 -1.039 -1.065 -1.061 -1.051 -1.05 -1.059 -1.081 -1.052 -1.14 -1.113 -1.117 -1.113 -1.096 -1.101 -1.126 -1.142 -1.143 -1.14 -1.165 -1.167 -1.167 -1.168 -1.163 -1.16 -1.121 -1.115 -1.126 -1.144 -1.2 -1.175 -1.195 -1.226 -1.215 -1.194 -1.174 -1.174 -1.163 -1.19 -1.288 -1.212 -1.246 -1.313 -1.3 -1.391 -1.358 -1.39 -1.391 -1.338 -1.426 -1.447 -1.41 -1.489 -1.573 -1.535 -1.557 -1.553 -1.562 -1.576 -1.56 -1.553 -1.566 -1.572 -1.505 -1.541 -1.537 -1.505 -1.525 -1.523 -1.525 -1.5 -1.474 -1.46 -1.461 -1.473 -1.496 -1.504 -1.537 -1.547 -1.504 -1.447 -1.484 -1.517 -1.525 -1.562 -1.578 -1.641 -1.625 -1.595 -1.62 -1.635 -1.672 -1.65 -1.585 -1.727 -1.697 -1.688 -1.741 -1.728 -1.772 -1.769 -1.752 -1.816 -1.902 -1.801 -1.835 -1.721 -1.728 -1.745 -1.76 -1.684 -1.701 -1.745 -1.792 -1.845 -1.803 -1.787 -1.8 -1.751 -1.793 -1.873 -1.817 -1.865 -1.87 -1.869 -1.999 -1.862 -1.781 -1.879 -1.845 -1.848 -1.868 -1.908 -1.883 -1.857 -1.934 -1.948 -1.959 -1.986 -1.967 -2.003 -1.918 -1.924 -2.018 -1.922 -1.938 -1.968 -2.122 -2.174 -2.024 -1.926 -2.038 -2.046 -2.09 -1.947 -2.039 -2.008 -2.074 -2.111 -9999 -9999 -2.099 -2.074 -2.312 -2.256 -2.197 -2.123 -2.078 -9999 -9999 -2.239 -9999 -2.167 -9999 -9999 -2.056 -2.042 -2.191 -2.089 -2.042 -2.125 -2.089 -2.146 -2.107 -2.085 -2.17 -2.037 -2.121 -2.103 -2.079 -2.157 -2.104 -2.105 -2.098 -2.058 -2.032 -2.101 -2.086 -2.014 -2.085 -2.084 -2.127 -2.097 -2.03 -2.072 -2.118 -2.054 -2.122 -2.064 -2.076 -2.077 -2.073 -2.098 -2.073 -2.073 -2.023 -2.131 -2.026 -2.069 -1.988 -2.098 -2.101 -2.16 -2.107 -2.097 -2.008 -2.028 -2.045 -2.016 -2.041 -2.12 -2 -2.018 -2.043 -2.086 -2.015 -2.049 -2.121 -2.113 -2.085 -2.056 -2.04 -2.076 -2.072 -2.042 -2.035 -2.076 -2.067 -2.114 -2.102 -2.066 -2.028 -2.031 -2.073 -2.028 -2.113 -2.06 -2.074 -2.027 -2.082 -2.043 -2.126 -2.055 -2.166 -2.018 -1.982 -2.062 -2.064 -2.096 -2.171 -2.042 -2.067 -2.071 -1.985 -2.07 -2.101 -2.159 -2.143 -2.064 -2.078 -2.06 -2.261 -2.05 -2.113 -2.116 -2.175 -2.009 -2.064 -2.028 -2.057 -2.05 -2.128 -2.045 -2.196 -2.09 -2.102 -2.01 -2.105 -2.073 -2.075 -2.148 -2.042 -2.06 -2.192 -2.046 -2.156 -2.054 -2.04 -2.175 -2.112
-0.563 -0.576 -0.578 -0.531 -0.558 -0.573 -0.526 -0.504 -0.522 -0.499 -0.46 -0.478 -0.482 -0.479 -0.432 -0.464 -0.417 -0.407 -0.399 -0.386 -0.379 -0.406 -0.39 -0.416 -0.425 -0.414 -0.428 -0.396 -0.383 -0.402 -0.414 -0.363 -0.432 -0.462 -0.424 -0.439 -0.431 -0.43 -0.436 -0.436 -0.469 -0.446 -0.437 -0.438 -0.445 -0.464 -0.481 -0.501 -0.502 -0.501 -0.501 -0.519 -0.512 -0.506 -0.53 -0.542 -0.563 -0.487 -0.597 -0.601 -0.574 -0.593 -0.59 -0.609 -0.612 -0.601 -0.618 -0.689 -0.679 -0.615 -0.694 -0.707 -0.689 -0.661 -0.691 -0.712 -0.737 -0.617 -0.653 -0.705 -0.674 -0.723 -0.655 -0.71 -0.708 -0.705 -0.738 -0.76 -0.753 -0.736 -0.693 -0.693 -0.769 -0.735 -0.774 -0.787 -0.791 -0.866 -0.856 -0.859 -0.843 -0.842 -0.804 -0.778 -0.731 -0.727 -0.73 -0.677 -0.784 -0.917 -0.872 -0.906 -0.938 -0.942 -0.952 -0.932 -0.899 -0.88 -0.868 -0.944 -0.947 -0.964 -0.993 -1.019 -0.98 -0.997 -1.061 -1.073 -1.109 -1.058 -1.059 -1.139 -1.14 -1.121 -1.068 -1.105 -1.115 -1.123 -1.083 -1.052 -1.153 -1.15 -1.133 -1.173 -1.182 -1.174 -1.134 -1.13 -1.146 -1.149 -1.159 -1.149 -1.14 -1.176 -1.185 -1.202 -1.201 -1.177 -1.147 -1.164 -1.176 -1.183 -1.126 -1.207 -1.12 -1.265 -1.295 -1.294 -1.379 -1.383 -1.346 -1.367 -1.396 -1.41 -1.434 -1.448 -1.535 -1.547 -1.557 -1.538 -1.511 -1.543 -1.546 -1.61 -1.546 -1.561 -1.549 -1.534 -1.541 -1.544 -1.471 -1.506 -1.501 -1.533 -1.486 -1.477 -1.447 -1.451 -1.46 -1.491 -1.554 -1.535 -1.526 -1.545 -1.472 -1.469 -1.487 -1.537 -1.592 -1.626 -1.592 -1.604 -1.584 -1.648 -1.59 -1.616 -1.588 -1.604 -1.659 -1.734 -1.68 -1.696 -1.734 -1.748 -1.824 -1.804 -1.823 -1.889 -1.832 -1.882 -1.736 -1.811 -1.74 -1.743 -1.728 -1.704 -1.748 -1.804 -1.814 -1.829 -1.776 -1.743 -1.804 -1.793 -1.884 -1.821 -1.884 -1.896 -1.969 -1.823 -1.811 -1.855 -1.812 -1.812 -1.79 -1.779 -1.797 -1.85 -1.857 -1.91 -1.867 -1.949 -1.926 -1.963 -1.918 -1.943 -1.921 -1.896 -2.029 -1.884 -1.931 -2.225 -1.954 -1.944 -1.922 -1.95 -2.142 -1.963 -1.912 -1.973 -2.004 -2.015 -2.064 -2.132 -2.196 -2.003 -2.069 -2.236 -2.3 -2.164 -2.038 -2.187 -9999 -9999 -2.107 -2.131 -2.133 -2.145 -9999 -2.093 -2.133 -9999 -2.167 -2.111 -2.103 -2.109 -2.067 -2.168 -2.035 -2.166 -2.103 -2.044 -2.11 -2.067 -2.106 -2.06 -2.044 -2.119 -2.047 -2.05 -2.127 -2.121 -2.04 -2.108 -2.112 -2.115 -2.048 -2.07 -2.072 -2.107 -2.057 -2.057 -2.04 -2.085 -2.103 -2.072 -2.107 -2.143 -2.068 -2.037 -2.12 -2.065 -1.993 -2.139 -2.009 -2.053 -2.096 -2.038 -1.985 -2.094 -2.019 -2.025 -2.047 -2.079 -2.035 -2.083 -2.101 -2.089 -2.056 -2.047 -2.011 -2.036 -2.065 -2.138 -2.058 -2.104 -2.005 -2.038 -2.034 -2.034 -2.098 -2.102 -2.055 -2.007 -2.055 -2.113 -2.036 -2.114 -1.995 -2.024 -2.049 -2.027 -2.107 -2.052 -2.07 -2.06 -2.061 -2.021 -2.046 -2.085 -2.059 -2.094 -2.066 -2.016 -2.03 -2.092 -2.055 -2.076 -2.067 -2.037 -2.013 -2.117 -2.07 -2.023 -2.079 -2.062 -2.062 -2.145 -2.089 -2.096 -2.005 -2.184 -2.088 -2.055 -2.115 -2.076 -2.036 -2.127 -2.071 -2.067 -2.022 -2.082 -2.039 -2.144 -2.007 -2.027 -2.122 -2.072 -2.105 -2.147 -2.183 -2.099 -2.083 -2.113
-0.608 -0.544 -0.559 -0.547 -0.555 -0.529 -0.509 -0.495 -0.538 -0.448 -0.481 -0.453 -0.432 -0.468 -0.436 -0.432 -0.413 -0.402 -0.44 -0.426 -0.381 -0.404 -0.406 -0.393 -0.428 -0.39 -0.408 -0.39 -0.387 -0.394 -0.384 -0.352 -0.376 -0.43 -0.442 -0.416 -0.405 -0.455 -0.443 -0.449 -0.468 -0.442 -0.417 -0.442 -0.419 -0.492 -0.438 -0.462 -0.458 -0.47 -0.48 -0.476 -0.493 -0.505 -0.525 -0.525 -0.532 -0.529 -0.575 -0.584 -0.578 -0.607 -0.59 -0.586 -0.632 -0.605 -0.601 -0.688 -0.688 -0.636 -0.669 -0.665 -0.68 -0.699 -0.687 -0.692 -0.689 -0.652 -0.646 -0.677 -0.65 -0.698 -0.697 -0.725 -0.711 -0.735 -0.726 -0.745 -0.751 -0.722 -0.712 -0.715 -0.756 -0.758 -0.827 -0.796 -0.776 -0.835 -0.804 -0.811 -0.784 -0.8 -0.777 -0.753 -0.728 -0.723 -0.707 -0.721 -0.753 -0.827 -0.882 -0.864 -0.914 -0.971 -0.929 -0.868 -0.916 -0.846 -0.873 -0.916 -0.939 -0.963 -0.989 -0.98 -0.956 -1.018 -1.047 -1.013 -1.018 -0.999 -1.057 -1.124 -1.093 -1.1 -1.041 -1.091 -1.097 -1.096 -1.091 -1.062 -1.106 -1.134 -1.145 -1.208 -1.188 -1.154 -1.12 -1.122 -1.134 -1.144 -1.144 -1.132 -1.142 -1.162 -1.128 -1.184 -1.188 -1.149 -1.138 -1.198 -1.177 -1.132 -1.149 -1.178 -1.198 -1.238 -1.289 -1.321 -1.325 -1.364 -1.322 -1.318 -1.399 -1.411 -1.434 -1.458 -1.494 -1.565 -1.565 -1.514 -1.538 -1.593 -1.575 -1.617 -1.584 -1.538 -1.516 -1.529 -1.528 -1.536 -1.519 -1.554 -1.551 -1.513 -1.473 -1.497 -1.479 -1.509 -1.504 -1.486 -1.478 -1.503 -1.498 -1.486 -1.48 -1.497 -1.523 -1.531 -1.582 -1.575 -1.576 -1.564 -1.563 -1.553 -1.603 -1.598 -1.588 -1.639 -1.656 -1.697 -1.697 -1.689 -1.689 -1.76 -1.782 -1.79 -1.824 -1.823 -1.795 -1.764 -1.81 -1.786 -1.783 -1.824 -1.797 -1.813 -1.814 -1.799 -1.744 -1.806 -1.799 -1.777 -1.836 -1.784 -1.849 -1.914 -1.96 -1.826 -1.815 -1.855 -1.819 -1.817 -1.81 -1.82 -1.82 -1.774 -1.87 -1.739 -1.901 -1.928 -1.913 -1.936 -1.896 -1.971 -1.955 -1.976 -1.928 -1.919 -1.979 -1.978 -1.966 -1.951 -1.954 -1.95 -1.96 -2.007 -2.062 -1.852 -1.958 -2.017 -2.005 -2.053 -1.986 -2.004 -2.086 -2.02 -2.079 -2.056 -2.146 -2.209 -2.071 -2.019 -2.247 -2.223 -9999 -9999 -2.16 -2.123 -2.089 -2.081 -2.172 -2.135 -2.241 -2.123 -2.158 -2.139 -2.202 -2.097 -2.115 -2.153 -2.158 -2.134 -2.112 -2.077 -2.084 -2.046 -2.059 -2.088 -2.188 -2.119 -2.134 -2.178 -2.164 -2.076 -2.108 -2.15 -2.078 -2.211 -2.072 -2.062 -2.093 -2.035 -2.046 -2.1 -2.093 -2.067 -2.074 -2.07 -2.093 -2.027 -2.095 -2.059 -2.078 -2.083 -2.126 -2.128 -2.129 -2.088 -2.091 -2.113 -2.026 -2.045 -2.05 -2.035 -2.056 -2.106 -2.062 -2.079 -2.058 -2.066 -2.066 -2.007 -2.066 -2.137 -2.079 -2.103 -2.052 -2.04 -2.053 -2.031 -2.079 -1.969 -2.132 -2.086 -2.071 -1.991 -2.088 -2.085 -2.095 -2.012 -2.056 -2.04 -2.062 -1.999 -2.014 -2.083 -2.022 -2.05 -2.045 -2.083 -2.081 -2.045 -2.013 -2.033 -2.047 -2.066 -2.102 -2.013 -2.109 -2.094 -2.11 -2.094 -2.127 -2.005 -1.985 -2.08 -2.033 -2.043 -2.035 -2.072 -2.113 -2.097 -2.161 -2.092 -2.028 -2.116 -2.092 -2.126 -2.043 -2.03 -2.102 -2.06 -2.05 -2.09 -2.103 -2.136 -2.087 -2.003 -2.028 -2.036 -2.164 -2.049 -2.034 -2.127
-0.551 -0.517 -0.569 -0.536 -0.501 -0.485 -0.49 -0.514 -0.499 -0.494 -0.47 -0.466 -0.438 -0.438 -0.437 -0.41 -0.413 -0.372 -0.395 -0.434 -0.417 -0.411 -0.421 -0.413 -0.392 -0.4 -0.411 -0.405 -0.371 -0.369 -0.405 -0.425 -0.336 -0.41 -0.457 -0.351 -0.403 -0.453 -0.464 -0.449 -0.457 -0.458 -0.438 -0.438 -0.424 -0.459 -0.432 -0.4 -0.368 -0.42 -0.452 -0.461 -0.469 -0.473 -0.505 -0.478 -0.496 -0.55 -0.568 -0.574 -0.599 -0.563 -0.568 -0.564 -0.589 -0.599 -0.626 -0.653 -0.654 -0.639 -0.642 -0.7 -0.697 -0.613 -0.655 -0.642 -0.681 -0.606 -0.738 -0.733 -0.683 -0.723 -0.723 -0.701 -0.719 -0.706 -0.694 -0.748 -0.753 -0.709 -0.735 -0.783 -0.721 -0.797 -0.778 -0.788 -0.814 -0.765 -0.806 -0.767 -0.785 -0.757 -0.806 -0.749 -0.726 -0.746 -0.719 -0.657 -0.663 -0.816 -0.848 -0.855 -0.948 -0.938 -0.936 -0.924 -0.917 -0.839 -0.872 -0.868 -0.947 -0.99 -0.934 -0.96 -0.96 -1.016 -1 -0.976 -1.007 -1.054 -0.984 -1.083 -1.076 -1.094 -1.037 -1.03 -1.12 -1.077 -1.102 -1.128 -1.127 -1.099 -1.143 -1.197 -1.099 -1.15 -1.137 -1.142 -1.122 -1.095 -1.123 -1.118 -1.124 -1.166 -1.172 -1.226 -1.264 -1.145 -1.149 -1.181 -1.162 -1.113 -1.105 -1.148 -1.146 -1.236 -1.269 -1.243 -1.305 -1.333 -1.336 -1.32 -1.38 -1.436 -1.48 -1.435 -1.433 -1.456 -1.514 -1.54 -1.503 -1.613 -1.58 -1.56 -1.537 -1.527 -1.475 -1.507 -1.542 -1.492 -1.502 -1.531 -1.567 -1.498 -1.487 -1.483 -1.585 -1.505 -1.486 -1.472 -1.485 -1.474 -1.442 -1.467 -1.477 -1.523 -1.561 -1.574 -1.594 -1.575 -1.555 -1.556 -1.55 -1.554 -1.59 -1.61 -1.598 -1.667 -1.708 -1.701 -1.674 -1.698 -1.74 -1.815 -1.768 -1.756 -1.78 -1.745 -1.797 -1.769 -1.742 -1.766 -1.763 -1.774 -1.812 -1.825 -1.769 -1.812 -1.733 -1.779 -1.771 -1.776 -1.865 -1.883 -1.888 -1.892 -1.947 -1.892 -1.857 -1.869 -1.775 -1.82 -1.817 -1.787 -1.885 -1.864 -1.873 -1.854 -1.877 -1.888 -1.904 -1.97 -1.896 -2.025 -1.961 -1.956 -1.96 -1.939 -1.985 -1.922 -1.945 -1.912 -1.978 -1.906 -1.974 -1.935 -2.03 -1.882 -1.911 -1.998 -2 -2.058 -2.056 -2.073 -2.067 -2.036 -2.085 -1.99 -2.076 -2.063 -1.976 -2.038 -2.141 -2.069 -9999 -2.307 -2.228 -2.274 -9999 -9999 -9999 -2.179 -2.069 -9999 -2.088 -2.103 -2.076 -2.143 -2.148 -2.1 -2.133 -2.089 -2.125 -2.202 -2.109 -2.073 -2.095 -2.122 -2.067 -2.034 -2.028 -2.107 -2.064 -2.117 -2.029 -2.038 -2.032 -2.039 -2.147 -2.108 -2.181 -2.1 -2.146 -2.097 -2.101 -2.108 -2.1 -2.007 -2.064 -2.1 -2.133 -2.028 -2.108 -2.087 -2.105 -2.122 -2.077 -2.094 -2.153 -2.064 -2.1 -2.065 -2.102 -2.023 -2.097 -2.093 -2.042 -2.11 -2.069 -2.115 -2.102 -2.059 -2.062 -2.017 -2.11 -2.04 -2.026 -2.027 -2.043 -2.111 -1.988 -2.037 -2.095 -2.058 -2.111 -2.062 -2.097 -2.065 -2.067 -1.988 -2.106 -2.065 -2.026 -2.018 -2.007 -2.087 -2.079 -2.053 -2.068 -2.156 -2.035 -2.08 -2.066 -2.024 -2.153 -2.011 -2.069 -2.064 -2.023 -2.007 -2.075 -2.057 -2.085 -2.059 -2.125 -2.096 -2.141 -2.144 -2.091 -2.082 -2.094 -2.063 -2.129 -2.079 -2.049 -2.062 -2.089 -2.017 -2.053 -2.086 -2.12 -2.062 -2.128 -2.035 -2.082 -2.12 -2.06 -2.079 -2.067 -2.022 -2.101 -2.057 -2.116 -2.032
-0.566 -0.575 -0.527 -0.487 -0.505 -0.471 -0.478 -0.454 -0.46 -0.434 -0.46 -0.491 -0.443 -0.443 -0.44 -0.448 -0.419 -0.412 -0.371 -0.389 -0.421 -0.389 -0.384 -0.389 -0.414 -0.403 -0.373 -0.412 -0.347 -0.437 -0.443 -0.404 -0.404 -0.405 -0.433 -0.371 -0.456 -0.502 -0.48 -0.491 -0.47 -0.415 -0.413 -0.447 -0.426 -0.428 -0.356 -0.354 -0.372 -0.404 -0.401 -0.428 -0.428 -0.49 -0.5 -0.536 -0.538 -0.554 -0.592 -0.56 -0.556 -0.565 -0.537 -0.554 -0.539 -0.581 -0.602 -0.626 -0.632 -0.634 -0.636 -0.67 -0.661 -0.632 -0.638 -0.674 -0.687 -0.677 -0.707 -0.744 -0.717 -0.685 -0.7 -0.706 -0.713 -0.728 -0.692 -0.725 -0.73 -0.74 -0.763 -0.783 -0.749 -0.682 -0.757 -0.773 -0.802 -0.775 -0.82 -0.783 -0.792 -0.743 -0.782 -0.769 -0.739 -0.729 -0.671 -0.663 -0.668 -0.769 -0.833 -0.842 -0.895 -0.947 -0.875 -0.894 -0.922 -0.842 -0.832 -0.861 -0.907 -0.94 -0.946 -0.954 -0.98 -0.95 -0.902 -0.97 -1.016 -1.008 -0.993 -1.051 -1.08 -1.08 -1.008 -1.08 -1.125 -1.093 -1.104 -1.122 -1.135 -1.103 -1.103 -1.144 -1.109 -1.134 -1.124 -1.125 -1.131 -1.143 -1.122 -1.154 -1.125 -1.142 -1.188 -1.177 -1.185 -1.127 -1.122 -1.127 -1.101 -1.066 -1.131 -1.162 -1.172 -1.205 -1.273 -1.296 -1.254 -1.323 -1.382 -1.311 -1.347 -1.468 -1.449 -1.426 -1.433 -1.461 -1.486 -1.437 -1.516 -1.562 -1.58 -1.555 -1.577 -1.521 -1.508 -1.552 -1.536 -1.562 -1.53 -1.593 -1.586 -1.533 -1.506 -1.535 -1.514 -1.477 -1.475 -1.481 -1.494 -1.435 -1.414 -1.492 -1.504 -1.535 -1.533 -1.561 -1.603 -1.551 -1.546 -1.526 -1.566 -1.577 -1.558 -1.6 -1.633 -1.63 -1.65 -1.692 -1.651 -1.841 -1.734 -1.753 -1.731 -1.761 -1.81 -1.725 -1.779 -1.819 -1.775 -1.755 -1.756 -1.726 -1.783 -1.782 -1.79 -1.769 -1.818 -1.711 -1.75 -1.827 -1.919 -1.951 -1.833 -1.856 -1.867 -1.901 -1.901 -1.833 -1.755 -1.741 -1.779 -1.798 -1.805 -1.911 -1.771 -1.829 -1.826 -1.872 -1.861 -1.988 -1.87 -1.939 -2.03 -2.057 -2.004 -1.996 -1.923 -1.931 -1.935 -1.956 -1.95 -2.065 -2.035 -1.911 -1.823 -1.904 -2.018 -1.967 -1.973 -2.042 -2.014 -2.061 -2.07 -2.115 -2.021 -2.009 -2.066 -2.041 -1.981 -2.081 -9999 -9999 -2.168 -2.226 -2.214 -2.051 -9999 -9999 -9999 -2.076 -2.077 -2.221 -2.209 -2.207 -2.202 -2.112 -2.207 -2.184 -2.068 -2.09 -2.116 -2.14 -2.127 -2.174 -2.146 -2.148 -2.066 -2.089 -2.051 -2.048 -2.125 -2.116 -2.102 -2.064 -2.095 -2.048 -2.164 -2.15 -2.105 -2.118 -2.171 -2.038 -2.154 -2.053 -2.047 -2.09 -2.038 -2.08 -2.219 -2.029 -2.067 -2.04 -2.135 -2.044 -2.08 -2.102 -2.067 -2.045 -2.121 -2.013 -2.047 -2.03 -2.017 -2.085 -2.12 -2.084 -1.999 -2.046 -2 -2.011 -2.058 -2.021 -2.103 -2.1 -2.055 -2.112 -2.065 -2.008 -2.054 -2.051 -2.029 -2.059 -2.068 -2.064 -2.099 -2.056 -2.078 -2.079 -2 -1.999 -2.096 -2.1 -1.936 -2.056 -2.073 -2.126 -2.019 -2.04 -2.104 -2.06 -2.091 -2.071 -2.05 -2.06 -2.086 -2.082 -2.09 -2.05 -2.045 -2.066 -2.117 -2.144 -2.062 -2.033 -2.093 -2.1 -2.051 -2.136 -2.038 -2.096 -1.994 -2.117 -2.073 -2.146 -2.11 -2.104 -2.039 -2.069 -1.987 -2.055 -2.095 -2.144 -2.109 -2.034 -2.129 -2.092 -1.988 -2.04 -2.054 -2.042 -2.025 -2.028
-0.551 -0.573 -0.542 -0.508 -0.441 -0.451 -0.471 -0.475 -0.499 -0.409 -0.458 -0.475 -0.431 -0.45 -0.433 -0.406 -0.403 -0.429 -0.393 -0.388 -0.409 -0.386 -0.395 -0.418 -0.38 -0.425 -0.422 -0.385 -0.363 -0.388 -0.427 -0.36 -0.42 -0.416 -0.478 -0.462 -0.476 -0.466 -0.473 -0.479 -0.413 -0.392 -0.437 -0.41 -0.396 -0.369 -0.32 -0.322 -0.343 -0.363 -0.4 -0.4 -0.442 -0.421 -0.46 -0.488 -0.538 -0.581 -0.629 -0.552 -0.549 -0.564 -0.515 -0.528 -0.541 -0.54 -0.577 -0.601 -0.627 -0.629 -0.581 -0.604 -0.622 -0.572 -0.629 -0.682 -0.698 -0.695 -0.714 -0.698 -0.643 -0.653 -0.693 -0.666 -0.68 -0.694 -0.664 -0.695 -0.694 -0.732 -0.705 -0.721 -0.715 -0.739 -0.769 -0.858 -0.812 -0.778 -0.781 -0.785 -0.799 -0.753 -0.729 -0.706 -0.682 -0.652 -0.657 -0.715 -0.716 -0.78 -0.794 -0.801 -0.87 -0.967 -0.895 -0.872 -0.846 -0.841 -0.837 -0.882 -0.901 -0.94 -0.966 -0.966 -0.967 -0.947 -0.924 -0.95 -0.966 -0.986 -0.995 -1.034 -1.059 -1.026 -1.071 -1.078 -1.053 -1.104 -1.108 -1.119 -1.164 -1.094 -1.109 -1.13 -1.152 -1.118 -1.116 -1.153 -1.157 -1.12 -1.178 -1.159 -1.149 -1.18 -1.199 -1.164 -1.191 -1.134 -1.114 -1.07 -1.091 -1.025 -1.043 -1.177 -1.184 -1.201 -1.27 -1.291 -1.205 -1.303 -1.368 -1.326 -1.32 -1.409 -1.355 -1.416 -1.459 -1.389 -1.467 -1.494 -1.454 -1.548 -1.565 -1.567 -1.631 -1.489 -1.569 -1.57 -1.563 -1.607 -1.531 -1.562 -1.554 -1.547 -1.53 -1.556 -1.545 -1.499 -1.48 -1.506 -1.466 -1.428 -1.45 -1.487 -1.499 -1.518 -1.553 -1.579 -1.554 -1.524 -1.566 -1.545 -1.606 -1.571 -1.612 -1.687 -1.685 -1.651 -1.679 -1.683 -1.702 -1.717 -1.782 -1.728 -1.694 -1.741 -1.793 -1.766 -1.78 -1.77 -1.774 -1.779 -1.77 -1.746 -1.769 -1.838 -1.785 -1.8 -1.84 -1.785 -1.799 -1.822 -1.884 -1.91 -1.84 -1.933 -1.846 -1.818 -1.858 -1.853 -1.805 -1.779 -1.785 -1.807 -1.852 -1.893 -1.811 -1.819 -1.806 -1.866 -1.842 -1.845 -1.887 -1.968 -1.94 -1.945 -1.874 -1.965 -2.044 -2.088 -1.952 -1.96 -1.941 -2.064 -1.946 -1.96 -1.87 -1.867 -2.089 -1.911 -1.954 -1.948 -2.01 -2.077 -2.076 -2.061 -2.008 -2.051 -2.098 -2.081 -2.032 -2.1 -2.23 -9999 -9999 -9999 -9999 -2.104 -9999 -9999 -9999 -2.134 -2.121 -9999 -9999 -2.109 -2.093 -2.095 -2.131 -2.116 -2.134 -2.118 -2.118 -2.092 -2.118 -2.049 -2.056 -2.195 -2.09 -2.138 -2.114 -2.085 -2.054 -2.068 -2 -2.105 -2.079 -2.114 -2.048 -2.076 -2.071 -2.138 -2.067 -2.02 -2.08 -2.131 -2.031 -2.027 -2.147 -2.02 -2.074 -2.095 -2.19 -2.085 -2.038 -2.108 -2.072 -2.072 -2.06 -2.124 -2.073 -2.047 -2.07 -2.029 -2.159 -2.071 -2.032 -2.059 -2.122 -2.094 -2.065 -2.089 -2.078 -2.006 -2.057 -2.108 -2.04 -2.022 -2.035 -2.077 -2.022 -2.087 -2.048 -2.055 -2.039 -1.976 -2.034 -2.1 -2.063 -2.038 -2.07 -2.09 -2.136 -2.105 -2.063 -2.009 -1.995 -2.056 -2.031 -2.075 -2.069 -2.117 -2.055 -1.953 -2.138 -2.065 -2.021 -2.05 -2.059 -2.058 -2.097 -2.091 -2.101 -2.02 -2.09 -2.107 -2.046 -2.071 -2.112 -2.114 -2.079 -2.051 -2.08 -2.047 -2.14 -2.126 -2.116 -2.052 -2.054 -2.065 -2.08 -2.03 -2.124 -2.083 -2.119 -2.02 -2.057 -2.035 -2.034 -2.192 -1.975 -2.072 -2.177 -2.048
-0.56 -0.57 -0.517 -0.472 -0.521 -0.463 -0.393 -0.449 -0.486 -0.424 -0.443 -0.459 -0.433 -0.457 -0.356 -0.425 -0.393 -0.382 -0.393 -0.439 -0.378 -0.373 -0.363 -0.421 -0.379 -0.384 -0.386 -0.411 -0.408 -0.422 -0.443 -0.445 -0.482 -0.487 -0.474 -0.43 -0.502 -0.503 -0.465 -0.471 -0.448 -0.432 -0.368 -0.402 -0.36 -0.342 -0.308 -0.332 -0.348 -0.328 -0.395 -0.403 -0.438 -0.45 -0.485 -0.498 -0.539 -0.532 -0.545 -0.516 -0.512 -0.521 -0.523 -0.516 -0.57 -0.578 -0.558 -0.589 -0.573 -0.587 -0.551 -0.619 -0.631 -0.631 -0.655 -0.664 -0.704 -0.717 -0.693 -0.675 -0.646 -0.653 -0.675 -0.636 -0.664 -0.672 -0.638 -0.685 -0.672 -0.684 -0.709 -0.733 -0.744 -0.741 -0.786 -0.908 -0.791 -0.767 -0.807 -0.707 -0.754 -0.723 -0.744 -0.701 -0.621 -0.69 -0.708 -0.707 -0.749 -0.837 -0.768 -0.917 -0.91 -0.876 -0.882 -0.873 -0.861 -0.81 -0.824 -0.86 -0.873 -0.923 -0.852 -0.972 -0.925 -0.942 -0.87 -0.947 -0.972 -0.934 -0.988 -1.008 -1.05 -1.071 -1.051 -1.06 -1.081 -1.032 -1.102 -1.134 -1.143 -1.093 -1.126 -1.141 -1.136 -1.128 -1.141 -1.117 -1.151 -1.127 -1.14 -1.133 -1.132 -1.179 -1.169 -1.167 -1.101 -1.079 -1.083 -1.072 -1.086 -1.025 -1.074 -1.204 -1.191 -1.188 -1.249 -1.262 -1.254 -1.285 -1.297 -1.318 -1.341 -1.375 -1.386 -1.428 -1.519 -1.441 -1.45 -1.495 -1.514 -1.595 -1.571 -1.548 -1.542 -1.494 -1.535 -1.549 -1.542 -1.728 -1.604 -1.563 -1.596 -1.58 -1.527 -1.567 -1.543 -1.487 -1.478 -1.505 -1.492 -1.464 -1.45 -1.504 -1.47 -1.497 -1.559 -1.545 -1.543 -1.557 -1.591 -1.577 -1.601 -1.584 -1.64 -1.695 -1.684 -1.703 -1.643 -1.758 -1.728 -1.684 -1.769 -1.767 -1.801 -1.698 -1.728 -1.754 -1.763 -1.801 -1.877 -1.917 -1.774 -1.761 -1.773 -1.791 -1.798 -1.814 -1.812 -1.752 -1.85 -1.799 -1.905 -1.957 -1.771 -1.9 -1.839 -1.814 -1.857 -1.786 -1.753 -1.747 -1.791 -1.823 -1.819 -1.866 -1.84 -1.825 -1.826 -1.844 -1.829 -1.885 -1.89 -1.859 -1.923 -1.919 -1.845 -1.96 -1.941 -1.92 -1.904 -1.919 -1.979 -1.9 -1.959 -1.943 -1.866 -1.858 -1.985 -2.005 -1.942 -1.997 -1.918 -1.97 -2.07 -2.019 -2.034 -2.064 -2.069 -2.049 -2.161 -2.091 -9999 -9999 -9999 -9999 -9999 -9999 -9999 -9999 -9999 -2.061 -2.101 -2.04 -2.194 -2.102 -2.194 -2.059 -2.078 -2.106 -2.108 -2 -2.118 -2.046 -2.073 -2.149 -2.07 -2.255 -2.138 -2.134 -2.056 -2.113 -2.151 -2.061 -2.164 -2.107 -2.111 -2.086 -2.253 -2.13 -2.151 -2.059 -2.247 -2.125 -2.185 -2.117 -2.067 -2.102 -2.083 -2.099 -2.113 -2.061 -2.047 -2.14 -2.079 -2.053 -2.06 -2.032 -2.091 -2.045 -2.06 -2.114 -2.07 -2.056 -2.06 -1.994 -2.083 -2.103 -2.056 -2.021 -2.099 -2.045 -2.041 -2.041 -2.088 -2.02 -2.104 -2.082 -1.998 -2.086 -2.059 -2.019 -1.994 -2.035 -2.083 -2.044 -2.037 -2.09 -2.085 -2.072 -2.08 -2.129 -2.015 -2.074 -2.033 -2.059 -2.026 -2.049 -2.03 -2.102 -2.053 -2.063 -2.039 -1.977 -2.049 -2.033 -1.993 -2.144 -2.079 -2.069 -2.026 -2.004 -2.019 -2.144 -2.067 -2.041 -2.092 -2.102 -2.065 -2.119 -2.095 -2.145 -2.205 -2.066 -2.118 -2.087 -2.039 -1.991 -2.026 -2.046 -2.11 -2.141 -2.076 -2.098 -2.08 -2.142 -1.999 -2.04 -2.072 -2.095 -2.119 -2.139 -2.064 -2.013
-0.526 -0.513 -0.531 -0.466 -0.49 -0.42 -0.457 -0.466 -0.473 -0.465 -0.396 -0.458 -0.488 -0.445 -0.457 -0.418 -0.392 -0.383 -0.393 -0.416 -0.395 -0.393 -0.394 -0.403 -0.427 -0.403 -0.372 -0.358 -0.388 -0.399 -0.471 -0.441 -0.55 -0.512 -0.482 -0.529 -0.519 -0.448 -0.491 -0.491 -0.465 -0.435 -0.401 -0.363 -0.36 -0.318 -0.281 -0.301 -0.321 -0.326 -0.354 -0.382 -0.417 -0.426 -0.426 -0.486 -0.519 -0.542 -0.528 -0.538 -0.525 -0.519 -0.485 -0.502 -0.565 -0.551 -0.539 -0.596 -0.59 -0.594 -0.614 -0.651 -0.701 -0.635 -0.687 -0.68 -0.712 -0.687 -0.643 -0.665 -0.663 -0.677 -0.668 -0.606 -0.649 -0.664 -0.629 -0.651 -0.66 -0.702 -0.702 -0.711 -0.706 -0.74 -0.784 -0.783 -0.762 -0.768 -0.764 -0.759 -0.751 -0.723 -0.669 -0.705 -0.692 -0.685 -0.716 -0.766 -0.767 -0.829 -0.835 -0.888 -0.875 -0.932 -0.868 -0.876 -0.885 -0.846 -0.821 -0.811 -0.855 -0.832 -0.951 -0.964 -0.938 -0.916 -0.896 -0.896 -0.945 -0.918 -0.99 -1 -1.018 -1.016 -1.09 -1.064 -1.072 -1.084 -1.117 -1.113 -1.129 -1.098 -1.135 -1.152 -1.14 -1.094 -1.107 -1.135 -1.156 -1.139 -1.117 -1.136 -1.128 -1.129 -1.207 -1.178 -1.093 -1.076 -1.028 -1.03 -1.044 -1.041 -1.067 -1.197 -1.189 -1.16 -1.187 -1.253 -1.287 -1.27 -1.294 -1.311 -1.309 -1.355 -1.403 -1.432 -1.582 -1.474 -1.469 -1.494 -1.528 -1.547 -1.473 -1.52 -1.547 -1.588 -1.508 -1.537 -1.556 -1.597 -1.553 -1.579 -1.579 -1.624 -1.555 -1.548 -1.527 -1.483 -1.485 -1.512 -1.484 -1.498 -1.516 -1.514 -1.521 -1.603 -1.564 -1.526 -1.531 -1.579 -1.609 -1.636 -1.621 -1.573 -1.704 -1.665 -1.674 -1.776 -1.766 -1.739 -1.784 -1.724 -1.729 -1.705 -1.77 -1.708 -1.735 -1.79 -1.787 -1.837 -1.913 -1.841 -1.716 -1.779 -1.794 -1.783 -1.768 -1.844 -1.894 -1.858 -1.81 -1.772 -1.907 -1.911 -1.816 -1.79 -1.767 -1.779 -1.803 -1.751 -1.772 -1.76 -1.759 -1.769 -1.826 -1.84 -1.886 -1.822 -1.83 -1.865 -1.838 -1.835 -1.869 -1.829 -1.887 -1.867 -1.872 -1.894 -1.896 -1.939 -1.865 -1.951 -1.918 -1.965 -1.886 -1.845 -1.869 -1.997 -1.997 -2.112 -1.985 -1.936 -1.898 -1.9 -2.076 -1.986 -1.96 -2.024 -2.076 -2.02 -2.122 -2.123 -9999 -9999 -2.309 -9999 -9999 -9999 -9999 -2.172 -9999 -2.129 -2.162 -9999 -9999 -2.118 -2.126 -2.056 -2.057 -2.13 -2.179 -2.286 -2.137 -2.176 -2.13 -2.116 -2.158 -2.084 -2.099 -2.18 -2.147 -2.147 -2.124 -2.07 -2.167 -2.08 -2.059 -2.159 -2.15 -2.089 -2.05 -2.074 -2.118 -2.096 -2.114 -2.032 -2.078 -2.12 -2.062 -2.205 -2.179 -2.079 -2.035 -2.083 -2.071 -2.09 -2.067 -2.092 -2.093 -2.079 -2.102 -2.051 -2.026 -1.985 -2.14 -2.087 -2.116 -2.074 -2.111 -2.083 -2.046 -2.124 -2.123 -2.04 -2.065 -2.048 -2.051 -2.037 -2.096 -2.081 -2.041 -2.078 -2.043 -2.027 -2.108 -2.099 -2.119 -2.03 -2.059 -2.021 -2.135 -2.115 -2.062 -2.012 -2.065 -2.057 -2.031 -2.021 -2.036 -2.02 -2.029 -2.034 -2.076 -1.985 -2.08 -2.027 -2.062 -2.052 -2.076 -2.037 -2.072 -2.061 -2.089 -2.068 -2.103 -2.069 -2.014 -2.06 -2.079 -2.151 -2.045 -2.116 -2.097 -2.145 -2.075 -2.06 -2.101 -1.963 -2.155 -2.06 -2.006 -2.147 -2.079 -2.111 -2.084 -2.045 -2.135 -2.157 -2.204 -2.061 -2.09 -2.11 -2.023 -2.085
-0.58 -0.516 -0.539 -0.509 -0.442 -0.473 -0.456 -0.451 -0.368 -0.483 -0.377 -0.471 -0.443 -0.454 -0.401 -0.399 -0.399 -0.403 -0.344 -0.383 -0.387 -0.381 -0.37 -0.406 -0.395 -0.391 -0.409 -0.396 -0.449 -0.418 -0.462 -0.499 -0.557 -0.557 -0.53 -0.54 -0.551 -0.47 -0.478 -0.464 -0.399 -0.419 -0.418 -0.376 -0.341 -0.302 -0.296 -0.317 -0.264 -0.336 -0.326 -0.378 -0.38 -0.429 -0.441 -0.448 -0.514 -0.547 -0.547 -0.55 -0.552 -0.543 -0.543 -0.553 -0.549 -0.53 -0.578 -0.602 -0.596 -0.588 -0.628 -0.692 -0.743 -0.702 -0.721 -0.665 -0.68 -0.677 -0.619 -0.645 -0.66 -0.647 -0.6 -0.606 -0.62 -0.628 -0.627 -0.624 -0.648 -0.655 -0.675 -0.688 -0.679 -0.72 -0.759 -0.716 -0.744 -0.763 -0.763 -0.759 -0.744 -0.709 -0.692 -0.696 -0.637 -0.742 -0.745 -0.779 -0.773 -0.826 -0.88 -0.887 -0.956 -0.872 -0.884 -0.867 -0.858 -0.831 -0.845 -0.847 -0.887 -0.923 -0.965 -0.921 -0.895 -0.865 -0.904 -0.894 -0.919 -0.964 -0.968 -1.014 -1.002 -1.048 -1.041 -1.057 -1.06 -1.04 -1.105 -1.137 -1.097 -1.12 -1.089 -1.138 -1.109 -1.125 -1.186 -1.105 -1.093 -1.121 -1.098 -1.143 -1.151 -1.094 -1.148 -1.135 -1.072 -1.064 -1.026 -1.013 -1.021 -1.006 -1.048 -1.142 -1.178 -1.127 -1.187 -1.255 -1.29 -1.307 -1.311 -1.268 -1.373 -1.458 -1.44 -1.39 -1.385 -1.402 -1.455 -1.467 -1.507 -1.477 -1.505 -1.467 -1.516 -1.54 -1.51 -1.528 -1.548 -1.624 -1.596 -1.66 -1.62 -1.623 -1.643 -1.504 -1.534 -1.516 -1.532 -1.498 -1.532 -1.518 -1.52 -1.553 -1.553 -1.554 -1.555 -1.539 -1.525 -1.556 -1.634 -1.598 -1.624 -1.624 -1.664 -1.639 -1.671 -1.647 -1.737 -1.717 -1.729 -1.747 -1.773 -1.694 -1.781 -1.8 -1.751 -1.801 -1.761 -1.9 -1.807 -1.76 -1.734 -1.759 -1.779 -1.775 -1.805 -1.888 -1.837 -1.801 -1.809 -1.826 -1.84 -1.841 -1.754 -1.826 -1.788 -1.774 -1.792 -1.744 -1.807 -1.748 -1.744 -1.786 -1.803 -1.759 -1.858 -1.769 -1.825 -1.831 -1.801 -1.845 -1.854 -1.857 -1.841 -1.894 -1.845 -1.915 -1.863 -1.896 -1.972 -1.976 -1.857 -1.918 -1.905 -1.826 -1.849 -1.961 -1.986 -1.967 -1.958 -1.976 -1.934 -1.984 -1.981 -1.983 -2.044 -2.132 -2.06 -2.056 -2.171 -2.214 -9999 -2.077 -2.14 -9999 -2.242 -2.181 -9999 -9999 -9999 -9999 -2.097 -9999 -9999 -2.005 -2.093 -2.161 -2.196 -2.065 -2.129 -2.144 -2.144 -2.081 -2.034 -2.173 -2.135 -2.148 -2.102 -2.044 -2.103 -2.14 -2.105 -2.248 -2.1 -2.117 -2.214 -2.131 -2.1 -2.171 -2.101 -2.157 -2.198 -2.101 -2.163 -2.085 -2.052 -2.108 -2.141 -2.087 -2.099 -2.127 -2.03 -2.014 -2.108 -2.094 -2.12 -2.109 -2.112 -2.07 -2.066 -2.023 -2.104 -2.06 -2.1 -2.129 -2.084 -2.081 -2.138 -2.106 -2.051 -2.018 -2.103 -2.015 -2.058 -2.089 -2.081 -2.043 -2.046 -2.032 -2.054 -2.108 -2.1 -2.069 -2.106 -2.04 -2.043 -2.093 -2.038 -2.087 -2.106 -2.023 -2.06 -1.991 -2.111 -2.017 -2.078 -2.134 -2.065 -2.03 -2.005 -2.053 -2.018 -2.053 -2.12 -2.187 -2.035 -2.04 -2.021 -2.063 -1.998 -2.146 -2.043 -2.045 -2.079 -2.096 -2.039 -2.126 -2.097 -2.052 -2.074 -2.045 -2.057 -2.067 -2.05 -2.112 -2.078 -2.109 -2.055 -2.057 -2.043 -2.003 -2.027 -2.111 -2.124 -2.044 -2.06 -2.088 -2.07 -2.145 -2.025 -2.067 -2.089 -2.059
-0.482 -0.513 -0.516 -0.433 -0.493 -0.517 -0.459 -0.398 -0.434 -0.434 -0.471 -0.462 -0.43 -0.415 -0.419 -0.395 -0.379 -0.385 -0.337 -0.392 -0.354 -0.416 -0.385 -0.415 -0.336 -0.422 -0.437 -0.451 -0.494 -0.436 -0.57 -0.568 -0.562 -0.603 -0.51 -0.564 -0.555 -0.498 -0.471 -0.48 -0.436 -0.432 -0.406 -0.383 -0.372 -0.349 -0.337 -0.344 -0.288 -0.352 -0.353 -0.377 -0.384 -0.421 -0.468 -0.473 -0.483 -0.515 -0.572 -0.557 -0.528 -0.562 -0.563 -0.55 -0.569 -0.565 -0.598 -0.627 -0.614 -0.618 -0.665 -0.694 -0.702 -0.736 -0.664 -0.67 -0.682 -0.66 -0.669 -0.655 -0.603 -0.61 -0.599 -0.58 -0.63 -0.627 -0.629 -0.617 -0.653 -0.641 -0.649 -0.681 -0.676 -0.682 -0.728 -0.701 -0.753 -0.769 -0.754 -0.759 -0.748 -0.722 -0.67 -0.751 -0.67 -0.738 -0.773 -0.806 -0.852 -0.867 -0.895 -0.87 -0.926 -0.88 -0.809 -0.893 -0.864 -0.801 -0.833 -0.847 -0.849 -0.89 -0.887 -0.874 -0.89 -0.909 -0.883 -0.868 -0.899 -0.92 -0.95 -0.971 -0.991 -1.095 -1.065 -1.056 -1.017 -1.061 -1.101 -1.103 -1.093 -1.122 -1.132 -1.163 -1.104 -1.117 -1.113 -1.116 -1.083 -1.081 -1.084 -1.152 -1.124 -1.129 -1.156 -1.123 -1.064 -1.018 -1.044 -1.017 -1.023 -1.031 -1.072 -1.121 -1.143 -1.177 -1.207 -1.209 -1.274 -1.311 -1.323 -1.29 -1.364 -1.414 -1.406 -1.416 -1.402 -1.413 -1.438 -1.456 -1.455 -1.441 -1.494 -1.447 -1.501 -1.555 -1.571 -1.606 -1.571 -1.613 -1.628 -1.671 -1.626 -1.61 -1.677 -1.534 -1.515 -1.551 -1.55 -1.549 -1.516 -1.581 -1.564 -1.576 -1.557 -1.548 -1.525 -1.527 -1.562 -1.563 -1.586 -1.609 -1.617 -1.624 -1.634 -1.699 -1.715 -1.718 -1.73 -1.682 -1.636 -1.726 -1.765 -1.682 -1.789 -1.734 -1.771 -1.803 -1.801 -1.825 -1.838 -1.789 -1.774 -1.796 -1.792 -1.763 -1.8 -1.867 -1.879 -1.845 -1.803 -1.802 -1.766 -1.748 -1.806 -1.85 -1.742 -1.719 -1.772 -1.707 -1.766 -1.744 -1.689 -1.749 -1.781 -1.805 -1.791 -1.744 -1.815 -1.84 -1.743 -1.809 -1.893 -1.861 -1.789 -1.863 -1.849 -1.927 -1.874 -1.833 -1.87 -1.906 -1.863 -1.877 -1.893 -1.876 -1.905 -1.939 -1.962 -1.956 -1.95 -1.966 -1.969 -1.941 -1.986 -2.003 -2.074 -2.325 -2.035 -2.095 -2.089 -9999 -9999 -2.217 -2.222 -9999 -2.153 -9999 -9999 -9999 -9999 -9999 -2.134 -9999 -2.084 -2.135 -2.134 -2.144 -2.003 -2.179 -2.172 -2.13 -2.167 -2.084 -2.148 -2.079 -2.176 -2.081 -2.128 -2.139 -2.1 -2.091 -2.122 -2.09 -2.105 -2.178 -2.089 -2.096 -2.041 -2.108 -2.059 -2.066 -2.026 -2.147 -2.13 -2.047 -2.058 -2.092 -2.07 -2.062 -2.111 -2.049 -2.085 -2.089 -2.036 -2.095 -2.05 -2.068 -2.105 -2.049 -2.092 -2.051 -2.085 -2.134 -2.09 -2.068 -2.097 -2.034 -2.045 -2.052 -2.012 -2.042 -2.141 -2.047 -2 -2.041 -2.015 -2.072 -2.002 -2.032 -2.029 -2.045 -2.109 -2.099 -2.052 -2.108 -2.057 -2.059 -2.117 -2.065 -2.051 -2.056 -2.058 -2.085 -2.033 -2.086 -2.067 -2.035 -2.061 -2.098 -2.033 -1.978 -2.048 -2.015 -2.093 -2.049 -2.098 -2.031 -2.043 -2.012 -2.027 -2.051 -2.07 -2.033 -2.001 -2.021 -2.102 -2.049 -2.099 -2.082 -1.991 -2.06 -2.066 -2.088 -2.068 -2.179 -2.026 -2.06 -2.12 -2.065 -2.042 -2.091 -2.13 -2.046 -2.166 -2.032 -2.11 -2.057 -2.152 -2.038 -2.049 -2.054 -2.032 -2.068
-0.556 -0.509 -0.517 -0.48 -0.471 -0.488 -0.496 -0.498 -0.374 -0.432 -0.395 -0.49 -0.352 -0.433 -0.391 -0.387 -0.384 -0.367 -0.339 -0.406 -0.353 -0.432 -0.379 -0.383 -0.399 -0.39 -0.53 -0.511 -0.487 -0.587 -0.598 -0.649 -0.589 -0.561 -0.558 -0.539 -0.549 -0.44 -0.507 -0.502 -0.457 -0.408 -0.406 -0.364 -0.352 -0.356 -0.359 -0.348 -0.344 -0.382 -0.358 -0.393 -0.4 -0.425 -0.503 -0.511 -0.502 -0.498 -0.592 -0.61 -0.607 -0.553 -0.557 -0.582 -0.563 -0.539 -0.614 -0.645 -0.6 -0.612 -0.738 -0.644 -0.646 -0.72 -0.724 -0.633 -0.664 -0.704 -0.67 -0.644 -0.634 -0.631 -0.636 -0.656 -0.629 -0.606 -0.576 -0.544 -0.614 -0.655 -0.664 -0.701 -0.677 -0.683 -0.737 -0.72 -0.764 -0.763 -0.688 -0.735 -0.718 -0.738 -0.733 -0.75 -0.663 -0.754 -0.76 -0.861 -0.854 -0.89 -0.87 -0.811 -0.941 -0.899 -0.895 -0.865 -0.824 -0.854 -0.828 -0.854 -0.845 -0.889 -0.919 -0.935 -0.944 -0.895 -0.901 -0.828 -0.875 -0.934 -0.948 -0.969 -1.007 -0.976 -0.998 -1.019 -1.044 -0.981 -1.068 -1.098 -1.098 -1.061 -1.177 -1.155 -1.1 -1.098 -1.1 -1.147 -1.11 -1.068 -1.069 -1.127 -1.131 -1.136 -1.131 -1.085 -1.069 -1.063 -1.015 -1.013 -1.033 -1.072 -1.083 -1.102 -1.096 -1.149 -1.18 -1.204 -1.25 -1.264 -1.311 -1.344 -1.354 -1.369 -1.418 -1.365 -1.368 -1.37 -1.404 -1.418 -1.489 -1.572 -1.409 -1.483 -1.511 -1.577 -1.505 -1.623 -1.595 -1.545 -1.645 -1.636 -1.579 -1.57 -1.594 -1.547 -1.489 -1.518 -1.561 -1.568 -1.543 -1.567 -1.579 -1.59 -1.592 -1.51 -1.504 -1.581 -1.58 -1.528 -1.571 -1.622 -1.655 -1.645 -1.609 -1.675 -1.715 -1.607 -1.617 -1.72 -1.696 -1.648 -1.728 -1.68 -1.698 -1.737 -1.747 -1.789 -1.766 -1.75 -1.748 -1.734 -1.826 -1.838 -1.782 -1.79 -1.838 -1.872 -1.841 -1.894 -1.934 -1.753 -1.856 -1.852 -1.908 -1.83 -1.694 -1.708 -1.727 -1.681 -1.718 -1.698 -1.742 -1.765 -1.783 -1.771 -1.779 -1.809 -1.783 -1.799 -1.759 -1.828 -1.892 -1.811 -1.755 -1.839 -1.818 -1.831 -1.928 -1.902 -1.843 -1.899 -1.877 -1.93 -2 -1.873 -1.935 -1.932 -1.963 -1.928 -1.956 -1.964 -1.879 -1.971 -2.001 -2.005 -2.127 -2.164 -1.977 -2.129 -2.076 -2.134 -2.215 -2.115 -2.216 -9999 -2.19 -2.182 -2.277 -2.133 -2.091 -9999 -2.132 -2.162 -2.199 -2.179 -2.162 -2.251 -2.111 -2.041 -2.063 -2.12 -2.043 -1.998 -2.148 -2.064 -2.093 -2.117 -2.118 -2.078 -2.043 -2.089 -2.194 -2.136 -2.146 -2.151 -2.162 -2.13 -2.065 -2.099 -2.249 -2.216 -2.097 -2.083 -2.081 -2.022 -2.159 -2.088 -2.107 -2.09 -2.06 -2.163 -2.114 -2.038 -2.067 -2.096 -2.133 -2.081 -2.088 -2.063 -2.197 -2.11 -2.088 -2.035 -2.117 -2.106 -2.078 -2.08 -2.06 -2.091 -2.052 -2.054 -2.069 -2.028 -2.085 -2.08 -2.047 -2.049 -2.074 -2.054 -2.118 -2.063 -2.051 -2.04 -2.051 -2.102 -2.028 -2.001 -2.038 -2.055 -2.08 -2.093 -2.101 -2.078 -2.011 -2.093 -2.139 -2.014 -2.067 -1.985 -2.076 -2.009 -2.095 -2.046 -2.025 -2.095 -2.051 -2.047 -2.037 -2.047 -2.111 -2.061 -2.025 -2.065 -2.008 -2.025 -2.075 -2.086 -2.064 -2.076 -2.102 -2.136 -2.034 -2.039 -2.022 -2.111 -2.088 -2.081 -2.041 -2.078 -2.136 -2.123 -2.064 -2.051 -2.088 -2.042 -2.051 -2.217 -2.126 -2.018 -2.076 -2.081 -2.076 -2.099
