ncols 439
nrows 31
xllcorner    460044
yllcorner    90918
cellsize     2
NODATA_value -9999
37.053 37.133 37.193 37.303 37.405 37.483 37.613 37.738 37.8 37.895 37.975 38.085 38.148 38.228 38.323 38.67 39.273 39.683 40.083 40.055 41.06 41.283 40.928 40.628 40.23 40.905 42.508 42.995 42.71 41.365 40.893 40.935 40.543 40.578 40.723 40.73 42.073 42.933 42.398 41.275 41.428 41.585 41.708 41.78 41.965 42.678 42.965 43.108 43.005 43.368 44.21 43.67 43.825 43.658 43.803 43.545 43.795 44.178 44.245 43.753 44.173 44.585 44.393 44.873 44.278 44.728 44.8 44.62 44.693 44.665 44.693 44.803 44.66 44.713 44.56 44.613 44.693 44.758 44.81 44.913 44.998 45.03 45.105 45.143 45.193 45.25 45.44 45.483 45.54 45.558 45.508 45.563 45.583 45.558 45.603 45.68 45.703 45.733 45.75 45.775 45.763 45.79 45.825 45.783 45.805 45.863 45.963 46.045 46.063 46.125 46.233 46.348 46.458 46.475 46.625 46.403 47.028 47.31 46.533 46.58 46.648 46.678 46.68 47.14 47.065 47.048 47.14 47.775 47.178 48.913 48.383 46.738 47.03 46.795 47.888 49.218 46.98 46.893 46.503 46.523 46.503 46.613 46.883 46.523 47.605 47.893 47.458 47.88 48.14 47.175 46.443 46.495 46.54 46.603 46.535 46.643 46.51 47.523 47.293 46.213 46.208 46.25 46.55 46.19 46.528 49.828 49.018 46.815 46.125 46.133 49.358 51.603 53.068 53.548 52.133 50.583 45.925 46.053 46.251 46.056 46.163 45.423 46.058 46.103 45.456 45.653 45.588 45.441 45.628 45.496 45.358 45.368 45.543 47.163 48.166 49.333 49.631 49.636 50.083 50.153 50.131 50.106 50.141 49.638 48.013 45.101 44.741 45.501 44.768 44.631 44.616 44.388 44.218 44.301 44.433 43.993 43.981 43.963 43.918 44.121 44.278 43.743 43.508 43.701 44.431 43.221 43.131 43.111 43.508 44.226 43.228 42.726 42.648 42.578 42.551 43.311 43.218 42.576 42.028 41.933 41.821 41.701 42.061 43.343 41.928 41.028 42.316 41.413 41.398 41.473 40.953 40.891 44.761 46.621 45.168 45.333 45.068 44.866 44.593 44.328 44.058 43.638 43.008 42.348 42.993 42.838 41.161 41.456 40.123 39.511 39.568 40.343 38.756 38.711 38.678 38.568 38.493 38.966 41.476 41.403 40.831 38.921 38.491 38.428 38.661 39.456 39.103 38.271 38.213 38.181 38.153 38.136 38.081 38.068 38.086 38.073 38.306 39.036 38.311 38.328 38.303 38.201 38.136 38.086 38.108 39.706 42.828 38.056 38.238 38.571 38.158 38.186 38.246 38.151 38.053 39.281 40.828 42.201 39.713 41.971 41.771 38.811 37.928 38.236 38.961 38.833 39.106 38.563 37.763 37.636 37.108 36.766 36.716 36.238 36.061 36.571 41.681 50.391 53.493 54.066 49.908 38.326 38.671 41.128 41.366 40.941 38.071 40.766 39.708 41.418 37.518 36.748 36.488 35.956 36.708 36.298 36.233 38.948 45.173 46.386 42.071 37.398 35.968 35.416 35.446 37.731 43.353 45.653 42.483 35.851 36.061 34.576 34.553 35.821 34.678 33.788 33.616 33.451 33.338 33.273 33.178 33.071 32.953 32.863 32.758 32.653 32.528 32.423 32.283 32.191 32.058 31.946 31.868 31.786 31.688 31.576 31.453 31.421 31.276 31.143 30.991 30.826 30.623 37.406 46.743 48.641 48.536 44.446 34.398 31.651 30.773 30.001 29.871 30.448 33.281 34.071 31.701 30.191 28.866 28.751 28.631 28.563 28.423 28.313 28.213 28.083 27.948 27.811 27.416 27.199 27.016 26.911 26.834 26.779 26.671 26.611 27.004 26.854 26.736
36.98 37.048 37.16 37.215 37.308 37.398 37.513 37.62 37.73 37.833 37.938 38.035 38.073 38.508 38.995 39.433 39.795 40.11 40.075 40.323 41.498 41.995 41.333 40.878 40.828 40.503 41.08 42.535 43.213 43.198 41.8 40.835 40.525 40.88 41.363 41.478 41.878 42.558 41.983 43.125 42.298 42.42 42.383 42.41 42.623 42.813 42.438 42.678 42.538 42.505 42.4 42.283 42.403 42.5 42.665 42.753 42.813 42.898 43.008 43.073 43.203 43.26 43.42 43.48 43.58 43.68 43.803 43.855 43.923 44.065 44.148 44.215 44.338 44.403 44.463 44.553 44.705 44.78 44.818 44.91 44.978 45.028 45.118 45.143 45.24 45.378 45.425 45.475 45.558 45.595 45.65 45.688 45.723 45.668 45.678 45.67 45.673 45.753 45.74 45.845 45.855 45.85 45.913 45.885 45.898 45.925 45.978 46.005 46.008 46.038 46.028 46.103 46.175 46.218 46.22 46.248 46.4 46.41 46.39 46.46 46.548 46.65 46.65 46.975 47.113 46.863 47.225 47.1 46.703 49.05 47.7 47.15 46.963 46.715 49.11 48.46 47.265 47.04 46.465 46.495 46.488 46.48 46.463 46.413 46.38 46.333 47.17 47.5 47.503 47.55 46.855 46.483 46.738 46.51 46.418 47.16 46.688 47.838 48.24 46.208 46.2 46.215 47.083 46.18 46.903 49.98 49.743 46.99 46.05 46.078 47.355 51.115 51.848 52.545 52.123 50.213 46.105 46.923 48.563 46.726 46.753 45.476 46.976 46.888 45.568 45.773 46.061 45.546 45.411 45.388 45.346 45.306 46.016 47.551 48.206 49.463 49.981 49.991 50.133 49.508 49.093 49.141 49.156 49.063 48.178 44.648 44.728 44.483 44.406 44.523 44.666 44.666 44.446 44.423 44.436 45.581 45.066 44.018 43.936 44.066 44.688 44.441 43.533 44.508 44.973 44.378 43.703 43.541 44.886 45.743 44.811 43.713 43.286 42.791 44.496 44.436 43.673 42.933 42.263 42.163 42.056 41.796 41.718 42.023 41.528 41.086 41.938 41.401 41.398 41.428 40.718 41.528 46.043 47.543 46.506 45.021 45.051 45.283 45.388 45.493 45.553 45.493 45.263 45.166 44.978 44.646 41.981 39.741 39.688 39.621 40.018 39.931 38.768 38.761 38.706 38.671 38.626 38.696 40.456 41.281 40.356 38.666 38.591 38.488 38.896 39.388 42.226 40.253 38.268 38.261 38.226 38.251 38.216 38.231 38.238 38.251 39.241 38.931 38.438 38.428 38.403 38.281 38.261 38.221 38.211 38.186 38.316 38.171 38.233 38.328 38.286 38.291 38.336 38.221 38.151 38.703 38.788 41.668 42.168 41.906 41.603 39.196 38.541 38.828 39.726 39.466 38.618 38.616 38.003 37.873 37.678 37.643 37.911 36.921 37.456 37.871 37.441 45.716 49.313 47.318 39.616 39.781 40.201 41.766 43.181 43.008 42.698 42.271 40.293 39.598 39.061 37.181 36.473 36.216 36.078 36.113 36.616 41.671 44.481 44.766 42.333 37.028 35.336 35.646 35.846 36.191 39.126 40.866 39.188 37.006 36.053 34.358 34.251 34.398 34.061 33.851 33.711 33.573 33.423 33.321 33.193 33.101 33.011 32.913 32.826 32.738 32.631 32.496 32.366 32.256 32.133 32.001 31.918 31.828 31.746 31.631 31.506 31.373 31.258 31.151 31.008 30.826 31.366 39.401 47.513 49.068 47.196 38.073 31.683 30.946 32.018 31.738 31.941 38.876 42.551 43.578 43.303 38.858 31.618 28.753 28.643 28.551 28.433 28.333 28.236 28.133 27.996 27.773 27.214 27.064 26.939 26.871 26.801 26.769 26.544 26.549 26.699 27.019 26.754
36.908 37.008 37.125 37.208 37.245 37.358 37.438 37.533 37.633 37.758 37.92 38.093 38.42 39.453 40.225 39.993 40.145 40.08 40.285 40.47 41.07 41.228 41.155 40.828 40.943 41.138 41.14 42.02 42.278 42.2 41.868 41.685 41.875 41.895 41.785 41.413 41.495 41.343 41.363 41.248 41.295 41.31 41.353 41.505 41.57 41.675 41.775 41.893 41.963 42.06 42.158 42.238 42.378 42.51 42.633 42.728 42.778 42.89 42.978 43.088 43.165 43.25 43.393 43.515 43.57 43.695 43.765 43.845 43.953 44.028 44.135 44.218 44.31 44.39 44.483 44.54 44.688 45.63 44.873 44.88 45.113 45.015 45.093 45.113 45.23 45.29 45.3 45.395 45.475 45.533 45.65 45.668 45.733 45.92 46.805 45.938 45.845 45.833 45.828 45.858 45.885 45.913 45.935 45.94 45.96 46.025 46.068 46.058 46.065 46.093 46.16 46.158 46.23 46.185 46.153 46.223 46.228 46.243 46.268 46.283 46.338 46.433 46.435 46.478 46.49 46.575 46.835 46.625 46.62 49.65 48.578 48.838 47.623 47.03 47.913 47.978 47.053 47.465 46.81 46.453 46.463 46.46 46.408 46.425 46.363 46.37 46.905 46.683 49.02 49.593 48.13 47.865 48.365 50.673 48.168 46.553 48.05 50.723 48.8 46.195 46.223 46.303 46.498 46.22 49.573 52.81 51.263 48.758 46.1 46.053 46.073 47.62 51.403 51.998 51.69 49.005 47.55 48.545 49.151 47.628 46.911 45.563 45.821 45.818 46.513 46.051 46.448 45.428 45.413 45.388 45.338 45.308 45.331 45.913 48.101 48.501 48.551 48.731 48.931 48.828 48.086 47.358 47.028 46.901 47.753 44.751 44.726 44.381 44.411 45.043 46.743 46.708 46.586 44.446 44.628 46.873 47.126 44.606 44.031 44.078 45.691 45.958 45.071 46.506 44.318 46.418 44.198 43.931 44.713 46.156 46.188 46.131 45.701 42.946 44.971 44.983 44.843 43.788 42.411 42.168 42.251 42.113 41.896 42.178 41.348 41.158 41.386 41.411 41.401 41.706 40.846 41.583 46.151 47.556 46.283 42.961 42.066 42.888 43.393 43.811 44.111 44.376 44.621 44.886 45.136 45.351 41.011 39.803 39.768 39.723 41.881 39.481 38.841 38.808 38.768 38.766 38.723 38.688 38.668 39.511 39.153 38.693 38.643 38.771 39.208 40.603 42.471 39.676 38.378 38.376 38.411 38.438 38.416 38.501 38.638 39.503 39.511 38.948 38.568 38.543 38.526 38.436 38.378 38.353 38.338 38.313 39.381 38.918 38.473 38.578 38.433 38.436 38.406 38.473 38.258 38.173 38.558 39.833 38.891 38.673 38.743 38.888 40.773 41.668 41.776 41.588 41.581 41.466 41.101 38.986 38.323 38.216 38.478 38.366 39.331 38.316 36.561 39.416 41.003 37.003 36.993 37.716 39.631 42.951 43.761 44.078 44.138 43.923 43.683 43.236 42.136 40.203 39.966 37.928 35.961 35.881 35.758 36.988 40.273 41.778 38.408 35.526 35.346 35.626 37.943 35.738 35.531 36.076 38.401 36.378 35.118 34.653 34.261 34.116 34.061 33.931 33.793 33.628 33.503 33.346 33.226 33.133 33.061 32.996 32.913 32.796 32.711 32.591 32.436 32.318 32.223 32.108 32.008 31.903 31.776 31.681 31.536 31.408 31.311 31.181 31.043 31.191 34.556 44.793 47.313 48.271 45.186 32.648 31.098 30.678 30.281 31.043 34.256 41.011 43.696 44.328 44.776 43.756 36.211 29.466 28.898 29.303 28.586 28.321 28.346 28.643 28.038 27.828 27.486 27.146 26.931 26.834 26.769 26.751 26.549 26.584 26.471 26.449 26.581
36.81 36.923 37.053 37.633 37.728 38.26 38.47 38.448 38.78 39.468 39.823 39.628 40.193 40.298 40.693 40.91 40.82 41.283 41.205 41.115 40.91 40.575 40.298 40.143 40.27 40.378 40.123 39.958 39.85 39.878 39.993 40.118 40.265 40.375 40.47 40.57 40.69 40.8 40.955 41.01 41.155 41.283 41.363 41.455 41.568 41.653 41.775 41.88 41.96 42.02 42.108 42.215 42.358 42.475 42.583 42.68 42.783 42.863 42.97 43.058 43.168 43.28 43.36 43.46 45.32 46.34 46.87 46.368 46.603 46.535 47.345 47.023 47.123 47.143 47.888 47.99 47.358 49.643 49.685 49.835 50.353 48.508 48.19 45.348 45.168 45.188 45.275 45.295 45.345 45.52 46.06 48.145 46.57 46.978 52.11 51.895 50.063 46.73 46.025 46.035 45.95 45.973 45.973 45.995 46.003 46.028 46.058 46.043 46.105 46.133 46.155 46.205 46.215 46.26 46.258 46.29 46.315 46.318 46.363 46.388 46.378 46.41 46.408 46.405 46.42 46.413 46.398 46.343 46.328 46.38 46.423 46.443 46.565 46.613 46.965 46.905 46.568 46.74 46.658 46.435 46.428 46.43 46.428 46.405 47.265 47.358 47.19 48.625 52.143 52.185 49.738 46.58 48.378 53 49.865 47.838 48.145 47.353 46.21 46.22 46.268 46.288 46.258 46.243 52.395 55.773 54.293 49.51 46.158 46.038 46.133 46.693 49.255 48.705 47.233 47.31 48.13 49.123 49.136 48.451 46.473 46.268 45.481 45.481 45.581 45.463 45.471 45.448 45.441 45.403 45.356 45.323 46.103 46.306 45.883 45.686 46.236 46.568 46.978 46.773 46.373 44.881 44.923 44.776 45.381 45.716 45.563 44.956 44.723 45.503 46.886 47.136 47.036 44.521 45.108 48.081 48.396 44.898 44.346 44.261 45.001 47.383 49.811 49.303 47.723 48.196 47.456 45.931 43.641 44.571 47.101 47.946 46.523 43.141 45.011 45.073 44.766 42.603 42.348 42.243 42.371 43.246 43.986 42.763 41.416 41.576 41.626 41.426 41.431 41.943 41.586 42.808 46.363 47.591 45.943 40.851 40.073 40.116 40.421 40.856 41.086 41.663 41.981 42.696 42.551 43.436 39.923 40.131 39.896 40.196 41.671 39.026 38.993 38.961 38.916 38.868 38.801 38.748 38.768 38.751 38.761 38.768 38.706 39.706 38.766 39.233 39.073 38.476 38.523 38.581 38.611 38.626 38.633 38.641 38.846 40.783 39.611 38.776 38.703 38.686 38.673 38.593 38.498 38.501 38.461 38.451 38.781 38.833 39.681 41.423 38.568 39.016 38.701 38.668 38.398 38.266 38.911 40.641 39.326 39.933 38.361 38.696 41.691 43.248 43.058 42.496 42.133 43.208 45.363 44.723 44.446 40.888 40.593 39.873 39.871 38.021 37.436 41.386 38.703 37.026 37.158 37.328 38.216 42.528 43.481 42.653 42.891 43.288 43.706 43.973 41.901 40.076 40.421 37.178 36.026 35.871 35.718 35.621 35.848 36.616 35.421 35.298 35.318 35.488 35.356 35.398 35.553 35.578 35.911 35.443 35.148 35.481 34.783 34.186 34.111 33.993 33.846 33.723 33.586 33.436 33.313 33.216 33.153 33.086 33.001 32.903 32.806 32.671 32.566 32.443 32.356 32.243 32.083 31.986 31.863 31.761 31.636 31.506 31.366 31.241 31.123 33.413 39.683 45.686 47.848 47.458 42.713 31.511 30.268 30.206 29.946 30.021 33.346 39.443 42.266 43.203 43.918 41.111 31.916 28.748 28.641 28.986 29.071 28.366 28.828 29.516 28.398 28.003 28.274 27.696 27.556 27.159 27.044 26.716 26.624 26.586 26.516 26.534 26.476
37.02 37.538 37.918 39.063 39.415 39.62 39.778 39.233 39.848 40.08 40.208 40.4 40.463 40.493 40.348 39.953 39.655 39.07 39.38 38.855 38.85 38.943 39.103 39.2 39.32 39.43 39.545 39.658 39.78 39.87 39.965 40.07 40.198 40.29 40.428 40.528 40.653 40.725 40.858 40.983 41.105 41.225 41.348 41.53 41.59 42.298 41.983 43.163 42.813 42.385 42.7 43.08 42.973 42.568 42.65 42.745 42.8 43.01 43.015 43.115 43.238 43.368 43.428 44.203 47.718 48.41 48.353 48.18 47.403 48.453 48.98 49.258 49.07 49.45 49.89 50.068 49.698 50.093 50.383 50.435 50.44 50.87 50.71 49.648 46 45.225 45.298 45.32 45.398 45.735 47.9 49.668 47.39 49.098 55.633 58.978 50.66 48.62 47.678 47.805 47.528 46.753 46.663 46.948 46.668 46.283 46.363 46.513 46.328 46.188 46.165 46.195 46.175 46.21 46.273 46.26 46.288 46.298 46.333 46.363 46.443 46.435 46.435 46.413 46.443 46.488 46.443 46.45 46.41 46.425 46.383 46.375 46.303 46.353 46.353 46.355 46.323 46.335 46.365 46.393 46.353 46.343 46.33 46.368 47.963 48.545 49.078 49.253 51 51.935 50.275 47.8 47.415 49.63 47.365 47.768 46.978 46.323 46.253 46.285 46.285 46.318 46.315 46.253 51.163 53.628 52.81 49.938 46.333 46.385 46.033 46.018 46.225 46.02 46.135 47.153 48.938 49.135 49.131 49.146 47.973 46.731 45.493 45.523 45.478 45.491 45.518 45.496 45.461 45.391 45.363 45.353 45.793 47.463 45.358 45.998 45.013 45.051 45.136 45.681 44.916 44.986 44.953 44.973 45.796 47.183 47.001 46.303 46.686 46.003 47.041 48.578 48.493 44.698 45.448 49.178 49.211 47.928 48.303 47.721 44.203 47.876 50.268 50.931 50.956 50.923 50.031 47.543 44.203 45.011 47.331 47.958 46.551 43.511 43.846 43.628 44.091 42.803 43.713 43.673 42.521 44.128 44.506 42.953 41.391 41.706 41.651 41.426 41.336 41.228 42.993 43.436 46.693 47.593 44.983 40.141 40.108 40.233 40.273 40.271 40.263 40.271 40.266 40.378 40.211 41.333 40.813 40.593 40.293 41.023 42.326 39.171 39.123 39.111 39.083 39.023 38.963 38.901 38.856 38.863 38.861 38.838 39.241 39.366 38.698 38.631 38.628 38.678 38.746 38.741 38.708 38.718 38.836 38.848 40.571 40.303 40.138 39.853 38.801 38.806 38.956 39.498 38.741 38.661 38.601 38.718 38.948 38.791 43.336 44.506 40.063 39.461 39.283 39.286 38.453 38.401 39.226 41.096 39.273 39.431 38.596 39.506 43.983 45.568 45.436 45.121 44.846 45.078 46.063 46.163 46.238 43.106 42.856 42.656 42.308 38.228 38.931 42.906 40.881 39.426 38.528 38.018 38.293 42.658 42.948 38.171 39.606 39.596 40.831 41.493 41.383 39.116 39.238 37.266 36.016 35.883 35.788 35.698 35.581 35.501 35.408 35.333 35.603 35.996 36.641 37.271 38.373 37.631 37.841 39.043 35.273 35.111 34.578 34.253 34.161 34.046 33.931 33.803 33.686 33.563 33.438 33.346 33.236 33.143 33.061 32.976 32.901 32.788 32.673 32.533 32.458 32.351 32.193 32.048 31.933 31.848 31.716 31.598 31.471 31.318 31.603 36.806 44.471 47.121 47.761 45.751 39.083 31.831 30.313 30.126 30.036 32.041 30.126 34.548 39.006 40.476 38.711 33.658 30.458 30.071 29.653 29.446 28.621 28.521 37.598 38.188 35.006 29.438 28.011 27.864 27.716 27.431 27.456 27.296 26.949 26.669 26.496 26.464 26.479
38.62 38.865 39.278 39.458 39.56 38.855 39.265 38.495 38.803 38.348 38.175 38.193 37.993 38.055 38.2 38.318 38.393 38.495 38.588 38.725 38.85 38.993 39.085 39.168 39.293 39.423 39.51 39.575 39.705 39.823 39.955 40.293 40.625 41.063 41.033 41.96 41.823 41.745 41.825 42.098 42.02 42.258 42.07 42.053 41.86 42.493 43.098 42.883 42.165 41.878 42.048 42.428 42.453 42.55 42.638 42.75 42.858 43.03 43.115 43.165 43.29 43.408 43.518 43.695 46.833 47.388 46.893 47.335 44.703 44.21 45.778 47.973 48.66 48.268 47.653 47.255 46.96 46.553 45.995 45.46 47.035 49.248 50.54 50.213 48.605 45.65 45.29 45.318 45.41 45.618 48.73 47.988 46.338 51.203 52.37 54.73 50.098 48.76 50.063 48.578 47.593 47.808 47.24 47.838 48.018 47.94 48.018 47.978 48.063 48.055 47.475 47.41 47.44 47.225 47.298 47.348 46.585 46.453 46.338 46.315 46.365 46.388 46.415 46.423 46.405 46.483 46.46 46.455 46.49 46.453 46.438 46.473 46.44 46.428 46.395 46.353 46.333 46.295 46.325 46.355 46.318 46.308 46.285 46.328 46.34 46.39 46.373 46.503 47.238 47.08 47.235 46.528 46.97 47.963 46.813 46.595 46.33 46.255 46.258 46.295 46.358 46.335 46.368 46.295 46.22 47.503 49.653 47.155 46.358 46.495 46.075 46.39 46.055 45.97 46.3 46.778 46.273 47.94 49.138 49.081 47.446 49.973 51.721 47.731 45.541 45.496 45.501 45.526 45.448 45.416 45.366 45.358 45.398 46.091 45.186 46.023 45.036 45.021 45.216 45.866 44.938 44.953 44.913 44.996 45.223 46.051 45.948 46.458 46.748 46.161 48.038 49.233 49.006 44.911 46.703 49.276 50.281 50.266 50.278 46.971 44.158 47.948 50.321 50.938 50.991 50.916 49.928 47.468 43.853 45.473 47.523 47.833 45.678 42.881 43.043 43.143 43.578 43.078 45.468 45.591 43.521 43.841 44.413 43.383 41.381 41.931 41.826 41.456 41.388 41.988 43.141 44.616 46.908 47.666 44.598 40.126 40.123 40.291 40.286 40.283 40.293 40.296 40.276 40.296 40.276 40.541 40.588 41.213 41.733 40.988 40.518 39.343 39.301 39.283 39.263 39.183 39.153 39.101 39.038 38.971 38.943 39.093 39.881 39.001 38.806 38.848 38.901 38.888 38.896 38.881 38.871 38.831 39.123 39.196 39.906 39.683 39.233 38.841 38.871 38.886 38.998 39.478 38.946 38.831 39.113 38.771 39.346 40.843 44.583 45.048 44.671 43.346 42.756 40.498 38.563 38.563 39.446 39.323 38.653 38.411 38.521 39.576 44.618 46.096 46.131 45.713 45.523 44.623 45.161 44.911 44.708 43.666 43.773 43.761 42.511 38.641 39.238 43.276 40.083 38.128 37.878 37.436 37.213 37.863 38.223 37.123 36.858 36.798 36.801 36.676 37.743 36.558 37.088 36.283 36.068 35.973 35.851 35.746 35.638 35.561 35.471 35.358 35.451 38.908 39.798 40.163 41.341 40.336 40.018 40.071 35.216 35.131 34.631 34.301 34.226 34.118 34.018 33.903 33.771 33.668 33.551 33.421 33.308 33.193 33.083 33.038 32.966 32.873 32.751 32.646 32.531 32.406 32.241 32.113 31.998 31.883 31.786 31.676 31.516 31.346 31.356 38.478 45.098 47.138 48.303 45.153 35.351 31.668 30.311 30.146 30.838 32.078 29.828 29.708 31.136 32.686 29.761 29.196 29.498 29.658 29.408 29.371 28.606 35.951 42.278 42.853 42.776 36.266 28.714 29.126 27.779 27.564 27.401 27.419 27.074 26.999 26.714 26.509 26.601
37.485 37.505 37.63 37.513 37.315 37.185 37.32 37.443 37.578 37.648 37.765 37.868 37.955 38.063 38.175 38.305 38.423 38.495 38.613 38.723 38.835 39.278 39.498 39.553 39.333 40.088 40.988 41.07 41.238 40.9 42.043 41.385 41.723 42.788 43.093 43.18 42.203 41.783 42.038 42.258 41.233 41.278 41.263 41.233 41.24 41.268 41.275 41.343 41.545 41.66 41.733 41.988 42.295 42.465 42.575 42.66 42.83 43.195 43.308 43.26 43.328 43.425 43.548 44.215 45.038 44.843 49.188 51.328 50.24 45.458 44.123 44.163 44.468 44.373 44.438 44.515 44.578 44.633 44.723 44.808 44.895 45.005 45.783 46.518 48.463 49.003 45.408 46.43 47.098 46.308 48.268 48.268 47.905 54.985 51.01 51.165 54.965 49.94 48.84 47.345 46.903 46.79 46.708 46.993 46.883 47.11 47.315 47.405 47.61 47.825 47.948 47.883 48.62 47.683 48.008 47.975 48.005 47.873 47.623 47.785 47.028 46.523 46.658 46.523 46.395 46.398 46.4 46.395 46.46 46.44 46.445 46.445 46.463 46.423 46.433 46.45 46.388 46.433 46.4 46.393 46.373 46.365 46.373 46.365 46.37 46.365 46.363 46.363 46.305 46.323 46.328 46.383 46.328 46.34 46.328 46.308 46.25 46.24 46.263 46.315 46.358 46.385 46.41 46.368 46.263 46.228 47.515 48.62 46.77 46.18 46.048 46.178 46.005 46.488 46.203 46.173 46.045 46.655 46.551 46.573 47.583 54.381 55.286 55.823 46.468 46.198 46.171 45.433 45.411 45.388 45.488 45.396 45.401 45.716 45.156 45.308 45.068 45.041 45.001 45.008 45.318 45.391 44.998 45.001 45.273 45.093 44.806 46.666 46.331 46.231 48.628 49.933 48.243 44.488 46.726 49.353 50.741 50.783 50.918 47.358 44.333 48.016 50.366 50.898 50.978 50.918 49.783 46.638 43.583 46.371 47.713 47.633 45.643 42.906 43.503 44.451 45.303 45.088 47.298 47.508 45.993 42.783 43.673 43.861 41.398 41.876 41.828 41.508 41.423 41.911 43.276 45.046 47.173 47.011 43.623 40.186 40.188 40.338 40.331 40.338 40.383 40.911 41.916 40.516 41.408 40.896 40.331 43.783 43.923 43.606 40.088 39.553 39.541 39.521 39.431 39.361 39.338 39.296 39.218 39.091 39.081 39.896 39.201 38.963 39.148 39.058 39.068 39.041 39.028 39.013 39.011 39.261 39.113 39.071 40.018 40.161 39.058 38.991 39.021 39.018 40.028 41.883 41.201 39.231 39.468 39.263 43.083 44.716 45.146 45.108 45.006 45.151 45.023 41.943 38.721 38.686 39.298 39.348 38.676 38.498 38.463 39.318 44.603 45.373 45.578 45.723 45.798 45.728 45.573 45.343 43.703 42.401 42.766 43.613 41.463 38.278 39.798 43.643 39.406 39.201 37.966 38.713 42.746 39.051 37.718 36.951 36.921 36.821 36.688 36.616 36.501 36.403 36.328 36.248 36.126 36.021 35.883 35.781 35.673 35.586 35.481 35.401 35.393 38.593 39.936 40.986 41.666 41.416 41.463 41.426 35.233 35.131 34.653 34.371 34.291 34.163 34.068 33.961 33.836 33.718 33.606 33.466 33.336 33.221 33.143 33.056 32.993 32.918 32.806 32.716 32.596 32.448 32.318 32.171 32.031 31.923 31.831 31.683 31.493 31.331 31.638 41.596 44.091 45.388 46.928 44.266 34.173 30.651 30.353 30.193 31.328 31.206 29.971 29.588 29.438 29.366 29.303 29.306 29.221 30.173 29.681 29.098 30.811 39.498 42.133 43.046 43.151 40.423 29.634 28.774 28.904 28.821 27.341 27.271 27.251 26.844 26.676 26.614 26.821
36.613 36.695 36.828 36.938 37.02 37.18 37.288 37.388 37.505 37.64 37.728 37.848 37.955 38.098 38.275 38.54 39.09 39.888 39.468 41.285 40.258 41.805 40.615 41.285 41.58 41.028 41.503 41.033 41.328 41.675 41.133 40.365 40.525 41.088 40.675 40.74 40.788 40.813 40.878 40.858 40.975 41.003 41.018 41.09 41.145 41.183 41.203 41.298 41.515 41.6 41.695 41.863 42.24 42.39 42.503 42.598 42.863 45.488 46.92 46.465 45.828 43.418 43.48 43.85 44.075 44.718 49.433 51.828 51.858 48.26 44.123 44.2 44.333 44.438 44.5 44.515 44.583 44.635 44.69 44.77 44.888 44.97 45.07 45.515 45.838 47.42 45.708 49.138 48.638 47.835 48.3 46.653 49.808 46.868 49.718 49.515 47.828 47.153 46.695 46.815 46.67 46.658 46.458 46.41 46.45 46.503 46.525 46.573 46.62 46.64 46.95 46.715 47.08 46.973 46.945 46.94 47.283 47.37 47.273 47.375 47.345 47.135 47.878 47.92 47.548 47.25 47.26 46.878 46.848 46.553 46.438 46.423 46.438 46.41 46.398 46.375 46.4 46.38 46.39 46.388 46.408 46.4 46.39 46.423 46.408 46.385 46.38 46.385 46.37 46.34 46.348 46.385 46.385 46.358 46.35 46.348 46.3 46.3 46.3 46.303 46.345 46.38 46.403 46.385 46.335 46.238 46.44 47.785 48.698 47.503 47.153 47.13 46.758 47.123 46.23 45.928 46.253 46.805 46.138 46.116 50.701 59.091 61.173 58.116 53.043 46.513 45.481 45.641 45.503 45.456 45.641 45.933 45.341 45.793 45.188 45.138 45.116 45.068 45.031 45.028 45.041 45.146 45.163 45.076 47.228 48.583 45.581 44.633 44.528 46.103 48.173 49.503 48.323 44.536 46.748 49.303 49.106 48.488 49.616 46.776 44.133 48.068 49.216 49.521 49.511 49.583 49.276 45.946 43.496 46.491 47.908 47.431 46.098 43.526 43.553 44.051 45.608 46.038 47.926 49.066 47.141 42.851 44.013 43.911 41.461 41.723 42.548 41.563 41.528 41.938 43.658 45.426 47.393 46.756 42.596 40.221 40.236 40.383 40.378 40.403 40.451 41.303 40.643 40.428 45.271 46.213 46.381 45.766 45.663 45.403 40.328 40.168 40.033 39.836 39.668 39.556 39.498 39.421 39.353 39.266 39.378 39.743 39.088 39.548 40.281 39.401 39.178 39.183 39.178 39.173 39.133 39.171 39.213 39.138 40.026 39.811 39.181 41.773 44.976 42.811 43.391 44.636 44.661 39.536 38.966 39.796 44.511 45.553 45.626 44.478 42.716 41.721 43.658 41.113 38.793 38.906 39.608 38.596 38.626 38.663 38.558 38.916 41.293 41.978 43.078 44.203 44.318 44.598 44.878 45.193 42.681 40.493 41.346 42.448 40.216 38.101 40.811 41.983 39.153 38.956 37.498 38.633 44.636 41.148 41.848 38.286 36.948 36.846 36.748 36.671 36.546 36.491 36.401 36.336 36.188 36.076 35.941 35.836 35.723 35.633 35.521 35.456 35.563 36.923 39.518 41.136 41.831 40.783 40.453 40.358 35.213 35.108 34.708 34.396 34.323 34.216 34.101 33.981 33.873 33.736 33.631 33.486 33.378 33.256 33.193 33.093 33.026 32.953 32.851 32.761 32.641 32.513 32.351 32.203 32.071 31.958 31.876 31.686 31.501 31.393 33.458 42.306 44.733 40.601 37.011 34.706 31.206 30.621 30.471 30.218 30.586 30.371 29.866 29.643 29.511 29.396 29.758 29.766 29.931 29.893 29.761 29.141 29.068 36.336 39.846 41.241 41.321 38.218 30.194 27.409 27.871 28.344 29.076 28.256 27.796 27.226 26.866 26.601 26.664
36.6 36.72 36.818 36.918 37.02 37.228 37.46 37.613 38.033 38.67 38.938 39.04 40.288 40.025 40.385 40.278 40.455 40.363 40.015 41.155 39.73 39.385 39.428 39.558 39.99 39.955 40.25 40.383 40.64 40.428 40.228 40.29 40.333 40.47 40.553 40.58 40.648 40.728 40.835 40.868 40.898 40.973 41.018 41.068 41.093 41.133 41.148 41.273 41.41 41.498 41.6 41.765 42.183 42.318 42.433 42.475 43.113 45.64 47.085 47.053 45.775 43.378 43.443 43.525 43.65 43.755 44.9 46.918 47.695 44.078 44.175 44.26 44.398 44.538 44.565 44.56 44.628 44.673 44.738 44.793 44.863 44.865 46.758 46.433 46.625 50.768 48.02 46.063 45.495 46.113 46.113 45.865 45.97 46.588 51.03 51.82 46.513 46.548 46.865 47.313 48.2 47.993 46.528 46.458 46.505 46.548 46.583 46.635 46.66 46.705 46.713 46.748 46.755 46.8 46.833 46.855 46.873 46.89 46.948 46.97 46.945 46.945 46.998 47.113 47.358 47.325 47.535 47.685 47.73 47.918 47.665 47.668 47.695 47.218 46.465 46.375 46.358 46.348 46.348 46.35 46.345 46.325 46.358 46.375 46.355 46.32 46.37 46.393 46.355 46.358 46.373 46.398 46.455 46.438 46.403 46.345 46.33 46.345 46.335 46.348 46.363 46.368 46.435 46.37 46.335 46.263 46.198 46.143 47.09 47.605 47.823 47.39 47.44 47.19 46.205 45.883 45.993 45.983 46.601 47.043 55.898 60.976 60.703 56.356 55.681 48.053 46.586 46.828 49.963 50.101 46.223 47.903 45.333 45.291 45.186 45.491 45.506 45.171 46.183 46.426 45.216 45.233 45.181 45.216 47.633 49.688 46.133 45.886 45.776 44.796 45.996 48.821 47.841 44.288 45.886 47.611 48.253 45.291 45.146 44.868 45.106 46.156 45.628 45.973 46.633 46.566 47.551 45.348 43.511 46.418 47.196 47.543 47.206 44.376 42.918 44.888 45.566 46.296 48.201 48.976 47.718 42.438 44.016 43.296 41.741 41.506 41.973 41.638 41.643 42.991 43.806 45.658 47.453 46.538 43.573 40.428 40.613 40.753 40.463 40.458 40.476 40.951 40.548 40.448 45.371 48.383 48.521 48.603 48.363 45.643 40.743 40.771 40.716 40.163 39.906 39.791 39.668 39.563 39.438 39.408 40.131 39.421 39.463 40.353 44.003 42.253 39.631 39.451 39.328 39.298 39.223 39.388 39.376 39.276 39.948 39.541 39.241 45.341 46.036 45.988 46.046 46.141 46.128 39.628 39.091 39.756 43.276 43.628 44.216 42.766 39.228 39.018 39.053 39.031 38.838 39.358 39.206 38.691 38.691 38.851 38.611 38.616 38.638 38.626 38.613 39.138 40.688 41.363 41.748 42.458 40.541 38.958 38.791 38.336 38.098 39.528 42.261 43.158 38.183 37.846 37.531 37.913 44.363 43.528 45.471 40.976 36.981 36.913 36.821 36.696 36.588 36.553 36.486 36.353 36.218 36.121 35.991 36.856 36.196 35.663 35.551 35.456 35.496 36.201 39.561 41.376 41.818 40.881 39.293 38.551 35.403 35.116 34.738 34.456 34.386 34.261 34.126 34.003 33.903 33.788 33.648 33.566 33.423 33.336 33.228 33.111 33.036 32.973 32.873 32.773 32.663 32.543 32.381 32.223 32.098 31.971 31.886 31.696 31.531 32.446 39.021 45.376 47.051 43.533 31.211 32.208 31.458 30.678 30.408 30.268 30.091 30.123 29.936 29.688 29.553 29.473 29.481 29.783 30.258 29.961 29.533 28.806 28.391 32.198 34.713 37.753 37.531 32.728 32.536 30.399 29.104 27.719 29.514 29.804 28.276 27.394 26.839 27.071 26.361
37.28 37.485 38.075 38.48 38.408 39.575 38.938 38.868 39.068 38.795 39.13 40.855 41.468 39.86 39.273 39.753 40.113 40.56 40.305 39.625 39.468 39.235 39.273 39.448 39.665 40.003 39.93 40.008 40 40.06 40.13 40.208 40.328 40.49 40.528 40.573 40.628 40.705 40.795 40.828 40.9 40.938 40.893 41.005 41.025 41.06 41.155 41.268 41.293 41.358 41.488 41.665 42.173 42.285 42.375 42.42 43.473 46.21 47.178 46.988 44.648 43.345 43.425 43.468 43.595 43.703 43.813 43.868 43.928 44.045 44.568 44.33 44.543 45.06 44.843 44.6 44.645 44.695 44.75 44.798 44.815 44.973 46.763 49.413 51.36 52.118 48.963 45.455 45.33 45.578 45.765 45.833 45.92 46.033 49.418 52.295 53.473 46.67 46.355 47.04 48.553 48.433 46.875 46.45 46.495 46.523 46.565 46.613 46.663 46.668 46.713 46.745 46.765 46.813 46.83 46.858 46.89 46.908 46.94 46.98 46.985 46.995 46.985 46.983 46.998 47.02 47.003 46.998 47 47.025 47.308 47.88 47.518 46.873 46.658 46.515 46.498 46.393 46.425 46.448 46.54 46.403 46.333 46.365 46.355 46.255 46.318 46.343 46.28 46.308 46.343 46.36 46.37 46.345 46.318 46.288 46.32 46.293 46.285 46.33 46.363 46.445 46.408 46.403 46.368 46.333 46.235 46.145 46.1 46.15 46.105 46.108 46.075 45.948 45.873 45.85 45.815 45.768 45.838 46.211 54.993 59.281 57.806 57.563 54.263 47.853 46.541 47.901 49.608 47.818 47.748 48.961 45.173 45.128 45.098 45.336 45.478 45.076 45.793 48.393 48.561 46.356 46.463 45.618 45.281 46.126 45.368 45.508 45.541 44.513 44.448 44.621 44.783 44.556 44.508 44.153 44.091 44.096 44.626 44.171 44.886 44.696 44.091 44.053 44.116 44.111 44.536 43.926 43.648 44.208 44.553 44.406 45.871 43.846 42.926 45.131 45.568 46.583 48.471 48.733 46.658 42.446 43.978 43.026 42.536 41.466 41.668 42.148 42.473 43.016 43.301 45.983 47.481 46.178 42.908 40.873 40.691 41.086 40.811 40.478 40.486 40.608 40.606 41.101 45.641 46.011 47.226 47.861 48.498 44.096 40.916 40.803 40.696 40.218 40.078 39.953 39.798 39.631 39.563 39.748 41.091 43.103 40.246 43.306 45.458 45.906 45.526 40.933 39.588 39.418 39.748 39.491 39.453 39.381 40.103 39.908 39.423 42.443 43.811 44.028 44.171 44.878 44.778 39.566 39.418 39.363 40.066 39.426 39.261 39.763 39.136 39.086 39.053 38.971 39.386 40.556 39.226 38.738 38.756 38.743 38.701 38.691 38.661 39.403 39.456 38.978 39.843 38.703 39.021 39.556 39.021 38.278 38.348 38.333 38.101 39.108 41.431 39.881 37.601 37.563 37.561 38.478 45.491 47.176 48.246 44.403 37.426 36.973 36.861 36.741 36.696 36.618 36.503 36.386 36.266 36.191 38.368 40.473 38.231 36.941 35.593 35.486 35.413 36.148 39.438 41.128 41.863 41.326 40.066 35.726 35.163 35.148 34.773 34.541 34.456 34.306 34.173 34.071 33.948 33.833 33.693 33.576 33.461 33.381 33.261 33.123 33.043 32.951 32.896 32.776 32.653 32.531 32.391 32.283 32.146 32.013 31.886 31.736 31.768 34.593 42.463 48.048 48.161 45.991 31.473 31.156 31.296 30.693 30.421 30.293 30.113 30.008 29.863 29.736 29.576 29.541 29.873 29.566 29.581 29.671 29.131 28.396 29.411 31.056 31.471 31.876 30.206 29.538 30.761 30.451 30.374 30.046 30.319 28.954 27.349 27.629 27.199 27.036 26.234
38.473 38.693 38.73 38.468 38.12 38.315 37.94 38.12 38.22 38.415 38.905 42.035 42.513 42.713 39.405 39.363 39.593 39.505 39.54 39.423 39.158 39.22 39.353 39.458 39.54 39.708 39.728 39.87 39.983 40.045 40.108 40.185 40.288 40.483 40.515 40.573 40.633 40.708 40.835 40.845 40.875 40.908 40.9 40.99 41.005 41.018 41.185 41.225 41.26 41.315 41.413 41.56 42.2 42.248 42.268 42.33 43.368 46.733 47.213 46.963 44.8 43.343 43.368 43.44 43.535 43.65 43.778 43.963 43.918 43.99 44.133 44.3 44.688 45.9 45.083 44.635 44.678 44.71 44.76 45.608 45.123 45.483 48.35 50.785 51.223 50.18 46.418 47.875 45.298 45.475 45.688 45.823 45.938 46.003 46.028 47.438 47.278 46.378 46.468 46.853 47.753 47.758 47.205 46.458 46.48 46.518 46.56 46.633 46.645 46.69 46.708 46.71 46.748 46.785 46.823 46.838 46.878 46.89 46.903 46.92 46.91 46.935 46.94 46.935 46.963 46.97 46.953 46.958 46.958 46.97 47.18 48.045 48.37 46.948 46.765 46.585 46.55 46.408 46.44 46.658 47.378 47.11 46.748 46.973 46.705 46.583 46.455 46.33 46.33 46.313 46.3 46.28 46.293 46.263 46.28 46.298 46.268 46.235 46.285 46.315 46.335 46.393 46.405 46.428 46.368 46.363 46.295 46.193 46.12 46.073 45.97 45.935 45.915 45.858 45.845 45.778 45.78 45.753 45.683 46.856 55.663 57.211 56.571 54.958 51.441 45.408 47.393 47.651 46.078 45.666 45.246 46.118 45.181 45.121 45.126 45.076 45.011 44.996 45.591 47.096 46.096 45.216 45.508 45.748 45.443 45.758 45.018 44.763 44.791 45.176 45.466 44.501 44.583 44.356 44.233 44.178 44.131 44.851 44.618 44.396 44.681 44.546 44.076 44.046 43.971 44.756 44.333 43.966 44.478 43.511 43.338 43.303 43.221 43.768 42.978 44.726 43.878 45.733 46.631 48.188 44.761 42.601 44.068 42.333 42.296 41.748 41.513 42.158 42.366 42.936 44.178 46.236 47.551 45.796 42.458 40.811 40.978 41.026 40.963 40.616 40.961 40.671 40.686 40.656 40.803 40.646 43.446 47.696 48.336 44.416 42.248 41.481 40.703 40.236 40.178 40.048 39.891 39.741 39.703 40.113 41.091 43.518 41.436 45.421 46.121 46.686 47.053 46.223 42.296 39.648 40.513 39.598 39.531 39.676 40.473 39.591 39.418 39.558 40.743 40.631 41.291 41.851 42.168 40.261 39.856 39.461 40.211 39.326 39.251 39.226 39.273 39.111 39.081 43.373 46.381 49.006 47.443 43.961 39.616 38.843 38.803 38.781 38.741 38.896 39.408 39.053 38.531 38.516 38.523 38.508 38.388 38.266 38.251 38.171 38.176 38.643 38.853 37.731 37.681 37.611 37.578 38.473 43.228 45.278 43.401 44.278 38.176 37.003 36.876 36.783 36.706 36.648 36.531 36.448 36.326 36.221 39.318 40.493 38.528 38.066 35.601 35.518 35.576 36.118 39.021 39.703 41.838 40.588 39.498 35.306 35.141 35.233 35.006 34.573 34.503 34.376 34.233 34.081 33.951 33.826 33.686 33.563 33.468 33.371 33.263 33.148 33.031 32.958 32.881 32.776 32.641 32.531 32.423 32.313 32.166 32.016 31.891 31.761 31.873 38.891 46.648 49.263 48.076 44.546 31.346 30.931 32.281 30.728 30.411 30.431 30.178 30.006 29.871 29.748 29.588 29.486 29.503 29.576 29.366 30.466 29.488 28.341 30.236 31.286 31.198 30.176 28.023 28.413 28.714 30.111 30.501 29.829 29.499 28.121 26.811 26.884 26.881 26.424 26.326
38.793 38.72 38.725 37.93 38.095 37.868 37.71 37.84 38.013 38.163 38.24 39.043 39.575 39.423 38.805 38.858 38.848 38.84 38.813 38.878 38.88 38.945 39.078 39.258 39.408 39.543 39.653 39.8 39.96 40.105 40.17 40.23 40.32 40.468 40.47 40.495 40.615 40.74 41.338 40.985 40.975 40.903 40.95 40.96 40.96 41.005 41.145 41.215 41.263 41.31 41.358 41.468 42.178 42.193 42.198 42.288 43.295 46.78 47.233 46.908 44.915 43.345 43.368 43.425 43.54 43.643 43.768 44.315 44.138 44.03 44.103 44.238 44.39 44.585 44.528 44.608 44.68 44.693 47.753 53.855 48.47 45.693 45.398 47.425 47.27 46.073 45.07 45.235 45.358 45.425 45.735 45.838 45.953 45.98 45.988 46.278 46.578 46.838 46.673 46.953 47.2 47.213 46.893 46.443 46.483 46.555 46.595 46.595 46.61 46.703 46.695 46.703 46.73 46.758 46.76 46.788 46.82 46.818 46.843 46.853 46.86 46.893 46.888 46.878 46.878 46.893 46.9 46.89 46.885 46.935 47 47.705 48.753 46.943 46.793 46.725 46.718 46.533 46.65 47.028 47.195 47.223 47.34 47.038 47.35 47.198 47.018 46.408 46.37 46.383 46.4 46.358 46.373 46.335 46.34 46.39 46.575 46.328 46.363 46.285 46.315 46.37 46.448 46.393 46.413 46.405 46.268 46.225 46.16 46.108 46.015 45.973 45.943 45.908 45.855 45.85 45.773 45.768 45.673 46.316 52.651 54.081 52.578 51.696 48.326 45.441 46.786 45.903 46.358 45.311 45.256 45.263 45.198 45.143 45.148 45.108 45.086 45.041 44.986 44.968 44.906 44.863 44.823 44.768 44.723 44.738 44.848 44.546 44.541 45.896 46.413 46.476 46.348 44.748 44.331 44.221 44.178 44.123 44.118 44.181 44.548 44.056 44.053 43.981 43.933 43.928 43.851 45.351 45.911 43.598 43.398 43.363 43.306 43.603 43.596 44.923 42.826 42.661 42.658 43.516 42.628 42.571 42.966 42.446 42.276 42.156 41.731 41.623 41.606 41.903 42.716 45.676 46.641 45.093 42.256 40.956 40.941 40.911 40.883 40.858 41.376 40.786 40.783 40.711 40.683 40.781 42.571 47.946 48.173 45.621 44.623 42.068 40.663 40.828 40.216 40.083 39.971 39.836 40.316 39.978 39.821 39.953 40.346 43.071 46.016 46.576 46.696 46.828 44.283 39.696 39.846 39.731 39.726 39.903 40.608 39.726 39.806 39.783 40.108 39.463 39.776 39.291 39.241 41.323 39.783 39.408 39.443 39.518 39.463 39.408 39.793 39.301 42.236 49.058 50.561 51.371 51.776 47.736 41.708 38.908 38.908 38.858 38.796 38.753 38.666 38.691 38.871 39.061 38.731 38.573 38.328 38.638 38.381 38.216 38.383 39.336 38.596 37.733 37.711 37.641 37.626 37.768 39.031 39.701 38.026 37.896 37.113 37.046 36.921 36.828 36.758 36.796 36.726 36.503 36.396 36.266 36.398 39.753 39.533 37.071 35.668 35.526 36.171 35.403 35.716 35.746 37.446 35.888 35.828 35.208 35.353 35.481 35.148 34.658 34.558 34.411 34.248 34.086 33.938 33.806 33.686 33.586 33.471 33.388 33.283 33.171 33.053 32.998 32.908 32.816 32.696 32.563 32.443 32.358 32.178 32.046 31.931 31.791 34.003 42.466 48.186 50.008 47.838 39.711 31.231 31.271 31.983 30.563 30.443 30.293 30.153 29.983 29.868 29.743 29.673 29.571 29.853 29.928 29.453 29.193 28.931 29.748 31.071 31.366 30.848 28.883 29.743 28.616 27.856 28.301 29.929 29.409 27.646 26.821 26.786 26.754 26.509 26.371 27.309
36.828 37.4 38.558 38.168 38.033 37.635 37.623 37.843 37.953 38.085 38.188 38.275 38.463 38.473 38.418 38.39 38.458 38.578 38.678 38.828 38.91 39.06 39.225 39.445 39.685 39.763 39.735 39.828 39.933 40.06 40.17 40.25 40.343 40.43 40.468 40.535 40.668 40.69 41.028 41.385 41.015 40.978 40.988 40.968 41.008 41.088 41.178 41.363 41.35 41.333 41.345 41.413 42.143 42.153 42.173 42.203 44.198 46.843 47.22 46.85 43.623 43.32 43.373 43.408 43.543 43.645 43.748 44.02 44.183 44.045 44.083 44.125 44.32 44.408 44.46 44.738 46.55 44.965 52.153 55.4 51.175 51.115 44.835 44.84 44.855 44.993 45.153 45.395 45.51 45.408 45.653 45.88 45.895 45.925 46.008 46.363 47.013 48.323 46.65 47.555 47.965 47.513 46.958 46.408 46.435 46.493 46.51 46.555 46.603 46.625 46.655 46.678 46.705 46.713 46.713 46.738 46.758 46.788 46.79 46.785 46.815 46.875 46.863 46.898 46.845 46.853 46.85 46.87 46.895 46.873 46.948 47.495 48.608 46.948 46.89 46.913 46.943 46.71 47.763 49.328 48.468 49.093 48.118 48.033 47.15 46.93 46.588 46.463 46.44 46.42 46.423 46.4 46.38 46.373 46.368 48.108 50.098 46.773 46.828 46.37 46.26 46.305 46.363 46.443 46.445 46.423 46.335 46.338 46.245 46.178 46.095 46.023 45.955 45.86 45.82 45.803 45.73 45.84 45.831 45.806 46.288 46.138 47.243 45.836 46.051 45.536 45.726 45.788 45.698 45.558 45.338 45.373 45.193 45.133 45.076 45.063 45.036 45.018 44.981 44.926 44.903 44.858 44.796 44.816 44.773 44.731 44.686 44.631 44.583 44.551 44.531 44.636 44.538 44.391 44.331 44.263 44.188 44.158 44.151 44.376 44.353 44.046 44.011 43.953 43.881 43.828 43.808 44.526 44.343 43.586 43.488 43.446 43.288 43.156 43.556 44.368 42.808 43.058 43.608 43.083 42.616 42.628 43.798 44.088 42.313 42.361 42.136 41.603 41.563 41.503 41.861 43.796 45.451 44.096 42.043 41.006 40.998 40.976 41.003 40.938 41.518 40.841 40.751 40.776 40.748 40.868 45.733 48.368 48.138 47.271 47.026 43.346 40.653 41.756 40.278 40.161 40.068 40.163 40.381 40.063 40.056 40.121 41.006 39.991 41.578 44.031 44.238 45.496 41.231 39.781 39.783 39.808 39.866 40.611 40.471 39.903 39.838 39.903 39.661 39.803 39.923 39.326 39.298 40.223 39.793 39.531 39.573 39.603 39.536 39.873 40.681 39.576 46.763 49.073 49.923 53.156 51.591 49.378 43.986 39.913 38.993 38.928 38.916 38.843 38.798 38.756 38.693 38.843 38.593 38.458 38.448 38.921 38.571 38.213 38.238 38.993 38.108 37.761 37.713 37.673 37.661 37.646 38.083 37.428 37.266 37.241 37.171 37.076 36.968 36.883 37.026 36.861 36.781 36.493 36.403 36.331 36.231 36.098 35.998 35.856 35.721 35.593 36.698 36.066 35.498 36.218 36.671 35.643 37.308 35.316 35.173 35.036 34.838 34.738 34.618 34.448 34.281 34.138 33.981 33.821 33.703 33.603 33.463 33.363 33.298 33.201 33.083 33.023 32.966 32.848 32.701 32.566 32.476 32.376 32.228 32.096 31.976 31.873 35.486 45.341 49.676 49.803 47.468 34.163 31.786 32.538 30.746 30.513 30.363 30.211 30.116 29.958 29.843 29.711 29.721 29.611 30.838 31.818 30.013 29.181 28.906 29.918 31.203 31.276 30.256 28.661 29.981 27.838 27.846 27.891 29.054 29.201 27.009 26.859 26.806 26.709 26.519 26.441 28.759
36.583 37.128 38.223 38.203 37.848 37.505 37.505 37.69 37.815 37.965 38.165 38.21 38.158 38.12 38.25 38.345 38.535 38.693 38.813 39.003 39.413 39.218 38.945 39.258 39.498 39.735 39.873 39.885 39.965 40.033 40.163 40.243 40.35 40.443 40.605 40.7 40.64 40.763 40.885 40.9 41.048 41.058 41.025 41.023 41.09 41.175 41.265 41.428 41.378 41.365 41.355 41.48 42.148 42.118 42.095 42.203 44.603 46.875 47.23 46.788 43.283 43.28 43.335 43.405 43.54 43.673 43.738 43.835 44.105 43.89 43.878 43.91 44.25 44.363 45.13 48.325 48.42 45.63 51.253 54.368 50.97 45.365 44.81 44.82 45.11 46.515 45.32 45.498 45.66 45.503 45.508 45.785 45.858 45.9 45.988 46.215 50.848 56.578 54.85 49.573 48.348 47.668 46.835 46.383 46.408 46.465 46.5 46.53 46.573 46.61 46.635 46.655 46.655 46.64 46.685 46.683 46.708 46.73 46.74 46.783 46.788 46.838 46.855 46.858 46.848 46.828 46.83 46.838 46.855 46.845 46.885 47.16 48.033 47.028 46.928 47.32 46.97 46.77 46.408 49.028 49.688 49.703 49.725 49.738 49.755 49.765 49.333 49.208 47.53 46.48 46.488 46.46 46.458 46.548 49.393 51.215 51.1 48.435 46.735 46.403 46.32 46.29 46.373 46.443 46.458 46.44 46.4 46.34 46.288 46.205 46.115 46.108 46.035 45.885 45.858 45.873 45.895 46.803 46.288 46.013 45.973 46.021 46.416 45.891 46.041 45.708 45.931 45.971 45.948 45.976 45.763 45.696 45.451 45.353 45.221 45.873 45.226 45.021 44.968 44.896 44.896 44.911 44.748 44.713 44.738 44.681 44.641 44.588 44.588 44.578 44.531 44.468 44.463 44.396 44.363 44.278 44.256 44.228 44.103 44.088 44.058 43.986 43.988 43.876 43.791 43.826 43.816 44.076 45.033 44.933 44.553 43.953 43.278 43.258 43.606 44.178 43.063 42.798 42.798 42.881 43.263 42.656 43.936 44.883 44.533 43.776 41.978 41.673 41.606 41.568 41.963 43.828 43.501 42.818 42.748 42.128 42.013 41.868 41.163 41.136 41.016 40.918 40.846 40.803 40.808 40.868 46.266 48.513 49.283 49.401 48.726 44.638 40.591 40.923 40.368 40.286 40.216 40.561 40.853 40.581 40.278 40.483 40.741 40.151 40.008 40.006 40.068 39.938 39.958 39.866 39.891 39.883 39.931 40.668 40.281 40.006 39.966 39.938 39.886 39.828 39.563 39.431 39.816 39.881 39.783 39.638 39.701 39.681 39.628 39.931 40.781 40.068 42.921 47.161 53.038 53.163 52.871 51.586 46.513 41.446 39.131 39.036 38.978 38.946 38.921 38.861 38.786 38.723 38.618 38.531 38.471 38.386 38.316 38.176 38.291 38.918 37.998 37.796 37.768 37.726 37.693 37.696 37.901 37.343 37.348 37.308 37.223 37.123 37.031 36.958 36.866 36.808 36.641 36.513 36.441 36.368 36.418 36.153 36.031 36.006 35.773 35.621 36.661 36.151 35.641 36.206 35.591 36.041 37.448 35.308 35.108 34.988 34.883 34.766 34.648 34.488 34.331 34.158 34.013 33.846 33.713 33.591 33.483 33.376 33.273 33.191 33.078 33.028 32.953 32.883 32.728 32.613 32.498 32.376 32.238 32.093 31.948 31.968 40.986 48.531 49.653 49.616 44.981 33.381 32.076 31.163 30.666 30.496 30.326 30.156 30.066 29.928 29.806 29.691 29.863 30.591 31.683 31.831 31.206 29.203 28.613 28.216 28.678 30.068 29.008 29.408 28.871 27.823 27.851 28.309 29.546 27.726 26.816 26.761 26.784 26.659 26.539 27.231 29.666
36.55 36.793 37.712 37.76 37.592 37.474 37.539 37.67 37.908 37.89 37.958 37.91 37.978 38.108 38.29 38.368 38.578 38.715 38.78 38.888 38.838 38.735 38.835 39.178 39.438 39.583 39.83 39.885 39.963 40.035 40.19 40.218 40.325 40.43 40.525 40.655 40.653 40.828 40.828 40.93 40.993 40.878 41.023 41.11 41.058 41.075 41.038 41.085 41.515 44.028 43.3 43.055 43.07 42.028 42.04 42.698 44.513 46.945 47.185 46.743 43.393 43.22 43.3 43.42 43.535 43.64 43.715 43.768 43.803 43.825 43.86 43.95 44.513 45.838 47.425 50.913 49.248 45.305 46.32 49.093 48.22 46.908 44.868 45.025 45.163 45.193 45.333 45.503 45.965 45.618 45.453 45.69 45.828 45.885 46.025 46.855 54.135 56.213 54.473 49.705 48.163 48.088 46.388 46.358 46.383 46.4 46.443 46.493 46.518 46.558 46.553 46.58 46.608 46.638 46.645 46.673 46.683 46.73 46.755 46.78 46.798 46.8 46.825 46.825 46.828 46.843 46.823 46.813 46.803 46.818 46.843 47.018 47.56 47.063 46.915 47.823 47.1 46.79 46.47 48.785 49.545 49.538 49.59 49.578 49.595 49.608 49.67 49.663 49.805 47.995 46.523 46.503 46.53 50.268 51.328 51.288 51.298 51.165 47.128 46.453 46.868 46.545 46.338 46.468 46.5 46.478 46.433 46.355 46.263 46.255 46.22 46.205 47.778 47.873 47.928 47.773 47.773 47.65 47.643 46.753 47.103 45.943 45.803 46.141 45.688 45.636 45.593 45.581 45.546 45.503 45.441 45.388 45.371 45.348 45.303 45.301 45.208 45.178 45.136 45.111 45.648 45.556 44.953 45.011 44.816 44.798 44.668 44.568 44.548 44.506 44.476 44.418 44.406 44.371 44.343 44.313 44.286 44.218 44.168 44.121 44.068 43.996 43.921 43.833 43.796 43.701 43.643 43.563 44.291 44.343 43.683 43.398 43.198 43.826 44.903 44.928 44.083 43.591 43.378 44.811 42.981 43.206 43.996 44.011 44.778 44.968 42.123 41.798 41.738 41.688 41.971 44.351 44.693 44.646 44.508 44.458 44.301 44.138 43.998 43.743 43.161 41.431 40.953 40.911 40.916 41.128 44.368 47.276 48.988 48.641 47.588 42.633 40.653 40.568 40.451 40.363 41.023 41.891 42.373 42.701 40.943 40.843 40.341 40.353 40.201 40.201 40.338 40.558 40.198 40.013 40.091 39.978 40.081 41.036 40.093 40.111 40.088 40.026 40.188 39.938 39.681 39.841 40.438 39.981 39.821 39.713 39.851 39.793 39.706 40.028 40.176 41.446 44.521 48.533 51.776 52.676 51.343 49.458 44.778 44.943 39.478 39.101 39.056 39.031 39.021 38.943 38.858 38.803 38.723 38.601 38.508 38.426 38.328 38.221 38.801 39.161 37.858 37.811 37.801 37.773 37.733 37.736 37.738 37.378 37.371 37.301 37.231 37.126 37.621 37.851 37.311 36.836 36.648 36.523 36.428 36.378 37.356 38.248 36.031 35.916 35.978 36.168 36.788 36.201 36.238 36.361 35.973 36.831 36.981 35.248 35.133 34.973 34.888 34.781 34.643 34.501 34.331 34.168 34.011 33.858 33.746 33.656 33.518 33.396 33.318 33.236 33.088 32.981 32.913 32.851 32.733 32.616 32.503 32.366 32.223 32.088 32.706 34.926 43.411 48.571 49.163 47.838 41.161 31.063 31.028 30.866 30.676 30.566 30.363 30.156 30.018 29.873 29.763 29.703 29.798 29.926 31.111 31.688 30.466 29.328 28.463 28.211 28.098 27.963 27.913 29.246 27.938 27.841 27.899 29.359 28.756 27.001 26.789 26.754 26.736 26.629 26.569 28.734 30.031
36.551 36.712 37.071 37.374 37.38 37.476 37.575 37.664 37.828 37.761 37.718 37.858 38.053 38.183 38.13 38.325 38.648 38.725 38.833 38.943 38.843 38.705 38.813 39.105 39.355 39.625 39.83 39.905 40.005 40.088 40.16 40.193 40.298 40.38 40.51 40.598 40.708 40.788 40.803 40.835 40.848 40.843 40.96 40.975 41.035 41 40.963 41.04 41.623 44.88 44.91 44.783 43.528 42.01 41.975 42.71 44.908 47.003 47.125 46.088 43.288 43.195 43.26 43.385 43.533 43.625 43.683 43.715 43.763 43.835 43.948 44.285 48.538 49.545 50.045 51.443 49.535 46.413 44.583 44.605 44.798 44.973 45.035 45.093 45.138 45.205 45.325 45.408 45.498 45.785 45.598 45.61 46.805 46.205 46.105 46.448 51.878 53.845 53.673 53.01 49.445 47.7 46.31 46.33 46.313 46.37 46.41 46.45 46.475 46.518 46.558 46.58 46.593 46.618 46.648 46.663 46.668 46.71 46.735 46.773 46.778 46.798 46.81 46.828 46.818 46.813 46.815 46.815 46.795 46.775 46.825 47.1 48.258 47.105 46.858 46.965 46.973 46.838 46.493 47.788 48.15 48.578 49.27 49.388 49.413 49.448 49.49 49.925 50.773 50.435 47.528 47.105 50.288 51.338 51.293 51.273 51.298 51.32 50.625 47.148 47.288 46.388 46.38 46.45 46.55 46.513 46.398 46.32 46.315 46.428 46.385 47.475 49.055 48.555 48.265 47.758 47.358 46.983 47.981 48.531 48.411 48.508 48.753 46.968 48.193 48.508 48.061 47.358 46.803 46.773 46.763 46.231 46.878 46.526 45.848 45.586 45.268 45.228 45.226 45.216 45.171 45.178 45.101 45.076 45.056 45.028 45.001 44.953 44.876 44.768 44.663 44.566 44.428 44.311 44.296 44.231 44.228 44.146 44.111 44.071 43.978 43.971 43.888 43.856 43.803 43.748 43.676 43.608 43.508 43.428 43.358 43.256 43.166 43.056 42.968 43.056 43.921 43.946 43.628 44.051 42.648 43.498 44.758 45.136 45.111 44.563 42.171 41.896 41.858 41.793 42.386 43.538 43.646 44.031 44.131 44.356 44.401 44.531 44.691 44.638 44.208 42.391 41.048 41.011 41.061 41.353 42.811 47.301 49.226 48.296 45.901 41.221 40.811 40.678 40.521 40.883 42.201 42.756 44.056 45.018 42.631 41.003 40.373 40.323 40.448 40.513 40.191 40.126 40.131 40.418 40.213 40.106 41.096 40.988 40.198 40.186 40.171 40.113 40.116 39.996 39.733 39.886 40.836 40.413 39.883 39.781 39.906 39.813 39.748 39.706 39.731 39.553 41.273 48.441 49.783 50.466 49.293 46.688 40.791 40.396 39.288 39.181 39.221 39.121 39.076 39.003 38.946 38.876 38.791 38.671 38.566 38.468 38.398 38.751 40.968 39.293 37.856 37.843 37.836 37.816 37.791 37.803 37.518 37.433 37.421 37.303 37.216 37.616 38.748 38.908 39.623 39.968 37.773 37.798 39.738 39.268 36.243 36.413 37.243 38.693 37.616 36.661 36.476 38.096 38.106 38.036 38.113 38.038 36.388 35.261 35.148 35.021 34.873 34.776 34.628 34.473 34.311 34.131 33.961 33.846 33.776 33.633 33.508 33.431 33.326 33.261 33.118 32.993 32.908 32.828 32.743 32.628 32.503 32.378 32.233 32.256 34.391 39.178 45.108 48.421 47.866 44.803 36.643 31.206 31.151 30.883 30.653 30.673 30.381 30.193 30.013 29.853 29.693 29.598 29.491 29.386 29.363 29.581 29.336 29.181 28.661 28.436 28.321 28.153 28.028 27.913 27.856 27.863 28.136 29.531 28.071 26.874 26.799 26.764 26.716 26.641 27.399 29.779 30.399
36.553 36.713 36.996 37.274 37.4 37.56 37.583 37.587 37.549 37.506 37.655 37.895 38.038 38.028 38.083 38.3 38.553 38.585 38.683 38.783 38.735 38.73 38.805 39.045 39.368 39.653 39.86 39.92 39.998 40.02 40.078 40.19 40.283 40.415 40.475 40.623 40.638 40.688 40.868 40.7 40.773 40.963 41.07 41.055 41.035 40.99 41.005 41.185 42.07 44.94 44.913 44.785 42.658 41.925 41.92 42.675 46.018 47.05 47.093 45.958 43.238 43.193 43.27 43.39 43.485 43.568 43.65 43.703 43.765 44.2 47.003 46.243 50.853 54.188 49.645 48.53 45.53 45.14 44.625 44.95 44.985 45.078 45.163 45.183 45.22 45.193 45.315 45.37 45.52 48.758 47.228 45.558 45.848 45.99 45.93 46.03 47.053 53.143 56.563 58.015 54.858 47.665 46.288 46.285 46.32 46.358 46.39 46.43 46.488 46.528 46.555 46.59 46.595 46.62 46.645 46.68 46.72 46.715 46.73 46.753 46.798 46.8 46.82 46.833 46.8 46.818 46.808 46.793 46.785 46.768 46.798 47.078 48.528 47.555 46.855 46.935 46.938 46.865 46.49 46.445 46.438 46.438 46.928 49.205 49.208 49.253 50.095 51.875 51.685 51.025 50.405 50.998 51.288 51.283 51.283 51.298 51.333 51.368 51.35 49.24 46.875 46.878 46.408 46.5 46.54 46.49 46.425 46.375 46.443 47.648 48.548 48.12 47.483 46.68 46.365 46.363 46.378 46.315 46.603 47.221 46.598 46.348 46.078 45.826 46.436 46.398 47.636 47.446 47.046 46.811 48.033 47.641 47.148 48.041 48.116 48.903 47.788 48.176 47.898 47.716 46.646 46.716 46.743 45.878 46.118 46.321 45.201 45.451 45.448 44.998 44.806 45.251 44.661 44.531 44.371 44.318 44.271 44.198 44.161 44.108 44.148 44.038 43.931 43.803 43.661 43.671 43.581 43.541 43.471 43.381 43.326 43.278 43.206 43.113 43.026 42.963 42.873 42.856 42.721 42.681 42.591 42.446 42.593 42.836 43.016 42.916 42.098 42.008 41.991 41.916 42.183 42.471 42.133 42.018 42.076 42.436 42.453 42.731 43.136 43.198 43.161 41.603 41.171 41.186 41.163 41.596 44.308 47.563 49.721 48.041 45.476 41.238 40.896 40.806 43.513 42.193 42.908 42.913 44.958 44.171 41.553 40.726 40.466 40.416 40.706 40.491 40.248 40.233 40.431 40.413 40.236 40.276 40.838 40.403 40.318 40.281 40.213 40.211 40.173 40.123 39.883 40.581 41.121 40.063 39.883 39.908 39.986 39.903 39.813 39.751 39.676 39.623 40.183 44.528 45.028 46.643 45.133 40.956 40.133 39.483 39.258 39.256 39.221 39.188 39.151 39.081 39.028 38.931 38.846 38.721 38.626 38.568 38.471 39.228 40.923 38.486 37.908 37.891 37.871 37.873 37.828 37.823 37.473 37.468 37.423 37.321 38.058 40.488 42.668 42.648 43.623 44.551 42.228 41.861 45.641 45.591 39.661 41.373 42.351 44.471 43.358 38.288 36.871 38.351 38.333 38.331 38.336 37.516 35.353 35.278 35.148 35.018 34.891 34.758 34.621 34.436 34.313 34.106 33.991 33.873 33.763 33.606 33.483 33.393 33.306 33.226 33.103 33.011 32.891 32.823 32.728 32.638 32.511 32.383 32.218 33.268 34.363 42.088 47.246 48.436 46.506 42.858 33.156 31.533 31.251 30.938 30.711 30.646 30.456 30.248 30.018 29.856 29.693 29.528 29.441 29.333 29.238 29.216 29.128 29.113 29.331 28.901 28.508 28.441 28.303 28.171 28.026 27.993 28.864 28.031 26.966 26.901 26.839 26.769 26.746 26.774 29.151 30.149 30.536
36.55 36.726 36.979 37.243 37.298 37.391 37.455 37.413 37.287 37.493 37.769 37.904 37.872 37.815 37.965 38.168 38.443 38.583 38.588 38.703 38.775 38.735 38.915 39.015 39.198 39.483 39.86 39.883 40.04 40 40.053 40.185 40.27 40.34 40.438 40.543 40.618 40.953 40.885 40.753 40.725 40.96 41.05 41.043 41.01 40.978 41.028 41.023 42.84 45.053 44.893 44.768 42.408 41.913 41.918 43.83 46.185 47.088 47.058 46.195 44.76 44.71 43.558 43.433 43.528 44.4 49.465 50.698 46.885 48.268 54.02 51.328 51.785 53.748 50.045 44.413 44.7 44.53 44.758 44.913 45.04 45.143 45.15 45.168 45.243 45.333 45.338 45.458 45.56 49.195 48.185 45.608 45.675 45.923 45.94 46.078 46.073 53.185 56.61 57.178 58.168 52.733 46.365 46.32 46.325 46.355 46.4 46.42 46.468 46.515 46.575 46.598 46.61 46.605 46.645 46.698 46.71 46.713 46.743 46.763 46.78 46.78 46.798 46.808 46.8 46.805 46.818 46.818 46.818 46.79 46.813 46.933 48.143 48.573 46.9 46.913 47.35 46.92 46.52 46.443 46.418 46.463 46.518 48.35 49.08 49.805 50.623 50.785 51.79 51.568 51.038 51.258 51.238 51.295 51.293 51.323 51.348 51.34 50.705 47.878 47.063 46.82 46.44 46.475 46.585 46.57 46.47 46.42 46.52 47.15 47.85 47.47 47.405 46.36 46.345 46.355 46.325 46.29 46.248 46.418 46.268 46.043 45.941 45.896 45.888 45.891 46.153 46.183 45.841 45.743 45.741 45.866 45.773 45.761 45.796 46.493 47.466 46.481 46.228 46.023 46.451 46.393 46.508 46.971 47.561 47.336 47.848 48.236 48.568 48.228 47.388 46.283 44.796 44.731 44.613 44.491 44.393 44.341 44.373 44.381 44.368 44.521 44.253 44.223 44.101 44.018 43.871 43.756 43.558 43.523 43.336 43.273 43.156 43.021 42.961 42.893 42.811 42.748 42.723 42.616 42.603 42.521 42.428 42.418 42.338 42.243 42.183 42.153 42.091 42.021 41.963 42.056 41.996 42.191 42.146 41.998 42.093 41.896 41.793 41.898 41.528 41.411 41.348 41.303 41.256 41.313 43.441 45.396 47.571 46.756 44.526 41.391 41.038 41.201 45.946 47.321 43.123 42.498 41.743 41.816 40.831 40.576 40.508 40.513 40.531 40.383 40.346 40.351 40.476 40.393 40.341 40.401 40.891 40.391 40.373 40.358 40.318 40.286 40.266 40.161 40.038 40.736 40.813 40.598 39.966 40.038 39.996 39.901 39.831 39.788 39.726 39.703 39.656 40.378 40.783 39.941 39.463 39.493 39.896 39.516 39.328 39.306 39.253 39.248 39.208 39.168 39.111 38.986 38.878 38.793 38.703 38.631 38.528 39.481 39.793 37.978 37.953 37.926 37.918 37.891 37.851 37.783 37.536 37.523 37.463 37.356 37.866 40.573 43.871 45.768 47.876 47.091 45.606 44.683 44.133 44.353 42.161 42.283 41.523 42.788 43.318 40.453 38.683 38.361 38.198 37.718 37.583 36.816 35.348 35.278 35.206 35.073 34.923 34.771 34.631 34.468 34.316 34.226 34.053 33.923 33.761 33.591 33.456 33.333 33.226 33.173 33.071 32.986 32.871 32.781 32.696 32.616 32.506 32.348 32.198 32.826 35.006 45.348 47.628 49.001 45.546 39.161 31.683 31.681 31.211 30.938 30.716 30.908 30.736 30.273 30.083 29.858 29.646 29.461 29.346 29.258 29.176 29.078 28.926 28.783 28.663 28.548 28.516 28.528 28.521 28.448 28.306 28.326 29.514 27.101 27.184 27.156 26.851 26.766 26.734 28.074 29.904 30.509 30.389
36.567 36.75 36.962 37.088 37.125 37.24 37.309 37.087 37.187 37.616 37.773 37.839 37.81 37.742 37.833 38.105 38.355 38.495 38.563 38.718 38.773 38.75 38.82 38.988 39.063 39.36 39.693 39.743 39.91 39.95 40.058 40.19 40.22 40.278 40.403 40.525 40.598 40.72 40.84 40.76 40.75 40.85 40.993 41.033 41.018 41.038 40.945 41.095 42.658 45.068 44.908 44.228 42.14 41.855 41.885 43.83 44.495 44.263 45.33 45.418 45.315 45.248 43.878 45.483 46.793 48.718 54.18 54.915 54.145 53.915 51.728 49.095 46.978 47.283 45.715 44.598 45 44.618 44.61 44.925 45.085 45.19 45.163 45.213 45.27 45.375 45.365 45.433 45.555 46.763 46.775 45.673 45.633 45.905 45.968 46.133 46.068 50.458 55.32 58.035 57.795 54.315 46.365 46.358 46.345 46.348 46.368 46.433 46.49 46.525 46.555 46.608 46.62 46.64 46.655 46.673 46.693 46.718 46.733 46.758 46.79 46.785 46.815 46.81 46.82 46.825 46.825 46.823 46.815 46.795 46.815 46.86 47.49 48.483 46.955 46.87 46.858 47.17 47.493 48.863 47.943 46.478 46.54 47.04 48.46 49.468 50.048 50.53 50.71 51.933 51.403 50.875 51.245 51.34 51.313 51.315 51.34 49.855 46.66 46.605 47.453 47.428 46.478 46.485 46.603 46.58 46.498 46.478 46.6 48.608 48.37 47.335 46.51 46.368 46.355 46.345 46.335 46.295 46.233 46.166 46.366 46.006 45.948 45.916 45.946 46.008 46.028 46.258 45.778 45.776 45.731 45.723 45.743 45.708 45.678 45.951 46.023 45.533 45.543 45.518 45.493 45.453 45.431 45.413 45.348 45.328 45.426 45.468 47.083 47.368 47.168 47.211 46.158 44.841 44.746 44.633 44.543 44.891 45.226 44.478 44.838 46.758 46.693 47.173 49.028 47.058 46.286 45.701 45.258 45.101 44.793 44.383 44.248 43.728 43.301 43.166 42.983 43.093 42.776 42.576 42.506 42.451 42.381 42.323 42.326 42.266 42.211 42.166 42.163 42.026 42.016 41.956 41.948 41.863 41.743 41.738 41.871 41.668 41.666 41.691 41.621 41.526 41.488 41.451 41.416 41.386 41.523 42.196 41.538 41.308 41.281 41.318 41.316 42.206 43.506 43.661 42.741 41.341 41.601 41.568 40.768 40.698 40.876 40.578 40.458 40.443 40.406 40.396 40.418 40.408 40.428 40.428 40.483 40.446 40.441 40.398 40.376 41.108 46.393 45.483 43.241 42.063 40.611 40.263 40.073 40.113 40.146 39.946 39.881 39.838 39.821 39.781 39.823 40.668 40.598 39.581 39.563 39.523 39.588 39.461 39.386 39.338 39.346 39.291 39.248 39.201 39.148 39.048 38.953 38.886 38.773 38.698 39.043 39.461 39.301 38.036 37.976 37.963 37.951 37.906 37.868 37.748 37.616 37.628 38.151 39.791 38.151 46.328 50.183 50.448 47.561 49.143 45.553 43.458 43.096 40.233 38.668 38.333 40.048 39.313 39.498 43.988 40.291 35.793 35.651 35.556 35.656 35.768 35.958 35.561 35.263 35.086 34.916 34.756 34.603 34.456 34.946 34.223 36.376 38.508 33.793 33.586 33.461 33.333 33.231 33.143 33.048 32.941 32.853 32.753 32.698 32.601 32.493 32.348 32.193 32.671 37.588 46.621 48.441 48.188 44.876 34.148 31.718 31.701 31.138 30.931 30.766 30.976 30.493 30.521 30.453 29.873 29.678 29.433 29.293 29.231 29.146 28.981 28.776 28.633 28.558 28.508 28.498 28.486 28.501 28.503 28.508 29.041 30.111 27.764 26.921 26.854 26.799 26.756 26.746 28.956 30.254 30.596 30.204
36.624 36.783 36.97 37.119 36.991 37.061 36.903 36.863 37.531 37.931 37.932 37.929 37.926 37.89 37.963 37.99 38.203 38.368 38.465 38.585 38.698 38.7 38.803 39.048 39.14 39.295 39.46 39.52 39.778 39.978 40 40.098 40.128 40.208 40.33 40.518 40.603 40.653 40.715 40.775 40.688 40.778 40.935 40.985 41.02 40.99 40.965 41.075 42.665 45.053 44.913 43.975 41.798 41.82 41.823 42.805 43.898 43.073 43.275 45.163 45.893 48.798 49.803 52.063 54.425 55.025 54.365 54.153 53.395 53.793 47.068 43.978 44.15 44.923 45.105 45.223 46.008 44.655 44.555 44.828 45.06 45.18 45.208 45.225 45.255 45.335 45.41 45.498 45.605 47.515 47.425 45.788 45.758 45.818 45.978 46.053 46.073 47.405 54.258 56.998 58.58 56.885 50.533 46.373 46.373 46.363 46.373 46.408 46.48 46.54 46.565 46.613 46.61 46.66 46.648 46.678 46.673 46.698 46.738 46.763 46.805 46.82 46.825 46.808 46.843 46.825 46.815 46.803 46.815 46.793 46.795 46.81 47.355 47.99 46.978 46.575 48.203 47.88 47.935 49.348 48.313 46.58 47.313 49.48 49.375 49.21 49.63 50.25 50.458 51.055 51.895 51.283 50.963 51.318 51.34 51.375 48.585 46.585 46.58 46.588 47.19 47.218 46.783 46.495 46.57 46.563 46.503 46.515 47.813 49.295 46.638 46.353 46.363 46.355 46.338 46.315 46.3 46.238 46.203 46.133 47.018 46.438 46.258 45.963 46.126 46.436 45.968 46.328 45.763 45.783 45.726 45.736 45.688 45.701 45.681 45.663 46.043 45.558 45.548 45.546 45.561 45.538 45.471 45.448 45.421 45.471 45.531 45.536 45.571 46.283 45.961 45.668 46.763 46.601 45.001 44.693 44.643 44.791 45.313 44.628 44.633 45.001 44.993 45.091 46.451 45.728 46.698 46.996 47.223 46.146 46.763 46.821 46.446 46.596 46.526 46.408 46.131 46.851 46.206 45.291 44.613 44.716 44.943 45.988 44.866 43.526 42.401 42.688 42.748 42.226 41.916 41.836 41.843 47.203 42.843 42.906 44.341 41.703 41.711 41.681 41.641 41.573 41.556 41.571 41.483 41.468 41.446 41.466 41.431 41.431 41.396 41.453 41.423 41.588 42.811 42.926 42.908 42.916 42.603 42.778 40.978 41.298 42.681 41.853 40.821 41.028 40.596 40.598 41.253 40.811 40.958 41.471 40.641 40.331 40.468 40.416 40.963 43.588 46.498 46.713 43.146 40.628 40.926 40.293 40.158 40.173 40.173 40.061 40.016 40.041 40.033 39.916 39.926 41.431 40.016 39.663 40.921 43.558 40.408 39.511 39.471 39.831 39.378 39.338 39.286 39.226 39.178 39.093 39.018 38.938 38.831 39.621 43.846 44.021 39.573 38.016 37.996 37.983 37.953 37.913 38.016 37.716 37.698 37.643 38.926 41.091 40.383 44.033 50.686 48.246 50.878 49.518 40.306 40.053 40.668 41.603 36.721 36.511 37.976 41.403 41.798 41.018 38.216 38.541 36.591 35.593 35.506 35.886 36.406 36.111 35.846 35.441 34.941 34.746 34.603 34.466 34.311 34.193 38.108 41.051 33.798 33.601 33.478 33.396 33.261 33.148 33.038 32.926 32.848 32.766 32.673 32.588 32.471 32.308 32.121 32.498 41.048 47.793 48.853 46.846 40.766 31.733 31.668 31.766 31.171 30.928 30.753 30.673 30.581 30.691 31.058 29.813 29.643 29.443 29.268 29.203 29.076 28.841 28.671 28.613 28.548 28.483 28.468 28.461 28.466 28.471 28.451 28.716 29.724 29.774 28.904 27.049 26.829 26.791 27.561 30.026 30.599 30.541 30.951
36.648 36.791 36.945 37.132 36.932 36.675 36.534 36.862 37.905 38.213 37.986 37.944 37.926 37.951 38.05 38.183 38.313 38.408 38.513 38.56 38.585 38.703 38.845 39.035 39.105 39.198 39.35 39.235 39.645 39.958 39.988 39.983 40.093 40.095 40.248 40.393 40.623 40.688 40.678 40.653 40.615 40.658 40.803 40.945 41.045 41.02 40.995 41.075 42.565 45.063 44.903 44.073 41.73 41.77 41.808 42.103 44.533 43.608 43.465 45.903 52.073 54.168 54.91 56.175 55.35 54.753 54 51.523 49.685 48.5 45.085 44.978 45.635 45.195 45.8 45.38 45.605 45.36 44.675 44.653 45.023 45.113 45.165 45.18 45.26 45.328 45.475 45.573 45.6 45.908 46.145 45.99 45.955 45.683 45.865 45.873 45.828 47.065 53.898 56.443 57.9 57.305 53.15 46.37 46.363 46.36 46.383 46.43 46.445 46.495 46.548 46.588 46.623 46.653 46.675 46.705 46.73 46.733 46.77 46.768 46.798 46.805 46.81 46.81 46.813 46.81 46.815 46.81 46.82 46.8 46.805 46.828 47.103 48.113 47.203 48.458 49.288 49.613 50.018 49.393 48.47 49.093 51.173 50.558 49.895 49.308 49.295 49.698 50.34 50.3 51.47 51.77 51.103 51.168 51.118 48.135 46.583 46.59 46.57 46.618 47.07 47.128 46.798 46.498 46.55 46.615 46.555 46.49 48.425 48.233 47.208 46.358 46.338 46.318 46.32 46.373 46.493 46.323 46.283 46.671 46.413 47.428 47.606 48.806 49.098 48.133 46.138 45.981 45.768 45.743 45.713 45.716 45.736 45.748 45.718 45.691 46.421 45.636 45.618 45.621 46.813 47.086 45.606 45.681 45.718 45.568 45.538 45.543 46.536 46.338 45.941 45.643 46.016 47.468 46.423 44.818 44.736 44.938 47.086 44.966 44.678 44.713 44.743 44.676 44.611 44.493 44.403 44.566 44.998 44.206 43.996 44.156 43.996 44.291 44.346 44.373 44.143 44.518 44.108 44.428 44.471 45.346 46.503 44.708 45.728 44.276 44.553 51.973 51.403 47.398 42.633 42.506 42.218 42.051 41.961 41.776 42.273 41.731 41.661 41.678 41.618 41.588 41.601 41.553 41.501 41.551 41.503 41.496 41.466 41.463 41.483 41.456 41.396 41.343 41.483 41.758 41.656 41.826 42.033 41.788 41.081 41.356 42.498 42.561 42.333 41.713 41.553 41.066 41.398 42.298 41.733 41.638 40.611 40.461 40.433 40.411 40.396 41.331 45.163 48.251 40.583 41.918 40.938 40.373 40.258 40.226 40.226 40.083 40.076 40.138 40.418 41.496 40.288 41.466 39.838 39.753 43.056 45.441 42.048 39.546 39.498 41.208 39.528 39.388 39.348 39.278 39.193 39.096 39.026 38.941 38.886 41.423 49.596 50.406 42.518 38.013 37.998 37.998 37.971 37.953 37.953 37.738 37.731 38.121 41.218 40.166 42.211 42.406 51.311 52.651 47.601 42.713 39.836 38.671 39.701 41.501 36.653 37.091 38.563 42.366 39.998 36.073 37.523 43.758 41.778 40.128 39.583 36.113 36.581 36.133 36.133 36.068 35.391 34.816 34.591 34.476 34.316 34.223 34.053 33.881 33.808 33.641 33.503 33.383 33.266 33.156 33.011 32.893 32.821 32.733 32.666 32.526 32.378 32.228 32.053 35.266 45.643 48.496 48.351 45.076 36.948 31.581 31.753 31.628 31.291 30.941 30.751 30.788 30.753 30.478 30.293 29.818 29.626 29.451 29.286 29.146 29.003 28.791 28.643 28.586 28.556 28.501 28.453 28.421 28.406 28.393 28.366 28.293 28.324 28.301 28.901 29.424 27.189 27.456 29.939 30.506 30.731 30.319 31.226
36.672 36.81 36.979 37.086 36.656 36.211 36.372 37.083 37.768 38.001 37.921 37.954 37.912 37.987 38.137 38.242 38.35 38.4 38.5 38.515 38.58 38.65 38.71 38.898 39.358 39.318 39.17 38.988 39.718 39.963 39.985 39.99 40.02 40.078 40.235 40.378 40.805 40.845 41.14 40.718 40.503 40.578 40.738 40.925 41.003 41.05 41.005 41.14 42.36 45.04 44.895 44.16 41.68 41.723 41.81 41.868 43.535 44.598 44.538 45.453 51.838 54.078 55.538 54.883 53.813 52.83 51.29 45.31 43.973 44.335 44.78 45.32 45.658 44.603 45.393 45.455 44.855 45.413 44.808 44.608 44.848 45.075 45.12 45.223 45.28 45.42 45.48 45.498 45.543 45.74 45.715 45.94 45.965 45.713 45.77 45.9 45.985 46.668 49.508 54.4 56.655 57.86 51.46 46.435 46.4 46.38 46.41 46.44 46.453 46.485 46.55 46.583 46.635 46.673 46.675 46.693 46.713 46.725 46.74 46.753 46.785 46.793 46.788 46.813 46.813 46.8 46.795 46.808 46.815 46.8 46.785 46.813 47.115 49.2 50.748 49.53 49.56 50.618 51.063 50.155 49.16 51.073 51.483 51.05 50.4 49.72 49.343 49.303 49.853 50.538 50.51 51.828 51.6 50.935 50.205 46.608 46.603 46.565 46.573 46.58 46.733 47.178 46.84 46.528 46.59 46.63 46.615 46.525 47.483 48.043 47.24 46.395 46.305 46.238 46.31 46.463 46.463 46.49 46.453 47.018 47.751 48.478 48.906 49.158 50.061 51.916 47.391 45.926 46.061 45.931 45.693 46.361 46.061 46.646 45.673 45.728 45.833 45.788 45.713 46.261 48.903 49.636 49.323 49.113 48.878 45.511 45.483 45.578 47.043 45.431 45.333 45.283 45.188 45.768 46.556 44.833 44.771 45.586 47.156 45.043 44.761 44.778 44.878 44.748 44.718 44.591 44.491 44.478 45.068 44.218 44.103 44.016 43.946 43.916 43.833 43.823 43.783 43.713 43.663 43.626 43.921 44.183 43.516 43.578 44.178 44.836 46.608 53.028 54.663 51.333 45.826 46.418 42.791 42.766 45.213 48.578 44.868 42.508 42.343 42.171 41.988 41.701 41.686 41.571 41.528 41.461 41.471 41.518 41.511 41.521 41.516 41.448 41.481 41.471 41.408 41.381 41.366 41.316 41.296 41.248 41.208 41.253 41.488 41.598 41.776 42.066 42.423 42.741 42.433 42.566 42.591 42.358 41.636 41.611 40.856 40.811 40.571 40.668 45.096 43.781 40.723 40.818 40.561 40.443 40.348 40.286 40.378 40.168 40.143 40.126 40.658 40.976 40.746 41.846 39.986 39.856 40.336 42.731 40.143 39.621 39.656 42.463 40.033 39.468 39.373 39.266 39.203 39.138 39.073 39.016 38.926 43.906 50.286 50.626 41.808 38.051 38.011 38.011 37.983 38.053 37.936 37.788 37.931 39.621 39.773 39.538 43.223 49.391 46.596 48.648 39.211 37.728 37.248 36.966 36.831 36.841 36.853 38.638 41.456 37.363 36.273 36.181 36.608 40.948 40.061 44.641 45.281 39.506 36.951 36.626 37.073 36.141 36.023 35.541 34.696 34.446 34.296 34.126 34.021 33.826 33.756 33.606 33.496 33.363 33.251 33.138 32.998 32.903 32.833 32.746 32.656 32.513 32.336 32.163 32.313 39.758 47.421 49.646 48.211 44.403 34.366 31.638 31.666 32.308 31.241 30.903 30.728 30.588 30.451 30.231 30.056 29.846 29.688 29.473 29.298 29.173 29.111 30.901 32.496 29.276 28.553 28.513 28.483 28.431 28.418 28.346 28.326 28.318 28.269 28.216 28.521 27.589 26.896 29.104 30.584 31.339 30.926 30.139 29.504
36.707 36.841 36.945 36.537 36.096 36.104 36.556 37.314 37.69 37.777 37.828 37.951 38 38.034 38.162 38.231 38.368 38.435 38.448 38.53 38.663 38.82 38.815 38.81 38.75 39.123 38.925 38.915 39.458 39.945 39.978 40.103 40.033 39.975 40.13 40.313 40.658 40.928 40.858 40.723 40.533 40.615 40.768 40.905 40.975 41.063 41 41.088 42.265 45.05 44.895 44.285 41.678 41.715 41.805 41.858 42.155 43.713 43.843 43.773 48.785 52.858 53.093 52.448 49.06 45.515 44.468 43.958 44.27 45.085 45.158 45.738 45.048 44.413 46.788 46.338 45.643 45.93 45.283 44.755 44.758 45.023 45.508 45.223 45.328 45.36 45.413 45.52 45.775 45.685 45.59 45.59 45.635 45.818 45.95 46.02 46.05 46.88 46.343 50.738 54.905 56.03 52.825 46.81 46.438 46.413 46.403 46.435 46.465 46.495 46.543 46.583 46.603 46.628 46.675 46.693 46.715 46.728 46.73 46.728 46.75 46.765 46.785 46.798 46.793 46.798 46.803 46.778 46.793 46.818 46.92 47.42 47.41 49.005 48.12 49.745 50.88 51.02 51.085 50.893 50.095 50.58 51.21 51.523 50.918 50.263 49.59 49.213 49.355 50.025 50.5 50.505 51.83 50.705 47.305 46.585 46.585 46.603 46.58 46.58 46.77 47.768 47.203 46.558 46.565 46.638 46.64 46.53 47.38 48.04 48.095 46.33 46.25 46.195 46.17 47.383 47.958 47.035 47.878 49.596 50.428 50.653 50.881 52.743 52.948 53.601 50.003 45.943 47.496 46.226 45.696 46.453 46.216 46.861 47.748 48.353 46.163 48.501 51.053 52.146 52.533 52.943 52.001 50.476 50.106 45.823 45.858 45.973 45.841 45.456 45.401 45.326 45.231 45.671 46.133 44.871 44.833 45.571 47.438 45.036 44.891 44.858 44.828 44.776 44.713 44.661 46.488 45.251 45.501 44.301 44.188 44.101 44.066 44.021 43.953 43.951 43.916 43.848 43.801 43.751 43.701 43.948 44.358 43.371 44.278 45.723 47.043 51.586 52.941 52.366 47.423 52.281 45.893 42.908 43.278 48.236 43.086 42.658 42.668 42.536 42.573 42.666 42.703 42.538 42.681 42.326 42.163 41.786 41.741 41.578 41.398 41.336 41.351 41.301 41.348 41.351 41.346 41.361 41.303 41.251 41.201 41.243 41.238 41.231 41.193 41.156 41.306 41.168 41.238 41.533 41.521 41.236 41.673 41.766 41.638 41.871 41.938 41.911 41.163 40.611 41.446 41.103 40.943 40.526 40.461 40.386 40.473 40.828 40.796 40.153 40.188 41.278 42.313 41.673 40.028 39.908 39.853 39.806 39.936 39.693 39.696 41.246 41.331 39.978 39.403 39.293 39.238 39.198 39.096 39.013 38.953 40.363 45.288 44.726 38.093 38.078 38.051 38.036 38.116 38.173 37.938 37.851 38.036 40.086 41.643 45.726 43.198 44.696 40.353 37.413 37.113 37.011 37.006 36.901 36.813 36.731 36.656 38.526 40.568 36.931 36.331 36.651 36.293 36.163 36.398 39.366 40.356 36.868 38.321 39.941 39.018 37.586 36.236 36.038 35.538 34.766 34.263 34.121 33.991 33.833 33.706 33.598 33.451 33.338 33.218 33.098 32.976 32.893 32.811 32.738 32.628 32.458 32.291 32.433 34.736 43.178 47.756 48.728 46.178 41.136 31.591 31.378 31.386 31.361 31.081 30.873 30.711 30.561 30.333 30.166 29.998 29.848 29.683 29.423 29.266 29.181 29.546 33.911 34.621 34.588 30.513 28.563 28.471 28.423 28.366 28.328 28.323 28.316 28.344 28.204 28.134 27.156 27.266 29.849 31.001 31.494 30.769 29.964 29.276
36.713 36.814 36.586 35.945 35.738 36.122 36.878 37.331 37.578 37.735 37.828 37.961 37.934 37.997 38.187 38.168 38.323 38.46 38.515 38.555 38.603 38.785 38.965 38.948 38.893 38.85 38.763 38.76 39.24 39.893 39.893 40.003 40.07 39.953 40.065 40.223 40.425 40.513 40.723 40.67 40.555 40.63 40.768 40.878 40.963 41.103 41.173 41.26 41.755 43.05 43.033 43.055 41.715 41.753 41.81 41.913 42.013 42.118 42.27 42.503 44.16 46.56 45.84 46.805 43.79 43.815 43.963 44.005 44.203 44.343 45.3 45.08 45.6 44.55 44.623 45.07 44.885 49.3 48.57 46.44 44.693 44.913 45.243 45.305 45.283 45.37 45.458 45.505 45.75 45.593 45.485 45.608 45.778 45.92 46.04 45.99 46.015 46.068 46.108 47.78 53.095 53.975 53.103 49.05 46.593 46.453 46.44 46.465 46.458 46.493 46.525 46.573 46.593 46.628 46.658 46.693 46.685 46.7 46.695 46.71 46.733 46.76 46.79 46.81 46.813 46.818 46.835 46.84 47.018 47.42 47.84 47.985 47.443 49.42 49.853 51.378 50.898 50.928 51.015 51.148 50.868 50.118 50.698 51.39 51.353 50.763 50.125 49.418 48.963 49.468 50.173 50.715 51.138 48.643 47.018 46.628 46.615 46.588 46.585 46.568 46.568 47.05 46.75 46.555 46.593 46.663 46.678 46.555 47.178 49.223 47.45 46.273 46.198 46.145 46.068 49.235 50.213 51.695 52.586 53.008 51.016 50.203 49.648 50.393 52.178 53.451 52.331 45.961 46.071 46.426 46.876 48.643 49.498 51.873 52.278 52.678 49.521 50.903 53.671 53.831 53.883 53.773 51.836 49.058 48.713 47.481 47.081 47.451 46.431 45.476 45.461 45.388 45.368 47.071 46.286 44.868 44.863 45.538 46.491 44.908 44.823 44.841 47.076 47.143 46.616 49.071 51.343 46.186 44.873 44.418 44.206 44.161 44.146 44.103 44.046 44.023 44.008 43.958 43.898 43.853 43.798 43.756 44.118 45.198 48.313 47.008 48.008 51.531 52.198 49.698 44.571 51.693 47.928 42.548 42.648 45.496 43.836 43.141 42.666 42.301 42.531 42.283 42.336 42.331 42.403 42.613 42.538 42.403 42.483 42.363 42.246 42.203 42.073 41.856 41.681 41.441 41.348 41.321 41.171 41.146 41.271 41.283 41.203 41.201 41.191 41.186 41.206 41.168 41.163 41.068 41.091 45.168 41.021 40.981 40.896 40.888 40.878 40.913 40.761 40.693 40.958 41.061 40.766 40.606 43.758 45.251 43.351 42.043 43.176 40.968 40.748 44.108 42.843 41.373 40.136 40.048 39.948 39.833 39.808 39.766 39.768 39.671 39.668 39.616 39.778 39.611 39.268 39.221 39.653 41.736 40.828 40.661 43.138 40.736 38.123 38.118 38.088 38.053 38.361 38.316 38.018 37.968 39.963 40.008 39.801 44.971 44.746 41.841 40.738 38.986 37.108 37.041 37.008 37.398 37.676 37.181 36.913 36.783 36.441 36.493 38.031 38.146 36.963 36.393 36.233 36.036 36.103 38.008 37.936 40.813 43.481 40.443 36.843 35.703 35.418 35.448 34.533 34.131 33.968 33.816 33.676 33.566 33.466 33.331 33.196 33.086 32.986 32.901 32.776 32.678 32.558 32.421 32.496 33.506 36.126 45.083 48.486 48.433 44.668 35.611 31.431 31.348 31.241 31.133 30.988 30.811 30.693 30.541 30.286 30.096 29.938 29.823 29.591 29.396 29.266 29.641 33.156 34.603 34.666 34.746 34.641 30.663 29.263 28.408 28.351 28.308 28.308 28.336 28.494 28.616 27.826 27.124 28.761 30.574 31.379 31.196 30.336 28.941 28.204
36.078 35.904 35.683 35.495 35.643 36.257 37.007 37.404 37.559 37.763 37.857 37.943 37.97 37.99 38.114 38.228 38.295 38.463 38.69 38.685 38.563 38.688 38.818 38.863 38.84 38.798 38.768 38.715 39.11 39.925 39.958 39.973 40.015 39.99 40.1 40.083 40.328 40.48 40.598 40.77 40.69 40.573 40.643 40.708 40.78 41.088 41.32 41.308 41.313 41.343 41.463 41.613 41.713 41.785 41.875 41.99 42.038 42.095 42.168 42.278 44.51 44.303 43.91 43.985 43.883 43.845 44.215 43.97 43.905 44.48 46.155 45.61 45.583 44.568 45.185 44.748 45.403 49.583 48.6 45.398 44.73 44.815 45.308 45.513 45.288 45.368 45.418 45.378 45.37 45.51 45.66 45.925 46.008 45.888 45.995 46 46.095 46.225 46.203 46.143 47.193 52.733 55.82 56.155 49.745 46.453 46.438 46.455 46.443 46.465 46.508 46.548 46.57 46.593 46.613 46.635 46.658 46.695 46.715 46.733 46.758 46.763 46.79 46.833 46.848 46.868 46.925 47.393 48.163 48.303 48.33 47.998 47.378 48.403 47.835 49.27 50.89 50.89 50.953 51.065 51.025 50.663 50.248 50.875 51.498 51.253 50.605 48.783 48.26 48.948 49.613 48.928 47.428 47.228 46.643 46.638 46.613 46.613 46.603 46.553 46.535 47.28 47.018 46.58 46.585 46.628 46.65 46.598 46.695 48.728 47.98 46.255 46.185 46.143 46.085 51.21 53.635 54.073 54.461 54.651 49.151 47.591 47.228 47.258 48.411 52.483 51.821 47.333 46.441 48.383 49.931 50.736 53.478 53.711 53.876 53.976 53.806 48.728 53.131 52.743 52.348 51.786 49.563 46.331 46.531 47.538 46.626 46.383 45.793 45.681 45.576 45.448 45.316 46.288 47.028 44.908 44.883 45.453 47.176 45.248 44.786 45.871 50.311 51.006 51.531 52.398 53.031 51.821 44.693 44.411 44.233 44.181 44.136 44.146 44.091 44.078 44.061 44.051 44.046 43.996 43.946 43.881 46.573 49.341 48.863 46.431 44.513 48.568 50.248 47.323 42.958 45.848 43.106 42.711 43.013 43.553 43.016 42.308 42.371 42.258 42.551 42.243 42.161 42.191 42.176 42.233 42.118 42.031 42.091 42.156 42.193 42.178 42.243 42.141 42.173 42.936 42.196 42.008 41.821 41.746 41.671 42.123 41.386 41.193 41.163 41.108 41.058 41.073 41.146 41.116 41.558 44.978 41.103 41.041 41.018 40.976 40.891 40.923 40.876 40.776 40.801 40.766 40.733 40.666 41.973 41.901 45.253 43.176 42.628 42.041 41.938 42.261 42.483 41.981 41.698 41.166 41.251 40.313 39.881 39.871 39.908 40.893 40.488 39.748 40.871 40.346 39.323 39.438 41.456 42.903 43.113 42.838 41.543 38.481 38.123 38.158 38.136 38.093 38.228 38.151 37.996 37.878 39.196 40.223 37.976 40.668 43.078 39.353 38.688 37.688 37.201 38.363 40.123 38.871 37.133 37.168 36.841 36.573 36.578 36.558 36.651 37.911 39.293 36.853 37.298 36.053 37.363 37.881 38.148 39.681 41.503 35.446 37.351 36.326 35.698 36.001 35.618 34.961 34.286 33.866 33.666 33.556 33.448 33.318 33.193 33.071 32.963 32.858 32.768 32.623 32.513 32.366 32.706 34.228 40.276 46.906 49.196 46.281 41.013 33.113 32.013 31.318 31.193 31.051 30.886 30.738 30.613 30.476 30.298 30.071 29.898 29.758 29.526 29.361 29.283 30.801 34.513 34.648 34.683 34.773 32.636 31.633 32.176 29.543 28.413 28.303 28.276 28.196 28.399 28.421 27.381 27.649 29.741 30.964 31.429 30.751 29.796 28.136 28.501
35.253 35.223 35.212 35.29 35.561 36.333 37.168 37.676 37.673 37.772 37.83 37.875 38.162 38.063 38.098 38.174 38.216 38.563 38.235 38.245 38.303 38.593 38.833 38.883 38.89 38.755 38.733 38.723 38.863 39.893 40.045 40.055 40.043 40.063 40.103 40.118 40.373 40.533 40.613 40.723 40.798 40.855 40.805 40.758 40.843 41.113 41.313 41.305 41.305 41.358 41.51 41.635 41.743 41.85 42.075 42.075 42.093 42.14 42.188 42.33 45.543 47.393 44.503 44.355 44.115 43.92 43.86 43.93 44.25 44.095 45.043 44.753 44.818 44.935 45.158 44.59 44.84 45.61 44.698 44.775 44.77 44.753 44.983 45.248 45.293 45.298 45.213 45.34 45.473 45.628 45.668 45.875 46.155 46.048 46.18 46 46.01 46.76 46.493 46.163 47.563 54.023 55.678 56.99 51.52 47.265 46.465 46.455 46.438 46.47 46.478 46.52 46.55 46.578 46.61 46.638 46.675 46.7 46.723 46.748 46.775 46.785 46.88 46.925 46.91 46.935 46.913 47 47.658 47.905 47.878 47.685 47.225 47.54 47.393 47.583 48.933 50.79 50.923 50.958 51.125 51.063 50.148 50.373 51.03 51.485 49.028 48.703 48.713 48.448 47.373 46.725 46.693 46.648 46.648 46.66 46.588 46.59 46.598 46.608 46.555 46.685 46.855 46.568 46.535 46.633 46.673 46.608 46.603 48.218 48.103 46.31 46.198 46.158 46.088 50.023 54.663 54.473 54.018 53.576 50.756 46.226 47.063 46.611 48.433 52.636 53.223 48.798 46.723 48.801 50.263 50.481 53.788 53.226 52.848 52.441 52.018 47.596 51.488 51.168 49.498 46.666 48.071 46.343 46.418 46.513 47.063 47.446 49.831 52.256 50.406 45.831 45.381 47.066 47.081 44.916 44.901 45.378 46.678 45.053 45.308 49.018 51.278 52.301 53.151 53.388 52.888 51.681 46.693 44.451 44.291 44.193 44.161 44.156 44.118 44.091 44.096 44.113 44.136 44.171 44.136 44.011 49.278 44.623 47.346 49.741 43.678 44.243 46.456 43.043 42.996 42.881 42.886 42.878 42.718 42.853 42.506 42.386 42.446 42.311 42.416 42.331 42.161 42.176 42.211 42.063 42.088 42.048 42.106 42.106 42.103 42.321 41.886 41.933 42.543 42.668 42.323 42.293 41.636 41.996 41.718 42.621 41.833 41.973 41.951 41.791 41.616 41.581 41.313 41.196 41.101 41.586 40.953 40.926 40.948 41.853 40.891 40.858 40.876 40.871 40.828 40.761 40.786 40.783 40.688 40.646 40.543 40.501 40.661 40.951 41.701 42.663 44.533 42.181 41.906 42.293 42.343 42.186 40.896 39.951 40.796 41.078 41.463 40.273 39.623 39.521 39.363 39.246 40.811 43.098 42.581 42.346 41.103 38.263 38.186 38.176 38.176 38.133 38.111 38.083 38.021 38.168 41.276 45.618 42.368 37.516 37.846 37.446 37.451 37.388 37.278 41.086 46.101 44.326 38.251 42.728 37.763 39.158 36.703 36.618 36.553 37.346 39.503 37.606 36.701 36.068 40.623 36.018 36.443 35.828 36.903 34.991 36.211 41.483 43.558 39.266 35.476 35.083 35.243 34.931 34.471 33.913 33.471 33.331 33.196 33.071 32.966 32.848 32.741 32.601 32.673 32.306 34.728 37.016 41.278 47.453 48.266 45.106 35.173 32.063 31.366 31.316 31.208 31.038 30.871 30.691 30.516 30.381 30.218 29.996 29.876 29.683 29.493 29.393 30.083 34.198 34.593 34.688 34.728 34.193 31.526 32.011 32.593 33.158 31.813 28.611 28.201 28.073 27.981 27.616 27.299 27.694 27.194 29.506 30.281 30.339 28.579 28.209 28.544
35.161 35.124 35.165 35.219 35.505 36.351 37.21 37.757 37.765 37.772 37.796 37.874 37.921 37.936 38.04 38.117 38.159 38.329 38.168 38.245 38.303 38.568 38.9 38.85 38.86 38.713 38.71 38.735 38.84 39.71 39.998 40.07 40.053 40.06 40.138 40.198 40.385 40.49 40.58 40.643 40.703 40.773 40.803 40.808 40.915 41.123 41.248 41.283 41.333 41.395 41.548 41.808 42.023 42.103 42.203 42.163 42.128 42.178 42.2 42.228 42.4 43.828 45.495 44.73 44.57 44.118 44.058 44.058 44.005 43.948 44.26 44.693 44.698 45.273 45.748 45.203 44.755 44.678 44.713 44.755 44.803 44.808 44.86 45.055 45.043 45.178 45.368 45.443 45.473 45.563 45.605 45.695 45.815 46.548 46.973 46.19 45.988 46.323 46.465 46.17 46.908 51.885 55.09 57.068 57.453 52.225 46.498 46.48 46.428 46.445 46.475 46.525 46.573 46.605 46.675 46.778 46.913 46.97 47.343 47.718 47.153 46.795 46.848 46.865 46.885 46.873 46.908 46.955 47.153 47.513 47.658 47.485 47.205 47.15 47.245 47.505 47.248 50.283 50.915 50.943 50.978 51.005 50.91 50.063 50.193 48.45 46.753 48.418 48.068 46.828 46.728 46.718 46.705 46.665 46.638 46.608 46.6 46.61 46.585 46.548 46.558 46.57 46.548 46.543 46.56 46.615 46.673 46.685 46.795 48.013 48.505 46.573 46.208 46.168 46.11 47.245 52.98 52.543 52.573 50.998 48.703 46.186 46.426 46.691 48.183 52.151 53.003 48.693 46.226 47.936 48.161 47.901 51.031 50.498 50.206 50.918 50.538 47.853 47.556 47.396 46.063 45.986 47.416 46.598 45.821 45.836 46.271 48.076 50.776 52.771 51.858 46.398 45.436 46.963 46.886 44.976 44.908 45.366 47.496 46.951 46.656 49.526 53.016 53.461 52.908 51.941 50.908 47.408 45.063 44.771 44.366 44.233 44.173 44.176 44.123 44.118 44.186 44.166 44.183 44.241 45.741 44.448 45.463 51.303 50.541 46.963 43.888 45.373 43.218 43.238 43.646 43.248 42.916 42.833 42.731 42.633 42.903 43.043 42.398 42.393 42.603 42.331 42.263 42.306 42.263 42.203 42.133 42.151 42.098 42.121 42.108 41.941 41.896 41.986 43.276 43.951 42.268 43.263 41.576 41.528 41.618 41.868 41.491 41.538 41.523 41.751 41.553 41.628 43.048 42.601 42.441 41.536 41.506 41.631 41.376 41.046 40.888 40.833 40.796 40.751 40.776 40.786 40.716 40.683 40.691 40.616 40.568 40.528 40.498 40.468 40.626 43.203 41.896 40.186 40.118 40.303 40.803 40.433 39.876 39.813 40.228 41.108 41.558 41.598 41.338 41.051 40.708 40.548 40.148 40.251 39.941 40.591 40.951 38.773 38.558 39.336 38.283 38.186 38.138 38.131 38.083 38.343 42.451 42.253 44.306 42.966 40.626 37.323 37.211 37.213 37.191 38.008 46.911 47.276 43.356 44.356 46.243 43.181 39.368 38.083 36.658 38.851 38.476 40.326 40.108 36.023 36.006 39.496 35.498 36.258 35.903 35.226 35.581 39.506 42.846 37.386 35.533 35.038 35.456 35.231 35.018 34.931 34.571 33.763 33.411 33.131 32.936 32.833 32.696 32.553 32.418 32.236 32.798 34.681 44.671 48.513 47.318 40.308 37.906 34.466 31.311 31.243 31.156 30.998 30.821 30.653 30.488 30.313 30.146 29.958 29.781 29.618 29.461 29.383 31.466 34.493 34.648 34.718 34.773 32.088 31.796 32.381 32.991 33.143 32.583 28.833 28.148 27.951 27.741 27.469 27.269 27.154 27.161 29.254 29.776 28.346 27.164 28.511 28.126
35.222 35.084 35.119 35.199 35.484 36.224 37.128 37.756 37.777 37.783 37.812 37.859 37.921 37.968 38.039 38.123 38.2 38.378 38.143 38.215 38.325 38.55 38.97 38.888 38.903 38.763 38.718 38.723 38.825 39.675 39.938 40.05 40.173 40.073 40.168 40.263 40.408 40.54 40.588 40.663 40.738 40.768 40.803 40.818 40.91 41.078 41.173 41.243 41.333 41.635 41.948 42.11 42.163 42.3 42.308 42.25 42.148 42.18 42.188 42.718 43.63 43.71 46.44 44.633 44.963 44.523 44.563 44.315 44.17 44.02 44.018 44.14 44.318 44.705 46.533 45.745 44.815 44.733 44.68 44.745 44.765 44.705 44.793 44.918 45.178 45.225 45.338 45.415 45.47 45.735 45.953 45.633 45.755 46.203 47.148 46.648 45.975 46.043 46.35 46.313 46.178 49.548 54.603 56.923 57.843 56.02 47.848 46.438 46.445 46.465 46.693 46.99 47.343 47.448 47.383 47.633 47.708 47.525 47.593 47.458 47.005 46.803 46.835 46.88 46.888 46.928 46.928 46.93 46.955 47.073 47.698 47.758 47.618 47.118 47.228 47.413 47.12 47.188 50.285 50.908 50.933 51.038 51.108 50.8 47.738 46.703 46.595 47.203 46.95 46.685 46.735 46.8 46.845 46.778 46.65 46.678 46.645 46.598 46.573 46.533 46.598 46.565 46.545 46.58 46.585 46.675 46.68 47.525 47.395 47.185 49.015 46.57 46.245 46.198 46.163 46.525 48.765 48.838 49.126 47.191 46.293 46.208 46.136 46.181 46.156 47.731 47.018 46.096 46.581 45.971 45.953 45.938 46.253 46.108 46.263 47.006 46.501 46.511 46.318 46.593 45.928 45.943 45.831 45.741 45.716 45.998 47.571 47.838 50.711 52.556 52.301 46.861 45.456 46.876 46.668 44.966 44.933 45.568 49.528 49.586 48.666 46.546 53.141 52.141 51.156 49.408 47.928 45.356 44.626 44.598 44.758 44.246 44.166 44.386 44.236 44.778 46.438 45.188 44.288 46.313 48.178 46.726 44.346 50.523 48.068 43.966 44.926 45.201 43.701 44.013 43.458 44.858 43.211 43.033 43.873 42.996 42.816 42.768 42.501 42.446 42.366 42.363 42.328 42.263 42.248 42.256 42.211 42.186 42.163 42.181 42.061 41.991 41.881 41.846 42.718 44.786 47.303 45.131 45.386 41.561 41.576 43.773 41.541 41.496 41.428 42.143 41.683 42.183 44.086 41.778 43.773 41.451 41.546 44.176 44.741 41.748 41.726 41.616 41.456 41.283 41.106 40.913 40.746 40.666 40.563 40.528 40.551 42.338 40.481 40.468 40.391 40.343 40.281 40.208 40.188 40.071 40.023 39.983 39.891 39.801 39.751 39.696 39.773 39.996 39.728 40.231 40.728 40.936 40.766 41.258 41.288 41.296 42.553 39.018 38.806 39.556 42.328 38.376 38.153 38.443 38.606 39.713 42.111 45.321 43.893 42.026 40.056 37.863 37.868 37.253 37.091 37.993 39.731 40.571 42.276 42.288 44.866 43.138 38.163 37.713 37.516 38.048 40.203 45.023 42.128 35.811 35.968 39.418 35.233 35.203 35.763 35.381 35.596 36.853 39.648 35.626 34.941 37.103 36.518 35.631 34.551 34.276 34.418 34.316 34.313 33.963 33.446 32.846 32.676 32.493 32.353 32.198 32.021 37.333 46.871 48.268 46.418 31.538 32.251 31.386 31.306 31.203 31.091 30.893 30.746 30.596 30.406 30.251 30.061 29.913 29.736 29.593 29.471 30.098 34.478 34.621 34.691 34.758 33.408 31.666 32.138 32.763 33.218 32.858 30.471 28.253 28.041 27.856 27.661 27.421 27.269 27.164 27.236 27.951 28.326 27.486 27.954 28.571 27.564
35.251 35.072 35.088 35.13 35.343 36.191 37.154 37.698 37.81 37.817 37.827 37.852 37.947 37.997 38.075 38.12 38.162 38.289 38.103 38.175 38.278 38.443 38.845 38.863 38.885 38.778 38.733 38.713 38.835 39.593 39.965 40.008 40.14 40.098 40.135 40.29 40.388 40.573 40.625 40.623 40.705 40.775 40.838 40.885 40.963 41.098 41.188 41.385 41.995 42.123 42.125 42.105 42.185 42.235 42.243 42.318 42.31 42.203 42.6 44.323 46.53 44.808 44.695 44.718 44.665 44.073 44.308 44.058 44.1 44.07 44.178 44.108 44.228 44.41 45.385 44.425 44.67 44.69 44.713 44.505 44.57 44.755 44.87 45.11 45.125 45.19 45.285 45.395 45.453 45.55 45.658 45.743 45.738 45.933 46.975 48.04 46.31 45.88 46.16 47.395 46.54 47.313 52.703 55.835 56.238 56.59 49.938 46.815 46.835 46.835 47.32 47.68 47.715 47.77 47.648 47.638 47.243 47.133 46.853 46.828 46.825 46.835 46.868 46.903 46.945 46.955 46.97 46.98 46.978 46.993 47.483 47.925 48.088 47.14 47.288 48.268 47.9 47.07 48.158 50.475 50.938 50.968 50.993 51.023 48.788 46.6 46.613 46.643 46.693 46.765 47.215 49.303 47.835 46.79 46.73 46.863 46.625 46.61 46.588 46.568 46.583 46.555 46.558 46.565 46.608 46.66 46.718 47.033 47.048 46.765 48.96 47.123 46.673 46.265 46.225 46.195 46.27 46.225 46.303 46.353 46.193 46.131 46.133 46.116 46.096 46.306 46.191 46.103 46.053 46.028 45.978 45.988 45.961 45.998 46.158 45.928 46.256 46.538 46.346 45.936 45.791 45.776 45.748 45.753 45.803 47.738 51.516 51.921 52.353 52.796 53.148 47.928 45.458 46.076 46.618 44.963 44.946 45.423 49.101 48.998 48.253 45.171 49.281 49.693 47.763 47.591 46.696 45.076 44.771 46.923 46.301 44.261 44.178 44.466 44.673 47.211 47.806 48.876 46.958 47.101 48.346 47.873 45.478 45.566 46.703 43.938 44.083 44.008 43.541 43.201 43.401 44.573 43.703 43.081 43.096 43.001 42.883 42.901 42.613 42.541 42.546 42.418 42.333 42.258 42.258 42.276 42.238 42.236 42.216 42.253 42.196 42.038 41.933 41.916 41.891 42.776 48.271 44.161 41.723 41.976 43.493 50.623 41.638 41.601 41.521 41.481 41.403 41.401 41.316 41.386 42.011 41.421 42.841 41.528 41.253 41.308 41.236 41.746 41.271 41.341 41.391 42.236 41.388 41.483 41.288 41.096 40.846 41.031 40.526 40.406 40.298 40.273 40.263 40.251 40.161 42.233 41.533 40.066 39.958 39.891 39.766 39.658 39.561 39.578 39.746 39.573 42.418 47.616 39.238 39.663 40.213 40.416 40.433 40.656 40.076 40.033 39.308 39.711 39.211 38.771 41.106 43.623 42.868 43.248 41.376 40.808 39.048 37.693 38.351 37.333 38.666 37.061 36.996 36.943 36.858 36.748 43.661 43.178 38.756 38.293 39.623 40.428 37.133 41.116 37.126 36.006 35.636 36.253 39.116 35.176 35.081 34.981 35.053 34.841 35.136 35.216 36.708 36.533 37.421 35.171 34.413 34.973 34.473 34.498 34.196 34.436 33.848 33.358 32.946 32.578 32.308 32.141 31.993 40.676 48.293 47.138 44.773 32.308 32.983 31.371 31.311 31.191 31.016 30.848 30.671 30.508 30.323 30.201 30.161 29.956 29.678 29.546 29.448 31.211 34.366 34.668 34.733 34.473 31.811 31.898 32.503 33.113 33.111 32.228 28.526 28.078 27.878 27.723 27.599 27.401 27.269 27.169 27.091 27.186 27.316 27.236 28.124 27.869 27.499
35.375 35.04 35.038 35.07 35.382 36.334 37.307 37.778 37.812 37.823 37.84 37.869 37.943 38 38.035 38.132 38.191 38.27 38.113 38.148 38.245 38.4 38.838 38.85 38.9 38.84 38.743 38.788 38.805 39.433 40.085 39.983 40.09 40.185 40.245 40.313 40.42 40.598 40.668 40.625 40.675 40.783 40.875 40.955 41.013 41.153 41.47 41.98 42.123 41.953 42.06 42.17 42.218 42.16 42.25 42.478 42.54 42.29 42.335 42.435 44.868 45.213 44.13 44.738 44.995 44.043 44.03 43.97 43.975 44.02 44.05 44.215 44.56 44.38 44.278 44.668 44.465 44.335 44.338 44.513 44.81 45.865 45.048 44.895 45.043 45.255 45.31 45.415 45.763 46.515 46.535 45.678 45.703 45.798 46.68 48.898 46.713 45.965 48.323 46.873 46.91 48.745 49.115 52.188 54.223 53.215 47.048 47.208 46.88 46.99 47.033 47.183 47.003 47.05 46.985 46.87 46.8 46.825 46.858 46.865 46.903 46.955 46.94 46.973 46.958 47.003 46.985 47.015 47 46.963 47.038 48.008 48.65 47.313 53.83 58.828 57.06 49.2 47.038 48.618 50.893 50.933 50.978 50.98 50.863 47.405 46.658 46.685 46.823 46.843 50.048 51.275 50.62 49.993 48.138 47.088 47.045 46.628 46.585 46.738 47.458 46.715 46.58 46.603 46.6 46.698 46.743 46.74 46.663 46.635 48.383 47.618 47.59 46.35 46.273 46.243 46.243 46.95 47.611 46.731 46.283 46.273 46.178 46.143 46.138 46.113 46.256 46.363 46.136 46.313 45.981 45.983 45.941 46.058 45.971 45.868 45.843 45.831 45.793 45.821 45.808 45.921 46.426 46.333 45.926 48.008 53.333 53.541 53.773 53.798 53.611 49.311 45.466 46.661 46.721 44.983 44.961 45.116 47.101 46.878 46.311 44.908 45.036 44.958 45.463 45.373 44.618 44.603 44.873 46.456 44.901 44.216 44.283 44.436 44.341 46.441 49.968 51.556 52.283 47.456 47.428 45.976 44.523 44.361 44.201 43.978 44.696 45.121 43.568 43.523 45.743 46.916 44.463 43.456 43.211 43.161 43.143 43.081 42.848 42.761 42.816 42.531 42.473 42.418 42.381 42.376 42.298 42.236 42.191 42.293 42.163 42.121 42.073 41.986 41.971 42.238 44.238 42.646 41.796 42.061 42.716 54.473 46.096 41.711 41.728 41.733 46.271 41.686 44.408 46.956 41.573 41.463 41.818 41.336 41.321 42.928 41.388 41.236 41.278 41.123 42.851 44.953 41.146 41.231 43.121 41.176 41.033 41.266 41.283 41.168 41.001 40.811 40.603 40.356 40.126 45.481 45.751 43.273 39.941 39.838 39.811 39.681 39.633 39.506 43.803 41.056 43.736 45.356 39.053 39.066 38.968 38.853 38.916 38.841 39.421 39.223 38.466 38.681 39.023 40.571 41.933 41.708 41.336 40.371 39.916 39.983 40.311 38.181 37.386 37.301 37.438 40.853 43.021 38.766 36.866 38.673 41.623 43.883 37.323 39.321 37.883 38.208 37.276 43.636 45.063 40.466 36.173 40.998 43.648 38.461 41.296 38.053 35.733 37.921 34.448 34.431 35.896 36.338 41.381 36.401 38.276 39.998 39.966 37.471 33.803 34.583 34.618 33.563 33.148 33.376 32.326 32.151 33.543 47.266 48.958 45.968 36.571 32.618 33.716 31.596 31.256 31.143 30.953 30.793 30.613 30.446 30.271 30.241 32.726 32.751 29.638 29.488 29.386 29.283 31.306 34.183 34.753 32.691 31.678 32.268 32.858 33.218 32.713 30.343 28.161 27.946 27.716 27.598 27.511 27.366 27.284 27.181 27.106 27.429 27.081 27.896 28.414 27.589 27.604
35.604 35 34.995 35.017 35.485 35.986 36.973 37.694 37.805 37.811 37.874 37.895 37.93 38.005 38.067 38.134 38.144 38.224 38.155 38.203 38.305 38.385 38.81 38.825 38.843 38.875 38.845 38.835 38.84 39.11 40.048 40.045 39.955 40.14 40.24 40.395 40.59 40.695 40.768 40.683 40.718 40.795 40.893 40.99 41.093 41.245 41.618 41.875 42.005 41.958 42.025 42.163 42.223 42.208 42.183 42.263 42.598 42.43 42.465 42.54 43.388 43.258 43.16 44.025 44.565 44.31 44.153 44.09 44.018 44.023 43.96 44.375 46.595 46.818 44.195 44.515 44.165 44.463 44.483 44.703 45.333 45.59 46.12 44.975 44.945 45.138 45.328 45.675 47.523 48.105 50.178 47.533 46.645 46.25 47.645 48.798 48.325 47.608 49.128 47.595 49.955 49.828 48.263 48.238 50.015 47.738 47.138 47.22 46.913 46.635 46.54 46.598 46.658 46.695 46.733 46.768 46.825 46.87 46.913 46.913 46.92 46.96 46.985 46.958 46.963 46.983 46.978 47.013 47.01 47.018 47.033 48.233 48.738 52.808 57.353 59.82 60.185 57.203 47.053 47.113 49.74 50.915 50.93 50.44 48.653 46.738 46.705 46.743 47.225 50.253 52.255 52.508 52.048 51.435 50.813 48.633 46.668 46.875 46.868 47.055 46.925 46.593 46.6 46.59 46.61 46.675 46.715 46.768 46.673 46.65 48.41 47.938 47.143 46.373 46.32 46.285 47.503 48.993 50.393 47.788 46.806 46.623 46.433 46.551 46.168 46.148 46.121 46.056 46.071 46.013 45.946 45.908 45.896 45.883 45.868 45.848 45.811 45.778 45.793 45.801 45.771 46.363 46.618 46.013 45.876 46.836 52.546 52.853 52.268 52.076 52.823 51.423 45.771 46.526 46.831 45.018 44.953 45.068 46.938 45.413 45.603 44.961 44.943 44.881 44.773 44.696 44.643 45.448 47.761 45.973 44.676 46.118 45.863 44.578 47.238 50.941 52.091 53.041 52.986 50.723 45.041 44.466 44.463 44.828 44.203 44.036 44.011 44.671 47.803 45.631 46.961 47.286 44.676 44.956 45.303 43.266 45.168 43.566 43.378 42.951 42.856 42.656 42.578 42.531 42.498 42.526 42.418 42.326 42.283 43.786 42.238 42.206 42.091 42.111 42.051 42.166 42.061 42.036 41.901 42.013 43.866 49.253 47.471 41.723 41.896 42.163 43.278 41.688 43.528 47.981 44.721 41.591 41.536 41.503 41.463 41.811 41.386 41.191 41.253 41.208 41.048 41.128 41.221 41.801 41.548 40.911 40.831 40.928 40.786 40.816 41.073 40.998 41.193 43.033 42.543 49.403 45.396 40.296 40.058 39.796 39.676 39.618 39.473 39.406 41.153 39.661 39.568 41.616 38.976 38.941 38.923 38.798 38.736 38.633 38.508 38.431 38.361 38.303 38.233 44.071 44.191 41.146 40.943 41.348 40.621 39.418 41.901 38.701 37.963 37.568 38.196 42.758 43.396 40.983 37.988 37.583 36.786 38.436 36.491 37.773 36.921 36.821 36.571 42.038 43.486 43.011 39.828 37.696 41.158 44.156 46.808 41.646 44.528 39.336 34.451 34.833 34.166 34.086 37.501 41.438 40.588 40.648 40.953 39.783 33.451 33.638 33.411 33.326 32.756 32.556 32.378 32.176 36.848 48.176 48.468 38.386 31.656 32.098 34.141 33.563 33.406 31.736 30.926 30.731 30.538 30.358 30.208 30.103 31.778 32.123 29.616 29.448 29.326 29.243 29.233 30.543 33.866 31.776 32.036 32.618 33.203 32.991 31.306 28.516 28.051 27.783 27.631 27.523 27.454 27.444 27.329 27.224 27.499 27.274 27.426 28.731 27.776 27.686 27.659
