ncols 494
nrows 32
xllcorner    460008
yllcorner    85562
cellsize     2
NODATA_value -9999
1.949 1.949 1.746 1.531 1.619 1.304 0.706 0.829 0.959 1.486 1.164 0.889 1.096 1.329 1.001 0.754 1.111 1.651 1.849 1.624 1.496 1.341 1.269 1.206 1.226 1.246 1.219 1.156 1.151 1.129 1.154 1.086 1.079 1.096 1.074 1.056 1.034 1.086 1.096 1.144 1.244 1.464 1.439 1.756 3.699 2.269 1.569 1.624 1.674 1.634 3.176 2.359 0.971 0.916 0.896 0.926 1.026 1.021 1.061 1.174 1.184 1.041 1.029 1.024 1.029 1.016 0.979 0.944 0.949 0.941 0.946 0.921 0.936 0.894 0.889 0.861 0.886 0.886 0.879 0.846 0.889 0.874 0.844 0.894 0.834 0.846 0.826 0.811 0.806 0.821 0.839 0.876 0.859 0.856 0.866 1.031 1.294 1.116 0.551 0.999 1.689 2.084 2.241 2.039 1.991 2.084 2.106 2.014 1.654 1.464 1.794 1.291 0.734 0.809 0.779 0.779 0.794 0.786 0.821 0.769 0.769 0.744 0.731 0.779 0.819 0.849 0.821 0.839 0.951 1.044 1.034 1.084 0.864 0.536 0.151 0.981 1.489 1.516 1.349 1.044 0.771 0.591 0.509 0.501 0.469 0.396 0.381 0.389 0.489 0.486 0.436 0.531 0.564 0.726 0.664 0.724 0.816 0.801 0.824 0.829 0.884 0.864 0.884 0.866 0.861 0.861 0.849 0.824 0.754 0.729 0.711 0.719 0.709 0.701 0.674 0.701 0.689 0.706 0.684 0.694 0.666 0.659 0.669 0.681 0.664 0.681 0.691 0.706 0.681 0.681 0.699 0.719 0.716 0.726 0.686 0.689 0.696 0.741 0.734 0.719 0.714 0.744 0.731 0.754 0.759 0.814 0.851 0.861 0.861 0.846 0.861 0.836 0.814 0.806 0.691 0.739 0.736 0.726 0.781 0.846 0.816 0.776 0.719 0.691 0.679 0.659 0.646 0.641 0.691 0.706 0.756 0.774 0.796 0.819 0.821 0.839 0.859 0.856 0.946 1.006 1.001 1.029 1.011 0.984 0.964 0.996 1.031 1.019 1.024 1.004 0.989 0.959 0.976 0.954 0.954 0.951 0.931 0.956 0.916 0.909 0.911 0.899 0.854 0.871 0.894 0.849 0.779 0.781 0.769 0.789 0.721 0.799 0.819 0.809 0.734 0.679 0.639 0.654 0.694 0.744 0.816 0.889 0.874 0.879 0.836 0.866 0.906 0.914 0.924 0.929 0.949 0.944 0.919 0.919 0.891 0.864 0.846 0.839 0.851 0.799 0.819 0.841 0.846 0.841 0.819 0.811 0.814 0.831 0.816 0.809 0.836 0.869 0.889 0.894 0.939 0.946 0.946 0.924 0.949 0.971 0.986 0.966 0.966 0.961 0.956 0.956 0.976 1.011 1.004 0.994 0.971 0.964 0.971 0.951 0.971 0.981 0.966 0.989 1.014 1.001 1.001 0.994 1.001 1.059 1.066 1.071 1.114 1.104 1.124 1.164 1.221 1.304 1.361 1.364 1.396 1.409 1.444 1.406 1.249 0.646 0.461 0.771 1.036 1.026 0.981 0.901 0.834 0.764 0.751 0.789 0.886 0.909 0.961 1.024 1.036 1.006 0.956 0.914 0.979 1.021 1.094 1.141 1.151 1.194 1.221 1.311 1.336 1.374 1.396 1.419 1.409 1.391 1.376 1.374 1.406 1.406 1.399 1.374 1.391 1.421 1.374 1.354 1.339 1.304 1.264 1.236 1.156 1.104 1.091 1.089 1.101 1.119 1.236 1.289 1.709 1.809 1.971 2.001 1.349 1.156 1.079 0.991 1.459 1.731 1.404 0.829 0.846 0.889 0.879 0.889 0.906 0.906 0.904 0.941 0.956 0.991 1.011 1.009 1.019 1.004 1.011 0.966 0.956 0.944 0.909 0.864 0.856 0.861 0.799 0.804 0.814 0.891 0.856 0.849 1.199 1.681 1.346 2.061 2.996 3.246 4.411 4.939 3.324 2.539 1.994 1.964 1.981 2.026 2.116 2.204 2.309 2.404 2.581 2.769 2.926 3.091 3.214 3.321 3.431 3.554 3.629 3.781 3.866 3.976 4.056 4.151 4.259 4.324 4.394 4.451 4.456 4.469 4.461 4.429
1.819 1.436 1.114 0.664 1.009 1.231 0.764 0.521 0.979 1.149 1.234 1.136 0.911 1.136 0.974 1.239 1.556 1.719 1.541 1.494 1.421 1.289 1.174 1.166 1.181 1.129 1.091 1.074 1.111 1.199 1.161 1.091 1.066 1.074 1.091 1.054 1.066 1.066 1.146 1.261 1.306 1.559 1.519 2.896 4.331 1.689 1.546 1.594 1.596 1.621 4.311 1.086 0.889 0.876 0.951 0.936 0.999 1.011 1.039 1.129 1.144 1.026 1.014 1.011 0.979 0.966 0.941 0.961 0.921 0.916 0.906 0.856 0.866 0.861 0.876 0.876 0.911 0.874 0.864 0.871 0.894 0.856 0.841 0.856 0.839 0.834 0.816 0.794 0.786 0.779 0.839 0.901 0.899 0.864 0.801 1.086 1.064 0.706 0.779 1.321 1.991 2.189 2.051 1.966 2.069 2.184 2.129 1.829 1.451 1.244 0.894 0.771 0.736 0.794 0.784 0.761 0.781 0.779 0.804 0.784 0.766 0.724 0.704 0.721 0.786 0.861 0.884 0.876 0.959 1.084 1.099 1.011 0.951 2.091 0.846 1.239 1.554 1.624 1.624 1.249 0.824 0.591 0.574 0.654 0.696 0.569 0.624 0.601 0.541 0.421 0.366 0.379 0.396 0.614 0.446 0.426 0.661 0.796 0.846 0.876 0.886 0.854 0.896 0.906 0.876 0.884 0.884 0.869 0.844 0.811 0.751 0.734 0.694 0.709 0.704 0.739 0.744 0.699 0.689 0.676 0.684 0.671 0.674 0.651 0.689 0.694 0.666 0.664 0.674 0.721 0.724 0.716 0.731 0.684 0.709 0.714 0.686 0.704 0.716 0.719 0.739 0.739 0.724 0.769 0.801 0.841 0.839 0.854 0.839 0.846 0.864 0.834 0.811 0.789 0.701 0.754 0.714 0.746 0.809 0.851 0.864 0.821 0.754 0.721 0.686 0.644 0.666 0.666 0.659 0.659 0.709 0.796 0.821 0.781 0.759 0.796 0.824 0.854 0.869 0.904 0.969 1.014 1.036 1.011 0.996 0.989 0.999 1.006 1.006 1.009 1.006 1.001 1.006 0.984 0.954 0.944 0.929 0.929 0.934 0.914 0.886 0.911 0.899 0.886 0.919 0.881 0.801 0.841 0.876 0.899 0.874 0.816 0.831 0.809 0.784 0.779 0.714 0.741 0.774 0.804 0.879 0.906 0.884 0.846 0.866 0.889 0.884 0.919 0.966 0.959 0.944 0.929 0.896 0.901 0.894 0.871 0.844 0.819 0.844 0.849 0.849 0.871 0.876 0.851 0.809 0.826 0.836 0.851 0.819 0.861 0.894 0.894 0.909 0.896 0.899 0.896 0.921 0.924 0.931 0.944 0.969 0.941 0.939 0.936 0.959 0.969 0.956 0.989 0.994 1.009 0.969 0.984 0.976 0.976 1.016 0.971 0.996 1.024 1.049 1.051 1.019 1.029 1.046 1.094 1.111 1.129 1.116 1.119 1.111 1.106 1.139 1.199 1.264 1.291 1.354 1.391 1.436 1.386 1.191 0.559 0.276 0.856 1.061 1.024 0.969 0.864 0.799 0.764 0.776 0.851 0.911 0.959 1.059 1.031 0.996 0.914 0.904 0.964 1.044 1.086 1.141 1.169 1.196 1.244 1.269 1.349 1.404 1.461 1.501 1.529 1.551 1.589 1.606 1.564 1.554 1.566 1.539 1.514 1.529 1.526 1.476 1.426 1.419 1.419 1.451 1.399 1.334 1.281 1.309 1.319 1.241 1.216 1.154 1.184 1.461 1.541 1.949 1.966 1.549 1.361 1.266 1.286 1.196 1.219 1.674 1.606 0.986 0.811 0.841 0.776 0.764 0.841 0.919 0.836 0.846 0.871 0.994 0.936 0.946 0.886 0.881 0.884 0.844 0.836 0.806 0.794 0.796 0.846 0.846 0.884 1.001 1.131 1.076 1.226 1.726 2.434 2.086 2.721 3.991 3.969 3.301 2.881 2.081 2.071 2.129 2.226 2.256 2.301 2.424 2.579 2.744 2.879 3.001 3.086 3.269 3.334 3.469 3.614 3.736 3.824 3.894 4.004 4.026 4.151 4.239 4.341 4.404 4.516 4.551 4.564 4.614 4.609 4.594 4.531
0.779 0.389 0.886 1.004 0.969 1.029 1.146 1.311 1.349 1.324 1.216 1.201 1.061 1.194 1.101 1.099 1.501 1.569 1.479 1.381 1.374 1.221 1.136 1.151 1.144 1.124 1.094 1.069 1.079 1.086 1.094 1.121 1.089 1.071 1.046 1.079 1.084 1.104 1.184 1.224 1.436 1.894 1.966 3.144 3.789 1.606 1.509 1.606 1.611 1.661 1.866 1.011 0.814 0.886 0.896 0.986 1.026 1.019 1.066 1.144 1.079 1.021 1.049 1.069 0.999 0.974 0.964 0.944 0.946 0.916 0.906 0.879 0.899 0.886 0.851 0.876 0.911 0.889 0.884 0.871 0.829 0.836 0.806 0.779 0.779 0.789 0.786 0.749 0.751 0.801 0.809 0.876 0.906 0.751 0.846 1.099 0.616 0.639 1.401 1.916 2.369 2.061 1.966 1.986 2.144 2.154 1.939 2.119 2.714 1.364 0.709 0.736 0.769 0.789 0.746 0.791 0.774 0.751 0.834 0.841 0.784 0.746 0.806 0.724 0.721 0.811 0.861 0.919 0.934 1.004 1.036 0.894 0.909 2.166 1.384 1.576 1.584 1.634 1.676 1.356 0.881 0.681 0.711 0.859 0.874 0.684 0.766 0.881 0.849 0.724 0.546 0.581 0.484 0.631 0.374 0.259 0.361 0.371 0.569 0.664 0.756 0.764 0.801 0.826 0.854 0.906 0.984 1.684 1.486 1.319 1.126 0.799 0.751 0.736 0.766 0.749 0.751 0.706 0.719 0.716 0.676 0.664 0.694 0.644 0.691 0.669 0.644 0.659 0.674 0.699 0.716 0.711 0.709 0.691 0.704 0.754 0.686 0.711 0.726 0.711 0.721 0.731 0.751 0.789 0.794 0.844 0.856 0.844 0.814 0.811 0.856 0.831 0.824 0.774 0.709 0.779 0.746 0.756 0.809 0.809 0.849 0.831 0.789 0.739 0.699 0.669 0.676 0.684 0.674 0.661 0.654 0.726 0.689 0.761 0.766 0.814 0.806 0.836 0.826 0.856 0.879 0.929 0.994 1.029 1.014 1.024 1.004 1.014 0.994 1.031 1.021 1.009 0.996 0.996 0.981 0.941 0.959 0.949 0.941 0.926 0.899 0.886 0.919 0.931 0.886 0.859 0.859 0.889 0.919 0.974 0.851 0.829 0.846 0.826 0.841 0.881 0.846 0.804 0.836 0.819 0.839 0.851 0.876 0.879 0.896 0.921 0.921 0.934 0.926 0.894 0.919 0.894 0.899 0.871 0.844 0.821 0.814 0.811 0.859 0.879 0.894 0.854 0.851 0.829 0.844 0.831 0.814 0.851 0.876 0.871 0.886 0.896 0.906 0.916 0.909 0.911 0.911 0.931 0.971 0.964 0.946 0.949 0.961 0.951 0.979 1.014 0.996 0.994 1.009 1.034 0.994 0.979 0.976 0.991 1.001 1.021 1.036 1.054 1.066 1.046 1.059 1.086 1.071 1.081 1.111 1.109 1.096 1.096 1.071 1.094 1.099 1.121 1.144 1.191 1.276 1.361 1.401 1.364 1.111 0.451 0.376 0.876 1.051 1.031 0.931 0.889 0.806 0.771 0.854 0.894 0.951 1.034 1.016 0.951 0.906 0.929 0.986 1.034 1.086 1.159 1.176 1.226 1.276 1.321 1.349 1.384 1.444 1.531 1.591 1.669 1.674 1.726 1.739 1.746 1.761 1.781 1.784 1.724 1.684 1.664 1.626 1.536 1.526 1.524 1.531 1.529 1.469 1.476 1.516 1.491 1.446 1.436 1.406 1.456 1.424 1.386 1.334 1.506 1.774 1.856 1.916 1.991 1.644 1.094 1.539 2.181 2.356 3.326 2.724 1.479 2.456 2.266 2.346 2.409 2.486 1.051 1.889 2.384 2.091 1.229 1.874 0.891 1.909 1.046 1.116 0.994 1.074 1.161 1.211 1.256 1.494 1.516 1.886 2.269 3.021 3.194 2.704 2.146 2.146 2.204 2.181 2.236 2.314 2.321 2.344 2.456 2.566 2.716 2.839 2.959 3.119 3.206 3.331 3.444 3.569 3.679 3.781 3.874 3.966 4.036 4.081 4.166 4.241 4.306 4.414 4.481 4.581 4.661 4.694 4.731 4.754 4.756 4.719 4.681
0.429 0.446 1.296 1.516 1.511 1.546 1.489 1.479 1.451 1.454 1.221 1.174 1.056 1.251 1.186 1.154 1.386 1.611 1.686 1.486 1.226 1.179 1.136 1.099 1.131 1.119 1.069 1.046 1.079 1.061 1.051 1.056 1.086 1.129 1.076 1.116 1.161 1.109 1.171 1.336 1.769 2.646 3.036 3.401 2.964 1.529 1.519 1.561 1.526 2.306 1.809 0.841 0.829 0.859 0.891 0.964 1.041 0.999 1.091 1.136 1.069 0.974 1.001 1.029 0.984 0.976 0.961 0.951 0.949 0.916 0.916 0.896 0.886 0.871 0.886 0.881 0.871 0.889 0.884 0.871 0.839 0.839 0.819 0.774 0.756 0.756 0.759 0.774 0.739 0.801 0.776 0.869 0.831 0.839 1.091 1.219 0.409 1.164 1.859 2.354 2.341 2.046 2.006 2.101 2.156 2.066 1.799 2.016 2.974 1.061 0.709 0.769 0.749 0.724 0.714 0.689 0.709 0.826 0.881 0.794 0.769 0.784 0.779 0.789 0.719 0.769 0.829 0.869 0.819 0.846 0.894 0.939 0.676 1.564 1.641 1.646 1.579 1.576 1.614 1.386 0.931 0.779 0.819 0.861 0.829 0.739 0.759 0.811 0.841 0.829 0.769 0.659 0.721 1.014 0.596 0.716 0.649 0.619 0.539 0.486 0.361 0.254 0.289 0.476 0.604 0.689 0.931 1.919 1.746 1.694 1.906 1.561 1.284 0.846 0.954 0.851 0.749 0.731 0.761 0.756 0.721 0.729 0.714 0.701 0.701 0.689 0.676 0.681 0.679 0.706 0.704 0.706 0.739 0.699 0.684 0.709 0.696 0.724 0.716 0.721 0.709 0.736 0.759 0.801 0.801 0.841 0.834 0.821 0.786 0.796 0.846 0.849 0.811 0.766 0.749 0.784 0.774 0.749 0.789 0.809 0.804 0.824 0.811 0.761 0.711 0.671 0.669 0.706 0.696 0.691 0.674 0.671 0.659 0.729 0.786 0.809 0.764 0.796 0.801 0.821 0.854 0.869 0.909 0.989 1.026 1.029 1.029 1.026 0.984 1.031 1.046 1.014 1.011 1.001 1.006 1.009 0.981 0.961 0.941 0.949 0.919 0.916 0.911 0.926 0.866 0.889 0.871 0.901 0.896 0.889 0.914 0.924 0.894 0.894 0.929 0.954 0.871 0.846 0.856 0.821 0.844 0.861 0.846 0.866 0.884 0.936 0.936 0.916 0.906 0.929 0.914 0.891 0.839 0.801 0.799 0.809 0.839 0.864 0.879 0.881 0.869 0.829 0.854 0.841 0.869 0.876 0.906 0.889 0.901 0.906 0.899 0.884 0.896 0.919 0.921 0.929 0.921 0.929 0.951 0.959 0.969 0.946 0.959 0.969 0.959 0.979 1.001 0.994 0.979 1.019 1.009 0.981 0.994 1.004 1.024 1.039 1.054 1.041 1.066 1.079 1.104 1.104 1.074 1.069 1.074 1.059 1.081 1.064 1.046 1.081 1.101 1.104 1.129 1.179 1.214 1.334 1.396 1.344 0.981 0.301 0.411 0.959 1.041 1.036 0.929 0.921 0.861 0.806 0.931 0.989 1.019 0.964 0.904 0.929 0.991 1.036 1.071 1.096 1.149 1.231 1.256 1.291 1.336 1.391 1.441 1.466 1.496 1.584 1.704 1.784 1.826 1.859 1.834 1.919 1.971 1.981 1.986 1.911 1.849 1.801 1.749 1.734 1.724 1.749 1.739 1.686 1.654 1.654 1.686 1.631 1.541 1.484 1.551 1.699 1.744 1.631 1.454 1.396 1.436 1.539 1.909 2.264 2.331 2.914 2.206 3.081 2.551 3.329 3.911 4.031 3.534 2.896 2.224 2.844 2.231 2.451 4.336 3.781 3.549 3.986 5.594 3.181 2.914 2.196 1.924 1.619 1.531 1.526 3.374 3.594 2.444 1.981 1.969 2.116 2.186 2.186 2.231 2.266 2.336 2.336 2.429 2.469 2.551 2.606 2.699 2.819 2.944 3.049 3.151 3.281 3.426 3.566 3.646 3.731 3.854 3.929 4.029 4.121 4.181 4.219 4.311 4.351 4.426 4.474 4.571 4.651 4.736 4.781 4.839 4.869 4.909 4.881 4.826 4.799
1.174 1.519 1.709 1.831 1.674 1.639 1.564 1.501 1.354 1.421 1.334 1.316 1.274 1.376 1.309 1.254 1.339 1.461 1.329 1.291 1.179 1.139 1.136 1.099 1.109 1.091 1.069 1.039 1.056 1.056 1.086 1.049 1.044 1.066 1.081 1.124 1.109 1.189 1.134 1.619 2.146 3.131 3.499 4.894 2.596 1.489 1.524 1.569 1.519 2.306 1.164 0.816 0.814 0.809 0.831 0.931 1.039 1.029 1.124 1.121 1.059 1.006 0.989 0.949 0.951 0.954 0.954 0.954 0.949 0.961 0.904 0.854 0.884 0.871 0.879 0.881 0.874 0.861 0.844 0.841 0.824 0.809 0.786 0.771 0.761 0.764 0.766 0.761 0.791 0.751 0.779 0.816 0.779 1.031 1.094 0.726 0.619 1.571 2.166 2.744 2.266 2.014 2.059 2.211 2.186 1.899 1.606 1.184 0.956 0.704 0.714 0.769 0.716 0.721 0.789 0.676 0.714 0.826 0.869 0.794 0.774 0.754 0.769 0.731 0.754 0.811 0.804 0.849 0.896 0.919 0.899 1.001 0.889 1.086 0.804 1.491 1.549 1.469 1.509 1.401 0.966 0.844 0.826 0.831 0.811 0.754 0.726 0.806 0.799 0.786 0.804 0.691 0.561 0.596 0.621 0.799 0.796 0.794 0.794 0.766 0.746 0.556 0.504 0.416 0.279 0.319 0.379 0.434 0.659 0.894 1.144 1.419 1.501 1.246 1.831 1.739 1.226 0.759 0.779 0.766 0.804 0.749 0.726 0.721 0.736 0.716 0.726 0.731 0.704 0.711 0.739 0.724 0.709 0.694 0.691 0.701 0.704 0.699 0.714 0.706 0.734 0.754 0.739 0.774 0.776 0.839 0.824 0.806 0.814 0.799 0.854 0.814 0.811 0.729 0.751 0.796 0.766 0.789 0.834 0.829 0.831 0.821 0.821 0.811 0.786 0.756 0.749 0.729 0.729 0.696 0.696 0.699 0.701 0.754 0.776 0.756 0.734 0.741 0.754 0.804 0.829 0.831 0.864 0.886 0.969 1.021 1.029 1.039 1.014 1.044 1.044 1.039 1.031 1.041 1.009 1.014 1.011 0.989 0.941 0.949 0.931 0.936 0.941 0.896 0.926 0.919 0.881 0.861 0.916 0.911 0.951 0.939 0.966 0.946 0.941 0.926 0.901 0.829 0.816 0.799 0.799 0.821 0.816 0.804 0.844 0.849 0.869 0.886 0.896 0.929 0.909 0.841 0.834 0.831 0.864 0.884 0.884 0.889 0.884 0.879 0.861 0.844 0.849 0.909 0.904 0.904 0.894 0.889 0.901 0.909 0.904 0.909 0.914 0.939 0.916 0.936 0.944 0.911 0.914 0.946 0.959 0.936 0.959 0.939 0.959 0.974 0.984 0.976 0.969 1.004 1.006 0.986 1.016 1.019 1.016 1.021 1.046 1.044 1.059 1.079 1.104 1.144 1.099 1.036 1.044 1.064 1.061 1.024 1.016 1.066 1.066 1.071 1.126 1.174 1.251 1.316 1.384 1.299 0.831 0.306 0.471 0.969 0.974 0.994 0.944 0.904 0.909 0.921 0.946 0.949 0.909 0.941 0.979 1.064 1.071 1.084 1.121 1.154 1.189 1.269 1.306 1.379 1.409 1.456 1.529 1.611 1.646 1.659 1.744 1.831 1.866 1.924 2.011 2.114 2.201 2.221 2.204 2.184 2.129 2.034 2.001 1.991 1.999 2.006 1.971 1.909 1.849 1.846 1.869 1.879 1.711 1.606 1.659 1.869 1.891 1.914 1.756 1.616 1.569 1.551 1.544 1.724 2.549 3.566 3.506 3.076 3.309 4.061 4.074 3.336 3.121 5.026 3.336 2.506 4.171 4.441 5.239 3.724 4.276 3.941 4.169 3.689 3.086 4.214 2.836 2.586 3.091 3.644 2.706 2.261 2.071 2.106 2.151 2.289 2.349 2.376 2.419 2.469 2.529 2.604 2.691 2.731 2.849 2.941 3.074 3.131 3.266 3.409 3.501 3.626 3.721 3.846 3.939 4.024 4.119 4.191 4.246 4.314 4.379 4.436 4.479 4.541 4.566 4.621 4.706 4.779 4.906 4.966 5.011 5.054 5.056 5.041 5.009 4.974
1.679 1.739 1.824 1.846 1.639 1.541 1.449 1.469 1.364 1.336 1.331 1.271 1.294 1.516 1.356 1.406 1.184 1.209 1.171 1.199 1.136 1.131 1.144 1.119 1.101 1.094 1.069 1.089 1.071 1.071 1.044 1.006 1.041 1.029 1.066 1.096 1.204 1.241 1.266 1.811 2.674 3.311 2.761 3.599 2.006 1.464 1.519 1.544 1.479 2.004 0.839 0.761 0.791 0.771 0.786 0.946 0.996 0.994 1.114 1.119 1.026 1.011 0.989 0.944 0.951 0.941 0.931 0.941 0.971 0.959 0.946 0.874 0.854 0.881 0.871 0.881 0.911 0.844 0.831 0.796 0.796 0.806 0.789 0.756 0.754 0.746 0.744 0.726 0.711 0.704 0.734 0.789 1.021 0.909 0.906 0.906 1.476 1.976 2.546 2.554 2.051 2.041 2.144 2.216 2.051 1.694 1.391 0.934 0.796 0.671 0.721 0.744 0.716 0.736 0.751 0.781 0.746 0.834 0.816 0.766 0.794 0.786 0.734 0.729 0.764 0.804 0.849 0.859 0.901 0.984 0.946 0.911 0.501 0.526 0.661 1.441 1.426 1.261 1.289 1.191 1.009 0.921 0.856 0.844 0.809 0.791 0.779 0.764 0.779 0.791 0.794 0.764 0.711 0.714 0.739 0.764 0.751 0.744 0.759 0.766 0.804 0.764 0.711 0.786 0.766 0.701 0.644 0.551 0.416 0.299 0.339 0.424 0.424 0.649 1.266 1.234 0.969 1.041 0.786 0.811 0.806 0.781 0.756 0.744 0.744 0.764 0.734 0.704 0.706 0.701 0.729 0.729 0.681 0.684 0.694 0.691 0.684 0.714 0.704 0.724 0.706 0.704 0.711 0.741 0.796 0.794 0.806 0.771 0.789 0.819 0.844 0.851 0.791 0.716 0.796 0.806 0.781 0.809 0.846 0.854 0.839 0.831 0.826 0.834 0.839 0.831 0.809 0.781 0.756 0.774 0.736 0.711 0.711 0.746 0.729 0.759 0.689 0.716 0.739 0.756 0.791 0.786 0.834 0.859 0.876 0.914 0.939 0.986 1.009 1.009 1.014 1.024 1.024 1.021 0.994 0.981 1.006 0.994 0.966 0.989 0.946 0.961 0.936 0.891 0.896 0.909 0.894 0.896 0.889 0.934 0.951 0.951 0.964 0.936 0.961 0.926 0.924 0.859 0.839 0.799 0.781 0.781 0.781 0.786 0.834 0.859 0.869 0.874 0.906 0.931 0.866 0.859 0.859 0.859 0.891 0.896 0.859 0.874 0.881 0.869 0.864 0.896 0.941 0.949 0.929 0.941 0.936 0.881 0.921 0.909 0.919 0.899 0.936 0.914 0.926 0.926 0.931 0.939 0.934 0.926 0.934 0.949 0.939 0.954 0.979 0.959 0.976 1.011 1.009 1.009 1.019 1.001 1.036 1.036 1.044 1.049 1.056 1.071 1.094 1.091 1.111 1.111 1.106 1.076 1.064 1.066 1.064 1.036 1.024 1.026 1.036 1.071 1.104 1.131 1.234 1.291 1.341 1.251 0.684 0.294 0.564 0.989 0.981 0.961 0.961 0.914 0.916 0.906 0.879 0.866 0.926 1.029 1.109 1.136 1.124 1.126 1.159 1.221 1.254 1.299 1.374 1.431 1.509 1.556 1.626 1.696 1.681 1.746 1.844 1.936 2.011 2.129 2.316 2.416 2.414 2.371 2.346 2.414 2.379 2.271 2.234 2.251 2.256 2.269 2.236 2.166 2.096 2.056 2.091 2.134 1.876 1.736 4.654 2.084 2.121 2.146 1.994 1.961 1.931 1.896 1.851 1.814 1.931 2.199 2.626 2.221 3.491 3.664 4.134 3.354 3.939 5.504 6.294 3.066 2.901 2.959 2.994 2.924 2.889 2.714 3.159 2.771 3.074 3.721 2.889 2.319 2.259 2.179 2.191 2.234 2.341 2.466 2.474 2.499 2.524 2.574 2.599 2.664 2.736 2.876 2.999 3.089 3.151 3.271 3.381 3.464 3.561 3.656 3.769 3.871 3.999 4.104 4.171 4.289 4.326 4.406 4.454 4.511 4.534 4.621 4.621 4.679 4.734 4.799 4.846 4.931 5.074 5.121 5.156 5.206 5.179 5.159 5.154 5.126
1.746 1.689 1.621 1.556 1.496 1.416 1.374 1.271 1.221 1.179 1.181 1.206 1.381 1.434 1.531 1.521 1.226 1.161 1.149 1.091 1.124 1.146 1.181 1.131 1.141 1.119 1.061 1.096 1.096 1.066 1.054 1.056 1.024 1.036 1.084 1.069 1.229 1.224 1.481 1.961 2.991 3.261 3.386 4.014 1.616 1.459 1.521 1.539 1.551 1.664 0.859 0.776 0.779 0.814 0.804 0.949 1.036 1.009 1.094 1.131 1.066 1.009 0.969 0.944 0.934 0.956 0.956 0.946 0.951 0.936 0.931 0.889 0.856 0.861 0.866 0.886 0.856 0.844 0.806 0.804 0.779 0.829 0.761 0.754 0.741 0.744 0.736 0.736 0.769 0.714 0.784 0.949 1.136 0.859 0.991 1.456 1.929 2.416 2.689 2.224 2.029 2.141 2.211 2.156 1.811 1.591 1.129 0.949 0.719 0.689 0.719 0.711 0.706 0.736 0.739 0.721 0.779 0.844 0.826 0.824 0.766 0.786 0.751 0.714 0.761 0.834 0.844 0.884 0.976 1.079 1.024 0.756 0.566 0.569 0.659 1.389 1.331 1.281 1.301 1.176 0.974 0.894 0.859 0.864 0.851 0.829 0.836 0.781 0.806 0.784 0.791 0.794 0.811 0.794 0.759 0.746 0.751 0.764 0.741 0.759 0.764 0.746 0.714 0.744 0.769 0.779 0.744 0.784 0.774 0.761 0.689 0.614 0.499 0.384 0.364 0.399 0.396 0.714 0.594 0.689 0.744 0.769 0.751 0.764 0.761 0.764 0.756 0.744 0.709 0.709 0.719 0.721 0.681 0.724 0.741 0.719 0.709 0.709 0.716 0.701 0.686 0.719 0.746 0.779 0.801 0.786 0.784 0.799 0.809 0.794 0.829 0.821 0.766 0.699 0.751 0.784 0.829 0.834 0.826 0.881 0.834 0.831 0.836 0.836 0.816 0.836 0.849 0.841 0.821 0.791 0.759 0.731 0.714 0.744 0.776 0.739 0.696 0.689 0.681 0.716 0.734 0.751 0.761 0.799 0.819 0.824 0.856 0.866 0.946 0.996 1.004 1.021 0.999 1.006 0.979 1.021 1.031 1.006 0.996 0.986 1.004 0.976 0.899 0.911 0.914 0.866 0.829 0.864 0.901 0.941 0.946 0.971 0.984 0.961 0.931 0.924 0.899 0.854 0.794 0.776 0.774 0.759 0.749 0.796 0.816 0.866 0.844 0.854 0.881 0.866 0.871 0.864 0.879 0.864 0.876 0.841 0.826 0.834 0.849 0.879 0.886 0.884 0.911 0.939 0.891 0.906 0.916 0.921 0.919 0.911 0.911 0.919 0.919 0.931 0.921 0.929 0.924 0.926 0.951 0.946 0.934 0.949 0.964 0.974 0.946 0.971 0.989 1.021 1.016 1.019 1.004 1.011 1.041 1.041 1.064 1.054 1.074 1.084 1.099 1.061 1.086 1.106 1.081 1.069 1.069 1.036 1.041 1.054 1.046 1.079 1.064 1.056 1.086 1.126 1.239 1.259 1.341 1.221 0.551 0.194 0.566 0.969 1.001 0.979 0.939 0.921 0.886 0.851 0.861 0.899 0.949 1.036 1.106 1.164 1.149 1.164 1.194 1.256 1.311 1.371 1.426 1.519 1.594 1.624 1.674 1.731 1.811 1.939 2.086 2.181 2.299 2.476 2.626 2.641 2.529 2.346 2.371 2.539 2.619 2.514 2.419 2.444 2.454 2.464 2.444 2.389 2.326 2.319 2.356 2.351 2.156 2.041 4.409 2.374 2.379 2.374 2.271 2.224 2.191 2.154 2.136 2.129 2.059 1.984 1.926 1.976 2.059 2.134 2.491 2.274 2.201 2.204 3.036 2.441 2.281 2.269 2.246 2.294 2.321 2.371 2.356 2.344 2.366 2.406 2.414 2.406 2.416 2.501 2.511 2.571 2.611 2.646 2.714 2.766 2.841 2.909 2.974 3.029 3.144 3.254 3.316 3.391 3.464 3.616 3.689 3.779 3.869 3.959 4.084 4.159 4.249 4.331 4.409 4.476 4.529 4.609 4.639 4.684 4.724 4.789 4.791 4.849 4.889 4.951 5.004 5.084 5.201 5.269 5.284 5.344 5.331 5.254 5.259 5.231
1.681 1.534 1.404 1.394 1.389 1.291 1.229 1.176 1.121 1.124 1.106 1.171 1.321 1.364 1.476 1.469 1.229 1.139 1.071 1.099 1.141 1.141 1.191 1.106 1.106 1.071 1.044 1.069 1.099 1.111 1.096 1.089 1.084 1.074 1.089 1.109 1.114 1.239 1.371 2.269 2.801 2.871 3.836 3.316 1.454 1.446 1.499 1.496 1.991 1.509 0.854 0.769 0.789 0.799 0.859 0.969 0.936 0.941 1.079 1.119 1.071 1.046 0.984 0.941 0.961 0.959 0.956 0.941 0.921 0.901 0.911 0.891 0.849 0.859 0.884 0.884 0.881 0.844 0.831 0.791 0.774 0.776 0.771 0.769 0.754 0.711 0.729 0.769 0.764 0.729 0.924 1.119 0.861 0.754 1.181 1.609 2.249 2.719 2.314 2.079 2.086 2.224 2.194 1.969 1.616 1.386 0.946 0.806 0.711 0.719 0.711 0.696 0.729 0.749 0.734 0.704 0.814 0.836 0.864 0.849 0.826 0.791 0.756 0.729 0.779 0.826 0.826 0.886 1.026 1.156 1.009 0.824 0.974 1.324 1.171 1.286 1.326 1.416 1.414 1.249 0.994 0.849 0.829 0.866 0.864 0.844 0.856 0.816 0.819 0.834 0.801 0.776 0.786 0.774 0.769 0.746 0.766 0.779 0.774 0.774 0.751 0.759 0.716 0.721 0.734 0.741 0.731 0.766 0.721 0.754 0.776 0.801 0.786 0.726 0.704 0.629 0.541 0.294 0.304 0.264 0.386 0.449 0.576 0.619 0.664 0.701 0.779 0.769 0.744 0.739 0.741 0.679 0.674 0.726 0.781 0.766 0.734 0.726 0.689 0.691 0.696 0.739 0.779 0.801 0.826 0.836 0.831 0.799 0.814 0.814 0.826 0.831 0.766 0.684 0.754 0.811 0.776 0.856 0.891 0.861 0.811 0.801 0.839 0.836 0.836 0.851 0.861 0.869 0.824 0.744 0.746 0.729 0.681 0.696 0.686 0.669 0.701 0.676 0.686 0.676 0.729 0.734 0.746 0.751 0.779 0.804 0.831 0.841 0.874 0.896 0.919 0.964 0.971 0.986 1.016 1.024 1.006 1.041 0.974 0.984 0.984 0.926 0.936 0.904 0.859 0.861 0.836 0.879 0.934 0.991 1.014 0.991 1.021 0.979 0.934 0.946 0.914 0.846 0.824 0.809 0.774 0.746 0.781 0.766 0.776 0.799 0.834 0.879 0.894 0.914 0.891 0.851 0.884 0.864 0.861 0.856 0.834 0.854 0.876 0.866 0.881 0.854 0.866 0.869 0.891 0.906 0.891 0.909 0.876 0.871 0.914 0.879 0.901 0.911 0.904 0.909 0.909 0.926 0.921 0.914 0.921 0.941 0.941 0.951 0.936 0.956 0.964 1.009 0.996 0.996 1.009 1.024 1.046 1.066 1.051 1.049 1.051 1.061 1.096 1.081 1.096 1.104 1.081 1.044 1.016 0.986 1.006 1.024 1.041 1.054 1.064 1.096 1.091 1.144 1.201 1.271 1.351 1.169 0.521 0.229 0.471 0.816 0.909 0.959 0.934 0.896 0.829 0.876 0.914 0.916 0.936 1.001 1.094 1.209 1.219 1.189 1.246 1.284 1.366 1.441 1.499 1.546 1.614 1.684 1.834 2.011 2.161 2.269 2.409 2.506 2.609 2.759 2.826 2.804 2.661 2.501 2.504 2.624 2.651 2.636 2.639 2.649 2.669 2.656 2.666 2.686 2.639 2.576 2.584 2.571 2.461 2.361 2.509 2.664 2.761 2.694 2.636 2.571 2.516 2.451 2.434 2.381 2.241 2.174 2.181 2.254 2.339 2.354 2.371 2.369 2.409 2.466 2.491 2.524 2.534 2.529 2.526 2.554 2.589 2.614 2.591 2.621 2.639 2.701 2.771 2.829 2.849 2.859 2.899 2.894 2.896 2.994 3.036 3.089 3.151 3.236 3.344 3.376 3.456 3.539 3.611 3.684 3.764 3.899 3.959 4.039 4.124 4.249 4.351 4.429 4.501 4.551 4.634 4.671 4.746 4.761 4.834 4.841 4.904 4.946 4.966 5.026 5.056 5.129 5.164 5.229 5.299 5.386 5.436 5.451 5.436 5.399 5.376 5.386
1.506 1.444 1.326 1.284 1.191 1.176 1.106 1.094 1.116 1.121 1.109 1.186 1.326 1.244 1.274 1.476 1.194 1.161 1.081 1.079 1.116 1.134 1.141 1.094 1.096 1.069 1.061 1.056 1.076 1.094 1.086 1.109 1.096 1.089 1.129 1.099 1.206 1.124 1.446 2.164 2.779 2.839 3.726 2.066 1.464 1.491 1.464 1.461 2.336 1.031 0.861 0.801 0.789 0.784 0.851 0.969 0.871 0.971 1.079 1.101 1.061 1.014 0.974 0.964 0.924 0.909 0.926 0.894 0.939 0.931 0.914 0.874 0.861 0.896 0.856 0.846 0.864 0.859 0.834 0.811 0.784 0.766 0.771 0.764 0.734 0.716 0.731 0.771 0.771 0.771 1.154 0.986 0.624 0.884 1.241 1.864 2.764 2.814 2.149 2.021 2.129 2.229 2.089 1.686 1.394 0.954 0.949 0.709 0.684 0.731 0.791 0.749 0.764 0.766 0.674 0.754 0.869 0.859 0.886 0.844 0.846 0.796 0.776 0.724 0.784 0.849 0.821 0.924 1.066 1.111 1.001 0.969 0.846 1.484 1.134 1.306 1.361 1.446 1.424 1.304 1.031 0.849 0.801 0.851 0.831 0.834 0.856 0.839 0.834 0.831 0.809 0.799 0.786 0.784 0.769 0.746 0.724 0.761 0.771 0.756 0.749 0.736 0.724 0.731 0.736 0.734 0.744 0.731 0.766 0.754 0.766 0.724 0.749 0.749 0.734 0.754 0.699 0.571 0.726 0.659 0.606 0.449 0.349 0.324 0.304 0.254 0.469 0.589 0.621 0.671 0.741 0.641 0.634 0.776 0.801 0.806 0.756 0.741 0.684 0.644 0.736 0.781 0.791 0.806 0.806 0.859 0.834 0.844 0.841 0.831 0.854 0.839 0.769 0.684 0.751 0.789 0.804 0.889 0.904 0.884 0.844 0.786 0.799 0.821 0.839 0.829 0.821 0.781 0.746 0.724 0.726 0.691 0.709 0.709 0.699 0.711 0.744 0.711 0.679 0.656 0.709 0.744 0.811 0.729 0.746 0.764 0.806 0.859 0.824 0.826 0.851 0.881 0.911 0.976 0.979 1.004 1.019 0.996 0.974 0.969 0.911 0.884 0.831 0.819 0.846 0.831 0.871 0.904 0.926 1.006 1.069 1.054 1.039 1.014 0.974 0.926 0.896 0.874 0.856 0.846 0.829 0.756 0.776 0.756 0.744 0.766 0.874 0.934 0.959 0.934 0.901 0.861 0.864 0.839 0.824 0.869 0.889 0.876 0.866 0.866 0.856 0.899 0.901 0.894 0.911 0.911 0.926 0.921 0.901 0.906 0.909 0.886 0.909 0.921 0.921 0.941 0.931 0.934 0.931 0.939 0.934 0.956 0.974 0.949 0.959 0.946 0.971 0.976 1.011 1.029 1.044 1.044 1.046 1.039 1.059 1.054 1.051 1.039 1.039 1.074 1.096 1.071 1.054 1.009 0.971 0.964 0.991 1.016 1.056 1.061 1.046 1.039 1.091 1.139 1.211 1.299 1.336 1.096 0.516 0.286 0.541 0.681 0.701 0.724 0.714 0.736 0.756 0.751 0.796 0.884 0.939 1.001 1.074 1.174 1.181 1.189 1.236 1.299 1.369 1.451 1.566 1.674 1.816 1.961 2.109 2.269 2.396 2.511 2.646 2.771 2.879 3.009 3.096 3.094 2.996 2.849 2.811 2.829 2.811 2.811 2.804 2.831 2.846 2.826 2.884 2.911 2.841 2.814 2.809 2.771 2.744 2.754 2.841 2.906 2.939 2.981 2.944 2.884 2.824 2.769 2.724 2.704 2.589 2.531 2.521 2.561 2.581 2.584 2.589 2.596 2.656 2.696 2.731 2.746 2.789 2.799 2.791 2.816 2.819 2.894 2.919 2.951 3.004 3.086 3.134 3.171 3.196 3.164 3.234 3.251 3.244 3.286 3.354 3.389 3.454 3.536 3.654 3.699 3.786 3.826 3.936 4.024 4.116 4.194 4.241 4.311 4.394 4.481 4.559 4.639 4.701 4.769 4.846 4.894 4.926 4.966 5.016 5.036 5.089 5.106 5.176 5.184 5.221 5.274 5.311 5.354 5.454 5.551 5.561 5.559 5.536 5.536 5.501 5.491
1.369 1.279 1.209 1.136 1.136 1.141 1.159 1.114 1.106 1.106 1.119 1.179 1.359 1.266 1.084 1.194 1.229 1.129 1.101 1.076 1.084 1.129 1.094 1.119 1.106 1.091 1.069 1.051 1.096 1.136 1.104 1.116 1.086 1.086 1.124 1.099 1.216 1.244 1.551 1.946 1.779 3.311 2.891 1.839 1.404 1.456 1.494 1.411 2.276 0.921 0.849 0.849 0.834 0.796 0.901 0.971 0.774 1.019 1.081 1.071 1.024 0.954 0.944 0.939 0.936 0.911 0.936 0.886 0.881 0.919 0.886 0.874 0.881 0.884 0.881 0.826 0.826 0.884 0.839 0.819 0.766 0.784 0.761 0.769 0.736 0.736 0.749 0.779 0.789 0.919 1.166 0.709 0.769 1.426 1.301 2.454 2.984 2.539 2.046 2.106 2.231 2.159 1.846 1.589 1.036 1.084 1.051 0.674 0.706 0.756 0.799 0.786 0.749 0.751 0.729 0.829 0.846 0.884 0.869 0.909 0.801 0.804 0.814 0.744 0.804 0.834 0.856 0.969 1.086 1.104 1.036 1.236 0.784 0.369 0.429 1.251 1.379 1.431 1.419 1.346 1.081 0.879 0.811 0.809 0.819 0.809 0.856 0.851 0.864 0.841 0.826 0.814 0.809 0.809 0.799 0.791 0.769 0.776 0.784 0.796 0.759 0.744 0.731 0.744 0.726 0.736 0.726 0.734 0.754 0.746 0.729 0.709 0.724 0.719 0.726 0.741 0.711 0.656 0.701 0.721 0.761 0.769 0.759 0.724 0.619 0.531 0.429 0.349 0.349 0.289 0.384 0.331 0.431 0.669 0.779 0.761 0.789 0.754 0.716 0.619 0.746 0.806 0.819 0.829 0.839 0.864 0.871 0.836 0.799 0.826 0.891 0.839 0.759 0.704 0.749 0.751 0.796 0.844 0.901 0.849 0.814 0.769 0.781 0.814 0.779 0.744 0.721 0.721 0.684 0.686 0.724 0.701 0.694 0.701 0.729 0.741 0.756 0.714 0.689 0.701 0.706 0.709 0.744 0.734 0.726 0.719 0.746 0.784 0.794 0.784 0.839 0.846 0.889 0.939 0.949 0.949 0.964 0.964 0.866 0.844 0.829 0.851 0.879 0.871 0.894 0.901 0.906 0.971 1.019 1.051 1.091 1.081 1.041 1.019 0.971 0.949 0.891 0.909 0.896 0.876 0.829 0.741 0.724 0.734 0.741 0.789 0.896 0.884 0.909 0.949 0.914 0.884 0.846 0.864 0.894 0.891 0.904 0.891 0.886 0.876 0.859 0.866 0.871 0.896 0.881 0.911 0.954 0.926 0.916 0.909 0.911 0.909 0.894 0.916 0.914 0.936 0.931 0.936 0.939 0.941 0.944 0.951 0.989 0.976 0.971 0.999 0.979 0.999 1.016 1.024 1.031 1.006 1.021 1.004 0.996 1.031 1.031 1.019 1.039 1.049 1.049 1.046 1.021 1.011 0.989 1.004 0.989 1.004 1.046 1.089 1.051 1.036 1.036 1.074 1.179 1.319 1.331 0.921 0.421 0.411 0.839 0.931 0.884 0.891 0.884 0.926 0.974 0.996 0.846 0.766 0.861 0.989 1.076 1.129 1.144 1.189 1.214 1.256 1.349 1.489 1.699 1.889 2.039 2.181 2.329 2.479 2.579 2.706 2.851 2.991 3.096 3.219 3.284 3.339 3.354 3.259 3.141 3.066 3.054 3.036 2.981 2.994 2.996 3.059 3.051 3.079 3.059 3.009 3.049 3.081 3.031 3.024 3.086 3.129 3.184 3.244 3.229 3.166 3.124 3.044 3.016 2.944 2.914 2.866 2.816 2.809 2.799 2.794 2.789 2.809 2.864 2.909 2.939 2.994 3.021 3.074 3.076 3.101 3.136 3.159 3.226 3.276 3.331 3.399 3.471 3.471 3.489 3.511 3.556 3.559 3.594 3.594 3.689 3.764 3.801 3.881 3.941 4.011 4.089 4.121 4.216 4.314 4.384 4.431 4.529 4.569 4.621 4.704 4.764 4.844 4.889 4.956 5.004 5.089 5.106 5.149 5.189 5.219 5.219 5.259 5.309 5.346 5.391 5.429 5.496 5.556 5.674 5.719 5.716 5.686 5.681 5.646 5.641 5.651
1.234 1.181 1.159 1.169 1.166 1.134 1.134 1.129 1.106 1.084 1.111 1.211 1.531 1.981 1.344 1.461 1.196 1.119 1.116 1.079 1.061 1.086 1.099 1.111 1.106 1.099 1.056 1.061 1.054 1.101 1.089 1.094 1.141 1.114 1.081 1.201 1.341 1.551 1.811 1.571 1.409 2.899 3.054 1.571 1.434 1.489 1.499 1.756 2.589 0.906 0.869 0.864 0.804 0.859 0.954 0.944 0.866 1.031 1.094 1.059 1.036 0.961 0.954 0.969 0.951 0.946 0.944 0.926 0.884 0.904 0.864 0.876 0.891 0.841 0.856 0.826 0.814 0.801 0.806 0.796 0.824 0.796 0.744 0.756 0.759 0.764 0.791 0.794 0.819 1.321 0.916 0.799 0.986 1.766 3.524 3.274 2.834 2.179 2.056 2.201 2.219 1.969 1.699 1.239 0.839 0.999 0.784 0.764 0.776 0.746 0.774 0.779 0.746 0.714 0.819 0.831 0.816 0.861 0.914 0.864 0.816 0.786 0.781 0.756 0.809 0.814 0.841 0.929 1.041 1.104 1.046 1.081 1.241 0.936 0.376 1.111 1.379 1.489 1.416 1.321 1.136 0.894 0.789 0.779 0.794 0.796 0.801 0.829 0.844 0.849 0.849 0.879 0.869 0.849 0.836 0.799 0.796 0.789 0.839 0.794 0.786 0.801 0.779 0.754 0.754 0.734 0.729 0.741 0.729 0.731 0.726 0.741 0.731 0.749 0.744 0.711 0.716 0.704 0.691 0.676 0.691 0.721 0.679 0.704 0.659 0.686 0.709 0.639 0.616 0.531 0.441 0.274 0.264 0.324 0.341 0.409 0.539 0.671 0.721 0.516 0.704 0.806 0.849 0.896 0.854 0.859 0.864 0.791 0.799 0.841 0.911 0.884 0.781 0.721 0.731 0.739 0.796 0.839 0.861 0.866 0.779 0.776 0.746 0.741 0.766 0.711 0.704 0.699 0.646 0.651 0.686 0.731 0.671 0.701 0.734 0.761 0.764 0.731 0.714 0.696 0.676 0.701 0.691 0.706 0.724 0.719 0.714 0.746 0.749 0.769 0.801 0.786 0.869 0.844 0.886 0.861 0.849 0.811 0.784 0.799 0.826 0.874 0.919 0.941 0.919 0.936 0.994 1.026 1.051 1.084 1.101 1.106 1.079 1.059 0.979 0.961 0.911 0.914 0.911 0.859 0.821 0.744 0.716 0.714 0.751 0.786 0.804 0.861 0.919 0.911 0.906 0.894 0.909 0.924 0.916 0.894 0.896 0.881 0.906 0.901 0.881 0.856 0.901 0.879 0.869 0.914 0.904 0.921 0.896 0.909 0.899 0.894 0.884 0.904 0.911 0.916 0.944 0.939 0.929 0.934 0.954 0.954 0.966 0.956 0.949 0.974 1.011 1.019 0.996 1.011 1.014 0.996 0.994 1.011 1.014 1.021 1.024 1.029 1.011 1.026 1.016 1.024 1.024 1.026 0.994 0.986 1.006 1.014 1.086 1.046 1.076 1.076 1.039 1.051 1.176 1.316 1.269 0.804 0.286 0.516 0.941 0.941 0.976 0.971 1.014 1.014 1.054 1.099 1.111 0.949 0.734 0.836 0.996 1.021 0.999 1.056 1.136 1.244 1.394 1.609 1.861 2.044 2.206 2.359 2.524 2.654 2.771 2.911 3.046 3.146 3.244 3.319 3.366 3.439 3.466 3.434 3.369 3.286 3.319 3.326 3.324 3.319 3.284 3.246 3.246 3.274 3.261 3.216 3.229 3.291 3.276 3.266 3.374 3.436 3.504 3.541 3.484 3.434 3.356 3.306 3.264 3.236 3.209 3.134 3.099 3.081 3.049 3.046 3.034 3.066 3.131 3.124 3.219 3.236 3.274 3.299 3.351 3.401 3.481 3.539 3.566 3.616 3.651 3.704 3.754 3.796 3.806 3.839 3.891 3.916 3.964 4.029 4.059 4.086 4.096 4.164 4.189 4.276 4.329 4.396 4.486 4.581 4.639 4.656 4.736 4.776 4.856 4.939 4.969 5.016 5.054 5.106 5.139 5.209 5.256 5.316 5.339 5.411 5.359 5.429 5.436 5.464 5.526 5.604 5.651 5.741 5.834 5.844 5.839 5.851 5.811 5.806 5.799 5.824
1.144 1.179 1.144 1.176 1.171 1.166 1.136 1.159 1.134 1.129 1.104 1.236 2.326 2.476 1.949 2.074 1.446 1.151 1.114 1.094 1.089 1.089 1.091 1.111 1.174 1.136 1.149 1.086 1.074 1.071 1.086 1.109 1.146 1.146 1.146 1.386 1.371 1.599 1.591 1.246 1.831 3.036 2.546 1.516 1.451 1.481 1.396 1.829 2.501 0.886 0.856 0.799 0.761 0.926 0.946 0.919 0.886 1.086 1.126 1.064 1.041 0.959 0.916 0.916 0.944 0.946 0.964 0.921 0.901 0.904 0.879 0.879 0.859 0.821 0.816 0.809 0.774 0.796 0.769 0.796 0.794 0.761 0.764 0.751 0.764 0.811 0.844 0.779 1.139 1.091 0.784 1.086 1.351 2.101 3.454 3.374 2.576 2.071 2.134 2.271 2.144 1.794 1.576 1.086 0.796 0.691 0.786 0.796 0.749 0.729 0.761 0.736 0.729 0.841 0.871 0.811 0.844 0.839 0.864 0.804 0.781 0.814 0.779 0.754 0.789 0.794 0.846 0.904 0.989 1.066 1.045 1.075 1.16 0.519 0.099 0.868 1.403 1.481 1.453 1.336 1.175 0.936 0.799 0.801 0.806 0.816 0.784 0.794 0.804 0.784 0.761 0.781 0.816 0.859 0.874 0.884 0.851 0.871 0.854 0.811 0.801 0.796 0.774 0.769 0.759 0.771 0.759 0.756 0.739 0.734 0.714 0.709 0.721 0.696 0.679 0.691 0.719 0.704 0.684 0.659 0.694 0.666 0.669 0.699 0.664 0.694 0.674 0.676 0.681 0.696 0.716 0.759 0.646 0.479 0.444 0.411 0.344 0.264 0.239 0.174 0.364 0.591 0.714 0.836 0.831 0.846 0.804 0.754 0.751 0.791 0.809 0.869 0.824 0.794 0.796 0.776 0.811 0.831 0.856 0.841 0.809 0.796 0.774 0.736 0.716 0.724 0.691 0.686 0.689 0.676 0.651 0.714 0.661 0.686 0.731 0.764 0.784 0.756 0.724 0.711 0.724 0.734 0.689 0.684 0.701 0.701 0.704 0.721 0.766 0.799 0.806 0.764 0.779 0.779 0.719 0.696 0.694 0.726 0.746 0.806 0.861 0.874 0.911 0.964 0.994 1.011 1.031 1.036 1.059 1.104 1.084 1.084 1.139 1.099 1.056 1.021 0.941 0.896 0.916 0.891 0.904 0.841 0.724 0.661 0.686 0.741 0.774 0.836 0.891 0.916 0.966 0.939 0.921 0.929 0.911 0.899 0.919 0.896 0.916 0.914 0.904 0.901 0.879 0.866 0.876 0.901 0.884 0.896 0.894 0.926 0.929 0.919 0.909 0.916 0.911 0.906 0.901 0.919 0.931 0.941 0.946 0.989 0.981 0.959 0.974 0.976 1.031 1.026 1.044 1.029 1.029 1.014 1.004 1.011 1.016 1.034 1.011 1.011 1.016 1.014 1.011 1.021 1.039 1.044 0.996 1.031 1.011 1.021 1.041 1.051 1.084 1.069 1.024 1.074 1.231 1.364 1.244 0.624 0.229 0.661 0.896 0.924 0.954 1.004 0.996 1.001 1.046 1.129 1.204 1.121 0.939 0.716 0.784 0.821 0.894 1.006 1.106 1.286 1.501 1.754 1.974 2.171 2.359 2.514 2.656 2.834 2.941 3.056 3.201 3.301 3.384 3.426 3.516 3.539 3.541 3.566 3.574 3.609 3.681 3.666 3.661 3.669 3.566 3.471 3.444 3.439 3.459 3.456 3.479 3.464 3.466 3.504 3.576 3.641 3.726 3.804 3.749 3.689 3.621 3.589 3.551 3.501 3.464 3.429 3.396 3.374 3.339 3.326 3.336 3.344 3.399 3.414 3.471 3.471 3.539 3.579 3.656 3.731 3.774 3.856 3.894 3.929 3.976 3.991 4.029 4.084 4.124 4.156 4.189 4.234 4.271 4.316 4.346 4.376 4.426 4.436 4.451 4.561 4.559 4.626 4.709 4.786 4.829 4.889 4.929 5.001 5.056 5.119 5.149 5.174 5.226 5.269 5.306 5.349 5.381 5.431 5.476 5.526 5.536 5.576 5.596 5.646 5.679 5.711 5.781 5.881 5.936 5.946 5.934 5.929 5.919 5.914 5.936 5.954
1.124 1.136 1.151 1.156 1.126 1.191 1.256 1.171 1.151 1.184 1.209 1.729 2.614 2.511 2.169 1.869 1.316 1.079 1.091 1.106 1.076 1.056 1.056 1.079 1.094 1.089 1.099 1.094 1.056 1.036 1.071 1.116 1.159 1.189 1.181 1.366 1.444 1.524 1.594 1.334 1.176 3.986 3.221 1.416 1.446 1.471 1.424 2.579 1.921 0.899 0.766 0.796 0.819 0.876 0.964 0.839 0.951 1.109 1.136 1.016 1.026 0.971 0.944 0.919 0.966 0.944 0.936 0.876 0.826 0.846 0.861 0.899 0.841 0.824 0.814 0.819 0.786 0.786 0.784 0.791 0.799 0.759 0.739 0.721 0.779 0.841 0.899 0.811 1.094 0.826 0.906 1.276 2.169 2.776 3.304 2.899 2.184 2.089 2.206 2.236 1.931 1.769 1.641 0.964 0.889 0.781 0.811 0.799 0.756 0.729 0.714 0.764 0.884 0.891 0.869 0.854 0.859 0.784 0.811 0.789 0.839 0.799 0.759 0.731 0.771 0.779 0.794 0.856 0.97 1.035 1.059 1.126 1.188 0.651 0.174 0.539 1.32 1.444 1.46 1.332 1.145 0.895 0.812 0.811 0.809 0.821 0.799 0.804 0.784 0.774 0.776 0.716 0.796 0.786 0.814 0.851 0.856 0.839 0.859 0.864 0.846 0.831 0.811 0.784 0.791 0.784 0.769 0.751 0.801 0.776 0.759 0.731 0.711 0.711 0.679 0.694 0.709 0.694 0.659 0.671 0.664 0.649 0.686 0.676 0.659 0.669 0.674 0.644 0.644 0.654 0.664 0.731 0.676 0.536 0.666 0.801 0.776 0.716 0.624 0.506 0.386 0.349 0.296 0.364 0.464 0.554 0.636 0.674 0.676 0.689 0.696 0.796 0.854 0.826 0.816 0.814 0.869 0.871 0.854 0.824 0.814 0.799 0.749 0.726 0.716 0.711 0.709 0.714 0.699 0.711 0.724 0.689 0.669 0.671 0.716 0.751 0.766 0.764 0.759 0.711 0.719 0.729 0.714 0.696 0.696 0.714 0.721 0.694 0.706 0.714 0.736 0.674 0.614 0.509 0.504 0.561 0.664 0.694 0.756 0.814 0.849 0.906 0.944 0.971 0.976 0.999 1.049 1.026 1.039 1.081 1.074 1.086 1.131 1.096 1.074 1.006 0.959 0.864 0.896 0.934 0.924 0.851 0.724 0.621 0.634 0.716 0.759 0.804 0.911 0.954 0.951 0.954 0.931 0.934 0.934 0.931 0.944 0.921 0.914 0.929 0.934 0.916 0.896 0.881 0.874 0.894 0.901 0.899 0.916 0.916 0.916 0.934 0.911 0.919 0.961 0.951 0.926 0.936 0.956 0.956 0.956 0.941 0.971 0.971 0.966 0.979 1.014 1.021 1.031 1.024 1.046 1.051 1.041 1.016 1.006 1.004 1.004 0.996 0.981 1.034 1.061 1.041 1.021 1.021 1.031 1.014 1.021 0.989 0.996 1.034 1.049 1.024 1.031 1.114 1.234 1.349 1.134 0.431 2.246 3.071 1.154 0.956 0.989 1.011 1.004 1.079 1.124 1.166 1.174 1.111 0.954 0.724 0.686 0.754 0.826 0.954 1.134 1.379 1.586 1.854 2.084 2.279 2.486 2.719 2.896 3.031 3.134 3.259 3.339 3.451 3.569 3.596 3.639 3.651 3.636 3.711 3.771 3.789 3.844 3.856 3.911 3.919 3.841 3.751 3.721 3.691 3.694 3.686 3.714 3.644 3.631 3.676 3.739 3.806 3.849 3.961 4.019 3.964 3.926 3.916 3.861 3.839 3.801 3.764 3.761 3.726 3.671 3.649 3.679 3.691 3.701 3.729 3.749 3.809 3.804 3.846 3.914 4.004 4.044 4.124 4.154 4.199 4.246 4.284 4.316 4.364 4.386 4.419 4.461 4.519 4.559 4.604 4.656 4.656 4.699 4.679 4.719 4.774 4.794 4.891 4.921 5.006 5.009 5.089 5.116 5.149 5.234 5.216 5.306 5.334 5.371 5.379 5.439 5.451 5.496 5.544 5.624 5.641 5.669 5.721 5.761 5.834 5.841 5.906 5.939 5.981 6.004 6.014 6.041 6.064 6.006 6.009 6.071 6.096
1.169 1.347 1.187 1.197 1.179 1.197 1.599 1.327 1.262 1.359 1.382 2.054 2.644 2.334 2.469 1.994 1.162 1.092 1.094 1.122 1.082 1.077 1.074 1.089 1.082 1.114 1.077 1.092 1.064 1.057 1.062 1.114 1.174 1.207 1.222 1.337 1.477 1.534 1.472 1.279 2.062 4.694 2.112 1.417 1.477 1.514 1.406 3.536 1.391 0.931 0.789 0.769 0.809 0.909 1.014 0.744 0.954 1.091 1.104 1.011 1.011 0.984 0.934 0.899 0.909 0.919 0.904 0.899 0.791 0.796 0.866 0.884 0.851 0.809 0.829 0.801 0.821 0.791 0.789 0.776 0.756 0.731 0.714 0.686 0.774 0.884 0.901 1.086 0.896 0.809 1.074 1.369 1.841 2.726 3.131 2.389 2.106 2.204 2.279 2.079 1.844 1.701 1.126 0.874 0.749 0.736 0.779 0.759 0.719 0.706 0.831 0.841 0.931 0.886 0.836 0.859 0.814 0.734 0.764 0.776 0.789 0.791 0.754 0.741 0.729 0.769 0.814 0.792 0.899 0.978 1.087 1.049 1.391 1.129 0.311 0.219 1.213 1.38 1.439 1.316 1.164 0.917 0.806 0.802 0.799 0.826 0.826 0.819 0.806 0.789 0.769 0.799 0.779 0.789 0.781 0.799 0.819 0.794 0.849 0.839 0.846 0.846 0.839 0.841 0.839 0.831 0.814 0.776 0.801 0.839 0.839 0.809 0.779 0.761 0.761 0.734 0.734 0.704 0.689 0.681 0.646 0.679 0.654 0.661 0.651 0.674 0.669 0.671 0.669 0.636 0.644 0.666 0.631 0.544 0.621 0.716 0.776 0.754 0.781 0.801 0.791 0.781 0.794 0.696 0.624 0.441 0.311 0.279 0.269 0.416 0.544 0.549 0.691 0.826 0.856 0.879 0.899 0.909 0.859 0.841 0.776 0.751 0.729 0.721 0.709 0.744 0.756 0.741 0.729 0.794 0.784 0.749 0.726 0.709 0.709 0.749 0.739 0.756 0.731 0.704 0.701 0.724 0.704 0.701 0.691 0.716 0.684 0.656 0.641 0.634 0.511 0.404 0.374 0.359 0.401 0.536 0.659 0.696 0.746 0.809 0.846 0.866 0.894 0.954 0.959 0.974 1.034 1.071 1.086 1.101 1.106 1.099 1.091 1.061 1.074 1.006 0.979 0.916 0.884 0.916 0.886 0.809 0.756 0.644 0.639 0.741 0.769 0.826 0.894 0.924 0.971 0.961 0.951 0.941 0.941 0.939 0.941 0.959 0.951 0.924 0.931 0.931 0.921 0.939 0.921 0.916 0.926 0.889 0.891 0.916 0.916 0.931 0.936 0.924 0.941 0.946 0.934 0.934 0.961 0.971 0.959 0.951 0.964 0.976 0.971 0.974 1.004 1.024 1.041 1.024 1.046 1.051 1.054 1.021 0.991 0.964 0.941 0.961 0.989 1.041 1.071 1.049 1.006 1.011 1.004 1.001 1.006 0.974 0.979 1.004 0.984 0.974 1.006 1.124 1.236 1.279 1.001 0.291 1.789 2.321 0.826 0.994 1.024 1.014 1.049 1.111 1.161 1.161 1.116 1.049 0.961 0.829 0.714 0.739 0.846 0.971 1.199 1.471 1.754 2.031 2.274 2.469 2.649 2.874 3.016 3.109 3.214 3.306 3.391 3.509 3.591 3.629 3.654 3.659 3.719 3.811 3.844 3.851 3.916 4.009 4.079 4.099 4.024 4.001 3.924 3.866 3.836 3.804 3.851 3.801 3.761 3.821 3.864 3.911 3.956 4.096 4.184 4.169 4.189 4.194 4.149 4.139 4.094 4.061 4.059 4.059 4.044 4.019 4.006 3.996 4.034 4.059 4.094 4.111 4.121 4.136 4.211 4.291 4.336 4.399 4.444 4.496 4.559 4.574 4.626 4.644 4.674 4.686 4.704 4.761 4.799 4.839 4.879 4.914 4.951 4.944 4.981 4.991 5.006 5.099 5.126 5.191 5.216 5.269 5.266 5.354 5.366 5.401 5.429 5.474 5.519 5.549 5.599 5.601 5.649 5.664 5.746 5.731 5.799 5.844 5.886 5.941 6.019 6.034 6.126 6.149 6.166 6.139 6.149 6.169 6.156 6.169 6.216 6.229
1.147 1.182 1.249 1.327 1.374 1.437 1.709 1.429 1.417 1.449 1.682 1.997 2.559 2.272 2.492 1.972 1.142 1.067 1.069 1.077 1.094 1.072 1.069 1.084 1.099 1.114 1.114 1.079 1.077 1.099 1.047 1.159 1.184 1.259 1.449 1.574 1.579 1.452 1.497 1.422 1.664 3.087 2.407 1.432 1.424 1.454 1.474 2.809 1.066 0.939 0.854 0.931 0.846 0.926 0.959 0.801 1.019 1.081 1.051 1.031 0.986 0.964 0.919 0.891 0.891 0.886 0.876 0.889 0.776 0.781 0.854 0.859 0.871 0.821 0.814 0.804 0.799 0.769 0.749 0.749 0.741 0.739 0.711 0.694 0.741 0.811 0.821 0.901 0.596 0.994 1.356 1.424 1.846 2.489 2.454 2.151 2.164 2.299 2.226 1.866 1.651 1.444 0.939 0.811 0.749 0.791 0.709 0.706 0.724 0.831 0.864 0.874 0.876 0.844 0.806 0.829 0.794 0.781 0.811 0.779 0.779 0.766 0.774 0.786 0.749 0.757 0.769 0.759 0.86 0.921 1.018 1 1.595 0.936 0.501 0.091 0.897 1.317 1.415 1.315 1.199 0.999 0.833 0.805 0.824 0.83 0.826 0.804 0.796 0.781 0.771 0.801 0.794 0.774 0.804 0.816 0.816 0.841 0.849 0.819 0.791 0.809 0.826 0.834 0.831 0.844 0.854 0.816 0.804 0.814 0.814 0.819 0.834 0.796 0.761 0.781 0.776 0.744 0.736 0.699 0.684 0.694 0.694 0.674 0.704 0.694 0.681 0.674 0.656 0.636 0.644 0.639 0.614 0.584 0.624 0.661 0.679 0.696 0.736 0.764 0.769 0.811 0.864 0.859 0.876 0.861 0.736 0.641 0.571 0.399 0.266 0.314 0.271 0.284 0.486 0.619 0.704 0.799 0.804 0.826 0.834 0.789 0.666 0.714 0.764 0.796 0.791 0.799 0.816 0.894 0.894 0.846 0.819 0.771 0.729 0.694 0.711 0.769 0.756 0.704 0.724 0.726 0.701 0.769 0.736 0.679 0.601 0.574 0.516 0.464 0.361 0.316 0.349 0.369 0.441 0.559 0.664 0.716 0.771 0.784 0.829 0.854 0.899 0.924 0.946 0.969 0.994 1.066 1.086 1.099 1.109 1.069 1.074 1.024 1.021 1.009 1.014 0.884 0.776 0.824 0.894 0.869 0.806 0.741 0.714 0.731 0.769 0.794 0.884 0.936 0.974 0.956 0.954 0.959 0.951 0.944 0.946 0.954 0.944 0.936 0.951 0.936 0.939 0.951 0.941 0.936 0.939 0.906 0.904 0.914 0.916 0.921 0.919 0.934 0.959 0.939 0.946 0.936 0.949 0.976 0.969 0.966 0.961 0.979 0.979 0.954 1.004 1.009 1.029 1.029 1.056 1.069 1.009 1.004 0.991 0.931 0.951 0.979 1.026 1.056 1.074 1.059 1.029 1.016 1.014 0.996 0.996 0.979 0.986 0.964 0.961 0.971 1.046 1.141 1.246 1.214 0.791 0.339 0.399 0.821 0.956 1.006 1.026 1.046 1.074 1.086 1.101 1.151 1.176 1.174 1.111 1.009 0.789 0.729 0.816 0.976 1.269 1.646 1.921 2.184 2.399 2.619 2.766 2.894 3.021 3.116 3.219 3.299 3.389 3.531 3.601 3.629 3.656 3.696 3.736 3.841 3.876 3.884 3.941 4.019 4.074 4.084 4.054 4.061 3.999 3.929 3.884 3.859 3.901 3.904 3.874 3.906 3.954 3.986 4.064 4.174 4.261 4.344 4.381 4.389 4.394 4.386 4.376 4.316 4.331 4.314 4.294 4.291 4.296 4.309 4.336 4.356 4.371 4.374 4.391 4.451 4.494 4.581 4.621 4.686 4.729 4.771 4.836 4.864 4.909 4.929 4.944 4.941 4.946 4.989 5.026 5.094 5.089 5.126 5.151 5.179 5.239 5.239 5.276 5.306 5.361 5.406 5.394 5.444 5.461 5.529 5.549 5.571 5.574 5.619 5.644 5.704 5.706 5.746 5.776 5.791 5.849 5.876 5.929 5.951 6.024 6.049 6.109 6.149 6.236 6.239 6.261 6.259 6.274 6.286 6.296 6.314 6.376 6.374
1.152 1.294 1.829 1.574 1.744 1.487 1.447 1.444 1.454 1.577 1.659 2.112 2.522 1.959 2.627 2.209 1.269 1.077 1.149 1.117 1.102 1.099 1.137 1.122 1.092 1.114 1.094 1.084 1.074 1.104 1.052 1.112 1.217 1.202 1.492 1.422 1.497 1.482 1.572 1.542 2.359 3.014 1.739 1.414 1.482 1.449 1.641 2.034 0.951 0.929 0.891 0.921 0.896 0.954 0.916 0.719 1.066 1.081 1.074 1.004 0.994 0.956 0.914 0.879 0.884 0.884 0.884 0.829 0.736 0.831 0.866 0.859 0.861 0.836 0.796 0.786 0.779 0.761 0.796 0.776 0.731 0.716 0.704 0.711 0.766 0.809 0.971 0.639 0.736 1.111 1.336 1.379 1.644 2.084 2.149 2.146 2.334 2.301 2.034 1.744 1.524 1.106 0.829 0.686 0.729 0.771 0.744 0.719 0.826 0.874 0.884 0.879 0.849 0.846 0.814 0.824 0.806 0.791 0.789 0.741 0.784 0.756 0.764 0.806 0.742 0.694 0.702 0.693 0.774 0.876 0.985 1.034 0.931 0.766 0.162 0.15 0.55 1.207 1.391 1.332 1.226 1.109 0.883 0.812 0.816 0.839 0.793 0.789 0.796 0.804 0.799 0.811 0.806 0.804 0.804 0.816 0.834 0.846 0.754 0.799 0.826 0.826 0.811 0.801 0.806 0.804 0.789 0.789 0.821 0.836 0.836 0.826 0.839 0.824 0.774 0.791 0.766 0.791 0.774 0.774 0.771 0.771 0.774 0.749 0.724 0.711 0.701 0.691 0.636 0.639 0.654 0.634 0.606 0.621 0.654 0.646 0.651 0.684 0.709 0.734 0.784 0.801 0.824 0.856 0.884 0.876 0.829 0.781 0.716 0.679 0.659 0.749 0.686 0.616 0.544 0.419 0.396 0.339 0.431 0.454 0.571 0.506 0.491 0.771 0.899 0.899 0.881 0.856 0.859 0.881 0.886 0.829 0.831 0.836 0.796 0.746 0.724 0.751 0.774 0.736 0.736 0.716 0.701 0.664 0.641 0.599 0.596 0.541 0.456 0.419 0.374 0.479 0.536 0.554 0.619 0.701 0.699 0.711 0.744 0.794 0.816 0.831 0.881 0.894 0.926 0.964 0.971 1.069 1.094 1.091 1.054 1.031 1.019 0.991 0.999 0.976 0.971 0.866 0.791 0.794 0.884 0.934 0.919 0.839 0.751 0.721 0.769 0.796 0.839 0.936 0.989 0.969 0.974 0.936 0.946 0.944 0.944 0.949 0.921 0.956 0.969 0.966 0.954 0.956 0.969 0.959 0.941 0.916 0.931 0.914 0.931 0.924 0.921 0.936 0.939 0.961 0.944 0.971 0.946 0.951 0.959 0.964 0.984 0.966 0.964 0.974 1.001 1.039 1.014 1.009 1.021 1.024 1.011 0.964 0.916 0.941 0.996 1.006 1.016 1.044 1.074 1.036 1.016 1.021 1.031 0.969 0.939 0.959 0.916 0.926 0.909 0.976 1.056 1.164 1.276 1.119 0.614 0.354 0.536 0.986 1.006 1.049 1.041 1.021 1.054 1.096 1.144 1.211 1.209 1.169 1.079 0.989 0.859 0.746 0.811 0.966 1.299 1.669 1.974 2.199 2.434 2.666 2.791 2.886 3.031 3.176 3.279 3.349 3.401 3.506 3.589 3.654 3.706 3.751 3.766 3.846 3.889 3.911 3.981 3.989 4.024 4.064 4.046 4.061 3.984 3.911 3.856 3.861 3.931 3.969 3.986 4.066 4.096 4.136 4.179 4.244 4.349 4.426 4.461 4.484 4.524 4.556 4.549 4.556 4.581 4.581 4.566 4.529 4.539 4.549 4.566 4.579 4.606 4.626 4.634 4.704 4.766 4.829 4.891 4.919 4.961 5.001 5.061 5.121 5.114 5.129 5.154 5.169 5.194 5.216 5.266 5.321 5.301 5.346 5.329 5.376 5.406 5.434 5.479 5.511 5.599 5.566 5.601 5.601 5.666 5.691 5.696 5.761 5.761 5.794 5.821 5.869 5.851 5.916 5.906 5.961 5.991 6.024 6.029 6.084 6.151 6.191 6.251 6.284 6.346 6.374 6.369 6.404 6.421 6.414 6.449 6.486 6.496 6.471
1.209 1.354 1.712 1.737 1.504 1.482 1.449 1.399 1.474 1.634 1.707 2.299 2.424 1.687 2.147 2.084 1.412 1.202 1.202 1.109 1.044 1.007 1.187 1.204 1.152 1.057 1.124 1.162 1.202 1.099 1.049 1.104 1.217 1.192 1.377 1.472 1.394 1.417 1.492 1.362 1.904 2.834 1.472 1.432 1.512 1.454 1.456 1.361 0.959 0.924 0.876 0.876 0.941 1.006 0.841 0.709 0.991 1.084 1.099 1.009 0.976 0.976 0.941 0.906 0.889 0.906 0.906 0.861 0.806 0.834 0.831 0.841 0.854 0.834 0.794 0.781 0.776 0.756 0.781 0.759 0.734 0.694 0.716 0.731 0.734 0.919 0.809 0.669 0.939 1.234 1.246 1.586 1.779 2.096 2.154 2.249 2.319 2.209 1.839 1.724 1.374 1.031 0.784 0.706 0.726 0.731 0.731 0.774 0.856 0.854 0.876 0.854 0.839 0.791 0.814 0.834 0.836 0.806 0.826 0.784 0.751 0.824 0.781 0.781 0.761 0.708 0.632 0.639 0.734 0.876 0.997 1.1 0.941 0.898 0.471 0.227 0.294 1.002 1.331 1.328 1.262 1.18 0.972 0.815 0.813 0.817 0.807 0.803 0.794 0.786 0.809 0.814 0.826 0.836 0.799 0.804 0.859 0.789 0.754 0.809 0.819 0.801 0.801 0.801 0.799 0.794 0.796 0.774 0.791 0.809 0.796 0.821 0.804 0.804 0.796 0.816 0.816 0.796 0.784 0.796 0.784 0.781 0.784 0.774 0.746 0.746 0.716 0.726 0.689 0.669 0.644 0.666 0.616 0.686 0.691 0.679 0.634 0.669 0.696 0.744 0.769 0.804 0.829 0.891 0.904 0.859 0.849 0.831 0.779 0.706 0.749 0.799 0.796 0.846 0.806 0.764 0.766 0.659 0.514 0.344 0.136 0.089 0.119 0.169 0.376 0.594 0.719 0.784 0.849 0.854 0.841 0.829 0.814 0.791 0.766 0.736 0.699 0.704 0.761 0.744 0.764 0.701 0.641 0.564 0.614 0.636 0.604 0.594 0.531 0.544 0.564 0.634 0.644 0.676 0.709 0.721 0.751 0.756 0.771 0.759 0.769 0.831 0.894 0.929 0.946 0.961 0.991 1.031 1.021 1.024 1.009 0.961 0.959 0.981 0.966 0.951 0.976 0.926 0.854 0.839 0.921 0.961 0.936 0.869 0.756 0.709 0.776 0.776 0.781 0.934 0.974 0.959 0.979 0.984 0.944 0.929 0.941 0.969 0.964 0.954 0.944 0.949 0.936 0.959 0.981 0.951 0.944 0.934 0.921 0.914 0.934 0.909 0.939 0.919 0.936 0.949 0.971 0.971 0.989 0.964 0.961 0.964 1.001 0.984 0.984 0.981 1.011 1.021 1.001 0.979 0.989 0.986 0.954 0.954 0.939 0.946 0.976 1.039 1.054 1.039 1.034 1.016 1.011 1.026 1.014 0.956 0.929 0.916 0.911 0.926 0.959 1.034 1.094 1.151 1.211 1.029 0.419 0.434 0.741 1.026 0.996 0.994 1.009 1.026 1.084 1.136 1.164 1.141 1.086 1.076 1.014 0.926 0.879 0.794 0.869 1.054 1.286 1.631 1.949 2.221 2.499 2.679 2.809 2.921 3.026 3.129 3.284 3.401 3.464 3.544 3.631 3.694 3.746 3.796 3.829 3.846 3.901 3.961 3.994 3.989 4.014 4.039 4.049 4.109 4.071 4.006 3.966 3.964 4.061 4.101 4.069 4.206 4.324 4.374 4.379 4.371 4.406 4.476 4.499 4.489 4.551 4.586 4.686 4.714 4.731 4.734 4.744 4.701 4.681 4.719 4.771 4.784 4.814 4.859 4.886 4.941 4.969 5.034 5.054 5.081 5.119 5.161 5.224 5.269 5.301 5.309 5.319 5.354 5.364 5.394 5.456 5.456 5.491 5.534 5.489 5.546 5.536 5.544 5.609 5.654 5.724 5.721 5.756 5.764 5.859 5.861 5.874 5.889 5.936 5.976 6.001 6.041 6.046 6.069 6.091 6.126 6.156 6.209 6.189 6.231 6.286 6.329 6.379 6.444 6.491 6.489 6.501 6.511 6.556 6.569 6.571 6.626 6.626 6.616
1.447 1.494 1.574 1.622 1.519 1.594 1.429 1.289 1.459 1.542 1.649 1.689 1.674 1.314 1.644 1.814 1.517 1.347 1.257 1.137 1.107 1.107 1.139 1.199 1.079 1.052 1.139 1.179 1.252 1.132 1.049 1.089 1.112 1.109 1.297 1.497 1.504 1.332 1.464 1.337 2.209 3.132 1.462 1.432 1.457 1.377 1.464 1.139 0.984 0.896 0.954 0.934 1.036 1.061 0.679 0.726 1.144 1.129 1.086 1.009 0.971 0.954 0.946 0.936 0.894 0.909 0.939 0.934 0.916 0.866 0.851 0.826 0.864 0.839 0.849 0.781 0.754 0.779 0.774 0.721 0.726 0.691 0.756 0.734 0.904 0.806 0.486 0.899 1.219 1.216 1.369 1.776 2.051 2.159 2.199 2.311 2.309 2.376 1.981 1.766 1.151 0.986 0.709 0.736 0.741 0.721 0.721 0.821 0.856 0.844 0.839 0.831 0.766 0.806 0.826 0.866 0.864 0.849 0.841 0.784 0.794 0.819 0.769 0.731 0.772 0.72 0.641 0.659 0.764 0.886 1.016 1.156 1.085 0.912 0.444 0.014 0.006 0.762 1.204 1.284 1.231 1.195 1.063 0.842 0.814 0.805 0.799 0.784 0.806 0.826 0.831 0.824 0.841 0.851 0.821 0.786 0.814 0.794 0.834 0.831 0.814 0.819 0.811 0.791 0.796 0.794 0.809 0.811 0.779 0.781 0.816 0.801 0.811 0.791 0.786 0.776 0.786 0.801 0.824 0.826 0.821 0.791 0.751 0.759 0.744 0.746 0.721 0.739 0.736 0.701 0.671 0.624 0.639 0.691 0.744 0.719 0.706 0.719 0.721 0.741 0.754 0.804 0.834 0.874 0.864 0.884 0.886 0.859 0.811 0.804 0.764 0.726 0.716 0.764 0.749 0.766 0.766 0.774 0.769 0.634 0.409 0.616 0.619 0.529 0.369 0.271 0.371 0.346 0.351 0.494 0.596 0.644 0.741 0.774 0.784 0.761 0.771 0.786 0.729 0.674 0.656 0.596 0.556 0.509 0.576 0.611 0.629 0.639 0.624 0.619 0.601 0.631 0.666 0.686 0.721 0.736 0.744 0.739 0.746 0.741 0.756 0.821 0.851 0.894 0.874 0.909 0.934 0.969 0.981 0.961 0.939 0.919 0.894 0.924 0.924 0.996 1.009 1.044 0.959 0.899 0.984 0.979 0.914 0.849 0.734 0.706 0.749 0.789 0.806 0.876 0.934 0.956 0.974 0.974 0.954 0.976 0.964 0.979 0.979 0.961 0.949 0.956 0.934 0.931 0.974 0.969 0.951 0.939 0.926 0.929 0.941 0.951 0.931 0.931 0.914 0.921 0.946 0.964 0.981 0.964 0.989 0.989 0.986 1.016 0.999 1.011 0.996 1.001 0.981 0.969 0.941 0.956 0.981 0.946 0.959 0.984 1.009 1.034 1.049 1.001 1.009 1.014 1.019 0.989 0.961 0.984 0.926 0.884 0.884 0.934 0.949 1.029 1.039 1.131 1.164 0.894 0.296 0.254 0.881 0.954 0.949 0.996 1.056 1.119 1.129 1.156 1.136 1.066 1.024 1.044 0.991 0.914 0.889 0.844 0.919 1.106 1.319 1.601 1.911 2.214 2.419 2.654 2.786 2.931 3.024 3.131 3.256 3.349 3.476 3.606 3.686 3.749 3.774 3.834 3.849 3.876 3.936 4.016 4.036 4.069 4.039 4.066 4.084 4.131 4.136 4.149 4.139 4.129 4.211 4.241 4.219 4.321 4.464 4.534 4.524 4.531 4.546 4.564 4.581 4.599 4.651 4.719 4.786 4.811 4.826 4.834 4.834 4.851 4.831 4.889 4.946 4.954 4.991 5.014 5.044 5.074 5.094 5.161 5.174 5.229 5.276 5.306 5.364 5.406 5.414 5.414 5.441 5.476 5.501 5.546 5.584 5.566 5.621 5.614 5.666 5.649 5.694 5.736 5.764 5.804 5.824 5.846 5.854 5.889 5.959 5.976 6.014 6.051 6.109 6.124 6.156 6.171 6.214 6.211 6.264 6.284 6.311 6.349 6.379 6.384 6.436 6.486 6.521 6.554 6.604 6.611 6.604 6.604 6.659 6.674 6.729 6.734 6.736 6.719
1.359 1.439 1.337 1.709 1.489 1.582 1.322 1.317 1.469 1.339 1.234 1.624 1.532 1.204 1.387 1.372 1.262 1.224 1.162 1.047 1.092 1.079 1.059 1.062 1.082 1.032 1.049 1.169 1.164 1.079 1.074 1.082 1.144 1.144 1.212 1.432 1.557 1.257 1.282 1.629 3.442 4.004 2.484 1.419 1.487 1.382 2.684 0.974 0.826 0.824 0.809 0.931 1.084 1.074 0.831 0.811 1.049 1.089 1.069 1.051 0.974 0.961 0.954 0.936 0.914 0.939 0.909 0.891 0.896 0.869 0.871 0.841 0.836 0.849 0.859 0.891 0.789 0.821 0.789 0.786 0.734 0.699 0.789 0.859 0.946 0.659 0.704 1.231 1.684 1.414 1.664 2.026 2.119 2.156 2.314 2.329 2.114 1.854 1.819 1.521 0.861 0.701 0.739 0.809 0.791 0.766 0.766 0.791 0.821 0.846 0.826 0.791 0.806 0.796 0.821 0.856 0.844 0.836 0.861 0.829 0.816 0.796 0.782 0.744 0.763 0.723 0.643 0.677 0.787 0.905 1.042 1.181 1.172 0.978 0.719 0.164 0.314 0.521 1.066 1.27 1.233 1.223 1.146 0.918 0.827 0.825 0.817 0.794 0.798 0.859 0.831 0.826 0.846 0.821 0.786 0.776 0.791 0.826 0.811 0.816 0.844 0.836 0.844 0.816 0.796 0.811 0.816 0.814 0.796 0.794 0.811 0.796 0.814 0.799 0.791 0.789 0.791 0.786 0.794 0.796 0.821 0.801 0.791 0.776 0.779 0.759 0.739 0.724 0.726 0.704 0.694 0.664 0.671 0.701 0.751 0.746 0.741 0.731 0.716 0.754 0.804 0.841 0.829 0.879 0.866 0.861 0.839 0.811 0.839 0.824 0.786 0.744 0.719 0.701 0.719 0.706 0.686 0.684 0.681 0.556 0.609 0.819 0.816 0.796 0.781 0.761 0.696 0.589 0.514 0.266 0.181 0.149 0.256 0.321 0.459 0.629 0.734 0.741 0.639 0.626 0.601 0.564 0.521 0.509 0.579 0.616 0.609 0.661 0.646 0.701 0.681 0.686 0.691 0.726 0.719 0.721 0.696 0.701 0.736 0.764 0.794 0.806 0.854 0.854 0.841 0.839 0.839 0.876 0.891 0.881 0.861 0.839 0.841 0.871 0.944 0.969 1.026 1.071 1.044 0.916 0.974 0.976 0.919 0.831 0.744 0.674 0.756 0.769 0.781 0.889 0.976 1.021 0.974 0.974 0.976 0.981 0.976 0.971 0.984 0.976 0.961 0.971 0.961 0.974 0.961 0.976 0.969 0.969 0.969 0.944 0.959 0.971 0.944 0.964 0.939 0.939 0.984 0.974 0.981 0.971 0.984 0.986 0.979 0.989 0.971 0.971 0.981 0.971 0.941 0.926 0.919 0.986 0.974 0.971 0.966 0.986 1.014 1.044 1.054 1.029 0.996 0.999 0.979 0.999 0.931 0.916 0.886 0.904 0.919 0.934 0.936 0.981 1.001 1.126 1.146 0.811 0.211 0.169 0.539 0.759 0.956 1.056 1.074 1.124 1.151 1.206 1.146 1.081 1.034 1.011 0.916 0.924 0.896 0.899 0.969 1.091 1.266 1.531 1.881 2.136 2.366 2.609 2.829 2.976 3.121 3.196 3.296 3.374 3.461 3.609 3.676 3.766 3.806 3.851 3.869 3.941 3.984 4.071 4.074 4.086 4.069 4.121 4.169 4.196 4.199 4.236 4.266 4.231 4.306 4.346 4.366 4.454 4.566 4.611 4.661 4.621 4.669 4.691 4.691 4.679 4.771 4.834 4.861 4.899 4.896 4.906 4.971 5.019 5.016 5.034 5.061 5.091 5.111 5.121 5.166 5.164 5.229 5.249 5.261 5.304 5.386 5.396 5.446 5.499 5.489 5.496 5.534 5.576 5.616 5.664 5.684 5.694 5.724 5.724 5.756 5.769 5.786 5.829 5.866 5.921 5.929 5.961 5.961 6.039 6.111 6.096 6.111 6.134 6.189 6.206 6.249 6.296 6.331 6.364 6.414 6.406 6.461 6.471 6.511 6.509 6.541 6.591 6.644 6.679 6.706 6.701 6.689 6.734 6.774 6.794 6.859 6.869 6.866 6.824
1.644 1.534 1.447 1.569 1.499 1.422 1.519 1.562 1.332 1.247 1.279 1.772 1.419 1.369 1.402 1.327 1.342 1.167 1.104 1.087 1.114 1.117 1.069 1.062 1.069 1.032 1.039 1.084 1.227 1.094 1.107 1.099 1.224 1.209 1.164 1.274 1.572 1.384 1.292 1.389 2.977 2.699 1.649 1.457 1.497 1.639 2.346 0.869 0.731 0.766 0.739 0.856 0.904 0.984 0.804 0.841 1.041 1.116 1.099 1.026 0.964 0.944 0.941 0.936 0.916 0.919 0.906 0.901 0.919 0.866 0.861 0.854 0.906 0.869 0.881 0.894 0.781 0.834 0.831 0.804 0.736 0.724 0.759 0.999 0.781 0.741 1.109 1.761 1.616 1.756 2.041 2.164 2.159 2.266 2.341 2.321 1.921 1.844 1.794 1.349 0.866 0.699 0.771 0.789 0.766 0.746 0.786 0.791 0.791 0.794 0.794 0.789 0.786 0.799 0.814 0.819 0.849 0.796 0.806 0.811 0.804 0.806 0.793 0.778 0.77 0.744 0.643 0.688 0.814 0.932 1.1 1.227 1.232 1.093 0.921 0.372 0.171 0.185 0.822 1.261 1.265 1.252 1.24 1.01 0.851 0.835 0.834 0.817 0.795 0.812 0.801 0.804 0.809 0.804 0.801 0.786 0.811 0.816 0.831 0.806 0.839 0.834 0.824 0.834 0.821 0.819 0.809 0.811 0.811 0.801 0.804 0.814 0.811 0.811 0.784 0.829 0.806 0.806 0.794 0.814 0.806 0.806 0.771 0.779 0.779 0.776 0.774 0.754 0.756 0.704 0.686 0.666 0.739 0.729 0.774 0.846 0.876 0.856 0.826 0.764 0.809 0.831 0.866 0.864 0.871 0.861 0.859 0.851 0.886 0.861 0.794 0.744 0.694 0.689 0.689 0.641 0.656 0.664 0.624 0.626 0.769 0.776 0.761 0.761 0.764 0.756 0.791 0.811 0.811 0.816 0.781 0.551 0.319 0.254 0.356 0.279 0.256 0.346 0.336 0.414 0.539 0.474 0.526 0.574 0.614 0.631 0.676 0.719 0.741 0.714 0.764 0.746 0.756 0.761 0.731 0.721 0.746 0.734 0.794 0.784 0.794 0.811 0.841 0.816 0.779 0.741 0.724 0.756 0.786 0.794 0.784 0.789 0.801 0.864 0.904 0.969 0.979 1.034 1.071 0.914 0.951 1.014 0.911 0.834 0.716 0.671 0.756 0.761 0.794 0.909 0.956 0.959 0.941 0.936 0.959 0.931 0.949 0.961 0.964 0.971 0.959 0.964 0.984 0.991 0.979 0.986 0.971 0.989 0.979 0.979 0.974 0.989 0.994 0.996 0.994 0.984 0.954 0.936 0.959 0.976 0.976 0.976 0.969 0.976 0.946 0.931 0.951 0.921 0.884 0.931 0.944 0.969 0.964 0.974 0.986 0.976 1.016 1.029 0.996 1.009 1.006 0.974 0.931 0.919 0.906 0.911 0.889 0.901 0.881 0.901 0.916 0.941 0.989 1.136 1.261 0.676 0.154 0.276 2.229 1.199 0.944 0.986 1.066 1.084 1.174 1.274 1.301 1.199 1.019 0.936 0.914 0.946 0.954 1.019 1.024 1.146 1.286 1.544 1.909 2.191 2.424 2.691 2.901 3.031 3.196 3.319 3.399 3.504 3.614 3.641 3.741 3.854 3.926 3.951 3.964 4.031 4.099 4.166 4.156 4.164 4.199 4.214 4.251 4.266 4.294 4.349 4.356 4.349 4.394 4.404 4.426 4.529 4.599 4.676 4.724 4.729 4.749 4.769 4.796 4.769 4.874 4.924 4.959 4.981 4.999 5.059 5.114 5.146 5.116 5.134 5.179 5.211 5.216 5.231 5.274 5.296 5.319 5.351 5.364 5.394 5.466 5.504 5.544 5.564 5.559 5.566 5.616 5.661 5.674 5.716 5.739 5.811 5.781 5.799 5.819 5.834 5.866 5.894 5.984 5.984 5.999 6.054 6.076 6.134 6.176 6.199 6.224 6.244 6.309 6.336 6.351 6.401 6.416 6.449 6.476 6.496 6.546 6.579 6.614 6.616 6.651 6.691 6.761 6.771 6.791 6.826 6.816 6.866 6.894 6.926 6.986 7.006 6.976 6.961
1.512 1.442 1.597 1.524 1.542 1.447 1.447 1.332 1.284 1.312 1.332 1.359 1.377 1.364 1.249 1.194 1.062 1.039 1.082 1.097 1.099 1.087 1.079 1.097 1.074 1.089 1.067 1.067 1.037 1.049 1.062 1.064 1.104 1.154 1.197 1.569 1.534 1.364 1.249 1.424 2.802 1.984 1.404 1.459 1.429 1.722 2.179 0.841 0.746 0.819 0.774 0.809 0.894 0.989 0.706 0.866 1.126 1.129 1.091 1.056 0.956 0.931 0.924 0.916 0.914 0.916 0.919 0.934 0.906 0.871 0.834 0.861 0.894 0.906 0.866 0.884 0.786 0.811 0.819 0.814 0.771 0.759 0.924 0.899 0.666 0.876 1.646 1.694 1.549 1.846 2.181 2.194 2.226 2.386 2.309 2.076 1.819 1.956 1.901 0.991 0.729 0.746 0.769 0.736 0.744 0.751 0.806 0.844 0.801 0.816 0.811 0.801 0.786 0.799 0.824 0.834 0.849 0.819 0.836 0.839 0.829 0.825 0.832 0.827 0.807 0.716 0.601 0.672 0.788 0.921 1.099 1.221 1.261 1.131 0.9 0.64 0.254 0.172 0.824 1.165 1.26 1.229 1.24 1.065 0.875 0.831 0.824 0.823 0.786 0.819 0.836 0.829 0.819 0.796 0.774 0.841 0.804 0.829 0.841 0.829 0.886 0.854 0.816 0.834 0.851 0.819 0.806 0.816 0.806 0.809 0.789 0.806 0.831 0.844 0.846 0.831 0.834 0.826 0.829 0.831 0.796 0.794 0.796 0.776 0.749 0.749 0.764 0.769 0.779 0.769 0.761 0.754 0.761 0.766 0.796 0.824 0.854 0.854 0.899 0.894 0.894 0.899 0.891 0.881 0.846 0.866 0.846 0.866 0.919 0.886 0.836 0.781 0.744 0.736 0.714 0.694 0.666 0.646 0.649 0.686 0.726 0.721 0.734 0.746 0.776 0.749 0.761 0.781 0.784 0.814 0.826 0.826 0.799 0.726 0.754 0.716 0.709 0.486 0.371 0.344 0.271 0.231 0.281 0.424 0.556 0.641 0.706 0.744 0.714 0.754 0.781 0.881 0.836 0.994 0.901 0.819 0.794 0.826 0.851 0.814 0.819 0.809 0.816 0.786 0.716 0.611 0.606 0.609 0.671 0.699 0.756 0.781 0.856 0.929 0.944 0.939 0.951 1.001 1.069 0.946 0.881 0.981 0.919 0.811 0.719 0.649 0.754 0.756 0.806 0.916 0.979 0.944 0.966 0.934 0.921 0.901 0.961 0.944 0.961 0.961 0.969 0.986 1.009 1.014 1.016 0.984 0.986 0.994 0.976 0.981 0.999 1.004 1.001 1.004 0.976 0.949 0.939 0.939 0.944 0.929 0.964 0.956 0.909 0.911 0.896 0.904 0.904 0.869 0.881 0.906 0.936 0.954 0.951 0.954 0.949 0.956 0.999 1.014 0.959 0.959 0.939 0.949 0.916 0.884 0.896 0.859 0.824 0.839 0.844 0.839 0.921 0.971 1.071 1.391 1.211 0.531 0.801 0.851 1.079 0.834 0.984 1.021 1.071 1.071 1.081 1.141 1.214 1.119 1.014 0.919 0.974 0.984 0.979 0.974 1.044 1.181 1.379 1.641 2.029 2.291 2.524 2.761 2.956 3.026 3.191 3.364 3.456 3.511 3.599 3.699 3.751 3.819 3.879 3.954 3.994 4.049 4.119 4.191 4.184 4.249 4.259 4.264 4.331 4.339 4.359 4.376 4.409 4.429 4.454 4.479 4.489 4.496 4.609 4.716 4.786 4.819 4.846 4.841 4.871 4.899 4.971 5.026 5.034 5.036 5.066 5.121 5.161 5.206 5.196 5.229 5.276 5.294 5.286 5.324 5.361 5.406 5.401 5.411 5.461 5.501 5.549 5.586 5.641 5.639 5.641 5.656 5.691 5.736 5.801 5.814 5.821 5.856 5.856 5.891 5.884 5.881 5.959 6.001 6.056 6.059 6.086 6.086 6.131 6.216 6.204 6.241 6.276 6.326 6.371 6.416 6.434 6.481 6.486 6.564 6.576 6.599 6.621 6.661 6.711 6.724 6.769 6.819 6.856 6.881 6.921 6.911 6.979 7.019 7.016 7.059 7.089 7.091 7.101 7.071
1.467 1.664 1.499 1.487 1.552 1.519 1.454 1.279 1.259 1.199 1.369 1.557 1.439 1.389 1.339 1.194 1.089 1.067 1.064 1.047 1.059 1.054 1.112 1.087 1.099 1.157 1.114 1.072 1.057 1.077 1.067 1.097 1.117 1.227 1.202 1.627 1.479 1.379 1.184 1.702 2.959 1.687 1.389 1.442 1.447 2.529 3.071 0.864 0.796 0.824 0.776 0.869 0.901 0.959 0.664 0.879 1.069 1.061 1.071 1.034 0.961 0.936 0.924 0.904 0.884 0.906 0.891 0.891 0.866 0.879 0.846 0.869 0.864 0.886 0.854 0.814 0.789 0.786 0.841 0.831 0.774 0.876 1.066 0.744 0.871 2.039 2.504 1.959 2.024 2.086 2.214 2.224 2.369 2.364 2.231 1.909 1.819 1.574 1.404 0.821 0.709 0.734 0.726 0.731 0.741 0.806 0.821 0.799 0.801 0.829 0.839 0.816 0.791 0.806 0.814 0.859 0.869 0.841 0.844 0.867 0.848 0.842 0.847 0.832 0.774 0.659 0.624 0.656 0.762 0.902 1.065 1.211 1.278 1.174 0.912 0.711 0.129 0.199 0.584 1.049 1.127 1.162 1.119 1.029 0.916 0.86 0.808 0.777 0.801 0.835 0.847 0.814 0.811 0.819 0.796 0.846 0.816 0.801 0.826 0.849 0.876 0.854 0.849 0.854 0.866 0.824 0.811 0.814 0.811 0.809 0.831 0.806 0.831 0.851 0.836 0.861 0.859 0.831 0.811 0.824 0.806 0.781 0.779 0.791 0.746 0.771 0.794 0.764 0.784 0.796 0.806 0.806 0.796 0.811 0.834 0.884 0.879 0.876 0.869 0.864 0.891 0.931 0.966 0.934 0.926 0.944 0.911 0.926 0.909 0.894 0.846 0.791 0.806 0.799 0.759 0.726 0.689 0.681 0.696 0.689 0.696 0.711 0.741 0.754 0.769 0.784 0.781 0.791 0.791 0.794 0.809 0.806 0.859 0.856 0.849 0.786 0.714 0.691 0.669 0.561 0.426 0.354 0.304 0.334 0.306 0.249 0.279 0.356 0.509 0.604 0.734 1.009 1.311 1.796 2.144 1.926 1.346 1.084 0.949 0.861 0.846 0.779 0.749 0.731 0.674 0.629 0.524 0.514 0.629 0.704 0.729 0.806 0.874 0.901 0.946 0.936 0.941 1.001 1.031 0.971 0.839 0.911 0.906 0.826 0.734 0.651 0.751 0.766 0.799 0.896 0.984 1.001 0.996 0.944 0.904 0.919 0.919 0.921 0.956 0.959 0.969 0.954 0.971 0.991 1.014 0.999 0.984 0.986 0.981 0.984 0.984 0.981 0.969 0.989 0.966 0.961 0.939 0.931 0.911 0.884 0.876 0.901 0.896 0.859 0.879 0.841 0.809 0.826 0.871 0.884 0.904 0.901 0.911 0.929 0.959 0.949 0.969 0.989 0.939 0.901 0.856 0.821 0.841 0.826 0.806 0.781 0.756 0.726 0.781 0.809 0.914 1.024 1.061 1.029 0.851 0.391 2.001 2.574 1.086 1.001 1.056 1.049 1.064 1.064 1.084 1.096 1.091 1.069 1.011 0.981 1.001 0.999 0.976 0.954 1.039 1.194 1.421 1.714 2.114 2.351 2.539 2.711 2.906 3.089 3.194 3.321 3.476 3.539 3.619 3.704 3.756 3.829 3.899 3.941 3.989 4.071 4.139 4.196 4.209 4.289 4.304 4.294 4.374 4.426 4.441 4.446 4.496 4.506 4.496 4.484 4.546 4.561 4.644 4.736 4.781 4.856 4.914 4.906 4.961 4.996 5.044 5.101 5.129 5.101 5.106 5.141 5.194 5.204 5.246 5.309 5.331 5.351 5.361 5.419 5.464 5.491 5.481 5.531 5.559 5.611 5.636 5.691 5.714 5.716 5.721 5.751 5.789 5.826 5.879 5.884 5.914 5.946 5.939 5.964 5.994 5.999 6.036 6.084 6.099 6.139 6.139 6.171 6.224 6.254 6.284 6.326 6.379 6.399 6.431 6.501 6.524 6.571 6.586 6.624 6.661 6.709 6.731 6.796 6.829 6.841 6.884 6.971 6.986 6.996 7.016 7.041 7.104 7.116 7.144 7.194 7.214 7.191 7.214 7.209
1.287 1.507 1.552 1.594 1.667 1.632 1.504 1.379 1.297 1.247 1.454 1.532 1.359 1.439 1.457 1.239 1.099 1.039 1.049 1.044 1.087 1.132 1.199 1.062 1.099 1.159 1.144 1.017 1.014 1.052 1.084 1.069 1.162 1.207 1.289 1.672 1.414 1.467 1.277 2.304 2.767 1.527 1.429 1.459 1.434 2.352 1.519 0.866 0.821 0.809 0.771 0.936 0.886 0.911 0.639 0.904 1.041 1.109 1.111 1.014 0.971 0.941 0.931 0.909 0.899 0.921 0.891 0.884 0.899 0.856 0.844 0.844 0.884 0.894 0.851 0.824 0.771 0.804 0.809 0.819 0.781 0.859 0.839 0.749 1.284 2.116 1.919 2.094 2.181 2.234 2.186 2.246 2.419 2.389 2.031 1.949 1.759 1.044 1.176 0.924 0.674 0.674 0.726 0.731 0.801 0.834 0.846 0.824 0.794 0.824 0.839 0.851 0.816 0.784 0.819 0.839 0.844 0.844 0.87 0.86 0.833 0.833 0.802 0.764 0.753 0.737 0.672 0.66 0.747 0.861 1.001 1.185 1.272 1.17 0.883 0.71 0.096 0.064 0.289 0.896 0.88 0.928 0.908 0.935 0.893 0.837 0.818 0.79 0.809 0.835 0.845 0.844 0.806 0.824 0.831 0.849 0.854 0.836 0.796 0.844 0.856 0.856 0.854 0.849 0.849 0.816 0.794 0.801 0.796 0.816 0.849 0.824 0.806 0.841 0.831 0.851 0.856 0.821 0.801 0.781 0.811 0.806 0.809 0.791 0.759 0.786 0.786 0.814 0.796 0.816 0.796 0.819 0.816 0.801 0.831 0.844 0.834 0.824 0.831 0.844 0.886 0.954 0.996 0.986 0.981 0.969 0.971 0.966 0.971 0.974 0.991 0.924 0.886 0.801 0.759 0.689 0.649 0.696 0.701 0.689 0.699 0.716 0.759 0.759 0.786 0.789 0.804 0.801 0.786 0.806 0.789 0.791 0.826 0.836 0.864 0.789 0.814 0.791 0.696 0.646 0.649 0.611 0.604 0.584 0.574 0.599 0.501 0.479 0.346 0.281 0.309 0.354 0.401 0.816 1.374 1.561 2.051 1.994 2.084 1.554 0.866 0.776 0.696 0.684 0.681 0.651 0.624 0.631 0.719 0.731 0.781 0.794 0.861 0.909 0.899 0.899 0.906 0.959 1.016 0.986 0.836 0.819 0.846 0.814 0.756 0.679 0.761 0.774 0.839 0.929 0.949 0.974 0.974 0.946 0.916 0.926 0.934 0.934 0.954 0.954 0.931 0.929 0.939 0.974 1.014 0.969 0.956 0.966 0.971 0.969 0.964 0.979 0.981 0.954 0.939 0.941 0.899 0.904 0.874 0.856 0.866 0.846 0.841 0.819 0.796 0.801 0.824 0.851 0.834 0.861 0.869 0.909 0.929 0.894 0.924 0.909 0.946 0.946 0.899 0.824 0.776 0.799 0.784 0.781 0.749 0.741 0.726 0.734 0.814 0.901 1.054 1.124 0.974 0.654 0.636 1.984 3.034 1.984 1.009 1.051 1.064 1.081 1.096 1.069 1.099 1.124 1.124 1.109 1.034 0.996 0.981 0.984 1.009 0.996 1.031 1.191 1.414 1.794 2.179 2.426 2.566 2.724 2.894 3.046 3.161 3.304 3.431 3.506 3.619 3.711 3.764 3.841 3.916 3.969 4.046 4.084 4.126 4.171 4.221 4.269 4.321 4.341 4.371 4.441 4.459 4.464 4.491 4.576 4.584 4.596 4.589 4.614 4.601 4.626 4.761 4.844 4.901 4.959 5.004 5.041 5.081 5.109 5.149 5.206 5.234 5.281 5.301 5.346 5.386 5.406 5.406 5.434 5.451 5.499 5.536 5.554 5.541 5.621 5.651 5.696 5.746 5.786 5.799 5.804 5.801 5.851 5.891 5.934 5.969 5.981 6.024 6.031 6.041 6.056 6.059 6.114 6.114 6.171 6.194 6.184 6.211 6.259 6.339 6.334 6.376 6.384 6.441 6.484 6.519 6.566 6.599 6.619 6.669 6.696 6.739 6.774 6.811 6.869 6.914 6.971 7.019 7.084 7.114 7.089 7.084 7.154 7.204 7.249 7.281 7.311 7.326 7.289 7.294 7.349
1.254 1.504 1.679 1.904 1.979 1.597 1.594 1.404 1.357 1.407 1.394 1.707 1.409 1.502 1.394 1.434 1.094 1.014 1.059 1.072 1.094 1.079 1.089 1.097 1.052 1.069 1.084 1.172 1.179 1.124 1.119 1.129 1.197 1.182 1.372 1.437 1.327 1.239 1.472 2.262 2.747 1.569 1.427 1.492 1.429 1.872 1.116 0.821 0.776 0.766 0.791 0.899 0.889 0.901 0.599 0.916 1.041 1.086 1.089 0.994 0.954 0.929 0.931 0.894 0.879 0.886 0.901 0.894 0.859 0.859 0.854 0.874 0.879 0.876 0.859 0.834 0.776 0.821 0.811 0.791 0.829 0.926 0.694 1.159 1.456 1.876 1.871 2.214 2.206 2.246 2.244 2.376 2.449 2.226 1.986 2.084 1.264 0.859 0.731 0.659 0.664 0.694 0.799 0.809 0.839 0.831 0.829 0.826 0.741 0.809 0.829 0.841 0.776 0.789 0.826 0.859 0.851 0.836 0.829 0.828 0.796 0.76 0.782 0.819 0.787 0.735 0.712 0.695 0.771 0.857 0.983 1.121 1.229 1.148 0.904 0.724 0.206 0.108 0.261 0.749 0.73 0.625 0.595 0.674 0.785 0.798 0.812 0.813 0.824 0.846 0.825 0.816 0.789 0.821 0.834 0.829 0.831 0.844 0.831 0.849 0.856 0.896 0.886 0.879 0.826 0.834 0.824 0.799 0.796 0.796 0.826 0.814 0.799 0.809 0.829 0.819 0.854 0.816 0.796 0.806 0.814 0.809 0.816 0.806 0.819 0.804 0.809 0.806 0.811 0.796 0.794 0.796 0.801 0.824 0.836 0.836 0.806 0.834 0.786 0.789 0.864 0.939 1.004 1.001 0.994 0.991 0.981 0.961 0.976 0.981 0.986 1.019 1.021 0.979 0.904 0.741 0.701 0.711 0.714 0.709 0.706 0.711 0.754 0.771 0.784 0.811 0.789 0.769 0.831 0.769 0.776 0.809 0.806 0.836 0.856 0.821 0.829 0.786 0.706 0.661 0.661 0.636 0.626 0.556 0.549 0.551 0.571 0.579 0.546 0.539 0.496 0.434 0.414 0.286 0.266 0.341 0.581 0.656 1.036 1.239 0.839 0.811 0.744 0.701 0.729 0.739 0.751 0.754 0.759 0.781 0.789 0.799 0.821 0.891 0.919 0.929 0.909 0.929 0.971 0.966 0.829 0.776 0.794 0.809 0.781 0.691 0.779 0.821 0.856 0.939 0.964 0.979 0.954 0.951 0.924 0.936 0.921 0.931 0.931 0.946 0.911 0.926 0.911 0.939 0.966 0.939 0.956 0.954 0.966 0.956 0.949 0.946 0.936 0.924 0.889 0.869 0.874 0.886 0.856 0.849 0.814 0.816 0.799 0.791 0.784 0.816 0.829 0.816 0.831 0.844 0.859 0.874 0.894 0.886 0.889 0.904 0.914 0.864 0.824 0.776 0.781 0.791 0.801 0.749 0.736 0.734 0.729 0.841 0.991 1.011 1.014 0.926 0.441 1.179 2.964 3.284 2.309 1.181 1.041 1.049 1.061 1.056 1.066 1.079 1.114 1.126 1.109 1.136 1.096 1.036 0.994 0.964 0.991 0.981 1.011 1.099 1.454 1.914 2.236 2.484 2.616 2.744 2.884 3.006 3.149 3.289 3.384 3.479 3.589 3.719 3.774 3.854 3.916 3.999 4.041 4.101 4.119 4.144 4.161 4.246 4.321 4.341 4.394 4.431 4.471 4.499 4.554 4.601 4.654 4.676 4.611 4.591 4.646 4.701 4.829 4.906 4.966 4.981 5.029 5.084 5.144 5.171 5.176 5.251 5.304 5.336 5.399 5.414 5.464 5.524 5.536 5.529 5.564 5.589 5.641 5.646 5.666 5.704 5.754 5.796 5.831 5.856 5.876 5.881 5.891 5.941 5.971 6.011 6.034 6.066 6.109 6.086 6.149 6.136 6.151 6.194 6.209 6.249 6.251 6.284 6.284 6.361 6.401 6.406 6.424 6.509 6.539 6.559 6.604 6.644 6.664 6.691 6.761 6.774 6.821 6.851 6.886 6.951 6.986 7.061 7.106 7.181 7.201 7.214 7.231 7.286 7.336 7.344 7.434 7.459 7.424 7.424 7.451 7.459
1.142 1.357 1.662 1.577 1.767 1.712 1.729 1.532 1.467 1.444 1.512 1.727 1.409 1.482 1.627 1.297 1.117 1.059 1.062 1.124 1.099 1.069 1.074 1.087 1.082 1.047 1.129 1.217 1.199 1.119 1.122 1.112 1.184 1.204 1.472 1.449 1.329 1.247 1.262 2.037 2.534 1.452 1.464 1.547 1.427 2.359 1.109 0.836 0.799 0.816 0.896 0.886 0.904 0.901 0.589 0.931 1.011 1.036 1.024 0.994 0.936 0.916 0.911 0.876 0.866 0.866 0.881 0.894 0.851 0.859 0.874 0.889 0.899 0.881 0.846 0.824 0.809 0.836 0.806 0.871 0.999 0.834 1.049 1.179 1.761 1.476 2.019 2.166 2.226 2.259 2.399 2.441 2.384 2.011 2.096 1.919 0.926 0.936 0.654 0.649 0.684 0.771 0.826 0.879 0.829 0.824 0.816 0.776 0.751 0.724 0.774 0.769 0.754 0.799 0.816 0.826 0.859 0.793 0.796 0.777 0.796 0.786 0.811 0.824 0.778 0.732 0.714 0.695 0.744 0.814 0.931 1.036 1.141 1.102 0.899 0.731 0.286 0.2 0.422 0.79 1.096 3.561 2.335 0.81 0.619 0.68 0.756 0.788 0.802 0.792 0.834 0.819 0.816 0.859 0.841 0.839 0.834 0.866 0.854 0.839 0.866 0.876 0.864 0.869 0.839 0.824 0.821 0.801 0.821 0.806 0.814 0.799 0.796 0.784 0.796 0.804 0.806 0.816 0.819 0.816 0.781 0.781 0.791 0.776 0.799 0.809 0.791 0.811 0.806 0.804 0.804 0.771 0.804 0.826 0.821 0.829 0.839 0.834 0.774 0.829 0.871 0.926 0.956 0.946 0.936 0.994 1.024 1.024 1.006 1.016 0.994 1.056 1.051 1.011 0.936 0.859 0.834 0.819 0.794 0.764 0.754 0.759 0.776 0.791 0.776 0.784 0.771 0.774 0.769 0.711 0.751 0.811 0.809 0.824 0.791 0.809 0.864 0.816 0.734 0.699 0.636 0.651 0.641 0.609 0.586 0.579 0.609 0.609 0.661 0.606 0.629 0.676 0.674 0.691 0.641 0.556 0.464 0.431 0.376 0.254 0.329 0.514 0.746 0.866 0.786 0.744 0.756 0.821 0.806 0.774 0.776 0.776 0.794 0.839 0.879 0.884 0.901 0.934 0.894 0.876 0.791 0.744 0.736 0.756 0.739 0.699 0.774 0.834 0.876 0.949 0.956 0.956 0.934 0.946 0.961 0.941 0.929 0.899 0.876 0.886 0.871 0.846 0.864 0.851 0.901 0.886 0.856 0.896 0.914 0.886 0.889 0.899 0.874 0.871 0.871 0.856 0.854 0.864 0.839 0.834 0.816 0.789 0.781 0.774 0.779 0.814 0.794 0.826 0.829 0.831 0.846 0.869 0.874 0.866 0.851 0.874 0.854 0.784 0.781 0.769 0.769 0.759 0.759 0.721 0.739 0.779 0.846 0.981 1.024 0.899 0.994 0.879 1.734 2.829 2.926 2.281 1.194 0.971 1.031 1.054 1.051 1.046 1.086 1.074 1.091 1.114 1.144 1.166 1.136 1.101 1.024 0.971 0.994 0.984 0.981 1.091 1.521 2.044 2.319 2.516 2.664 2.799 2.944 3.046 3.111 3.246 3.361 3.446 3.574 3.689 3.766 3.849 3.909 3.979 4.051 4.101 4.111 4.131 4.124 4.236 4.359 4.334 4.376 4.396 4.461 4.551 4.616 4.659 4.731 4.694 4.629 4.696 4.751 4.806 4.899 4.946 4.969 5.004 5.066 5.126 5.154 5.194 5.236 5.274 5.349 5.369 5.419 5.466 5.536 5.561 5.574 5.639 5.636 5.669 5.729 5.746 5.749 5.776 5.831 5.889 5.924 5.956 5.989 5.956 5.984 6.041 6.066 6.119 6.106 6.164 6.176 6.216 6.231 6.244 6.226 6.261 6.314 6.349 6.359 6.374 6.386 6.464 6.494 6.516 6.501 6.561 6.614 6.646 6.671 6.719 6.744 6.779 6.821 6.839 6.879 6.921 6.976 7.039 7.119 7.141 7.231 7.266 7.296 7.311 7.361 7.401 7.444 7.469 7.541 7.576 7.534 7.544 7.584 7.581
1.212 1.177 1.254 1.507 1.659 1.559 1.824 1.754 1.457 1.524 1.539 1.502 1.429 1.399 1.354 1.099 1.099 1.097 1.107 1.084 1.129 1.184 1.087 1.102 1.089 1.052 1.092 1.174 1.184 1.139 1.087 1.142 1.264 1.409 1.414 1.412 1.284 1.184 1.209 2.709 2.549 1.447 1.464 1.474 1.359 2.744 1.004 0.819 0.809 0.844 0.781 0.886 0.974 0.844 0.601 0.961 1.036 1.036 1.041 0.991 0.934 0.941 0.921 0.899 0.911 0.864 0.864 0.879 0.834 0.831 0.896 0.881 0.904 0.856 0.849 0.819 0.839 0.831 0.796 0.826 0.811 0.869 1.116 1.444 1.544 1.596 2.076 2.329 2.251 2.316 2.471 2.439 2.186 2.141 2.309 1.414 0.921 0.731 0.666 0.654 0.731 0.791 0.854 0.846 0.861 0.844 0.781 0.744 0.724 0.706 0.781 0.766 0.701 0.734 0.771 0.791 0.812 0.815 0.788 0.812 0.81 0.799 0.815 0.802 0.775 0.747 0.705 0.695 0.722 0.762 0.912 1.023 1.112 0.992 0.863 0.619 0.208 0.328 0.566 0.785 2.98 5.198 4.87 2.65 0.662 0.741 0.783 0.81 0.812 0.779 0.803 0.796 0.824 0.841 0.826 0.824 0.861 0.866 0.891 0.861 0.881 0.881 0.871 0.874 0.851 0.826 0.804 0.811 0.816 0.794 0.814 0.801 0.814 0.841 0.799 0.799 0.801 0.799 0.779 0.799 0.804 0.776 0.769 0.791 0.794 0.789 0.781 0.801 0.824 0.806 0.799 0.806 0.809 0.834 0.834 0.876 0.869 0.814 0.824 0.844 0.874 0.924 0.934 0.914 0.916 0.929 0.929 0.916 0.911 0.986 1.009 1.051 1.051 1.011 0.936 0.881 0.856 0.861 0.844 0.834 0.826 0.796 0.809 0.786 0.766 0.829 0.744 0.746 0.814 0.796 0.789 0.809 0.806 0.801 0.816 0.794 0.819 0.816 0.769 0.696 0.651 0.631 0.641 0.636 0.601 0.651 0.679 0.719 0.709 0.691 0.681 0.711 0.724 0.764 0.771 0.774 0.759 0.681 0.654 0.614 0.614 0.594 0.604 0.594 0.401 0.399 0.389 0.659 0.734 0.761 0.789 0.774 0.751 0.751 0.801 0.789 0.796 0.814 0.831 0.834 0.756 0.746 0.711 0.724 0.711 0.646 0.766 0.864 0.906 0.936 0.949 0.939 0.909 0.904 0.921 0.891 0.869 0.886 0.874 0.834 0.816 0.819 0.811 0.836 0.799 0.824 0.826 0.836 0.844 0.861 0.871 0.866 0.859 0.859 0.849 0.831 0.814 0.814 0.821 0.794 0.779 0.769 0.759 0.776 0.789 0.794 0.811 0.796 0.826 0.831 0.824 0.824 0.821 0.814 0.791 0.779 0.756 0.759 0.744 0.774 0.726 0.719 0.721 0.774 0.824 0.921 0.961 0.939 0.786 0.441 0.461 3.326 3.744 2.116 1.264 1.001 1.024 1.034 1.014 1.049 1.031 1.046 1.064 1.036 1.099 1.114 1.169 1.169 1.161 1.126 1.061 0.989 1.014 1.011 0.994 1.141 1.669 2.126 2.379 2.554 2.709 2.816 2.949 3.061 3.164 3.279 3.366 3.451 3.564 3.659 3.719 3.831 3.921 3.956 4.016 4.109 4.129 4.216 4.194 4.166 4.299 4.341 4.346 4.424 4.496 4.561 4.654 4.694 4.709 4.684 4.679 4.831 4.889 4.926 4.954 4.961 4.961 5.009 5.096 5.141 5.184 5.209 5.254 5.309 5.339 5.416 5.441 5.521 5.604 5.601 5.641 5.696 5.724 5.756 5.794 5.826 5.836 5.864 5.919 5.961 6.014 6.081 6.079 6.044 6.089 6.131 6.159 6.201 6.201 6.261 6.264 6.289 6.301 6.316 6.329 6.361 6.406 6.399 6.444 6.459 6.501 6.551 6.576 6.589 6.576 6.644 6.676 6.749 6.796 6.816 6.829 6.876 6.889 6.939 6.974 7.031 7.056 7.111 7.196 7.249 7.316 7.354 7.391 7.441 7.466 7.514 7.546 7.604 7.636 7.659 7.659 7.669 7.684 7.696
1.162 1.214 1.109 1.204 1.407 1.754 1.957 2.044 1.769 1.702 1.517 1.417 1.427 1.387 1.317 1.077 1.077 1.087 1.082 1.044 1.079 1.084 1.087 1.087 1.074 1.069 1.069 1.134 1.202 1.187 1.132 1.167 1.239 1.404 1.594 1.392 1.292 1.187 1.289 2.679 2.309 1.404 1.454 1.464 1.534 3.014 0.934 0.851 0.779 0.819 0.861 0.879 0.999 0.776 0.784 0.984 1.011 1.026 0.994 0.964 0.939 0.939 0.899 0.899 0.894 0.779 0.829 0.881 0.864 0.821 0.866 0.931 0.894 0.851 0.831 0.824 0.829 0.819 0.821 0.964 0.774 1.031 1.051 1.266 1.316 1.831 2.281 2.321 2.299 2.424 2.469 2.324 2.091 2.476 2.161 0.886 0.819 0.686 0.719 0.741 0.744 0.796 0.834 0.801 0.846 0.826 0.766 0.731 0.724 0.739 0.684 0.731 0.781 0.784 0.836 0.856 0.819 0.816 0.792 0.809 0.794 0.776 0.786 0.777 0.769 0.748 0.718 0.701 0.722 0.804 0.928 1.045 1.078 0.924 0.722 0.226 0.043 0.222 0.875 0.849 2.379 4.275 4.662 1.694 0.745 0.835 0.854 0.852 0.822 0.788 0.791 0.826 0.846 0.841 0.839 0.849 0.879 0.884 0.901 0.879 0.884 0.839 0.881 0.846 0.861 0.854 0.839 0.794 0.794 0.821 0.841 0.811 0.819 0.879 0.824 0.799 0.796 0.809 0.794 0.799 0.809 0.794 0.814 0.796 0.794 0.794 0.806 0.794 0.809 0.774 0.781 0.796 0.811 0.824 0.844 0.869 0.846 0.836 0.874 0.884 0.896 0.921 0.911 0.916 0.926 0.906 0.886 0.881 0.884 0.909 0.954 0.941 0.966 0.911 0.889 0.871 0.861 0.871 0.871 0.824 0.804 0.826 0.821 0.796 0.736 0.691 0.751 0.821 0.804 0.791 0.831 0.824 0.854 0.844 0.841 0.814 0.811 0.824 0.779 0.689 0.644 0.679 0.649 0.696 0.724 0.724 0.761 0.774 0.749 0.729 0.726 0.754 0.749 0.769 0.806 0.754 0.739 0.694 0.684 0.761 0.844 0.941 0.939 0.814 0.639 0.431 0.356 0.346 0.396 0.431 0.489 0.519 0.601 0.616 0.679 0.726 0.699 0.644 0.776 0.774 0.774 0.731 0.674 0.691 0.709 0.609 0.801 0.886 0.934 0.941 0.909 0.926 0.894 0.881 0.901 0.891 0.891 0.889 0.849 0.821 0.836 0.826 0.834 0.794 0.811 0.836 0.849 0.864 0.881 0.876 0.871 0.864 0.866 0.826 0.836 0.846 0.836 0.819 0.829 0.791 0.781 0.756 0.781 0.774 0.776 0.786 0.776 0.749 0.811 0.789 0.804 0.789 0.766 0.746 0.751 0.746 0.754 0.726 0.714 0.724 0.716 0.774 0.854 0.911 0.946 0.966 0.901 0.671 0.479 2.379 3.396 3.421 1.921 0.971 0.974 0.981 1.029 1.024 1.031 1.034 1.044 1.034 1.086 1.086 1.099 1.111 1.141 1.174 1.174 1.109 1.064 1.006 1.001 1.016 1.031 1.349 1.881 2.219 2.434 2.571 2.694 2.824 2.944 3.076 3.151 3.279 3.369 3.436 3.544 3.641 3.719 3.801 3.869 3.941 3.979 4.086 4.174 4.224 4.244 4.199 4.246 4.359 4.404 4.459 4.521 4.559 4.664 4.719 4.679 4.676 4.734 4.881 4.921 4.951 4.966 4.961 5.019 5.046 5.104 5.149 5.184 5.201 5.249 5.316 5.356 5.426 5.466 5.541 5.591 5.651 5.679 5.731 5.774 5.824 5.831 5.879 5.911 5.971 5.974 6.009 6.104 6.134 6.091 6.081 6.184 6.224 6.261 6.256 6.299 6.331 6.329 6.384 6.366 6.411 6.439 6.479 6.494 6.499 6.564 6.564 6.641 6.651 6.696 6.719 6.741 6.729 6.761 6.819 6.831 6.896 6.924 6.961 6.971 7.024 7.069 7.119 7.144 7.224 7.269 7.344 7.396 7.446 7.484 7.526 7.569 7.624 7.641 7.719 7.739 7.766 7.739 7.781 7.811 7.829
1.172 1.114 1.067 1.164 1.197 1.304 1.579 1.992 1.589 1.522 1.442 1.387 1.549 1.299 1.262 1.104 1.104 1.124 1.084 1.042 1.052 1.044 1.072 1.094 1.124 1.087 1.052 1.069 1.104 1.109 1.087 1.309 1.274 1.457 1.459 1.457 1.269 1.237 1.802 2.747 1.982 1.364 1.437 1.442 1.397 2.274 0.894 0.831 0.764 0.766 0.826 0.896 0.904 0.584 0.894 1.011 1.036 1.039 0.981 0.954 0.914 0.914 0.874 0.896 0.906 0.859 0.824 0.871 0.894 0.844 0.836 0.876 0.874 0.851 0.826 0.781 0.746 0.834 0.931 0.629 0.859 0.941 0.879 0.991 1.521 2.011 2.264 2.324 2.381 2.486 2.444 2.116 2.199 2.466 1.429 0.861 0.751 0.816 0.811 0.756 0.789 0.799 0.796 0.834 0.871 0.789 0.766 0.716 0.671 0.619 0.779 0.826 0.801 0.821 0.856 0.859 0.842 0.791 0.803 0.825 0.79 0.795 0.782 0.784 0.793 0.788 0.777 0.745 0.788 0.863 0.971 1.026 0.975 0.883 0.538 0.081 0.051 0.591 1.168 1.162 0.977 1.401 1.876 0.716 0.854 0.868 0.846 0.836 0.808 0.8 0.796 0.809 0.826 0.846 0.864 0.846 0.861 0.886 0.899 0.879 0.889 0.839 0.849 0.864 0.834 0.846 0.826 0.801 0.789 0.829 0.831 0.814 0.814 0.846 0.849 0.856 0.841 0.819 0.781 0.799 0.794 0.786 0.814 0.821 0.806 0.786 0.796 0.766 0.779 0.776 0.784 0.811 0.801 0.794 0.839 0.854 0.866 0.886 0.899 0.889 0.916 0.924 0.896 0.911 0.926 0.881 0.879 0.879 0.906 0.904 0.934 0.916 0.884 0.856 0.854 0.814 0.824 0.849 0.839 0.824 0.814 0.826 0.761 0.721 0.719 0.769 0.746 0.699 0.736 0.814 0.831 0.876 0.914 0.886 0.841 0.839 0.791 0.819 0.811 0.734 0.724 0.726 0.736 0.754 0.776 0.804 0.801 0.804 0.801 0.806 0.799 0.814 0.791 0.746 0.726 0.746 0.731 0.684 0.761 0.859 0.846 0.859 0.846 0.851 0.876 0.841 0.819 0.844 0.729 0.609 0.559 0.439 0.479 0.454 0.404 0.504 0.396 0.379 0.671 0.729 0.794 0.791 0.616 0.651 0.744 0.561 0.749 0.871 0.936 0.949 0.946 0.941 0.904 0.914 0.914 0.891 0.884 0.904 0.849 0.851 0.839 0.854 0.864 0.884 0.864 0.871 0.886 0.914 0.891 0.874 0.866 0.876 0.859 0.839 0.859 0.854 0.846 0.834 0.821 0.791 0.796 0.781 0.786 0.799 0.791 0.769 0.739 0.746 0.771 0.781 0.781 0.761 0.739 0.744 0.749 0.711 0.691 0.691 0.699 0.779 0.851 0.939 1.024 0.974 0.864 0.679 0.409 0.559 2.116 2.681 1.731 1.151 0.936 0.971 0.981 0.999 1.016 1.034 1.049 1.049 1.056 1.056 1.086 1.074 1.071 1.109 1.116 1.151 1.176 1.106 1.034 1.014 1.006 1.029 1.149 1.651 2.059 2.324 2.471 2.599 2.709 2.824 2.926 3.034 3.136 3.271 3.376 3.454 3.554 3.634 3.691 3.759 3.839 3.939 3.981 4.044 4.124 4.194 4.256 4.301 4.321 4.369 4.434 4.494 4.536 4.589 4.669 4.701 4.679 4.711 4.844 4.936 4.941 4.974 4.994 5.001 5.031 5.066 5.121 5.161 5.186 5.224 5.274 5.341 5.371 5.411 5.479 5.544 5.581 5.629 5.679 5.714 5.776 5.826 5.896 5.904 5.961 5.994 6.044 6.064 6.109 6.094 6.084 6.166 6.274 6.329 6.331 6.321 6.394 6.401 6.416 6.424 6.416 6.516 6.596 6.609 6.609 6.604 6.641 6.659 6.741 6.771 6.811 6.804 6.861 6.854 6.871 6.904 6.931 6.976 7.016 7.079 7.106 7.111 7.159 7.214 7.254 7.311 7.386 7.439 7.479 7.511 7.546 7.601 7.699 7.706 7.746 7.814 7.836 7.839 7.871 7.866 7.899 7.944
1.074 1.067 1.089 1.142 1.192 1.217 1.442 1.769 1.934 1.369 1.377 1.414 1.487 1.172 1.092 1.087 1.112 1.092 1.097 1.062 1.027 1.022 1.054 1.102 1.069 1.092 1.079 1.072 1.047 1.064 1.104 1.267 1.302 1.447 1.304 1.362 1.404 1.284 1.254 1.832 1.774 1.394 1.434 1.452 1.362 2.982 2.144 0.861 0.781 0.806 0.864 0.904 0.749 0.651 1.029 1.036 1.049 1.051 0.971 0.964 0.924 0.901 0.881 0.869 0.859 0.924 0.899 0.914 0.891 0.889 0.856 0.831 0.849 0.856 0.859 0.756 0.761 0.904 0.696 0.864 1.066 1.136 1.071 1.334 1.829 2.144 2.299 2.361 2.456 2.466 2.251 2.089 2.599 2.161 0.864 0.784 0.801 0.824 0.801 0.794 0.781 0.791 0.814 0.791 0.844 0.791 0.761 0.679 0.631 0.704 0.759 0.791 0.801 0.836 0.848 0.847 0.815 0.802 0.788 0.791 0.787 0.803 0.799 0.812 0.814 0.829 0.824 0.834 0.888 0.972 1.021 0.983 0.953 0.665 0.185 0.127 0.322 1.05 1.39 1.467 1.296 0.874 0.782 0.839 0.855 0.84 0.836 0.83 0.826 0.813 0.826 0.806 0.824 0.841 0.851 0.829 0.856 0.846 0.874 0.866 0.871 0.856 0.829 0.851 0.846 0.844 0.829 0.801 0.794 0.804 0.786 0.844 0.841 0.809 0.789 0.799 0.894 0.776 0.776 0.789 0.784 0.796 0.799 0.801 0.811 0.799 0.786 0.776 0.779 0.791 0.774 0.811 0.804 0.826 0.859 0.829 0.871 0.896 0.914 0.891 0.901 0.916 0.934 0.916 0.899 0.909 0.924 0.946 0.934 0.919 0.896 0.906 0.859 0.836 0.849 0.809 0.824 0.814 0.804 0.784 0.774 0.751 0.724 0.704 0.686 0.679 0.674 0.691 0.756 0.829 0.819 0.841 0.881 0.891 0.859 0.834 0.789 0.824 0.821 0.819 0.836 0.784 0.769 0.766 0.776 0.756 0.781 0.799 0.806 0.814 0.809 0.786 0.796 0.734 0.734 0.726 0.726 0.741 0.854 0.846 0.814 0.824 0.831 0.824 0.831 0.851 0.869 0.876 0.901 0.889 0.859 0.816 0.736 0.679 0.606 0.536 0.404 0.276 0.299 0.306 0.361 0.464 0.366 0.556 0.724 0.521 0.689 0.836 0.896 0.881 0.916 0.934 0.919 0.904 0.901 0.861 0.856 0.886 0.846 0.821 0.864 0.871 0.879 0.894 0.876 0.879 0.909 0.911 0.894 0.881 0.879 0.866 0.861 0.864 0.864 0.869 0.851 0.804 0.796 0.789 0.821 0.814 0.806 0.799 0.801 0.804 0.766 0.746 0.756 0.751 0.729 0.739 0.716 0.704 0.664 0.654 0.679 0.761 0.819 0.966 1.049 1.001 0.864 0.701 0.459 0.619 1.686 2.009 2.199 1.344 0.944 0.951 0.969 0.979 1.006 1.014 1.036 1.019 1.059 1.046 1.034 1.056 1.064 1.076 1.079 1.119 1.144 1.151 1.154 1.094 0.996 0.979 1.019 1.059 1.394 1.849 2.164 2.344 2.456 2.576 2.684 2.806 2.899 3.026 3.111 3.211 3.334 3.419 3.509 3.619 3.694 3.776 3.856 3.894 3.956 4.029 4.106 4.186 4.326 4.396 4.406 4.464 4.564 5.124 4.904 4.926 4.876 5.264 5.029 4.994 4.896 4.976 5.004 5.011 5.049 5.059 5.086 5.139 5.171 5.199 5.226 5.269 5.324 5.349 5.391 5.421 5.494 5.544 5.594 5.616 5.686 5.721 5.794 5.824 5.871 5.914 5.994 6.014 6.106 6.104 6.159 6.154 6.171 6.236 6.316 6.394 6.376 6.389 6.464 6.451 6.481 6.461 6.491 6.594 6.726 6.706 6.671 6.721 6.726 6.776 6.816 6.839 6.884 6.911 6.949 6.939 7.016 7.026 7.066 7.081 7.129 7.144 7.209 7.216 7.254 7.304 7.369 7.424 7.484 7.546 7.586 7.606 7.639 7.704 7.801 7.821 7.846 7.909 7.931 7.936 7.964 7.979 8.006 8.061
1.097 1.114 1.087 1.114 1.172 1.472 1.194 1.229 1.334 1.439 1.354 1.374 1.342 1.164 1.047 1.032 1.059 1.052 1.022 1.032 1.004 1.049 1.047 1.044 1.049 1.074 1.089 1.064 1.047 1.077 1.127 1.207 1.332 1.627 1.354 1.309 1.207 1.194 1.109 1.824 1.612 1.369 1.477 1.459 1.687 2.212 0.986 0.831 0.816 0.879 0.891 0.924 0.659 0.789 1.016 1.044 1.051 1.024 0.979 0.961 0.886 0.899 0.894 0.871 0.886 0.911 0.879 0.839 0.876 0.869 0.881 0.859 0.861 0.854 0.836 0.834 0.971 0.804 0.879 0.939 1.054 0.966 1.284 1.929 2.134 2.281 2.299 2.431 2.466 2.356 2.054 2.229 2.499 1.566 0.841 0.754 0.816 0.819 0.799 0.839 0.781 0.789 0.826 0.784 0.784 0.796 0.794 0.689 0.671 0.724 0.771 0.779 0.784 0.808 0.822 0.806 0.793 0.788 0.78 0.784 0.796 0.794 0.813 0.805 0.833 0.896 0.915 0.955 0.995 1.078 1.04 0.972 0.715 0.165 0.065 0.168 0.778 1.377 1.501 1.53 1.425 1.187 0.993 0.921 0.869 0.833 0.818 0.816 0.811 0.837 0.865 0.816 0.809 0.851 0.844 0.839 0.866 0.856 0.881 0.856 0.836 0.861 0.851 0.841 0.851 0.836 0.799 0.774 0.791 0.786 0.789 0.889 0.836 0.849 0.784 0.764 0.771 0.756 0.804 0.829 0.806 0.794 0.784 0.819 0.796 0.799 0.779 0.774 0.769 0.779 0.791 0.804 0.804 0.851 0.866 0.869 0.891 0.931 0.931 0.906 0.921 0.904 0.906 0.899 0.894 0.931 0.941 0.959 0.964 0.949 0.924 0.871 0.871 0.909 0.871 0.816 0.804 0.791 0.819 0.729 0.734 0.684 0.666 0.614 0.619 0.629 0.644 0.696 0.741 0.764 0.799 0.809 0.804 0.831 0.846 0.826 0.829 0.841 0.834 0.866 0.886 0.789 0.776 0.756 0.739 0.766 0.761 0.784 0.804 0.821 0.791 0.784 0.809 0.804 0.781 0.784 0.834 0.826 0.821 0.806 0.811 0.836 0.809 0.839 0.844 0.864 0.884 0.906 0.899 0.899 0.891 0.909 0.881 0.851 0.866 0.849 0.764 0.706 0.606 0.426 0.289 0.239 0.219 0.226 0.316 0.289 0.541 0.729 0.771 0.804 0.859 0.899 0.906 0.886 0.879 0.844 0.831 0.856 0.841 0.844 0.851 0.859 0.876 0.881 0.881 0.881 0.881 0.859 0.881 0.876 0.894 0.854 0.834 0.814 0.831 0.809 0.804 0.821 0.829 0.796 0.821 0.839 0.854 0.821 0.781 0.784 0.781 0.741 0.706 0.704 0.679 0.661 0.681 0.664 0.641 0.699 0.784 0.889 0.991 0.999 1.474 0.896 0.359 0.371 1.279 2.281 2.369 1.626 1.004 0.934 0.966 0.956 0.976 1.001 0.986 1.009 1.014 1.009 1.016 1.029 1.009 1.041 1.079 1.089 1.109 1.126 1.156 1.119 1.134 1.086 0.994 0.996 1.026 1.166 1.546 1.974 2.219 2.384 2.494 2.589 2.701 2.801 2.866 2.984 3.089 3.179 3.291 3.399 3.516 3.614 3.651 3.726 3.824 3.909 3.959 3.981 4.036 4.219 4.366 4.411 4.461 4.556 5.336 5.254 5.584 5.996 6.146 6.486 6.539 6.154 5.474 5.171 5.059 5.041 5.064 5.081 5.121 5.164 5.209 5.234 5.286 5.324 5.356 5.399 5.424 5.474 5.541 5.571 5.594 5.649 5.691 5.744 5.781 5.816 5.846 5.924 5.971 6.024 6.079 6.116 6.169 6.164 6.224 6.304 6.364 6.419 6.414 6.481 6.494 6.504 6.526 6.506 6.539 6.611 6.756 6.751 6.756 6.781 6.776 6.876 6.904 6.956 6.959 6.986 7.029 7.061 7.104 7.146 7.159 7.206 7.231 7.281 7.334 7.346 7.394 7.439 7.484 7.536 7.601 7.641 7.686 7.699 7.759 7.854 7.881 7.911 7.976 7.996 8.016 8.011 8.056 8.051 8.106 8.159
1.142 1.072 1.087 1.097 1.129 1.142 1.124 1.299 1.142 1.204 1.174 1.362 1.322 1.117 1.057 1.034 1.052 1.074 1.069 1.072 1.014 1.029 1.039 1.064 1.044 1.102 1.107 1.082 1.067 1.069 1.102 1.132 1.304 1.489 1.489 1.392 1.322 1.199 1.402 1.724 1.522 1.384 1.459 1.419 1.539 2.367 0.984 0.821 0.836 0.829 0.841 0.799 0.464 0.949 1.036 1.021 1.014 1.001 0.976 0.951 0.916 0.879 0.899 0.879 0.886 0.909 0.846 0.811 0.844 0.859 0.896 0.889 0.831 0.841 0.846 0.959 0.854 0.751 0.979 0.989 1.151 1.251 1.979 2.264 2.286 2.331 2.404 2.546 2.471 2.199 2.134 2.399 1.549 0.844 0.754 0.774 0.841 0.804 0.804 0.794 0.736 0.769 0.814 0.749 0.794 0.786 0.699 0.634 0.759 0.736 0.748 0.736 0.764 0.786 0.777 0.771 0.774 0.778 0.773 0.776 0.778 0.799 0.804 0.828 0.886 0.959 1.003 1.031 1.092 1.061 0.964 0.743 0.274 0.091 0.155 0.712 1.249 1.513 1.534 1.502 1.407 1.208 1.013 0.873 0.841 0.817 0.808 0.804 0.821 0.852 0.859 0.864 0.824 0.856 0.856 0.861 0.856 0.836 0.866 0.869 0.874 0.869 0.864 0.836 0.831 0.819 0.796 0.796 0.774 0.781 0.786 0.814 0.781 0.826 0.771 0.759 0.774 0.741 0.826 0.854 0.806 0.769 0.781 0.804 0.824 0.871 0.791 0.806 0.804 0.759 0.821 0.829 0.871 0.876 0.889 0.906 0.911 0.919 0.921 0.936 0.919 0.876 0.901 0.911 0.939 0.946 0.959 0.976 0.976 0.959 0.916 0.901 0.904 0.886 0.846 0.806 0.764 0.746 0.739 0.719 0.686 0.664 0.636 0.624 0.561 0.609 0.644 0.704 0.769 0.789 0.784 0.786 0.794 0.799 0.836 0.839 0.871 0.901 0.901 0.904 0.859 0.796 0.736 0.741 0.749 0.776 0.801 0.821 0.864 0.881 0.851 0.819 0.849 0.821 0.824 0.854 0.826 0.841 0.851 0.876 0.834 0.849 0.841 0.839 0.841 0.869 0.871 0.886 0.911 0.914 0.916 0.919 0.906 0.896 0.884 0.871 0.849 0.846 0.809 0.756 0.709 0.521 0.224 0.269 0.306 0.229 0.231 0.266 0.326 0.491 0.506 0.621 0.726 0.746 0.784 0.826 0.829 0.834 0.826 0.836 0.809 0.814 0.826 0.836 0.821 0.856 0.866 0.879 0.859 0.866 0.866 0.819 0.844 0.801 0.794 0.779 0.806 0.816 0.824 0.781 0.766 0.771 0.791 0.756 0.711 0.691 0.709 0.681 0.629 0.629 0.596 0.594 0.629 0.674 0.716 0.796 0.864 0.976 0.966 0.729 0.456 0.544 3.066 3.276 3.419 2.379 1.214 0.949 0.956 0.954 0.974 0.971 0.994 0.981 0.991 1.021 1.006 0.994 1.016 1.024 1.021 1.059 1.071 1.089 1.106 1.136 1.131 1.141 1.106 1.026 0.974 1.001 1.046 1.319 1.819 2.101 2.281 2.419 2.521 2.604 2.694 2.811 2.889 2.969 3.056 3.146 3.256 3.396 3.466 3.579 3.679 3.739 3.801 3.821 3.891 3.966 4.109 4.241 4.361 4.409 4.446 4.989 5.054 4.791 4.714 4.866 5.144 5.286 5.399 5.979 6.324 6.376 6.204 6.109 5.611 5.246 5.174 5.176 5.201 5.269 5.316 5.361 5.419 5.436 5.461 5.519 5.566 5.579 5.626 5.684 5.711 5.769 5.801 5.816 5.861 5.946 5.964 6.019 6.056 6.106 6.134 6.176 6.246 6.311 6.374 6.406 6.439 6.501 6.486 6.574 6.579 6.559 6.604 6.626 6.696 6.756 6.826 6.816 6.871 6.934 6.991 7.044 7.039 7.084 7.116 7.171 7.169 7.231 7.256 7.296 7.354 7.396 7.439 7.444 7.506 7.539 7.576 7.651 7.714 7.724 7.746 7.759 7.834 7.924 7.989 8.039 8.086 8.109 8.121 8.114 8.121 8.156 8.199 8.259
1.094 1.064 1.129 1.104 1.059 1.062 1.067 1.102 1.084 1.112 1.094 1.182 1.182 1.087 1.074 1.037 1.069 1.059 1.084 1.052 1.004 1.017 1.074 1.072 1.074 1.164 1.112 1.092 1.087 1.099 1.119 1.319 1.424 1.554 1.394 1.439 1.437 1.347 1.984 2.122 1.474 1.404 1.492 1.417 1.604 1.369 0.921 0.806 0.876 0.879 0.861 0.734 0.561 1.016 1.054 1.049 1.056 1.014 0.979 0.921 0.919 0.879 0.876 0.904 0.894 0.849 0.834 0.791 0.846 0.881 0.881 0.896 0.844 0.914 0.961 1.094 0.741 1.014 1.036 0.999 1.169 2.086 2.736 2.659 2.321 2.386 2.489 2.509 2.331 2.099 2.511 2.206 1.074 0.796 0.761 0.789 0.814 0.816 0.806 0.776 0.784 0.781 0.809 0.769 0.746 0.741 0.644 0.686 0.724 0.723 0.752 0.776 0.767 0.775 0.755 0.749 0.756 0.791 0.789 0.775 0.78 0.809 0.842 0.88 0.954 1.017 1.069 1.081 1.066 0.874 0.605 0.158 0.065 0.176 0.707 1.248 1.483 1.53 1.514 1.503 1.408 1.19 1.014 0.858 0.791 0.806 0.806 0.818 0.878 0.849 0.872 0.874 0.854 0.836 0.861 0.839 0.844 0.869 0.869 0.846 0.851 0.856 0.854 0.829 0.809 0.824 0.769 0.786 0.799 0.756 0.739 0.741 0.756 0.784 0.794 0.776 0.791 0.744 0.781 0.801 0.769 0.781 0.794 0.831 0.824 0.876 0.814 0.826 0.804 0.829 0.826 0.864 0.864 0.851 0.881 0.911 0.919 0.926 0.896 0.881 0.884 0.919 0.934 0.929 0.951 0.974 0.944 0.964 0.949 0.914 0.884 0.879 0.866 0.844 0.821 0.779 0.764 0.814 0.809 0.726 0.641 0.626 0.626 0.634 0.614 0.624 0.651 0.671 0.649 0.659 0.716 0.771 0.801 0.841 0.864 0.891 0.899 0.884 0.899 0.936 0.884 0.811 0.734 0.729 0.761 0.826 0.859 0.919 0.916 0.896 0.894 0.844 0.819 0.841 0.806 0.851 0.864 0.854 0.866 0.876 0.861 0.849 0.856 0.846 0.876 0.896 0.926 0.896 0.906 0.911 0.904 0.889 0.899 0.911 0.906 0.916 0.899 0.866 0.846 0.796 0.744 0.671 0.364 0.474 0.679 0.599 0.486 0.416 0.454 0.414 0.349 0.364 0.339 0.466 0.429 0.591 0.669 0.754 0.789 0.791 0.816 0.796 0.769 0.744 0.771 0.804 0.821 0.851 0.854 0.811 0.771 0.769 0.774 0.766 0.739 0.744 0.771 0.764 0.741 0.749 0.691 0.704 0.684 0.631 0.631 0.611 0.636 0.609 0.604 0.569 0.554 0.599 0.651 0.594 0.661 0.774 0.916 0.941 0.629 0.879 2.384 3.104 3.424 2.914 1.884 1.036 0.959 0.944 0.959 0.981 0.966 0.991 0.991 0.976 0.989 0.989 0.979 0.959 1.031 1.039 1.054 1.044 1.086 1.086 1.084 1.086 1.091 1.126 1.111 1.014 0.961 1.014 1.154 1.616 1.999 2.189 2.321 2.431 2.514 2.606 2.706 2.809 2.879 2.976 3.041 3.164 3.269 3.359 3.436 3.529 3.616 3.684 3.791 3.846 3.889 3.996 4.126 4.241 4.319 4.341 5.921 6.034 4.746 4.604 4.649 4.656 4.744 5.336 4.766 4.981 5.681 5.751 6.071 6.434 6.431 6.434 6.154 5.896 5.601 5.306 5.341 5.386 5.426 5.456 5.506 5.559 5.591 5.624 5.681 5.709 5.756 5.776 5.819 5.864 5.909 5.946 5.979 6.029 6.081 6.121 6.131 6.174 6.241 6.319 6.396 6.419 6.469 6.531 6.526 6.604 6.584 6.631 6.711 6.736 6.726 6.766 6.834 6.859 6.931 6.984 7.044 7.091 7.126 7.169 7.196 7.249 7.281 7.331 7.306 7.386 7.404 7.464 7.516 7.541 7.621 7.644 7.686 7.741 7.801 7.814 7.831 7.849 7.946 8.021 8.069 8.141 8.191 8.189 8.206 8.221 8.236 8.254 8.346 8.366
