ncols 437
nrows 31
xllcorner    460002
yllcorner    89434
cellsize     2
NODATA_value -9999
22.497 32.75 34.14 20.112 20.735 20.072 29.56 28.975 21.137 20.19 19.435 19.507 19.567 20.517 20.195 19.692 19.835 21.035 20.885 30.117 31.385 29.152 29.06 34.8 34.532 33.815 34.407 35.38 37.547 35.31 34.965 35.532 33.88 33.517 32.657 35.51 36.657 35.117 23.525 22.035 31.722 33.29 22.01 20.912 20.957 20.952 21.075 21.28 26.077 27.06 22.095 21.345 22.43 33.59 38.527 38.232 38.762 38.845 31.985 33.422 39.73 29.067 29.505 24.93 22.685 27.04 32.155 26.102 29.002 30.012 38.667 34.602 25.045 32.957 35.895 26.457 22.522 26.29 30.812 26.332 23.31 23.932 24.227 22.485 22.687 30.73 31.505 32.612 32.677 25.11 30.79 23.79 22.895 23.042 23.242 23.302 26.63 28.322 28.337 27.525 28.237 25.322 29.457 30.227 24.155 24.195 25.692 27.425 30.137 29.612 32.14 30.555 33.79 30.55 23.77 23.997 23.925 23.912 24.16 24.61 24.567 24.135 24.092 24.177 24.217 24.915 24.295 24.437 24.447 24.462 24.475 24.487 24.607 24.615 24.67 24.65 24.755 24.755 24.877 24.955 25.257 25.202 25.23 25.32 25.16 25.11 25.34 25.395 25.432 25.625 26.132 25.602 25.705 25.762 25.982 25.967 25.87 25.942 26.005 26.06 26.125 26.187 26.865 29.365 27.625 26.54 26.582 26.762 26.707 26.752 26.815 26.86 26.862 26.92 26.995 27.015 28.122 27.442 27.147 27.172 27.282 27.437 27.93 27.592 27.64 27.692 27.782 27.877 28.002 27.997 28.945 33.367 31.787 33.275 35.615 32.502 27.79 34.12 36.3 35.362 31.212 37.964 35.874 37.804 36.692 36.929 36.977 37.497 34.267 31.722 31.872 32.189 30.767 28.687 28.989 29.442 29.559 29.574 29.524 29.539 29.554 29.464 29.412 29.414 29.447 29.522 29.549 29.624 29.717 29.794 29.904 29.949 30.057 30.354 30.429 30.634 31.889 40.852 48.139 48.167 47.749 45.622 51.022 45.524 34.249 31.509 31.749 31.829 32.227 32.292 32.387 32.547 32.627 32.714 32.792 33.132 33.534 33.797 34.249 33.869 33.307 33.619 33.819 33.842 33.957 33.927 33.967 34.069 34.212 34.189 34.652 34.339 34.374 34.482 34.644 34.779 34.859 34.942 35.014 36.667 40.874 36.234 41.997 44.394 48.734 50.714 48.942 47.912 54.432 52.752 40.859 51.009 50.727 53.724 54.024 55.557 49.334 41.729 45.194 47.477 55.819 54.282 46.809 45.507 42.199 53.917 59.069 52.787 57.489 57.972 54.314 51.759 51.739 49.242 51.174 56.274 41.274 56.682 48.087 51.972 58.057 57.382 58.869 60.717 59.802 59.174 59.319 54.362 57.894 59.697 55.762 56.499 54.207 42.654 39.602 38.942 39.417 41.717 39.019 39.472 39.844 38.957 39.317 38.969 39.519 39.559 38.989 38.517 38.679 40.194 40.662 40.372 40.619 40.984 40.822 41.222 42.984 43.264 42.497 41.682 41.287 41.377 41.444 41.564 41.674 41.829 41.964 42.089 42.174 42.262 42.377 42.429 42.504 42.552 42.594 42.617 42.509 42.424 42.667 44.397 44.207 42.739 42.522 42.634 43.414 43.299 42.919 42.599 42.542 42.527 42.474 42.467 42.442 45.147 43.829 43.617 44.894 43.339 42.274 42.267 42.212 42.129 42.082 42.119 45.567 43.007 43.459 50.087 42.809 43.199 41.942 41.947 42.217 42.207 42.199 41.924 41.897 41.859 42.217 41.812 41.684 42.054 41.582 41.369 41.254 41.737 40.947 40.902 40.797 40.719 40.634 40.539 40.477 41.649 41.919 44.552 45.707
27.732 33.93 35.625 24.405 26.042 20.277 30.405 23.732 20.787 20.152 19.305 19.512 19.605 19.5 19.555 19.58 19.697 20.367 20.822 30.355 29.71 24.152 32.102 35.047 30.102 33.437 33.197 34.217 37.082 27.617 27.207 32.465 25.037 29.63 29.852 33.747 37.275 33.5 22.63 23.11 27.075 24.937 21.362 24.237 27.092 25.357 21.012 29.887 34.412 35.837 27.155 24.297 34.1 38.57 38.747 36.922 35.66 35.915 27.247 34.617 34.25 29.045 36.972 34.287 29.27 32.922 35.77 33.027 36.417 36.62 39.34 34.835 30.31 40.302 40.55 27.762 23.492 29.912 30.335 31.817 25.397 22.647 22.605 22.575 22.555 25.352 24.347 25.105 29.87 26.435 26.18 26.797 22.875 22.925 22.985 23.84 30.795 30.215 32.17 28.885 26.875 23.557 29.625 30.277 28.652 25.882 27.775 28.485 29.827 30.53 33.44 33.82 28.37 29.002 23.822 23.81 23.595 23.99 24.07 23.98 24.04 24.085 24.095 24.13 26.06 24.727 24.73 24.45 24.395 24.367 24.39 24.442 24.485 24.492 24.69 24.655 24.715 24.78 24.877 24.95 25.017 25.09 25.27 25.28 25.01 25.18 25.445 25.652 25.375 25.362 25.412 25.687 26.425 25.587 25.95 25.722 25.76 26.22 25.925 26.262 26.125 26.155 26.26 26.98 28.26 27.35 26.5 26.685 26.617 27.157 27.517 26.825 26.81 26.95 26.962 27.035 27.195 27.195 27.68 27.095 27.32 27.295 27.432 27.465 27.577 27.607 27.732 27.82 27.92 29.095 30.957 32.917 32.11 35.257 36.055 34.902 28.892 36.515 39.09 32.852 35.682 34.297 37.772 39.374 38.657 37.119 36.769 37.059 37.769 35.072 36.927 33.874 29.099 28.512 28.894 29.337 29.484 29.524 29.499 29.427 29.387 29.309 29.307 29.317 29.382 29.482 29.492 29.989 30.922 29.727 29.704 29.722 29.902 30.087 30.344 30.284 33.702 42.164 41.002 42.769 41.609 46.107 50.004 49.369 43.769 32.199 32.114 31.912 31.782 31.549 31.814 31.737 31.787 32.117 32.439 32.629 32.959 33.032 33.594 33.392 33.097 33.387 33.647 33.572 33.814 33.714 33.804 33.914 33.894 34.034 34.104 34.212 34.327 34.442 34.552 34.689 34.759 34.819 34.879 34.929 34.937 34.937 35.179 36.917 40.137 40.764 41.572 53.639 55.557 55.894 44.252 45.684 41.749 48.297 46.784 52.574 51.827 47.754 49.784 53.212 51.377 46.072 53.097 55.307 44.479 44.194 53.174 53.927 56.434 57.254 51.292 59.039 54.267 47.339 57.289 53.849 38.694 56.567 48.432 53.307 58.237 58.527 58.259 56.534 53.702 50.497 53.587 55.369 56.404 57.192 54.664 48.814 46.257 41.279 39.117 38.767 38.734 42.364 39.189 39.764 40.154 38.624 38.867 38.982 39.319 38.797 38.354 38.374 39.179 39.549 39.892 40.369 40.559 42.347 42.589 45.874 42.974 43.549 42.359 41.487 41.234 41.327 41.397 41.492 41.612 41.747 41.879 42.027 42.097 42.169 42.247 42.314 42.419 42.457 42.462 42.494 42.359 42.269 42.654 44.957 43.869 42.732 42.344 42.574 42.809 44.037 42.702 43.184 43.179 42.429 42.414 42.374 42.364 43.572 47.779 48.264 48.309 45.012 42.217 42.204 42.174 42.092 42.032 42.044 44.274 43.192 44.447 46.574 47.237 43.129 41.869 41.837 41.924 42.149 42.062 42.037 41.849 41.772 41.794 41.702 41.634 41.527 41.402 41.299 41.532 42.212 43.674 40.822 40.717 40.597 40.507 40.439 40.429 40.434 42.709 40.687 41.122
30.345 31.397 33.927 29.235 30.757 21.232 30.65 25.665 24.75 22.722 21.25 19.457 19.517 19.582 19.565 19.602 20.03 20.867 19.952 20.652 24.362 34.717 34.955 34.002 23.25 26.83 30.357 28.332 33.467 20.885 22.23 25.595 20.812 21.63 23.162 28.022 29.76 24.165 20.797 20.797 20.807 20.795 21.867 30.755 34.26 31.99 31.345 34.442 36.86 38.582 29.337 29.755 36.987 38.92 38.137 35.447 33.135 33.722 33.485 32.74 30.325 30.427 37.652 35.485 23.527 27.625 29.477 39.25 37.277 34.917 37.867 38.155 34.712 37.912 38.292 26.71 22.385 23.5 25.622 33.53 32.22 22.545 22.895 25.57 22.545 22.565 22.722 23.775 29.64 32.335 31.955 23.02 22.827 22.907 22.945 24.1 25.34 25.487 28.307 28.907 31.642 25.26 27.365 33.862 29.06 28.342 28.107 35.122 26.982 30.542 35.49 33.832 25.32 25.602 23.872 23.847 23.712 23.842 23.937 23.907 23.997 24.082 24.065 24.095 24.555 24.157 24.28 24.392 24.33 24.402 24.392 24.362 24.457 24.495 24.66 24.605 24.692 24.722 24.797 24.835 25.005 25.072 25.095 25.067 25.545 26.815 25.682 25.262 25.387 25.332 25.402 25.435 25.527 25.545 25.545 25.682 25.772 25.845 25.867 26.1 26.257 26.82 26.122 26.527 26.222 26.307 26.41 29.302 26.537 26.732 28.142 28.667 26.962 27.277 26.905 26.947 26.902 27.005 28.427 27.037 27.132 27.23 27.282 27.415 27.46 27.515 27.602 27.997 30.415 27.922 32.93 34.165 34.062 36.05 38.567 36.167 28.337 34.837 38.792 32.609 33.197 37.872 39.872 37.157 36.372 36.072 35.507 38.559 37.167 31.979 35.254 33.314 31.114 28.417 28.722 29.082 29.199 29.142 29.159 29.207 29.209 29.187 29.199 29.177 29.262 29.402 29.442 29.787 30.272 29.484 29.474 29.527 29.744 30.044 30.299 30.309 32.867 36.219 32.147 37.272 32.697 41.489 49.294 51.772 47.864 38.232 37.744 34.259 34.129 33.839 33.072 34.419 32.999 32.034 31.577 31.999 32.319 32.682 32.847 32.884 32.842 33.127 33.452 33.317 33.317 33.429 33.724 33.682 33.779 33.832 33.772 33.909 34.059 34.157 34.122 34.424 34.457 34.587 34.697 34.774 34.757 34.752 34.832 35.019 36.764 36.764 39.579 49.412 52.764 53.559 49.002 46.147 49.644 41.514 50.497 48.592 49.804 46.314 39.952 44.237 42.189 48.592 53.577 44.732 41.977 54.852 54.839 55.657 54.447 55.219 56.952 59.979 50.282 45.094 49.759 54.902 38.934 55.644 52.872 48.679 57.462 57.627 47.997 43.722 41.412 49.364 39.387 38.674 43.764 52.432 45.924 40.509 41.372 40.424 38.529 39.537 38.557 39.309 40.037 42.014 38.532 38.892 38.952 39.159 38.697 38.142 38.252 39.067 39.172 40.362 39.969 40.192 42.342 41.887 41.937 41.964 40.747 42.067 41.684 41.194 41.139 41.199 41.294 41.387 41.497 41.654 41.779 41.884 41.949 42.042 42.144 42.204 42.254 42.312 42.339 42.367 42.259 42.194 42.747 43.952 43.604 42.709 42.252 42.579 43.242 42.692 42.477 42.447 42.389 42.357 42.344 42.327 42.282 42.244 45.057 46.644 47.492 45.602 42.142 42.187 42.139 42.017 41.972 41.937 43.757 45.404 41.897 41.859 41.862 41.819 41.812 41.792 42.017 41.982 41.967 41.884 41.784 41.712 41.639 41.629 41.589 41.469 41.424 41.137 41.242 44.729 40.772 40.692 40.602 40.522 40.392 40.369 40.337 40.307 40.317 40.262 43.582
23.282 26.382 29.615 34.585 33.772 26.295 34.277 32.15 31.712 25.075 21.505 19.697 19.93 19.805 19.492 19.727 24.795 28.115 25.342 19.742 30.742 34.74 34.175 31.667 20.135 20.64 21.172 21.435 24.015 20.452 20.32 20.457 20.58 20.895 20.707 21.427 20.75 20.812 22.742 23.297 21.82 20.767 20.795 34.322 36.777 35.387 30.53 32.677 36.335 39.457 30.027 35.205 38.105 38.642 35.755 25.012 26.925 35.935 38.79 36.732 37.565 33.142 30.292 26.572 22.907 26.675 30.632 35.875 30.505 30.622 39.147 29.705 23.437 28.002 25.067 22.357 22.385 22.475 24.3 30.435 30.98 23.262 22.625 22.607 22.557 22.572 22.66 22.795 26.755 29.542 28.667 26.622 25.57 26.252 23.497 23.557 25.755 25.262 29.39 26.467 27.922 27.3 27.035 32.357 33.647 28.417 30.41 32.225 33.387 34.685 34.677 29.057 27.245 29.68 23.997 23.74 23.63 23.91 23.91 23.86 23.982 23.985 24.432 24.097 24.162 24.542 24.285 24.257 24.325 24.3 24.3 24.315 24.44 24.477 24.502 24.627 24.657 24.752 24.837 24.897 24.832 25.027 24.97 25 25.105 25.135 25.132 25.182 25.257 25.235 25.307 25.382 26.125 25.537 25.63 25.602 25.667 25.73 25.835 25.842 25.937 25.9 25.992 26.665 26.292 26.17 26.257 29.195 26.527 26.657 27.945 28.67 27.44 27.067 26.815 26.8 26.857 26.907 28.072 26.932 26.975 27.122 27.352 27.4 27.355 27.447 27.505 28.567 29.287 27.905 32.707 36.275 36.785 32.972 38.332 36.242 28.817 29.027 35.73 32.214 35.569 36.402 39.217 33.154 38.344 38.559 39.462 37.829 35.899 32.194 30.589 37.779 29.692 28.314 28.517 28.919 29.154 29.152 29.159 29.182 29.187 29.207 29.197 29.129 29.079 29.132 29.239 29.242 29.334 29.389 29.419 29.467 29.554 29.864 30.084 30.517 30.914 30.827 30.782 36.897 33.837 39.094 50.379 51.982 53.027 43.354 39.017 34.464 35.204 35.184 35.022 35.669 36.519 35.847 33.532 32.854 31.872 31.859 31.874 32.549 32.702 32.907 33.162 33.132 33.204 33.397 33.419 33.507 33.507 33.667 33.767 33.947 34.877 34.019 33.859 33.892 33.914 34.014 34.209 34.407 34.514 34.552 34.592 34.862 36.782 36.869 37.352 42.444 45.919 47.834 48.619 38.702 35.549 41.182 48.527 39.029 48.169 46.614 38.109 36.787 37.159 47.934 51.722 48.639 50.692 47.612 54.939 51.362 44.647 56.092 52.327 57.439 48.502 44.602 54.819 54.464 51.562 56.932 47.202 54.414 57.222 50.387 47.167 47.149 39.617 38.432 38.062 38.049 38.002 45.242 38.382 38.612 39.232 40.184 38.572 38.489 38.307 38.557 39.744 40.487 38.939 38.467 38.639 38.394 37.972 38.017 39.317 41.842 39.367 43.059 39.804 40.217 40.652 41.417 41.354 40.799 40.759 41.192 41.124 40.987 41.044 41.092 41.137 41.254 41.399 41.554 41.632 41.739 41.804 41.909 42.002 42.092 42.099 42.197 42.239 42.174 42.099 42.057 42.527 44.054 43.682 42.519 42.024 43.467 43.134 43.262 42.289 42.259 42.254 42.227 42.209 42.262 42.194 42.167 47.032 45.032 49.394 44.737 42.072 42.114 42.114 41.984 41.914 41.869 41.849 41.794 41.809 41.809 41.727 41.734 41.762 41.759 41.864 41.892 41.899 41.772 41.684 41.652 41.662 41.702 41.457 41.334 41.144 40.982 41.099 41.844 40.737 40.604 40.499 40.452 40.479 40.292 40.249 40.214 40.199 40.219 40.167
19.327 21.887 23.967 35.707 29.47 21.422 29.592 35.187 28.39 25.305 19.407 19.47 19.45 19.445 19.515 21.07 32.065 34.337 19.667 24.115 36.03 35.222 27.825 28.14 20.087 20.042 20.02 20.05 20.112 20.24 20.265 20.682 22.275 20.482 20.51 20.592 23.207 26.855 31.542 23.255 20.927 20.77 20.8 29.357 34.212 31.622 25.537 26.38 30.055 32.437 31.057 36.922 36.695 35.155 26.747 27.942 23.562 32.65 27.365 34.707 39.215 36.832 27.967 28.405 22.775 23.347 23.712 32.617 28.84 35.515 33.472 23.615 26.47 24.77 25.057 25.907 22.33 22.395 22.367 22.807 22.462 22.5 22.542 22.59 26.225 24.12 23.407 22.657 24.822 28.135 31.327 30.735 29.435 32.067 32.067 24.322 26.782 27.98 31.302 30.762 34.08 33.425 29.992 32.82 31.055 34.5 33.252 30.545 31.252 34.99 34.752 32.695 35.92 32.23 25.517 24.057 23.662 23.775 23.86 23.885 23.907 25.115 23.977 24.055 24.057 24.435 24.367 24.25 24.262 24.345 24.255 24.327 24.365 24.425 24.482 24.607 24.64 24.745 24.822 24.752 24.782 24.887 24.682 24.837 24.92 25.062 25.187 25.12 25.152 25.395 25.392 25.292 25.382 25.39 25.48 25.562 25.647 25.735 25.727 25.747 25.912 25.855 25.9 26.045 26.082 26.13 26.267 27.345 26.427 30.255 28.145 26.642 28.157 29.93 29.322 26.73 26.787 26.91 28.327 27.587 26.865 26.935 27.102 27.2 27.322 27.357 27.427 27.535 27.755 28.23 30.322 31.867 38.68 34.975 38.82 36.76 29.762 27.675 29.352 32.934 34.939 33.539 34.519 39.089 39.449 37.707 38.419 36.887 37.882 35.069 32.142 36.434 31.457 28.252 28.387 28.857 29.159 29.162 29.139 29.149 29.129 29.162 29.134 29.059 29.022 29.027 29.102 29.189 29.254 29.302 29.377 29.422 29.479 29.592 29.787 30.259 30.489 30.304 30.349 40.204 45.837 42.804 49.914 51.294 51.657 49.099 37.809 34.492 34.974 35.204 35.394 35.902 36.569 35.992 35.234 34.812 34.629 34.332 32.189 32.109 32.564 32.647 32.954 33.002 33.109 33.222 33.209 33.322 33.382 33.454 33.672 34.014 34.157 33.764 33.669 33.737 33.802 33.847 33.897 33.984 34.219 34.352 34.369 34.272 41.434 36.449 35.542 36.487 38.209 38.772 38.934 35.427 35.327 37.059 43.862 41.379 51.712 43.722 35.937 36.057 37.887 50.632 53.122 47.259 50.209 51.362 57.594 55.057 48.599 54.962 57.992 44.289 51.137 47.489 46.029 53.602 55.069 56.577 48.214 56.537 57.672 55.584 47.409 41.784 37.799 37.832 37.999 37.924 39.584 43.137 38.877 38.904 38.487 38.577 38.904 38.319 38.172 38.417 38.469 40.947 39.274 38.464 38.259 37.817 37.787 39.049 40.199 41.517 40.522 39.364 39.512 39.874 41.207 40.549 40.669 40.667 40.842 40.932 40.837 40.842 41.064 41.099 40.992 41.114 41.229 41.369 41.472 41.577 41.659 41.742 41.859 41.959 41.989 42.089 42.127 42.087 41.969 41.939 42.579 43.417 43.954 42.209 41.902 44.047 46.672 43.634 42.192 42.169 42.162 42.129 42.092 42.392 42.092 42.102 45.957 42.037 42.104 42.039 42.002 42.049 42.042 41.929 41.869 41.822 41.767 41.749 41.692 41.664 41.652 41.639 41.657 41.657 41.752 41.707 41.687 41.784 41.714 41.614 41.564 41.564 41.419 41.414 41.202 41.022 40.942 40.914 40.589 40.492 40.409 42.052 42.734 40.264 40.149 40.127 40.074 41.432 40.014
21.832 19.997 27.002 36.23 24.91 19.28 27.73 33.732 27.49 22.747 25.107 30.21 19.502 20.652 21.257 21.47 30.372 28.65 25.157 28.877 29.167 25.342 20.16 20.07 19.922 20.042 20.15 20.237 20.145 20.205 20.342 20.292 21.037 24.795 23.255 25.485 28.227 37.002 32.345 21.315 20.64 20.722 20.697 24.462 27.745 23.567 21.002 21.48 22.592 28.52 34.49 32.49 35.877 37.732 33.237 27.195 24.242 24.725 22.76 32.86 38.892 38.357 26.327 22.507 22.115 22.602 25.765 32.93 31.645 29.755 28.257 24.295 28.475 29.83 34.265 33.462 30.472 22.222 22.26 22.37 22.497 22.69 22.75 24.472 27.48 24.77 24.15 22.617 22.697 26.055 31.375 32.225 31.325 34.47 32.885 27.177 23.567 28.407 31.315 33.405 29.54 34.135 25.575 31.967 32.092 33.68 33.542 29.122 32.405 34.155 32.612 31.225 34.992 34.577 30.357 25.94 23.635 23.812 23.867 23.91 23.985 23.93 23.952 24.08 24.097 24.292 24.347 24.157 24.207 24.29 24.242 24.245 24.517 24.355 24.405 24.445 24.572 24.602 24.587 24.677 24.777 24.957 24.92 25.54 25.077 25.035 25.092 25.097 25.067 25.175 25.155 25.25 25.412 25.345 25.39 25.497 25.537 25.602 25.635 25.68 25.772 25.807 25.797 25.905 26.015 26.125 26.285 26.89 26.887 33.64 28.297 26.452 27.465 37.392 31.892 27.255 26.685 26.802 26.85 26.81 26.762 26.87 26.975 27.062 27.192 27.337 27.34 27.442 27.575 30.812 29.237 28.692 36.16 32.892 36.6 35.86 32.472 28.307 27.46 27.487 27.499 28.792 38.104 34.264 34.252 36.899 38.099 37.467 36.917 36.142 34.852 35.619 28.369 28.224 28.257 28.727 29.134 29.187 29.182 29.137 29.137 29.134 29.144 28.997 29.004 28.957 28.987 29.139 29.194 29.239 29.317 29.374 29.422 29.474 29.667 30.967 30.267 30.672 31.294 35.699 45.167 46.704 46.982 47.799 45.974 39.242 32.417 33.202 33.984 34.454 35.134 36.057 36.457 35.787 35.367 35.364 35.277 34.617 32.414 32.114 32.492 32.489 32.639 32.752 32.892 32.867 33.114 33.122 33.162 33.234 33.442 33.564 33.579 33.487 33.559 33.654 33.724 33.774 33.812 33.874 34.054 34.162 34.142 34.157 36.344 34.517 34.259 34.667 35.489 35.559 35.587 35.354 35.139 35.147 39.337 50.309 44.544 39.167 40.164 37.757 37.047 51.774 47.939 51.779 50.654 43.702 54.864 48.797 50.942 56.367 53.332 50.997 52.147 52.274 55.012 57.669 53.077 55.282 46.517 51.282 45.384 53.644 49.827 43.844 43.694 41.717 46.862 45.019 40.069 37.649 38.967 37.827 37.882 38.027 38.307 37.677 37.709 37.959 38.749 41.159 39.242 38.317 37.682 37.639 37.844 38.412 38.774 40.067 43.287 43.197 39.167 39.379 40.357 40.309 40.374 40.452 40.369 41.474 40.947 41.474 41.019 41.169 41.137 40.977 41.072 41.212 41.284 41.407 41.504 41.584 41.709 41.802 41.857 41.924 41.962 41.939 41.839 41.779 42.002 43.712 42.137 42.722 41.747 42.994 43.609 43.354 42.047 42.052 42.259 42.319 41.987 41.992 41.964 42.062 42.052 41.984 42.012 41.924 41.884 41.964 41.977 41.824 41.824 41.799 41.699 41.687 41.639 41.619 41.567 41.587 41.614 41.564 41.562 41.634 41.639 41.837 41.589 41.569 41.632 41.429 41.477 41.269 40.939 40.884 40.802 40.744 40.532 40.417 40.314 42.482 43.027 40.327 40.017 40.007 39.964 39.937 39.914
23.55 30.407 32.872 31.737 24.032 19.257 27.735 34.717 26.075 30.3 35.187 33.042 23.202 30.437 26.965 24.162 22.7 22.83 30.05 19.897 20.522 19.822 21.437 19.955 20.99 20.057 20.075 20.112 20.165 20.262 24.09 20.25 23.792 27.865 24.725 27.995 33.562 35.332 27.035 20.587 21.082 21.097 21.427 20.66 23.142 26.352 21.247 20.837 20.867 30.347 34.84 33.127 35.547 38.817 38.785 28.302 28.242 25.065 23.297 27.317 30.872 36.752 28.737 21.742 21.73 21.757 25.807 33.98 31.985 27.905 23.867 26.47 38.417 35.657 36.037 38.715 27.165 22.202 22.245 22.227 22.21 22.33 24.097 25.115 27.352 27.827 25.33 22.542 22.575 29.177 33.277 32.135 32.835 32.295 30.315 33.525 30.26 26.332 27.04 31.442 26.345 30.92 29.492 29.257 33.532 33.987 32.51 33.537 33.4 28.005 30.89 33.535 32.982 34.315 32.82 26.88 23.622 23.765 23.837 23.8 23.88 23.93 23.96 24.06 24.04 24.127 24.295 24.205 24.395 24.555 24.162 24.187 25.01 24.332 24.332 24.437 24.467 24.572 24.757 24.67 24.692 24.645 24.665 26.457 25.385 24.9 24.945 25.042 25.082 25.112 25.15 25.287 25.212 25.257 25.305 25.382 25.465 25.53 25.667 25.637 25.682 25.805 25.745 25.845 25.852 26.065 26.142 26.547 29.16 30.845 26.705 26.32 27.12 33.795 26.462 26.607 26.46 26.795 26.827 29.192 26.705 26.832 26.855 28.425 27.31 27.325 27.28 27.375 27.567 29.56 27.927 29.335 34.762 36.365 34.362 33.632 32.33 30.502 27.71 27.422 30.344 34.357 37.544 36.059 34.207 38.402 33.067 34.519 36.617 35.267 32.752 29.659 28.087 28.157 28.182 28.547 29.052 29.239 29.189 29.129 29.159 29.134 29.012 28.899 28.962 28.962 28.937 29.062 29.127 29.184 29.244 29.299 29.374 29.432 29.544 29.737 29.942 30.249 31.979 37.539 37.602 41.987 45.347 40.489 37.454 32.649 31.142 31.212 31.817 34.349 35.322 35.909 36.137 35.609 34.759 34.652 34.799 34.422 31.839 32.024 32.209 32.339 32.454 32.577 32.747 32.749 32.857 32.949 33.127 33.072 33.159 33.332 33.439 33.397 33.474 33.577 33.649 33.694 33.729 33.764 33.932 33.967 34.062 34.074 34.109 34.164 34.144 34.172 34.207 34.387 35.179 34.987 34.979 34.922 35.612 48.052 50.492 39.237 37.397 43.674 41.889 50.554 50.274 50.307 44.769 47.597 53.584 48.039 53.819 45.917 54.442 47.557 48.782 54.164 51.437 52.114 47.432 51.414 51.647 51.119 51.622 47.872 52.077 45.427 49.367 51.064 51.037 46.912 37.469 41.007 39.494 37.544 38.194 41.744 40.692 38.462 38.594 37.649 39.049 38.884 37.799 37.542 37.504 37.614 38.127 42.212 42.587 38.824 43.057 41.637 39.002 39.307 39.614 39.797 39.824 39.972 40.104 40.314 41.059 40.707 40.939 41.007 40.877 40.847 40.902 41.032 41.124 41.234 41.344 41.437 41.554 41.624 41.697 41.794 41.787 41.792 41.677 41.637 42.329 44.639 43.757 41.702 41.704 42.482 42.677 43.404 41.912 41.939 41.984 41.969 41.897 41.859 41.874 41.892 42.069 44.802 43.419 41.904 41.832 41.779 41.749 41.724 41.702 41.662 41.624 41.572 41.602 41.602 41.487 41.507 41.522 41.549 41.552 41.554 41.539 41.622 41.659 41.642 41.402 41.317 41.314 41.032 40.887 40.797 40.754 40.659 40.452 40.329 40.212 42.444 43.134 40.284 39.939 39.872 39.844 39.794 41.177
26.842 29.227 25.53 23.515 22.167 19.195 27.405 32.73 26.82 31.17 32.597 28.43 34.1 35.84 32.407 31.005 31.55 20.69 21.17 19.72 19.77 19.865 28.212 31.025 22.327 23.107 22.445 21.357 20.157 21.252 30.24 20.222 23.472 22.105 20.477 22.112 27.357 28.285 26.245 20.665 20.63 20.695 24.857 20.652 23.992 26.187 21.512 20.855 24.69 35.497 33.74 34.072 34.965 37.867 32.577 33.727 30.792 22.822 30.715 22.082 23.05 28.617 25.847 25.135 23.177 21.67 22.17 28.987 26.295 32.952 27.005 27.742 37 26.48 29.847 31.36 23.655 22.415 22.152 23.285 22.3 22.202 22.282 22.36 30.035 25.052 22.317 22.472 23.142 28.76 31.632 29.802 31.865 30.467 30.165 28.555 26.527 28.795 25.78 29.282 29.74 32.525 31.94 32.607 32.947 34.687 35.437 29.132 31.062 24.925 33.87 33.852 34.605 35.832 33.362 31.222 23.587 23.845 23.787 23.955 23.87 23.99 23.965 23.905 24.055 24.042 24.092 24.48 24.21 24.192 24.155 24.165 24.242 24.392 24.4 24.372 24.527 24.537 24.717 24.647 24.625 24.565 24.7 24.76 24.887 24.925 24.907 25.02 25.042 25.075 25.075 25.382 25.287 25.19 25.262 25.277 25.335 25.417 25.55 25.52 25.582 25.652 25.682 25.73 25.765 25.952 26.577 26.212 26.627 27.52 26.395 26.387 31.557 27.57 26.335 27.215 31.737 26.572 29.002 31.495 26.782 26.807 27.135 30.177 29.337 27.35 27.205 27.282 27.422 27.557 27.667 27.335 33.287 35.987 31.127 28.135 28.41 29.885 29.932 27.442 27.317 33.949 38.102 37.052 35.152 27.697 35.899 35.044 34.959 33.322 31.294 27.879 27.987 28.054 28.122 28.257 28.777 29.199 29.217 29.132 29.082 29.067 28.984 28.932 28.942 28.927 28.912 28.962 29.069 29.132 29.194 29.249 29.302 29.339 29.362 29.624 30.022 29.869 31.764 35.792 36.942 41.057 40.037 31.964 30.962 30.922 31.079 31.167 31.689 34.277 34.862 35.084 35.294 35.227 34.469 33.187 32.969 33.457 31.639 31.967 32.057 32.197 32.252 32.342 32.697 32.647 32.769 32.784 32.954 32.934 33.064 34.174 33.604 33.307 33.377 33.549 33.624 33.649 33.642 33.649 33.769 33.784 33.989 34.032 34.102 34.107 34.127 34.174 34.197 34.369 34.817 34.954 34.809 34.747 34.779 47.489 46.429 50.784 48.444 48.024 44.539 53.844 46.917 43.999 42.959 49.369 46.174 54.577 55.789 50.989 47.734 53.067 56.952 45.844 48.194 52.407 53.909 54.799 51.944 48.452 50.537 49.214 51.737 50.489 52.439 48.414 44.374 51.632 40.077 38.939 36.792 40.709 40.162 40.307 41.337 36.634 36.794 37.149 38.764 38.334 37.402 37.274 37.389 38.269 38.404 38.414 38.527 38.782 42.374 38.732 38.859 38.957 39.244 39.352 39.499 39.677 39.932 40.032 40.339 40.607 40.407 40.612 40.619 40.722 40.772 40.877 40.954 41.074 41.147 41.279 41.392 41.457 41.557 41.624 41.677 41.589 41.509 41.497 42.154 43.794 42.339 42.389 41.584 43.072 43.967 43.382 41.782 41.847 41.819 41.789 41.777 41.802 41.807 41.832 41.834 44.942 44.794 41.774 41.744 41.694 41.659 41.607 41.584 41.542 41.527 41.509 41.487 41.444 41.417 41.397 41.452 41.534 41.477 41.479 41.487 41.514 41.604 41.487 41.669 41.402 41.432 40.934 40.809 40.709 40.612 41.049 40.369 40.272 40.154 42.257 43.209 40.302 39.874 39.779 39.732 39.697 40.449
29.56 25.417 20.042 21.59 25.61 23.742 24.372 30.585 36.017 31.48 21.727 32.627 33.495 33.925 24.537 33.66 33.792 21.317 19.64 19.67 19.767 20.127 28.222 34.485 24.087 30.445 32.825 28.502 20.172 20.54 23.702 20.372 21.2 21.032 20.352 20.362 22.287 29.79 25.777 23.08 21.165 21.85 26.867 20.62 24.205 22.442 20.76 28.19 29.17 34.532 37.075 37.552 34.465 36.18 37.857 35.395 23.817 26.045 25.617 21.412 21.37 21.717 25.42 24.957 21.965 21.715 24.42 26.395 27.877 34.775 29.85 22.995 28.727 25.33 24.03 22.597 22.327 24.145 28.71 27.785 24.175 25.64 22.385 23.367 28.612 26.535 22.237 22.362 22.432 26.122 27.54 26.74 29.79 31.697 29.697 31.287 29.797 25.075 22.895 26.967 31.342 29.97 27.835 25.57 29.3 35.705 31.84 27.765 33.867 29.602 34.207 35.237 31.077 34.56 28.412 25.145 23.562 23.717 23.767 23.892 23.892 23.87 23.872 23.91 23.957 23.992 24.025 24.052 24.05 24.29 25.105 24.855 24.235 24.295 24.417 24.357 24.5 25.197 24.66 24.607 24.442 24.492 24.632 24.727 24.75 24.882 24.89 24.93 25.005 25.095 25 25.065 25.157 25.212 25.235 25.26 25.352 25.37 25.372 25.442 25.487 25.575 25.632 25.67 25.677 25.827 25.887 26.032 27.722 28.802 26.692 26.207 26.937 26.177 26.292 30.315 36.907 33.287 28.555 30.465 26.702 26.957 26.867 27.447 27.812 27.347 27.107 27.197 27.387 27.47 27.572 27.842 29.57 29.297 28.37 27.167 27.302 31.002 35.215 27.664 27.272 27.332 31.989 33.877 33.659 27.417 33.722 33.849 31.402 28.459 27.952 28.304 29.089 27.987 28.067 28.167 28.324 28.917 29.052 29.022 29.019 28.992 28.999 28.972 28.957 28.949 28.947 28.914 28.977 29.089 29.122 29.169 29.152 29.119 29.164 29.337 29.659 29.817 29.964 29.959 37.064 45.009 35.192 30.377 30.619 30.839 30.952 31.104 31.344 32.472 33.242 33.449 34.102 34.562 33.589 31.264 31.302 31.467 31.619 31.812 31.879 32.052 32.094 32.222 32.604 32.559 32.572 32.792 32.929 32.989 33.602 34.649 33.259 33.464 33.247 33.209 33.379 33.544 33.562 33.577 33.617 33.719 33.912 33.972 34.052 34.082 34.119 34.132 34.124 34.297 34.519 34.417 34.544 34.504 34.624 44.187 52.359 49.792 57.134 52.614 48.109 51.992 45.919 42.327 54.362 41.709 49.632 54.687 51.459 48.992 44.664 47.037 47.862 46.807 46.999 52.017 44.504 55.442 49.562 43.262 43.387 50.402 55.037 47.624 49.512 50.147 46.772 49.664 36.929 37.014 36.477 38.897 41.364 36.614 39.394 36.637 36.707 37.337 39.024 37.287 37.022 37.137 37.727 38.457 38.109 38.229 39.837 40.572 41.907 38.564 40.482 38.889 39.107 39.149 39.272 39.439 39.609 39.749 39.952 40.337 40.204 40.552 40.562 40.842 40.627 40.677 40.819 40.934 41.002 41.087 41.199 41.277 41.362 41.442 41.449 41.417 41.354 41.359 41.677 42.749 41.984 41.602 42.397 45.737 45.034 41.717 41.684 41.699 41.679 41.677 41.679 41.697 41.729 41.747 41.712 42.324 42.764 42.937 41.622 41.587 41.519 41.517 41.479 41.459 41.417 41.422 41.394 41.392 41.367 41.347 41.367 41.357 41.309 41.409 41.467 41.442 41.452 41.384 41.249 41.142 41.019 40.844 40.742 40.577 40.649 40.594 40.322 40.167 40.059 42.012 43.244 40.447 39.784 39.684 39.624 39.584 39.547
25.14 19.182 20.597 33.745 27.565 19.33 21.375 33.397 34.507 21.1 25.29 33.507 29.072 23.202 20.487 25.685 23.91 19.577 19.665 20.717 19.71 19.77 22.095 25.285 21.442 33.875 38.79 32.135 21.057 20.112 20.172 20.492 21.28 20.342 20.405 20.425 21.26 30.52 20.795 23.165 24.095 22.66 22.285 20.657 26.935 27.385 24.522 36.805 26.887 31.87 29.09 28.22 30.33 38.337 38.182 33.797 21.09 21.237 21.3 21.42 21.422 21.422 22.677 21.562 21.482 21.542 25.267 24.577 24.152 29.477 24.445 27.532 32.782 26.822 22.102 24.83 28.252 30.732 34.25 36.07 29.892 36.272 28.725 22.747 30.92 23.25 23.77 22.327 22.39 22.557 22.705 24.222 27.97 29.857 25.95 26.567 23.32 23.035 23.117 31.447 31.417 26.737 26.597 29.312 28.41 34.54 29.647 31.762 34.172 31.967 33.252 35.517 32.105 26.982 29.642 27.17 24.572 23.617 23.787 23.872 23.847 23.87 23.867 23.982 24.15 23.995 24.032 24.3 24.037 24.095 25.575 25.43 24.565 24.265 24.327 24.475 25.14 24.455 24.557 24.575 24.425 24.482 24.737 24.697 24.81 24.832 24.982 24.92 25.042 25.162 25.112 25.075 25.085 25.117 25.147 25.182 25.22 25.305 25.355 25.36 25.44 25.63 25.642 25.642 25.72 25.675 25.812 26.205 26.77 26.26 26.107 29.607 26.075 26.05 26.165 26.485 29.425 34.062 27.532 31.577 26.657 26.56 26.62 26.757 27 27.017 27.037 27.117 27.317 27.45 27.522 28.502 28.587 27.47 27.092 27.07 27.227 29.372 33.445 30.679 27.249 27.187 27.282 28.034 28.029 30.527 35.517 31.419 28.702 27.667 27.704 27.739 27.817 27.924 27.972 27.977 28.079 28.704 28.992 28.999 29.034 29.022 29.047 29.044 29.034 28.967 28.964 28.919 28.929 29.004 29.007 29.002 29.024 29.089 29.127 29.217 29.582 29.762 29.829 30.189 32.692 35.614 40.302 30.259 30.469 30.704 30.847 30.987 31.099 31.157 31.162 31.227 31.499 32.469 32.642 31.289 31.374 31.452 31.554 31.632 31.759 31.859 31.959 32.194 32.732 32.669 32.532 32.559 32.592 33.387 33.024 33.004 32.862 33.029 33.089 33.027 33.074 33.199 33.394 33.434 33.454 33.544 33.742 33.907 34.002 34.032 34.082 34.079 34.022 34.372 34.149 34.177 34.742 34.364 34.372 36.352 47.449 52.099 52.942 53.954 50.689 52.592 50.872 51.524 50.927 39.029 46.234 52.264 46.724 46.959 46.724 47.329 44.029 39.709 44.217 44.837 37.274 50.032 40.879 37.957 38.574 45.277 52.517 44.774 50.452 48.142 42.432 37.634 36.509 36.302 36.017 36.287 36.382 36.437 36.702 38.907 36.804 37.462 37.139 36.832 36.909 37.404 37.789 37.802 38.612 37.904 38.904 44.752 41.434 40.682 38.559 38.724 38.834 38.959 39.079 39.229 39.377 39.542 39.689 40.069 40.159 40.199 40.387 40.419 40.567 40.487 40.622 40.719 40.819 40.912 41.004 41.064 41.149 41.234 41.247 41.222 41.169 41.212 42.534 44.647 42.034 42.074 41.549 42.292 42.452 41.619 41.567 41.597 41.569 41.584 41.609 41.649 41.597 41.674 41.634 42.824 44.297 41.532 41.509 41.457 41.414 41.437 41.397 41.359 41.344 41.377 41.322 41.314 41.277 41.284 41.282 41.237 41.234 41.342 42.274 42.829 41.597 41.257 41.277 41.039 40.927 40.799 40.652 40.499 40.514 40.564 40.197 40.089 40.002 40.889 42.637 40.349 39.724 39.649 39.542 39.569 39.489
19.502 19.23 27.837 27.282 20.655 19.387 22.247 33.975 29.722 27.575 31.447 26.602 27.457 23.95 19.49 21.61 19.747 19.685 19.717 27.085 26.02 20.18 19.887 19.89 20.477 28.617 34.16 30.442 21.202 20.19 20.147 20.42 20.707 20.29 20.317 20.44 20.42 21.15 20.375 20.62 27.625 24.815 20.602 20.617 21.55 23.477 22.502 33.455 30.157 33.775 22.855 23.387 33.542 34.007 35.525 37.092 27.382 21.247 21.302 21.362 21.37 21.46 23.945 29.61 21.535 23.112 21.587 22.055 25.477 32.505 30.965 37.937 39.14 25.05 21.997 25.25 22.497 30.612 37.747 38.037 34.01 37.815 32.997 26.05 30.625 27.395 25.285 22.302 22.375 22.355 22.655 26.007 29.652 31.02 24.257 22.797 22.71 31.02 31.212 29.935 27.347 26.422 31.64 31.262 26.055 32.865 32.372 33.087 32.042 32.747 34.152 31.312 28.057 25.012 35.785 31.767 25.787 23.595 23.667 23.925 23.83 23.837 23.875 23.995 24 23.957 24.137 24.097 23.997 24.057 24.675 24.215 24.787 24.2 24.282 24.9 24.545 25.482 24.665 24.687 24.36 24.557 24.59 24.68 24.87 24.857 24.797 24.807 24.912 24.895 24.947 24.987 25.022 25.085 25.105 25.16 25.432 25.162 25.297 25.365 25.355 25.647 25.557 25.6 25.627 25.647 25.715 26.16 26.575 25.845 25.995 26.282 26.037 26.147 26.117 26.047 27.662 27.357 26.335 27.412 26.32 26.475 26.667 26.797 26.94 26.935 26.98 27.085 27.19 27.365 27.492 27.447 27.6 27.34 27.06 30.505 27.19 29.277 33.552 31.507 27.309 27.204 27.342 30.289 30.864 36.224 30.699 27.669 27.604 27.629 27.629 27.687 30.762 30.367 28.294 28.024 28.212 28.964 29.062 29.047 29.042 29.052 29.072 29.024 28.999 28.922 28.907 28.897 28.912 28.877 28.929 28.957 28.997 29.039 29.089 29.137 29.404 29.712 29.947 29.812 29.817 29.907 30.022 30.137 30.322 30.464 30.664 30.862 31.029 31.094 31.172 31.212 31.247 31.287 31.279 31.324 31.402 31.439 31.502 31.567 31.629 31.724 31.824 32.082 32.287 32.189 32.504 32.397 32.614 33.869 33.052 32.597 32.589 32.639 32.662 32.749 32.849 33.047 33.149 33.262 33.259 33.154 33.209 33.454 33.797 33.957 33.989 34.019 33.869 34.302 34.017 33.934 34.062 34.502 34.364 34.812 39.187 45.304 51.839 50.219 53.424 56.469 51.549 46.184 52.924 46.359 46.167 50.664 45.274 54.309 45.297 41.639 36.559 35.719 40.172 46.822 40.759 45.082 44.612 43.352 46.437 40.197 45.704 47.447 47.414 42.082 36.474 36.192 36.189 35.872 35.824 36.189 37.399 36.132 36.659 37.599 37.204 37.577 36.697 36.739 37.142 37.402 37.479 38.574 38.009 37.779 37.877 40.994 38.189 38.197 41.104 40.172 38.914 38.752 38.867 39.017 39.174 39.339 39.557 39.779 39.794 39.947 40.169 40.784 40.744 40.554 40.472 40.544 40.624 40.697 40.797 40.847 40.944 41.034 41.069 41.032 40.994 41.039 42.822 44.002 42.374 41.079 41.374 43.802 41.664 41.837 41.457 41.474 41.454 42.159 42.587 41.639 41.474 41.722 41.469 42.737 44.312 42.309 41.374 41.349 41.309 41.299 41.312 41.249 41.254 41.264 42.769 41.249 41.194 41.209 41.174 41.137 41.169 41.317 44.827 44.384 43.259 41.104 41.109 41.332 40.854 40.784 40.592 40.384 40.259 40.309 40.094 39.977 39.937 39.862 39.757 39.744 39.657 39.617 39.557 39.499 39.414
19.335 22.022 23.297 22.82 22.825 20.52 19.347 23.495 30.907 34.005 32.845 28.117 32.715 32.915 26.22 28.81 21.957 19.645 20.15 30.242 28.337 20.385 19.835 21.05 24.03 27.655 24.377 22.315 20.085 20.127 20.247 20.215 21.375 20.43 20.407 20.35 20.362 20.367 20.367 20.715 29.185 25.885 20.53 20.637 25.985 30.187 26.617 34.51 34.345 33.247 20.752 30.53 30.17 30.64 31.927 29.375 26.737 21.22 21.315 21.285 21.367 23.632 32.952 36.865 34.96 30.672 24.725 25.307 32.745 37.122 36.395 37.45 36.097 25.125 21.957 21.88 21.89 24.632 29.732 34.087 34.67 32.872 25.755 27.197 24.11 22.582 22.127 22.23 22.355 22.472 22.48 30.285 27.375 23.775 27.475 25.81 22.712 26.487 30.037 24.822 23.095 26.957 30.512 29.217 26.795 31.977 31.44 30.315 30.827 30.052 32.645 34.412 27.825 27.297 35.9 33.535 25.195 23.507 23.66 23.765 23.85 23.802 23.89 23.91 24.045 24.187 24.007 24.147 24.1 24.167 24.335 24.417 24.145 24.255 24.27 24.687 24.672 24.975 24.885 24.445 24.36 24.522 24.675 24.585 24.675 24.735 24.765 24.805 24.785 24.865 24.882 25.04 25.002 25.062 25.145 25.075 25.185 25.105 25.165 25.322 25.41 25.452 25.452 25.457 25.63 25.557 25.875 25.97 25.727 25.81 26.402 25.87 26.092 26.2 25.922 26.017 26.225 25.992 26.14 26.232 26.285 26.437 26.827 26.707 26.7 26.84 26.952 26.997 27.115 27.267 27.432 27.45 27.47 27.005 26.975 31.01 27.032 28.96 32.88 30.947 27.147 28.462 33.947 33.997 35.057 33.312 32.072 27.424 27.462 27.877 32.534 28.699 34.269 35.932 27.777 27.952 28.217 28.772 29.084 29.057 29.064 29.069 29.077 29.047 28.979 28.912 28.917 28.897 28.877 28.862 28.884 28.947 28.959 29.022 29.044 29.074 29.172 29.464 29.622 29.679 29.677 29.944 29.997 30.089 30.162 30.232 30.382 30.497 30.697 30.839 30.979 31.109 31.177 31.294 31.379 31.504 31.437 31.482 31.499 31.539 31.562 31.642 31.712 32.087 32.172 32.247 32.119 32.319 32.472 32.604 32.737 32.439 32.472 32.487 32.532 32.609 32.677 32.784 33.032 33.147 33.022 32.982 33.009 33.104 33.307 33.504 33.707 33.762 33.677 33.732 34.097 33.794 33.832 33.989 34.099 34.097 34.867 40.462 41.402 50.094 49.854 54.979 54.754 45.952 45.727 37.837 41.439 39.967 37.689 48.017 46.607 36.079 35.669 35.467 35.554 43.582 47.257 36.837 45.329 43.604 46.059 44.254 47.277 45.014 52.257 35.579 35.612 36.107 36.042 35.574 35.714 35.962 35.917 36.319 36.549 37.684 36.909 36.507 36.549 36.844 37.297 37.282 38.792 39.457 37.767 37.664 37.889 37.889 37.954 37.984 38.122 43.154 40.424 38.757 38.709 38.837 38.994 39.192 39.349 39.512 39.594 39.909 40.629 40.707 40.819 40.624 40.722 40.444 40.439 40.504 40.572 40.622 40.732 40.814 40.857 40.864 40.842 41.302 43.514 43.077 42.139 40.927 41.319 44.587 43.232 41.322 41.312 41.332 41.284 42.777 43.834 42.169 41.319 41.339 41.274 42.489 44.307 41.819 41.262 41.232 41.202 41.174 41.169 41.154 41.164 42.089 44.177 41.197 41.122 41.134 41.067 41.092 41.212 41.244 43.099 44.557 43.234 41.152 40.899 40.832 40.904 40.794 40.554 40.327 40.164 40.124 39.992 39.947 39.877 39.804 39.732 39.657 39.612 39.572 39.487 39.429 39.334
19.155 20.115 19.257 28.972 25.9 25.722 21.335 19.367 28.235 36.035 24.772 28.752 36.82 31.1 33.43 28.705 27.525 19.75 19.94 23.705 21.392 19.767 21.617 28.13 28.762 30.572 23.757 24.785 20.522 20.11 20.182 20.157 20.577 21.832 20.28 20.29 20.282 20.3 20.325 20.365 23.657 21.565 20.535 21.977 33.317 34.367 32.762 34.88 37.365 26.412 23.43 30.452 27.365 26.255 22.545 21.452 29.177 27.477 24.222 21.192 21.327 24.757 33.775 36.755 37.732 38.787 25.212 26.7 31.507 38.707 37.27 32.652 29.022 22.01 21.852 21.85 21.905 21.932 23.172 26.382 25.09 22.145 22.297 22.15 22.185 22.132 22.132 22.175 23.557 23.455 25.325 24.437 22.402 25.235 25.862 23.402 23.802 23.837 23.282 25.195 33.53 32.73 31.952 31.435 28.422 29.715 30.31 32.775 29.81 28.642 28.935 28.74 29.385 28.727 32.062 27.732 23.642 23.572 23.59 23.737 23.825 23.857 23.985 23.965 24.027 24.062 24.005 24.14 24.08 23.99 24.23 24.31 24.167 24.132 24.217 24.187 24.327 24.462 24.447 24.975 24.582 24.507 24.562 24.622 24.625 24.677 24.745 24.702 24.755 25.047 24.815 24.917 24.942 25.017 25.017 25.022 25.16 25.07 25.192 25.285 25.29 25.34 25.375 25.462 25.547 25.505 25.605 25.77 25.98 25.952 25.88 25.7 25.752 25.72 25.745 25.867 25.977 25.922 25.982 26.077 26.202 26.435 26.497 26.817 27.035 26.95 26.945 26.957 27.04 27.237 27.337 27.36 27.91 27.077 26.895 28.212 26.987 27.695 30.225 30.629 27.087 27.837 33.619 32.497 34.279 33.087 29.792 27.327 27.452 30.659 35.832 28.584 35.627 36.914 27.754 28.032 28.327 28.424 28.847 28.989 29.084 29.089 29.069 29.047 29.039 29.002 28.919 28.919 28.887 28.892 28.867 28.917 28.944 28.989 29.034 29.049 29.077 29.227 29.539 29.934 29.744 29.757 29.842 30.022 30.139 30.074 30.237 30.367 30.527 30.654 30.739 30.857 30.972 31.144 31.372 31.479 31.409 31.477 31.482 31.532 31.557 31.597 31.639 31.784 32.122 31.959 32.007 32.022 32.034 32.412 32.537 32.402 32.382 32.384 32.452 32.542 32.582 32.699 32.962 33.002 32.847 32.847 32.904 32.954 32.984 33.092 33.267 33.317 33.849 33.702 34.084 33.657 33.832 33.789 33.854 34.067 34.004 34.072 34.969 45.969 54.792 55.047 53.034 49.874 50.314 47.852 35.149 35.157 38.937 42.009 44.482 35.202 35.207 35.227 35.262 35.564 40.579 35.247 44.772 41.022 39.189 40.179 42.462 38.517 38.344 35.087 36.029 35.454 35.477 35.137 35.379 35.804 35.992 36.362 36.854 36.877 36.374 36.382 36.667 37.002 37.447 38.974 38.117 37.332 37.487 37.744 37.659 37.649 37.837 37.734 38.859 40.497 38.244 38.932 38.507 38.649 38.812 39.102 40.372 40.514 39.542 40.364 40.697 40.917 40.924 40.987 41.014 40.799 40.417 40.337 40.359 40.444 40.529 40.612 40.684 40.697 40.684 42.199 44.212 43.084 41.039 40.734 41.227 43.949 44.124 43.002 41.214 41.192 41.152 42.372 43.837 42.247 41.227 41.214 41.167 42.304 44.294 41.477 41.134 41.159 41.099 41.047 41.024 41.049 41.104 44.052 45.654 43.322 41.097 41.044 41.007 41.052 42.519 41.179 42.887 44.237 43.549 41.417 40.889 40.709 40.787 40.639 40.417 40.199 40.077 40.007 40.004 39.967 39.819 39.762 39.682 39.587 39.582 39.479 39.437 39.344 39.259
21.135 23.035 19.442 28.67 29.5 30.487 22.435 19.42 28.727 35.437 20.415 27.84 34.495 30.425 31.817 28.88 34.3 24.192 21.407 19.68 19.667 19.707 20.202 23.877 23.882 28.612 35.715 27.312 19.972 20.037 20.06 20.24 20.782 21.027 20.202 22.432 26.43 23.802 20.447 21.21 21.295 20.377 20.372 24.49 36.852 36.792 31.84 25.355 33.077 31.652 25.24 24.507 21.87 23.465 23.965 24.085 35.69 36.267 26.005 21.117 21.187 23.047 27.66 29.387 33.57 36.62 27.227 27.762 30.787 38.827 37.547 29.412 21.742 21.755 21.76 22.297 23.015 22.752 21.93 21.93 21.982 22.037 22.08 22.125 22.147 22.175 22.152 22.12 23.252 26.877 22.425 25.925 24.362 23.347 23.947 27.305 30.025 27.91 27.41 28.625 33.565 31.527 30.84 31.79 30.917 29.057 34.602 33.635 32.507 32.895 32.065 29.207 30.122 28.167 28.56 26.915 24.407 23.47 23.545 23.672 24.1 24.025 23.84 23.852 23.977 23.997 24.085 23.99 23.997 24.035 24.002 24.042 24.062 24.117 24.297 24.122 25.187 25.582 24.382 24.457 24.392 24.427 24.605 24.51 24.622 24.615 24.605 24.667 24.73 24.785 24.865 24.865 24.902 24.957 24.937 25.055 25.272 24.985 25.155 25.175 25.22 25.35 25.31 25.447 25.447 25.335 25.407 25.732 25.535 25.522 25.79 25.647 25.552 25.715 25.795 26.065 26.742 25.93 26.005 26.177 26.31 26.4 26.49 26.472 26.64 27.022 26.867 26.88 26.942 27.137 27.292 27.44 27.877 26.995 26.845 27.047 26.94 27 32.64 33.459 27.059 27.677 31.999 33.104 37.957 34.129 31.862 29.212 30.659 30.614 31.309 28.242 32.544 30.692 27.752 27.904 30.687 29.847 29.997 31.882 29.127 29.057 29.097 29.087 29.067 29.037 29.004 28.959 28.942 28.897 28.882 28.864 28.932 28.982 29.007 29.022 29.062 29.122 29.279 29.557 29.792 29.709 29.822 29.872 30.579 30.134 30.162 30.362 30.452 30.512 30.587 30.667 30.754 30.944 31.099 31.257 31.332 31.372 31.422 31.467 31.562 31.554 31.552 31.519 31.644 31.717 31.749 31.712 31.759 31.889 32.314 32.329 32.297 32.339 32.412 32.514 32.537 32.664 32.829 32.834 32.787 32.767 32.774 32.832 32.899 32.997 33.149 33.172 33.452 33.377 33.522 33.452 33.529 33.714 33.729 33.789 33.889 33.957 35.227 43.737 49.647 50.879 55.504 51.619 46.617 43.917 36.027 35.077 35.999 39.399 39.572 35.027 35.164 37.982 41.534 36.849 34.964 34.797 41.522 39.584 38.042 43.612 37.717 34.642 34.557 34.789 36.139 35.107 35.034 35.364 35.719 36.132 36.347 36.472 36.727 36.189 36.257 36.332 36.734 37.129 37.269 38.354 38.187 37.794 37.537 37.482 37.397 37.399 37.429 38.417 42.849 40.182 38.522 38.404 38.379 38.909 39.602 40.167 43.314 39.107 39.734 40.019 41.104 40.947 41.209 41.394 41.257 41.052 40.652 40.204 40.217 40.262 40.352 40.442 40.509 40.532 40.944 42.439 43.017 42.479 40.937 40.679 41.134 44.027 46.699 45.194 41.059 42.604 41.034 41.062 43.852 42.247 41.099 41.074 41.092 42.204 44.299 42.619 41.037 41.024 40.974 42.554 43.682 40.987 41.104 41.437 42.469 41.049 40.989 40.972 40.999 41.012 41.077 41.089 41.167 41.869 41.627 40.922 40.714 40.644 40.594 40.609 40.434 40.129 39.982 40.057 40.297 40.652 39.777 39.707 39.582 39.524 39.479 39.432 39.374 39.272 39.137
20.14 23.807 19.422 20.71 30.397 29.692 19.975 20.657 31.817 36.062 32.377 33.467 38.175 23.53 29.405 25.68 33.09 29.3 21.182 25.62 19.65 19.74 19.772 20.09 23.322 38.192 39.317 30.527 19.965 20 20.072 20.08 20.047 20.147 20.82 33.462 33.667 29.385 20.517 20.322 20.357 20.405 27.772 28.967 35.245 28.14 28.81 30.235 29.147 28.402 20.707 21.032 25.727 29.405 27.297 23.197 31.81 36.302 28.185 21.102 21.112 21.112 21.637 22.21 27.672 28.232 22.095 22.002 28.722 35.637 32.942 23.422 21.657 22.44 21.692 23.05 22.792 23.055 21.84 23.14 21.942 21.985 22.037 22.082 22.17 22.225 22.12 22.072 22.855 26.61 23.337 30.715 30.355 29.092 32.55 31.47 31.4 31.622 28.087 30.002 30.61 33.102 30.247 29.19 26.27 30.24 34.427 28.157 29.86 32.865 26.475 29.322 30.805 30.677 30.205 29.522 30.277 24.287 23.615 23.6 23.787 23.882 23.812 23.762 23.85 23.922 23.977 23.94 24.022 24.015 24.152 23.927 24.067 24.135 24.077 24.12 24.602 24.582 24.835 24.5 24.547 24.375 24.47 24.497 24.55 24.572 24.597 24.71 24.7 24.732 24.847 24.795 24.902 24.872 24.855 24.922 24.942 25.085 25.092 25.042 25.237 25.172 25.175 25.257 25.372 25.3 25.452 25.495 25.34 25.395 25.477 25.555 25.565 25.707 25.922 25.76 25.807 25.865 25.942 26.07 26.105 26.627 26.365 26.807 26.75 26.727 26.78 26.85 26.915 27.08 27.22 27.392 27.355 26.967 27.412 27.46 26.825 26.965 30.977 28.804 26.967 27.327 34.024 38.029 36.234 38.314 32.099 27.252 27.337 27.349 27.399 29.274 28.029 27.562 27.729 27.677 32.044 32.999 33.869 31.379 28.729 29.034 29.094 29.092 29.069 29.019 29.027 29.039 29.027 28.994 28.899 28.857 28.892 28.972 29.004 29.009 29.037 29.059 29.184 29.384 29.617 29.749 29.887 29.829 29.949 30.014 30.089 30.174 30.342 30.412 30.512 30.577 30.649 30.749 31.092 31.122 31.207 31.287 31.374 31.414 31.444 31.464 31.472 31.519 31.509 31.492 31.562 31.607 31.642 31.719 31.827 32.067 32.154 32.307 32.337 32.407 32.459 32.584 32.657 32.674 32.694 32.714 32.707 32.749 32.809 32.869 32.937 33.079 33.229 37.347 36.464 33.339 33.369 33.444 33.597 33.614 33.784 36.104 34.169 35.914 45.372 46.042 48.004 44.099 45.462 44.667 35.389 35.694 34.472 35.957 40.694 34.999 34.874 38.004 47.067 36.887 35.044 34.409 37.612 37.129 35.944 41.267 36.562 34.219 34.409 34.662 34.809 35.037 35.197 35.582 35.779 36.264 36.237 36.317 36.039 37.319 36.372 39.829 36.727 37.399 37.072 37.002 36.944 39.579 37.907 37.339 38.264 37.209 37.212 39.332 42.557 42.049 38.564 38.604 38.269 38.529 38.492 38.874 38.659 38.874 39.107 39.397 39.964 39.969 40.029 40.459 40.292 40.257 40.092 40.049 40.079 40.094 40.222 40.397 40.484 40.687 41.084 41.629 43.792 42.187 40.797 42.332 41.739 47.254 41.967 42.879 43.722 41.034 40.864 40.932 43.857 42.317 40.942 41.092 41.097 40.979 41.724 41.087 40.899 40.919 41.357 44.712 44.724 41.544 42.114 41.029 41.017 40.987 40.929 40.919 40.909 40.977 41.007 41.107 41.074 41.064 41.004 40.874 40.657 40.944 40.447 40.347 40.132 40.054 39.942 39.997 39.897 39.867 39.732 39.637 39.512 39.449 39.442 40.107 39.314 39.192 39.047
20.29 28.61 19.06 21.68 24.345 19.422 19.265 21.235 30.457 33.66 31.702 32.995 25.655 21.852 30.48 25.427 34.325 29.632 24.615 26.912 22.505 19.705 19.83 19.905 32.217 37.13 37.1 30.322 20.075 19.942 19.967 19.985 20 20.13 21.242 32.827 37.512 31.487 22.142 20.302 20.372 20.377 21.475 22.642 23.525 22.912 33.055 29.392 22.757 25.865 21.23 20.72 26.897 35.945 35.422 23.06 29.185 35.195 34.305 25.795 21.195 23.892 23.537 25.637 21.292 21.912 21.97 21.565 23.92 26.23 21.525 21.52 23.037 22.352 21.645 21.655 21.807 21.832 21.902 21.857 21.92 22.21 22.712 22.302 22.137 22.175 22.025 22.03 22.142 22.975 24.55 31.727 30.822 30.852 32.637 32.817 30.675 30.025 33.505 26.757 29.502 32.387 26.89 29.28 24.702 31.36 32.155 28.125 27.505 33.565 27.062 33.347 32.06 30.08 27.605 30.165 31.657 25.332 23.467 23.56 23.695 23.747 23.705 23.78 23.867 23.872 24.002 23.887 23.912 23.965 23.982 23.905 23.935 24 24.075 24.177 24.265 25.712 24.172 24.182 24.385 24.425 24.41 24.367 24.495 24.502 24.492 24.527 24.595 24.68 24.897 24.872 24.767 24.882 24.815 24.842 24.892 25.005 25.015 24.95 25.142 25.257 25.132 25.262 25.155 25.205 25.572 25.375 25.202 25.285 25.317 25.427 25.462 26.537 26.47 25.732 25.712 25.86 25.91 25.965 25.857 25.91 26.207 26.392 26.455 27.482 26.785 26.835 26.892 27.03 27.16 27.89 27.207 27.09 26.862 26.797 27.052 27.472 34.1 30.749 26.762 27.727 32.807 29.362 31.432 30.084 32.567 28.504 27.274 27.342 27.377 28.879 27.412 30.492 33.224 28.572 35.562 38.172 37.359 34.077 28.334 28.752 29.097 29.127 29.072 29.039 29.089 29.109 29.052 28.984 28.957 28.902 28.867 28.929 28.962 28.997 29.039 29.119 29.164 29.239 29.342 29.522 29.732 29.874 30.009 30.027 30.052 30.089 30.184 30.377 30.474 30.539 30.554 30.607 30.744 30.929 31.134 31.202 31.259 31.324 31.314 31.317 31.362 31.619 31.517 31.402 31.462 31.534 31.564 31.617 31.682 31.827 31.924 32.122 32.279 32.347 32.402 32.469 32.519 32.577 32.657 32.662 32.647 32.704 32.737 32.774 32.864 32.989 34.512 37.372 38.839 37.619 33.244 35.362 33.444 33.689 33.649 33.762 33.729 33.759 40.249 44.982 43.154 41.412 40.039 34.042 34.079 38.062 41.852 43.972 44.062 41.852 34.517 34.832 37.049 44.234 38.042 34.157 33.919 34.447 33.984 35.184 35.222 34.167 34.302 34.547 35.082 35.179 35.604 35.534 35.787 36.309 37.389 35.907 35.864 39.594 38.794 38.754 36.754 37.979 39.049 36.842 37.012 38.037 37.267 37.082 37.009 37.034 37.119 38.267 41.887 38.677 37.622 37.784 37.897 38.039 38.207 38.394 39.177 38.702 38.814 38.934 39.102 39.227 39.332 39.427 39.532 39.622 39.704 39.804 39.889 39.949 40.662 42.592 41.424 42.672 40.654 40.579 42.089 41.357 40.534 40.427 42.684 44.994 40.702 43.324 42.642 40.787 40.769 40.787 41.597 41.464 40.807 40.882 40.902 40.927 40.892 45.032 40.844 40.787 40.847 43.304 46.684 45.392 41.267 40.962 40.944 40.914 40.897 40.877 40.864 40.897 40.937 41.027 40.947 40.854 40.857 41.019 40.602 40.527 40.364 40.289 40.187 40.134 39.914 39.887 39.802 39.832 39.677 39.539 39.449 39.392 39.374 39.874 39.234 39.079 38.944
19.457 21.747 19.367 19.73 21.205 19.352 19.21 19.257 24.017 28.072 21.425 24.577 21.12 28.322 35.817 23.607 33.552 25.102 32.52 28.405 19.695 19.63 19.725 20.772 26.355 28.625 28.805 22.972 19.862 19.9 19.925 19.962 19.932 20.025 20.247 27.25 33.657 28.035 20.242 20.31 20.412 20.745 20.342 20.337 20.335 31.13 36.522 27.89 21.927 21.83 20.692 20.717 24.647 34.517 33.34 21.7 31.087 37.265 37.73 28.955 25.562 25.815 23.387 22.482 21.125 21.135 21.362 21.31 23.675 22.067 21.432 21.545 21.535 29.11 24.49 21.622 22.705 21.772 21.81 21.822 21.85 23.055 23.292 22.077 22.032 22.087 21.987 21.977 22.062 22.177 23.957 30.357 30.155 27.607 26.997 29.552 31.745 32.877 30.777 27.525 27.972 28.545 29.975 28.647 27.292 32.557 32.02 27.62 31.25 31.052 28.392 34.037 35.392 34.41 27.027 30.555 32.16 24.317 23.585 23.67 23.74 23.715 23.68 23.747 24.235 23.825 25.247 24.057 23.975 23.99 23.927 23.922 24.08 24.085 24.022 24.1 24.807 25.97 24.597 25.657 24.442 24.305 24.395 24.38 24.455 24.47 24.53 24.467 24.515 24.687 24.697 24.802 24.755 24.92 24.825 24.785 25.06 24.982 24.965 24.907 25.072 25.095 25.077 25.042 25.285 25.18 25.192 25.257 25.642 25.425 25.522 25.445 25.527 25.722 25.77 25.732 25.705 25.897 26.152 25.95 25.882 25.89 26.105 26.247 26.342 26.95 26.917 26.81 26.78 26.94 27.125 27.77 27.222 27.067 26.827 26.802 27.155 27.337 33.715 29.724 26.792 26.942 27.407 27.097 27.179 27.177 33.537 31.669 27.922 28.004 27.334 27.989 28.732 30.537 29.632 30.389 39.009 41.082 38.729 33.244 34.037 28.302 28.959 29.107 29.052 29.099 29.109 29.119 29.064 29.034 28.964 28.954 28.897 28.872 28.944 29.007 29.074 29.134 29.157 29.182 29.217 29.349 29.634 29.964 29.992 30.007 30.037 30.107 30.094 30.249 30.434 30.487 30.507 30.499 30.539 30.699 30.909 31.029 31.169 31.592 31.184 31.187 31.204 31.287 31.392 31.372 31.379 31.467 31.484 31.517 31.594 31.814 31.844 31.907 31.984 32.137 32.289 32.364 32.337 32.337 32.474 32.589 32.604 32.619 32.632 32.707 32.862 32.839 33.239 41.594 36.564 36.122 34.549 33.309 33.312 33.382 33.439 33.564 33.684 34.499 36.879 33.837 35.277 35.532 35.264 34.792 40.687 48.009 36.767 44.427 43.544 41.089 40.459 38.062 36.577 48.182 46.069 35.544 33.852 33.867 33.917 34.174 34.127 34.332 34.667 34.949 34.887 35.489 35.632 36.457 36.159 37.089 35.887 35.677 35.739 40.884 37.587 37.419 38.237 41.752 38.657 37.392 38.042 37.052 36.777 36.749 36.832 36.949 37.039 37.194 37.299 37.394 37.547 37.674 37.779 37.929 38.059 38.277 38.429 38.592 38.702 38.827 38.967 39.082 39.197 39.322 39.422 39.532 39.624 39.697 39.749 39.829 39.932 42.692 43.647 42.947 41.932 41.194 41.712 42.042 44.844 41.404 43.199 42.979 40.567 41.204 40.774 40.609 40.624 40.664 40.692 40.687 40.727 40.762 40.797 40.822 43.412 44.744 40.782 40.832 42.987 46.372 47.317 49.192 45.762 40.859 41.264 42.144 41.024 41.984 40.972 40.839 40.862 42.364 40.927 40.809 40.639 40.574 40.524 40.397 40.282 40.232 40.052 39.907 39.839 39.829 39.739 39.744 39.644 39.527 39.379 39.312 39.297 39.292 39.164 38.989 38.879
18.952 20.672 19.115 19.202 19.21 19.652 19.207 19.435 19.86 27.6 24.55 27.27 24.045 32.545 26.287 21.167 24.75 26.355 29.445 21.437 19.645 23.96 21.832 21.25 20.312 20.212 21.565 19.935 19.85 19.982 20 21.55 21.845 19.977 20.082 23.565 30.532 27.065 20.172 20.792 20.33 23.22 26.012 21.807 28.732 34.585 34.062 29.08 28.11 24.427 20.822 21.145 23.115 36.932 30.94 22.2 29.527 34.825 34.905 22.012 23.272 24.657 24.445 21.895 24.062 21.51 21.357 21.3 21.317 21.395 22.375 21.422 24.89 33.452 27.952 21.572 22.477 21.787 21.795 22.757 22.15 24.952 22.802 21.91 22.007 22.15 21.967 21.985 22.022 22.12 23.07 29.625 30.18 24.175 28.625 30.347 28.81 29.817 27.957 26.935 24.015 29.977 34.275 29.43 29.657 30.282 32.327 32.882 33.625 27.3 33.517 27.855 31.202 33.43 33.902 30.657 32.575 24.865 23.527 23.597 23.697 23.802 23.64 23.86 28.36 23.85 25.115 24.16 24.01 24 23.95 23.905 23.917 23.995 23.995 24.105 24.327 24.277 26.1 24.42 24.322 24.31 24.475 24.33 24.38 24.372 24.427 24.677 24.502 24.537 24.702 24.625 24.657 25.035 24.965 24.755 25.012 24.86 24.875 24.822 24.857 25.547 25.212 25.25 25.042 25.015 25.157 25.17 25.195 25.23 25.345 25.307 25.382 25.42 25.487 25.53 25.657 25.802 26.11 25.97 25.83 25.88 26.025 26.282 26.537 26.937 27.847 26.757 26.78 26.92 27.012 27.207 27.425 27.842 26.72 26.99 26.675 26.82 26.977 26.874 26.957 26.914 26.857 27.184 27.159 27.189 29.517 29.732 27.174 27.414 27.224 27.292 27.357 28.487 36.734 38.202 39.337 38.844 36.249 36.427 37.744 28.094 28.569 29.044 29.092 29.082 29.079 29.114 29.047 28.999 28.917 28.919 28.897 28.844 28.912 29.007 29.034 29.082 29.109 29.119 29.189 29.319 29.477 29.819 29.919 29.962 30.014 30.014 30.049 30.084 30.284 30.417 30.449 30.457 30.479 30.499 30.547 30.689 30.852 30.957 31.057 31.094 31.127 31.182 31.249 31.359 31.367 31.394 31.449 31.479 31.572 31.747 31.784 31.827 31.932 32.027 32.142 32.219 32.222 32.152 32.179 32.339 32.434 32.512 32.577 32.762 32.829 32.752 32.842 36.032 32.987 33.749 36.034 38.699 33.422 33.267 33.314 33.394 33.709 33.552 33.577 33.624 33.752 33.962 34.552 33.689 38.599 43.729 44.402 50.002 46.434 36.917 41.904 34.422 39.882 36.199 33.977 34.042 33.879 33.814 33.867 33.997 34.009 34.409 34.599 34.872 35.114 35.364 35.582 35.794 36.489 35.547 35.604 35.972 36.492 39.627 37.417 38.202 40.919 42.234 38.809 39.989 37.164 36.527 36.574 36.674 36.784 36.892 37.009 37.102 37.212 37.344 37.452 37.587 37.669 37.822 37.962 38.122 38.272 38.442 38.547 38.704 38.827 38.949 39.059 39.177 39.257 39.369 39.482 39.574 39.639 39.722 39.759 39.839 40.757 40.572 40.709 41.079 41.549 43.719 44.254 40.642 40.674 47.539 43.294 40.464 42.152 42.939 40.464 40.504 40.529 40.614 40.679 40.692 40.682 40.702 40.694 43.627 43.354 44.092 40.722 43.412 46.532 43.802 46.187 47.867 42.019 43.387 41.589 42.204 41.552 40.809 40.812 45.017 40.754 40.749 40.559 40.492 40.434 40.749 40.169 40.092 39.917 39.869 39.799 39.749 39.632 39.689 39.617 39.559 39.499 39.429 39.349 39.259 39.087 38.924 38.777
19.22 19.06 19.692 19.395 19.067 19.385 26.705 19.252 23.962 28.12 26.19 22.012 26.39 32.1 23.012 22.077 19.61 25.097 20.21 19.642 26.03 19.64 19.68 19.9 20.63 23.017 23.897 19.835 19.882 20.572 23.745 20.662 20.032 19.957 20.077 27.815 37.232 33.96 27.975 28.912 27.93 31.725 28.272 25.572 27.842 33.41 34.91 33.462 32.832 29.032 29.52 26.645 24.405 35.842 26.44 25.205 27.375 35.31 32.245 23.02 25.662 32.485 26.172 22.457 30.222 24.347 22.61 23.765 21.24 21.265 21.347 21.88 29.225 30.602 26.02 30.742 30.595 27.302 21.74 22.135 22.507 21.93 21.85 21.85 21.912 22.007 21.902 21.915 21.947 22.097 22.985 28.152 32.157 30.9 32.697 30.93 29.415 27.867 22.73 22.492 23.737 31.717 33 26.85 31.49 29.512 30.202 31.81 26.592 31.265 33.442 32.902 28.712 30.412 28.137 30.132 33.405 28.795 23.722 25.815 23.565 23.625 23.96 24.13 23.702 27.057 24.022 24.045 24.262 23.902 23.972 23.805 23.892 23.942 24.117 24.082 24.332 24.187 26.087 24.34 24.287 24.427 24.34 24.277 24.347 24.482 24.432 24.63 24.507 24.537 24.595 24.612 25.17 24.795 24.685 24.732 24.715 24.737 24.717 24.81 24.822 25.782 25.09 24.992 24.972 25.137 25.09 25.002 25.01 25.06 25.192 25.36 25.21 25.32 25.367 25.527 25.477 25.55 25.695 25.777 25.785 25.967 26.237 26.172 26.332 26.64 26.7 26.702 26.732 26.862 26.98 27.145 27.28 28.18 27.247 26.775 26.582 26.952 28.197 26.869 26.797 27.164 26.837 28.024 26.979 27.039 27.229 28.654 27.137 27.237 29.527 29.639 29.774 33.254 41.659 39.347 38.277 35.227 38.927 38.762 37.412 30.989 28.142 28.832 29.094 29.067 29.119 29.062 28.979 28.992 28.939 28.914 28.864 28.857 28.867 28.984 29.024 29.017 29.014 29.149 29.292 29.352 29.402 29.669 29.824 29.884 29.944 29.967 29.959 29.987 30.092 30.294 30.344 30.349 30.359 30.374 30.444 30.612 30.709 30.819 30.924 31.002 31.069 31.097 31.142 31.239 31.297 31.329 31.374 31.404 31.587 31.669 31.722 31.797 31.867 31.962 32.049 32.097 32.112 32.097 32.077 32.099 32.167 32.239 32.522 32.492 32.539 33.092 35.032 32.882 32.832 32.842 35.159 36.847 35.602 33.094 33.129 33.249 33.317 33.399 33.402 33.442 33.634 33.687 33.842 36.077 40.364 43.749 47.634 55.767 46.612 46.797 39.932 42.104 39.317 40.674 43.022 33.862 33.744 33.812 33.872 33.927 34.334 34.767 34.677 34.914 35.442 35.759 35.729 35.772 35.389 35.339 35.354 37.354 36.449 36.709 37.082 38.954 42.272 41.192 41.317 41.894 37.899 36.417 36.492 36.592 36.692 36.799 36.912 36.994 37.107 37.204 37.324 37.452 37.557 37.672 37.809 37.969 38.119 38.262 38.394 38.539 38.664 38.787 38.919 39.024 39.122 39.219 39.324 39.422 39.499 39.557 39.622 39.662 39.724 39.787 40.157 40.954 41.034 42.999 40.044 40.844 43.564 46.579 42.097 40.322 40.334 41.417 40.377 40.387 40.429 40.562 40.584 40.629 40.604 40.637 40.622 43.487 44.552 40.674 43.764 44.827 40.992 46.879 45.397 43.349 41.894 43.089 40.802 41.337 42.802 40.789 43.319 41.647 43.422 40.662 40.549 40.484 40.799 40.372 40.199 40.004 39.897 39.789 39.709 39.624 39.612 39.619 39.552 39.539 39.534 39.499 39.397 39.242 39.004 38.824 38.667
21.325 24.055 19.26 19.027 21.007 19.07 19.142 20.135 25.467 28.747 24.567 23.455 28.955 24.267 26.84 26.83 25.432 21.137 20.35 20.057 27.39 23.027 19.812 19.872 20.14 22.66 23.202 19.812 25.58 30.902 26.555 19.982 20.035 20.105 20.5 27.502 34.705 37.882 33.817 36.862 33.345 32.692 29.815 21.895 25.77 27.54 28.215 29.652 28.265 34 34.545 23.77 23.307 34.167 26.852 26.602 32.627 33.14 29.997 22.77 22.715 26.827 21.822 25.477 30.312 21.095 21.16 21.747 21.237 21.207 22.977 23.805 29.57 22.742 28.155 34.21 36.98 31.402 21.692 22.137 22.752 21.777 23.355 21.995 22.615 21.917 21.882 21.877 21.882 22.017 22.507 26.512 27.525 30.28 30.992 30.285 28.602 27.055 30.952 24.187 23.607 29.235 26.86 24.312 30.815 26.607 33.02 30.11 27.392 29.755 31.447 30.735 31.812 32.08 27.08 30.062 31.91 27.915 24.592 27.16 23.88 23.535 24 24.617 27.652 23.712 23.747 23.752 23.895 24.232 24.042 24.12 23.912 23.95 23.982 24.145 24.825 24.43 24.352 24.147 24.267 24.242 24.232 24.312 24.327 24.417 24.405 24.442 24.472 24.487 24.527 24.582 24.647 24.725 24.772 24.662 24.68 24.727 24.747 24.797 24.992 24.97 26.127 24.895 24.905 24.93 24.93 24.98 25.055 25.105 25.22 25.35 25.307 25.375 25.247 25.287 25.415 25.565 25.902 25.592 25.73 26.017 26.017 26.297 26.255 26.462 26.822 26.675 26.69 26.807 26.957 27.09 27.197 27.83 27.107 26.47 26.495 26.752 26.992 27.107 27.299 26.932 27.372 26.824 27.399 30.694 32.014 34.552 31.274 28.137 33.197 33.724 32.667 35.959 38.529 36.867 32.359 36.054 38.289 40.707 36.264 34.594 27.909 28.397 29.027 29.062 29.067 29.047 29.029 29.007 28.934 28.954 28.887 28.819 28.807 28.882 28.954 29.014 29.094 29.234 29.312 29.319 29.317 29.452 29.742 29.777 29.842 29.887 29.922 29.939 29.984 30.152 30.212 30.272 30.324 30.334 30.424 30.517 30.609 30.694 30.802 30.862 30.899 30.989 31.057 31.117 31.177 31.247 31.297 31.354 31.644 31.577 31.647 31.742 31.822 31.929 32.019 32.037 32.037 32.094 32.022 32.042 32.017 32.089 32.492 32.352 32.409 32.484 33.114 32.659 32.692 32.764 33.247 32.844 33.074 33.389 33.064 33.104 33.212 33.474 33.247 33.327 33.382 33.452 33.419 33.374 35.609 47.959 54.967 55.509 44.919 46.669 46.584 36.242 33.944 35.999 37.982 33.794 33.674 33.689 33.797 34.054 34.164 34.697 35.427 35.047 36.784 35.667 35.429 35.177 35.274 35.389 37.867 37.582 38.067 36.214 40.162 42.382 39.134 36.327 36.519 38.604 36.507 36.284 36.384 36.517 36.599 36.697 36.752 36.882 36.982 37.082 37.212 37.332 37.424 37.544 37.672 37.829 37.959 38.099 38.222 38.347 38.497 38.612 38.742 38.832 38.919 39.047 39.127 39.214 39.307 39.377 39.444 39.502 39.564 39.604 39.834 40.894 40.982 40.037 39.879 40.322 42.229 43.439 40.154 41.287 40.309 41.627 40.262 40.267 40.309 40.429 40.414 42.457 42.172 41.409 41.637 41.759 45.254 42.459 41.859 41.244 40.694 42.552 40.637 40.649 41.937 42.737 40.734 42.929 40.679 44.194 41.174 41.884 40.904 40.664 40.554 40.382 40.179 40.194 40.364 39.967 39.932 39.674 39.617 39.534 39.687 39.584 39.527 39.527 39.477 39.447 39.392 39.227 38.997 38.719 38.547
28.11 31.88 29.672 19.885 19.157 19.105 19.24 20.13 27.822 24.28 21.58 23.287 24.277 24.637 31.222 29.7 31.16 26.02 20.355 26.117 29.937 20.485 19.705 19.88 19.845 19.95 25.865 20.15 29.297 34.212 36.017 19.985 20.137 21.032 19.972 23.357 30.195 31.732 31.76 34.885 29.3 27.84 24.13 20.877 20.525 24.185 21.535 21.345 26.627 34.25 31.217 21.46 24.692 30.927 35.607 35.87 35.032 29.165 21.8 20.895 23.27 24.202 20.91 22.575 23.047 21.175 21.142 22.12 22.195 21.107 23.487 24.877 29.997 21.387 25.49 27.31 31.062 25.392 21.572 22.117 24.315 25.875 27.61 27.237 21.997 21.867 22.212 21.82 21.827 21.977 22.142 23.475 27.465 26.817 27.765 24.74 29.61 30.38 30.22 25.445 26.48 28.29 26.23 24.745 30.357 33.137 29.662 23.63 23.99 31.605 29.27 29.835 32.752 32.572 33.532 29.715 27.217 24.275 23.712 23.697 23.552 23.615 23.562 24.477 27.027 23.627 23.73 23.742 23.705 23.825 23.832 23.782 23.882 23.922 24.005 24.115 24.925 23.92 24.212 24.077 24.12 24.137 24.175 24.162 24.252 24.34 24.382 24.39 24.47 24.385 24.502 24.535 24.67 24.582 24.6 24.622 24.657 24.645 24.702 24.75 24.867 24.737 25.68 24.817 24.835 24.985 24.92 24.927 24.977 24.945 25.062 25.032 25.25 25.165 25.252 25.337 25.605 25.822 25.452 25.595 25.695 25.887 26.02 26.155 26.272 26.367 27 26.73 26.637 26.772 26.92 27.097 27.357 27.195 26.595 26.43 26.507 26.562 26.595 26.789 26.992 26.724 26.637 29.602 29.482 28.849 33.992 35.634 30.209 34.427 32.829 29.394 30.219 35.064 34.134 32.602 28.972 36.439 35.547 33.887 33.714 32.239 28.152 28.114 28.484 28.802 28.979 29.039 28.997 28.982 28.989 28.964 28.912 28.857 28.799 28.772 28.914 29.072 29.122 29.169 29.249 29.274 29.292 29.339 29.592 29.669 29.742 29.797 29.824 29.912 29.969 30.059 30.152 30.179 30.247 30.292 30.344 30.334 30.432 30.634 30.734 30.777 30.842 30.902 30.962 31.024 31.069 31.149 31.202 31.284 31.349 31.402 31.554 31.689 31.777 31.862 31.894 31.889 31.944 31.984 31.999 32.012 31.992 32.022 32.137 32.369 32.502 32.377 32.492 32.542 32.519 32.697 32.689 32.752 32.792 32.939 33.219 33.057 33.117 33.077 33.142 33.254 33.267 33.344 33.309 33.282 33.317 48.329 48.077 52.714 54.929 50.182 43.572 41.962 33.762 33.737 33.597 33.579 33.559 33.709 33.892 34.032 34.359 34.624 35.574 35.752 36.499 35.337 34.997 35.069 35.367 35.359 35.952 37.302 38.284 36.374 37.724 41.419 38.382 36.492 35.937 35.984 36.062 36.142 36.234 36.334 36.429 36.519 36.602 36.732 36.817 36.922 37.027 37.142 37.247 37.362 37.489 37.617 37.764 37.894 38.019 38.137 38.254 38.402 38.524 38.629 38.732 38.827 38.939 39.012 39.084 39.164 39.239 39.319 39.372 39.432 39.754 40.767 40.802 40.744 40.344 41.282 45.149 44.129 40.037 40.099 42.452 41.174 40.154 40.184 40.244 40.314 40.804 43.007 43.147 40.449 40.417 42.024 44.587 44.677 40.544 41.827 40.642 42.562 40.597 40.619 43.319 42.114 40.624 40.582 46.312 45.644 42.964 47.307 40.589 40.519 40.487 40.512 40.327 40.164 39.972 39.904 39.739 39.657 39.587 39.459 39.857 39.507 39.479 39.469 39.459 39.442 39.364 39.194 39.204 38.599 38.429
35.57 39.142 34.902 27.937 26.622 19.832 19.22 19.13 26.202 30.692 25.002 24.037 22.342 31.912 30.752 27.945 25.75 28.095 22.635 28.632 31.195 26.192 24.79 21.222 21.437 19.89 20.115 19.91 27.812 24.287 30.557 19.915 20.357 20.64 20.122 20.272 22.46 22.645 22.04 24.05 20.372 20.24 20.637 20.29 20.447 20.562 20.42 20.555 21.617 32.892 28.567 20.717 24.752 34.622 36.55 36.445 29.422 22.415 20.795 22.705 21.09 21.41 20.887 21.562 21.995 21.002 21.017 23.017 22.645 21.447 23.84 24.79 24.517 29.007 21.237 24.375 27.567 28.585 27.172 27.735 23.247 28.422 35.382 29.042 24.282 23.21 22.55 21.792 21.812 21.852 22.06 22.257 27.945 24.437 23.207 23.8 29.55 28.587 24.272 23.377 27.18 32.08 33.772 23.865 25.602 27.97 25.222 22.662 23.82 28.547 27.402 28.627 27.745 28.917 29.697 25.657 23.327 23.137 23.345 23.395 23.8 23.552 23.465 23.517 23.54 23.52 23.615 23.902 23.75 23.712 23.777 23.795 23.81 23.832 23.95 24.125 25.8 24.035 24.017 24.057 24.145 24.222 24.167 24.237 24.205 24.295 24.357 24.347 24.355 24.505 24.517 24.487 24.522 24.525 24.552 24.54 24.63 24.607 24.622 24.662 24.737 24.715 24.625 24.78 24.692 24.905 24.862 24.977 24.95 24.94 25.032 24.985 25.1 25.207 26.412 25.282 25.437 25.807 26.2 25.622 25.83 25.8 25.73 25.867 26.162 26.577 26.592 26.72 26.58 26.71 26.85 26.992 27.182 26.897 26.955 26.42 26.482 26.672 26.672 26.637 26.674 29.627 27.294 27.194 28.667 30.234 35.289 34.099 30.827 38.237 33.629 32.604 35.414 34.414 36.312 31.502 33.307 35.117 35.512 37.974 33.864 34.389 34.072 28.842 28.029 28.602 28.902 28.927 28.964 28.987 28.967 29.007 28.952 28.929 28.844 28.809 28.832 29.004 29.077 29.102 29.124 29.169 29.259 29.362 29.452 29.549 29.642 29.722 29.822 29.882 29.954 29.962 30.027 30.117 30.154 30.244 30.249 30.289 30.272 30.567 30.724 30.797 30.857 30.852 30.899 30.932 31.029 31.107 31.142 31.204 31.269 31.332 31.467 32.012 31.849 31.764 31.799 31.814 31.837 31.874 31.892 31.904 31.942 31.944 32.134 32.739 32.624 32.339 32.429 32.452 32.409 32.557 32.742 32.669 32.724 32.839 32.842 33.042 33.292 32.927 32.977 33.069 33.159 33.262 33.124 33.144 33.297 38.124 44.652 51.262 52.817 56.774 49.907 40.217 37.992 33.489 33.467 33.549 33.689 35.634 34.287 34.434 34.527 35.084 36.609 36.497 34.994 34.907 34.899 34.954 35.792 36.194 36.597 39.309 37.972 36.442 35.792 37.187 35.969 35.764 35.819 35.847 35.947 36.027 36.124 36.234 36.337 36.442 36.517 36.627 36.714 36.832 36.932 37.044 37.127 37.252 37.387 37.517 37.652 37.772 37.917 38.034 38.172 38.277 38.399 38.492 38.624 38.679 38.782 38.869 38.967 39.044 39.107 39.202 39.284 39.352 39.589 41.547 41.477 40.104 39.639 40.579 41.244 40.699 39.972 40.032 43.084 40.974 40.077 40.289 41.677 40.434 40.764 40.884 40.569 40.402 40.377 42.802 43.277 42.357 40.532 41.639 40.979 42.992 40.552 40.614 41.334 40.842 40.564 40.514 40.492 41.989 42.032 40.459 40.534 40.444 40.317 40.254 40.194 40.264 40.032 39.807 39.637 39.632 39.554 39.399 39.424 39.357 39.392 39.379 39.352 39.324 39.277 39.269 39.049 38.494 38.334
35.682 38.842 36.997 31.2 34.365 26.932 20.542 19.145 23.662 25.492 24.425 31.06 29.3 31.537 20.7 20.812 20.19 20.607 28.037 22.135 27.062 19.987 23.312 24.502 27.292 19.802 27.1 20.652 22.292 23.28 29.877 20.96 20.285 19.997 21.992 20.205 20.067 21.08 21.527 20.167 20.21 20.155 20.437 20.22 20.972 20.442 20.282 20.797 20.39 25.99 24.195 21.27 22.202 29.655 34.525 34.8 29.73 29.905 29.535 27.46 20.745 20.745 20.805 20.86 21.095 20.982 21.047 23.232 21.632 21.867 21.007 21.117 24.28 29.202 27.707 22.327 22.742 27.23 29.19 28.92 24.225 32.997 35.337 28.79 21.812 21.857 21.835 21.817 21.807 21.827 21.99 22.412 26.58 28.15 28.575 27.622 24.992 23.12 22.475 22.505 25.767 28.945 26.217 23.685 22.705 23.037 22.615 22.632 22.717 23.515 23.295 22.875 22.907 23.335 23.19 23.097 23.115 23.115 23.232 23.31 23.445 23.805 23.405 23.38 23.462 23.625 23.772 23.735 23.615 23.622 23.735 23.685 23.735 23.827 25.207 24.182 24.48 23.945 23.987 24.025 24.01 24.06 24.145 24.255 24.335 24.277 24.272 24.357 24.277 24.357 24.4 24.482 24.57 24.557 24.595 24.572 24.575 24.552 24.63 24.66 24.675 24.632 24.592 24.745 24.707 24.747 24.75 24.83 24.83 24.95 25.165 24.947 24.995 25.125 25.965 26.97 25.267 25.442 25.77 25.465 25.752 25.807 25.665 25.76 26.02 26.172 26.415 26.615 26.552 26.7 26.847 26.997 27.17 29.195 26.982 26.57 26.367 26.397 26.625 26.562 26.634 31.604 32.144 26.584 27.119 28.717 32.282 29.949 33.254 39.934 35.367 34.749 36.492 35.687 37.664 37.104 41.117 42.099 37.334 34.607 37.202 36.077 38.917 29.012 28.077 28.679 28.892 28.924 28.964 28.972 28.942 28.957 28.962 28.914 28.807 28.739 28.762 28.887 28.954 29.027 29.047 29.154 29.252 29.359 29.367 29.479 29.547 29.654 29.699 29.782 29.824 29.879 29.894 30.069 30.174 30.254 30.249 30.249 30.189 30.367 30.679 30.782 30.852 30.822 30.847 30.837 30.914 31.057 31.114 31.162 31.194 31.292 31.417 31.614 31.627 33.104 33.939 31.727 31.734 31.782 31.764 31.809 32.009 32.012 32.064 32.327 32.164 32.309 32.209 32.189 32.347 32.432 32.459 32.529 32.544 32.632 32.677 32.749 32.982 32.984 32.972 33.899 33.554 33.314 33.059 33.039 33.464 34.432 34.322 50.304 54.887 52.974 51.179 41.237 42.854 33.354 34.282 35.124 34.047 34.004 34.129 34.342 34.552 34.924 35.959 34.949 34.729 34.744 35.027 36.187 36.059 35.777 36.109 35.709 37.274 37.649 36.324 35.677 35.624 35.664 35.732 35.799 35.872 35.952 36.039 36.152 36.244 36.357 36.454 36.547 36.664 36.739 36.869 36.977 37.062 37.194 37.292 37.404 37.534 37.672 37.799 37.939 38.057 38.194 38.287 38.387 38.492 38.572 38.669 38.752 38.824 38.919 39.014 39.094 39.187 39.244 39.387 40.717 39.922 39.682 39.549 40.107 40.182 39.882 39.892 39.954 40.017 41.569 40.019 40.657 42.677 42.029 40.267 40.322 40.339 40.319 40.257 40.369 40.834 42.964 41.529 40.484 42.062 40.639 40.524 40.544 40.604 40.597 40.492 40.429 40.392 40.364 40.297 40.354 40.397 40.264 40.152 40.037 39.924 39.859 39.779 39.699 39.577 39.519 39.487 39.379 39.359 39.342 39.357 39.294 39.252 39.249 39.187 39.232 38.742 38.377 38.214
34.065 35.105 33.717 31.73 34.942 26.472 20.53 19.19 26.01 29.77 37.157 39.89 39.55 30.847 23.335 19.89 21.57 27.525 25.532 23.145 19.865 22.095 20.875 21.907 30.367 27.82 29.312 20.085 20.545 20.487 20.972 23.372 26.227 24.322 24.792 23.29 19.957 26.205 24.932 21.085 20.147 20.457 22.63 20.207 21.062 20.307 20.367 20.347 20.387 20.442 22.647 21.315 20.6 25.507 26.847 25.767 35.412 31.397 32.707 25.385 20.677 20.77 20.782 20.797 20.845 21.577 20.922 20.97 23.31 22.167 21.36 21.082 22.07 26.97 29.365 22.48 21.37 22.615 29.515 25.642 27.395 25.197 28.227 28.25 21.632 21.72 21.857 21.885 21.775 21.805 21.962 22.042 25.092 30.617 27.095 23.705 27.265 27.822 23.12 22.72 31.53 29.9 23.64 22.822 22.795 22.672 22.535 22.632 22.682 22.81 22.86 22.83 22.977 23.042 23.042 22.955 22.982 23.017 23.092 23.22 23.722 23.685 23.35 23.327 23.4 23.415 23.522 23.552 23.547 23.64 23.69 23.63 23.742 23.68 23.94 26.82 23.755 23.897 24.022 23.98 24.042 24.075 24.097 24.142 24.145 24.172 24.222 24.237 24.335 24.432 24.445 24.48 24.625 24.48 24.632 24.595 24.512 24.522 24.63 24.725 24.68 24.927 24.727 24.625 24.632 25.007 24.735 24.732 24.792 24.847 28.847 32.467 25.02 25.19 25.712 25.687 25.282 25.31 25.397 25.537 25.747 25.685 25.755 25.8 25.9 26.14 26.267 26.52 26.54 26.68 26.795 26.955 27.15 27.157 27.072 26.585 26.42 26.51 26.647 26.584 26.742 33.262 34.019 28.312 29.992 30.869 31.192 31.089 29.409 35.337 32.659 34.022 39.397 39.187 36.349 37.199 39.247 34.517 39.092 39.412 41.372 33.794 35.049 29.827 27.969 28.487 28.857 28.959 28.957 28.984 28.967 28.937 28.899 28.879 28.814 28.699 28.704 28.729 28.847 28.972 29.049 29.157 29.237 29.269 29.282 29.362 29.482 29.599 29.669 29.742 29.784 29.892 29.817 29.937 30.159 30.217 30.264 30.262 30.214 30.179 30.549 30.717 30.777 30.789 30.792 30.802 30.872 30.944 31.079 31.132 31.134 31.214 31.379 31.437 31.779 37.747 44.332 42.302 34.407 31.669 31.709 31.749 31.854 31.824 31.897 32.034 32.204 32.079 32.042 32.177 32.282 32.297 32.324 32.412 32.509 32.514 32.594 32.699 32.822 32.857 32.814 32.917 33.187 32.937 32.957 32.954 33.349 33.352 33.212 39.137 46.079 47.127 45.647 41.367 42.214 34.154 33.759 34.877 33.834 34.209 34.147 34.524 35.072 34.959 34.569 34.592 34.614 36.144 38.892 35.479 35.462 36.014 37.964 36.952 37.282 37.512 35.627 35.447 35.532 35.577 35.642 35.729 35.787 35.887 35.969 36.074 36.177 36.289 36.382 36.499 36.592 36.692 36.814 36.934 37.029 37.137 37.242 37.362 37.494 37.609 37.744 37.877 38.002 38.099 38.204 38.319 38.399 38.469 38.567 38.647 38.724 38.837 38.919 39.012 39.084 39.149 39.772 42.489 41.964 39.597 39.527 40.844 40.069 39.832 39.859 39.907 39.939 39.984 39.957 40.174 42.347 42.092 40.219 40.199 40.204 42.814 40.319 40.274 40.297 42.467 42.287 40.462 40.469 40.489 40.507 40.527 40.544 40.514 40.449 40.372 40.312 40.272 40.247 40.232 40.159 40.087 40.007 39.902 39.842 39.799 39.707 39.644 39.519 39.449 39.442 39.474 39.339 39.267 39.359 39.232 39.202 39.149 39.144 38.954 38.504 38.267 38.082
25.517 30.057 26.462 27.832 34.06 32.102 31.927 24.545 21.625 33.255 38.107 40.02 40.182 32.435 19.367 26.84 26.017 24.63 27.262 26.175 22.065 19.75 20.102 21.26 23.622 21.662 22.252 21.07 19.862 20.027 21.5 20.895 23.485 26.995 26.497 25.715 23.502 33.705 23.037 24.76 20.587 22.865 21.522 20.18 20.232 20.347 20.58 20.355 20.395 22.8 24.87 20.427 20.577 21.457 23.522 27.737 30.79 35.25 37.435 25.077 20.482 20.66 20.725 20.797 20.83 21.302 20.932 21.4 23.162 21.792 23.765 22.432 25.807 21.99 23.042 21.73 21.355 21.392 24.937 22.097 29.217 25.327 22.212 24.317 23.51 24.077 22.142 22.125 21.722 21.75 21.905 21.937 22.9 26.972 23.432 22.312 26.687 27.87 22.995 22.332 27.13 25.072 22.4 22.597 22.63 22.417 22.53 22.737 22.605 22.67 22.725 22.852 22.965 22.982 22.9 22.892 22.905 23.075 23.132 23.18 23.37 23.26 23.327 23.33 23.337 23.46 23.5 23.495 23.525 23.712 23.597 23.585 23.655 23.69 24.015 25.65 23.832 23.925 24.072 23.935 24.112 24.055 24.145 24.187 24.122 24.157 24.175 24.29 24.275 24.332 24.342 24.367 24.422 24.412 24.515 24.502 24.56 24.515 24.57 24.592 24.687 24.535 24.712 24.865 24.655 24.63 24.727 24.765 24.855 24.837 28.205 30.752 30.16 25.107 25.175 25.182 25.162 25.262 25.31 25.625 26.045 25.877 25.65 25.69 25.867 26.285 26.567 26.49 26.502 26.65 26.767 26.915 27.04 27.497 27.537 26.425 26.422 26.942 26.695 26.569 27.794 33.562 33.162 33.199 29.317 30.074 31.609 32.217 30.087 34.037 31.042 31.487 38.319 39.222 32.209 38.524 40.247 39.299 36.939 35.844 34.527 31.822 34.894 30.472 27.837 28.002 28.712 28.964 29.004 28.987 28.922 28.917 28.919 28.902 28.774 28.619 28.632 28.692 28.754 28.872 28.967 29.077 29.164 29.214 29.229 29.229 29.432 29.497 29.687 29.747 29.772 29.802 29.769 29.767 30.097 30.189 30.264 30.262 30.222 30.157 30.292 30.649 30.742 30.744 30.762 30.812 30.829 30.832 30.922 31.069 31.119 31.182 31.292 31.382 31.502 40.182 47.212 45.829 34.912 31.527 31.552 31.684 31.702 31.762 31.784 31.834 31.867 31.869 32.059 32.029 32.124 32.429 32.502 32.354 32.469 32.449 32.459 32.517 32.604 32.682 32.692 32.877 32.727 32.772 32.807 32.839 33.222 33.429 33.239 33.237 36.489 39.612 38.527 38.242 33.597 34.554 33.602 34.099 33.947 35.127 34.579 34.769 34.492 34.384 34.464 34.454 36.579 38.607 37.044 35.079 35.262 35.389 37.382 37.234 36.327 35.599 35.289 35.334 35.412 35.462 35.532 35.624 35.699 35.759 35.852 35.967 36.077 36.174 36.282 36.397 36.502 36.642 36.742 36.859 36.947 37.067 37.194 37.307 37.442 37.569 37.682 37.799 37.927 38.039 38.114 38.237 38.329 38.404 38.514 38.594 38.674 38.772 38.862 38.934 38.982 39.044 39.539 40.759 39.677 39.522 39.494 39.654 39.944 40.052 39.759 39.797 39.862 39.897 39.952 39.997 41.342 42.132 40.199 40.162 40.214 42.802 40.759 43.332 40.284 41.894 42.357 40.432 40.429 40.459 40.429 40.502 40.487 40.469 40.484 40.294 40.244 40.199 40.199 40.164 40.069 40.012 39.964 39.964 39.784 39.682 39.612 39.602 39.407 39.402 39.877 39.634 39.249 39.227 39.254 39.129 39.079 39.014 39.097 38.737 38.329 38.129 37.972
25.332 29.927 29.002 36.387 35.065 39.112 39.815 29.752 23.205 34.837 36.965 38.855 38.982 32.907 19.572 24.325 19.567 22.032 30.462 23.612 20.122 19.74 21.542 25.467 23.487 21.262 26.592 24.005 19.855 19.847 19.877 23.777 23.13 28.402 25.947 26.71 23.817 30.642 21.327 21.125 23.475 24.87 20.232 20.21 20.277 20.512 20.557 20.377 20.415 23.935 22.835 21.052 23.152 20.517 20.532 22.202 23.752 30.445 31.482 28.257 22.985 23.477 28.277 20.565 20.855 24.482 21.862 21.187 24.555 24.965 22.415 21.4 22.422 21.3 21.24 21.165 21.18 21.397 22.457 24.775 28.07 21.675 21.392 21.487 27.447 24.925 21.77 22.007 21.757 21.715 21.81 21.905 22.93 23.957 26.917 22.11 24.487 23.472 22.257 22.26 22.335 22.277 22.432 22.675 22.485 22.447 22.577 22.585 22.537 22.615 22.672 22.715 22.775 22.817 22.912 22.867 22.88 22.925 23.627 23.562 23.075 23.142 23.222 23.242 23.357 23.38 23.45 23.477 23.605 23.572 23.532 23.555 23.68 23.767 24.455 23.685 23.845 23.827 24.092 23.845 24.01 24.072 24.142 24.045 24.212 24.075 24.235 24.335 24.287 24.37 24.352 24.42 24.467 24.427 24.535 24.832 24.59 24.497 24.505 24.622 24.525 24.62 24.512 24.567 24.57 24.65 24.687 24.767 24.73 24.775 24.85 25.272 26.62 24.957 25.055 25.167 25.245 25.367 25.772 25.435 26.372 25.76 25.527 25.635 25.817 27.407 26.33 26.397 26.482 26.585 26.727 26.86 27.107 28.395 26.61 26.297 26.322 26.565 26.407 26.439 28.002 31.187 32.564 32.164 27.952 28.619 33.394 34.374 31.497 33.152 31.232 37.349 39.609 38.419 31.757 33.044 38.599 36.919 34.579 37.769 38.724 36.784 38.444 29.929 27.757 28.149 28.682 28.934 29.052 29.054 29.014 28.992 28.959 28.869 28.617 28.514 28.537 28.612 28.714 28.779 28.854 28.974 29.104 29.162 29.182 29.162 29.064 29.319 29.687 29.754 29.782 29.724 29.754 29.689 29.989 30.152 30.217 30.219 30.217 30.172 30.109 30.402 30.677 30.752 30.777 30.804 30.804 30.809 30.824 30.929 31.072 31.154 31.227 31.309 31.397 31.922 42.744 48.034 34.672 31.472 31.439 31.447 31.637 31.702 31.874 31.799 31.729 31.794 31.982 31.977 31.899 31.947 32.192 32.269 32.357 32.279 32.399 32.432 32.589 32.599 32.639 32.679 32.602 34.404 34.384 32.732 32.862 33.004 33.114 33.192 34.042 34.092 33.499 33.574 33.582 34.274 33.674 34.157 34.234 35.022 35.167 34.242 34.222 34.302 34.254 38.137 39.014 36.967 34.874 35.012 36.459 36.434 36.339 35.489 36.187 35.142 35.154 35.232 35.289 35.372 35.449 35.537 35.619 35.687 35.782 35.889 35.999 36.109 36.219 36.312 36.419 36.559 36.657 36.767 36.902 36.977 37.127 37.242 37.364 37.484 37.619 37.714 37.822 37.909 37.997 38.104 38.209 38.302 38.392 38.482 38.577 38.674 38.744 38.837 38.877 38.937 39.824 42.304 39.947 39.457 39.497 39.712 39.742 39.682 39.657 39.719 39.757 39.829 39.922 39.959 40.809 42.134 40.244 40.109 40.154 46.662 48.074 48.777 40.642 40.652 42.469 40.369 40.379 40.384 40.382 40.432 40.412 40.427 40.434 40.242 40.164 40.144 40.127 40.087 39.994 39.994 40.057 40.057 39.852 39.617 39.469 39.439 39.394 39.617 40.289 39.127 39.089 39.134 39.147 39.054 38.947 38.892 38.999 38.509 38.137 37.969 37.872
25.287 32.047 37.402 38.75 36.087 37.91 38.88 27.205 22.78 31.837 34.58 36.202 35.632 29.41 19.425 23.217 19.535 29.012 29.707 20.362 20.302 19.647 20.2 21.69 20.765 19.897 20.555 20.222 19.982 19.857 21.17 22.842 25.24 31.682 22.13 25.655 28.412 25.117 24.442 22.127 21.13 20.57 20.29 20.232 20.487 21.052 20.415 21.672 24.167 23.555 20.725 22.095 20.677 20.502 20.615 20.922 22.62 25.61 28.127 20.71 23.23 26.312 26.977 21.172 22.97 27.905 26.297 20.89 22.477 24.485 23.505 21.49 21.395 23.03 22.345 21.312 21.15 21.167 21.935 25.36 23.812 21.507 22.925 21.487 22.365 23.172 21.685 22.115 21.75 21.725 21.762 21.89 22.07 26.47 24.025 22.097 22.192 22.207 22.185 22.262 24.595 22.28 22.492 22.577 22.322 22.637 23.407 23.297 23.67 24.095 22.75 22.965 22.777 22.797 22.962 22.98 23.015 22.862 22.98 23.177 24.247 23.125 23.187 23.24 23.375 23.447 23.387 23.57 23.56 23.627 23.51 23.552 23.632 23.75 23.615 23.52 23.925 24.015 23.927 23.872 24.012 23.97 23.98 23.977 23.955 24.075 24.19 24.207 24.217 24.267 24.242 24.347 24.51 24.3 24.362 24.412 24.36 24.405 24.435 24.512 24.547 24.58 24.56 24.535 24.72 24.66 24.732 24.755 24.725 24.792 24.985 24.855 25.675 24.925 25.077 25.077 25.157 25.262 25.397 25.397 27.415 25.997 26.145 25.927 25.745 26.92 26.092 26.41 26.48 26.607 26.712 26.812 27.07 28.157 28.275 26.312 26.27 26.597 26.557 28.024 27.259 28.947 31.119 27.894 26.519 28.979 27.434 32.432 30.137 29.484 33.627 33.657 35.534 33.387 28.472 32.344 35.934 35.067 32.197 35.829 39.577 41.372 36.804 30.602 27.684 27.952 28.584 29.117 29.077 29.109 29.082 29.012 28.869 28.554 28.499 28.469 28.464 28.544 28.612 28.684 28.782 28.989 29.084 29.114 29.144 29.152 29.042 29.232 29.599 29.702 29.747 29.684 29.699 29.634 29.809 30.087 30.162 30.152 30.147 30.119 30.112 30.294 30.529 30.714 30.749 30.782 30.732 30.759 30.802 30.824 30.952 31.142 31.189 31.284 31.339 31.394 33.664 48.122 35.942 31.374 31.412 31.407 31.477 31.607 31.752 34.292 32.017 31.877 31.674 31.562 31.502 31.684 31.917 32.184 32.119 32.214 32.257 32.432 32.494 32.412 32.374 32.414 34.352 40.332 40.557 34.787 32.899 33.012 33.022 32.999 33.269 33.384 33.717 33.604 34.419 36.007 35.304 33.909 33.937 34.459 34.399 34.109 34.149 34.082 34.459 40.294 38.672 34.979 34.834 35.337 36.437 35.357 35.017 34.964 34.969 35.007 35.054 35.119 35.204 35.287 35.349 35.457 35.527 35.622 35.702 35.809 35.927 36.022 36.134 36.239 36.344 36.474 36.577 36.687 36.817 36.929 37.032 37.157 37.277 37.382 37.489 37.562 37.694 37.772 37.862 37.984 38.107 38.192 38.279 38.369 38.477 38.564 38.632 38.709 38.784 38.834 39.447 43.649 39.524 39.397 39.497 39.794 39.717 39.562 39.582 39.617 39.692 39.744 39.859 39.902 40.087 40.857 40.022 40.042 41.354 44.682 46.644 44.544 41.379 40.359 40.449 40.379 40.362 40.369 40.389 40.362 40.364 40.322 40.287 40.184 40.132 40.077 40.099 40.084 40.012 39.999 40.007 39.877 39.837 39.637 39.392 39.482 39.424 39.247 39.542 39.264 39.089 39.047 39.069 38.994 38.967 38.897 38.827 38.314 37.987 37.787 37.662
32.48 37.357 39.04 34.27 34.955 35.207 37.067 27.87 19.467 22.437 31.422 33.965 30.527 21.56 19.475 19.48 21.612 30.385 26.035 19.957 24.705 25.247 21.295 20.952 23.17 21.97 19.792 19.88 19.97 19.935 20.245 21.67 20.035 21.945 24.115 24.055 31.29 27.13 23.317 22.432 20.03 20.105 20.202 20.25 20.375 20.622 21.52 28.347 26.26 20.852 22.905 20.45 23.967 20.542 20.54 20.947 31.507 29.852 24.352 20.73 21.22 27.12 24.187 21.272 24.995 30.12 32.202 20.84 20.747 21.415 21.01 21.005 20.945 21.022 21.127 21.947 21.137 22.32 24.17 21.977 21.625 21.345 22.68 22.02 21.502 21.582 21.62 21.975 21.685 21.687 21.7 21.872 22.055 22.127 22.135 22.087 22.14 22.19 22.307 23.41 23.397 24.377 22.452 22.315 23.55 28.645 30.767 28.757 28.61 28.722 26.927 27.67 25.027 23.217 24.157 23.51 22.777 25.042 25.677 22.935 23.045 23.102 23.332 23.242 23.415 23.29 23.39 23.347 23.392 23.56 23.45 23.475 23.64 23.832 23.55 23.61 23.7 23.66 23.675 24.04 24.04 23.927 23.975 23.982 23.997 24.102 24.2 24.095 24.152 24.14 24.187 24.385 24.45 24.42 24.292 24.35 24.315 24.41 24.377 24.385 24.707 24.487 24.662 24.505 24.645 24.597 24.642 24.655 24.705 24.745 24.877 24.852 24.947 24.937 25.06 25.165 25.117 25.185 25.257 25.375 25.47 25.237 26.34 25.867 25.762 27.647 26.147 26.43 26.46 26.572 26.66 26.81 26.96 27.315 27.08 26.277 26.33 26.362 26.665 27.417 27.402 27.347 26.532 26.449 26.472 27.499 31.884 32.177 30.444 32.547 36.792 34.817 37.679 33.072 30.902 35.044 33.594 34.529 29.789 34.094 40.497 35.394 31.297 27.879 27.732 27.992 28.414 28.717 29.067 29.007 28.959 28.687 28.394 28.327 28.384 28.444 28.444 28.477 28.517 28.527 28.617 28.822 28.987 29.072 29.092 29.084 29.007 29.137 29.442 29.682 29.674 29.677 29.667 29.597 29.662 29.957 30.007 30.047 30.044 30.102 30.294 30.524 30.617 30.674 30.677 30.732 30.734 30.754 30.769 30.802 30.822 31.034 31.127 31.217 31.242 31.259 42.342 49.294 36.182 31.347 31.832 32.132 31.382 31.374 32.277 35.882 31.882 31.479 31.459 31.944 34.219 33.117 31.627 31.867 32.062 32.079 32.237 32.297 32.304 32.272 32.277 32.327 33.514 42.057 43.784 34.474 32.879 32.774 33.734 33.154 33.144 35.442 33.344 33.637 33.722 33.634 34.979 33.939 34.394 33.889 33.969 33.927 34.162 34.802 34.844 36.117 39.284 34.567 34.712 36.099 34.927 34.822 34.809 34.819 34.842 34.902 34.939 35.024 35.117 35.192 35.272 35.367 35.454 35.544 35.634 35.732 35.852 35.932 36.034 36.177 36.269 36.379 36.492 36.597 36.739 36.852 36.969 37.064 37.182 37.272 37.387 37.494 37.599 37.687 37.774 37.882 38.022 38.109 38.199 38.284 38.397 38.459 38.542 38.609 38.682 38.762 39.969 41.607 39.669 39.349 40.002 40.257 39.607 39.524 39.539 39.564 39.604 39.684 39.794 39.844 39.887 39.909 39.954 40.022 40.042 43.219 45.987 42.982 41.864 40.214 40.257 40.299 40.309 40.332 40.354 40.324 40.319 40.254 40.249 40.129 40.032 40.044 40.047 40.209 40.209 39.987 40.007 39.762 39.604 39.517 39.517 39.574 39.842 40.107 40.229 38.944 39.009 39.067 39.152 38.899 38.772 38.637 38.434 38.104 37.857 37.687 37.519
31.792 34.105 35.17 32.665 27.095 36.42 37.527 33.115 20.945 20.727 32.402 29.872 22.737 20.655 20.532 21.872 28.102 33.325 25.212 21.1 27.365 23.495 19.795 24.132 23.267 22.697 22.16 19.957 20.097 19.885 20.115 24.822 19.862 23.905 26.737 20.452 23.992 21.467 20.785 20.117 20.09 20.172 20.175 20.255 20.387 20.602 23.887 28.73 26.092 23.04 27.67 25.675 26.67 20.485 20.51 28.37 31.807 26.905 21.855 20.69 22.182 24.415 22.29 24.985 25.08 30.517 27.94 24.407 22.565 21.107 21.847 20.955 20.817 22.585 23.09 21.2 21.232 22.915 21.697 22.002 21.23 21.28 21.427 21.392 21.482 21.522 21.535 21.832 21.702 21.652 21.662 21.822 21.94 21.99 22.31 22.02 22.067 22.135 22.132 24.082 23.84 24.84 22.435 28.74 29.117 32.967 33.202 30.865 30.152 29.722 26.237 29.212 27.09 29.547 30.365 27.195 27.17 30.175 29.592 24.062 22.985 23.09 23.117 23.185 23.56 23.477 23.445 23.432 23.295 23.435 28.725 23.447 23.592 23.69 23.632 23.627 23.622 23.737 23.752 23.855 24.237 23.86 23.892 23.93 23.967 23.972 24.132 24.08 24.015 24.1 24.087 24.13 24.117 24.275 24.192 24.322 24.55 24.505 24.282 24.352 24.412 24.442 24.472 24.517 24.525 24.637 25.052 24.61 24.642 24.932 24.812 24.897 24.922 24.96 24.97 25.167 25.055 25.875 25.475 25.295 25.4 28.042 25.777 25.51 25.942 25.94 26.112 26.48 26.465 26.565 26.61 26.745 26.902 26.927 26.455 26.12 26.147 26.12 26.245 26.264 26.452 26.424 26.422 26.372 26.407 26.492 26.532 29.574 26.742 33.229 30.182 34.324 39.084 28.572 35.889 30.547 31.134 28.284 27.579 30.132 36.267 30.297 27.709 27.854 27.914 28.024 27.922 27.767 28.322 28.464 28.367 28.239 28.224 28.257 28.249 28.289 28.349 28.352 28.384 28.387 28.484 28.657 28.849 28.982 29.002 28.977 29.007 28.942 29.154 29.602 29.674 29.644 29.627 29.589 29.602 29.889 29.954 30.037 30.049 30.402 30.502 30.472 30.679 30.647 30.569 30.714 30.729 30.732 30.734 30.779 30.779 31.004 31.122 31.149 31.229 31.257 35.242 32.587 31.402 31.944 33.722 32.677 31.427 31.367 32.629 31.464 35.214 33.292 31.537 33.712 34.852 34.782 32.869 31.917 31.739 32.104 32.117 32.172 32.182 32.157 32.212 32.344 32.472 34.147 35.799 33.202 32.612 32.854 33.182 33.827 33.834 38.219 33.684 38.204 33.549 33.829 35.129 33.764 33.794 33.777 33.749 34.237 34.402 34.562 34.644 35.059 34.509 35.402 34.904 34.669 34.674 34.677 34.694 34.714 34.734 34.789 34.844 34.924 34.992 35.087 35.192 35.284 35.367 35.477 35.564 35.667 35.774 35.854 35.979 36.079 36.204 36.302 36.407 36.512 36.654 36.749 36.872 36.984 37.079 37.164 37.287 37.384 37.494 37.589 37.677 37.789 37.927 38.019 38.109 38.192 38.297 38.387 38.452 38.532 38.617 38.697 40.219 42.392 39.584 39.322 39.407 40.374 40.727 39.799 39.479 39.529 39.584 39.677 39.784 39.852 39.837 39.842 39.894 39.944 40.002 40.042 45.982 40.097 40.144 40.174 40.234 40.247 40.277 40.289 40.299 40.294 40.262 40.204 40.142 40.102 40.029 39.994 39.954 39.982 39.957 39.914 39.862 39.702 39.587 39.524 39.474 39.522 39.692 39.662 39.072 38.699 38.707 38.622 38.534 38.464 38.364 38.289 38.127 37.954 37.732 37.577 37.447
31.835 30.942 33.165 35.565 34.822 36.31 39.942 36.785 29.36 22.147 28.77 25.685 21.242 26.372 28.075 24.185 29.102 32.72 21.61 23.425 30.035 19.945 21.007 26.212 23.852 26.047 22.397 20.45 20.425 21.792 24.072 21.487 20.282 24.435 25.597 21.3 22.985 24.445 20.77 20.232 20.137 20.217 20.23 20.342 20.252 20.325 24.605 26.12 21.667 21.247 24.07 27.9 29.227 20.56 24.3 27.132 29.165 26.672 25.462 27.11 25.267 23.362 24.322 31.16 23.197 23.135 20.857 21.502 21.995 20.972 22.3 21.35 29.407 22.96 20.997 21.152 21.825 21.197 21.777 28.187 22.74 21.685 22.13 21.38 21.427 21.457 21.447 21.585 21.9 21.65 21.63 21.73 21.932 22.292 21.97 21.997 21.975 22.022 22.097 22.07 22.36 22.457 22.392 33.347 30.372 30.487 30.132 27.4 28.04 28.832 25.7 28.497 28.755 29.202 29.512 29.81 28.56 30.997 28.852 25.002 22.972 23.065 23.142 23.33 23.507 23.365 23.652 23.31 23.357 24.227 25.305 23.522 23.487 23.495 23.32 23.54 23.58 23.692 23.77 23.782 23.797 23.832 23.852 23.947 23.865 23.962 23.955 23.955 23.982 24.007 24.07 24.03 24.072 24.25 24.137 24.132 24.375 24.255 24.657 24.302 24.455 24.397 24.475 24.457 24.665 24.655 24.617 25.087 24.81 24.73 24.807 24.847 24.86 24.885 24.977 25.277 25.155 25.487 25.315 25.242 26.017 26.747 27.462 26.492 28.842 26.552 26.512 26.477 26.492 26.565 26.657 26.712 26.857 26.77 26.502 26.042 26.147 26.515 26.34 27.224 26.762 26.937 27.472 26.479 26.424 26.434 28.202 32.954 31.012 35.499 26.777 28.632 32.274 31.729 33.542 28.199 27.242 27.292 27.437 28.132 28.864 31.517 27.672 27.697 27.734 27.764 27.702 27.859 27.874 28.077 28.119 28.174 28.184 28.192 28.189 28.239 28.282 28.299 28.327 28.354 28.389 28.494 28.724 28.944 28.917 28.952 28.919 28.912 29.004 29.437 29.599 29.612 29.594 29.537 29.569 30.162 30.032 30.189 30.732 30.449 30.344 30.382 30.554 30.852 30.429 30.629 30.679 30.714 30.719 30.762 30.737 30.714 31.134 31.124 31.219 31.277 31.244 31.292 31.312 31.904 31.994 31.344 31.329 31.314 31.372 31.472 31.474 32.499 33.287 34.777 35.339 35.504 34.119 33.429 31.962 31.742 32.047 32.064 32.069 32.162 32.262 32.357 32.387 32.697 32.552 32.632 33.987 34.074 32.829 32.957 33.057 33.664 33.312 33.512 33.739 33.772 33.674 33.639 33.694 33.664 34.097 34.517 34.479 35.082 34.622 34.647 37.417 34.919 34.539 34.514 34.569 34.557 34.589 34.604 34.632 34.694 34.759 34.837 34.907 35.007 35.104 35.212 35.307 35.412 35.479 35.582 35.664 35.774 35.897 36.022 36.149 36.222 36.332 36.439 36.549 36.664 36.777 36.864 36.977 37.074 37.187 37.294 37.399 37.482 37.604 37.714 37.832 37.934 38.017 38.089 38.187 38.282 38.354 38.447 38.554 38.647 40.589 41.844 39.822 39.239 39.404 40.964 42.339 40.052 39.502 39.527 39.597 39.677 39.779 39.832 39.817 39.837 39.862 39.887 39.957 39.984 40.044 40.037 40.087 40.167 40.179 40.197 40.242 40.254 40.239 40.234 40.139 40.147 40.082 40.064 40.002 39.957 39.937 39.974 39.964 39.947 39.849 39.639 39.502 39.424 39.467 39.542 38.984 38.849 38.744 38.627 38.547 38.474 38.394 38.329 38.279 38.172 38.017 37.814 37.644 37.499 37.347
26.672 30.34 36.587 39.707 32.435 37.617 38.662 37.57 29.792 24.68 30.83 30.592 24.275 28.967 23.317 21.947 25.44 30.945 23.435 25.822 25.262 21.485 21.625 27.05 22.807 26.537 20.23 21.6 22.377 25.635 28.915 21 19.832 21.3 26.892 22.517 21.147 23.575 21.405 20.125 20.14 20.192 20.657 20.41 20.272 21.565 33.152 28.145 26.162 23.055 24.535 22.135 24.24 26.327 20.945 21.745 24.987 25.007 28.995 30.152 29.59 24.467 23.995 30.622 26.14 23.237 21.745 21.032 22.48 21.11 21.007 25.485 28.29 21.652 22.407 27.012 22.702 21.552 24.095 26.115 21.425 22.572 21.592 21.37 21.422 21.557 21.52 21.545 21.71 21.625 21.582 21.662 21.892 22.19 22.277 22.212 22.075 22.065 22.005 22.187 22.272 22.382 26.27 33.09 30.817 27.072 30.542 26.265 22.297 22.987 22.87 26.155 27.3 25.482 28.517 28.642 28.767 30.552 28.7 25.582 22.985 22.895 23.087 23.442 23.852 23.167 23.19 23.262 23.265 23.325 23.297 23.482 23.52 23.377 23.497 23.522 23.702 23.697 23.862 23.68 23.73 23.737 23.777 23.827 23.807 23.915 23.917 23.925 23.955 24.042 24.11 24.482 24.08 24.167 24.225 24.777 24.352 24.207 24.25 24.327 24.405 24.447 24.445 24.44 24.48 24.545 24.58 24.662 25.037 24.695 24.8 24.812 24.91 24.885 25.075 25.22 25.09 25.255 25.22 25.325 25.432 26.077 26.48 25.89 27.167 26.032 26.532 26.462 26.46 26.515 26.57 26.665 26.787 27.427 27.742 26.125 26.145 26.255 26.267 28.167 27.112 28.369 32.384 28.817 27.362 31.054 32.357 34.219 32.877 35.912 29.312 26.797 29.502 31.319 31.464 27.989 27.214 28.722 28.407 27.232 28.679 29.302 27.487 27.539 27.537 27.554 27.762 27.722 27.834 34.949 28.969 28.172 28.139 28.157 28.172 28.204 28.219 28.282 28.329 28.359 28.342 28.342 28.509 28.839 28.882 28.867 28.837 28.872 28.989 29.179 29.414 29.479 29.554 30.274 29.827 30.097 30.259 30.267 30.749 30.712 30.514 30.597 30.919 30.657 30.309 30.547 30.644 30.682 30.699 30.712 30.737 30.779 31.089 31.142 31.214 31.214 31.217 31.222 31.187 31.269 31.299 31.324 31.332 31.357 31.442 31.492 31.464 31.472 32.887 34.669 35.282 35.607 35.089 34.527 31.539 31.739 31.939 31.919 32.067 32.204 32.292 32.354 32.394 32.437 32.307 32.517 34.424 41.329 32.877 32.829 33.897 33.324 34.264 33.427 33.482 33.462 33.512 33.477 33.802 35.457 34.189 34.467 36.409 35.362 35.152 38.414 37.594 34.387 34.389 34.394 34.444 34.447 34.504 34.557 34.577 34.627 34.709 34.759 34.867 34.937 35.029 35.139 35.239 35.342 35.442 35.524 35.632 35.754 35.849 35.982 36.072 36.152 36.262 36.367 36.474 36.584 36.702 36.802 36.919 37.014 37.119 37.219 37.329 37.427 37.547 37.654 37.759 37.864 37.944 38.054 38.157 38.239 38.309 38.379 38.457 38.552 39.567 40.417 40.742 39.244 39.364 39.567 39.932 40.849 39.632 39.539 39.629 39.724 39.802 39.839 39.827 39.834 39.812 39.849 39.917 39.994 39.999 40.014 40.069 40.094 40.137 40.197 40.189 40.219 40.212 40.164 40.094 40.137 40.102 40.087 40.004 40.032 40.687 39.997 39.922 41.662 39.714 39.547 39.437 39.304 39.139 39.049 38.924 38.809 38.694 38.654 38.554 38.459 38.374 38.294 38.174 38.079 37.927 37.727 37.604 37.457 37.332
