ncols 431
nrows 31
xllcorner    461118
yllcorner    90802
cellsize     2
NODATA_value -9999
41.606 41.669 41.711 41.751 41.799 41.819 41.841 41.859 41.924 41.956 41.989 42.029 42.056 42.106 42.166 42.184 42.206 42.246 42.269 42.286 42.316 42.351 42.394 42.466 42.476 42.479 42.491 42.471 42.481 42.481 42.486 42.526 42.556 42.524 42.516 42.521 42.506 42.564 42.621 42.626 42.609 42.586 42.544 42.554 42.544 42.574 42.569 42.639 42.614 42.616 42.639 42.641 42.676 42.671 42.689 42.671 42.729 42.746 42.754 42.796 42.814 42.841 42.861 42.884 42.889 42.869 42.834 42.789 42.776 42.746 42.756 42.724 42.721 42.701 42.696 42.729 42.726 42.666 42.626 42.591 42.514 42.454 42.381 42.346 42.326 42.309 42.244 42.211 42.179 42.644 42.396 42.164 42.149 42.166 42.211 42.194 42.204 42.186 42.236 42.276 42.276 42.286 42.289 42.289 42.254 42.251 42.269 42.259 42.276 42.274 42.269 42.291 42.286 42.306 42.304 42.306 42.286 42.281 42.296 42.251 42.304 42.314 42.346 42.321 42.326 42.306 42.279 42.249 42.221 42.216 42.156 42.096 42.031 41.966 41.899 41.891 41.891 41.856 41.794 41.776 41.711 41.666 41.636 41.584 41.536 41.534 41.519 41.484 41.439 41.389 41.326 41.271 41.149 41.149 41.214 41.126 41.074 41.796 41.294 40.894 40.901 40.844 40.766 41.049 42.871 43.179 41.529 40.444 40.391 40.284 40.151 40.049 39.884 39.791 39.699 39.566 39.396 39.261 39.141 39.011 38.904 38.751 38.624 38.519 38.399 38.254 38.124 38.006 37.894 37.791 37.681 37.577 37.612 37.467 37.639 37.622 37.787 37.527 36.992 37.177 37.277 38.202 36.839 35.907 35.309 35.004 34.809 34.707 34.527 34.309 34.119 33.909 33.714 33.537 33.349 33.129 32.924 32.769 32.602 32.399 32.222 32.062 31.879 31.689 31.497 31.314 31.132 30.954 30.762 30.592 30.387 30.212 30.017 29.839 29.612 29.449 29.234 29.072 28.892 28.717 28.527 28.337 28.164 27.964 27.797 27.597 27.392 27.239 27.062 26.892 26.762 26.607 26.454 26.279 26.162 26.007 25.864 25.729 25.579 25.467 25.317 25.172 25.074 24.924 24.804 24.697 24.592 24.444 24.344 24.262 24.147 24.102 24.082 24.037 23.907 23.807 23.709 23.659 23.564 23.489 23.387 23.249 23.147 23.017 22.877 22.767 22.657 22.517 22.427 22.324 22.207 22.084 21.982 21.819 21.734 21.589 21.482 21.329 21.184 21.087 20.907 20.919 20.997 20.882 20.854 20.724 20.684 20.597 20.554 20.569 20.559 20.507 20.454 20.372 20.312 20.217 20.114 20.019 19.939 19.804 19.779 19.689 19.632 19.579 19.534 19.477 19.477 19.447 19.412 19.349 19.264 19.164 19.074 18.949 18.849 18.787 18.697 18.604 18.502 18.404 18.362 18.269 18.224 18.147 18.084 18.054 18.024 17.957 17.909 17.854 17.812 17.759 17.687 17.624 17.542 17.494 17.427 17.382 17.292 17.232 17.129 17.072 17.002 16.944 16.892 16.812 16.774 16.742 16.699 16.652 16.649 16.609 16.532 16.474 16.409 16.342 16.434 16.232 16.167 16.097 16.017 16.027 15.954 15.902 15.819 15.747 15.672 15.569 15.499 15.447 15.407 15.382 15.332 15.319 15.252 15.222 15.182 15.144 15.094 15.067 15.007 14.974 14.954 14.909 14.864 14.819 14.742 14.647 14.519 14.409 14.279 14.164 13.977 13.867 13.717 13.624 13.509 13.397 13.302 13.207 13.104 13.034 12.934 12.817 12.734 12.614 12.527 12.459 12.387 12.274 12.214
41.679 41.739 41.776 41.821 41.869 41.914 41.916 41.934 41.986 42.016 42.051 42.086 42.116 42.176 42.229 42.256 42.274 42.306 42.316 42.321 42.366 42.404 42.464 42.506 42.524 42.526 42.531 42.551 42.516 42.526 42.561 42.579 42.616 42.606 42.579 42.571 42.614 42.644 42.674 42.676 42.674 42.666 42.619 42.604 42.619 42.636 42.646 42.659 42.671 42.669 42.699 42.691 42.739 42.739 42.729 42.769 42.784 42.796 42.816 42.856 42.874 42.886 42.946 42.939 42.951 42.916 42.886 42.846 42.841 42.839 42.814 42.816 42.766 42.756 42.791 42.789 42.776 42.736 42.691 42.661 42.596 42.544 42.464 42.416 42.416 42.369 42.299 42.259 42.319 42.839 42.354 42.164 42.216 42.251 42.249 42.236 42.234 42.226 42.294 42.351 42.321 42.319 42.326 42.339 42.306 42.299 42.316 42.326 42.336 42.349 42.361 42.391 42.391 42.401 42.414 42.396 42.394 42.411 42.379 42.369 42.366 42.376 42.409 42.371 42.364 42.334 42.314 42.314 42.286 42.249 42.224 42.159 42.096 42.014 41.986 41.986 41.969 41.906 41.861 41.851 41.766 41.724 41.681 41.631 41.604 41.629 41.601 41.564 41.534 41.471 41.389 41.314 41.221 41.181 41.239 41.181 41.116 41.886 41.446 40.914 40.934 40.861 40.806 41.599 42.581 42.274 40.604 40.459 40.394 40.354 40.194 40.059 39.911 39.819 39.716 39.586 39.446 39.309 39.184 39.056 38.909 38.784 38.641 38.539 38.356 38.264 38.119 38.016 37.899 37.791 37.679 37.557 37.409 37.292 37.157 37.044 36.884 36.772 36.632 36.659 36.887 37.344 36.532 35.654 35.259 35.034 34.882 34.744 34.549 34.327 34.142 33.927 33.692 33.507 33.339 33.182 32.984 32.792 32.647 32.419 32.262 32.074 31.902 31.702 31.537 31.354 31.157 30.972 30.804 30.577 30.427 30.249 30.084 29.902 29.734 29.554 29.367 29.179 29.002 28.812 28.647 28.464 28.279 28.039 27.857 27.657 27.492 27.324 27.147 26.989 26.832 26.679 26.537 26.329 26.212 26.032 25.882 25.734 25.592 25.497 25.364 25.224 25.117 24.954 24.824 24.719 24.607 24.519 24.402 24.274 24.194 24.139 24.029 23.977 23.897 23.834 23.762 23.677 23.582 23.499 23.394 23.282 23.139 23.064 22.904 22.797 22.697 22.562 22.447 22.354 22.234 22.157 22.004 21.894 21.807 21.724 21.607 21.502 21.349 21.224 21.002 21.084 20.984 20.942 20.814 20.764 20.704 20.664 20.662 20.669 20.642 20.582 20.532 20.472 20.387 20.307 20.212 20.139 20.024 19.932 19.874 19.794 19.747 19.704 19.657 19.622 19.594 19.547 19.479 19.472 19.347 19.244 19.134 19.004 18.924 18.829 18.777 18.674 18.582 18.494 18.437 18.342 18.279 18.219 18.169 18.114 18.097 18.042 17.992 17.934 17.897 17.847 17.772 17.697 17.637 17.564 17.514 17.442 17.382 17.304 17.209 17.132 17.059 17.004 16.939 16.904 16.872 16.832 16.759 16.729 16.722 16.654 16.607 16.552 16.479 16.402 16.652 16.302 16.207 16.159 16.122 16.082 15.989 15.952 15.892 15.799 15.719 15.624 15.559 15.527 15.472 15.407 15.387 15.354 15.322 15.249 15.224 15.194 15.144 15.104 15.052 15.017 14.997 14.947 14.887 14.829 14.752 14.664 14.562 14.439 14.269 14.159 14.017 13.877 13.782 13.652 13.574 13.499 13.357 13.304 13.209 13.144 13.057 12.934 12.844 12.729 12.609 12.552 12.489 12.407 12.322
41.756 41.804 41.834 41.891 41.921 41.941 41.989 42.004 42.039 42.081 42.124 42.146 42.191 42.234 42.286 42.286 42.351 42.364 42.364 42.384 42.419 42.476 42.556 42.566 42.561 42.569 42.579 42.599 42.579 42.581 42.609 42.631 42.656 42.681 42.616 42.641 42.644 42.684 42.719 42.714 42.739 42.704 42.664 42.669 42.676 42.706 42.696 42.721 42.739 42.714 42.751 42.749 42.759 42.791 42.806 42.809 42.849 42.854 42.864 42.891 42.924 42.939 42.994 42.964 42.979 42.966 42.929 42.899 42.889 42.884 42.871 42.846 42.831 42.806 42.841 42.866 42.856 42.806 42.796 42.744 42.686 42.626 42.524 42.484 42.461 42.409 42.344 42.291 42.644 43.231 42.274 42.211 42.234 42.274 42.291 42.276 42.251 42.259 42.341 42.374 42.381 42.371 42.376 42.379 42.364 42.356 42.381 42.379 42.389 42.406 42.429 42.454 42.484 42.486 42.504 42.479 42.486 42.476 42.481 42.456 42.436 42.446 42.439 42.421 42.404 42.371 42.374 42.334 42.336 42.286 42.259 42.196 42.144 42.076 42.026 42.024 42.034 41.996 41.941 41.896 41.859 41.779 41.721 41.716 41.699 41.739 41.704 41.631 41.591 41.539 41.464 41.386 41.279 41.241 41.284 41.211 41.169 42.026 41.396 40.929 40.936 40.854 40.901 42.124 42.319 41.234 40.529 40.504 40.386 40.301 40.184 40.079 39.946 39.849 39.729 39.606 39.454 39.306 39.201 39.074 38.941 38.789 38.676 38.551 38.406 38.269 38.159 38.034 37.911 37.781 37.666 37.549 37.402 37.279 37.157 37.004 36.872 36.727 36.564 36.402 36.182 35.984 35.742 35.434 35.269 35.087 34.907 34.752 34.522 34.339 34.109 33.897 33.692 33.502 33.357 33.224 33.029 32.824 32.639 32.439 32.264 32.062 31.894 31.709 31.542 31.344 31.192 30.989 30.802 30.647 30.444 30.274 30.107 29.932 29.764 29.599 29.397 29.237 29.074 28.904 28.719 28.547 28.369 28.174 28.002 27.824 27.632 27.447 27.269 27.069 26.894 26.749 26.559 26.427 26.239 26.119 25.944 25.817 25.664 25.547 25.417 25.282 25.152 25.047 24.904 24.769 24.659 24.552 24.439 24.332 24.217 24.099 24.042 23.972 23.909 23.844 23.779 23.702 23.614 23.507 23.422 23.309 23.197 23.097 22.937 22.832 22.709 22.599 22.507 22.394 22.292 22.207 22.042 21.962 21.897 21.839 21.719 21.587 21.504 21.284 21.139 21.147 21.032 20.972 20.854 20.814 20.777 20.792 20.752 20.769 20.744 20.669 20.644 20.554 20.509 20.414 20.299 20.252 20.129 20.052 19.987 19.934 19.867 19.819 19.764 19.719 19.672 19.639 19.569 19.524 19.422 19.272 19.177 19.084 19.004 18.892 18.849 18.767 18.669 18.567 18.494 18.429 18.349 18.274 18.229 18.177 18.137 18.097 18.057 18.024 17.967 17.897 17.832 17.784 17.722 17.634 17.577 17.512 17.444 17.369 17.249 17.197 17.122 17.072 17.024 16.957 16.929 16.892 16.847 16.812 16.757 16.724 16.654 16.612 16.544 16.454 16.637 16.342 16.287 16.234 16.177 16.154 16.087 16.014 15.934 15.869 15.802 15.699 15.637 15.587 15.544 15.459 15.459 15.419 15.377 15.317 15.267 15.234 15.179 15.139 15.089 15.049 15.024 14.999 14.947 14.897 14.802 14.679 14.602 14.494 14.347 14.189 14.047 13.904 13.804 13.729 13.652 13.557 13.464 13.392 13.317 13.264 13.152 12.999 12.934 12.812 12.679 12.654 12.567 12.514 12.414
41.806 41.871 41.886 41.931 41.971 42.011 42.034 42.061 42.096 42.116 42.171 42.221 42.269 42.304 42.329 42.336 42.404 42.404 42.449 42.459 42.494 42.541 42.594 42.619 42.636 42.656 42.646 42.631 42.646 42.626 42.676 42.679 42.716 42.696 42.671 42.679 42.734 42.744 42.771 42.789 42.804 42.736 42.724 42.736 42.741 42.741 42.776 42.774 42.761 42.776 42.794 42.809 42.859 42.861 42.861 42.884 42.854 42.884 42.924 42.961 42.991 43.001 43.041 43.024 43.029 43.016 42.961 42.929 42.931 42.936 42.926 42.909 42.891 42.889 42.921 42.919 42.919 42.879 42.841 42.806 42.774 42.701 42.634 42.569 42.511 42.481 42.389 42.334 43.371 43.119 42.229 42.276 42.274 42.336 42.341 42.319 42.306 42.346 42.389 42.424 42.431 42.439 42.464 42.441 42.421 42.406 42.436 42.444 42.434 42.471 42.521 42.506 42.549 42.526 42.564 42.546 42.544 42.526 42.511 42.504 42.529 42.496 42.466 42.461 42.466 42.414 42.376 42.364 42.379 42.351 42.289 42.239 42.179 42.109 42.091 42.076 42.066 42.041 42.019 41.936 41.884 41.839 41.811 41.779 41.766 41.749 41.749 41.694 41.634 41.594 41.536 41.449 41.344 41.346 41.301 41.219 41.256 41.924 41.149 40.981 40.924 40.859 40.866 41.371 41.414 40.681 40.541 40.524 40.436 40.289 40.166 40.054 39.976 39.884 39.804 39.661 39.514 39.389 39.234 39.076 38.971 38.826 38.681 38.534 38.396 38.286 38.126 38.016 37.944 37.831 37.709 37.572 37.479 37.312 37.179 37.059 36.892 36.724 36.554 36.367 36.174 35.979 35.732 35.509 35.304 35.097 34.909 34.722 34.487 34.272 34.107 33.899 33.747 33.552 33.374 33.214 33.004 32.842 32.649 32.494 32.309 32.107 31.924 31.752 31.574 31.394 31.234 31.024 30.829 30.662 30.467 30.297 30.109 29.942 29.754 29.597 29.394 29.244 29.107 28.924 28.779 28.604 28.449 28.249 28.087 27.889 27.729 27.589 27.412 27.229 27.037 26.872 26.669 26.504 26.337 26.189 26.034 25.874 25.729 25.602 25.474 25.317 25.199 25.072 24.962 24.849 24.739 24.634 24.507 24.372 24.269 24.164 24.097 24.034 23.942 23.879 23.794 23.692 23.627 23.542 23.434 23.347 23.219 23.082 22.942 22.822 22.714 22.622 22.542 22.427 22.379 22.267 22.174 22.057 22.037 21.929 21.852 21.747 21.594 21.362 21.264 21.144 21.072 20.994 20.927 20.897 20.877 20.899 20.874 20.882 20.822 20.789 20.744 20.664 20.584 20.487 20.397 20.334 20.227 20.172 20.057 20.024 19.974 19.914 19.842 19.802 19.762 19.697 19.657 19.574 19.457 19.382 19.232 19.152 19.042 18.952 18.912 18.822 18.719 18.644 18.564 18.504 18.427 18.367 18.314 18.254 18.197 18.159 18.104 18.082 18.047 17.947 17.904 17.824 17.759 17.692 17.642 17.572 17.509 17.427 17.337 17.257 17.194 17.127 17.072 17.009 16.984 16.949 16.909 16.849 16.829 16.787 16.709 16.654 16.567 16.547 16.562 16.424 16.362 16.332 16.272 16.212 16.142 16.044 15.994 15.894 15.812 15.727 15.722 15.652 15.577 15.527 15.512 15.497 15.424 15.372 15.317 15.272 15.222 15.192 15.134 15.089 15.052 15.039 15.017 14.969 14.849 14.724 14.634 14.509 14.384 14.227 14.097 13.959 13.859 13.779 13.699 13.637 13.544 13.504 13.409 13.352 13.257 13.084 13.002 12.892 12.774 12.739 12.679 12.577 12.482
41.886 41.926 41.989 42.034 42.029 42.051 42.084 42.116 42.144 42.169 42.209 42.271 42.279 42.334 42.386 42.416 42.471 42.451 42.491 42.536 42.559 42.624 42.666 42.676 42.676 42.699 42.706 42.706 42.691 42.686 42.744 42.726 42.764 42.731 42.711 42.756 42.789 42.819 42.846 42.846 42.846 42.816 42.811 42.799 42.809 42.839 42.854 42.836 42.841 42.861 42.859 42.844 42.904 42.891 42.906 42.916 42.939 42.974 42.999 43.004 43.041 43.059 43.079 43.059 43.091 43.036 43.016 42.979 42.994 42.984 42.966 42.961 42.929 42.959 42.974 43.004 42.986 42.951 42.906 42.874 42.839 42.776 42.706 42.649 42.581 42.509 42.426 42.464 44.174 42.999 42.264 42.296 42.324 42.364 42.366 42.354 42.364 42.391 42.436 42.489 42.491 42.476 42.466 42.481 42.476 42.489 42.476 42.476 42.484 42.491 42.576 42.576 42.609 42.616 42.604 42.604 42.589 42.584 42.564 42.574 42.556 42.531 42.499 42.474 42.464 42.444 42.431 42.431 42.419 42.399 42.324 42.269 42.229 42.171 42.146 42.126 42.114 42.091 42.064 41.956 41.931 41.889 41.869 41.816 41.811 41.799 41.786 41.749 41.689 41.621 41.576 41.491 41.409 41.411 41.364 41.261 41.346 41.951 41.101 41.034 40.966 40.931 41.104 42.316 41.599 40.609 40.601 40.524 40.419 40.311 40.196 40.086 40.029 39.944 39.851 39.731 39.591 39.459 39.294 39.166 39.019 38.854 38.719 38.599 38.456 38.316 38.201 38.079 37.984 37.836 37.749 37.559 37.442 37.309 37.174 37.049 36.872 36.709 36.552 36.354 36.174 35.937 35.752 35.529 35.314 35.112 34.917 34.707 34.524 34.322 34.124 33.932 33.774 33.579 33.402 33.197 33.009 32.837 32.674 32.472 32.289 32.107 31.937 31.762 31.597 31.417 31.252 31.044 30.874 30.707 30.537 30.344 30.157 29.984 29.792 29.632 29.452 29.277 29.087 28.942 28.782 28.644 28.472 28.327 28.132 27.947 27.767 27.629 27.469 27.334 27.154 26.967 26.812 26.667 26.507 26.324 26.167 25.979 25.839 25.699 25.554 25.404 25.274 25.157 25.042 24.884 24.767 24.649 24.537 24.427 24.329 24.217 24.149 24.039 23.977 23.917 23.844 23.772 23.692 23.584 23.477 23.362 23.252 23.119 23.004 22.867 22.789 22.702 22.607 22.527 22.482 22.332 22.244 22.174 22.129 22.087 21.982 21.887 21.667 21.472 21.309 21.177 21.094 21.019 21.022 20.984 20.979 21.007 21.007 20.952 20.902 20.854 20.824 20.759 20.652 20.554 20.467 20.407 20.309 20.262 20.137 20.092 20.039 19.984 19.909 19.857 19.814 19.742 19.689 19.617 19.527 19.417 19.262 19.197 19.099 19.039 18.974 18.882 18.779 18.699 18.629 18.554 18.489 18.419 18.354 18.297 18.272 18.234 18.182 18.157 18.089 17.972 17.954 17.882 17.802 17.762 17.679 17.602 17.537 17.469 17.374 17.317 17.257 17.182 17.124 17.054 17.054 16.994 16.949 16.909 16.884 16.837 16.767 16.749 16.649 16.619 16.637 16.469 16.417 16.384 16.324 16.259 16.192 16.147 16.049 15.969 15.867 15.777 15.742 15.712 15.642 15.572 15.579 15.542 15.472 15.422 15.367 15.322 15.259 15.204 15.137 15.144 15.104 15.064 15.059 15.012 14.927 14.819 14.652 14.549 14.444 14.279 14.159 14.034 13.934 13.877 13.792 13.737 13.647 13.607 13.532 13.464 13.369 13.214 13.117 12.979 12.859 12.809 12.754 12.694 12.562
41.961 41.989 42.031 42.076 42.096 42.129 42.131 42.199 42.209 42.234 42.286 42.339 42.364 42.406 42.429 42.451 42.524 42.499 42.536 42.566 42.621 42.686 42.701 42.749 42.741 42.741 42.739 42.739 42.716 42.761 42.781 42.789 42.829 42.781 42.776 42.781 42.844 42.914 42.871 42.886 42.904 42.876 42.864 42.889 42.896 42.889 42.946 42.904 42.919 42.919 42.909 42.909 42.936 42.944 42.951 42.984 42.974 42.996 43.041 43.071 43.071 43.091 43.134 43.134 43.124 43.099 43.054 43.056 43.051 43.021 43.009 42.994 42.999 43.059 43.061 43.061 43.041 42.996 42.956 42.916 42.846 42.761 42.736 42.674 42.621 42.529 42.481 42.716 44.206 42.866 42.269 42.301 42.369 42.406 42.409 42.391 42.399 42.449 42.489 42.534 42.536 42.516 42.524 42.524 42.499 42.521 42.514 42.521 42.529 42.529 42.599 42.631 42.649 42.651 42.656 42.654 42.639 42.641 42.639 42.619 42.574 42.559 42.546 42.529 42.504 42.476 42.466 42.464 42.454 42.426 42.351 42.296 42.274 42.216 42.171 42.179 42.166 42.134 42.091 42.016 41.971 41.949 41.911 41.839 41.864 41.836 41.834 41.781 41.734 41.654 41.606 41.506 41.451 41.446 41.384 41.306 41.539 42.021 41.049 41.034 40.969 41.006 41.426 41.846 42.064 40.624 40.599 40.526 40.414 40.271 40.194 40.104 40.076 39.996 39.916 39.821 39.669 39.526 39.364 39.236 39.104 38.954 38.816 38.669 38.536 38.411 38.271 38.146 38.009 37.916 37.794 37.629 37.529 37.379 37.219 37.059 36.897 36.724 36.554 36.389 36.172 35.954 35.762 35.552 35.327 35.107 34.907 34.714 34.537 34.344 34.147 33.984 33.844 33.629 33.462 33.267 33.052 32.832 32.679 32.494 32.277 32.119 31.954 31.784 31.589 31.434 31.247 31.074 30.877 30.699 30.549 30.384 30.179 30.007 29.837 29.684 29.504 29.314 29.159 28.972 28.847 28.654 28.497 28.302 28.132 27.997 27.824 27.662 27.527 27.379 27.214 27.079 26.882 26.744 26.587 26.409 26.269 26.112 25.972 25.857 25.724 25.559 25.417 25.289 25.167 25.017 24.859 24.737 24.599 24.502 24.384 24.302 24.214 24.102 24.029 23.949 23.884 23.769 23.727 23.639 23.522 23.444 23.304 23.212 23.102 22.967 22.894 22.809 22.727 22.622 22.537 22.442 22.352 22.282 22.232 22.167 22.084 21.939 21.742 21.577 21.382 21.284 21.129 21.064 21.079 21.044 21.102 21.102 21.074 21.032 20.969 20.929 20.887 20.804 20.714 20.627 20.547 20.489 20.384 20.322 20.197 20.142 20.087 20.039 19.977 19.889 19.872 19.797 19.742 19.667 19.604 19.472 19.322 19.222 19.132 19.064 19.004 18.924 18.849 18.744 18.684 18.617 18.529 18.482 18.412 18.372 18.312 18.277 18.234 18.192 18.124 18.009 18.002 17.902 17.837 17.802 17.732 17.639 17.582 17.479 17.404 17.362 17.312 17.239 17.159 17.134 17.089 17.044 16.994 16.949 16.892 16.877 16.822 16.807 16.724 16.644 16.682 16.532 16.467 16.429 16.372 16.307 16.259 16.199 16.097 16.012 15.902 15.814 15.774 15.744 15.694 15.669 15.634 15.564 15.532 15.459 15.389 15.359 15.294 15.252 15.204 15.162 15.137 15.087 15.084 15.009 14.972 14.849 14.712 14.617 14.484 14.302 14.209 14.089 13.999 13.949 13.884 13.824 13.744 13.689 13.609 13.522 13.389 13.307 13.214 13.069 12.949 12.882 12.842 12.794 12.667
42.036 42.061 42.096 42.111 42.141 42.179 42.191 42.229 42.259 42.299 42.349 42.409 42.424 42.444 42.491 42.516 42.556 42.571 42.596 42.646 42.691 42.746 42.771 42.809 42.799 42.791 42.786 42.806 42.786 42.801 42.836 42.844 42.844 42.821 42.829 42.844 42.879 42.939 42.899 42.951 42.916 42.929 42.941 42.941 42.966 42.986 42.984 42.991 42.996 42.974 42.991 43.016 43.006 43.026 43.016 43.046 43.044 43.069 43.086 43.126 43.111 43.166 43.199 43.209 43.176 43.126 43.106 43.076 43.091 43.099 43.069 43.056 43.084 43.104 43.101 43.121 43.104 43.066 43.034 42.954 42.859 42.769 42.754 42.721 42.669 42.614 42.499 43.384 44.026 42.849 42.306 42.351 42.376 42.459 42.449 42.451 42.476 42.511 42.551 42.571 42.581 42.589 42.584 42.561 42.559 42.561 42.566 42.559 42.554 42.581 42.616 42.671 42.686 42.699 42.686 42.696 42.671 42.676 42.684 42.671 42.609 42.619 42.556 42.556 42.551 42.509 42.506 42.494 42.471 42.469 42.409 42.334 42.311 42.269 42.249 42.214 42.191 42.141 42.106 42.056 42.024 41.966 41.921 41.901 41.891 41.881 41.861 41.801 41.744 41.686 41.614 41.521 41.474 41.484 41.419 41.364 41.534 41.766 41.044 41.046 40.994 40.899 41.736 41.814 40.716 40.659 40.559 40.529 40.409 40.314 40.261 40.129 40.109 40.006 39.939 39.829 39.679 39.564 39.424 39.319 39.186 39.064 38.936 38.754 38.609 38.491 38.331 38.216 38.071 37.976 37.881 37.724 37.612 37.444 37.284 37.084 36.944 36.747 36.557 36.384 36.162 35.972 35.804 35.564 35.332 35.122 34.959 34.754 34.577 34.382 34.237 34.062 33.864 33.667 33.474 33.294 33.099 32.889 32.694 32.519 32.314 32.157 31.969 31.807 31.629 31.452 31.244 31.074 30.894 30.727 30.549 30.379 30.184 29.999 29.862 29.689 29.557 29.387 29.229 29.052 28.907 28.734 28.534 28.379 28.217 28.052 27.889 27.717 27.579 27.399 27.254 27.127 26.969 26.809 26.652 26.497 26.352 26.167 26.074 25.937 25.824 25.717 25.567 25.429 25.292 25.164 25.014 24.862 24.734 24.597 24.524 24.389 24.312 24.214 24.112 24.037 23.974 23.852 23.829 23.749 23.647 23.529 23.419 23.299 23.229 23.082 22.999 22.872 22.792 22.664 22.577 22.467 22.402 22.377 22.309 22.249 22.184 22.007 21.842 21.634 21.477 21.329 21.169 21.129 21.177 21.162 21.202 21.184 21.172 21.097 21.047 20.994 20.972 20.884 20.757 20.669 20.592 20.529 20.449 20.367 20.244 20.184 20.137 20.092 20.019 19.954 19.914 19.834 19.747 19.719 19.629 19.499 19.389 19.284 19.197 19.102 19.032 18.987 18.874 18.774 18.734 18.652 18.577 18.534 18.472 18.407 18.387 18.339 18.297 18.224 18.157 18.089 18.069 17.964 17.894 17.859 17.769 17.662 17.642 17.534 17.462 17.419 17.352 17.284 17.227 17.162 17.137 17.052 17.009 16.972 16.942 16.907 16.857 16.824 16.749 16.692 16.694 16.569 16.509 16.479 16.417 16.379 16.317 16.239 16.167 16.049 15.904 15.877 15.827 15.797 15.774 15.709 15.689 15.672 15.584 15.499 15.449 15.402 15.364 15.327 15.277 15.222 15.202 15.134 15.114 15.044 14.972 14.869 14.782 14.654 14.524 14.369 14.257 14.137 14.062 14.027 13.957 13.909 13.837 13.772 13.704 13.592 13.432 13.364 13.274 13.157 13.052 12.989 12.929 12.864 12.752
42.076 42.111 42.131 42.184 42.216 42.226 42.249 42.271 42.306 42.364 42.369 42.436 42.489 42.536 42.546 42.554 42.614 42.639 42.669 42.676 42.744 42.784 42.831 42.844 42.844 42.824 42.824 42.849 42.834 42.861 42.904 42.899 42.861 42.864 42.886 42.909 42.959 42.981 42.969 42.999 43.001 42.989 43.009 43.019 43.064 43.079 43.061 43.041 43.056 43.046 43.061 43.089 43.039 43.091 43.094 43.101 43.109 43.149 43.169 43.164 43.211 43.264 43.226 43.246 43.201 43.146 43.129 43.129 43.149 43.139 43.119 43.111 43.126 43.169 43.161 43.164 43.129 43.109 43.061 43.019 42.856 42.821 42.806 42.759 42.711 42.626 42.566 43.134 43.579 42.891 42.381 42.421 42.484 42.514 42.489 42.519 42.554 42.591 42.614 42.641 42.656 42.631 42.619 42.596 42.594 42.611 42.599 42.589 42.596 42.616 42.674 42.701 42.706 42.724 42.724 42.741 42.729 42.706 42.684 42.669 42.641 42.611 42.591 42.589 42.564 42.524 42.516 42.516 42.501 42.481 42.426 42.369 42.351 42.296 42.289 42.254 42.234 42.196 42.126 42.081 42.016 41.994 41.954 41.929 41.914 41.914 41.889 41.824 41.761 41.711 41.646 41.551 41.514 41.509 41.476 41.396 41.591 41.776 41.069 41.126 41.061 41.271 41.759 41.371 40.694 40.654 40.606 40.529 40.396 40.319 40.249 40.169 40.129 40.056 39.966 39.871 39.721 39.624 39.514 39.401 39.261 39.109 38.979 38.856 38.714 38.564 38.421 38.299 38.151 38.054 37.939 37.779 37.652 37.514 37.354 37.187 37.037 36.842 36.642 36.407 36.197 35.962 35.784 35.577 35.387 35.197 35.022 34.849 34.644 34.474 34.292 34.124 33.927 33.729 33.537 33.339 33.159 32.954 32.777 32.579 32.374 32.192 32.012 31.832 31.659 31.487 31.292 31.109 30.934 30.759 30.577 30.392 30.214 30.059 29.894 29.722 29.567 29.392 29.254 29.067 28.954 28.772 28.607 28.422 28.272 28.122 27.962 27.782 27.649 27.477 27.319 27.177 27.024 26.867 26.709 26.564 26.434 26.277 26.137 25.994 25.867 25.742 25.657 25.522 25.372 25.252 25.099 24.992 24.892 24.742 24.622 24.502 24.414 24.317 24.264 24.167 24.069 23.982 23.927 23.819 23.752 23.614 23.494 23.377 23.274 23.142 23.062 22.942 22.832 22.732 22.632 22.547 22.509 22.454 22.357 22.327 22.227 22.084 21.892 21.709 21.527 21.357 21.312 21.234 21.227 21.224 21.242 21.239 21.214 21.159 21.084 21.047 21.029 20.929 20.804 20.727 20.637 20.539 20.462 20.399 20.309 20.214 20.162 20.122 20.034 19.969 19.952 19.877 19.797 19.749 19.644 19.544 19.437 19.314 19.237 19.189 19.107 19.042 18.934 18.842 18.764 18.704 18.642 18.564 18.512 18.464 18.417 18.382 18.329 18.274 18.229 18.142 18.102 18.009 17.937 17.907 17.812 17.699 17.659 17.592 17.514 17.439 17.374 17.324 17.269 17.229 17.154 17.087 17.039 17.009 16.997 16.967 16.894 16.822 16.787 16.719 16.739 16.644 16.559 16.519 16.509 16.432 16.382 16.309 16.237 16.129 15.997 15.962 15.922 15.874 15.832 15.772 15.727 15.692 15.649 15.562 15.534 15.497 15.442 15.404 15.369 15.317 15.272 15.207 15.167 15.094 15.022 14.947 14.827 14.697 14.584 14.442 14.329 14.219 14.132 14.084 14.044 13.964 13.897 13.839 13.759 13.677 13.529 13.437 13.357 13.212 13.129 13.054 13.009 12.972 12.867
42.129 42.176 42.211 42.244 42.284 42.286 42.321 42.319 42.356 42.419 42.459 42.496 42.526 42.541 42.571 42.626 42.639 42.664 42.729 42.751 42.821 42.836 42.889 42.876 42.881 42.879 42.871 42.889 42.881 42.931 42.951 42.964 42.921 42.924 42.916 42.941 42.999 43.019 43.029 43.041 43.061 43.026 43.076 43.094 43.111 43.141 43.129 43.131 43.139 43.121 43.141 43.169 43.116 43.131 43.156 43.156 43.189 43.204 43.216 43.251 43.296 43.276 43.299 43.286 43.264 43.226 43.209 43.196 43.206 43.191 43.174 43.149 43.194 43.224 43.229 43.244 43.201 43.174 43.121 43.059 42.906 42.856 42.869 42.834 42.761 42.686 42.661 42.889 42.846 42.509 42.489 42.484 42.549 42.554 42.544 42.584 42.626 42.636 42.641 42.674 42.714 42.684 42.659 42.671 42.654 42.651 42.641 42.649 42.621 42.641 42.706 42.731 42.726 42.769 42.771 42.764 42.769 42.746 42.706 42.669 42.636 42.599 42.611 42.601 42.581 42.559 42.566 42.561 42.524 42.479 42.436 42.394 42.344 42.339 42.316 42.286 42.261 42.206 42.126 42.119 42.074 42.029 41.996 41.989 41.959 41.944 41.909 41.846 41.769 41.724 41.691 41.559 41.541 41.556 41.484 41.451 41.881 41.844 41.109 41.134 41.019 41.481 41.959 41.114 40.726 40.681 40.609 40.554 40.429 40.329 40.214 40.179 40.131 40.069 39.979 39.879 39.764 39.661 39.571 39.414 39.281 39.164 39.026 38.871 38.751 38.646 38.509 38.369 38.264 38.121 38.001 37.857 37.714 37.579 37.442 37.249 37.074 36.892 36.714 36.537 36.324 36.062 35.877 35.664 35.474 35.302 35.074 34.904 34.707 34.529 34.317 34.159 33.969 33.789 33.587 33.414 33.209 33.004 32.824 32.654 32.447 32.262 32.074 31.902 31.692 31.544 31.357 31.169 30.974 30.799 30.622 30.452 30.272 30.092 29.934 29.759 29.602 29.424 29.267 29.099 28.947 28.787 28.619 28.452 28.307 28.144 27.997 27.839 27.709 27.534 27.387 27.249 27.072 26.924 26.777 26.627 26.484 26.332 26.187 26.074 25.959 25.819 25.709 25.547 25.419 25.319 25.159 25.047 24.922 24.807 24.699 24.622 24.524 24.422 24.362 24.244 24.177 24.089 24.019 23.894 23.847 23.714 23.574 23.444 23.307 23.202 23.109 23.012 22.877 22.769 22.644 22.587 22.589 22.517 22.424 22.397 22.254 22.164 21.947 21.749 21.564 21.449 21.382 21.312 21.309 21.317 21.334 21.327 21.264 21.212 21.147 21.102 21.057 20.932 20.839 20.762 20.664 20.602 20.517 20.459 20.337 20.272 20.189 20.142 20.079 19.997 19.979 19.874 19.824 19.749 19.682 19.572 19.477 19.344 19.267 19.219 19.152 19.052 19.012 18.874 18.812 18.734 18.699 18.627 18.559 18.499 18.482 18.432 18.434 18.342 18.239 18.189 18.117 18.054 17.979 17.927 17.847 17.749 17.707 17.629 17.534 17.497 17.434 17.342 17.279 17.232 17.199 17.159 17.102 17.059 17.024 16.989 16.924 16.864 16.832 16.739 16.804 16.674 16.614 16.549 16.482 16.454 16.379 16.327 16.237 16.164 16.049 16.004 15.964 15.904 15.862 15.802 15.777 15.714 15.662 15.572 15.572 15.532 15.464 15.429 15.412 15.349 15.299 15.234 15.194 15.134 15.052 14.957 14.867 14.719 14.602 14.484 14.377 14.287 14.199 14.137 14.102 14.039 13.977 13.904 13.832 13.739 13.632 13.549 13.439 13.309 13.207 13.137 13.079 13.039 12.959
42.194 42.221 42.244 42.294 42.326 42.329 42.341 42.359 42.409 42.464 42.521 42.561 42.586 42.591 42.624 42.691 42.686 42.741 42.786 42.809 42.894 42.914 42.934 42.946 42.929 42.926 42.934 42.929 42.941 42.984 42.994 42.981 42.959 42.956 42.959 43.019 43.044 43.061 43.089 43.104 43.109 43.091 43.121 43.161 43.179 43.189 43.189 43.176 43.194 43.196 43.204 43.226 43.176 43.191 43.209 43.214 43.229 43.289 43.294 43.299 43.341 43.334 43.344 43.319 43.314 43.264 43.244 43.251 43.241 43.241 43.226 43.211 43.256 43.274 43.319 43.309 43.281 43.249 43.179 43.051 42.971 42.954 42.951 42.886 42.771 42.744 42.769 43.076 42.539 42.549 42.519 42.544 42.601 42.611 42.601 42.636 42.676 42.716 42.721 42.754 42.774 42.741 42.711 42.699 42.699 42.679 42.661 42.694 42.686 42.691 42.744 42.751 42.761 42.781 42.786 42.809 42.764 42.749 42.709 42.709 42.664 42.644 42.619 42.621 42.611 42.586 42.544 42.561 42.529 42.516 42.484 42.419 42.351 42.364 42.336 42.301 42.269 42.269 42.169 42.154 42.099 42.066 42.004 42.004 42.009 41.951 41.914 41.854 41.794 41.751 41.699 41.594 41.611 41.591 41.494 41.571 42.164 41.839 41.136 41.131 41.084 41.811 41.531 40.819 40.774 40.701 40.664 40.544 40.429 40.331 40.226 40.149 40.094 40.056 39.974 39.889 39.756 39.689 39.564 39.451 39.344 39.196 39.076 38.934 38.809 38.691 38.571 38.439 38.309 38.156 38.029 37.919 37.797 37.647 37.462 37.287 37.132 36.944 36.757 36.589 36.352 36.132 35.949 35.747 35.537 35.342 35.142 34.967 34.762 34.582 34.382 34.214 34.017 33.817 33.629 33.469 33.232 33.082 32.869 32.699 32.514 32.329 32.137 31.957 31.767 31.577 31.417 31.219 31.042 30.879 30.682 30.507 30.339 30.167 30.004 29.832 29.667 29.484 29.312 29.172 29.014 28.817 28.669 28.497 28.332 28.189 28.049 27.882 27.724 27.574 27.417 27.289 27.132 26.982 26.817 26.692 26.529 26.394 26.267 26.112 25.989 25.864 25.732 25.599 25.462 25.359 25.214 25.082 24.947 24.832 24.732 24.637 24.547 24.459 24.384 24.327 24.244 24.177 24.077 24.002 23.882 23.782 23.672 23.529 23.394 23.272 23.174 23.064 22.932 22.819 22.739 22.702 22.637 22.579 22.507 22.392 22.287 22.194 21.957 21.764 21.609 21.497 21.464 21.404 21.417 21.374 21.397 21.372 21.322 21.257 21.194 21.134 21.067 20.979 20.849 20.769 20.694 20.617 20.517 20.464 20.359 20.302 20.212 20.167 20.119 20.039 19.992 19.907 19.837 19.762 19.684 19.592 19.487 19.399 19.302 19.244 19.157 19.074 19.027 18.924 18.849 18.792 18.742 18.694 18.637 18.542 18.522 18.484 18.447 18.352 18.307 18.249 18.174 18.112 18.029 17.957 17.892 17.822 17.737 17.654 17.564 17.529 17.467 17.404 17.362 17.297 17.242 17.174 17.137 17.109 17.067 17.012 16.962 16.884 16.874 16.777 16.832 16.717 16.647 16.602 16.517 16.467 16.444 16.354 16.309 16.207 16.102 16.042 16.022 15.969 15.914 15.834 15.822 15.744 15.694 15.602 15.627 15.589 15.549 15.489 15.419 15.394 15.344 15.262 15.212 15.172 15.084 14.989 14.909 14.769 14.684 14.552 14.454 14.392 14.287 14.239 14.189 14.099 14.059 13.979 13.902 13.832 13.704 13.587 13.494 13.374 13.274 13.207 13.114 13.089 13.007
42.236 42.246 42.286 42.329 42.389 42.389 42.389 42.396 42.464 42.499 42.571 42.589 42.614 42.629 42.679 42.739 42.749 42.789 42.841 42.896 42.941 42.951 42.981 42.991 42.979 42.961 42.969 42.954 42.984 43.011 43.014 43.006 43.001 42.989 43.016 43.064 43.106 43.114 43.134 43.154 43.156 43.159 43.184 43.241 43.241 43.231 43.249 43.256 43.241 43.269 43.274 43.286 43.261 43.279 43.291 43.311 43.326 43.341 43.364 43.359 43.386 43.424 43.416 43.381 43.379 43.294 43.286 43.289 43.304 43.289 43.276 43.286 43.309 43.331 43.346 43.326 43.321 43.304 43.224 43.059 43.019 43.016 42.999 42.924 42.861 42.834 42.876 43.084 42.511 42.616 42.591 42.619 42.644 42.659 42.654 42.696 42.726 42.766 42.779 42.806 42.824 42.789 42.766 42.751 42.726 42.711 42.714 42.694 42.734 42.759 42.794 42.806 42.791 42.804 42.829 42.819 42.769 42.756 42.729 42.701 42.676 42.661 42.651 42.659 42.651 42.591 42.564 42.566 42.559 42.479 42.484 42.421 42.409 42.361 42.356 42.319 42.319 42.279 42.194 42.154 42.114 42.074 42.016 42.029 42.021 41.991 41.949 41.866 41.829 41.759 41.679 41.609 41.666 41.606 41.536 41.646 42.211 41.589 41.176 41.154 41.324 41.946 41.231 40.774 40.814 40.741 40.659 40.556 40.439 40.306 40.216 40.154 40.119 40.049 39.976 39.881 39.764 39.661 39.594 39.486 39.344 39.234 39.099 38.969 38.846 38.726 38.624 38.476 38.346 38.211 38.056 37.944 37.797 37.642 37.499 37.369 37.192 36.999 36.822 36.642 36.429 36.197 36.029 35.787 35.584 35.392 35.217 35.009 34.812 34.637 34.447 34.272 34.049 33.872 33.677 33.514 33.334 33.119 32.934 32.764 32.534 32.367 32.172 31.987 31.832 31.634 31.449 31.254 31.062 30.879 30.737 30.542 30.392 30.209 30.047 29.889 29.717 29.564 29.397 29.232 29.072 28.892 28.752 28.564 28.389 28.234 28.082 27.897 27.749 27.614 27.464 27.324 27.147 27.024 26.862 26.729 26.579 26.474 26.329 26.187 26.049 25.937 25.792 25.662 25.509 25.382 25.254 25.129 25.009 24.897 24.797 24.659 24.574 24.472 24.402 24.337 24.249 24.177 24.107 24.022 23.974 23.832 23.739 23.614 23.489 23.339 23.237 23.102 22.987 22.844 22.794 22.732 22.669 22.629 22.559 22.419 22.364 22.212 22.022 21.822 21.667 21.589 21.514 21.472 21.479 21.447 21.437 21.402 21.354 21.289 21.214 21.154 21.084 20.972 20.867 20.807 20.727 20.637 20.564 20.457 20.382 20.279 20.212 20.167 20.109 20.064 19.992 19.934 19.859 19.814 19.717 19.597 19.524 19.439 19.312 19.284 19.199 19.149 19.084 18.962 18.912 18.852 18.774 18.744 18.637 18.602 18.572 18.524 18.434 18.389 18.332 18.292 18.212 18.152 18.057 17.997 17.902 17.832 17.767 17.679 17.592 17.542 17.487 17.424 17.374 17.324 17.274 17.209 17.187 17.124 17.069 17.044 16.987 16.934 16.869 16.824 16.829 16.782 16.664 16.624 16.549 16.507 16.452 16.377 16.297 16.199 16.139 16.087 16.059 16.007 15.937 15.884 15.832 15.774 15.702 15.659 15.607 15.587 15.557 15.517 15.434 15.449 15.392 15.294 15.249 15.192 15.102 15.024 14.914 14.814 14.729 14.577 14.542 14.462 14.377 14.319 14.259 14.202 14.102 14.032 13.952 13.872 13.754 13.647 13.574 13.464 13.277 13.722 13.244 13.152 13.042
42.279 42.306 42.356 42.389 42.416 42.436 42.441 42.474 42.516 42.569 42.619 42.649 42.671 42.706 42.749 42.781 42.826 42.859 42.891 42.924 42.984 42.994 42.999 43.024 43.031 43.034 43.011 43.001 43.056 43.056 43.076 43.026 43.011 43.009 43.081 43.139 43.136 43.161 43.194 43.176 43.196 43.231 43.234 43.299 43.304 43.301 43.336 43.314 43.314 43.316 43.331 43.321 43.346 43.359 43.384 43.374 43.411 43.404 43.431 43.436 43.461 43.484 43.481 43.446 43.404 43.366 43.359 43.334 43.359 43.331 43.341 43.349 43.379 43.389 43.401 43.386 43.366 43.329 43.244 43.119 43.086 43.069 43.069 42.986 42.911 42.909 43.296 44.064 42.866 42.641 42.681 42.716 42.749 42.724 42.726 42.764 42.801 42.841 42.861 42.866 42.854 42.854 42.821 42.809 42.776 42.781 42.746 42.761 42.766 42.771 42.796 42.784 42.836 42.866 42.854 42.831 42.819 42.789 42.746 42.736 42.706 42.666 42.659 42.659 42.649 42.634 42.579 42.591 42.574 42.526 42.481 42.474 42.396 42.376 42.386 42.384 42.369 42.326 42.239 42.154 42.146 42.114 42.076 42.081 42.056 41.996 41.951 41.896 41.841 41.801 41.681 41.634 41.709 41.626 41.519 41.624 42.079 41.326 41.179 41.164 41.539 42.251 41.564 40.846 40.806 40.741 40.666 40.524 40.419 40.304 40.241 40.156 40.114 40.076 39.996 39.906 39.804 39.666 39.561 39.449 39.354 39.241 39.111 38.994 38.869 38.749 38.629 38.511 38.389 38.249 38.104 37.964 37.817 37.649 37.492 37.357 37.179 37.009 36.879 36.674 36.517 36.284 36.077 35.859 35.649 35.467 35.282 35.077 34.867 34.634 34.469 34.279 34.112 33.914 33.719 33.532 33.337 33.159 32.987 32.792 32.602 32.402 32.214 32.029 31.824 31.674 31.499 31.297 31.142 30.964 30.807 30.634 30.459 30.297 30.087 29.914 29.774 29.619 29.459 29.289 29.117 28.959 28.804 28.624 28.477 28.309 28.147 27.957 27.829 27.669 27.514 27.374 27.194 27.049 26.902 26.769 26.607 26.492 26.352 26.224 26.107 25.949 25.849 25.712 25.579 25.452 25.282 25.177 25.042 24.939 24.819 24.729 24.639 24.537 24.482 24.404 24.307 24.219 24.149 24.052 23.959 23.864 23.764 23.669 23.522 23.382 23.279 23.157 23.029 22.912 22.839 22.787 22.717 22.682 22.587 22.442 22.439 22.227 22.044 21.849 21.777 21.679 21.584 21.539 21.527 21.487 21.449 21.419 21.372 21.337 21.264 21.189 21.087 20.962 20.887 20.802 20.704 20.647 20.597 20.487 20.397 20.307 20.219 20.154 20.104 20.074 20.027 19.922 19.847 19.822 19.737 19.617 19.542 19.452 19.347 19.307 19.237 19.159 19.112 18.992 18.919 18.897 18.824 18.767 18.689 18.662 18.619 18.534 18.479 18.439 18.382 18.309 18.242 18.152 18.092 18.022 17.924 17.844 17.809 17.714 17.602 17.589 17.517 17.454 17.399 17.339 17.284 17.257 17.209 17.157 17.092 17.057 17.017 16.944 16.897 16.839 16.844 16.762 16.682 16.639 16.584 16.564 16.522 16.412 16.312 16.249 16.167 16.087 16.062 16.032 15.982 15.894 15.829 15.769 15.724 15.677 15.627 15.577 15.544 15.512 15.469 15.419 15.387 15.299 15.264 15.194 15.122 15.047 14.959 14.824 14.759 14.639 14.562 14.489 14.452 14.354 14.314 14.294 14.217 14.102 14.022 13.929 13.844 13.699 13.629 13.519 13.402 15.159 15.547 13.232 13.104
42.306 42.361 42.419 42.456 42.436 42.466 42.499 42.526 42.589 42.614 42.666 42.689 42.706 42.744 42.806 42.834 42.856 42.929 42.936 42.984 43.044 43.031 43.024 43.066 43.071 43.061 43.071 43.061 43.104 43.099 43.121 43.056 43.051 43.071 43.131 43.171 43.176 43.219 43.229 43.206 43.234 43.276 43.319 43.321 43.344 43.351 43.379 43.381 43.371 43.386 43.396 43.376 43.401 43.396 43.411 43.416 43.449 43.461 43.509 43.486 43.526 43.561 43.546 43.476 43.454 43.411 43.406 43.381 43.414 43.381 43.374 43.406 43.434 43.454 43.456 43.441 43.414 43.376 43.306 43.164 43.139 43.134 43.109 43.031 42.954 42.944 43.346 45.381 42.724 42.681 42.744 42.826 42.829 42.814 42.784 42.844 42.866 42.904 42.941 42.916 42.926 42.904 42.874 42.831 42.816 42.801 42.784 42.791 42.799 42.824 42.841 42.849 42.831 42.874 42.859 42.841 42.829 42.804 42.779 42.771 42.734 42.701 42.679 42.674 42.691 42.621 42.624 42.621 42.604 42.571 42.494 42.426 42.411 42.399 42.374 42.384 42.369 42.289 42.239 42.189 42.156 42.119 42.116 42.104 42.071 42.001 41.976 41.891 41.871 41.826 41.709 41.661 41.704 41.591 41.509 41.714 42.204 41.201 41.214 41.209 41.869 41.961 40.984 40.851 40.769 40.724 40.589 40.504 40.361 40.311 40.244 40.176 40.131 40.071 39.989 39.896 39.791 39.699 39.599 39.474 39.346 39.234 39.114 39.011 38.874 38.764 38.624 38.504 38.404 38.264 38.139 37.987 37.869 37.684 37.527 37.349 37.197 37.034 36.874 36.697 36.527 36.337 36.134 35.922 35.719 35.529 35.294 35.114 34.907 34.672 34.547 34.314 34.132 33.954 33.774 33.584 33.392 33.209 33.042 32.834 32.624 32.449 32.234 32.064 31.882 31.699 31.524 31.337 31.149 31.004 30.829 30.664 30.502 30.354 30.182 30.024 29.834 29.674 29.489 29.347 29.192 29.022 28.852 28.669 28.517 28.357 28.217 28.089 27.934 27.742 27.624 27.462 27.289 27.122 26.962 26.829 26.697 26.557 26.422 26.279 26.129 26.007 25.899 25.752 25.614 25.479 25.377 25.242 25.102 25.002 24.872 24.787 24.674 24.577 24.487 24.394 24.342 24.282 24.209 24.129 24.027 23.919 23.829 23.692 23.567 23.429 23.304 23.164 22.999 22.902 22.914 22.857 22.787 22.709 22.577 22.519 22.424 22.229 22.049 21.897 21.847 21.769 21.642 21.592 21.554 21.509 21.472 21.434 21.359 21.327 21.262 21.207 21.102 20.979 20.899 20.839 20.729 20.652 20.602 20.502 20.394 20.304 20.237 20.187 20.124 20.074 20.022 19.929 19.897 19.832 19.749 19.649 19.579 19.487 19.362 19.327 19.267 19.172 19.132 19.032 18.962 18.922 18.869 18.809 18.732 18.712 18.634 18.572 18.544 18.462 18.414 18.369 18.264 18.194 18.112 18.027 17.944 17.874 17.824 17.737 17.649 17.599 17.492 17.449 17.414 17.362 17.279 17.272 17.239 17.159 17.117 17.072 17.039 16.979 16.929 16.834 16.844 16.742 16.677 16.687 16.599 16.589 16.474 16.407 16.304 16.229 16.182 16.134 16.097 16.062 16.009 15.932 15.864 15.799 15.757 15.692 15.639 15.607 15.562 15.524 15.464 15.407 15.377 15.309 15.267 15.219 15.139 15.064 14.969 14.829 14.772 14.657 14.579 14.512 14.469 14.414 14.382 14.354 14.264 14.182 14.077 13.984 13.897 13.812 13.724 13.562 13.462 15.149 15.289 13.282 13.132
42.351 42.391 42.456 42.466 42.501 42.534 42.551 42.571 42.616 42.669 42.699 42.746 42.761 42.806 42.894 42.874 42.904 42.966 43.004 43.036 43.091 43.094 43.091 43.094 43.109 43.131 43.084 43.106 43.141 43.134 43.144 43.134 43.126 43.131 43.184 43.241 43.204 43.244 43.271 43.256 43.311 43.344 43.359 43.381 43.401 43.419 43.431 43.426 43.446 43.459 43.481 43.464 43.461 43.476 43.481 43.479 43.529 43.529 43.559 43.566 43.596 43.624 43.596 43.561 43.496 43.464 43.491 43.474 43.451 43.446 43.441 43.449 43.504 43.506 43.516 43.516 43.466 43.421 43.326 43.236 43.204 43.199 43.184 43.104 43.034 43.654 43.969 43.801 42.849 42.851 42.861 42.871 42.886 42.859 42.861 42.931 42.969 42.994 43.009 42.976 42.974 42.946 42.901 42.916 42.889 42.826 42.809 42.814 42.836 42.859 42.871 42.859 42.886 42.876 42.861 42.839 42.829 42.829 42.801 42.799 42.741 42.734 42.729 42.714 42.714 42.671 42.626 42.654 42.596 42.576 42.491 42.466 42.421 42.431 42.421 42.406 42.379 42.309 42.239 42.204 42.169 42.136 42.119 42.121 42.101 42.039 41.974 41.911 41.889 41.829 41.741 41.739 41.719 41.621 41.586 42.224 42.101 41.236 41.284 41.386 42.404 41.821 40.859 40.914 40.766 40.716 40.569 40.414 40.339 40.264 40.254 40.211 40.171 40.089 40.006 39.899 39.786 39.699 39.586 39.469 39.334 39.241 39.121 39.014 38.901 38.779 38.634 38.509 38.379 38.244 38.129 37.984 37.844 37.702 37.549 37.374 37.222 37.054 36.894 36.749 36.577 36.377 36.177 35.969 35.762 35.552 35.359 35.147 34.954 34.754 34.582 34.387 34.197 33.997 33.837 33.654 33.472 33.279 33.067 32.852 32.662 32.484 32.319 32.134 31.934 31.754 31.564 31.359 31.197 31.024 30.859 30.694 30.512 30.387 30.227 30.064 29.902 29.757 29.572 29.429 29.284 29.087 28.934 28.747 28.602 28.439 28.259 28.167 27.999 27.827 27.657 27.517 27.347 27.202 27.039 26.919 26.757 26.617 26.477 26.334 26.197 26.062 25.919 25.779 25.649 25.519 25.389 25.289 25.157 25.042 24.959 24.814 24.719 24.627 24.514 24.439 24.357 24.284 24.217 24.132 24.047 23.967 23.879 23.762 23.632 23.484 23.344 23.202 23.074 22.984 22.954 22.902 22.857 22.724 22.617 22.582 22.397 22.254 22.067 21.944 21.874 21.787 21.704 21.639 21.584 21.549 21.484 21.407 21.389 21.317 21.269 21.169 21.089 20.992 20.917 20.822 20.722 20.657 20.602 20.497 20.399 20.324 20.259 20.217 20.127 20.089 20.032 19.949 19.902 19.842 19.729 19.672 19.607 19.502 19.382 19.322 19.277 19.207 19.139 19.077 19.002 18.959 18.922 18.824 18.782 18.754 18.684 18.599 18.574 18.484 18.447 18.397 18.307 18.202 18.114 18.054 17.972 17.892 17.827 17.742 17.639 17.599 17.499 17.459 17.424 17.379 17.304 17.277 17.249 17.167 17.117 17.072 17.044 16.987 16.944 16.862 16.862 16.764 16.662 16.697 16.639 16.579 16.492 16.402 16.297 16.244 16.199 16.139 16.122 16.072 16.007 15.912 15.849 15.807 15.742 15.667 15.647 15.607 15.592 15.507 15.467 15.424 15.369 15.319 15.247 15.199 15.127 15.054 14.984 14.889 14.792 14.682 14.617 14.547 14.504 14.442 14.417 14.387 14.284 14.237 14.142 14.064 13.947 13.882 13.767 13.634 13.542 13.529 13.467 13.307 13.219
42.379 42.434 42.491 42.524 42.536 42.556 42.591 42.629 42.681 42.716 42.766 42.796 42.791 42.854 42.919 42.909 42.956 42.999 43.029 43.101 43.109 43.134 43.116 43.144 43.164 43.171 43.144 43.179 43.184 43.184 43.174 43.149 43.149 43.171 43.234 43.244 43.261 43.316 43.321 43.304 43.334 43.391 43.401 43.434 43.471 43.444 43.469 43.479 43.484 43.521 43.526 43.526 43.534 43.539 43.576 43.571 43.591 43.599 43.636 43.646 43.666 43.674 43.649 43.581 43.534 43.536 43.544 43.526 43.529 43.501 43.499 43.546 43.566 43.584 43.589 43.601 43.549 43.501 43.376 43.311 43.274 43.266 43.234 43.159 43.141 43.989 43.416 42.919 42.904 42.884 42.984 42.971 42.949 42.951 42.951 42.999 43.074 43.109 43.061 43.029 43.014 43.006 42.979 42.959 42.919 42.889 42.884 42.864 42.891 42.901 42.889 42.899 42.881 42.896 42.889 42.844 42.836 42.834 42.806 42.776 42.769 42.726 42.751 42.736 42.724 42.679 42.679 42.686 42.636 42.591 42.526 42.471 42.451 42.461 42.454 42.426 42.389 42.349 42.281 42.224 42.211 42.154 42.134 42.114 42.096 42.049 41.994 41.946 41.889 41.809 41.734 41.769 41.739 41.646 41.609 42.234 41.859 41.274 41.244 41.494 42.376 41.949 40.899 40.926 40.779 40.691 40.534 40.424 40.331 40.279 40.239 40.221 40.164 40.104 40.021 39.906 39.786 39.709 39.561 39.466 39.354 39.254 39.141 39.021 38.914 38.814 38.694 38.566 38.424 38.314 38.136 37.982 37.814 37.682 37.534 37.392 37.207 37.062 36.922 36.772 36.592 36.402 36.224 36.022 35.822 35.607 35.399 35.214 34.999 34.809 34.614 34.434 34.274 34.067 33.884 33.749 33.529 33.354 33.159 32.949 32.749 32.559 32.369 32.194 31.979 31.787 31.589 31.437 31.259 31.089 30.897 30.732 30.537 30.387 30.262 30.122 29.932 29.812 29.612 29.447 29.307 29.139 28.987 28.839 28.679 28.529 28.382 28.194 28.044 27.882 27.744 27.577 27.429 27.264 27.109 26.979 26.824 26.697 26.559 26.427 26.264 26.134 26.002 25.857 25.714 25.547 25.424 25.332 25.184 25.074 24.964 24.882 24.772 24.667 24.574 24.462 24.379 24.314 24.252 24.164 24.102 23.994 23.884 23.764 23.669 23.509 23.349 23.242 23.094 23.054 23.024 22.972 22.897 22.719 22.644 22.549 22.392 22.254 22.084 21.977 21.924 21.852 21.807 21.694 21.594 21.552 21.499 21.434 21.392 21.334 21.284 21.184 21.102 20.987 20.899 20.849 20.722 20.667 20.579 20.502 20.409 20.329 20.257 20.209 20.139 20.099 20.049 19.977 19.922 19.864 19.759 19.679 19.622 19.502 19.409 19.347 19.292 19.229 19.172 19.067 19.024 18.997 18.917 18.849 18.799 18.742 18.674 18.644 18.557 18.497 18.439 18.387 18.322 18.219 18.099 18.042 17.974 17.934 17.809 17.729 17.667 17.584 17.524 17.442 17.454 17.374 17.287 17.289 17.249 17.189 17.124 17.074 17.039 16.962 16.927 16.847 16.899 16.779 16.677 16.662 16.619 16.574 16.469 16.394 16.259 16.244 16.197 16.129 16.114 16.077 15.999 15.929 15.877 15.802 15.762 15.682 15.637 15.614 15.569 15.517 15.467 15.407 15.369 15.299 15.242 15.172 15.124 15.052 14.974 14.877 14.809 14.709 14.684 14.612 14.544 14.497 14.434 14.399 14.332 14.279 14.202 14.119 14.002 13.919 13.824 13.694 13.649 13.614 13.509 13.347 13.337
42.439 42.481 42.521 42.566 42.594 42.614 42.624 42.684 42.721 42.771 42.806 42.839 42.864 42.919 42.946 42.961 42.996 43.031 43.091 43.166 43.174 43.184 43.194 43.194 43.211 43.211 43.194 43.221 43.211 43.246 43.211 43.204 43.174 43.234 43.279 43.304 43.306 43.359 43.351 43.364 43.386 43.446 43.464 43.471 43.476 43.504 43.529 43.531 43.521 43.571 43.559 43.596 43.594 43.601 43.654 43.629 43.651 43.669 43.676 43.696 43.731 43.731 43.689 43.654 43.586 43.586 43.574 43.584 43.576 43.559 43.569 43.589 43.619 43.646 43.631 43.641 43.631 43.556 43.439 43.369 43.354 43.351 43.289 43.206 43.286 44.016 43.376 43.014 42.989 43.034 43.091 43.051 43.039 43.021 43.034 43.084 43.159 43.184 43.134 43.099 43.091 43.066 43.061 43.024 42.979 42.959 42.924 42.941 42.926 42.939 42.924 42.914 42.924 42.926 42.891 42.861 42.851 42.864 42.816 42.789 42.794 42.771 42.779 42.794 42.756 42.729 42.719 42.701 42.659 42.599 42.539 42.491 42.474 42.481 42.464 42.451 42.394 42.339 42.271 42.226 42.194 42.189 42.174 42.126 42.101 42.064 41.994 41.951 41.919 41.836 41.744 41.796 41.769 41.636 41.686 42.301 41.451 41.329 41.266 41.844 42.666 41.586 40.914 40.871 40.756 40.704 40.519 40.389 40.321 40.281 40.214 40.179 40.151 40.086 39.991 39.874 39.771 39.681 39.571 39.484 39.394 39.251 39.141 39.036 38.914 38.824 38.699 38.579 38.461 38.326 38.176 38.022 37.854 37.709 37.532 37.364 37.192 37.044 36.864 36.744 36.577 36.402 36.227 36.067 35.892 35.667 35.462 35.274 35.049 34.874 34.672 34.504 34.314 34.127 33.954 33.807 33.629 33.444 33.257 33.062 32.837 32.637 32.432 32.267 32.059 31.884 31.694 31.519 31.337 31.164 30.957 30.799 30.599 30.447 30.277 30.129 29.964 29.822 29.662 29.519 29.329 29.192 29.004 28.864 28.702 28.539 28.402 28.247 28.107 27.959 27.822 27.667 27.462 27.314 27.182 27.042 26.884 26.774 26.619 26.482 26.339 26.172 26.064 25.907 25.802 25.657 25.512 25.379 25.214 25.112 25.017 24.884 24.802 24.692 24.574 24.494 24.442 24.359 24.264 24.207 24.137 24.042 23.932 23.817 23.694 23.532 23.372 23.289 23.177 23.102 23.057 23.019 22.917 22.737 22.692 22.524 22.392 22.239 22.139 22.032 21.974 21.912 21.824 21.707 21.619 21.559 21.507 21.434 21.384 21.317 21.259 21.202 21.097 21.007 20.922 20.819 20.749 20.657 20.569 20.539 20.407 20.347 20.292 20.222 20.117 20.084 20.057 19.994 19.924 19.872 19.797 19.717 19.647 19.522 19.452 19.384 19.289 19.232 19.209 19.122 19.052 18.997 18.949 18.864 18.794 18.752 18.659 18.639 18.574 18.527 18.449 18.369 18.309 18.194 18.104 18.019 17.967 17.904 17.802 17.737 17.637 17.594 17.532 17.454 17.394 17.339 17.294 17.279 17.232 17.182 17.102 17.057 17.037 16.964 16.919 16.837 16.842 16.752 16.662 16.644 16.582 16.542 16.462 16.402 16.282 16.237 16.174 16.139 16.097 16.062 15.984 15.909 15.862 15.812 15.739 15.697 15.652 15.612 15.564 15.512 15.454 15.394 15.352 15.309 15.242 15.179 15.137 15.024 14.969 14.887 14.797 14.724 14.687 14.607 14.572 14.519 14.492 14.417 14.404 14.302 14.232 14.172 14.049 13.982 13.894 13.764 13.737 13.684 13.537 13.442 13.474
42.481 42.559 42.606 42.601 42.631 42.664 42.661 42.714 42.771 42.816 42.854 42.869 42.911 42.981 42.986 43.034 43.056 43.086 43.136 43.219 43.231 43.219 43.209 43.241 43.239 43.241 43.241 43.261 43.251 43.256 43.269 43.251 43.251 43.299 43.346 43.364 43.361 43.424 43.429 43.404 43.464 43.496 43.514 43.524 43.529 43.554 43.554 43.579 43.611 43.631 43.629 43.646 43.639 43.669 43.686 43.706 43.719 43.739 43.759 43.776 43.791 43.786 43.721 43.694 43.656 43.659 43.661 43.626 43.616 43.624 43.629 43.664 43.686 43.714 43.681 43.691 43.664 43.614 43.496 43.434 43.429 43.386 43.326 43.229 43.414 44.464 43.316 43.061 43.066 43.146 43.159 43.149 43.149 43.146 43.181 43.224 43.236 43.269 43.211 43.179 43.161 43.129 43.121 43.074 43.044 43.011 42.991 42.981 42.976 42.986 42.941 42.966 42.946 42.939 42.891 42.876 42.849 42.886 42.839 42.829 42.809 42.806 42.821 42.806 42.806 42.784 42.759 42.749 42.666 42.614 42.526 42.534 42.529 42.499 42.501 42.464 42.399 42.351 42.291 42.246 42.216 42.194 42.171 42.139 42.124 42.071 41.999 41.954 41.941 41.849 41.789 41.829 41.781 41.646 41.921 42.356 41.444 41.356 41.334 42.544 42.436 41.019 40.934 40.841 40.764 40.649 40.514 40.391 40.286 40.249 40.221 40.181 40.166 40.084 40.006 39.846 39.746 39.684 39.541 39.479 39.379 39.274 39.164 39.049 38.936 38.816 38.689 38.574 38.456 38.336 38.174 38.037 37.874 37.732 37.584 37.402 37.239 37.069 36.889 36.739 36.582 36.387 36.234 36.042 35.842 35.659 35.492 35.302 35.109 34.929 34.759 34.537 34.372 34.169 33.994 33.829 33.662 33.479 33.317 33.122 32.944 32.752 32.562 32.344 32.137 31.967 31.784 31.574 31.397 31.229 31.052 30.869 30.652 30.494 30.334 30.162 30.004 29.867 29.704 29.557 29.382 29.197 29.062 28.899 28.729 28.587 28.422 28.262 28.137 27.992 27.837 27.687 27.524 27.382 27.234 27.074 26.932 26.797 26.667 26.527 26.377 26.239 26.082 25.959 25.834 25.692 25.592 25.437 25.307 25.179 25.072 24.932 24.844 24.704 24.612 24.492 24.447 24.377 24.324 24.252 24.177 24.092 24.002 23.917 23.747 23.612 23.472 23.312 23.237 23.154 23.094 23.029 22.909 22.749 22.714 22.519 22.382 22.224 22.152 22.099 22.004 21.927 21.879 21.744 21.667 21.572 21.512 21.429 21.407 21.339 21.262 21.217 21.107 21.014 20.932 20.827 20.747 20.677 20.592 20.532 20.427 20.342 20.287 20.222 20.144 20.114 20.064 20.002 19.944 19.902 19.792 19.734 19.657 19.539 19.447 19.382 19.309 19.239 19.197 19.129 19.047 18.997 18.934 18.854 18.794 18.749 18.672 18.614 18.564 18.502 18.432 18.347 18.294 18.169 18.069 18.009 17.942 17.882 17.777 17.699 17.627 17.582 17.504 17.417 17.372 17.332 17.287 17.274 17.229 17.144 17.067 17.049 17.009 16.909 16.884 16.794 16.802 16.724 16.654 16.649 16.559 16.514 16.442 16.347 16.239 16.187 16.182 16.129 16.102 16.017 15.957 15.887 15.827 15.779 15.737 15.657 15.632 15.589 15.524 15.507 15.474 15.387 15.334 15.274 15.249 15.184 15.129 15.044 14.969 14.889 14.802 14.714 14.692 14.622 14.542 14.549 14.524 14.509 14.449 14.377 14.264 14.177 14.134 14.062 13.969 13.842 13.782 13.669 13.592 13.592 13.652
42.526 42.611 42.651 42.651 42.689 42.706 42.719 42.799 42.834 42.856 42.906 42.921 42.931 43.004 43.019 43.061 43.101 43.139 43.194 43.254 43.259 43.251 43.266 43.261 43.286 43.271 43.291 43.329 43.294 43.289 43.294 43.311 43.304 43.364 43.409 43.426 43.426 43.446 43.474 43.454 43.516 43.546 43.569 43.589 43.581 43.634 43.591 43.606 43.629 43.661 43.666 43.696 43.694 43.729 43.739 43.769 43.771 43.799 43.829 43.841 43.826 43.846 43.786 43.714 43.719 43.696 43.704 43.696 43.694 43.704 43.696 43.701 43.749 43.766 43.741 43.741 43.696 43.671 43.591 43.494 43.489 43.441 43.359 43.294 43.609 44.554 43.246 43.144 43.159 43.241 43.269 43.229 43.241 43.254 43.281 43.316 43.316 43.331 43.301 43.241 43.226 43.179 43.186 43.141 43.099 43.031 43.019 43.026 43.036 43.019 42.976 42.941 42.946 42.961 42.934 42.909 42.899 42.851 42.829 42.849 42.841 42.859 42.866 42.841 42.816 42.811 42.781 42.754 42.709 42.634 42.554 42.594 42.571 42.534 42.504 42.481 42.406 42.379 42.319 42.269 42.214 42.204 42.189 42.166 42.139 42.076 42.016 41.969 41.914 41.809 41.834 41.846 41.774 41.736 42.164 42.121 41.376 41.354 41.394 42.876 42.524 40.956 40.984 40.854 40.754 40.631 40.499 40.384 40.301 40.236 40.164 40.154 40.154 40.071 40.011 39.881 39.779 39.676 39.551 39.476 39.364 39.246 39.139 39.019 38.921 38.824 38.744 38.599 38.461 38.331 38.196 38.059 37.887 37.719 37.559 37.384 37.219 37.064 36.904 36.729 36.584 36.419 36.252 36.057 35.869 35.677 35.509 35.322 35.152 34.927 34.762 34.559 34.392 34.232 34.052 33.872 33.704 33.524 33.362 33.184 33.024 32.832 32.659 32.447 32.224 32.029 31.837 31.659 31.492 31.309 31.129 30.939 30.727 30.549 30.382 30.209 30.052 29.892 29.734 29.569 29.394 29.227 29.087 28.939 28.792 28.647 28.477 28.339 28.164 27.992 27.847 27.722 27.557 27.402 27.272 27.114 26.992 26.839 26.709 26.552 26.394 26.289 26.112 26.004 25.877 25.734 25.617 25.479 25.344 25.204 25.119 24.992 24.882 24.772 24.677 24.542 24.472 24.392 24.344 24.272 24.199 24.122 24.039 23.944 23.809 23.657 23.514 23.379 23.294 23.212 23.154 23.082 22.917 22.802 22.684 22.539 22.354 22.204 22.192 22.134 22.064 21.969 21.887 21.774 21.659 21.589 21.507 21.454 21.394 21.332 21.267 21.187 21.112 20.994 20.929 20.824 20.772 20.689 20.624 20.532 20.424 20.324 20.274 20.232 20.174 20.117 20.062 20.037 19.937 19.887 19.822 19.759 19.679 19.569 19.459 19.364 19.319 19.222 19.202 19.089 19.027 18.987 18.924 18.842 18.792 18.712 18.607 18.587 18.514 18.474 18.414 18.302 18.242 18.159 18.052 17.982 17.917 17.832 17.752 17.687 17.602 17.557 17.489 17.417 17.329 17.299 17.252 17.242 17.182 17.097 17.049 17.029 16.977 16.899 16.834 16.774 16.802 16.694 16.649 16.642 16.574 16.507 16.419 16.327 16.267 16.207 16.167 16.134 16.087 16.009 15.952 15.889 15.827 15.752 15.717 15.664 15.619 15.574 15.522 15.482 15.427 15.372 15.307 15.299 15.219 15.157 15.084 15.039 14.952 14.889 14.817 14.709 14.702 14.654 14.592 14.577 14.564 14.529 14.494 14.442 14.302 14.224 14.169 14.072 13.974 13.857 13.762 13.742 13.764 14.114 14.327
42.576 42.649 42.714 42.706 42.714 42.766 42.776 42.869 42.879 42.889 42.954 42.956 43.006 43.066 43.089 43.101 43.116 43.179 43.256 43.289 43.291 43.299 43.291 43.301 43.311 43.311 43.331 43.366 43.351 43.346 43.326 43.301 43.346 43.404 43.439 43.474 43.481 43.501 43.516 43.494 43.554 43.586 43.614 43.619 43.644 43.636 43.641 43.641 43.659 43.696 43.711 43.744 43.739 43.781 43.804 43.836 43.854 43.861 43.901 43.901 43.884 43.889 43.854 43.779 43.781 43.769 43.761 43.734 43.756 43.716 43.749 43.766 43.816 43.834 43.809 43.766 43.749 43.731 43.701 43.619 43.564 43.536 43.434 43.391 43.869 44.426 43.376 43.236 43.254 43.351 43.351 43.356 43.346 43.356 43.391 43.401 43.389 43.404 43.366 43.294 43.289 43.269 43.236 43.199 43.129 43.114 43.076 43.051 43.054 43.019 43.026 42.994 42.974 42.956 42.946 42.926 42.911 42.896 42.861 42.839 42.854 42.864 42.876 42.856 42.821 42.826 42.816 42.756 42.711 42.634 42.596 42.601 42.604 42.569 42.531 42.511 42.429 42.374 42.336 42.271 42.239 42.229 42.214 42.179 42.169 42.074 42.026 42.006 41.916 41.859 41.849 41.844 41.759 41.754 42.404 41.691 41.834 41.499 41.861 42.859 41.986 40.979 40.974 40.876 40.749 40.616 40.446 40.301 40.229 40.201 40.146 40.184 40.134 40.069 39.989 39.861 39.749 39.709 39.564 39.486 39.339 39.216 39.144 39.029 38.916 38.804 38.691 38.544 38.441 38.314 38.211 38.052 37.902 37.752 37.567 37.404 37.217 37.059 36.897 36.727 36.549 36.377 36.204 36.044 35.857 35.684 35.502 35.334 35.134 34.924 34.764 34.562 34.394 34.222 34.027 33.889 33.752 33.584 33.454 33.282 33.099 32.907 32.727 32.519 32.317 32.139 31.912 31.707 31.529 31.352 31.144 30.992 30.809 30.649 30.469 30.299 30.142 29.957 29.772 29.604 29.427 29.272 29.089 28.952 28.782 28.662 28.504 28.369 28.217 28.067 27.909 27.767 27.622 27.467 27.292 27.157 27.009 26.869 26.719 26.574 26.452 26.287 26.164 26.027 25.902 25.774 25.642 25.524 25.382 25.254 25.147 25.007 24.897 24.804 24.707 24.627 24.529 24.452 24.372 24.314 24.224 24.157 24.059 23.942 23.839 23.679 23.522 23.434 23.372 23.284 23.222 23.094 22.934 22.829 22.662 22.507 22.354 22.222 22.187 22.134 22.077 21.992 21.904 21.789 21.674 21.607 21.499 21.464 21.409 21.327 21.252 21.202 21.094 20.987 20.922 20.852 20.777 20.699 20.609 20.532 20.434 20.362 20.322 20.234 20.172 20.122 20.052 20.039 19.932 19.892 19.824 19.782 19.699 19.597 19.469 19.407 19.317 19.214 19.172 19.097 19.012 18.964 18.882 18.844 18.762 18.679 18.604 18.584 18.487 18.457 18.347 18.264 18.184 18.129 18.019 17.952 17.877 17.802 17.727 17.629 17.574 17.517 17.467 17.384 17.324 17.262 17.209 17.219 17.167 17.079 17.027 16.979 16.954 16.859 16.794 16.742 16.807 16.674 16.609 16.577 16.534 16.494 16.422 16.309 16.269 16.194 16.172 16.142 16.079 15.994 15.934 15.897 15.824 15.777 15.709 15.652 15.619 15.562 15.517 15.492 15.467 15.367 15.289 15.302 15.212 15.147 15.089 15.009 14.942 14.884 14.814 14.739 14.719 14.634 14.602 14.572 14.564 14.549 14.537 14.452 14.339 14.269 14.182 14.102 14.037 14.094 14.264 14.687 14.519 14.284 13.712
42.671 42.734 42.744 42.756 42.794 42.799 42.839 42.911 42.931 42.976 42.989 43.011 43.074 43.101 43.131 43.166 43.166 43.221 43.294 43.304 43.321 43.336 43.326 43.336 43.379 43.374 43.389 43.389 43.381 43.344 43.349 43.334 43.386 43.459 43.486 43.501 43.546 43.536 43.536 43.556 43.594 43.614 43.641 43.674 43.679 43.696 43.709 43.699 43.734 43.739 43.756 43.786 43.811 43.821 43.864 43.886 43.919 43.929 43.951 43.944 43.926 43.936 43.896 43.859 43.826 43.804 43.784 43.784 43.786 43.771 43.824 43.871 43.854 43.876 43.856 43.841 43.819 43.769 43.789 43.701 43.646 43.596 43.489 43.476 43.976 43.541 43.384 43.381 43.409 43.464 43.464 43.461 43.431 43.466 43.486 43.464 43.464 43.436 43.434 43.359 43.356 43.361 43.324 43.251 43.201 43.154 43.141 43.111 43.094 43.071 43.061 43.019 42.989 42.971 42.946 42.929 42.901 42.894 42.894 42.906 42.911 42.894 42.899 42.876 42.879 42.854 42.811 42.759 42.714 42.666 42.629 42.641 42.601 42.584 42.541 42.516 42.431 42.396 42.346 42.306 42.266 42.251 42.234 42.199 42.191 42.084 42.029 42.011 41.934 41.899 41.879 41.856 41.774 41.959 42.536 41.619 41.676 41.386 42.594 42.786 41.291 40.976 40.981 40.916 40.739 40.619 40.456 40.309 40.236 40.196 40.176 40.166 40.154 40.089 39.999 39.901 39.806 39.691 39.581 39.461 39.361 39.231 39.161 39.041 38.921 38.819 38.689 38.564 38.434 38.321 38.169 38.047 37.884 37.754 37.599 37.424 37.234 37.059 36.879 36.709 36.554 36.367 36.222 36.029 35.847 35.644 35.499 35.312 35.149 34.939 34.764 34.594 34.412 34.222 34.057 33.887 33.762 33.589 33.462 33.302 33.162 33.009 32.789 32.597 32.399 32.182 31.962 31.757 31.557 31.377 31.177 30.984 30.812 30.647 30.522 30.319 30.179 29.982 29.862 29.702 29.534 29.342 29.159 29.002 28.864 28.717 28.554 28.407 28.229 28.109 27.934 27.799 27.634 27.499 27.327 27.192 27.067 26.902 26.764 26.607 26.464 26.327 26.184 26.052 25.927 25.807 25.669 25.542 25.429 25.269 25.159 25.024 24.937 24.832 24.709 24.609 24.509 24.452 24.397 24.332 24.264 24.182 24.094 23.969 23.844 23.709 23.562 23.484 23.434 23.327 23.242 23.112 22.934 22.799 22.654 22.487 22.389 22.254 22.189 22.172 22.112 22.037 21.902 21.812 21.717 21.584 21.502 21.432 21.374 21.332 21.224 21.179 21.079 20.964 20.922 20.837 20.747 20.679 20.602 20.527 20.439 20.377 20.317 20.259 20.189 20.102 20.079 20.029 19.959 19.889 19.834 19.789 19.684 19.589 19.474 19.392 19.309 19.202 19.164 19.057 18.977 18.919 18.852 18.802 18.729 18.629 18.559 18.524 18.462 18.417 18.324 18.219 18.152 18.079 17.987 17.922 17.829 17.772 17.697 17.617 17.552 17.487 17.424 17.369 17.302 17.229 17.199 17.167 17.112 17.027 16.977 16.964 16.949 16.864 16.779 16.734 16.789 16.692 16.614 16.599 16.509 16.499 16.407 16.304 16.232 16.212 16.187 16.147 16.069 15.982 15.934 15.874 15.812 15.794 15.732 15.659 15.634 15.569 15.519 15.489 15.454 15.377 15.289 15.267 15.192 15.149 15.074 15.037 14.939 14.879 14.807 14.787 14.709 14.674 14.597 14.587 14.584 14.579 14.557 14.464 14.337 14.317 14.417 14.639 14.944 15.042 14.604 14.087 13.739 13.577 13.549
42.721 42.779 42.781 42.789 42.829 42.861 42.894 42.949 42.981 43.029 43.034 43.066 43.109 43.149 43.176 43.216 43.226 43.281 43.336 43.364 43.361 43.374 43.359 43.369 43.381 43.389 43.429 43.411 43.394 43.389 43.399 43.386 43.449 43.501 43.524 43.541 43.551 43.569 43.566 43.604 43.619 43.669 43.689 43.699 43.691 43.716 43.734 43.724 43.784 43.789 43.804 43.821 43.836 43.879 43.894 43.941 43.971 43.964 43.979 43.981 44.001 44.001 43.951 43.911 43.899 43.874 43.881 43.849 43.864 43.851 43.869 43.896 43.939 43.931 43.914 43.874 43.854 43.836 43.826 43.811 43.759 43.646 43.551 43.619 44.619 43.709 43.451 43.456 43.529 43.564 43.564 43.551 43.559 43.534 43.534 43.544 43.521 43.524 43.481 43.441 43.421 43.369 43.359 43.326 43.261 43.236 43.189 43.174 43.154 43.099 43.094 43.036 43.006 42.986 42.951 42.966 42.936 42.921 42.951 42.924 42.949 42.944 42.901 42.911 42.901 42.859 42.799 42.796 42.731 42.696 42.671 42.669 42.619 42.626 42.584 42.516 42.486 42.419 42.356 42.316 42.284 42.279 42.256 42.244 42.186 42.121 42.054 41.999 41.911 41.911 41.886 41.874 41.814 42.301 42.601 41.409 41.489 41.476 42.771 42.606 40.976 40.956 40.929 40.884 40.739 40.599 40.426 40.334 40.249 40.211 40.179 40.189 40.156 40.091 40.044 39.906 39.821 39.724 39.604 39.491 39.391 39.256 39.156 39.036 38.919 38.806 38.679 38.564 38.421 38.316 38.166 38.014 37.892 37.744 37.579 37.402 37.237 37.079 36.899 36.737 36.544 36.379 36.202 36.022 35.812 35.659 35.497 35.314 35.132 34.942 34.794 34.617 34.434 34.242 34.094 33.879 33.762 33.622 33.477 33.284 33.174 32.997 32.822 32.614 32.414 32.184 31.989 31.809 31.589 31.417 31.237 31.047 30.852 30.697 30.497 30.367 30.217 30.009 29.874 29.699 29.549 29.402 29.249 29.089 28.947 28.794 28.624 28.469 28.302 28.167 27.962 27.839 27.687 27.519 27.379 27.209 27.067 26.914 26.802 26.664 26.539 26.372 26.219 26.094 25.934 25.797 25.662 25.564 25.419 25.292 25.172 25.022 24.919 24.802 24.727 24.594 24.507 24.434 24.344 24.309 24.229 24.199 24.109 23.989 23.859 23.729 23.617 23.532 23.457 23.369 23.237 23.084 22.982 22.782 22.597 22.487 22.344 22.262 22.214 22.187 22.127 22.034 21.947 21.784 21.697 21.572 21.492 21.427 21.352 21.302 21.187 21.152 21.049 20.979 20.884 20.834 20.769 20.699 20.587 20.507 20.424 20.359 20.312 20.204 20.172 20.112 20.064 20.017 19.939 19.877 19.852 19.799 19.699 19.584 19.482 19.389 19.299 19.184 19.124 19.024 18.932 18.884 18.844 18.779 18.689 18.599 18.532 18.492 18.427 18.364 18.282 18.217 18.134 18.047 17.944 17.897 17.792 17.729 17.664 17.594 17.522 17.442 17.402 17.344 17.269 17.229 17.164 17.119 17.077 17.002 16.964 16.934 16.909 16.822 16.767 16.709 16.762 16.722 16.654 16.579 16.499 16.467 16.354 16.307 16.234 16.219 16.159 16.139 16.054 15.992 15.942 15.882 15.827 15.802 15.737 15.677 15.624 15.537 15.517 15.472 15.414 15.372 15.277 15.262 15.189 15.132 15.097 15.037 14.977 14.919 14.857 14.779 14.722 14.654 14.652 14.597 14.629 14.627 14.594 14.487 14.334 14.407 14.929 15.172 14.624 14.184 13.914 13.809 13.694 13.637 13.559
42.784 42.799 42.861 42.859 42.871 42.904 42.949 42.989 43.019 43.076 43.086 43.126 43.191 43.199 43.214 43.246 43.276 43.334 43.389 43.406 43.401 43.399 43.381 43.401 43.404 43.411 43.434 43.456 43.429 43.424 43.414 43.436 43.481 43.531 43.564 43.579 43.609 43.576 43.606 43.646 43.684 43.719 43.736 43.739 43.746 43.739 43.754 43.769 43.826 43.834 43.846 43.874 43.896 43.926 43.946 43.971 43.999 44.026 44.016 44.039 44.029 44.031 43.989 43.946 43.954 43.931 43.924 43.921 43.939 43.936 43.944 43.989 44.001 43.989 43.969 43.951 43.909 43.871 43.861 43.884 43.856 43.731 43.636 44.001 44.911 43.876 43.539 43.561 43.646 43.649 43.664 43.601 43.616 43.629 43.621 43.596 43.589 43.564 43.519 43.494 43.471 43.434 43.411 43.389 43.314 43.256 43.254 43.226 43.176 43.131 43.129 43.079 43.036 43.009 43.011 42.996 42.969 42.976 42.974 42.944 42.979 42.966 42.954 42.921 42.911 42.876 42.816 42.791 42.756 42.691 42.674 42.669 42.649 42.651 42.599 42.531 42.476 42.439 42.401 42.354 42.311 42.316 42.274 42.256 42.196 42.139 42.079 41.994 41.946 41.909 41.934 41.859 41.834 42.529 41.879 41.449 41.421 41.861 42.901 41.771 40.906 40.951 40.859 40.809 40.664 40.544 40.424 40.341 40.259 40.194 40.226 40.209 40.161 40.096 40.044 39.929 39.839 39.726 39.609 39.491 39.386 39.284 39.151 39.044 38.916 38.791 38.679 38.554 38.444 38.306 38.191 38.052 37.897 37.732 37.554 37.382 37.227 37.094 36.909 36.739 36.559 36.367 36.207 36.024 35.847 35.689 35.479 35.289 35.142 34.952 34.777 34.602 34.444 34.257 34.097 33.959 33.782 33.619 33.484 33.337 33.189 32.994 32.814 32.637 32.417 32.212 31.992 31.779 31.607 31.427 31.239 31.069 30.892 30.737 30.544 30.404 30.254 30.039 29.884 29.717 29.532 29.412 29.244 29.102 28.939 28.797 28.669 28.524 28.359 28.149 28.052 27.872 27.694 27.557 27.392 27.262 27.117 26.934 26.812 26.659 26.557 26.399 26.274 26.127 26.019 25.854 25.697 25.577 25.449 25.319 25.179 25.067 24.937 24.784 24.669 24.569 24.474 24.422 24.362 24.297 24.207 24.157 24.057 23.954 23.839 23.712 23.604 23.559 23.462 23.372 23.234 23.097 22.929 22.742 22.594 22.422 22.359 22.287 22.224 22.207 22.139 22.039 21.934 21.802 21.682 21.584 21.497 21.442 21.347 21.292 21.199 21.109 21.014 20.954 20.867 20.829 20.762 20.674 20.594 20.499 20.414 20.362 20.312 20.207 20.172 20.099 20.042 19.992 19.947 19.894 19.827 19.792 19.717 19.617 19.469 19.399 19.312 19.177 19.074 18.979 18.914 18.847 18.814 18.724 18.657 18.572 18.472 18.457 18.384 18.319 18.252 18.177 18.104 18.019 17.947 17.864 17.797 17.712 17.647 17.569 17.502 17.442 17.389 17.347 17.254 17.209 17.144 17.092 17.064 16.972 16.972 16.939 16.934 16.809 16.784 16.712 16.697 16.774 16.639 16.604 16.529 16.469 16.377 16.317 16.259 16.242 16.179 16.134 16.069 16.009 15.964 15.914 15.844 15.804 15.784 15.699 15.649 15.579 15.552 15.482 15.452 15.409 15.322 15.277 15.212 15.137 15.134 15.064 14.987 14.942 14.874 14.799 14.739 14.697 14.654 14.644 14.634 14.647 14.592 14.517 14.414 14.487 14.892 14.712 14.159 14.029 13.919 13.829 13.744 13.677 13.577
42.854 42.884 42.909 42.884 42.934 42.954 43.021 43.019 43.066 43.114 43.144 43.186 43.231 43.271 43.271 43.294 43.324 43.384 43.414 43.439 43.439 43.409 43.419 43.434 43.436 43.459 43.479 43.469 43.464 43.454 43.459 43.471 43.531 43.579 43.594 43.611 43.624 43.621 43.659 43.686 43.711 43.739 43.756 43.771 43.786 43.781 43.781 43.824 43.864 43.849 43.916 43.891 43.916 43.951 44.004 44.021 44.054 44.056 44.054 44.071 44.071 44.079 44.021 44.006 43.984 43.954 43.999 43.966 43.961 44.004 44.014 44.056 44.086 44.049 44.031 44.021 43.974 43.946 43.946 43.971 43.946 43.794 43.731 44.591 44.841 43.714 43.659 43.699 43.739 43.749 43.751 43.666 43.681 43.674 43.654 43.661 43.644 43.624 43.571 43.536 43.496 43.484 43.439 43.431 43.379 43.339 43.291 43.266 43.201 43.199 43.134 43.094 43.059 43.036 43.031 43.046 43.024 43.019 43.024 43.024 42.999 43.004 42.999 42.971 42.976 42.894 42.836 42.816 42.784 42.724 42.701 42.694 42.706 42.679 42.639 42.579 42.509 42.464 42.416 42.364 42.346 42.334 42.316 42.264 42.221 42.134 42.074 42.021 42.009 41.929 41.946 41.869 41.951 42.734 41.784 41.529 41.471 42.369 42.734 41.001 40.861 40.851 40.794 40.696 40.569 40.504 40.416 40.371 40.301 40.266 40.276 40.209 40.194 40.119 40.056 39.949 39.851 39.749 39.614 39.486 39.386 39.274 39.154 39.051 38.906 38.776 38.671 38.536 38.426 38.294 38.151 38.027 37.894 37.742 37.582 37.409 37.254 37.067 36.914 36.717 36.534 36.362 36.194 36.012 35.812 35.669 35.499 35.299 35.147 34.974 34.799 34.622 34.452 34.252 34.122 33.957 33.779 33.624 33.459 33.339 33.209 33.017 32.814 32.612 32.439 32.249 32.019 31.832 31.622 31.442 31.257 31.089 30.869 30.702 30.594 30.407 30.242 30.072 29.914 29.757 29.612 29.434 29.269 29.124 28.967 28.809 28.662 28.522 28.367 28.204 28.077 27.897 27.737 27.607 27.442 27.292 27.142 26.967 26.849 26.707 26.532 26.389 26.264 26.139 25.997 25.877 25.724 25.607 25.494 25.339 25.199 25.067 24.924 24.817 24.677 24.577 24.462 24.382 24.324 24.237 24.172 24.134 24.032 23.909 23.802 23.664 23.607 23.557 23.484 23.357 23.249 23.104 22.872 22.704 22.549 22.417 22.339 22.269 22.257 22.214 22.139 22.057 21.952 21.822 21.684 21.572 21.492 21.409 21.312 21.242 21.144 21.087 20.979 20.907 20.854 20.812 20.737 20.657 20.574 20.479 20.417 20.352 20.297 20.202 20.142 20.079 20.009 19.982 19.907 19.882 19.854 19.804 19.712 19.599 19.479 19.397 19.317 19.179 19.047 18.977 18.884 18.804 18.767 18.669 18.624 18.544 18.489 18.432 18.399 18.327 18.212 18.164 18.104 18.017 17.924 17.854 17.797 17.719 17.639 17.614 17.507 17.442 17.372 17.317 17.249 17.227 17.149 17.104 17.059 17.004 16.972 16.959 16.922 16.832 16.802 16.734 16.722 16.787 16.642 16.617 16.557 16.464 16.377 16.337 16.299 16.259 16.209 16.142 16.104 16.022 15.962 15.929 15.874 15.867 15.824 15.707 15.679 15.607 15.577 15.487 15.449 15.397 15.357 15.317 15.229 15.172 15.137 15.082 15.002 14.969 14.919 14.849 14.774 14.712 14.669 14.677 14.662 14.659 14.639 14.512 14.444 14.524 15.369 15.014 14.174 14.032 13.919 13.817 13.762 13.702 13.602
42.919 42.959 42.971 42.939 42.959 43.014 43.049 43.084 43.124 43.144 43.194 43.214 43.276 43.301 43.311 43.334 43.389 43.454 43.464 43.474 43.476 43.464 43.454 43.474 43.476 43.506 43.526 43.514 43.516 43.504 43.499 43.529 43.596 43.629 43.636 43.641 43.664 43.664 43.689 43.714 43.746 43.784 43.801 43.819 43.801 43.804 43.809 43.869 43.889 43.901 43.931 43.934 43.964 43.989 44.044 44.066 44.084 44.064 44.081 44.111 44.094 44.109 44.054 44.044 44.041 44.036 44.019 44.014 44.011 44.049 44.089 44.116 44.141 44.119 44.074 44.061 44.026 44.006 44.009 44.031 43.986 43.891 43.844 45.111 44.664 43.769 43.741 43.791 43.839 43.794 43.776 43.729 43.719 43.704 43.699 43.691 43.686 43.654 43.616 43.569 43.574 43.546 43.506 43.476 43.429 43.406 43.354 43.351 43.291 43.231 43.161 43.141 43.114 43.104 43.101 43.091 43.071 43.081 43.101 43.076 43.096 43.059 43.074 43.029 42.951 42.921 42.866 42.859 42.821 42.756 42.726 42.706 42.721 42.679 42.654 42.584 42.551 42.501 42.421 42.374 42.389 42.369 42.336 42.281 42.189 42.146 42.089 42.029 42.001 41.944 41.941 41.894 42.381 42.816 41.479 41.526 41.444 42.609 42.291 40.871 40.836 40.799 40.754 40.666 40.526 40.449 40.351 40.319 40.294 40.289 40.296 40.281 40.216 40.161 40.074 39.941 39.844 39.741 39.629 39.496 39.389 39.269 39.141 39.026 38.906 38.776 38.664 38.554 38.409 38.256 38.119 38.007 37.839 37.724 37.542 37.387 37.232 37.079 36.934 36.759 36.599 36.402 36.244 36.024 35.854 35.652 35.474 35.312 35.172 34.967 34.812 34.654 34.484 34.294 34.122 33.954 33.797 33.659 33.489 33.334 33.167 33.002 32.797 32.587 32.417 32.217 32.032 31.844 31.642 31.457 31.282 31.092 30.899 30.739 30.599 30.399 30.259 30.067 29.917 29.749 29.599 29.429 29.292 29.129 28.994 28.814 28.712 28.529 28.387 28.207 28.059 27.947 27.794 27.614 27.452 27.284 27.164 26.997 26.854 26.712 26.554 26.427 26.287 26.139 26.004 25.872 25.734 25.602 25.487 25.339 25.199 25.067 24.949 24.802 24.664 24.549 24.487 24.384 24.277 24.192 24.112 23.992 23.927 23.842 23.739 23.669 23.594 23.542 23.474 23.372 23.234 23.067 22.842 22.697 22.517 22.422 22.342 22.277 22.254 22.229 22.127 22.047 21.919 21.802 21.677 21.584 21.467 21.379 21.292 21.207 21.112 21.029 20.962 20.887 20.862 20.784 20.709 20.654 20.554 20.487 20.389 20.317 20.254 20.189 20.139 20.069 20.004 19.969 19.914 19.894 19.852 19.804 19.702 19.627 19.507 19.382 19.269 19.174 19.049 18.962 18.872 18.794 18.759 18.672 18.604 18.527 18.454 18.457 18.407 18.312 18.217 18.147 18.087 18.022 17.942 17.832 17.772 17.689 17.634 17.572 17.517 17.467 17.399 17.344 17.259 17.219 17.162 17.124 17.067 17.009 16.967 16.937 16.922 16.869 16.817 16.739 16.759 16.757 16.669 16.624 16.547 16.479 16.407 16.357 16.317 16.284 16.224 16.142 16.117 16.039 15.999 15.947 15.904 15.854 15.817 15.719 15.699 15.669 15.584 15.482 15.474 15.434 15.404 15.342 15.272 15.204 15.157 15.094 15.027 14.997 14.929 14.872 14.809 14.732 14.712 14.709 14.712 14.684 14.632 14.569 14.479 14.547 15.537 14.789 14.182 14.064 13.967 13.867 13.779 13.744 13.669
42.954 42.976 43.004 42.994 43.026 43.069 43.106 43.126 43.181 43.181 43.236 43.289 43.311 43.354 43.351 43.396 43.464 43.489 43.506 43.509 43.544 43.519 43.496 43.536 43.531 43.556 43.571 43.579 43.544 43.531 43.551 43.574 43.619 43.631 43.684 43.684 43.691 43.721 43.721 43.771 43.774 43.799 43.816 43.851 43.839 43.859 43.856 43.906 43.901 43.939 43.966 43.959 43.996 44.031 44.051 44.089 44.119 44.129 44.131 44.144 44.119 44.129 44.081 44.069 44.079 44.071 44.061 44.041 44.076 44.109 44.146 44.194 44.211 44.174 44.134 44.119 44.091 44.046 44.049 44.066 44.031 43.919 43.989 45.534 44.291 43.824 43.779 43.866 43.896 43.831 43.789 43.759 43.764 43.744 43.729 43.721 43.714 43.686 43.656 43.621 43.616 43.596 43.574 43.531 43.491 43.471 43.426 43.399 43.336 43.306 43.239 43.216 43.151 43.146 43.161 43.169 43.126 43.134 43.146 43.134 43.121 43.129 43.114 43.031 43.026 42.961 42.906 42.871 42.816 42.811 42.756 42.739 42.746 42.706 42.661 42.611 42.546 42.519 42.469 42.426 42.411 42.369 42.326 42.291 42.241 42.184 42.101 42.061 41.994 41.986 41.949 41.946 42.694 42.074 41.536 41.481 41.756 42.699 41.689 40.814 40.814 40.801 40.736 40.619 40.514 40.411 40.364 40.311 40.279 40.259 40.279 40.251 40.189 40.114 40.044 39.946 39.834 39.744 39.629 39.521 39.374 39.281 39.149 39.014 38.874 38.734 38.654 38.501 38.359 38.249 38.129 37.959 37.844 37.679 37.544 37.374 37.229 37.049 36.894 36.712 36.564 36.402 36.234 36.059 35.879 35.672 35.482 35.334 35.154 34.974 34.829 34.644 34.457 34.292 34.119 33.989 33.824 33.682 33.547 33.377 33.204 33.007 32.822 32.587 32.384 32.204 32.004 31.814 31.624 31.459 31.274 31.109 30.934 30.782 30.594 30.459 30.294 30.099 29.929 29.757 29.612 29.434 29.292 29.127 28.972 28.822 28.677 28.532 28.394 28.257 28.077 27.947 27.807 27.639 27.489 27.322 27.144 27.002 26.844 26.704 26.572 26.439 26.289 26.172 26.019 25.904 25.742 25.592 25.454 25.297 25.204 25.074 24.922 24.779 24.652 24.557 24.442 24.334 24.217 24.157 24.047 23.954 23.847 23.764 23.684 23.664 23.619 23.539 23.474 23.347 23.217 22.997 22.802 22.627 22.517 22.412 22.334 22.309 22.269 22.209 22.132 22.029 21.922 21.794 21.654 21.559 21.449 21.352 21.254 21.177 21.107 21.009 20.932 20.874 20.807 20.754 20.679 20.609 20.524 20.479 20.379 20.304 20.222 20.184 20.137 20.067 20.004 19.944 19.909 19.899 19.852 19.792 19.702 19.604 19.517 19.362 19.277 19.127 19.034 18.964 18.852 18.797 18.727 18.659 18.589 18.567 18.499 18.469 18.412 18.322 18.244 18.154 18.089 18.042 17.949 17.829 17.799 17.674 17.654 17.609 17.542 17.459 17.402 17.339 17.282 17.224 17.172 17.132 17.064 17.019 16.989 16.992 16.924 16.882 16.837 16.782 16.772 16.809 16.667 16.622 16.582 16.514 16.447 16.389 16.367 16.307 16.262 16.164 16.134 16.062 16.032 15.977 15.904 15.872 15.839 15.752 15.697 15.662 15.612 15.534 15.492 15.477 15.427 15.329 15.299 15.232 15.167 15.114 15.034 15.042 14.964 14.904 14.827 14.767 14.739 14.734 14.704 14.697 14.642 14.604 14.502 14.562 15.659 15.144 14.212 14.099 13.987 13.939 13.862 13.802 13.732
43.014 43.066 43.029 43.041 43.076 43.151 43.164 43.196 43.214 43.251 43.276 43.329 43.349 43.391 43.401 43.436 43.499 43.509 43.529 43.554 43.554 43.544 43.564 43.569 43.571 43.609 43.626 43.596 43.581 43.581 43.604 43.634 43.669 43.681 43.714 43.716 43.724 43.749 43.774 43.806 43.831 43.846 43.871 43.896 43.884 43.916 43.916 43.934 43.936 43.979 43.989 43.976 44.009 44.066 44.096 44.141 44.151 44.166 44.164 44.171 44.136 44.131 44.099 44.101 44.096 44.109 44.094 44.081 44.129 44.166 44.229 44.251 44.251 44.221 44.186 44.164 44.124 44.124 44.111 44.129 44.034 43.971 44.309 45.951 44.299 43.804 43.859 43.899 43.921 43.894 43.809 43.826 43.789 43.794 43.789 43.794 43.754 43.741 43.716 43.646 43.679 43.636 43.616 43.561 43.536 43.529 43.496 43.481 43.411 43.399 43.294 43.274 43.216 43.206 43.211 43.199 43.196 43.194 43.194 43.179 43.191 43.189 43.149 43.116 43.059 42.986 42.929 42.914 42.841 42.821 42.809 42.794 42.786 42.739 42.691 42.629 42.571 42.531 42.479 42.434 42.426 42.379 42.349 42.279 42.246 42.169 42.071 42.094 42.021 42.016 41.961 42.229 42.759 41.601 41.586 41.519 42.061 42.789 41.149 40.819 40.816 40.814 40.734 40.591 40.504 40.416 40.391 40.376 40.316 40.276 40.296 40.259 40.191 40.126 40.011 39.914 39.814 39.709 39.606 39.506 39.374 39.279 39.161 39.029 38.901 38.749 38.601 38.461 38.324 38.224 38.091 37.944 37.802 37.664 37.532 37.369 37.229 37.042 36.889 36.744 36.567 36.367 36.212 36.027 35.839 35.654 35.519 35.332 35.179 34.987 34.837 34.649 34.462 34.309 34.142 33.994 33.834 33.674 33.539 33.357 33.189 33.014 32.864 32.659 32.444 32.247 32.042 31.837 31.642 31.444 31.257 31.087 30.909 30.759 30.572 30.417 30.249 30.084 29.954 29.774 29.599 29.444 29.299 29.117 28.962 28.809 28.652 28.517 28.414 28.259 28.102 27.952 27.814 27.664 27.489 27.299 27.139 26.974 26.859 26.699 26.567 26.389 26.262 26.154 26.022 25.854 25.749 25.607 25.447 25.312 25.177 25.062 24.897 24.774 24.637 24.492 24.362 24.264 24.182 24.079 24.014 23.902 23.789 23.724 23.662 23.619 23.564 23.514 23.409 23.314 23.162 22.909 22.764 22.562 22.484 22.369 22.312 22.294 22.244 22.212 22.107 22.017 21.887 21.774 21.639 21.524 21.424 21.342 21.232 21.137 21.079 20.972 20.934 20.852 20.792 20.692 20.657 20.587 20.512 20.462 20.379 20.282 20.204 20.142 20.119 20.044 19.987 19.912 19.912 19.897 19.852 19.762 19.689 19.594 19.504 19.362 19.244 19.119 19.017 18.939 18.837 18.797 18.717 18.649 18.607 18.584 18.519 18.462 18.392 18.317 18.264 18.152 18.107 18.029 17.952 17.849 17.807 17.707 17.647 17.594 17.547 17.474 17.414 17.362 17.304 17.262 17.197 17.132 17.079 17.029 17.007 16.962 16.942 16.884 16.839 16.777 16.762 16.819 16.687 16.604 16.557 16.524 16.442 16.409 16.369 16.327 16.289 16.214 16.152 16.094 16.049 15.999 15.937 15.912 15.859 15.759 15.739 15.687 15.619 15.549 15.484 15.452 15.397 15.349 15.329 15.234 15.202 15.149 15.084 15.064 15.027 14.947 14.872 14.819 14.782 14.754 14.754 14.742 14.657 14.632 14.532 14.564 15.599 15.557 14.264 14.154 14.049 13.987 13.917 13.817 13.762
43.076 43.089 43.091 43.101 43.151 43.186 43.184 43.236 43.279 43.286 43.321 43.366 43.394 43.431 43.441 43.484 43.519 43.566 43.576 43.571 43.594 43.589 43.581 43.594 43.621 43.639 43.649 43.631 43.631 43.631 43.656 43.679 43.724 43.736 43.786 43.781 43.761 43.791 43.826 43.861 43.871 43.876 43.904 43.924 43.929 43.929 43.971 43.986 43.986 44.004 44.009 44.009 44.051 44.114 44.139 44.159 44.166 44.196 44.204 44.186 44.144 44.156 44.099 44.126 44.104 44.129 44.126 44.144 44.176 44.191 44.246 44.291 44.291 44.266 44.249 44.214 44.184 44.161 44.161 44.154 44.039 43.986 44.594 45.526 44.136 43.876 43.919 43.979 43.939 43.919 43.831 43.864 43.841 43.836 43.841 43.816 43.791 43.766 43.734 43.689 43.711 43.671 43.649 43.649 43.594 43.574 43.574 43.534 43.489 43.459 43.371 43.339 43.299 43.259 43.266 43.244 43.271 43.261 43.261 43.241 43.251 43.229 43.194 43.151 43.066 43.014 42.944 42.929 42.881 42.871 42.829 42.814 42.801 42.784 42.686 42.641 42.599 42.554 42.499 42.454 42.424 42.409 42.379 42.264 42.236 42.154 42.069 42.089 42.014 42.034 41.961 42.401 42.291 41.574 41.604 41.524 42.614 43.471 40.856 40.816 40.821 40.811 40.709 40.594 40.496 40.416 40.394 40.374 40.346 40.341 40.326 40.281 40.161 40.104 39.996 39.881 39.794 39.691 39.606 39.491 39.359 39.254 39.136 39.014 38.866 38.714 38.606 38.456 38.314 38.169 38.059 37.922 37.774 37.644 37.519 37.352 37.212 37.057 36.869 36.717 36.537 36.357 36.177 36.009 35.829 35.667 35.502 35.314 35.167 34.982 34.832 34.669 34.509 34.332 34.167 33.979 33.799 33.674 33.517 33.347 33.202 32.974 32.847 32.622 32.429 32.202 32.019 31.852 31.677 31.499 31.289 31.114 30.924 30.759 30.592 30.434 30.252 30.094 29.957 29.767 29.632 29.447 29.282 29.137 28.982 28.832 28.682 28.509 28.362 28.219 28.047 27.949 27.827 27.632 27.462 27.324 27.184 27.009 26.874 26.734 26.572 26.402 26.287 26.122 25.992 25.854 25.734 25.579 25.432 25.299 25.147 25.032 24.874 24.774 24.637 24.477 24.359 24.224 24.122 24.029 23.942 23.832 23.737 23.647 23.614 23.584 23.509 23.439 23.354 23.267 23.077 22.882 22.692 22.527 22.412 22.372 22.319 22.289 22.209 22.174 22.094 21.989 21.889 21.767 21.609 21.509 21.379 21.284 21.184 21.099 20.997 20.927 20.909 20.857 20.752 20.717 20.649 20.554 20.472 20.422 20.349 20.262 20.219 20.177 20.069 19.994 19.962 19.904 19.877 19.857 19.797 19.759 19.644 19.569 19.484 19.322 19.237 19.107 18.982 18.929 18.847 18.779 18.707 18.664 18.617 18.577 18.532 18.482 18.409 18.327 18.267 18.159 18.109 18.049 17.939 17.867 17.799 17.709 17.669 17.602 17.557 17.477 17.432 17.369 17.332 17.262 17.202 17.137 17.092 17.024 17.017 16.954 16.962 16.874 16.864 16.789 16.769 16.827 16.669 16.584 16.549 16.572 16.464 16.419 16.384 16.312 16.282 16.209 16.169 16.109 16.064 15.997 15.959 15.922 15.894 15.792 15.767 15.694 15.627 15.604 15.547 15.489 15.437 15.359 15.302 15.237 15.189 15.159 15.087 15.072 15.037 14.957 14.877 14.839 14.807 14.789 14.797 14.742 14.664 14.637 14.547 14.597 15.442 15.499 14.284 14.117 14.059 13.982 13.919 13.852 13.782
43.139 43.159 43.144 43.161 43.194 43.236 43.251 43.289 43.304 43.346 43.389 43.409 43.424 43.489 43.486 43.554 43.591 43.629 43.656 43.614 43.644 43.651 43.649 43.651 43.676 43.691 43.671 43.656 43.651 43.651 43.686 43.736 43.771 43.809 43.786 43.826 43.784 43.836 43.876 43.921 43.921 43.926 43.961 43.959 43.931 43.956 44.011 44.016 44.034 44.046 44.061 44.066 44.099 44.159 44.174 44.186 44.201 44.196 44.221 44.211 44.184 44.149 44.139 44.131 44.146 44.169 44.161 44.169 44.209 44.236 44.324 44.344 44.336 44.304 44.279 44.236 44.211 44.214 44.209 44.179 44.044 44.031 45.029 44.876 43.936 43.934 43.966 43.999 43.979 43.944 43.904 43.871 43.876 43.869 43.834 43.861 43.801 43.759 43.771 43.711 43.744 43.694 43.676 43.664 43.641 43.606 43.594 43.539 43.526 43.484 43.469 43.394 43.379 43.361 43.311 43.276 43.316 43.291 43.296 43.299 43.291 43.256 43.224 43.199 43.124 43.049 42.984 42.969 42.926 42.899 42.854 42.831 42.806 42.794 42.721 42.671 42.634 42.576 42.529 42.486 42.469 42.401 42.376 42.311 42.239 42.166 42.124 42.091 42.044 42.046 41.979 42.786 42.046 41.609 41.616 41.979 43.284 42.306 40.836 40.819 40.829 40.784 40.681 40.584 40.479 40.394 40.376 40.366 40.324 40.329 40.306 40.221 40.156 40.061 39.994 39.889 39.769 39.691 39.586 39.454 39.334 39.224 39.081 38.974 38.836 38.699 38.571 38.421 38.304 38.179 38.041 37.937 37.772 37.619 37.484 37.342 37.192 37.037 36.882 36.699 36.497 36.359 36.162 35.969 35.827 35.644 35.489 35.332 35.174 34.982 34.839 34.642 34.464 34.314 34.157 34.007 33.837 33.697 33.537 33.344 33.187 32.987 32.792 32.632 32.449 32.234 32.017 31.844 31.672 31.492 31.287 31.139 30.959 30.777 30.619 30.444 30.304 30.137 29.967 29.762 29.617 29.444 29.254 29.122 28.982 28.827 28.682 28.534 28.367 28.234 28.077 27.907 27.769 27.632 27.474 27.299 27.179 27.022 26.859 26.714 26.597 26.447 26.307 26.114 25.972 25.834 25.702 25.557 25.407 25.277 25.134 24.999 24.844 24.719 24.604 24.454 24.314 24.219 24.112 23.977 23.869 23.772 23.672 23.587 23.557 23.527 23.489 23.422 23.314 23.194 23.009 22.847 22.639 22.502 22.409 22.304 22.289 22.267 22.197 22.137 22.039 21.947 21.889 21.744 21.589 21.479 21.344 21.267 21.169 21.069 20.972 20.904 20.867 20.812 20.737 20.682 20.609 20.529 20.452 20.382 20.322 20.237 20.184 20.127 20.054 19.984 19.937 19.872 19.869 19.837 19.779 19.762 19.624 19.554 19.459 19.309 19.212 19.127 19.004 18.897 18.832 18.772 18.707 18.649 18.622 18.562 18.539 18.462 18.382 18.309 18.269 18.187 18.122 18.057 17.952 17.857 17.774 17.732 17.652 17.612 17.559 17.474 17.424 17.387 17.354 17.267 17.229 17.127 17.112 17.052 16.992 16.937 16.957 16.874 16.872 16.809 16.787 16.857 16.702 16.592 16.599 16.559 16.482 16.444 16.359 16.307 16.282 16.207 16.169 16.109 16.072 16.022 15.974 15.934 15.897 15.817 15.774 15.714 15.659 15.602 15.572 15.499 15.449 15.389 15.342 15.279 15.232 15.192 15.137 15.099 15.042 14.959 14.907 14.872 14.839 14.787 14.772 14.757 14.694 14.667 14.587 14.567 15.337 15.844 14.379 14.144 14.047 14.009 13.917 13.854 13.797
43.206 43.191 43.189 43.206 43.229 43.271 43.314 43.336 43.369 43.386 43.431 43.476 43.476 43.516 43.544 43.581 43.654 43.656 43.671 43.654 43.691 43.684 43.659 43.689 43.724 43.756 43.731 43.704 43.679 43.699 43.774 43.796 43.814 43.836 43.859 43.846 43.854 43.904 43.926 43.954 43.994 43.994 44.001 43.986 44.006 44.009 44.039 44.039 44.076 44.091 44.109 44.114 44.119 44.171 44.211 44.221 44.219 44.221 44.246 44.234 44.211 44.144 44.156 44.174 44.189 44.181 44.176 44.194 44.241 44.286 44.354 44.379 44.369 44.334 44.286 44.271 44.264 44.259 44.266 44.156 44.051 44.201 45.641 44.439 43.984 43.946 44.031 44.029 44.009 43.976 43.934 43.911 43.901 43.891 43.884 43.859 43.791 43.771 43.779 43.744 43.766 43.729 43.701 43.676 43.679 43.664 43.624 43.589 43.576 43.554 43.494 43.474 43.436 43.419 43.394 43.364 43.359 43.366 43.331 43.324 43.334 43.276 43.244 43.226 43.134 43.081 43.014 42.954 42.946 42.934 42.876 42.856 42.856 42.804 42.736 42.701 42.646 42.616 42.549 42.519 42.469 42.431 42.384 42.329 42.214 42.159 42.136 42.076 42.029 42.006 42.246 42.776 41.689 41.646 41.579 42.321 42.666 41.189 40.834 40.791 40.791 40.736 40.659 40.591 40.454 40.394 40.396 40.379 40.371 40.339 40.306 40.209 40.144 40.046 39.979 39.861 39.729 39.669 39.544 39.439 39.334 39.216 39.061 38.926 38.779 38.654 38.554 38.404 38.281 38.134 38.001 37.884 37.754 37.617 37.474 37.337 37.179 37.022 36.877 36.687 36.489 36.317 36.132 35.974 35.774 35.624 35.449 35.294 35.127 34.919 34.792 34.624 34.474 34.297 34.149 33.987 33.852 33.662 33.529 33.342 33.202 32.987 32.822 32.594 32.459 32.254 32.059 31.874 31.677 31.484 31.272 31.079 30.937 30.772 30.627 30.442 30.272 30.122 29.934 29.814 29.632 29.447 29.267 29.099 28.957 28.809 28.659 28.522 28.359 28.212 28.089 27.932 27.809 27.627 27.487 27.312 27.142 26.984 26.819 26.697 26.542 26.399 26.259 26.122 25.994 25.839 25.702 25.569 25.394 25.274 25.127 24.977 24.837 24.677 24.549 24.422 24.307 24.187 24.054 23.962 23.849 23.717 23.617 23.554 23.494 23.489 23.419 23.347 23.252 23.137 22.914 22.759 22.572 22.477 22.384 22.292 22.264 22.207 22.159 22.114 22.009 21.889 21.834 21.689 21.569 21.417 21.302 21.207 21.097 21.017 20.919 20.854 20.824 20.802 20.709 20.639 20.572 20.522 20.424 20.377 20.312 20.207 20.184 20.099 20.042 19.969 19.902 19.867 19.839 19.812 19.764 19.704 19.622 19.524 19.444 19.299 19.174 19.089 18.969 18.909 18.824 18.732 18.709 18.624 18.614 18.594 18.534 18.474 18.387 18.322 18.267 18.169 18.124 18.057 17.959 17.862 17.789 17.719 17.642 17.607 17.542 17.499 17.462 17.427 17.362 17.279 17.214 17.169 17.099 17.047 16.997 16.924 16.927 16.869 16.854 16.804 16.794 16.849 16.752 16.637 16.629 16.567 16.527 16.474 16.389 16.352 16.317 16.222 16.157 16.094 16.087 16.017 15.992 15.942 15.897 15.794 15.787 15.712 15.679 15.619 15.539 15.497 15.482 15.407 15.359 15.279 15.234 15.199 15.139 15.107 15.052 14.977 14.904 14.872 14.832 14.799 14.782 14.767 14.697 14.672 14.612 14.579 15.239 15.864 14.494 14.184 14.084 14.044 13.949 13.867 13.827
43.291 43.254 43.244 43.246 43.271 43.316 43.349 43.381 43.419 43.441 43.471 43.499 43.546 43.576 43.581 43.646 43.646 43.686 43.714 43.684 43.701 43.724 43.724 43.739 43.766 43.789 43.769 43.769 43.724 43.749 43.824 43.876 43.856 43.886 43.909 43.916 43.916 43.954 43.999 44.026 44.036 44.024 44.046 44.039 44.036 44.066 44.089 44.079 44.111 44.124 44.146 44.151 44.176 44.194 44.221 44.239 44.269 44.264 44.286 44.269 44.241 44.196 44.184 44.171 44.209 44.204 44.216 44.246 44.289 44.326 44.384 44.394 44.366 44.359 44.311 44.311 44.291 44.291 44.301 44.204 44.059 44.589 45.981 44.246 44.011 44.019 44.096 44.064 44.029 43.979 43.944 43.939 43.941 43.919 43.914 43.864 43.849 43.814 43.824 43.776 43.774 43.741 43.744 43.696 43.711 43.681 43.664 43.621 43.619 43.571 43.551 43.534 43.494 43.471 43.451 43.441 43.419 43.396 43.384 43.376 43.351 43.321 43.306 43.216 43.139 43.079 43.044 42.999 42.971 42.949 42.911 42.871 42.894 42.794 42.741 42.706 42.624 42.576 42.564 42.531 42.499 42.464 42.389 42.306 42.199 42.161 42.166 42.069 42.071 42.031 42.594 42.439 41.664 41.646 41.579 42.676 42.356 40.909 40.824 40.799 40.761 40.719 40.636 40.559 40.506 40.436 40.434 40.381 40.381 40.339 40.309 40.244 40.154 40.061 39.944 39.839 39.691 39.601 39.504 39.396 39.284 39.139 39.024 38.899 38.759 38.631 38.516 38.371 38.211 38.109 37.964 37.829 37.692 37.589 37.437 37.292 37.162 37.009 36.844 36.649 36.474 36.297 36.139 35.969 35.802 35.617 35.462 35.314 35.097 34.917 34.787 34.627 34.467 34.314 34.149 33.979 33.842 33.669 33.489 33.319 33.164 32.974 32.789 32.609 32.434 32.272 32.062 31.872 31.689 31.502 31.302 31.122 30.942 30.772 30.599 30.457 30.264 30.117 29.939 29.809 29.632 29.432 29.299 29.137 28.987 28.847 28.699 28.527 28.352 28.209 28.059 27.909 27.774 27.622 27.449 27.302 27.154 26.982 26.857 26.682 26.527 26.394 26.232 26.112 25.952 25.779 25.644 25.542 25.377 25.229 25.119 24.964 24.819 24.662 24.532 24.392 24.247 24.122 24.002 23.884 23.774 23.677 23.562 23.514 23.439 23.427 23.387 23.264 23.177 23.032 22.879 22.662 22.524 22.459 22.337 22.269 22.244 22.197 22.122 22.052 21.987 21.884 21.794 21.649 21.517 21.389 21.267 21.169 21.034 20.939 20.862 20.832 20.792 20.737 20.677 20.592 20.549 20.469 20.397 20.349 20.259 20.197 20.152 20.064 20.002 19.897 19.879 19.852 19.817 19.769 19.729 19.677 19.592 19.494 19.392 19.294 19.147 19.049 18.964 18.907 18.817 18.752 18.684 18.632 18.597 18.552 18.519 18.479 18.387 18.284 18.224 18.152 18.092 18.037 17.967 17.864 17.804 17.719 17.657 17.629 17.557 17.517 17.467 17.397 17.342 17.284 17.212 17.167 17.094 17.034 16.992 16.927 16.922 16.862 16.822 16.792 16.794 16.849 16.709 16.612 16.602 16.597 16.524 16.447 16.409 16.347 16.312 16.217 16.182 16.092 16.074 16.017 15.987 15.914 15.884 15.817 15.772 15.712 15.649 15.619 15.569 15.504 15.439 15.394 15.347 15.317 15.247 15.224 15.144 15.127 15.072 15.014 14.914 14.899 14.849 14.827 14.812 14.749 14.702 14.667 14.622 14.569 15.352 15.864 14.549 14.202 14.119 14.057 13.987 13.934 13.882
43.339 43.299 43.294 43.311 43.339 43.381 43.404 43.436 43.449 43.479 43.534 43.544 43.586 43.589 43.626 43.669 43.721 43.711 43.729 43.699 43.731 43.764 43.764 43.779 43.809 43.821 43.804 43.804 43.761 43.821 43.854 43.906 43.924 43.929 43.956 43.969 43.971 44.011 44.044 44.054 44.034 44.099 44.071 44.079 44.076 44.096 44.109 44.124 44.146 44.171 44.166 44.179 44.241 44.259 44.264 44.259 44.291 44.284 44.301 44.276 44.244 44.211 44.221 44.204 44.231 44.214 44.239 44.274 44.316 44.369 44.416 44.414 44.399 44.386 44.354 44.361 44.351 44.361 44.321 44.196 44.109 45.131 45.496 44.039 44.031 44.079 44.124 44.081 44.051 44.006 43.966 43.949 43.944 43.939 43.934 43.884 43.881 43.824 43.821 43.811 43.814 43.781 43.756 43.734 43.736 43.719 43.671 43.624 43.626 43.619 43.614 43.569 43.549 43.514 43.489 43.479 43.459 43.436 43.389 43.404 43.371 43.351 43.299 43.244 43.191 43.149 43.074 43.021 43.009 42.979 42.966 42.921 42.916 42.824 42.746 42.714 42.646 42.604 42.561 42.539 42.511 42.459 42.371 42.309 42.236 42.194 42.154 42.084 42.049 42.149 42.916 42.124 41.671 41.674 41.906 42.631 41.591 40.866 40.839 40.826 40.801 40.719 40.629 40.581 40.549 40.491 40.434 40.399 40.386 40.359 40.301 40.209 40.119 40.051 39.946 39.811 39.729 39.604 39.479 39.326 39.214 39.084 38.969 38.849 38.701 38.576 38.451 38.334 38.204 38.101 37.941 37.817 37.677 37.529 37.419 37.282 37.129 36.942 36.809 36.604 36.459 36.262 36.089 35.929 35.764 35.612 35.432 35.277 35.109 34.927 34.794 34.632 34.452 34.284 34.132 33.962 33.809 33.642 33.482 33.317 33.159 32.962 32.789 32.622 32.432 32.232 32.062 31.842 31.654 31.479 31.294 31.124 30.967 30.789 30.627 30.467 30.302 30.099 29.959 29.774 29.592 29.444 29.274 29.124 28.949 28.814 28.672 28.554 28.374 28.217 28.074 27.924 27.752 27.614 27.437 27.302 27.134 26.979 26.819 26.652 26.542 26.377 26.247 26.089 25.932 25.764 25.627 25.494 25.357 25.204 25.059 24.887 24.742 24.604 24.497 24.379 24.214 24.102 24.009 23.844 23.737 23.627 23.499 23.482 23.414 23.402 23.304 23.229 23.107 22.917 22.782 22.592 22.479 22.397 22.244 22.239 22.207 22.152 22.104 22.014 21.939 21.827 21.734 21.607 21.472 21.352 21.194 21.104 20.979 20.892 20.829 20.772 20.737 20.677 20.627 20.552 20.489 20.447 20.344 20.324 20.242 20.162 20.094 20.047 19.964 19.897 19.852 19.814 19.772 19.709 19.689 19.647 19.562 19.462 19.382 19.267 19.119 19.034 18.942 18.894 18.804 18.734 18.664 18.624 18.587 18.549 18.497 18.454 18.367 18.282 18.234 18.142 18.114 18.039 17.927 17.832 17.764 17.699 17.629 17.612 17.534 17.494 17.482 17.399 17.339 17.292 17.204 17.144 17.067 17.032 16.962 16.914 16.914 16.832 16.809 16.747 16.729 16.814 16.699 16.604 16.594 16.567 16.529 16.469 16.409 16.359 16.299 16.204 16.199 16.122 16.069 16.009 15.984 15.942 15.914 15.802 15.779 15.694 15.634 15.617 15.542 15.489 15.437 15.372 15.354 15.294 15.232 15.197 15.147 15.119 15.052 15.032 14.944 14.892 14.844 14.809 14.812 14.757 14.707 14.687 14.612 14.532 15.142 15.867 14.729 14.229 14.132 14.084 14.024 13.969 13.877
