ncols 452
nrows 30
xllcorner    461010
yllcorner    86078
cellsize     2
NODATA_value -9999
31.299 31.409 31.866 32.511 33.161 33.339 33.369 33.704 33.781 33.709 33.559 36.241 34.214 33.819 34.014 34.049 34.426 34.696 36.841 34.534 35.789 35.809 34.864 35.401 34.884 35.246 34.961 34.901 36.226 39.261 37.566 36.196 36.319 36.001 36.306 36.806 35.264 35.489 35.329 36.716 35.146 37.546 42.536 37.169 35.469 39.481 39.139 35.424 36.061 35.619 35.221 35.261 35.344 36.641 37.634 37.559 35.304 36.476 37.089 38.154 35.894 34.524 35.226 35.446 33.849 33.914 34.006 34.124 34.214 34.234 34.271 34.284 34.254 34.186 34.081 33.964 33.809 33.626 33.479 33.374 33.289 33.169 33.054 32.924 32.789 32.684 32.544 32.411 32.276 32.174 32.029 31.906 31.751 31.586 31.426 31.294 31.384 31.431 32.011 31.824 31.126 30.869 30.004 29.289 28.496 28.391 28.296 28.209 28.129 28.059 28.006 28.209 28.976 29.454 29.794 29.571 28.271 27.574 27.844 27.934 25.844 25.676 25.484 25.316 25.186 24.976 24.834 24.671 24.471 24.336 24.161 23.994 23.851 23.671 23.531 23.389 23.239 23.099 22.944 22.789 22.631 22.474 22.324 22.171 22.026 21.851 21.699 21.529 21.384 21.239 21.069 20.889 20.721 20.541 20.359 20.194 20.044 19.904 19.744 19.596 19.451 19.281 19.151 18.966 18.821 18.694 18.559 18.404 18.271 18.134 18.024 17.874 17.759 17.589 17.481 17.386 17.269 17.189 17.119 17.014 16.929 16.849 16.784 16.719 16.631 16.544 16.466 16.341 16.261 16.154 16.021 15.891 15.709 15.524 15.334 15.131 14.901 14.738 14.538 14.368 14.233 14.096 13.986 13.856 13.701 13.526 13.398 13.221 13.063 12.926 12.833 12.691 12.531 12.421 12.316 12.213 12.091 11.953 11.901 11.736 11.603 11.463 11.306 11.173 11.041 10.913 10.768 10.633 10.513 10.376 10.231 10.121 9.991 9.896 9.748 9.651 9.576 9.471 9.338 9.256 9.193 9.136 9.066 9.018 8.963 8.926 8.863 8.881 8.851 8.806 8.813 8.776 8.763 8.771 8.753 8.758 8.768 8.768 8.771 8.793 8.871 8.903 8.971 9.041 9.111 9.138 9.251 9.353 9.458 9.551 9.636 9.768 9.891 10.003 10.128 10.241 10.618 11.663 12.003 11.971 11.561 11.641 11.651 11.701 12.018 12.911 13.558 13.728 13.813 13.871 13.923 14.026 14.093 14.101 14.136 14.146 14.121 14.138 14.081 14.046 14.011 13.971 13.903 13.871 13.843 13.796 13.683 13.593 13.486 13.406 13.311 13.203 13.103 12.991 12.898 12.811 12.746 12.636 12.571 12.501 12.401 12.351 12.278 12.213 12.176 12.178 12.126 12.118 12.116 12.078 12.068 12.038 12.033 12.053 12.041 12.091 12.106 12.131 12.171 12.178 12.221 12.271 12.348 12.411 12.521 12.603 12.676 12.773 12.873 12.988 13.143 13.276 13.378 13.511 13.678 13.778 13.911 14.036 14.138 14.288 14.408 14.511 14.623 14.756 14.861 14.963 15.166 15.301 15.466 15.656 15.878 16.293 16.663 16.956 17.226 17.558 17.858 18.138 18.313 18.428 18.608 18.948 19.301 19.598 19.831 20.041 20.311 20.568 20.793 21.083 21.326 21.593 21.863 22.103 22.358 22.603 22.841 23.093 23.483 26.091 26.616 25.768 24.298 24.528 24.686 24.948 25.156 25.331 25.528 25.783 25.983 26.231 26.438 27.223 27.151 27.218 27.641 28.323 29.756 29.936 31.146 32.051 29.013 29.138 29.361 29.593 29.828 30.066 30.251 30.513 30.746 30.961 31.251 31.453 31.731 31.953 32.246 32.508 32.788 33.048 33.333 33.631 33.968 34.266 34.546 34.851 35.203 35.521 35.901 36.206 36.526 36.813
31.189 31.599 32.056 31.809 32.146 32.539 32.716 33.041 33.299 33.799 33.896 34.889 34.891 34.159 34.326 34.539 34.779 34.884 36.226 35.856 37.666 36.824 35.351 35.529 35.681 35.584 37.689 35.706 36.406 38.651 35.891 35.206 38.184 39.464 35.409 35.626 36.436 37.231 35.704 35.976 37.279 36.414 38.211 37.371 38.464 39.084 36.754 36.764 36.979 35.826 36.191 37.376 35.961 36.536 37.264 36.851 36.056 36.019 39.936 38.379 37.084 35.721 36.521 39.044 35.801 34.291 34.181 34.214 34.326 34.409 34.424 34.484 34.464 34.399 34.354 34.211 34.106 33.946 33.781 33.636 33.496 33.349 33.261 33.141 33.031 32.916 32.771 32.639 32.496 32.339 32.209 32.096 31.944 31.806 31.666 31.486 31.306 31.126 30.976 30.804 30.779 31.106 31.771 31.781 30.626 29.511 29.339 28.296 28.111 28.029 27.966 27.881 27.774 27.909 27.894 28.571 29.139 29.291 29.149 30.989 28.429 26.599 26.256 25.641 25.226 25.056 24.954 24.776 24.619 24.454 24.301 24.121 23.949 23.786 23.621 23.446 23.271 23.144 22.984 22.829 22.686 22.569 22.406 22.274 22.131 21.979 21.841 21.691 21.574 21.411 21.234 21.069 20.906 20.744 20.589 20.406 20.201 20.021 19.879 19.724 19.566 19.429 19.261 19.139 19.019 18.831 18.684 18.579 18.421 18.251 18.139 17.996 17.859 17.736 17.634 17.521 17.399 17.299 17.211 17.149 17.056 17.009 16.934 16.831 16.719 16.619 16.511 16.419 16.339 16.224 16.051 15.964 15.751 15.571 15.346 15.128 14.916 14.741 14.568 14.421 14.313 14.178 14.041 13.856 13.716 13.566 13.423 13.286 13.146 13.013 12.863 12.751 12.581 12.466 12.358 12.241 12.118 11.993 11.888 11.768 11.633 11.498 11.356 11.218 11.096 10.963 10.811 10.668 10.541 10.393 10.281 10.148 10.061 9.931 9.796 9.681 9.588 9.486 9.401 9.298 9.221 9.191 9.128 9.071 9.001 8.981 8.943 8.941 8.903 8.883 8.896 8.883 8.868 8.853 8.836 8.843 8.806 8.816 8.846 8.906 8.948 9.006 9.078 9.131 9.201 9.286 9.391 9.473 9.546 9.626 9.743 9.883 10.016 10.128 10.271 10.523 11.841 12.408 11.758 11.483 11.576 11.628 11.726 12.213 13.156 13.591 13.671 13.761 13.848 13.951 14.053 14.133 14.123 14.198 14.216 14.261 14.253 14.228 14.213 14.196 14.166 14.121 14.118 14.038 13.968 13.943 13.858 13.776 13.693 13.581 13.493 13.368 13.291 13.168 13.103 12.983 12.886 12.808 12.723 12.643 12.561 12.506 12.443 12.388 12.351 12.298 12.286 12.238 12.223 12.216 12.158 12.161 12.116 12.131 12.131 12.106 12.131 12.141 12.186 12.233 12.258 12.316 12.371 12.428 12.498 12.563 12.633 12.713 12.788 12.871 12.996 13.118 13.233 13.331 13.463 13.593 13.726 13.888 14.013 14.106 14.216 14.348 14.491 14.621 14.721 14.821 14.931 15.033 15.193 15.363 15.508 15.766 16.103 16.491 16.888 17.256 17.411 17.678 18.013 18.228 18.311 18.411 18.578 18.946 19.343 19.628 19.911 20.168 20.406 20.646 20.873 21.121 21.361 21.621 21.911 22.161 22.403 22.633 22.858 23.113 23.343 24.398 23.808 24.048 24.266 24.533 24.743 24.956 25.126 25.381 25.598 25.798 26.093 26.486 26.623 27.561 27.773 27.728 28.423 28.278 28.016 29.028 28.483 28.701 28.921 29.181 29.411 29.633 29.873 30.096 30.301 30.543 30.793 31.036 31.253 31.401 31.621 31.866 32.168 32.433 32.683 32.998 33.288 33.596 33.868 34.291 35.311 35.163 35.511 36.081 35.808 36.166
31.364 32.964 33.146 31.994 32.476 32.414 32.771 33.104 33.379 33.594 33.896 34.721 35.249 34.546 34.694 34.789 34.974 35.056 35.654 35.761 37.316 35.959 35.664 35.904 36.054 36.664 37.021 36.524 38.359 39.334 35.269 35.509 36.466 36.576 35.659 37.386 36.364 37.441 36.899 36.384 37.504 38.204 40.419 38.026 38.146 38.654 37.796 39.694 38.076 36.854 36.684 36.871 36.494 36.591 39.214 39.744 39.864 38.556 43.596 40.714 36.494 36.319 37.471 39.684 39.336 36.534 36.916 35.539 34.969 34.469 34.554 34.556 34.591 34.601 34.559 34.491 34.354 34.199 34.081 33.931 33.774 33.616 33.476 33.329 33.211 33.091 32.984 32.864 32.731 32.591 32.456 32.301 32.144 31.989 31.854 31.686 31.526 31.371 31.194 31.011 30.809 30.651 30.471 30.439 30.759 31.044 31.186 30.759 29.229 28.726 28.294 27.874 27.774 27.689 27.609 27.514 27.601 27.896 28.171 29.201 29.239 30.091 29.331 28.024 27.821 26.369 25.129 25.291 24.746 24.589 24.416 24.251 24.106 23.919 23.754 23.614 23.454 23.274 23.134 22.974 22.829 22.681 22.519 22.386 22.231 22.109 21.984 21.839 21.679 21.536 21.391 21.216 21.071 20.901 20.736 20.571 20.404 20.244 20.074 19.914 19.716 19.536 19.384 19.259 19.129 18.984 18.836 18.701 18.604 18.454 18.291 18.164 18.006 17.896 17.754 17.649 17.549 17.471 17.381 17.291 17.196 17.084 17.014 16.941 16.839 16.706 16.614 16.516 16.406 16.294 16.136 16.006 15.809 15.571 15.344 15.163 14.991 14.846 14.671 14.526 14.391 14.251 14.088 13.951 13.778 13.603 13.461 13.346 13.201 13.048 12.911 12.783 12.636 12.498 12.413 12.286 12.168 12.051 11.936 11.816 11.711 11.568 11.408 11.258 11.118 11.013 10.851 10.716 10.578 10.441 10.313 10.191 10.101 9.993 9.851 9.746 9.648 9.513 9.448 9.338 9.276 9.216 9.173 9.098 9.066 9.058 9.016 9.008 8.996 8.948 8.931 8.908 8.916 8.916 8.913 8.896 8.886 8.911 8.966 8.993 9.066 9.108 9.158 9.248 9.318 9.398 9.463 9.553 9.658 9.758 9.886 10.011 10.106 10.211 10.396 12.068 11.783 11.516 11.543 11.568 11.586 11.731 12.466 13.246 13.523 13.623 13.736 13.808 13.923 14.071 14.103 14.156 14.233 14.271 14.318 14.333 14.346 14.336 14.331 14.351 14.323 14.273 14.226 14.211 14.138 14.091 14.026 13.938 13.848 13.766 13.683 13.546 13.451 13.376 13.246 13.173 13.108 12.973 12.871 12.828 12.733 12.646 12.603 12.553 12.486 12.448 12.411 12.363 12.353 12.336 12.311 12.281 12.251 12.233 12.201 12.178 12.186 12.211 12.221 12.261 12.293 12.341 12.383 12.451 12.513 12.576 12.623 12.678 12.778 12.833 12.908 13.033 13.121 13.233 13.333 13.436 13.556 13.681 13.798 13.951 14.091 14.173 14.316 14.456 14.591 14.703 14.813 14.913 14.986 15.098 15.233 15.436 15.638 15.866 16.316 16.633 16.908 17.136 17.381 17.736 18.086 18.228 18.306 18.446 18.711 18.968 19.363 19.688 19.926 20.178 20.423 20.638 20.881 21.121 21.393 21.638 21.923 22.126 22.403 22.643 22.848 23.068 23.333 23.563 23.758 24.001 24.253 24.518 24.713 24.936 25.141 25.361 25.696 26.768 26.313 27.691 26.596 26.856 28.361 27.981 27.461 27.728 27.973 28.183 28.506 28.738 28.916 29.181 29.466 29.666 29.883 30.123 30.331 30.558 30.751 30.926 31.143 31.336 31.638 31.898 32.148 32.413 32.636 32.938 33.291 34.718 35.343 36.091 35.896 35.586 36.156 35.658
32.694 33.016 31.864 32.184 32.404 33.209 32.764 33.059 33.431 33.994 34.064 34.299 36.604 37.146 35.799 34.886 35.119 35.219 35.456 35.606 35.841 35.916 36.074 36.346 36.434 36.574 36.654 36.806 37.611 40.151 40.036 38.651 36.286 35.989 36.069 36.244 36.094 38.339 37.159 38.339 37.284 40.021 40.334 39.179 39.764 37.546 37.604 38.679 37.751 37.539 37.379 38.296 37.341 38.656 37.191 42.211 42.316 43.449 38.104 37.011 36.976 36.886 36.764 39.364 39.064 39.634 39.786 38.861 36.326 42.829 42.939 35.746 34.851 34.711 34.681 34.661 34.566 34.446 34.324 34.189 34.051 33.901 33.759 33.616 33.454 33.294 33.176 33.034 32.919 32.789 32.666 32.541 32.396 32.234 32.051 31.891 31.714 31.564 31.376 31.246 31.044 30.861 30.664 30.484 30.289 30.116 30.061 30.166 30.981 31.374 30.966 28.834 28.506 28.091 27.589 27.521 27.421 27.336 27.319 27.204 27.159 27.351 28.519 28.406 28.549 29.704 28.971 27.899 25.291 24.841 24.606 24.369 24.236 24.059 23.949 23.796 23.674 23.506 23.316 23.081 22.934 22.756 22.586 22.444 22.314 22.159 22.026 21.901 21.776 21.646 21.524 21.384 21.219 21.029 20.886 20.741 20.574 20.404 20.224 20.094 19.946 19.794 19.631 19.461 19.301 19.151 19.009 18.851 18.709 18.576 18.459 18.301 18.161 18.031 17.919 17.801 17.691 17.609 17.521 17.409 17.306 17.241 17.146 17.044 16.949 16.831 16.714 16.619 16.466 16.354 16.204 16.024 15.834 15.636 15.429 15.256 15.068 14.918 14.753 14.636 14.456 14.313 14.181 13.998 13.856 13.681 13.573 13.436 13.278 13.123 12.983 12.843 12.706 12.558 12.448 12.338 12.223 12.103 11.973 11.868 11.731 11.578 11.473 11.316 11.171 11.038 10.881 10.753 10.638 10.473 10.363 10.211 10.118 9.983 9.896 9.761 9.643 9.576 9.458 9.381 9.303 9.251 9.228 9.168 9.123 9.113 9.081 9.068 9.063 9.033 9.033 9.013 8.993 8.991 9.016 9.011 9.028 9.043 9.073 9.096 9.158 9.203 9.258 9.333 9.413 9.463 9.543 9.651 9.746 9.888 9.981 10.073 10.198 10.438 10.788 11.678 11.483 11.521 11.591 11.573 11.918 12.923 13.481 13.481 13.578 13.663 13.803 13.931 14.018 14.088 14.181 14.256 14.336 14.371 14.398 14.408 14.446 14.456 14.488 14.463 14.466 14.431 14.396 14.376 14.328 14.261 14.178 14.128 14.048 13.943 13.858 13.756 13.646 13.548 13.458 13.371 13.266 13.173 13.081 12.996 12.928 12.851 12.758 12.718 12.696 12.626 12.561 12.501 12.493 12.453 12.438 12.413 12.356 12.348 12.331 12.341 12.331 12.296 12.318 12.338 12.356 12.396 12.428 12.448 12.488 12.558 12.636 12.718 12.768 12.823 12.908 12.966 13.036 13.151 13.236 13.326 13.423 13.531 13.651 13.738 13.876 14.026 14.166 14.341 14.473 14.551 14.673 14.803 14.888 14.976 15.063 15.171 15.283 15.448 15.688 15.913 16.148 16.516 16.866 17.161 17.436 17.758 18.008 18.276 18.338 18.428 18.623 19.001 19.361 19.631 19.888 20.106 20.346 20.608 20.881 21.138 21.363 21.601 21.846 22.076 22.353 22.593 22.866 23.111 23.351 23.548 23.776 23.996 24.241 24.431 24.683 24.878 25.121 25.341 25.606 25.891 26.128 26.493 26.608 27.038 27.611 27.588 27.551 27.768 28.038 28.358 28.561 28.763 29.021 29.248 29.451 29.651 29.933 30.133 30.381 30.601 30.731 30.926 31.143 31.403 31.583 31.826 32.083 32.341 32.686 33.801 33.291 34.163 34.626 34.398 36.456 35.726
33.921 32.109 31.956 32.311 32.636 33.209 33.031 33.326 33.479 33.859 34.111 34.379 34.504 37.846 36.369 35.154 35.314 35.451 35.604 35.854 35.954 36.136 36.506 36.844 36.914 36.951 36.999 37.191 37.249 37.249 37.696 37.846 37.569 37.159 37.441 36.989 36.631 36.519 37.271 38.644 40.494 36.299 37.906 38.656 36.886 37.389 38.321 40.079 38.139 38.049 37.969 37.924 37.886 37.954 37.891 41.591 45.884 42.461 43.856 38.211 37.399 37.249 37.196 37.781 37.006 39.179 40.026 39.681 36.986 44.504 40.129 38.541 38.441 34.826 34.774 34.776 34.721 34.656 34.544 34.434 34.279 34.139 33.991 33.856 33.744 33.576 33.424 33.276 33.119 32.971 32.841 32.699 32.574 32.426 32.286 32.134 31.931 31.789 31.604 31.421 31.239 31.051 30.881 30.714 30.529 30.324 30.104 29.926 29.741 29.686 29.724 29.854 30.261 29.804 28.979 28.476 27.536 27.356 27.279 27.241 27.126 27.061 27.029 27.196 27.554 28.429 28.421 27.816 27.551 25.609 26.474 24.899 27.339 26.606 25.431 24.594 24.436 24.334 23.894 23.546 23.284 22.996 22.739 22.609 22.469 22.326 22.154 22.029 21.916 21.784 21.626 21.491 21.344 21.199 21.014 20.884 20.756 20.594 20.464 20.291 20.146 19.999 19.836 19.694 19.554 19.394 19.259 19.134 18.959 18.816 18.641 18.474 18.321 18.174 18.079 17.964 17.806 17.714 17.666 17.546 17.461 17.336 17.251 17.166 17.061 16.926 16.839 16.704 16.564 16.429 16.231 16.064 15.869 15.701 15.519 15.348 15.161 15.033 14.883 14.726 14.598 14.426 14.268 14.093 13.913 13.766 13.643 13.483 13.346 13.201 13.046 12.928 12.813 12.653 12.516 12.391 12.281 12.141 12.028 11.901 11.763 11.618 11.458 11.371 11.236 11.093 10.948 10.846 10.698 10.546 10.418 10.281 10.136 10.028 9.898 9.826 9.691 9.598 9.503 9.426 9.353 9.313 9.241 9.198 9.176 9.166 9.141 9.123 9.148 9.108 9.111 9.088 9.073 9.046 9.061 9.058 9.081 9.121 9.173 9.198 9.228 9.303 9.348 9.398 9.481 9.553 9.663 9.788 9.888 9.961 10.088 10.223 10.503 10.973 11.371 11.493 11.563 11.543 11.611 12.161 13.156 13.471 13.466 13.526 13.633 13.743 13.876 13.971 14.063 14.181 14.261 14.328 14.413 14.451 14.496 14.541 14.548 14.596 14.578 14.606 14.613 14.566 14.561 14.543 14.483 14.436 14.361 14.293 14.228 14.123 14.031 13.946 13.871 13.743 13.663 13.576 13.488 13.368 13.276 13.198 13.111 13.026 12.956 12.906 12.838 12.821 12.763 12.703 12.651 12.601 12.558 12.533 12.513 12.486 12.456 12.461 12.423 12.428 12.438 12.423 12.446 12.476 12.496 12.503 12.551 12.598 12.646 12.711 12.783 12.833 12.871 12.946 13.026 13.076 13.173 13.261 13.328 13.423 13.518 13.598 13.738 13.833 13.953 14.096 14.261 14.441 14.558 14.663 14.783 14.906 14.956 15.063 15.163 15.243 15.351 15.466 15.628 15.821 16.208 16.523 16.848 17.106 17.403 17.798 18.011 18.243 18.348 18.386 18.563 18.911 19.286 19.573 19.841 20.108 20.353 20.591 20.853 21.113 21.326 21.568 21.808 22.073 22.356 22.636 22.891 23.111 23.326 23.541 23.781 24.003 24.183 24.371 24.601 24.828 25.108 25.376 26.251 27.923 28.078 27.818 28.328 28.083 27.141 27.348 27.566 27.878 28.183 28.411 28.611 28.818 29.098 29.241 29.383 29.626 29.891 30.138 30.298 30.476 30.683 30.873 31.123 31.356 31.543 31.806 32.763 32.631 32.671 33.206 33.293 33.536 33.921 34.266
34.144 31.044 31.704 32.314 32.726 32.749 33.211 34.111 33.609 33.904 34.239 35.364 36.604 39.174 36.094 35.286 35.326 35.566 35.911 35.961 36.204 36.314 36.599 36.791 37.331 37.106 37.374 38.449 38.531 37.609 37.984 37.951 39.184 39.916 40.619 38.116 37.656 37.189 37.986 40.294 38.966 38.201 37.836 40.976 39.264 37.684 39.326 41.301 42.041 40.801 39.009 38.411 38.241 38.301 38.456 41.709 40.989 44.079 45.079 44.451 38.474 37.836 37.926 38.114 37.774 37.754 37.574 38.156 38.229 45.041 40.221 37.359 37.831 36.504 35.061 34.949 34.869 34.779 34.701 34.606 34.529 34.376 34.224 34.074 33.949 33.811 33.681 33.531 33.406 33.231 33.066 32.896 32.749 32.599 32.446 32.336 32.161 32.021 31.836 31.654 31.464 31.259 31.066 30.904 30.706 30.524 30.346 30.174 29.974 29.776 29.589 29.409 29.276 29.329 30.619 30.249 29.956 29.084 28.216 27.516 27.169 27.049 26.979 26.871 26.761 26.676 26.674 27.731 27.956 27.434 27.529 28.604 27.391 27.934 26.626 25.491 26.031 24.909 24.786 24.534 24.116 23.639 23.181 22.859 22.639 22.494 22.356 22.181 22.049 21.919 21.756 21.609 21.456 21.314 21.189 21.041 20.901 20.736 20.589 20.421 20.301 20.149 20.031 19.884 19.764 19.594 19.446 19.316 19.144 19.011 18.879 18.741 18.604 18.466 18.311 18.201 18.099 17.954 17.856 17.724 17.604 17.479 17.391 17.269 17.146 17.054 16.926 16.796 16.641 16.471 16.301 16.114 15.929 15.746 15.591 15.476 15.308 15.171 15.018 14.853 14.678 14.543 14.408 14.248 14.081 13.903 13.781 13.603 13.453 13.321 13.161 13.043 12.888 12.746 12.608 12.521 12.376 12.228 12.101 11.958 11.831 11.686 11.546 11.438 11.308 11.191 11.028 10.891 10.753 10.628 10.493 10.356 10.238 10.088 9.988 9.876 9.766 9.701 9.571 9.496 9.423 9.383 9.331 9.251 9.206 9.201 9.173 9.151 9.181 9.138 9.148 9.151 9.131 9.146 9.143 9.151 9.186 9.233 9.273 9.281 9.346 9.428 9.456 9.503 9.578 9.668 9.803 9.891 9.966 10.076 10.381 10.666 11.163 11.448 11.471 11.511 11.576 11.666 12.543 13.371 13.283 13.393 13.516 13.596 13.733 13.851 13.931 14.043 14.156 14.251 14.331 14.436 14.491 14.543 14.596 14.678 14.691 14.721 14.736 14.733 14.733 14.721 14.708 14.696 14.666 14.591 14.543 14.463 14.373 14.288 14.216 14.161 14.053 13.961 13.861 13.763 13.661 13.561 13.481 13.441 13.353 13.236 13.148 13.093 13.038 12.976 12.923 12.878 12.831 12.756 12.733 12.698 12.653 12.641 12.613 12.591 12.571 12.556 12.576 12.571 12.568 12.571 12.581 12.591 12.603 12.646 12.676 12.751 12.768 12.838 12.873 12.923 12.993 13.056 13.128 13.193 13.243 13.311 13.396 13.496 13.581 13.701 13.793 13.943 14.066 14.223 14.363 14.511 14.656 14.793 14.896 15.008 15.068 15.126 15.216 15.318 15.448 15.566 15.693 15.873 16.128 16.516 16.856 17.063 17.376 17.703 17.976 18.183 18.256 18.331 18.531 18.858 19.233 19.571 19.791 20.041 20.291 20.551 20.798 21.048 21.306 21.586 21.851 22.103 22.388 22.643 22.871 23.091 23.328 23.513 23.661 23.886 24.106 24.326 24.563 24.851 25.341 25.948 27.261 26.061 27.238 26.861 26.733 26.831 27.138 27.423 27.711 27.941 28.138 28.393 28.608 28.793 28.943 29.133 29.358 29.633 29.911 30.113 30.258 30.506 30.698 30.946 31.111 31.361 31.598 32.306 32.481 32.611 32.993 33.073 33.358 33.556
29.914 30.214 30.776 31.754 32.544 33.976 33.074 33.469 33.711 34.064 34.826 35.411 36.141 35.616 35.174 35.216 35.371 35.576 35.861 36.224 36.216 36.476 36.701 37.121 37.236 37.496 37.719 38.751 38.444 37.919 38.099 38.214 38.354 38.611 38.529 38.446 38.416 38.421 39.199 38.139 37.811 37.496 38.429 38.696 41.981 39.024 39.291 42.169 44.891 39.691 40.629 39.536 42.369 38.994 40.164 38.704 38.684 42.574 44.374 46.171 40.121 38.351 40.106 39.386 38.374 39.059 38.329 37.441 44.391 45.206 41.976 38.014 37.539 38.016 37.206 35.959 35.119 35.324 34.881 34.786 34.666 34.546 34.464 34.301 34.154 34.041 33.911 33.741 33.611 33.449 33.354 33.181 33.016 32.839 32.659 32.481 32.329 32.171 32.011 31.869 31.691 31.526 31.334 31.141 30.936 30.744 30.551 30.356 30.174 30.009 29.811 29.626 29.441 29.284 29.099 29.039 28.829 29.274 29.209 28.821 28.721 28.131 27.261 26.864 26.724 26.656 26.636 26.491 26.414 26.386 26.641 26.631 27.229 26.409 26.019 27.409 28.384 25.954 25.279 25.016 24.716 24.164 23.886 23.541 23.181 22.881 22.654 22.381 22.216 22.041 21.889 21.744 21.614 21.464 21.329 21.194 21.051 20.916 20.766 20.634 20.516 20.336 20.204 20.056 19.934 19.816 19.666 19.519 19.346 19.214 19.046 18.904 18.766 18.654 18.516 18.416 18.279 18.164 18.061 17.951 17.824 17.736 17.624 17.494 17.374 17.249 17.099 16.929 16.764 16.589 16.406 16.186 16.044 15.871 15.701 15.551 15.416 15.278 15.121 14.968 14.806 14.661 14.498 14.371 14.216 14.058 13.933 13.771 13.608 13.458 13.313 13.148 13.041 12.898 12.771 12.638 12.506 12.368 12.253 12.096 11.931 11.816 11.693 11.556 11.393 11.268 11.113 10.996 10.798 10.686 10.563 10.411 10.296 10.166 10.101 9.986 9.878 9.748 9.646 9.563 9.501 9.436 9.358 9.318 9.293 9.251 9.221 9.221 9.223 9.198 9.193 9.226 9.218 9.228 9.238 9.276 9.286 9.318 9.391 9.433 9.468 9.523 9.606 9.656 9.736 9.826 9.868 9.941 10.116 10.498 10.841 11.381 11.451 11.523 11.551 11.518 11.738 12.591 13.068 13.228 13.326 13.433 13.563 13.718 13.813 13.906 14.013 14.123 14.236 14.368 14.433 14.518 14.611 14.671 14.726 14.786 14.821 14.861 14.863 14.883 14.903 14.891 14.873 14.861 14.806 14.776 14.716 14.633 14.576 14.503 14.406 14.328 14.246 14.153 14.041 13.968 13.876 13.768 13.686 13.626 13.523 13.453 13.406 13.301 13.216 13.166 13.113 13.048 13.011 12.963 12.916 12.878 12.838 12.811 12.758 12.743 12.706 12.713 12.693 12.693 12.718 12.703 12.708 12.683 12.726 12.738 12.756 12.778 12.823 12.838 12.873 12.916 12.998 13.043 13.116 13.188 13.243 13.293 13.371 13.441 13.523 13.626 13.711 13.808 13.928 14.068 14.201 14.331 14.468 14.598 14.746 14.876 14.988 15.108 15.176 15.236 15.303 15.403 15.521 15.626 15.758 15.903 16.188 16.501 16.761 17.086 17.411 17.653 17.883 18.081 18.231 18.306 18.481 18.811 19.168 19.448 19.736 20.028 20.263 20.518 20.771 21.048 21.348 21.626 21.896 22.141 22.366 22.598 22.813 23.076 23.248 23.483 23.663 23.866 24.096 24.333 24.641 25.321 25.886 27.118 26.761 26.738 27.768 26.593 26.808 26.976 27.293 27.578 27.766 27.956 28.148 28.378 28.591 28.728 28.951 29.151 29.381 29.601 29.806 30.051 30.313 30.508 30.693 30.926 31.758 31.706 32.026 32.048 32.268 32.521 32.953 33.143
28.819 29.549 29.946 30.534 31.316 32.076 32.599 33.034 33.411 33.931 34.126 34.434 34.709 34.964 35.076 35.389 35.496 35.846 36.046 36.099 36.299 36.544 36.714 37.069 37.471 38.564 38.319 37.951 37.889 38.051 39.806 39.166 38.539 38.754 38.976 39.396 38.926 39.071 38.996 38.989 38.686 38.399 38.759 37.656 39.669 37.604 38.244 39.689 38.914 41.966 43.179 42.974 44.776 41.251 40.024 40.106 40.559 39.474 45.604 45.476 39.306 40.644 38.939 40.466 41.949 39.069 41.011 37.964 39.376 43.441 39.954 38.604 38.501 39.064 43.146 36.929 38.011 38.904 35.636 34.861 34.836 34.711 34.614 34.491 34.351 34.231 34.099 33.949 33.804 33.649 33.534 33.384 33.241 33.114 32.914 32.754 32.554 32.369 32.181 32.024 31.866 31.689 31.529 31.359 31.189 30.996 30.784 30.574 30.386 30.209 30.026 29.829 29.644 29.469 29.269 29.089 28.911 28.716 28.564 28.561 28.849 28.914 28.461 27.774 27.181 26.921 26.576 26.514 26.454 26.346 26.301 26.149 26.491 26.054 25.966 26.019 25.861 25.726 25.631 25.519 25.421 25.011 24.586 24.239 23.826 23.531 23.316 22.929 22.534 22.299 22.129 21.916 21.776 21.634 21.466 21.319 21.186 21.084 20.966 20.819 20.689 20.541 20.391 20.266 20.101 19.976 19.834 19.716 19.539 19.404 19.269 19.121 19.004 18.851 18.726 18.606 18.484 18.349 18.251 18.129 18.014 17.934 17.814 17.681 17.541 17.394 17.224 17.084 16.919 16.716 16.541 16.371 16.199 16.061 15.889 15.721 15.593 15.433 15.276 15.091 14.936 14.768 14.623 14.473 14.283 14.161 14.008 13.838 13.681 13.578 13.403 13.256 13.111 12.978 12.868 12.733 12.608 12.473 12.358 12.248 12.093 11.953 11.823 11.691 11.581 11.398 11.216 11.083 10.941 10.796 10.663 10.541 10.403 10.283 10.183 10.086 9.966 9.861 9.741 9.673 9.596 9.511 9.448 9.436 9.366 9.333 9.311 9.293 9.276 9.246 9.218 9.273 9.316 9.311 9.313 9.341 9.368 9.433 9.501 9.518 9.521 9.613 9.668 9.731 9.811 9.866 9.986 10.183 10.578 11.093 11.448 11.476 11.526 11.546 11.603 11.963 12.716 13.158 13.181 13.288 13.403 13.523 13.691 13.773 13.871 14.006 14.093 14.216 14.321 14.436 14.541 14.651 14.721 14.801 14.843 14.908 14.978 15.013 15.018 15.023 15.046 15.058 15.018 14.968 14.978 14.933 14.886 14.803 14.733 14.678 14.588 14.508 14.438 14.358 14.278 14.156 14.083 13.986 13.896 13.816 13.751 13.663 13.613 13.531 13.458 13.351 13.301 13.253 13.188 13.143 13.101 13.058 13.006 12.998 12.973 12.948 12.868 12.868 12.888 12.861 12.871 12.861 12.873 12.843 12.843 12.846 12.858 12.878 12.886 12.928 12.951 12.971 13.021 13.093 13.138 13.193 13.243 13.291 13.373 13.428 13.501 13.571 13.671 13.763 13.838 13.963 14.078 14.178 14.326 14.436 14.596 14.721 14.853 14.978 15.086 15.183 15.261 15.353 15.443 15.518 15.623 15.751 15.896 16.061 16.256 16.536 16.828 17.058 17.263 17.503 17.871 18.066 18.238 18.321 18.436 18.708 19.071 19.366 19.643 19.951 20.221 20.503 20.811 21.081 21.356 21.648 21.861 22.103 22.306 22.526 22.786 22.988 23.191 23.391 23.613 23.881 24.133 24.443 24.848 27.103 26.196 27.558 27.641 26.146 26.443 26.671 26.861 27.153 27.351 27.553 27.711 27.941 28.141 28.308 28.488 28.688 28.916 29.123 29.323 29.556 29.838 30.076 30.268 30.513 30.761 31.166 31.331 31.793 32.053 32.151 32.308 32.606
28.096 28.626 28.996 29.506 30.191 31.019 31.779 32.516 33.106 33.679 34.006 34.444 34.764 35.086 35.224 35.491 35.604 35.834 36.116 36.244 36.454 36.566 36.866 37.056 38.261 39.969 37.841 37.924 38.059 38.251 40.906 41.916 41.436 40.519 39.179 39.521 39.249 40.251 39.466 39.564 39.551 39.579 39.629 39.191 39.069 38.914 42.096 39.341 42.026 44.056 45.709 43.859 42.546 41.519 39.726 41.181 43.064 42.471 40.969 42.431 39.329 43.686 39.204 40.541 44.121 39.406 40.134 38.679 42.949 38.146 37.861 41.266 43.639 43.811 42.989 37.091 38.334 41.616 44.094 38.521 35.074 34.876 34.751 34.664 34.574 34.421 34.286 34.141 34.001 33.841 33.714 33.561 33.419 33.274 33.124 32.971 32.809 32.651 32.469 32.279 32.076 31.884 31.726 31.496 31.349 31.194 31.024 30.846 30.641 30.439 30.259 30.051 29.841 29.661 29.466 29.304 29.119 28.919 28.734 28.546 28.391 28.221 28.184 27.959 27.924 27.951 27.991 27.281 26.579 26.371 26.336 26.194 26.126 26.004 25.941 25.809 25.689 25.669 25.611 25.536 25.506 25.501 25.401 25.069 24.679 24.226 23.861 25.359 26.351 24.876 22.994 22.576 22.181 21.844 21.644 21.496 21.369 21.259 21.131 20.979 20.829 20.699 20.571 20.429 20.296 20.181 20.024 19.879 19.731 19.599 19.454 19.336 19.204 19.071 18.914 18.799 18.689 18.579 18.464 18.361 18.236 18.136 18.036 17.886 17.716 17.544 17.374 17.229 17.086 16.926 16.756 16.571 16.406 16.249 16.061 15.901 15.741 15.551 15.438 15.288 15.138 14.978 14.848 14.676 14.508 14.343 14.168 14.001 13.806 13.648 13.508 13.361 13.221 13.078 12.941 12.833 12.671 12.523 12.418 12.291 12.158 12.028 11.906 11.738 11.621 11.443 11.271 11.161 11.023 10.936 10.766 10.626 10.498 10.368 10.273 10.173 10.071 9.946 9.888 9.778 9.676 9.623 9.541 9.511 9.423 9.403 9.373 9.321 9.311 9.321 9.328 9.371 9.383 9.356 9.361 9.431 9.451 9.476 9.543 9.608 9.653 9.711 9.783 9.826 9.883 10.286 10.763 10.863 11.311 11.466 11.511 11.543 11.513 12.183 12.438 12.973 13.111 13.158 13.253 13.373 13.518 13.626 13.711 13.853 13.963 14.083 14.188 14.291 14.396 14.541 14.648 14.766 14.856 14.936 14.986 15.043 15.111 15.128 15.153 15.156 15.188 15.188 15.173 15.163 15.131 15.101 15.076 14.993 14.913 14.873 14.788 14.686 14.633 14.546 14.466 14.383 14.311 14.206 14.126 14.048 13.961 13.891 13.826 13.748 13.683 13.603 13.548 13.496 13.411 13.383 13.311 13.248 13.216 13.173 13.131 13.096 13.088 13.083 13.058 13.046 13.028 13.011 12.996 12.988 12.996 12.996 12.973 13.018 13.043 13.028 13.026 13.046 13.111 13.138 13.171 13.226 13.293 13.326 13.371 13.416 13.508 13.566 13.653 13.721 13.796 13.911 14.021 14.101 14.188 14.338 14.438 14.583 14.706 14.836 14.961 15.068 15.168 15.276 15.381 15.476 15.568 15.661 15.741 15.886 16.033 16.193 16.411 16.663 16.831 17.061 17.193 17.421 17.751 18.033 18.218 18.338 18.428 18.636 18.941 19.283 19.576 19.906 20.198 20.508 20.786 21.063 21.326 21.578 21.808 22.061 22.261 22.476 22.681 22.928 23.156 23.426 23.681 23.921 24.251 24.556 25.221 26.143 26.201 25.628 25.946 26.206 26.461 26.671 26.896 27.098 27.331 27.498 27.698 27.886 28.061 28.261 28.483 28.691 28.898 29.136 29.426 29.663 29.843 30.048 30.298 30.598 31.071 31.821 33.263 32.541 31.946 32.703
27.356 27.699 28.016 28.556 29.099 29.799 30.679 31.949 32.296 33.204 33.746 34.244 34.836 34.996 35.389 35.769 35.989 36.171 36.211 36.399 36.724 36.726 36.976 37.204 38.659 37.674 37.764 38.186 38.059 39.361 41.201 42.061 43.824 41.656 39.189 39.411 39.454 39.394 44.789 39.719 43.766 40.854 40.036 40.104 40.096 41.309 39.999 39.816 44.379 43.931 45.181 43.529 45.859 43.491 39.936 40.169 41.999 42.421 41.956 42.621 39.864 39.506 39.721 39.321 40.246 41.076 40.244 38.589 38.721 38.686 38.794 41.239 46.231 47.119 41.076 38.506 37.131 41.179 46.841 44.789 39.309 39.179 36.431 35.354 34.724 34.606 34.489 34.344 34.171 34.009 33.876 33.739 33.594 33.471 33.306 33.119 32.991 32.831 32.704 32.516 32.316 32.126 31.956 31.731 31.524 31.349 31.184 31.011 30.836 30.671 30.504 30.296 30.091 29.891 29.689 29.519 29.306 29.131 28.946 28.764 28.569 28.374 28.186 27.999 27.854 27.699 27.649 27.664 27.799 27.591 27.429 26.526 26.114 26.054 26.009 25.894 25.801 25.679 25.599 25.521 25.484 25.416 25.399 25.351 25.316 25.154 25.069 27.074 29.446 28.861 24.469 23.099 22.904 22.571 22.169 21.819 21.554 21.401 21.279 21.139 20.999 20.874 20.739 20.636 20.489 20.359 20.234 20.131 19.979 19.826 19.679 19.526 19.369 19.259 19.104 18.986 18.881 18.729 18.614 18.506 18.421 18.334 18.234 18.081 17.879 17.691 17.529 17.361 17.234 17.096 16.894 16.746 16.596 16.419 16.221 16.043 15.891 15.713 15.551 15.398 15.251 15.116 14.953 14.783 14.628 14.463 14.293 14.146 13.971 13.816 13.681 13.516 13.371 13.253 13.103 12.966 12.821 12.671 12.513 12.388 12.228 12.113 11.963 11.801 11.691 11.503 11.386 11.221 11.136 10.981 10.818 10.698 10.568 10.456 10.371 10.268 10.156 10.041 9.966 9.866 9.791 9.723 9.673 9.631 9.563 9.521 9.463 9.398 9.403 9.391 9.428 9.463 9.441 9.448 9.476 9.538 9.538 9.568 9.636 9.671 9.761 9.806 9.896 9.933 10.923 12.408 11.801 11.381 11.463 11.543 11.533 11.526 11.988 13.181 13.063 13.076 13.148 13.243 13.376 13.481 13.583 13.676 13.801 13.898 14.053 14.166 14.266 14.396 14.531 14.628 14.753 14.898 14.961 15.061 15.123 15.171 15.226 15.268 15.281 15.313 15.338 15.338 15.318 15.323 15.298 15.263 15.231 15.211 15.108 15.056 15.021 14.913 14.821 14.763 14.686 14.563 14.513 14.433 14.338 14.268 14.221 14.148 14.058 13.991 13.926 13.843 13.773 13.743 13.663 13.608 13.548 13.501 13.406 13.351 13.326 13.321 13.271 13.271 13.266 13.236 13.233 13.211 13.211 13.178 13.153 13.168 13.146 13.161 13.158 13.163 13.158 13.176 13.191 13.203 13.258 13.296 13.338 13.376 13.443 13.471 13.533 13.611 13.653 13.713 13.781 13.881 13.938 14.046 14.141 14.241 14.361 14.461 14.581 14.676 14.796 14.911 15.026 15.151 15.266 15.371 15.491 15.601 15.703 15.778 15.891 16.021 16.166 16.318 16.458 16.698 16.853 17.018 17.148 17.411 17.858 17.916 18.221 18.361 18.421 18.586 18.821 19.143 19.566 19.881 20.226 20.573 20.758 21.038 21.266 21.508 21.746 21.983 22.216 22.506 22.813 22.888 23.166 23.433 23.736 24.021 24.306 24.576 24.843 25.133 25.411 25.668 25.913 26.153 26.378 26.631 26.833 27.068 27.258 27.461 27.653 27.846 28.063 28.313 28.503 28.708 28.966 29.168 29.428 29.661 29.878 30.213 30.696 31.746 32.991 31.403 31.713 32.591
27.056 27.224 27.384 27.736 28.374 29.384 30.064 32.109 32.379 32.556 32.971 33.511 33.999 34.501 35.516 36.124 36.371 36.899 36.751 36.586 36.781 36.916 37.161 37.591 38.019 37.629 37.749 37.949 38.046 38.951 39.341 38.954 43.649 43.801 39.011 39.291 39.936 40.081 40.871 39.729 40.526 40.081 40.046 40.206 40.109 40.326 40.309 43.219 43.949 42.166 44.251 42.581 40.181 40.186 40.906 40.479 40.276 41.504 40.664 42.104 41.731 39.911 39.696 40.141 40.059 39.486 39.791 39.106 39.496 39.026 38.816 39.991 43.731 40.966 38.691 38.719 38.429 40.831 46.494 46.566 40.871 41.991 39.744 39.746 38.329 34.719 34.596 34.481 34.369 34.221 34.066 33.919 33.761 33.604 33.481 33.321 33.136 32.991 32.841 32.679 32.541 32.346 32.169 31.969 31.766 31.589 31.389 31.214 30.989 30.826 30.659 30.476 30.304 30.124 29.951 29.744 29.554 29.351 29.156 28.959 28.776 28.586 28.411 28.236 28.039 27.844 27.664 27.511 27.424 27.431 27.651 28.766 28.214 27.571 26.426 25.906 25.804 25.706 25.659 25.551 25.489 25.376 25.396 25.224 25.234 25.196 25.134 25.581 29.241 30.946 28.046 25.074 23.454 23.319 22.849 22.549 22.274 21.921 21.594 21.356 21.256 21.106 20.956 20.814 20.694 20.539 20.449 20.324 20.181 20.054 19.921 19.774 19.641 19.516 19.389 19.254 19.131 19.004 18.841 18.739 18.651 18.519 18.389 18.191 17.984 17.816 17.639 17.469 17.324 17.229 17.056 16.904 16.719 16.541 16.364 16.178 16.023 15.846 15.668 15.511 15.376 15.231 15.056 14.896 14.723 14.561 14.383 14.201 14.061 13.913 13.756 13.593 13.456 13.321 13.191 13.043 12.903 12.753 12.611 12.488 12.368 12.213 12.066 11.931 11.791 11.631 11.478 11.311 11.183 11.023 10.916 10.783 10.613 10.493 10.403 10.296 10.173 10.083 9.998 9.928 9.861 9.761 9.718 9.666 9.656 9.603 9.568 9.536 9.518 9.513 9.493 9.501 9.531 9.541 9.561 9.621 9.638 9.691 9.771 9.823 9.916 9.946 10.033 10.648 12.561 12.116 11.581 11.516 11.553 11.543 11.673 12.263 12.778 12.958 13.066 13.133 13.211 13.341 13.461 13.563 13.648 13.781 13.891 14.003 14.113 14.266 14.393 14.488 14.623 14.753 14.886 14.978 15.086 15.168 15.231 15.311 15.361 15.408 15.468 15.481 15.471 15.496 15.508 15.466 15.433 15.421 15.388 15.361 15.321 15.261 15.183 15.111 15.056 14.958 14.881 14.803 14.723 14.638 14.573 14.501 14.416 14.398 14.328 14.231 14.156 14.088 14.033 13.983 13.921 13.856 13.808 13.743 13.678 13.643 13.561 13.536 13.491 13.493 13.461 13.461 13.458 13.433 13.436 13.381 13.356 13.328 13.346 13.341 13.336 13.318 13.313 13.326 13.313 13.341 13.353 13.386 13.421 13.433 13.488 13.531 13.586 13.626 13.696 13.723 13.816 13.916 13.963 14.031 14.108 14.201 14.301 14.391 14.463 14.578 14.701 14.801 14.906 14.998 15.123 15.268 15.403 15.501 15.596 15.731 15.841 15.958 16.051 16.148 16.281 16.408 16.543 16.688 16.893 17.026 17.176 17.296 17.536 17.791 18.131 18.351 18.443 18.568 18.756 18.988 19.338 19.668 20.006 20.343 20.653 21.778 21.843 21.728 23.296 23.596 23.833 23.413 23.188 23.051 23.238 23.521 23.798 24.093 24.386 24.668 24.941 25.193 25.431 25.633 25.866 26.108 26.361 26.601 26.801 27.011 27.251 27.466 27.658 27.888 28.121 28.343 28.566 28.748 29.018 29.188 29.428 29.673 29.941 30.228 30.938 31.536 31.098 31.301
26.534 26.984 27.251 27.586 28.281 28.171 31.834 30.764 34.476 31.314 32.039 32.681 32.836 33.454 34.556 35.096 35.531 36.869 36.141 36.514 36.771 37.056 37.244 37.436 37.514 37.671 37.816 37.959 38.081 38.231 38.369 38.506 38.611 38.789 38.994 39.089 39.964 41.184 40.404 39.996 39.756 40.304 40.229 41.064 40.244 40.544 42.996 42.069 41.769 41.261 42.834 40.444 40.419 40.399 40.356 40.564 40.799 42.609 42.326 41.391 40.246 41.086 40.796 44.279 40.376 41.999 43.891 41.351 43.256 39.644 38.801 40.579 41.431 40.059 39.249 38.131 39.279 41.464 43.956 43.386 42.446 39.676 36.836 38.274 36.856 35.789 35.504 35.776 34.529 34.374 34.206 34.071 33.894 33.744 33.609 33.464 33.296 33.184 32.969 32.824 32.669 32.509 32.339 32.174 31.994 31.811 31.629 31.409 31.236 31.041 30.836 30.651 30.469 30.289 30.139 29.966 29.784 29.591 29.391 29.169 28.989 28.774 28.609 28.406 28.231 28.051 27.886 27.706 27.499 27.331 27.176 27.196 27.371 28.504 28.704 28.111 27.629 26.424 25.671 25.596 25.479 25.351 25.359 25.276 25.171 25.046 24.991 24.976 28.634 30.906 28.239 27.389 24.864 24.049 23.566 23.126 22.799 22.616 22.414 22.316 21.939 21.571 21.441 21.069 20.906 20.771 20.651 20.519 20.379 20.231 20.121 19.994 19.851 19.726 19.589 19.464 19.356 19.241 19.119 18.994 18.879 18.731 18.561 18.381 18.191 17.951 17.789 17.641 17.509 17.341 17.181 16.994 16.804 16.596 16.439 16.261 16.098 15.946 15.796 15.661 15.531 15.363 15.218 15.051 14.871 14.686 14.508 14.326 14.166 14.008 13.838 13.686 13.546 13.401 13.261 13.098 12.963 12.833 12.671 12.538 12.403 12.276 12.146 11.973 11.836 11.688 11.568 11.393 11.238 11.116 10.993 10.858 10.743 10.636 10.518 10.386 10.318 10.208 10.121 10.036 9.973 9.891 9.816 9.763 9.708 9.648 9.648 9.593 9.591 9.576 9.551 9.613 9.658 9.653 9.681 9.713 9.766 9.801 9.896 9.966 10.013 10.291 10.811 11.116 11.401 11.463 11.531 11.553 11.518 11.943 12.981 12.916 12.978 13.083 13.143 13.211 13.338 13.451 13.533 13.648 13.741 13.863 13.976 14.101 14.228 14.353 14.488 14.611 14.743 14.858 14.993 15.088 15.188 15.268 15.356 15.433 15.491 15.556 15.586 15.641 15.641 15.643 15.651 15.646 15.628 15.583 15.573 15.536 15.498 15.448 15.416 15.316 15.241 15.173 15.098 15.036 14.966 14.901 14.811 14.753 14.666 14.636 14.563 14.501 14.456 14.353 14.278 14.246 14.153 14.111 14.041 13.998 13.926 13.871 13.836 13.793 13.733 13.726 13.696 13.681 13.653 13.621 13.623 13.606 13.546 13.578 13.553 13.521 13.501 13.513 13.486 13.501 13.468 13.473 13.496 13.501 13.511 13.523 13.571 13.616 13.651 13.696 13.746 13.808 13.858 13.918 13.991 14.076 14.153 14.191 14.268 14.366 14.441 14.521 14.611 14.718 14.823 14.943 15.016 15.133 15.251 15.361 15.508 15.631 15.733 15.866 15.976 16.076 16.146 16.261 16.363 16.501 16.671 16.781 16.936 17.053 17.188 17.336 17.491 17.688 18.003 18.231 18.481 18.623 18.766 18.933 19.126 19.428 19.806 21.406 22.918 22.596 23.313 23.423 24.138 24.343 24.463 23.283 22.793 23.056 23.338 23.606 23.883 24.181 24.446 24.716 24.963 25.196 25.398 25.638 25.888 26.126 26.373 26.571 26.846 27.046 27.296 27.473 27.691 27.883 28.101 28.338 28.578 28.788 29.023 29.228 29.583 30.073 31.273 30.536 30.778 30.873
26.456 26.646 26.909 27.591 27.521 28.011 32.709 33.714 31.801 30.509 30.946 31.389 31.754 32.339 33.049 33.781 34.244 35.099 35.601 35.981 36.489 36.964 37.254 37.514 37.576 37.679 37.891 38.019 38.159 38.346 38.444 38.694 38.874 38.914 38.996 39.114 39.196 42.066 43.069 39.674 39.771 40.351 40.051 40.089 40.291 40.574 40.411 40.594 40.486 41.001 41.419 40.839 40.686 40.624 40.591 41.061 40.794 41.041 40.726 41.101 40.764 41.349 40.679 40.559 41.764 42.791 42.621 43.671 45.069 42.899 39.554 41.834 40.724 39.021 39.884 39.641 39.461 40.704 41.316 39.226 38.436 39.104 37.834 37.521 36.949 38.291 39.394 38.864 35.089 34.741 34.334 34.186 34.049 33.881 33.751 33.606 33.469 33.299 33.116 32.951 32.811 32.634 32.469 32.301 32.139 31.986 31.799 31.631 31.456 31.269 31.071 30.861 30.661 30.474 30.294 30.111 29.936 29.774 29.604 29.414 29.214 29.016 28.834 28.641 28.429 28.229 28.066 27.859 27.721 27.571 27.391 27.164 27.014 26.839 26.749 27.294 27.854 28.326 28.136 26.816 25.746 25.414 25.316 25.291 25.201 25.111 25.016 24.889 24.899 26.666 25.966 25.221 24.716 24.681 24.444 24.284 23.834 23.271 22.984 22.591 22.486 22.344 22.239 21.901 21.464 21.081 20.871 20.714 20.576 20.421 20.296 20.181 20.019 19.904 19.756 19.619 19.511 19.409 19.311 19.214 19.064 18.889 18.689 18.489 18.274 18.106 17.949 17.796 17.659 17.496 17.361 17.159 16.949 16.754 16.586 16.376 16.241 16.066 15.923 15.776 15.636 15.451 15.306 15.143 14.973 14.801 14.623 14.446 14.288 14.118 13.953 13.803 13.636 13.476 13.331 13.188 13.038 12.913 12.748 12.598 12.466 12.343 12.173 12.026 11.873 11.746 11.568 11.448 11.291 11.146 11.043 10.918 10.801 10.681 10.576 10.483 10.381 10.288 10.173 10.103 10.056 9.981 9.928 9.846 9.831 9.768 9.773 9.723 9.648 9.646 9.666 9.688 9.723 9.768 9.826 9.841 9.901 9.961 9.998 10.138 10.678 11.403 11.383 11.366 11.463 11.521 11.541 11.541 12.776 13.501 13.138 12.953 13.063 13.128 13.233 13.348 13.426 13.521 13.646 13.753 13.823 13.951 14.078 14.213 14.336 14.463 14.621 14.738 14.863 14.986 15.086 15.203 15.318 15.381 15.496 15.553 15.626 15.686 15.726 15.776 15.806 15.808 15.841 15.836 15.806 15.793 15.748 15.728 15.686 15.621 15.571 15.508 15.456 15.398 15.326 15.253 15.198 15.118 15.061 14.991 14.933 14.851 14.821 14.736 14.681 14.631 14.573 14.501 14.446 14.383 14.318 14.246 14.181 14.126 14.096 14.041 14.021 13.983 13.928 13.913 13.891 13.878 13.848 13.826 13.788 13.786 13.751 13.736 13.713 13.713 13.658 13.663 13.648 13.646 13.678 13.663 13.676 13.681 13.678 13.731 13.773 13.808 13.838 13.861 13.931 13.981 14.026 14.116 14.173 14.241 14.318 14.413 14.473 14.531 14.613 14.686 14.746 14.868 14.983 15.083 15.183 15.268 15.401 15.531 15.641 15.761 15.873 15.983 16.096 16.198 16.296 16.373 16.481 16.586 16.711 16.866 16.976 17.091 17.263 17.346 17.501 17.648 17.921 18.146 18.351 18.586 18.823 18.926 19.068 19.533 21.896 22.588 22.603 22.471 23.403 24.193 24.393 24.151 22.626 22.576 22.863 23.128 23.401 23.686 23.948 24.221 24.486 24.723 24.948 25.191 25.443 25.656 25.911 26.161 26.391 26.661 26.873 27.106 27.316 27.538 27.756 27.976 28.168 28.383 28.648 28.841 29.336 29.641 30.508 29.973 30.218 30.426
28.491 26.161 26.471 26.709 27.219 27.491 30.066 32.386 31.051 31.331 30.754 30.516 30.884 31.479 33.049 32.866 33.296 34.096 34.374 35.031 35.711 36.414 36.874 37.181 37.649 37.869 37.836 38.064 38.199 38.374 38.459 38.641 38.764 38.844 38.944 39.131 39.251 44.621 45.989 42.194 39.981 39.921 39.976 40.476 40.319 40.484 40.199 40.719 41.781 41.271 40.631 40.954 40.664 40.729 40.881 40.809 40.786 40.764 40.766 40.746 40.711 42.429 45.959 43.694 44.471 41.494 43.291 45.856 43.481 41.469 43.091 44.189 39.556 40.201 39.571 39.241 38.546 38.314 38.289 37.896 37.894 38.449 37.836 38.319 37.191 38.736 39.844 40.229 37.106 35.721 35.404 36.264 34.706 34.164 33.861 34.099 33.534 33.404 33.284 33.091 32.946 32.749 32.609 32.434 32.276 32.106 31.944 31.789 31.634 31.456 31.276 31.101 30.886 30.709 30.514 30.339 30.136 29.966 29.756 29.579 29.394 29.226 29.064 28.871 28.666 28.464 28.261 28.059 27.889 27.694 27.541 27.379 27.209 27.014 26.849 26.661 26.541 26.634 27.126 27.294 27.339 26.929 26.291 25.481 25.189 25.109 25.041 24.959 24.896 24.796 24.724 24.654 24.619 24.551 24.539 24.481 24.354 24.209 23.996 23.559 23.214 22.916 22.634 22.509 22.194 22.026 21.636 21.364 20.944 20.686 20.541 20.401 20.236 20.116 19.976 19.849 19.734 19.671 19.549 19.396 19.219 19.019 18.801 18.596 18.394 18.221 18.061 17.944 17.799 17.626 17.461 17.274 17.096 16.899 16.709 16.541 16.393 16.251 16.098 15.948 15.808 15.651 15.501 15.313 15.128 14.943 14.761 14.538 14.356 14.168 13.976 13.826 13.661 13.511 13.341 13.216 13.061 12.951 12.833 12.683 12.526 12.393 12.236 12.083 11.926 11.791 11.606 11.481 11.358 11.203 11.088 10.956 10.873 10.738 10.626 10.548 10.448 10.366 10.268 10.183 10.108 10.076 9.986 9.956 9.946 9.898 9.876 9.806 9.778 9.826 9.788 9.773 9.828 9.853 9.893 9.921 10.016 10.266 11.003 12.003 11.476 11.443 11.441 11.493 11.508 11.546 11.711 13.451 13.593 12.981 12.963 13.043 13.128 13.243 13.353 13.433 13.526 13.631 13.723 13.833 13.958 14.053 14.183 14.331 14.466 14.593 14.738 14.888 14.988 15.121 15.233 15.321 15.421 15.518 15.601 15.686 15.783 15.823 15.858 15.936 15.971 15.968 15.966 15.996 15.991 15.961 15.926 15.898 15.858 15.793 15.776 15.716 15.661 15.626 15.571 15.493 15.408 15.363 15.301 15.246 15.198 15.128 15.053 15.001 14.938 14.876 14.836 14.803 14.746 14.648 14.606 14.558 14.481 14.416 14.393 14.368 14.298 14.233 14.221 14.186 14.131 14.078 14.088 14.068 14.023 14.013 13.986 13.983 13.958 13.933 13.906 13.898 13.856 13.851 13.851 13.828 13.833 13.836 13.851 13.878 13.873 13.901 13.936 13.963 14.016 14.048 14.083 14.203 14.218 14.273 14.363 14.416 14.481 14.581 14.661 14.701 14.778 14.863 14.938 15.036 15.138 15.236 15.356 15.458 15.558 15.661 15.801 15.931 16.063 16.128 16.228 16.316 16.383 16.483 16.551 16.638 16.751 16.878 17.028 17.121 17.266 17.468 17.733 17.746 17.878 18.208 18.308 18.621 18.808 18.976 19.353 19.883 20.761 22.128 22.373 22.906 23.888 23.571 22.728 22.148 22.353 22.611 22.878 23.156 23.416 23.706 23.971 24.238 24.501 24.743 24.973 25.226 25.483 25.701 25.933 26.196 26.431 26.648 26.903 27.111 27.341 27.546 27.798 28.008 28.211 28.418 28.801 29.563 29.203 29.461 29.778 30.026
27.374 26.479 26.074 26.384 26.821 27.156 27.831 31.636 29.221 29.729 28.639 30.906 31.124 30.196 31.214 31.931 32.381 32.811 33.386 33.889 34.484 35.319 35.924 36.481 37.044 37.859 37.949 38.009 38.239 38.309 38.431 38.754 38.756 38.834 41.061 39.069 39.221 41.566 43.749 44.649 40.931 39.896 40.274 39.994 40.576 40.086 40.154 40.301 40.296 40.441 40.619 40.641 40.706 40.724 40.789 40.809 40.814 40.824 40.924 40.796 40.831 42.026 43.984 44.941 43.884 42.339 42.179 44.391 40.871 42.551 41.286 42.909 40.334 41.994 39.789 39.644 39.041 39.219 39.129 38.704 38.469 38.091 38.274 38.289 37.569 37.971 38.374 38.819 36.649 36.376 36.739 37.694 35.844 35.294 39.266 37.371 34.464 33.516 33.384 33.161 33.009 32.851 32.706 32.519 32.389 32.229 32.096 31.951 31.799 31.649 31.474 31.269 31.104 30.911 30.741 30.546 30.354 30.169 29.926 29.761 29.551 29.371 29.189 29.021 28.839 28.664 28.474 28.296 28.114 27.919 27.719 27.561 27.376 27.204 27.051 26.864 26.681 26.519 26.344 26.211 26.091 26.149 26.719 27.034 26.566 26.256 25.101 24.946 24.909 24.831 24.741 24.651 24.586 24.489 24.411 24.309 24.304 24.269 24.251 24.184 24.104 23.746 23.464 23.251 22.816 22.536 22.276 22.091 21.819 21.486 21.129 20.774 20.531 20.334 20.156 20.059 20.014 19.956 19.801 19.619 19.409 19.216 19.009 18.776 18.576 18.424 18.279 18.141 17.996 17.869 17.651 17.431 17.196 16.991 16.824 16.653 16.456 16.346 16.216 16.058 15.933 15.746 15.611 15.426 15.278 15.101 14.881 14.698 14.526 14.316 14.156 13.988 13.793 13.623 13.476 13.281 13.106 12.981 12.836 12.666 12.536 12.378 12.236 12.091 11.921 11.776 11.633 11.503 11.383 11.286 11.136 11.043 10.921 10.798 10.698 10.611 10.521 10.413 10.351 10.256 10.178 10.138 10.073 10.036 9.988 9.961 9.926 9.906 9.871 9.893 9.873 9.883 9.903 9.971 10.058 10.056 10.523 11.483 12.713 12.146 11.478 11.498 11.503 11.528 11.693 12.483 13.513 13.171 12.928 12.976 13.051 13.133 13.238 13.336 13.426 13.526 13.646 13.741 13.866 13.981 14.081 14.168 14.326 14.466 14.611 14.751 14.868 15.018 15.141 15.266 15.366 15.471 15.566 15.663 15.718 15.818 15.916 15.981 16.038 16.078 16.116 16.158 16.138 16.153 16.153 16.128 16.121 16.093 16.063 15.998 15.981 15.946 15.883 15.811 15.751 15.728 15.668 15.603 15.546 15.518 15.451 15.371 15.328 15.283 15.236 15.156 15.091 15.018 15.008 14.958 14.908 14.856 14.808 14.778 14.681 14.641 14.603 14.566 14.496 14.473 14.451 14.388 14.348 14.331 14.286 14.278 14.221 14.193 14.173 14.171 14.131 14.146 14.093 14.083 14.061 14.033 14.051 14.041 14.038 14.056 14.068 14.061 14.068 14.096 14.133 14.146 14.216 14.263 14.308 14.346 14.423 14.476 14.531 14.616 14.708 14.768 14.853 14.906 14.946 15.041 15.131 15.216 15.338 15.436 15.568 15.663 15.741 15.868 15.981 16.068 16.181 16.283 16.353 16.441 16.536 16.613 16.683 16.751 16.836 16.928 17.063 17.231 17.361 17.533 17.683 17.836 17.966 18.178 18.261 18.506 18.721 19.008 19.196 19.438 20.701 22.213 23.138 23.273 23.026 21.556 21.666 21.993 22.291 22.578 22.846 23.151 23.456 23.696 23.991 24.231 24.493 24.718 25.013 25.226 25.523 25.758 25.988 26.233 26.476 26.668 26.891 27.093 27.308 27.538 27.788 28.028 28.251 28.476 28.701 28.943 29.341 30.648
25.346 25.504 25.806 26.096 26.444 26.769 27.116 27.436 29.191 29.769 28.959 31.079 29.509 29.379 29.686 30.469 31.589 31.851 32.499 34.224 33.396 34.096 34.769 35.376 36.236 36.981 37.204 37.836 38.259 38.286 38.386 38.591 38.721 38.836 43.909 39.284 39.191 39.411 40.416 40.031 40.286 39.896 40.781 39.979 40.936 40.049 40.086 40.154 40.301 40.344 40.571 40.734 41.059 41.299 40.929 40.864 40.834 40.809 40.796 40.796 41.524 45.419 43.761 41.949 41.444 41.924 41.381 42.146 41.401 41.814 41.694 40.749 41.599 45.076 41.501 39.789 39.694 40.171 39.594 40.146 40.444 39.289 39.079 41.691 39.426 39.256 38.021 37.241 36.829 36.686 39.234 40.549 36.496 35.891 38.444 38.254 37.149 34.801 33.786 33.716 33.186 35.884 32.771 32.634 32.479 32.336 32.219 32.054 31.914 31.774 31.616 31.444 31.269 31.109 30.911 30.734 30.576 30.369 30.161 29.984 29.781 29.579 29.386 29.196 29.004 28.826 28.639 28.459 28.284 28.126 27.944 27.786 27.599 27.401 27.224 27.021 26.849 26.696 26.541 26.394 26.226 26.074 25.954 26.129 26.236 26.511 27.224 26.036 25.276 24.914 24.766 24.654 24.579 24.536 24.416 24.324 24.239 24.169 24.114 24.056 24.019 24.001 23.891 23.801 23.674 23.509 23.101 22.956 22.631 22.286 21.799 21.656 21.234 21.024 20.674 20.364 20.211 20.049 19.899 19.734 19.501 19.319 19.121 18.916 18.751 18.599 18.476 18.356 18.174 17.991 17.789 17.584 17.326 17.091 16.926 16.753 16.591 16.461 16.318 16.168 15.996 15.811 15.653 15.501 15.333 15.166 14.963 14.771 14.561 14.398 14.216 14.068 13.903 13.728 13.573 13.406 13.266 13.111 12.981 12.838 12.671 12.513 12.343 12.171 12.003 11.823 11.678 11.531 11.388 11.243 11.096 11.008 10.898 10.766 10.673 10.598 10.503 10.446 10.356 10.281 10.238 10.191 10.158 10.118 10.051 10.051 10.048 9.993 9.986 9.973 10.001 9.976 10.043 10.108 10.143 11.146 12.696 12.763 11.828 11.523 11.506 11.496 11.538 12.208 13.253 13.266 13.041 12.921 12.986 13.063 13.138 13.246 13.336 13.426 13.516 13.613 13.731 13.846 13.956 14.088 14.213 14.346 14.471 14.643 14.778 14.888 15.043 15.173 15.303 15.428 15.513 15.596 15.691 15.811 15.886 15.973 16.056 16.148 16.181 16.251 16.271 16.293 16.316 16.328 16.308 16.306 16.313 16.298 16.253 16.216 16.193 16.131 16.073 16.023 15.986 15.923 15.876 15.818 15.793 15.751 15.698 15.638 15.616 15.563 15.493 15.441 15.358 15.326 15.271 15.211 15.181 15.133 15.073 15.011 15.008 14.986 14.911 14.861 14.831 14.793 14.731 14.688 14.671 14.648 14.561 14.543 14.478 14.431 14.388 14.398 14.366 14.358 14.323 14.306 14.301 14.276 14.263 14.271 14.248 14.218 14.238 14.231 14.256 14.241 14.246 14.261 14.303 14.356 14.393 14.468 14.491 14.553 14.626 14.681 14.726 14.803 14.876 14.961 15.036 15.121 15.163 15.233 15.356 15.418 15.516 15.621 15.748 15.853 15.958 16.056 16.136 16.218 16.318 16.393 16.491 16.556 16.628 16.726 16.841 16.916 16.998 17.098 17.208 17.318 17.483 17.593 17.736 17.943 18.093 18.208 18.321 18.546 18.786 19.036 19.261 19.513 20.531 20.826 20.133 20.348 20.656 21.003 21.403 21.816 22.188 22.518 22.851 23.151 23.411 23.686 23.951 24.211 24.501 24.746 24.993 25.253 25.523 25.756 26.016 26.263 26.468 26.691 27.083 27.808 28.018 27.726 27.836 28.043 28.281 28.503 28.778 30.923
24.989 25.219 25.576 25.924 26.254 26.551 26.851 27.129 27.401 27.699 29.109 29.536 29.866 29.369 30.099 29.506 29.994 30.609 31.364 32.174 32.261 32.986 33.586 34.204 35.644 35.541 36.146 36.881 37.911 37.989 38.489 38.794 38.596 39.049 41.341 41.626 39.109 39.286 39.456 39.801 39.921 40.304 40.629 39.961 40.146 39.981 40.174 40.186 40.291 40.346 40.466 41.041 40.591 41.809 40.774 40.771 40.826 40.794 41.246 40.971 40.884 42.494 46.324 40.841 41.816 40.779 40.716 40.644 40.749 40.719 41.624 40.409 41.114 42.229 40.924 40.389 41.021 40.771 39.946 39.941 40.644 41.506 39.441 41.214 40.269 39.189 39.221 41.034 37.891 37.231 37.009 37.431 36.594 36.324 36.989 36.846 35.971 40.284 36.499 35.799 36.969 39.129 35.711 35.661 32.606 32.471 33.289 32.204 32.034 31.889 31.739 31.594 31.429 31.251 31.084 30.904 30.741 30.549 30.336 30.159 29.984 29.801 29.584 29.396 29.201 29.024 28.834 28.646 28.434 28.254 28.109 27.954 27.766 27.576 27.419 27.251 27.074 26.904 26.746 26.586 26.436 26.324 26.149 25.999 25.821 25.709 25.819 25.881 26.004 26.291 25.966 25.139 24.656 24.536 24.514 24.434 24.321 24.264 24.139 24.041 23.946 23.844 23.786 23.684 23.791 23.779 23.491 23.376 23.226 22.986 22.736 22.334 21.994 22.824 21.724 21.446 21.066 20.949 21.666 20.359 19.866 19.621 19.389 19.169 18.991 18.876 18.716 18.629 18.451 18.301 18.054 17.799 17.464 17.219 17.044 16.881 16.736 16.568 16.401 16.233 16.068 15.921 15.763 15.596 15.401 15.216 15.016 14.813 14.616 14.438 14.253 14.058 13.921 13.753 13.598 13.463 13.296 13.123 12.996 12.876 12.691 12.553 12.378 12.216 12.056 11.908 11.748 11.621 11.491 11.348 11.216 11.088 10.981 10.893 10.786 10.656 10.553 10.483 10.418 10.361 10.316 10.243 10.196 10.146 10.101 10.118 10.131 10.128 10.111 10.101 10.138 10.123 10.181 10.251 11.521 12.783 12.616 11.591 11.441 11.516 11.553 11.573 13.076 13.803 13.653 13.011 12.998 13.031 13.073 13.176 13.271 13.313 13.411 13.523 13.611 13.736 13.838 13.958 14.086 14.223 14.356 14.498 14.631 14.771 14.911 15.056 15.183 15.328 15.451 15.566 15.691 15.773 15.853 15.968 16.063 16.136 16.228 16.316 16.383 16.418 16.448 16.481 16.496 16.506 16.506 16.503 16.506 16.488 16.466 16.398 16.383 16.348 16.303 16.228 16.176 16.168 16.106 16.048 16.043 15.988 15.951 15.913 15.873 15.818 15.771 15.716 15.661 15.628 15.583 15.541 15.458 15.411 15.368 15.346 15.308 15.258 15.261 15.221 15.143 15.118 15.071 15.003 14.948 14.906 14.866 14.843 14.773 14.723 14.701 14.673 14.616 14.598 14.568 14.553 14.533 14.491 14.493 14.478 14.473 14.473 14.443 14.426 14.411 14.441 14.468 14.448 14.473 14.501 14.538 14.571 14.598 14.668 14.708 14.763 14.818 14.886 14.953 15.008 15.088 15.176 15.268 15.328 15.401 15.466 15.548 15.648 15.768 15.851 15.958 16.041 16.143 16.211 16.311 16.356 16.471 16.546 16.623 16.683 16.793 16.863 16.971 17.061 17.166 17.256 17.353 17.463 17.546 17.698 17.856 17.983 18.141 18.276 18.448 18.586 18.783 19.001 19.296 19.521 19.808 19.976 20.141 20.336 20.556 20.828 21.221 21.626 22.063 22.463 22.768 23.053 23.333 23.633 23.933 24.221 24.481 24.741 25.001 25.251 25.501 25.743 25.993 26.233 26.813 28.536 29.221 27.681 27.351 27.553 27.798 28.016 28.251 28.566
24.681 24.994 25.406 25.719 26.051 26.366 26.679 26.949 27.246 27.481 27.754 28.009 28.251 28.604 29.384 29.259 29.809 30.476 31.741 30.579 31.151 32.729 32.371 33.264 34.136 34.531 35.036 35.571 36.589 36.991 37.486 38.296 38.511 38.714 39.196 40.089 42.226 39.104 39.246 39.614 39.976 40.234 40.294 39.754 43.636 40.029 40.136 40.169 40.231 40.461 40.501 40.761 40.601 40.644 40.714 40.819 40.859 40.816 40.829 40.989 40.844 40.914 45.424 44.599 40.784 40.744 40.804 40.711 40.669 40.694 40.906 40.609 40.561 41.881 40.871 40.569 41.549 40.321 41.121 41.494 41.401 41.261 39.579 39.154 39.261 39.009 40.449 40.846 39.919 38.124 37.739 37.516 37.301 37.071 41.414 37.559 36.166 35.889 35.914 35.704 39.476 41.829 42.519 37.189 33.431 33.181 38.566 33.844 32.144 31.981 31.816 31.701 31.539 31.391 31.236 31.071 30.894 30.716 30.511 30.334 30.161 29.976 29.769 29.596 29.419 29.229 29.039 28.866 28.656 28.469 28.296 28.119 27.926 27.751 27.569 27.409 27.249 27.109 26.954 26.814 26.639 26.501 26.379 26.236 26.086 25.946 25.789 25.751 25.574 25.576 25.956 26.174 25.674 25.466 24.874 24.479 24.386 24.284 24.221 24.166 24.001 23.904 23.816 23.686 23.584 23.466 23.376 23.286 23.216 23.154 23.019 22.891 22.744 22.976 22.224 21.859 21.639 21.814 22.054 20.846 20.576 20.334 20.104 19.839 19.586 19.431 19.296 19.174 18.876 18.701 18.511 18.161 17.874 17.624 17.371 17.101 16.911 16.766 16.513 16.313 16.153 15.976 15.798 15.633 15.431 15.246 15.088 14.878 14.681 14.513 14.301 14.076 13.936 13.798 13.656 13.511 13.378 13.226 13.038 12.871 12.711 12.571 12.393 12.243 12.091 11.946 11.796 11.666 11.523 11.403 11.268 11.146 11.056 10.951 10.858 10.768 10.711 10.613 10.541 10.476 10.416 10.336 10.288 10.258 10.246 10.241 10.238 10.293 10.288 10.221 10.273 10.268 10.768 12.688 12.908 12.448 11.601 11.486 11.566 11.548 12.156 13.131 13.773 13.761 13.226 13.053 13.091 13.156 13.221 13.303 13.353 13.428 13.533 13.651 13.746 13.873 14.013 14.111 14.223 14.348 14.496 14.671 14.821 14.951 15.081 15.236 15.366 15.496 15.611 15.753 15.853 15.931 16.043 16.131 16.206 16.291 16.386 16.471 16.546 16.618 16.651 16.673 16.703 16.703 16.706 16.696 16.723 16.686 16.681 16.636 16.596 16.551 16.516 16.483 16.471 16.393 16.358 16.303 16.296 16.253 16.203 16.161 16.126 16.103 16.043 15.976 15.941 15.916 15.871 15.793 15.761 15.736 15.681 15.641 15.613 15.593 15.563 15.508 15.498 15.458 15.371 15.338 15.296 15.236 15.191 15.151 15.108 15.048 14.996 14.961 14.948 14.901 14.846 14.828 14.801 14.753 14.733 14.728 14.713 14.723 14.686 14.653 14.636 14.656 14.638 14.628 14.661 14.708 14.703 14.698 14.753 14.781 14.831 14.891 14.911 14.966 15.036 15.123 15.196 15.276 15.368 15.428 15.513 15.563 15.648 15.726 15.771 15.871 15.953 16.048 16.133 16.238 16.286 16.361 16.458 16.511 16.581 16.666 16.751 16.831 16.928 17.018 17.116 17.231 17.331 17.413 17.523 17.631 17.716 17.846 17.953 18.098 18.273 18.401 18.523 18.693 18.873 19.086 19.286 19.508 19.793 20.026 20.246 20.441 20.606 20.803 21.073 21.438 21.871 22.278 22.638 23.026 23.321 23.626 23.911 24.188 24.451 24.708 24.971 25.513 25.536 25.721 25.961 26.648 27.051 26.661 26.891 27.076 27.291 27.538 27.743 27.978
24.416 24.799 25.211 25.524 25.831 26.151 26.489 26.779 27.039 27.301 27.556 27.789 28.036 28.276 28.544 28.819 29.031 31.681 31.319 31.214 30.426 30.659 31.436 32.069 32.894 33.564 34.386 34.601 35.104 35.746 36.401 36.901 37.546 38.024 38.289 39.499 40.289 40.339 40.146 39.366 42.666 39.564 39.601 40.086 42.101 40.394 40.394 40.269 40.251 40.879 40.346 40.451 40.491 40.744 40.751 40.751 40.916 40.836 40.824 40.814 40.784 40.816 45.359 44.384 41.284 41.471 40.811 40.724 40.666 45.736 46.019 40.566 40.686 41.924 42.149 40.259 40.196 41.364 41.599 41.206 40.996 41.896 39.599 40.349 39.469 39.346 40.839 41.316 40.549 39.334 38.561 38.251 39.374 41.311 45.286 38.976 37.006 38.256 36.539 36.154 36.769 40.141 40.899 37.209 34.919 34.679 37.041 34.079 33.139 32.384 32.064 31.824 31.686 31.511 31.356 31.219 31.044 30.864 30.676 30.526 30.314 30.146 29.999 29.804 29.604 29.396 29.209 29.056 28.854 28.706 28.526 28.349 28.149 27.991 27.769 27.641 27.459 27.306 27.129 26.971 26.839 26.676 26.554 26.424 26.316 26.156 26.026 25.891 25.779 25.671 25.524 25.401 25.406 25.729 25.784 25.756 24.996 24.531 24.271 24.119 24.051 24.004 23.871 23.766 23.661 23.516 23.384 23.254 23.119 22.999 22.901 22.796 22.714 22.611 22.524 22.396 22.176 21.986 21.794 21.581 21.486 21.161 20.906 20.626 20.494 21.074 19.856 19.881 19.451 19.201 19.129 18.949 18.666 18.166 17.989 17.888 17.733 17.363 17.071 16.856 16.631 16.438 16.243 15.953 15.641 15.388 15.166 14.981 14.773 14.586 14.306 14.116 13.958 13.831 13.678 13.528 13.393 13.243 13.068 12.893 12.723 12.563 12.398 12.216 12.098 11.966 11.838 11.718 11.546 11.411 11.288 11.173 11.081 10.988 10.846 10.793 10.703 10.608 10.598 10.538 10.461 10.406 10.376 10.338 10.288 10.281 10.316 10.331 10.311 10.346 10.648 11.841 13.286 12.941 11.941 11.541 11.586 11.588 11.608 12.091 13.146 13.636 13.348 13.203 13.148 13.186 13.238 13.336 13.363 13.433 13.511 13.611 13.696 13.801 13.918 14.036 14.173 14.293 14.436 14.546 14.686 14.833 14.981 15.131 15.268 15.406 15.521 15.671 15.803 15.913 16.006 16.108 16.191 16.298 16.423 16.521 16.563 16.666 16.718 16.776 16.818 16.888 16.928 16.908 16.936 16.916 16.903 16.906 16.898 16.851 16.806 16.796 16.773 16.711 16.693 16.658 16.636 16.571 16.561 16.551 16.496 16.461 16.426 16.353 16.308 16.266 16.236 16.211 16.171 16.131 16.078 16.038 16.008 15.988 15.951 15.908 15.871 15.838 15.816 15.753 15.726 15.668 15.608 15.556 15.533 15.476 15.406 15.341 15.326 15.261 15.208 15.188 15.141 15.121 15.093 15.028 15.021 15.018 14.973 14.956 14.916 14.913 14.856 14.856 14.873 14.881 14.881 14.911 14.893 14.916 14.946 14.966 14.981 15.018 15.036 15.113 15.153 15.211 15.271 15.346 15.441 15.513 15.596 15.656 15.736 15.816 15.891 15.958 16.006 16.068 16.146 16.216 16.281 16.353 16.448 16.491 16.596 16.651 16.746 16.796 16.906 16.996 17.071 17.181 17.266 17.383 17.493 17.613 17.728 17.813 17.891 18.011 18.098 18.263 18.401 18.578 18.691 18.838 19.048 19.223 19.346 19.541 19.731 19.993 20.251 20.516 20.736 20.936 21.116 21.328 21.763 23.491 22.516 23.608 23.726 23.828 24.016 24.133 24.426 26.076 25.526 25.188 25.441 25.673 25.898 26.138 26.363 26.558 26.786 27.003 27.228 27.463
24.219 24.621 24.999 25.339 25.636 25.936 26.251 26.531 26.799 27.056 27.369 27.619 27.876 28.101 28.311 28.621 28.819 30.059 30.444 32.249 31.664 31.599 30.664 30.836 32.401 32.554 33.209 33.584 34.154 34.781 35.214 35.764 36.216 36.869 37.416 37.754 38.001 38.511 38.739 39.846 40.561 39.416 40.041 40.419 39.779 39.926 40.134 40.089 40.049 40.359 40.116 40.201 40.274 40.356 40.529 40.649 40.639 40.864 40.836 40.846 40.836 40.801 42.056 42.854 40.869 41.036 40.936 40.769 40.669 46.264 47.144 43.319 41.431 41.574 40.409 40.274 40.241 40.249 40.329 40.801 40.454 40.314 39.776 40.474 40.041 39.466 39.491 39.859 39.964 39.344 39.076 39.281 41.949 42.904 41.404 39.896 38.009 37.521 37.949 40.941 37.521 37.176 37.316 36.381 35.869 36.439 35.714 35.634 35.501 33.824 32.949 32.189 31.869 31.611 31.446 31.301 31.854 30.964 30.789 30.614 30.416 30.229 30.066 29.926 29.729 29.591 29.369 29.206 29.034 28.884 28.729 28.569 28.391 28.229 28.036 27.871 27.731 27.584 27.409 27.254 27.084 26.911 26.761 26.629 26.484 26.321 26.203 26.066 25.958 25.933 25.721 25.606 25.471 25.321 25.203 25.218 25.536 25.948 25.928 25.503 24.533 24.093 23.921 23.806 23.713 23.603 23.516 23.396 23.216 23.071 22.951 22.813 22.693 22.511 22.366 22.248 22.068 21.966 21.876 21.713 21.596 21.408 21.206 21.126 20.876 21.068 20.276 20.006 19.698 19.631 19.313 19.121 19.056 18.666 18.611 18.436 18.161 17.901 17.606 17.451 17.073 16.951 17.286 16.658 16.298 16.063 15.843 15.603 15.368 15.158 14.906 14.668 14.421 14.153 13.943 13.758 13.588 13.403 13.201 12.968 12.768 12.603 12.431 12.261 12.103 11.956 11.833 11.751 11.603 11.443 11.313 11.203 11.128 10.998 10.903 10.858 10.773 10.706 10.626 10.581 10.518 10.451 10.401 10.401 10.363 10.363 10.393 10.503 10.693 10.901 12.641 13.141 11.876 11.541 11.583 11.631 11.603 11.903 12.881 13.653 13.438 13.158 13.191 13.266 13.298 13.356 13.423 13.453 13.541 13.618 13.696 13.751 13.861 14.003 14.096 14.238 14.358 14.496 14.646 14.781 14.893 15.026 15.211 15.308 15.478 15.588 15.728 15.866 16.001 16.106 16.183 16.303 16.421 16.518 16.616 16.703 16.778 16.853 16.936 16.993 17.021 17.083 17.126 17.146 17.156 17.148 17.161 17.168 17.131 17.113 17.076 17.031 17.003 16.981 16.966 16.938 16.901 16.848 16.831 16.793 16.746 16.731 16.698 16.671 16.623 16.566 16.508 16.486 16.458 16.426 16.366 16.341 16.313 16.281 16.258 16.218 16.178 16.181 16.151 16.111 16.033 15.983 15.943 15.901 15.831 15.798 15.753 15.698 15.633 15.603 15.566 15.506 15.443 15.381 15.388 15.351 15.306 15.258 15.241 15.221 15.178 15.156 15.143 15.151 15.108 15.123 15.111 15.123 15.118 15.116 15.118 15.151 15.186 15.231 15.241 15.271 15.301 15.356 15.393 15.473 15.526 15.603 15.656 15.743 15.826 15.908 15.956 16.056 16.123 16.161 16.223 16.273 16.328 16.376 16.458 16.49 16.585 16.658 16.738 16.813 16.885 16.978 17.028 17.153 17.248 17.363 17.478 17.578 17.713 17.808 17.91 17.99 18.093 18.198 18.3 18.398 18.533 18.69 18.843 18.928 19.115 19.318 19.448 19.618 19.775 19.943 20.17 20.478 20.853 21.128 21.295 21.508 21.728 22.445 22.51 22.903 23.218 23.433 23.735 24.323 24.415 24.648 24.935 25.155 25.37 25.585 25.8 26.02 26.233 26.483 26.708 26.97
24.034 24.431 24.791 25.139 25.459 25.734 25.999 26.294 26.556 26.829 27.101 27.381 27.649 27.914 28.176 28.436 28.624 28.844 29.014 29.236 31.211 30.401 30.376 30.551 30.541 31.049 32.301 32.276 32.786 34.154 34.229 34.836 35.261 37.411 36.214 36.604 36.874 37.351 37.991 38.281 38.519 39.246 39.191 40.154 39.919 39.666 39.694 40.896 39.936 40.384 40.929 42.064 40.146 40.276 40.416 40.574 40.661 40.631 40.721 40.804 40.744 40.826 40.836 41.471 41.181 40.844 40.981 40.819 43.854 48.256 48.094 47.716 44.874 41.561 42.139 40.521 40.264 40.274 40.344 40.394 40.909 39.919 39.921 40.426 39.986 39.879 39.606 39.499 39.359 39.301 39.211 41.304 46.781 41.686 39.436 38.929 38.421 38.069 37.876 39.336 37.414 37.269 36.879 36.714 36.799 36.564 35.826 37.726 39.236 36.509 34.376 32.634 32.011 31.764 31.706 31.896 34.636 31.506 30.824 30.701 30.526 30.374 30.106 29.941 29.769 29.639 29.479 29.299 29.151 28.989 28.849 28.746 28.544 28.396 28.234 28.079 27.941 27.804 27.696 27.514 27.381 27.219 27.076 26.919 26.791 26.598 26.466 26.273 26.103 25.958 25.838 25.698 25.578 25.446 25.313 25.116 24.976 24.903 25.258 25.318 25.363 24.818 24.356 24.106 23.911 23.698 23.556 23.391 23.313 23.158 23.011 22.888 22.728 22.571 22.401 22.248 22.126 21.933 21.786 21.628 21.403 21.246 21.068 20.906 20.736 20.533 20.296 20.091 19.858 19.706 19.533 19.306 19.211 18.991 18.816 18.636 18.483 18.263 18.068 17.843 17.603 17.361 17.183 17.026 16.731 16.503 16.411 16.131 15.851 15.673 15.428 15.243 15.048 14.918 14.731 14.483 14.381 14.156 13.813 13.591 13.296 13.258 13.161 12.673 12.523 12.186 12.036 11.991 11.846 11.606 11.441 11.401 11.271 11.033 10.933 10.898 10.838 10.776 10.681 10.631 10.623 10.521 10.521 10.521 10.593 10.636 10.741 11.151 11.551 11.381 12.023 11.728 11.606 11.653 11.656 11.963 13.061 13.966 14.293 13.768 13.301 13.328 13.353 13.416 13.493 13.531 13.596 13.673 13.756 13.816 13.911 13.996 14.093 14.216 14.343 14.468 14.568 14.716 14.863 14.991 15.138 15.276 15.403 15.543 15.706 15.831 15.946 16.078 16.226 16.291 16.433 16.526 16.626 16.743 16.833 16.911 17.006 17.071 17.171 17.216 17.248 17.291 17.331 17.358 17.381 17.401 17.371 17.393 17.396 17.366 17.346 17.298 17.301 17.261 17.236 17.206 17.176 17.136 17.121 17.073 17.033 17.006 16.988 16.956 16.906 16.873 16.798 16.763 16.758 16.713 16.688 16.626 16.608 16.611 16.578 16.531 16.498 16.498 16.463 16.416 16.373 16.321 16.246 16.191 16.188 16.148 16.088 16.041 16.016 15.966 15.903 15.828 15.781 15.726 15.688 15.648 15.626 15.593 15.538 15.483 15.456 15.431 15.403 15.366 15.368 15.398 15.386 15.368 15.386 15.366 15.386 15.351 15.371 15.391 15.413 15.436 15.498 15.523 15.563 15.603 15.666 15.743 15.766 15.841 15.926 15.971 16.048 16.146 16.186 16.238 16.306 16.373 16.421 16.461 16.511 16.558 16.6 16.663 16.743 16.818 16.91 16.98 17.095 17.168 17.245 17.33 17.463 17.553 17.67 17.775 17.893 17.993 18.093 18.238 18.31 18.403 18.478 18.6 18.688 18.805 18.96 19.093 19.268 19.455 19.573 19.71 19.828 20.023 20.268 21.918 21.965 21.85 21.438 21.623 21.79 21.975 22.448 22.498 22.828 23.22 23.645 23.933 24.295 24.598 24.853 25.07 25.303 25.513 25.708 25.918 26.173 26.433
23.866 24.246 24.594 24.931 25.259 25.544 25.826 26.099 26.349 26.586 26.854 27.179 27.389 27.661 27.949 28.219 28.446 28.686 28.874 29.044 29.246 29.419 29.691 30.424 30.411 32.319 30.904 31.221 31.541 32.484 32.619 33.601 34.691 34.521 35.826 37.146 35.706 36.096 36.699 36.871 37.404 38.414 38.534 39.071 39.556 39.194 38.651 38.644 40.389 39.456 42.724 41.239 39.719 39.991 40.064 41.239 40.186 40.174 42.644 42.641 40.581 40.799 41.934 40.911 40.831 40.841 40.791 40.776 41.811 43.084 47.319 46.781 42.299 41.729 41.804 41.451 40.451 40.326 40.339 40.794 40.371 39.981 39.951 39.899 39.844 39.761 39.661 39.886 39.604 39.664 39.389 39.896 41.931 42.319 39.231 39.069 39.696 39.486 38.536 38.071 37.821 37.656 37.396 37.151 37.076 37.009 36.576 40.621 40.106 36.624 36.054 33.871 33.199 32.639 32.706 33.181 34.766 33.031 31.051 31.059 30.816 30.484 30.331 30.039 29.879 29.771 29.514 29.311 29.154 29.014 28.869 28.831 28.549 28.481 28.341 28.191 28.084 27.929 27.819 27.686 27.571 27.436 27.311 27.166 27.024 26.886 26.728 26.558 26.368 26.168 26.008 25.823 25.641 25.483 25.333 25.171 25.031 24.891 24.736 24.601 24.461 24.523 25.143 25.071 24.886 24.528 23.966 23.663 23.488 23.281 23.113 22.916 22.781 22.628 22.488 22.331 22.158 22.021 21.866 21.691 21.488 21.293 21.148 20.938 20.728 20.521 20.318 20.141 19.938 19.746 19.561 19.333 19.168 18.953 18.771 18.551 18.376 18.181 17.961 17.731 17.518 17.296 17.116 16.968 16.663 16.508 16.283 16.071 15.931 15.661 15.441 15.268 15.076 14.911 14.731 14.508 14.338 14.131 13.878 13.631 13.488 13.841 13.646 13.206 12.901 12.731 12.543 12.431 12.246 12.093 11.948 11.951 11.826 11.686 11.608 11.996 12.076 11.903 11.513 11.123 11.591 11.558 11.101 11.023 11.196 11.233 11.256 11.453 11.508 11.556 11.568 11.636 11.731 11.736 12.608 13.518 14.551 14.308 13.578 13.501 13.491 13.521 13.578 13.656 13.701 13.751 13.831 13.926 13.978 14.081 14.158 14.281 14.381 14.493 14.623 14.746 14.871 15.003 15.123 15.263 15.383 15.526 15.641 15.786 15.926 16.066 16.181 16.288 16.438 16.558 16.638 16.746 16.883 16.983 17.068 17.163 17.238 17.301 17.393 17.486 17.508 17.528 17.566 17.596 17.626 17.623 17.633 17.638 17.621 17.608 17.586 17.578 17.551 17.521 17.506 17.478 17.446 17.451 17.403 17.361 17.338 17.303 17.266 17.238 17.216 17.166 17.111 17.091 17.056 17.016 16.998 16.951 16.916 16.903 16.903 16.888 16.838 16.816 16.791 16.743 16.726 16.661 16.631 16.558 16.511 16.458 16.433 16.378 16.328 16.263 16.251 16.218 16.158 16.068 16.051 15.996 15.933 15.878 15.846 15.801 15.761 15.713 15.701 15.638 15.633 15.613 15.623 15.643 15.658 15.626 15.633 15.613 15.628 15.638 15.643 15.681 15.698 15.718 15.746 15.793 15.828 15.873 15.936 15.966 16.028 16.091 16.153 16.208 16.253 16.318 16.388 16.473 16.518 16.558 16.631 16.638 16.665 16.733 16.788 16.858 16.905 16.988 17.088 17.173 17.25 17.345 17.438 17.543 17.658 17.77 17.878 17.98 18.09 18.218 18.31 18.403 18.51 18.595 18.665 18.758 18.858 18.93 19.055 19.195 19.35 19.488 19.665 19.85 20.008 20.168 20.445 20.763 20.975 21.275 21.498 21.793 21.97 22.148 22.343 22.493 22.723 23.028 23.403 23.8 24.143 24.463 24.708 24.96 25.185 25.403 25.683 25.943
23.631 24.009 24.359 24.716 25.026 25.316 25.621 25.894 26.116 26.394 26.611 26.909 27.174 27.421 27.726 27.991 28.254 28.499 28.711 28.924 29.121 29.314 29.519 29.724 29.926 30.146 30.376 30.859 30.879 31.209 32.379 32.359 33.956 32.979 33.476 34.194 34.464 34.824 35.319 35.676 36.671 36.631 37.074 37.011 39.036 37.251 37.449 37.604 37.761 38.926 40.184 38.484 38.711 38.789 39.669 41.541 40.019 39.884 44.581 42.974 40.114 40.461 41.314 41.096 40.831 40.464 40.426 40.534 40.544 41.729 42.649 41.344 41.211 41.026 41.049 40.846 40.606 40.384 40.396 40.614 40.364 40.211 40.344 40.151 40.011 39.884 39.829 39.834 39.854 40.389 39.781 40.156 39.624 39.261 39.211 39.294 38.944 39.076 38.611 38.456 38.069 37.811 37.656 37.554 37.399 37.301 37.096 38.966 37.104 36.491 36.464 36.686 35.421 33.549 33.289 33.004 36.136 34.331 32.496 31.486 31.366 31.076 32.376 32.466 30.679 29.871 29.671 29.429 29.226 29.121 29.166 29.051 28.701 28.564 28.476 28.299 28.136 28.004 27.904 27.809 27.681 27.579 27.484 27.391 27.259 27.118 26.983 26.808 26.583 26.426 26.203 25.976 25.768 25.558 25.388 25.181 25.066 24.881 24.718 24.616 24.466 24.351 24.198 24.136 24.431 24.766 24.803 24.898 24.406 23.753 23.376 23.191 23.018 22.801 22.603 22.381 22.206 22.101 21.973 21.768 21.571 21.381 21.166 20.961 20.786 20.568 20.386 20.206 20.023 19.821 19.606 19.398 19.223 19.046 18.826 18.621 18.386 22.936 19.943 17.723 17.581 17.303 17.168 16.938 16.731 16.506 16.261 16.058 15.856 15.623 15.431 15.228 14.986 14.831 14.631 14.448 14.238 14.026 13.801 13.583 13.461 13.303 13.196 12.998 12.876 12.696 12.576 12.448 12.311 12.231 12.131 12.023 11.903 11.856 11.818 11.838 11.861 11.958 11.823 11.643 11.623 11.543 11.543 11.608 11.663 11.633 11.603 11.606 11.651 11.738 11.746 11.831 11.928 13.358 13.671 13.956 13.818 13.568 13.633 13.628 13.716 13.786 13.808 13.883 14.003 14.063 14.118 14.193 14.271 14.383 14.481 14.586 14.721 14.833 14.953 15.058 15.171 15.313 15.416 15.531 15.663 15.803 15.936 16.061 16.216 16.338 16.476 16.591 16.716 16.823 16.928 17.023 17.133 17.253 17.378 17.431 17.493 17.576 17.663 17.718 17.748 17.813 17.833 17.846 17.856 17.861 17.876 17.888 17.898 17.878 17.863 17.856 17.843 17.818 17.796 17.786 17.751 17.718 17.693 17.683 17.676 17.611 17.586 17.551 17.506 17.463 17.423 17.411 17.381 17.363 17.326 17.301 17.258 17.226 17.226 17.191 17.171 17.148 17.113 17.071 17.053 17.026 16.973 16.901 16.901 16.848 16.783 16.718 16.673 16.628 16.558 16.526 16.493 16.421 16.368 16.333 16.276 16.201 16.163 16.126 16.091 16.046 16.021 15.973 15.921 15.903 15.893 15.903 15.883 15.891 15.893 15.903 15.891 15.883 15.888 15.901 15.918 15.968 15.976 15.996 16.021 16.076 16.088 16.143 16.176 16.201 16.276 16.316 16.373 16.433 16.461 16.498 16.586 16.636 16.686 16.73 16.763 16.82 16.898 16.945 16.96 17.023 17.103 17.188 17.275 17.355 17.47 17.575 17.688 17.788 17.888 17.993 18.09 18.198 18.298 18.393 18.488 18.613 18.685 18.755 18.848 18.918 18.993 19.098 19.188 19.328 19.448 19.618 19.758 19.913 20.095 20.325 20.513 20.803 21.075 21.295 21.565 21.868 22.145 22.323 22.48 22.593 22.733 22.885 23.185 23.523 23.915 24.218 24.58 24.873 25.135 25.425
23.474 23.816 24.141 24.481 24.814 25.081 25.364 25.631 25.926 26.171 26.406 26.656 26.904 27.191 27.476 27.781 28.039 28.291 28.514 28.729 28.956 29.194 29.389 29.579 29.724 29.901 30.114 30.304 30.486 30.746 31.516 32.684 32.104 32.291 32.026 33.579 34.086 33.369 33.839 34.166 35.429 35.086 35.169 38.031 36.729 38.181 38.951 38.046 36.891 37.414 37.966 37.206 38.101 37.449 39.291 38.416 39.129 38.756 41.539 39.264 39.449 39.741 40.654 39.956 40.009 39.591 39.539 39.636 39.644 39.711 40.209 40.019 40.174 40.371 40.116 40.306 40.831 40.456 40.411 40.479 40.464 40.366 40.984 40.306 40.444 40.299 40.019 39.976 40.081 39.936 40.114 40.816 39.791 39.364 39.299 39.336 39.134 38.921 38.544 38.624 38.236 37.969 37.816 37.909 37.586 37.504 37.329 37.316 37.069 37.016 36.849 36.706 36.666 35.241 34.919 34.344 34.216 34.806 34.811 35.101 36.129 32.924 33.936 35.691 34.064 33.684 31.166 29.934 29.859 30.251 29.874 30.531 30.199 29.379 29.261 28.901 28.759 28.649 28.399 28.214 28.059 27.761 27.586 27.404 27.309 27.223 27.143 27.043 26.856 26.688 26.441 26.191 25.916 25.631 25.396 25.233 25.076 24.878 24.701 24.538 24.366 24.258 24.143 24.038 23.911 23.758 23.823 23.981 24.188 24.473 24.718 24.356 23.426 22.961 22.776 22.628 22.428 22.208 22.033 21.868 21.663 21.466 21.248 21.041 20.856 20.633 20.438 20.221 20.033 19.831 19.628 19.418 19.251 18.991 18.858 18.613 18.411 23.453 18.111 17.718 17.518 17.306 17.121 16.891 16.716 16.511 16.298 16.053 15.843 15.636 15.441 15.243 15.068 14.868 14.656 14.456 14.251 14.051 13.861 13.648 13.466 13.343 13.178 13.046 12.908 12.836 12.703 12.538 12.396 12.258 12.158 12.068 12.038 12.003 11.926 11.913 11.893 11.786 11.831 11.768 11.831 11.771 11.766 11.753 11.716 11.761 11.746 11.776 11.821 11.808 11.918 12.581 12.973 13.601 13.711 13.683 13.728 13.781 13.828 13.861 13.963 14.036 14.083 14.203 14.313 14.361 14.433 14.493 14.596 14.713 14.821 14.966 15.056 15.161 15.296 15.418 15.533 15.633 15.753 15.888 16.006 16.146 16.271 16.396 16.508 16.641 16.746 16.863 16.988 17.116 17.231 17.341 17.443 17.536 17.646 17.718 17.786 17.838 17.963 18.018 18.043 18.076 18.131 18.153 18.158 18.133 18.143 18.163 18.153 18.146 18.173 18.151 18.116 18.136 18.121 18.096 18.068 18.046 18.026 17.983 17.958 17.948 17.876 17.866 17.838 17.778 17.756 17.716 17.721 17.681 17.638 17.633 17.606 17.576 17.561 17.546 17.511 17.468 17.468 17.456 17.406 17.361 17.318 17.263 17.228 17.143 17.123 17.078 17.008 16.973 16.933 16.878 16.828 16.733 16.713 16.673 16.608 16.551 16.488 16.468 16.403 16.346 16.318 16.271 16.238 16.216 16.211 16.186 16.183 16.186 16.143 16.168 16.153 16.166 16.171 16.173 16.188 16.191 16.198 16.216 16.238 16.256 16.296 16.318 16.333 16.373 16.413 16.446 16.478 16.523 16.551 16.601 16.643 16.688 16.763 16.813 16.845 16.935 16.995 17.005 17.043 17.103 17.168 17.24 17.308 17.395 17.503 17.603 17.703 17.79 17.885 18.023 18.108 18.22 18.313 18.385 18.465 18.558 18.663 18.768 18.848 18.958 19.033 19.128 19.178 19.273 19.368 19.478 19.62 19.733 19.87 20.09 20.278 20.483 20.703 20.888 21.145 21.425 21.658 21.863 22.105 22.29 22.518 22.698 22.825 22.96 23.115 23.378 23.66 24.07 24.548 24.925
23.344 23.719 24.001 24.291 24.576 24.851 25.119 25.391 25.664 25.959 26.191 26.414 26.706 27.021 27.241 27.534 27.814 28.049 28.261 28.499 28.714 28.934 29.161 29.384 29.554 29.739 29.906 30.071 30.256 30.441 30.634 30.939 31.356 31.861 31.841 32.921 33.121 32.986 33.121 32.741 33.994 34.146 36.049 35.586 38.534 36.416 38.334 35.976 35.291 35.591 35.671 35.949 36.069 37.574 37.894 36.816 37.144 37.449 37.644 37.749 37.889 38.134 38.636 38.431 39.099 39.179 38.184 38.334 38.379 38.434 38.549 38.856 38.886 39.174 39.326 39.361 40.004 39.691 39.849 39.929 40.024 40.016 40.059 40.061 41.439 42.326 39.784 39.731 39.754 39.599 40.116 40.429 39.461 39.869 39.524 39.326 39.101 38.901 38.639 38.614 38.516 39.116 41.744 39.036 37.856 37.661 37.514 37.444 37.441 37.409 37.449 36.989 38.189 36.801 36.556 35.931 35.669 35.469 35.186 37.369 41.819 35.129 35.681 35.396 35.959 36.686 31.874 31.341 31.076 30.791 30.989 31.254 30.444 30.749 30.364 30.694 31.076 31.036 30.014 29.494 29.554 28.759 28.359 28.041 27.746 28.453 28.251 27.268 27.098 26.986 26.736 26.388 26.041 25.703 25.446 25.238 25.121 28.176 25.188 24.383 24.223 24.166 24.083 24.003 23.848 23.748 23.631 23.486 23.418 23.378 23.448 23.746 24.228 24.101 23.113 22.673 22.493 22.406 22.256 21.963 21.786 21.558 21.386 21.156 20.906 20.706 20.501 20.293 20.048 19.823 19.628 19.391 19.196 19.078 18.866 19.633 21.771 23.753 21.881 17.806 17.573 17.383 17.158 17.803 16.723 16.521 16.271 16.048 15.811 15.581 15.411 15.601 15.036 14.828 14.631 14.443 14.221 14.021 13.893 13.668 13.491 13.296 13.203 13.091 12.968 12.793 12.726 12.598 12.453 12.301 12.243 12.186 12.066 12.136 12.056 12.026 11.961 11.918 11.981 11.893 11.971 11.933 11.883 11.896 11.926 11.918 11.893 11.901 11.958 12.253 13.443 14.123 13.841 13.791 13.831 13.888 13.896 13.956 14.038 14.143 14.201 14.283 14.393 14.473 14.598 14.723 14.801 14.898 14.976 15.068 15.186 15.323 15.433 15.546 15.653 15.783 15.923 16.036 16.103 16.233 16.371 16.486 16.611 16.733 16.863 16.971 17.093 17.218 17.321 17.448 17.538 17.648 17.733 17.828 17.948 18.018 18.098 18.176 18.241 18.278 18.341 18.396 18.426 18.448 18.463 18.443 18.431 18.443 18.458 18.468 18.473 18.481 18.451 18.418 18.423 18.436 18.403 18.366 18.321 18.308 18.291 18.246 18.216 18.176 18.153 18.108 18.071 18.051 18.016 17.988 17.976 17.948 17.941 17.911 17.911 17.886 17.878 17.846 17.816 17.756 17.738 17.728 17.646 17.603 17.563 17.528 17.473 17.418 17.368 17.338 17.293 17.211 17.173 17.101 17.081 17.013 16.956 16.893 16.883 16.791 16.728 16.698 16.646 16.616 16.568 16.546 16.531 16.533 16.486 16.443 16.436 16.446 16.433 16.421 16.443 16.478 16.481 16.428 16.451 16.453 16.501 16.493 16.503 16.503 16.538 16.548 16.593 16.636 16.643 16.663 16.686 16.728 16.766 16.781 16.821 16.868 16.925 16.993 17.073 17.093 17.143 17.205 17.268 17.323 17.388 17.468 17.56 17.648 17.768 17.858 17.983 18.06 18.148 18.235 18.325 18.415 18.485 18.575 18.645 18.748 18.833 18.91 19.015 19.145 19.223 19.305 19.395 19.49 19.56 19.65 19.775 19.918 20.063 20.265 20.513 20.64 20.84 21.04 21.235 21.538 21.658 21.86 22.065 23.025 22.713 22.69 22.915 23.043 23.225 23.408 23.788 24.013
23.189 23.534 23.814 24.106 24.364 24.631 24.861 25.139 25.424 25.671 25.906 26.189 26.454 26.751 27.031 27.316 27.566 27.786 28.004 28.244 28.509 28.694 28.936 29.156 29.326 29.559 29.736 29.929 30.114 30.254 30.439 30.616 30.774 30.911 31.064 31.239 31.459 31.909 32.159 32.209 33.241 34.649 34.636 34.589 34.119 36.639 36.954 35.229 33.614 33.836 35.214 34.356 35.644 35.859 35.906 37.341 37.686 36.049 36.269 36.696 36.639 36.951 37.261 36.914 36.839 36.801 37.044 37.314 37.094 37.184 37.514 37.886 37.649 37.666 37.834 37.921 38.271 38.451 38.619 38.856 38.764 38.806 38.984 38.874 44.751 39.214 38.836 38.824 38.824 38.724 38.829 39.176 39.201 39.341 39.659 39.349 39.279 38.991 38.939 38.851 38.641 39.846 42.586 39.856 38.001 37.759 37.699 37.776 37.949 37.604 38.366 37.651 37.731 37.149 36.754 36.524 36.339 36.264 36.009 36.461 39.854 35.176 35.966 35.761 38.144 36.306 34.359 33.854 33.494 32.544 32.196 32.221 34.624 33.174 32.741 32.586 31.964 35.169 33.739 32.054 30.299 32.161 31.064 30.979 30.241 29.326 28.076 29.158 28.298 27.798 27.936 27.416 26.566 26.331 26.093 26.071 26.686 32.736 25.156 24.446 24.158 24.136 24.056 23.978 23.893 23.766 23.643 23.518 23.378 23.286 23.201 23.028 22.971 23.321 23.143 22.668 22.501 22.398 22.298 22.123 21.906 21.671 21.478 21.253 21.008 20.753 20.526 20.333 20.086 19.893 19.806 19.748 19.638 19.486 19.258 19.108 20.988 27.131 20.403 20.308 19.011 19.173 17.853 18.348 17.391 17.246 16.913 16.643 18.873 19.231 15.986 18.673 16.216 15.343 15.071 14.841 14.673 14.456 14.223 14.066 13.811 13.611 13.401 13.281 13.128 12.941 12.813 13.788 12.591 12.406 12.381 12.296 12.243 12.158 12.101 12.026 12.048 12.028 12.026 12.018 12.056 12.043 12.033 11.978 12.091 12.143 12.293 12.243 12.538 13.206 14.068 14.108 13.913 13.926 13.996 14.041 14.133 14.178 14.291 14.423 14.498 14.611 14.698 14.753 14.848 15.003 15.161 15.263 15.368 15.473 15.581 15.703 15.816 15.951 16.058 16.191 16.311 16.416 16.541 16.651 16.746 16.881 16.991 17.096 17.236 17.358 17.461 17.573 17.711 17.783 17.876 17.991 18.086 18.181 18.298 18.378 18.421 18.506 18.558 18.623 18.666 18.701 18.763 18.806 18.806 18.806 18.791 18.786 18.788 18.766 18.806 18.791 18.763 18.756 18.766 18.741 18.716 18.703 18.688 18.643 18.613 18.598 18.566 18.493 18.488 18.453 18.413 18.378 18.348 18.333 18.296 18.311 18.298 18.271 18.241 18.228 18.243 18.191 18.166 18.128 18.078 18.051 18.001 17.948 17.923 17.881 17.801 17.753 17.731 17.673 17.631 17.583 17.553 17.461 17.411 17.366 17.306 17.226 17.193 17.123 17.088 17.033 16.978 16.971 16.931 16.893 16.851 16.836 16.791 16.776 16.746 16.726 16.698 16.691 16.671 16.698 16.711 16.728 16.758 16.736 16.733 16.733 16.761 16.773 16.751 16.793 16.773 16.796 16.793 16.846 16.856 16.878 16.913 16.923 16.941 16.99 17.023 17.058 17.128 17.193 17.263 17.305 17.38 17.435 17.503 17.575 17.643 17.725 17.82 17.89 18.01 18.118 18.21 18.283 18.355 18.423 18.51 18.598 18.655 18.748 18.828 18.898 18.995 19.11 19.225 19.31 19.43 19.54 19.62 19.7 19.775 19.86 19.983 20.12 20.255 20.41 20.558 20.73 20.92 21.17 21.305 21.51 21.753 21.95 22.053 22.308 22.675 22.865 23.06 23.148 23.335 23.493
23.054 23.364 23.621 23.881 24.129 24.399 24.674 24.939 25.179 25.429 25.659 25.936 26.211 26.541 26.796 27.046 27.316 27.561 27.761 28.011 28.246 28.449 28.691 28.929 29.116 29.324 29.489 29.699 29.894 30.076 30.254 30.426 30.629 30.754 30.861 31.019 31.129 31.281 31.396 31.521 31.689 32.101 32.119 32.586 33.229 33.964 34.981 33.801 33.571 33.581 36.479 34.156 33.906 35.624 37.149 37.129 34.326 34.571 34.866 35.519 35.209 35.181 35.664 35.591 35.616 35.566 35.711 37.824 36.076 39.229 38.324 38.891 36.491 36.336 36.416 36.574 36.651 36.949 36.999 37.231 37.519 37.594 37.689 38.614 39.654 37.634 37.624 37.796 37.871 37.846 37.651 37.871 38.319 38.466 38.664 38.759 38.806 38.766 38.736 38.669 38.646 38.536 38.274 38.294 39.851 38.524 38.059 38.196 38.084 37.929 37.554 37.474 37.704 37.929 37.059 36.551 36.481 36.371 37.396 36.094 36.011 35.906 35.624 36.014 35.806 35.501 35.496 35.041 34.789 34.589 33.729 34.006 34.121 35.229 33.549 33.279 32.754 34.154 34.176 33.079 32.296 32.756 31.854 30.561 31.454 31.671 29.661 29.108 28.878 29.781 30.176 31.606 28.283 27.438 27.078 27.481 32.051 27.488 26.568 25.828 25.596 25.936 26.366 25.486 24.503 24.043 24.236 23.838 23.551 23.331 23.203 23.056 22.896 22.726 22.713 22.683 22.501 22.348 22.253 22.151 21.983 21.771 21.536 21.343 21.053 20.873 20.623 20.408 20.288 20.303 20.243 20.126 21.363 19.898 19.693 19.816 20.203 23.506 20.521 19.748 19.031 19.188 17.938 18.786 17.671 17.696 17.198 17.393 20.291 18.351 16.281 18.611 19.451 15.728 15.576 15.386 15.076 14.893 15.106 14.578 14.231 14.296 13.871 13.668 13.516 14.001 13.243 13.326 13.996 14.251 12.891 12.733 13.541 12.608 12.523 12.426 12.273 12.183 12.228 12.496 12.496 12.323 12.356 12.538 12.858 13.093 12.976 13.076 13.568 14.943 14.433 14.943 14.566 16.268 14.178 14.276 14.416 14.478 14.563 14.691 14.741 14.926 15.063 15.151 15.186 15.308 15.496 15.628 15.741 15.868 15.978 16.071 16.201 16.346 16.451 16.601 16.703 16.813 16.931 17.053 17.183 17.286 17.378 17.488 17.641 17.746 17.823 17.968 18.066 18.168 18.266 18.378 18.453 18.551 18.658 18.741 18.788 18.863 18.926 18.973 19.023 19.083 19.081 19.123 19.143 19.138 19.136 19.148 19.161 19.158 19.108 19.121 19.123 19.116 19.066 19.071 19.093 19.038 19.013 18.978 18.943 18.926 18.878 18.866 18.836 18.783 18.783 18.733 18.696 18.708 18.693 18.653 18.628 18.581 18.581 18.556 18.558 18.536 18.523 18.478 18.451 18.436 18.363 18.298 18.271 18.218 18.171 18.131 18.063 18.016 17.978 17.918 17.878 17.823 17.773 17.716 17.646 17.591 17.538 17.466 17.403 17.356 17.358 17.306 17.263 17.228 17.211 17.163 17.133 17.101 17.086 17.061 17.023 17.006 16.983 16.976 16.996 17.006 17.023 17.011 17.023 16.996 17.006 16.996 16.998 17.031 17.018 17.038 17.021 17.028 17.033 17.063 17.076 17.091 17.096 17.133 17.165 17.183 17.233 17.298 17.345 17.4 17.48 17.533 17.608 17.678 17.738 17.823 17.908 18.003 18.093 18.158 18.255 18.323 18.403 18.485 18.565 18.638 18.68 18.775 18.843 18.915 19.023 19.118 19.228 19.288 19.415 19.525 19.638 19.74 19.835 19.92 20.008 20.12 20.225 20.32 20.45 20.6 20.738 20.908 21.058 21.185 21.435 21.71 21.798 22.065 22.25 22.523 22.635 22.85 22.923 23.175
22.876 23.166 23.406 23.644 23.919 24.186 24.449 24.731 24.986 25.214 25.421 25.671 25.934 26.224 26.499 26.809 27.059 27.264 27.471 27.706 27.961 28.236 28.429 28.694 28.904 29.106 29.286 29.474 29.664 29.814 29.986 30.159 30.371 30.541 30.666 30.816 30.951 31.061 31.191 31.271 31.389 31.501 31.661 31.811 31.919 32.056 32.194 33.494 32.414 33.041 33.884 33.544 32.856 34.236 33.559 36.476 33.764 35.586 34.916 34.524 33.626 34.604 34.346 34.291 33.911 33.859 34.634 35.456 35.169 36.384 37.111 37.751 35.004 35.021 35.286 35.551 36.279 36.759 37.559 36.444 36.019 36.194 36.331 36.289 36.421 36.439 36.556 36.866 37.994 36.894 36.901 36.954 37.009 37.156 37.371 39.064 40.136 37.721 37.979 38.001 38.019 38.176 38.169 38.314 38.611 38.626 38.474 38.294 37.914 37.716 37.549 37.556 38.199 37.261 37.194 36.759 41.209 36.499 38.946 37.699 36.834 36.324 35.914 35.674 35.604 35.474 35.504 35.134 34.879 34.784 34.544 34.336 34.499 35.964 34.476 33.854 33.479 33.274 33.909 32.969 32.716 32.566 32.499 32.261 32.689 32.153 32.338 30.996 31.151 30.523 30.653 31.411 29.338 28.761 29.053 30.118 30.568 28.001 28.718 27.606 27.003 28.753 31.611 32.001 27.678 25.256 25.228 24.578 24.646 24.023 24.676 23.828 23.606 23.298 23.203 23.031 23.606 22.366 22.236 22.191 22.058 21.828 21.633 21.386 21.141 20.888 20.686 20.641 20.731 20.603 20.573 20.506 23.353 22.911 21.476 21.633 19.556 20.203 18.861 18.598 18.338 18.136 17.936 17.733 17.498 17.291 17.096 16.863 17.383 18.016 16.213 16.066 15.843 15.603 15.433 15.371 15.003 14.786 14.651 14.353 14.171 13.901 13.701 13.676 13.438 14.758 13.008 12.921 13.458 20.251 12.781 12.676 13.098 12.476 12.433 12.458 12.273 12.268 12.303 14.791 12.461 12.413 12.766 12.793 12.418 12.801 13.383 13.911 14.706 17.221 14.833 15.791 14.576 18.176 18.048 14.506 14.591 14.683 14.851 16.293 15.031 15.216 15.428 15.456 15.596 15.706 15.786 15.943 16.086 16.213 16.308 16.436 16.568 16.671 16.806 16.966 17.131 17.253 17.356 17.491 17.596 17.733 17.831 17.923 18.058 18.176 18.251 18.356 18.478 18.583 18.661 18.766 18.858 18.948 19.056 19.126 19.196 19.251 19.291 19.348 19.406 19.428 19.451 19.508 19.503 19.493 19.508 19.528 19.498 19.511 19.543 19.526 19.483 19.453 19.451 19.441 19.408 19.396 19.386 19.341 19.298 19.268 19.238 19.201 19.161 19.143 19.113 19.066 19.073 19.053 19.028 19.023 19.026 18.973 18.963 18.941 18.898 18.896 18.878 18.821 18.818 18.786 18.746 18.686 18.628 18.598 18.521 18.473 18.443 18.376 18.338 18.281 18.238 18.191 18.118 18.091 18.016 17.961 17.871 17.846 17.786 17.706 17.681 17.658 17.641 17.596 17.573 17.511 17.501 17.443 17.408 17.388 17.363 17.331 17.326 17.278 17.288 17.286 17.263 17.253 17.253 17.263 17.246 17.268 17.286 17.253 17.238 17.256 17.233 17.258 17.273 17.266 17.258 17.271 17.306 17.31 17.34 17.348 17.37 17.455 17.47 17.538 17.598 17.653 17.73 17.803 17.863 17.948 18.04 18.105 18.183 18.245 18.325 18.415 18.498 18.568 18.63 18.683 18.735 18.808 18.873 18.968 19.038 19.14 19.22 19.31 19.43 19.518 19.618 19.733 19.82 19.963 20.08 20.173 20.26 20.34 20.445 20.545 20.65 20.768 20.898 21.05 21.205 21.423 21.608 21.748 21.86 22.055 22.295 22.49 22.963 23.275
22.719 22.969 23.211 23.426 23.711 23.981 24.231 24.496 24.774 24.984 25.219 25.461 25.746 26.029 26.281 26.561 26.789 27.041 27.204 27.471 27.694 27.984 28.236 28.456 28.654 28.886 29.041 29.229 29.436 29.606 29.756 29.919 30.056 30.236 30.406 30.559 30.716 30.849 30.964 31.076 31.159 31.276 31.376 31.519 31.634 31.746 31.814 31.896 31.976 32.021 32.096 32.154 32.216 32.884 32.344 33.351 33.186 33.509 33.551 33.819 33.619 33.469 33.534 33.676 35.579 34.301 36.219 36.606 34.526 33.299 33.434 35.331 34.156 34.651 33.809 34.146 34.204 34.701 34.816 34.829 34.891 34.984 35.116 35.311 35.631 36.561 35.571 35.639 35.799 35.994 35.986 35.939 35.866 35.939 36.079 37.651 36.306 36.221 36.311 36.486 36.826 36.854 37.104 37.389 38.036 38.904 38.759 38.349 38.126 37.824 37.734 37.556 37.521 37.319 37.149 39.214 41.796 39.319 37.264 38.714 36.976 36.056 36.281 36.196 35.694 35.449 35.331 35.094 35.204 35.006 34.999 35.016 34.584 35.151 34.121 33.851 33.766 33.609 33.416 33.254 33.121 33.029 32.846 32.744 32.549 32.311 32.138 32.001 31.816 31.673 31.241 31.123 30.823 30.436 30.898 30.353 30.133 29.428 28.983 28.756 28.938 30.406 31.306 30.408 29.273 26.886 27.016 26.166 26.031 26.143 26.333 26.336 25.658 24.243 24.281 25.291 26.698 24.258 22.381 26.356 22.096 21.866 21.651 21.438 21.198 21.013 20.903 21.013 21.011 20.878 20.766 20.743 22.108 21.521 22.423 19.721 19.506 19.131 18.888 18.648 18.403 18.226 17.978 17.788 17.538 17.343 17.093 16.908 16.676 16.478 16.241 16.053 15.858 15.621 15.436 15.228 15.036 14.793 14.566 14.341 14.111 13.886 13.691 13.451 13.301 13.066 12.963 12.801 12.658 16.643 12.458 12.346 12.331 12.276 12.211 12.176 12.161 12.293 12.306 12.368 12.388 12.396 12.321 12.083 12.761 13.546 16.853 17.278 15.483 15.368 14.751 14.681 17.386 18.733 18.216 15.321 15.146 15.841 15.091 16.548 15.453 17.121 17.981 16.333 15.908 16.028 16.138 16.211 16.398 16.556 16.706 16.836 16.963 17.046 17.186 17.291 17.466 17.583 17.711 17.863 18.026 18.146 18.258 18.368 18.486 18.586 18.681 18.788 18.883 18.996 19.098 19.181 19.251 19.361 19.456 19.518 19.596 19.636 19.716 19.753 19.793 19.831 19.848 19.858 19.883 19.876 19.876 19.901 19.898 19.903 19.896 19.903 19.906 19.858 19.843 19.821 19.803 19.751 19.733 19.693 19.696 19.651 19.623 19.573 19.533 19.478 19.471 19.478 19.443 19.408 19.398 19.393 19.373 19.348 19.326 19.301 19.306 19.281 19.253 19.213 19.148 19.126 19.111 19.046 19.018 18.981 18.938 18.868 18.771 18.721 18.698 18.633 18.566 18.543 18.468 18.421 18.396 18.323 18.248 18.201 18.146 18.073 18.043 17.986 17.983 17.941 17.931 17.888 17.813 17.778 17.751 17.741 17.681 17.666 17.613 17.598 17.618 17.591 17.563 17.538 17.523 17.501 17.508 17.491 17.481 17.493 17.523 17.516 17.496 17.493 17.466 17.478 17.478 17.478 17.483 17.51 17.538 17.563 17.635 17.625 17.68 17.703 17.765 17.795 17.863 17.955 17.988 18.07 18.145 18.218 18.323 18.355 18.43 18.49 18.545 18.623 18.708 18.753 18.82 18.87 18.935 19.015 19.108 19.193 19.258 19.333 19.45 19.538 19.62 19.715 19.82 19.943 20.038 20.148 20.265 20.353 20.475 20.553 20.68 20.783 20.863 20.968 21.043 21.188 21.33 21.5 21.643 21.823 22.02 22.23 22.403 22.65
22.516 22.771 23.029 23.264 23.494 23.774 24.054 24.304 24.534 24.796 25.029 25.256 25.541 25.821 26.104 26.326 26.584 26.839 26.979 27.206 27.461 27.671 27.881 28.159 28.411 28.586 28.746 28.971 29.154 29.331 29.516 29.659 29.836 29.951 30.136 30.259 30.436 30.579 30.681 30.809 30.906 31.024 31.154 31.294 31.389 31.496 31.576 31.649 31.724 31.784 31.849 31.899 31.944 31.999 32.041 32.091 32.114 32.119 32.164 32.364 32.364 32.344 32.934 33.081 34.294 34.201 34.759 34.391 35.829 33.654 33.346 33.824 33.539 33.334 32.771 33.156 33.079 33.399 33.524 33.276 35.229 33.684 34.089 35.721 34.881 34.851 34.594 34.799 34.939 35.029 35.111 35.084 35.036 34.959 34.721 34.854 35.051 34.836 34.916 35.039 35.546 35.331 36.454 36.326 36.029 36.594 37.021 37.224 37.246 37.344 37.371 37.376 37.361 37.516 37.926 38.014 42.394 37.629 36.969 36.671 36.896 36.291 36.224 36.049 35.826 35.534 35.656 35.229 35.136 34.976 35.249 35.049 34.499 34.314 34.686 34.614 33.944 33.821 33.581 33.481 33.364 33.154 33.119 33.311 33.819 33.453 32.598 32.318 32.166 32.026 31.818 31.703 31.511 31.388 31.281 31.103 30.893 30.688 30.471 30.261 29.998 30.343 30.681 28.993 29.496 28.493 28.651 27.671 27.746 27.086 26.783 25.906 28.986 27.473 25.271 25.988 28.921 24.771 26.436 27.541 22.158 21.866 21.681 21.508 21.298 21.118 21.436 21.686 21.528 21.173 20.866 20.846 21.986 20.918 20.336 19.633 19.401 19.193 18.998 18.756 18.521 18.306 18.101 17.866 17.623 17.411 17.181 16.996 16.793 16.581 16.338 16.136 15.891 15.706 15.518 15.313 15.083 14.838 14.621 14.411 14.173 13.938 13.736 13.556 13.336 13.176 13.013 12.838 12.716 13.483 12.498 12.431 12.326 12.256 12.216 12.131 12.178 12.241 12.303 12.303 12.448 12.298 12.121 12.911 13.836 14.371 18.303 20.938 15.038 14.983 15.861 15.203 18.518 20.716 16.811 16.121 16.991 17.211 17.633 19.261 18.171 17.733 20.848 16.526 16.238 16.353 16.486 16.623 16.721 16.876 17.033 17.188 17.331 17.468 17.586 17.721 17.833 17.968 18.071 18.221 18.348 18.526 18.678 18.806 18.931 19.046 19.133 19.228 19.356 19.456 19.548 19.616 19.718 19.781 19.861 19.938 20.016 20.076 20.116 20.196 20.228 20.258 20.283 20.306 20.288 20.288 20.276 20.291 20.321 20.311 20.311 20.316 20.301 20.268 20.258 20.221 20.171 20.138 20.123 20.071 20.048 20.038 20.013 19.961 19.921 19.883 19.858 19.836 19.833 19.793 19.751 19.743 19.738 19.733 19.701 19.653 19.671 19.653 19.608 19.568 19.546 19.511 19.456 19.408 19.353 19.326 19.278 19.231 19.178 19.126 19.081 19.008 18.953 18.911 18.823 18.791 18.746 18.648 18.616 18.553 18.501 18.468 18.426 18.378 18.353 18.318 18.251 18.228 18.181 18.158 18.101 18.051 18.021 17.973 17.958 17.941 17.923 17.893 17.876 17.858 17.836 17.811 17.818 17.771 17.746 17.756 17.728 17.743 17.756 17.741 17.713 17.723 17.698 17.696 17.713 17.725 17.745 17.773 17.803 17.84 17.865 17.918 17.935 17.963 18.02 18.065 18.13 18.213 18.29 18.36 18.44 18.473 18.525 18.57 18.655 18.695 18.745 18.825 18.9 18.96 19.038 19.103 19.148 19.233 19.3 19.385 19.475 19.585 19.678 19.74 19.85 19.945 20.045 20.158 20.233 20.32 20.445 20.585 20.675 20.8 20.915 21 21.078 21.178 21.26 21.368 21.5 21.658 21.833 21.985 22.108 22.245
