ncols 446
nrows 32
xllcorner    461016
yllcorner    91932
cellsize     2
NODATA_value -9999
36.757 36.502 34.73 33.272 31.845 33.65 35.58 34.9 32.37 31.17 31.055 31.09 31.017 31.06 31.49 30.995 32.327 34.667 35.215 34.912 33.982 33.235 33.422 33.762 33.672 33.515 33.272 32.945 32.647 32.225 32.035 31.512 31.005 30.787 30.727 30.945 30.68 31.135 32.237 32.215 32.54 30.58 30.475 30.49 30.485 30.492 30.48 30.422 30.435 30.577 31.15 31.415 30.76 30.45 30.395 30.387 30.825 31.115 31.602 32.665 32.32 31.147 30.352 30.222 30.302 30.237 30.817 30.95 30.707 30.597 30.8 31.095 32.542 33.722 36.517 37.19 32.367 32.582 37.647 36.57 36.052 34.122 28.71 28.455 28.405 31.97 37.837 39.047 37.5 32.14 33.492 28.507 27.652 27.977 28.905 33.195 36.305 36.527 36.705 35.432 30.6 31.435 37.252 38.337 35.567 34.802 35.595 31.695 27.77 27.937 31.03 32.787 30.92 29.5 30.78 32.317 31.81 31.342 27.627 29.56 28.015 27.147 27.542 27.89 27.832 28.59 28.947 27.51 26.662 26.447 26.582 26.775 27.152 28.045 28.1 26.605 31.195 34.452 32.487 28.237 25.255 25.202 25.265 25.238 24.915 24.068 23.953 23.965 23.768 23.718 23.89 26.74 30.048 31.778 27.163 22.138 21.535 21.468 21.848 22.595 25.875 31.075 28.193 28.713 24.98 21.838 23.67 22.585 21.21 23.193 20.33 20.315 19.973 19.713 19.498 19.293 19.063 18.873 18.54 18.575 18.445 18.498 18.983 18.848 18.42 18.193 18.363 18.63 18.295 17.135 16.545 15.875 15.535 16.198 16.033 15.033 14.263 13.84 15.545 15.61 15.08 16.74 16.56 16.075 14.52 12.743 12.35 11.993 11.778 11.645 11.618 11.553 11.415 11.2 10.97 10.723 10.38 10.003 9.58 9.138 8.815 8.613 8.378 8.143 7.883 7.695 7.335 7.085 6.843 6.583 6.353 6.105 5.923 5.683 5.5 5.403 5.345 5.085 4.825 4.91 4.8 4.775 4.76 4.61 4.59 4.523 4.373 4.823 7.125 8.065 8.718 8.13 6.64 5.278 5.05 3.868 3.895 4.033 4.32 4.478 4.415 4.208 3.963 3.778 3.903 3.76 3.553 3.583 4.46 11.575 14.125 10.56 4.743 2.898 3.168 3.375 3.18 2.738 2.718 2.698 2.68 2.66 2.65 2.64 2.61 2.605 2.525 2.455 2.37 2.3 2.275 2.233 2.18 2.205 2.25 2.245 2.433 2.213 2.188 2.143 2.1 2.198 2.135 2.07 2.025 2.038 2.013 2 2.035 1.928 1.965 2.485 2.943 2.74 2.485 2.325 2.193 2.13 2.405 2.613 2.645 2.163 1.983 1.95 1.94 1.963 1.938 1.96 1.95 1.98 1.958 1.933 1.928 1.91 1.913 1.928 1.903 1.888 1.923 1.928 1.89 1.898 1.893 1.938 2.011 2.058 2.111 2.011 1.648 1.818 1.996 1.986 2.006 2.061 2.081 2.038 2.063 2.066 2.031 2.021 2.073 2.121 2.138 2.063 1.993 2.023 1.976 2.146 2.331 2.501 3.763 7.518 4.508 2.276 3.108 3.866 2.251 2.248 2.268 3.226 4.346 2.278 2.333 3.668 3.286 2.966 3.471 3.761 2.821 2.901 2.793 2.791 2.996 4.623 4.431 3.908 2.908 2.691 2.866 3.536 5.093 6.748 7.201 7.363 4.011 4.133 5.698 5.798 5.978 4.816 3.688 2.706 2.696 2.676 2.716 3.573 3.306 2.911 2.931 2.923 4.406 4.988 2.943 2.981 2.926 3.078 3.111 4.556 3.256 3.061 2.911 4.511 4.586 8.121 7.398 3.886 3.026 2.843 3.153 3.743 3.823 2.791 2.783 2.798 2.748 2.771
37.405 37.275 35.765 33.822 32.207 32.945 33.762 32.487 31.407 31.295 31.892 31.255 31.717 33.227 34.922 33.552 34.062 34.995 35.135 35.002 33.35 31.97 32.405 32.352 31.945 31.667 31.705 31.947 31.892 31.675 31.315 31.937 31.105 30.887 30.842 30.822 30.81 30.832 31.17 32.755 33.11 30.842 30.647 30.637 30.62 30.697 30.59 30.525 30.507 30.637 30.902 31.575 30.587 30.55 30.537 30.625 30.872 30.765 32.065 31.977 31.512 32.022 31.11 31.08 30.415 30.455 31.047 31.69 32.177 31.052 30.712 31.712 33.052 33.032 36.172 37.52 33.325 30.13 35.087 36.39 36.482 30.712 28.557 29.05 31.972 36.767 42.24 41.755 38.365 36.9 42.205 32.785 27.897 29.385 32.557 33.665 35.592 36.375 37.045 30.772 29.797 36.14 41.222 41.247 37.952 31.92 34.052 28.94 27.787 28.232 29.16 32.18 34.62 33.197 32.445 30.545 27.83 27.965 27.532 28 26.767 28.84 30.42 31.667 29.41 26.65 27.625 27.057 27.235 26.635 26.91 27.195 26.647 26.785 27.81 27.177 28.642 29.68 31.412 26.25 25.597 25.52 25.535 25.533 25.205 24.273 24.005 24.07 24.063 23.688 23.773 27.75 32.793 33.89 25.718 24.72 21.525 21.413 21.34 22.478 23.808 31.118 27.593 28.088 25.948 25.48 30.75 30.513 25.26 22.048 20.528 20.21 20.04 20.095 19.538 19.268 19.035 18.813 18.563 18.413 18.253 18.463 18.713 18.158 18.018 17.855 17.668 17.87 18.513 18.365 19.298 16.643 15.523 15.415 15.59 14.83 14.04 15.243 16.893 17.593 16.768 15.423 13.648 14.253 12.83 12.575 12.205 11.948 11.79 11.74 11.718 11.575 11.358 11.165 10.923 10.6 10.283 9.92 9.473 9.108 8.848 8.565 8.358 8.113 7.86 7.685 7.365 7.055 6.775 6.598 6.37 6.14 5.943 5.718 5.568 5.413 5.178 4.86 4.89 4.86 4.988 4.885 4.745 4.675 4.565 4.458 4.6 6.773 7.935 8.698 8.288 7.453 4.77 3.835 3.775 4.73 10.515 5.363 4.358 4.758 5.96 9.76 4.028 3.843 3.655 3.57 3.603 3.978 6.46 5.44 5.783 4.233 3.225 5.11 3.905 3.275 2.783 2.748 2.678 2.713 2.663 2.67 2.655 2.615 2.61 2.548 2.455 2.373 2.305 2.26 2.245 2.215 2.185 2.25 2.268 2.253 2.21 2.193 2.15 2.093 2.14 2.18 2.153 2.063 2.008 2.003 1.985 1.958 1.958 1.963 1.935 1.885 2.288 2.763 2.748 2.46 2.353 2.368 2.528 2.725 2.348 2.013 1.968 1.945 1.963 1.96 1.925 1.928 1.95 1.973 1.958 1.958 1.9 1.93 1.918 1.93 1.933 1.938 1.905 1.91 1.933 1.928 1.948 1.983 2.021 2.048 2.048 1.721 1.781 2.006 2.006 2.033 2.001 2.076 2.093 2.076 2.058 2.066 2.056 2.081 2.158 2.176 2.163 2.096 2.038 2.008 2.026 2.186 2.191 2.371 4.158 7.838 8.456 4.241 2.761 5.141 2.468 2.556 2.273 2.386 2.371 2.801 2.758 4.093 2.876 2.743 2.988 3.096 3.081 2.926 2.751 2.756 3.003 4.801 5.068 4.686 2.686 2.608 2.668 2.721 2.811 3.418 6.698 5.596 4.438 6.336 4.428 5.598 5.831 3.903 2.806 2.771 2.721 2.866 3.038 3.278 3.383 3.073 2.981 2.948 3.498 3.961 3.203 3.101 3.021 3.033 3.626 4.538 2.893 2.866 3.473 4.778 4.163 5.336 5.946 2.726 3.038 3.261 3.868 4.633 3.081 2.741 2.726 2.761 2.761 2.773
36.917 37.152 35.565 33.8 32.732 32.125 33.505 32.427 32.192 31.752 31.58 31.35 32.372 35.757 37.86 37.23 35.442 35.267 34.792 34.735 34.112 32.39 31.775 31.847 31.762 31.612 31.752 31.952 32.145 31.377 31.95 31.425 31.24 31.195 31.132 31.072 31.05 31.052 31.295 32.257 32.732 31.295 30.765 30.787 30.76 30.782 30.687 30.687 30.672 30.775 31 32.697 30.985 31.047 30.677 30.725 30.867 30.777 30.622 30.595 30.687 31.362 32.93 32.495 30.497 30.755 30.507 31.757 32.555 30.75 31.375 32.05 33.08 32.965 34.232 36.877 30.13 30.142 30.205 33.937 31.362 29.015 28.59 30.512 36.1 38.492 39.93 43.142 42.087 46.015 45.612 42.525 38.522 33.355 36.9 39.122 35.942 36.29 34.012 27.982 28.94 36.992 40.257 38.36 39.512 34.21 32.6 29.935 28.17 29.072 30.997 28.06 33.735 34.302 34.175 33.29 31.285 30.485 27.557 27.892 27.082 27.37 33.312 36.112 32.677 29.107 26.712 26.987 28.672 27.997 27.762 26.817 26.347 26.322 26.095 26.015 26.11 26.657 26.727 25.737 25.645 25.672 25.678 25.608 25.47 24.603 24 24.058 24.1 23.848 23.7 23.765 24.393 23.915 27.123 22.85 21.575 21.863 21.3 22.348 22.318 24.238 28.968 25.193 23.915 24.963 33.585 34.905 32.173 23.96 21.42 20.18 20.02 19.955 19.793 19.495 19.075 18.77 18.52 18.355 18.203 18.17 18.123 18 17.893 17.608 17.71 17.948 19.413 17.853 18.308 16.868 15.668 15.36 15.14 14.563 14.17 16.64 17.468 17.998 18.015 16.79 13.315 13.125 12.878 12.51 12.143 11.95 11.898 11.838 11.735 11.518 11.28 11.065 10.78 10.468 10.16 9.808 9.405 9.09 8.84 8.63 8.38 8.143 7.873 7.643 7.308 7.035 6.753 6.553 6.353 6.16 5.965 6.655 6.528 5.628 5.198 5.223 5.258 4.74 4.843 4.778 4.768 4.695 4.458 4.283 6.285 7.783 8.618 8.5 7.62 5.705 4.125 3.845 3.813 4.408 11.74 9.468 4.423 4.525 8.133 9.91 4.705 3.853 3.603 3.603 3.63 5.133 7.863 4.303 3.198 3.4 3.153 5.77 4.62 3.038 2.698 2.798 2.698 2.675 2.67 2.64 2.63 2.585 2.578 2.493 2.398 2.33 2.298 2.26 2.213 2.205 2.205 2.25 2.26 2.253 2.21 2.183 2.12 2.07 2.133 2.175 2.128 2.053 2.008 1.96 1.963 1.968 1.973 1.948 1.955 2.018 1.853 1.993 2.518 2.718 2.535 2.703 2.808 2.623 2.238 1.943 1.928 1.948 1.983 1.98 1.918 1.94 1.945 1.925 1.935 1.91 1.885 1.903 1.903 1.888 1.895 1.94 1.903 1.915 1.928 1.958 1.958 1.988 2.043 2.068 1.728 1.693 1.991 2.003 2.001 2.036 2.053 2.116 2.116 2.086 2.088 2.036 2.073 2.128 2.156 2.178 2.163 2.086 2.011 2.023 2.046 2.081 2.063 2.203 2.403 3.538 2.246 4.301 2.346 2.356 2.573 2.641 2.581 2.586 3.133 8.883 3.813 4.338 2.808 2.681 2.738 2.931 2.991 2.908 2.866 3.328 3.428 3.226 3.623 4.116 2.883 2.626 2.676 2.751 2.793 2.876 3.053 4.501 5.221 6.828 4.121 5.793 5.593 3.161 2.816 2.766 2.728 3.741 3.538 3.146 2.968 3.603 3.791 3.073 3.121 3.061 3.123 3.111 3.496 4.406 3.926 4.743 2.971 2.898 3.066 4.071 5.448 5.091 3.733 2.586 2.651 2.958 5.548 3.041 2.636 2.681 2.686 4.538 4.288 3.196
35.682 36.057 35.742 34.11 32.847 33.49 37.39 38.27 36.71 32.282 31.2 31.177 32.675 37.412 37.972 37.905 37.297 36.035 35.022 33.382 33.67 32.36 31.987 31.79 31.772 31.737 33.337 32.042 32.197 31.462 31.435 31.5 31.377 31.35 31.312 31.265 31.225 31.2 31.515 32.227 31.235 30.945 30.902 30.92 30.932 30.922 30.827 30.815 30.815 30.9 32.6 33.092 31.725 30.695 30.707 30.74 30.75 30.792 30.76 30.755 30.847 32.527 33.47 32.377 32.92 30.985 30.905 32.457 32.275 30.607 31.517 33.057 33.03 32.82 33.18 32.797 30.16 29.975 29.717 29.482 29.152 28.92 28.705 32.012 36.342 37.225 37.615 41.862 46.447 46.195 47.63 43.697 42.717 37.805 38.727 36.425 38.057 34.572 32.067 28.112 28.047 32.74 35.555 36.22 39.127 36.31 30.305 28.622 28.54 29.29 29.405 28.332 29.127 31.585 32.59 34.092 32.472 31.777 29.4 27.17 28.445 30.65 30.607 31.96 31.182 27.55 26.517 26.617 26.62 28.29 29.872 27.105 26.442 26.115 26.36 26.597 26.022 25.787 25.74 25.707 25.727 25.747 25.738 25.698 25.65 24.755 24.015 24.058 24.075 23.925 23.778 23.845 24.145 23.92 27.83 24.903 22.338 22.048 21.475 21.15 21.108 21.125 21.13 20.928 20.933 24.208 28.438 32.038 31.758 25.115 20.515 20.195 20.033 19.828 19.645 19.573 20.5 19.045 20.013 19.225 18.128 18.005 17.938 17.888 17.723 17.528 17.57 17.698 17.563 18.185 18.01 18.158 16.075 15.348 15.018 14.358 16.218 17.363 17.928 18.063 17.543 16.515 13.42 12.995 12.69 12.385 12.138 12.053 11.985 11.905 11.753 11.463 11.21 10.943 10.653 10.365 10.038 9.723 9.395 9.098 8.798 8.553 8.315 8.113 7.86 7.558 7.265 6.965 6.755 6.52 6.363 6.19 6.99 7.918 7.755 6.598 5.488 5.665 5.195 4.858 4.745 4.74 4.728 4.558 4.363 4.163 4.158 6.715 8.583 7.81 6.003 4.183 3.855 3.905 4.05 4.19 5.585 8.145 4.695 4.338 4.785 4.95 3.87 3.628 3.64 3.613 4.245 7.26 5.408 3.465 3.053 2.99 2.97 3.513 5.345 3.445 2.725 2.663 2.613 2.695 2.625 2.625 2.595 2.575 2.548 2.453 2.375 2.288 2.288 2.263 2.23 2.195 2.245 2.28 2.278 2.253 2.21 2.18 2.113 2.118 2.165 2.113 2.078 2.035 1.99 1.973 1.965 1.97 1.943 1.95 1.96 1.975 2.02 1.865 1.865 2.67 2.92 2.89 2.885 2.723 2.208 1.978 1.938 1.935 1.935 1.913 1.918 1.938 1.918 1.945 1.91 1.9 1.89 1.92 1.923 1.903 1.92 1.885 1.9 1.95 1.968 1.958 1.983 2.006 2.063 1.843 1.676 1.918 2.018 2.001 2.006 2.043 2.093 2.141 2.138 2.133 2.091 2.121 2.151 2.208 2.176 2.166 2.108 2.091 2.043 2.033 2.083 2.108 2.066 2.088 2.103 2.433 2.726 4.473 3.623 2.908 2.683 2.586 2.673 2.891 5.828 7.386 3.611 3.278 3.638 3.588 3.683 4.028 3.796 3.618 3.028 3.011 3.368 2.761 2.681 4.936 3.246 3.206 3.576 3.021 2.746 3.258 3.353 3.503 3.348 3.726 3.308 3.078 3.116 2.846 2.828 2.783 2.761 2.778 4.713 3.066 3.061 3.068 3.566 3.073 3.151 3.563 3.121 3.068 3.176 3.786 4.101 4.228 3.031 3.016 3.121 4.146 5.598 5.028 2.923 2.606 2.553 2.906 3.006 2.586 2.661 2.651 3.573 5.891 5.971 5.696
33.02 33.527 34.2 34.36 33.032 35.917 38.842 40.69 40.537 34.96 31.197 31.187 33.45 36.192 37.407 37.475 37.572 36.085 34.595 33.47 32.697 32.07 32.082 31.98 31.94 31.882 33.1 32.255 31.64 31.575 31.755 31.915 31.495 31.47 31.455 31.415 31.345 31.305 31.302 32.832 31.637 31.092 31.062 31.045 31.057 31.062 30.995 30.962 30.962 31.005 31.49 32.385 31.22 30.787 30.775 30.785 30.82 30.89 30.902 30.945 30.985 31.402 32.91 31.482 32.742 32.682 31.385 32.855 32.325 30.69 31.412 33.15 33.252 32.98 34.32 32.602 30.207 29.972 29.775 29.515 29.26 29.047 30.902 35.892 38.727 37.887 37.322 39.727 47.835 48.1 47.505 45.495 37.362 41.52 36.59 36.665 33.745 36.06 29.192 28.847 29.725 33.21 34.29 34.162 40.142 38.7 33.752 31.09 28.75 29.01 29.62 32.105 30.092 34.672 36.29 31.927 32.247 33.137 29.167 27.5 28.912 29.67 28.41 28.247 27.73 26.56 26.492 27.372 27.542 28.565 28.96 29.572 26.55 25.91 27.872 28.022 26.362 25.857 25.77 25.742 25.777 25.762 25.775 25.75 25.715 24.61 24.038 24.073 24.098 23.983 23.805 23.938 24.568 24.575 25.823 26.73 24.163 22.145 21.203 21.128 21.05 21.003 20.948 20.905 20.908 21.628 21.77 24.77 25.928 21.365 20.305 20.295 20.165 19.95 19.695 21.935 26.043 25.04 27.16 28.265 18.063 17.94 17.83 17.723 17.588 17.45 17.368 17.358 17.67 18.593 19.588 17.993 16.03 15.333 14.515 15.75 17.245 17.783 18.07 17.643 16.84 15.175 13.563 12.955 12.57 12.31 12.228 12.153 12.058 11.943 11.733 11.465 11.155 10.83 10.575 10.303 9.975 9.665 9.338 9.035 8.765 8.52 8.318 8.115 7.758 7.465 7.248 6.968 6.753 6.555 6.388 6.193 7.243 8.013 7.35 6.86 6.778 5.815 5.243 5.175 4.783 4.745 4.663 4.583 4.713 4.218 4.148 4.3 6.195 7.033 4.518 3.89 4.073 6.24 5.393 4.5 4.463 4.665 4.865 4.633 4.305 3.895 3.675 3.628 3.645 3.745 4.365 4.27 3.215 3.018 3.143 3.09 2.905 2.758 2.733 2.683 2.668 2.615 2.663 2.658 2.588 2.565 2.56 2.523 2.453 2.388 2.34 2.325 2.295 2.26 2.208 2.238 2.273 2.273 2.263 2.218 2.195 2.138 2.093 2.165 2.143 2.098 2.058 2.008 1.963 1.975 1.958 1.963 1.948 1.925 1.943 1.973 1.97 1.993 1.86 3.078 3.048 2.873 2.87 2.628 2.415 2.225 2.015 1.958 1.908 1.888 1.91 1.893 1.873 1.913 1.878 1.9 1.895 1.923 1.933 1.95 1.953 1.925 1.935 1.983 2.008 1.995 2.023 2.101 1.876 1.718 1.913 1.986 2.023 2.018 2.021 2.068 2.146 2.131 2.161 2.178 2.181 2.191 2.183 2.201 2.248 2.186 2.108 2.071 2.093 2.116 2.088 2.133 2.083 2.118 2.136 2.128 2.143 2.283 2.548 2.768 2.748 2.833 2.603 2.343 3.243 5.963 2.318 2.398 2.928 2.896 3.063 2.858 2.971 2.781 2.731 4.431 5.261 4.293 2.776 2.848 2.741 3.371 6.851 7.373 3.188 3.808 5.443 3.313 3.391 3.631 3.316 3.276 3.201 3.018 2.931 2.783 2.806 3.148 3.978 3.798 3.058 4.541 5.568 3.208 3.063 3.378 3.186 3.056 3.111 3.358 3.781 3.126 3.083 3.508 4.608 7.841 5.486 5.136 2.606 2.583 2.546 3.338 2.716 2.546 3.653 3.328 3.758 5.203 5.511 4.723
34.135 34.002 33.387 34.267 33.225 35.842 39.367 40.837 40.732 35.812 31.187 31.977 34.192 36.65 36.81 35.662 34.412 33.605 34.017 32.705 32.222 32.165 32.225 32.077 32.202 32.052 32.68 32.802 32.75 31.83 31.875 31.73 31.665 31.652 31.577 31.53 31.487 31.46 31.387 32.535 32.055 31.267 31.202 31.185 31.187 31.19 31.147 31.117 31.125 31.142 31.242 32.122 31.785 31.01 31.075 31.205 31.377 31.48 31.527 31.647 31.442 31.112 31.107 30.902 32.095 35.672 34.997 34.057 33.44 31.235 31.71 33.007 33.212 32.31 31.23 30.865 30.255 30.07 32.02 32.465 30.917 30.017 34.157 37.11 38.325 39.135 39.4 40.795 45.367 48.65 48.587 47.305 41.1 41.715 37.44 34.492 35.902 32.122 29.175 34.092 36.755 37.02 35.777 35.2 39.307 38.71 32.327 30.1 29.86 28.682 30.205 31.642 30.115 34.342 37.78 33.827 29.32 32.597 31.547 29.352 27.947 28.705 27.995 27.45 26.985 26.755 26.687 30.417 29.775 29.21 28.605 27.307 26.057 25.872 25.882 26.557 26.832 26.59 26.022 25.8 25.775 25.76 25.765 25.758 25.775 24.93 24.055 24.13 24.068 24.1 23.835 23.96 24.76 24.345 24.103 24.643 23.348 21.86 21.18 21.08 21.023 20.983 20.925 20.87 20.838 21.348 21.198 20.628 20.96 24.353 23.763 21.71 20.365 20.185 19.988 23.248 29.213 31.1 31.808 30.225 18.848 17.938 17.798 17.665 17.61 17.483 17.37 17.218 17.773 19.128 19.18 16.695 15.593 14.88 15.425 17.255 17.713 18.103 17.77 17.198 15.12 13.778 13.435 12.798 12.488 12.395 12.358 12.225 12.08 11.92 11.678 11.41 11.065 10.763 10.485 10.18 9.89 9.645 9.308 9.035 8.738 8.51 8.31 8.07 7.698 7.45 7.205 6.965 6.738 6.553 6.348 6.743 7.765 7.623 7.228 6.595 7.143 7.675 6.303 5.33 4.823 4.688 4.628 5.48 7.088 5.345 4.303 4.108 3.98 3.878 3.953 4.043 4.235 5.068 5.9 4.64 4.483 4.363 4.285 4.668 4.283 3.675 3.665 3.663 3.74 4.77 5.945 3.298 2.95 3.085 4.805 3.173 2.788 2.78 2.703 2.683 2.618 2.655 2.673 2.663 2.6 2.585 2.575 2.483 2.415 2.355 2.328 2.293 2.273 2.235 2.218 2.273 2.283 2.265 2.243 2.218 2.17 2.12 2.098 2.133 2.125 2.098 2.038 1.973 1.955 1.96 1.958 1.95 1.948 1.96 1.958 1.96 1.948 1.958 1.985 1.96 1.965 2.33 2.515 2.353 2.345 2.26 2.093 1.975 1.905 1.938 1.933 1.905 1.873 1.885 1.908 1.94 1.908 1.94 1.92 1.92 1.93 1.968 1.998 2.023 2.033 2.06 2.136 1.926 1.703 1.846 1.978 1.991 2.011 2.031 2.053 2.106 2.148 2.156 2.201 2.226 2.241 2.221 2.213 2.236 2.203 2.198 2.076 2.086 2.116 2.133 2.116 2.126 2.113 2.133 2.173 2.203 2.238 2.236 2.236 2.266 2.271 2.243 2.231 2.258 2.338 2.328 2.376 2.368 2.411 2.411 3.073 2.418 3.956 3.693 3.523 5.598 6.868 5.633 4.116 3.228 4.198 2.716 7.428 8.156 3.061 3.678 4.861 3.723 4.571 3.308 3.373 3.366 3.393 3.411 3.243 3.236 3.123 3.538 7.073 7.548 6.121 4.648 5.766 3.451 3.198 4.291 3.348 4.146 4.286 3.493 3.146 3.146 3.733 5.721 3.986 5.206 5.553 4.768 2.596 2.601 2.556 3.253 2.553 2.871 3.276 2.683 4.166 4.781 5.256 3.713
34.52 34.615 34.297 33.557 33.257 34.545 38.737 39.37 39.112 34.577 31.255 33.06 35.1 35.96 35.31 33.667 31.372 31.97 32.432 32.365 32.332 32.317 32.352 32.162 32.347 32.342 32.65 33.562 32.43 32.032 32.092 31.892 31.892 31.822 31.767 31.7 31.642 31.617 31.535 32.14 32.395 31.535 31.367 31.332 31.332 31.355 31.322 31.277 31.277 31.265 31.352 31.66 32.635 31.63 31.61 31.66 31.835 32.327 32.605 32.855 32.91 32.695 31.207 31.405 33.6 35.3 35.527 34.295 35.15 34.71 32.71 33.222 33.232 31.705 30.382 30.385 31.392 30.975 32.187 35.532 32.46 30.087 34.15 35.122 38.002 39.405 37.665 38.942 42.182 43.832 41.73 45.355 40.56 35.077 35.745 35.09 32.202 29.287 31.187 35.385 38.757 38.58 39.6 38.47 37.825 34.922 32.545 29.415 29.747 29.507 28.687 28.83 28.677 30.665 30.922 30.335 28.632 30.232 35.395 34.247 29.285 27.995 28.147 27.435 27.247 27.055 27.232 27.182 27.445 30.277 28.965 27.94 26.9 25.845 25.92 26.285 26.395 25.975 25.89 25.84 25.805 25.785 25.808 25.755 25.793 25.2 24.248 24.395 24.06 24.093 23.9 23.908 24.44 24.72 23.925 24.098 23.478 22.063 21.565 21.318 21.015 20.975 20.91 20.835 21.213 21.08 20.975 20.53 23.09 25.443 26.32 26.595 24.945 21.49 21.533 26.573 30.105 31.973 29.373 28.678 20.858 18.095 17.883 17.713 17.61 17.495 17.35 17.238 17.233 17.235 16.858 15.858 15.123 15.205 17.505 18.2 17.16 17.763 17.285 16.085 14.078 13.753 13.14 12.683 12.508 12.465 12.413 12.265 12.085 11.87 11.603 11.265 10.978 10.68 10.41 10.135 9.873 9.598 9.275 8.97 8.703 8.52 8.325 8.088 7.753 7.455 7.175 6.958 6.68 6.5 6.97 8.32 8.135 7.245 7.468 7.033 7.25 7.28 6.585 5.385 4.92 4.75 4.93 7.19 7.733 8.638 7.013 4.315 4.055 4.015 4.055 5.878 10.918 10.178 7.353 5.19 4.5 4.58 4.153 4.14 3.773 3.738 3.665 3.853 5.023 4.063 7.463 4.16 3.553 3.07 2.935 2.78 2.783 2.748 2.71 2.698 2.67 2.68 2.645 2.64 2.56 2.563 2.53 2.458 2.378 2.3 2.303 2.29 2.273 2.243 2.245 2.308 2.248 2.285 2.238 2.188 2.173 2.143 2.108 2.135 2.153 2.108 2.005 1.94 1.943 1.965 1.98 1.955 1.933 1.933 1.953 1.943 1.945 1.978 1.963 2.018 2.028 1.943 2.158 2.28 2.268 2.208 2.175 2.07 1.975 1.953 1.943 1.908 1.898 1.915 1.915 1.91 1.925 1.895 1.918 1.938 1.933 1.953 2.013 2.055 2.08 2.13 2.043 1.736 1.843 1.968 1.978 1.981 1.976 2.056 2.118 2.148 2.171 2.188 2.291 2.298 2.278 2.251 2.241 2.213 2.213 2.156 2.086 2.078 2.091 2.113 2.121 2.131 2.113 2.156 2.163 2.178 2.241 2.306 2.286 2.296 2.276 2.283 2.268 2.358 2.361 2.753 3.021 2.573 2.488 2.583 4.266 2.713 3.226 3.656 3.303 4.448 6.413 7.168 5.406 5.193 5.783 3.283 3.566 3.636 3.041 3.153 3.223 5.588 3.296 3.821 3.371 3.386 3.398 3.416 3.413 3.456 3.441 3.588 5.271 7.668 10.203 7.843 5.403 5.203 3.771 3.951 3.243 4.908 4.798 3.593 3.143 3.376 3.833 4.848 4.743 6.828 9.206 8.351 3.926 2.603 2.568 2.838 3.026 3.118 3.138 2.821 2.866 3.323 4.628 3.343
35.452 34.79 34.182 33.685 34.057 35.05 36.152 37.142 36.107 33.87 33.152 32.097 35.275 36.192 34.382 31.562 31.592 31.585 32.242 32.447 32.407 32.502 33.447 32.372 32.44 32.472 32.73 34.25 32.84 32.22 32.107 32.055 32.04 31.995 31.907 31.852 31.812 31.772 31.707 32.327 32.917 31.665 31.535 31.472 31.48 31.485 31.452 31.427 31.43 31.427 31.482 31.44 32.697 32.972 33.817 34.257 34.987 36.037 36.345 35.28 34.127 34.075 32.35 31.277 34.99 35.845 35.397 34.842 35.757 34.34 31.465 32.09 32.947 31.332 30.51 30.47 31.53 33.307 33.995 34.612 34.372 30.492 31.12 32.732 35.48 38.31 37.265 39.255 39.742 42.405 38.382 38.8 39.345 35.907 35.39 33.597 29.5 28.882 31.71 33.855 34.877 39.877 36.265 36.99 34.74 31.23 29.805 29.122 30.49 29.92 28.892 29.11 30.167 30.465 29.94 28.492 28.955 28.762 30.462 31.62 31.35 28.907 29.037 27.48 27.292 27.312 28.402 28.135 26.952 27.612 30.017 29.075 26.522 25.89 26.315 26.672 26.672 26.115 25.857 25.86 25.835 25.812 25.828 25.783 25.793 25.315 24.398 24.415 24.088 24.088 23.968 23.873 24.105 24.743 24.263 24.108 22.91 21.403 22.07 22.043 20.988 20.933 20.883 21.028 21.24 21.258 20.72 22.2 26.018 26.39 27.065 27.985 26.945 25.78 26.428 27.878 30.025 31.11 26.065 25.155 19.275 18.125 17.85 17.7 17.655 17.52 17.39 17.265 17.21 16.975 16.415 15.688 15.398 17.303 18.1 18.598 18.545 17.87 16.155 14.168 13.973 13.443 12.92 12.618 12.578 12.52 12.403 12.22 12.003 11.773 11.468 11.14 10.815 10.538 10.31 10.14 9.87 9.615 9.313 8.98 8.72 8.53 8.333 8.058 7.733 7.423 7.148 6.895 6.635 6.643 7.748 8.02 7.94 7.603 8.52 7.94 7.108 6.848 5.59 5.105 4.888 4.78 6.903 7.218 9.018 8.925 8.115 5.883 4.178 4.15 4.588 6.008 6.975 9.305 5.535 4.675 4.503 4.523 4.508 3.758 3.71 3.73 3.77 6.213 6.175 4.18 5.905 7.098 4.385 2.913 2.763 2.77 2.778 2.733 2.715 2.705 2.708 2.69 2.638 2.64 2.575 2.573 2.468 2.415 2.338 2.273 2.29 2.265 2.253 2.245 2.275 2.29 2.238 2.26 2.21 2.178 2.135 2.095 2.083 2.145 2.145 2.1 2.005 1.96 1.965 1.965 1.965 1.965 1.978 1.96 1.96 1.953 1.965 1.968 1.978 1.975 1.978 2.045 1.935 2.798 2.5 2.233 2.215 2.168 2.128 1.995 1.963 1.938 1.888 1.87 1.915 1.908 1.91 1.903 1.888 1.903 1.928 1.985 2.048 2.073 2.125 2.143 1.773 1.833 1.988 2.003 1.998 1.976 1.976 2.086 2.123 2.168 2.233 2.283 2.326 2.326 2.291 2.281 2.261 2.226 2.153 2.131 2.153 2.126 2.108 2.111 2.141 2.133 2.146 2.138 2.213 2.221 2.286 2.301 2.418 2.393 2.353 2.351 2.373 2.418 2.571 2.723 3.006 2.648 2.616 2.558 2.636 2.621 2.628 2.711 3.031 4.156 4.368 6.208 5.753 5.203 4.363 4.056 4.891 4.733 4.873 4.873 5.206 3.971 3.411 3.343 3.331 3.368 3.396 3.423 3.446 3.471 3.468 3.473 7.351 12.713 13.921 13.111 12.086 13.198 10.456 4.281 3.181 3.211 3.323 3.228 3.211 4.848 8.723 6.933 9.951 9.388 7.721 9.573 12.413 4.501 2.676 4.378 4.148 3.743 2.806 2.868 2.753 3.206 4.851 3.663
34.427 34.415 34.087 33.98 33.862 34.282 35.287 34.362 33.94 35.26 35.28 34.457 34.96 34.635 31.422 32.057 32.385 31.777 32.267 32.512 32.46 32.66 33.747 32.482 32.542 32.557 32.677 34.757 33.015 32.77 32.365 32.392 32.22 32.147 32.062 32.02 31.957 31.935 31.902 32.487 33.235 31.867 31.695 31.612 31.64 31.602 31.6 31.637 31.67 31.687 31.73 32.352 32.252 33.962 36.625 36.95 37.28 37.497 37.747 36.592 34.14 34.067 32.732 32.155 32.472 34.545 35.367 36.015 35.922 34.535 31.392 32.467 32.332 30.81 30.675 30.617 30.572 30.532 31.17 30.997 33.785 34.55 32.77 31.67 34.965 38.855 32.222 33.05 34.935 36.03 33.45 34.39 37.247 36.247 32.452 29.915 29.075 29.047 30.445 34.7 34.412 34.952 38.317 33.155 32.542 29.257 30.662 29.01 31.767 29.747 28.84 28.732 28.5 28.247 29.087 29.16 28.747 28.92 28.862 28.642 30.132 31.257 31.185 28.877 27.615 27.565 27.78 27.297 26.692 26.96 30.52 28.77 25.955 25.862 25.877 25.88 26.085 26.217 25.837 25.852 25.842 25.835 25.83 25.825 25.853 25.598 25.958 26.175 24.465 24.088 24.013 23.893 23.983 24.878 25.538 24.41 23.095 21.368 21.895 22.253 20.953 20.903 20.845 23.93 25.15 23.52 22.543 25.965 27.063 26.485 27.668 28.045 26.59 25.918 26.998 27.31 24.798 28.893 28.883 24.22 19.653 18.12 17.815 17.673 17.638 17.52 17.353 17.26 17.223 17.075 16.425 15.345 16.813 18.015 18.545 18.705 18.165 17.26 14.69 14.093 13.665 13.088 12.593 12.62 12.588 12.503 12.375 12.188 11.963 11.67 11.315 11.043 10.738 10.475 10.333 10.21 10.99 10.475 10.733 10.443 8.743 8.528 8.28 8.038 7.685 7.433 7.178 6.825 6.715 7.045 7.2 7.51 7.413 7.685 7.828 7.17 5.845 5.405 5.188 5.018 4.79 6.428 7.993 8.448 9.115 8.335 7.135 4.745 4.24 4.24 10.34 7.815 5.165 4.843 4.558 4.538 4.763 4.095 3.778 3.698 3.723 3.778 4.13 3.703 3.228 3.308 3.593 6.865 3.66 2.8 2.773 2.778 2.763 2.783 2.75 2.698 2.668 2.673 2.628 2.61 2.56 2.518 2.438 2.355 2.293 2.29 2.25 2.248 2.245 2.233 2.26 2.27 2.248 2.225 2.17 2.158 2.1 2.098 2.095 2.14 2.135 2.098 2.008 1.97 2.013 1.998 1.973 1.973 1.955 1.96 1.958 1.975 1.96 1.973 1.98 1.97 1.978 1.98 2.06 1.908 1.99 2.11 2.175 2.188 2.178 2.11 2.038 1.963 1.935 1.905 1.86 1.893 1.895 1.908 1.898 1.895 2.003 2.048 2.035 2.085 2.168 1.825 1.766 1.973 2.008 2.011 2.026 2.006 2.066 2.083 2.098 2.158 2.206 2.266 2.233 2.313 2.238 2.266 2.241 2.211 2.156 2.126 2.121 2.121 2.116 2.143 2.181 2.188 2.213 2.233 2.236 2.271 2.311 2.566 2.956 2.461 2.491 2.783 2.428 2.693 3.706 3.061 2.541 2.563 2.591 2.626 2.618 2.618 2.651 2.641 2.686 3.671 6.643 4.653 4.896 5.301 6.488 6.421 6.328 4.698 4.708 7.881 6.293 3.386 3.326 3.273 3.316 3.361 3.393 3.406 3.811 4.738 3.521 4.413 10.123 13.461 13.431 14.378 15.898 15.738 13.781 5.936 3.646 3.526 4.478 4.616 5.923 3.218 3.441 3.556 7.558 7.506 5.283 5.103 9.398 8.661 5.458 4.188 4.136 3.781 2.741 2.711 2.713 5.203 6.586 5.746
34.137 34.202 34.267 34.27 34.12 34.51 34.862 33.502 33.79 33.712 35.11 35.675 34.657 32.745 32.462 32.627 32.682 32.642 32.61 32.57 32.517 32.692 32.73 32.632 32.62 32.575 32.585 33.92 32.962 32.405 32.402 32.452 32.392 32.345 32.292 32.202 32.12 32.09 32.422 34.71 33.752 32.552 31.875 31.752 31.96 32.067 31.897 31.907 32.262 32.482 32.427 34.447 33.267 33.975 38.1 37.887 37.8 37.71 37.507 36.2 34.147 34.097 33.435 32.132 31.942 31.63 32.24 34.407 35.117 34.015 31.657 32.767 31.207 30.887 30.817 31.11 30.725 31.482 30.705 32.242 35.68 35.825 32.94 30.42 33.752 36.82 37.94 37.8 35.925 33.452 30.285 30.997 33.23 33.487 29.635 29.307 29.612 31.162 32.242 35.612 32.717 34.34 36.257 33.492 29.722 33.417 32.06 28.797 29.435 29.55 34.147 29.215 28.607 28.807 28.85 28.532 28.695 28.597 28.475 28.315 28.375 29.15 30.177 28.165 27.17 27.105 26.96 26.83 30.06 32.377 28.3 27.715 26.012 25.902 25.87 26.11 26.177 26.145 25.835 25.852 25.842 25.827 25.83 25.803 25.865 25.663 25.008 26.52 24.638 24.09 23.97 23.875 23.865 24.48 25.045 23.94 23.513 21.44 21.263 21.085 20.94 20.863 22.87 26.733 28.225 27.863 25.753 26.713 27.195 27.475 28.618 27.688 27.093 26.38 24.835 25.805 26.943 23.19 30.413 25.793 21.38 18.018 17.778 17.698 17.65 17.565 17.345 17.25 17.175 16.88 15.773 16.498 17.9 18.478 17.475 18.3 17.365 14.823 14.325 13.92 13.288 12.965 14.003 12.678 12.555 12.498 12.39 12.21 11.948 11.565 11.208 10.94 10.68 10.51 12.018 13.538 13.643 15.358 18.183 18.86 9.543 8.515 8.27 7.988 7.658 7.388 7.13 7.12 8.293 8.05 7.16 6.913 7.333 7.393 7.623 6.353 5.378 5.298 5.1 5.568 6.47 7.69 8.668 9.183 8.52 7.395 4.93 4.628 4.733 4.323 7.333 7.65 4.523 5.1 4.65 4.518 4.31 3.878 4.773 4.6 3.738 3.898 4.335 3.31 3.163 3.165 4.025 3.628 3.213 2.813 2.795 2.758 2.76 2.76 2.723 2.69 2.635 2.625 2.615 2.578 2.533 2.46 2.385 2.295 2.285 2.29 2.265 2.253 2.238 2.225 2.283 2.273 2.25 2.183 2.158 2.13 2.103 2.093 2.115 2.14 2.13 2.103 2.035 1.988 1.993 2 1.965 1.958 1.978 1.97 1.953 1.958 1.963 1.983 1.953 1.968 1.98 1.97 2.003 1.978 1.878 1.973 2.118 2.158 2.185 2.143 2.14 2.023 1.963 1.958 1.905 1.933 1.978 2.018 1.998 2.055 2.07 2.033 2.053 2.185 1.923 1.673 1.936 2.011 2.006 2.033 2.041 2.038 2.063 2.058 2.091 2.133 2.201 2.236 2.273 2.301 2.258 2.238 2.228 2.171 2.103 2.128 2.131 2.151 2.161 2.148 2.248 2.793 2.458 2.353 2.306 2.323 2.356 2.436 2.441 2.441 2.443 3.038 2.431 2.911 3.981 3.166 2.606 2.623 2.663 2.693 2.651 2.676 2.666 2.713 2.706 2.736 2.781 2.846 3.503 4.353 5.801 5.011 4.943 5.248 4.516 8.281 4.081 3.698 3.398 3.338 3.341 3.366 3.396 3.411 4.123 8.283 8.996 9.888 11.158 13.328 10.423 11.096 12.623 15.983 9.056 3.921 4.383 6.833 10.101 14.056 14.073 3.756 3.451 8.511 5.883 8.771 13.166 9.488 7.131 13.843 6.131 5.093 4.833 2.863 2.658 2.701 2.781 5.653 5.446 3.008
34.147 34.202 34.312 34.425 34.312 34.51 34.835 33.502 33.69 34.505 34.79 33.94 33.39 32.887 32.817 32.82 32.81 32.775 32.717 32.607 32.69 33.042 33.34 32.702 32.645 32.642 32.65 34.21 33.37 32.66 32.632 32.59 32.565 32.56 32.762 32.485 32.28 32.57 32.462 35.097 35.477 33.835 32.067 31.997 32.985 33.215 33.662 34.145 35.392 35.945 34.935 34.742 33.447 32.775 37.017 36.97 36.687 36.057 35.312 33.802 32.547 32.662 32.262 33.04 32.802 31.585 31.902 32.467 33.137 32.275 32.71 31.975 31.115 31.02 31.085 31.49 30.987 30.75 31.097 34.172 37.365 37.007 34.127 30.907 32.455 34.587 36.927 37.235 40.035 38.975 35.467 35.82 34.477 31.89 29.55 29.407 31.89 36.79 34.94 39.107 34.212 37.867 33.347 34.117 30.105 32.277 33.595 28.955 29.292 32.2 37.717 32.042 28.897 29.027 29.155 28.945 28.692 28.75 28.737 29.455 29.78 28.595 29.807 29.25 27.542 27.255 27.095 28.802 28.445 28.38 28.072 28.705 26.09 25.917 25.86 25.877 25.857 25.852 25.825 25.83 25.825 25.83 25.813 25.783 25.81 25.685 25.028 26.605 24.805 24.1 23.988 23.86 23.808 24.025 24.095 23.943 24.72 21.623 21.278 21.113 20.935 20.85 23.523 28.405 29.168 29.075 28.398 27.575 26.81 27.495 28.448 27.6 26.333 24.585 20.793 19.518 20.638 20.785 24.598 22.488 20.025 17.905 17.78 17.798 17.725 17.645 17.313 17.175 17.07 16.483 15.5 17.72 18.323 18.718 18.368 17.838 15.628 14.455 14.178 13.83 13.678 13.563 15.88 15.058 13.573 12.593 12.41 12.208 11.9 11.468 11.168 10.895 10.618 10.793 13.665 19.288 15.645 18.22 20.338 17.83 13.293 8.545 8.275 8.008 7.625 7.34 7.113 7.61 8.77 7.923 6.37 6.103 7.058 7.095 6.703 5.805 5.373 5.183 4.945 5.688 7.508 8.503 9.203 8.74 7.628 5.625 4.945 5.793 8.655 5.428 4.438 5.633 4.44 5.888 7.655 4.19 3.87 6.348 10.843 11.515 10.055 8.153 7.288 4.778 3.343 3.18 3.125 2.925 2.87 2.798 2.79 2.76 2.78 2.74 2.695 2.663 2.63 2.643 2.593 2.56 2.488 2.415 2.375 2.28 2.288 2.305 2.27 2.258 2.25 2.27 2.295 2.268 2.218 2.16 2.168 2.115 2.083 2.09 2.128 2.135 2.14 2.068 2.038 1.975 1.98 1.98 1.96 1.965 1.963 1.94 1.955 1.983 1.965 1.968 1.963 1.953 1.995 2.008 1.993 2.043 2.073 1.958 1.968 2.153 2.22 2.19 2.158 2.098 2.07 2.058 2.033 2.043 2.105 2.088 2.07 2.088 2.07 2.068 2.123 2.03 1.703 1.933 2.036 2.038 2.018 2.026 2.048 2.031 2.023 2.051 2.043 2.046 2.136 2.226 2.268 2.251 2.263 2.196 2.206 2.153 2.146 2.168 2.158 2.131 2.153 2.176 2.253 2.668 2.441 3.028 3.211 3.091 2.516 2.443 2.396 2.423 2.476 2.556 2.481 2.563 2.773 2.651 2.641 2.658 2.698 2.716 2.721 2.701 2.733 2.766 2.811 2.858 2.886 2.936 2.963 2.991 3.246 3.458 3.858 4.983 4.426 5.001 4.236 3.588 3.403 3.456 3.458 3.408 3.406 3.426 4.158 9.853 11.618 11.543 5.221 4.941 3.548 4.783 3.843 10.728 8.328 4.038 8.861 13.841 15.043 15.966 16.263 9.663 4.606 6.711 3.911 5.413 14.738 8.088 10.403 12.361 4.336 5.913 4.926 3.176 2.728 2.718 2.763 4.366 4.258 6.306
34.137 34.215 34.297 34.462 34.425 34.515 35.162 34.312 34.06 33.852 33.82 33.61 33.522 33.387 33.105 33.117 33.045 32.997 32.887 32.862 33.425 33.667 33.38 32.887 32.765 32.742 32.825 34.125 34.76 32.917 32.887 32.865 33.015 34.312 37.295 36.567 35.247 35.79 33.892 33.45 36.222 35.265 32.167 32.647 35.967 36.622 36.97 37.765 38.055 38.11 35.49 34.755 33.725 32.49 33.762 33.625 33.25 32.43 32.147 31.847 31.717 31.73 31.957 33.115 31.84 31.777 31.94 32.367 31.507 32.865 32.885 31.337 31.25 31.175 31.22 32.172 33.327 33.672 34.31 37.042 38.452 37.757 36.115 33.82 32.12 32.515 37.322 39.982 39.81 37.587 38.632 37.99 31.102 29.722 29.637 29.602 34.957 38.562 37.475 38.907 35.91 36.087 33.7 29.44 30.377 33.365 30.71 29.107 28.805 30.255 31.295 30.007 28.872 28.867 28.642 29.025 28.857 29.252 29.772 29.55 29.317 28.957 28.672 28.892 27.6 27.865 26.975 26.972 27.405 26.645 27.925 30.47 26.205 25.92 25.865 25.857 25.827 25.815 25.812 25.815 25.827 25.825 25.818 25.783 25.765 25.725 24.973 25.895 24.745 24.25 24.023 23.863 23.778 23.778 24.05 23.85 24.823 23.323 21.36 21.155 21.118 20.87 21.263 25.838 28.56 28.403 29.1 29.115 28.213 28.063 28.07 26.633 21.063 21.343 20.52 19.653 19.428 23.063 26.34 21.325 18.355 17.845 17.798 17.8 17.8 17.73 17.398 17.115 17.025 16.713 15.953 16.563 18.703 18.498 17.933 16.153 14.588 14.225 13.83 13.513 13.233 13.168 15.26 15.99 15.713 13.525 12.518 12.178 11.833 11.445 11.105 10.855 11.335 17.138 15.15 13.413 17.603 16.748 20.313 14.325 16.598 10.045 8.59 7.96 7.58 7.278 7.355 8.748 8.348 7.83 7.618 6.138 5.723 6.003 6.003 5.453 5.313 5.118 5.098 7.035 8.29 9.143 8.918 8.015 6.175 4.443 5.828 7.02 6.953 5.903 4.87 4.753 4.585 4.59 4.238 3.9 5.018 10.688 13.883 15.005 13.118 13.533 8.3 3.755 3.048 3.323 3.413 2.973 2.865 2.833 2.83 2.793 2.74 2.713 2.708 2.653 2.623 2.608 2.568 2.53 2.43 2.363 2.308 2.31 2.308 2.315 2.263 2.243 2.255 2.3 2.288 2.273 2.195 2.145 2.115 2.105 2.105 2.098 2.115 2.16 2.125 2.085 2.03 1.985 1.99 1.973 1.975 1.963 1.97 1.97 1.98 1.995 1.973 1.973 1.968 1.948 1.983 1.968 2 2.01 2.04 2.108 1.955 1.953 2.145 2.17 2.198 2.143 2.143 2.13 2.165 2.133 2.098 2.088 2.045 2.063 2.075 2.105 2.008 1.765 1.85 2.068 2.033 2.048 2.056 2.013 2.036 2.016 2.008 2.021 1.983 1.968 2.046 2.108 2.133 2.176 2.196 2.183 2.183 2.151 2.156 2.151 2.161 2.201 2.548 2.313 2.236 2.308 2.288 3.596 6.001 4.191 2.388 2.411 2.496 2.438 2.483 2.521 2.521 2.581 2.608 2.658 2.678 2.703 2.736 2.758 2.778 2.781 2.798 2.848 2.901 2.938 2.968 2.993 3.056 3.123 3.188 3.158 3.201 3.311 3.531 3.986 4.313 4.503 5.098 4.646 4.498 4.038 3.533 3.603 3.831 8.978 11.373 10.253 3.751 3.583 3.606 3.616 3.648 8.543 8.646 3.763 9.253 15.878 16.921 15.631 16.078 12.706 3.896 3.963 5.428 6.006 14.981 7.756 4.971 10.348 6.006 4.878 3.473 3.303 2.813 2.811 2.816 4.471 3.111 5.276
34.225 34.257 34.935 35.002 34.505 34.495 35.285 37.095 36.927 36.695 36.687 34.532 33.487 33.42 33.467 33.45 33.36 33.697 35.242 36.735 33.977 33.51 34.052 33.117 33.05 33.012 33.042 33.915 34.842 33.817 35.37 35.95 35.742 37.775 40.282 39.615 38.587 39.13 35.542 33.995 37.067 33.772 32.432 32.305 36.565 38.42 38.602 38.765 38.755 38.64 36.607 34.44 34.412 32.995 32.447 31.935 31.95 32.157 31.947 31.825 31.755 31.767 31.967 35.152 33.19 32.56 32.897 32.88 32.217 32.507 31.91 31.452 31.372 32.822 33.057 34.977 34.71 35.072 35.647 36.552 38.25 37.93 34.98 33.187 33.312 34.7 38.017 40.125 40.427 37.18 39.39 39.02 31.13 29.87 30.175 33.747 35.712 38.835 38.012 36.247 33.75 33.737 34.852 32.335 29.372 36.182 33.812 31.402 28.885 28.797 28.695 28.69 28.682 28.585 28.467 29.822 29.952 28.602 29.585 29.927 28.89 28.525 28.647 28.167 28.01 30.947 28.995 27.15 27.592 27.337 27.855 26.855 26.47 25.942 25.912 25.85 25.825 25.817 25.87 25.842 25.845 25.855 26.113 25.963 26.04 25.973 25.13 24.525 25.088 24.43 23.995 23.865 23.76 23.728 23.883 23.98 24.775 24.278 21.623 21.173 21.155 20.94 21.383 25.305 26.78 26.768 27.318 28.19 28.248 28.27 26.35 24.17 23.4 19.835 19.693 19.465 19.195 23.32 26.758 24.225 18.065 17.86 17.833 17.823 17.84 17.748 17.518 17.09 17.005 16.79 16.223 15.71 15.548 17.76 16.418 14.678 14.39 14.015 13.695 13.44 13.273 13.108 13.048 14.968 15.973 14.133 12.373 12.113 11.785 11.413 11.113 10.885 12.768 15.44 13.258 11.013 11.453 15.89 10.698 10.968 12.26 10.933 8.508 7.83 7.495 7.79 8.865 8.478 8.04 7.493 8.718 7.223 5.705 5.578 5.52 5.38 5.233 5.04 6.68 8.148 9.033 9.088 8.183 6.393 4.47 4.665 6.073 6.113 5.583 5.315 4.653 4.715 4.515 4.45 4.068 3.8 4.84 11.773 14.088 16.095 14.063 12.813 8.883 3.958 3.95 4.75 3.133 2.913 2.868 2.865 2.81 2.765 2.718 2.705 2.688 2.653 2.613 2.605 2.53 2.495 2.4 2.358 2.29 2.29 2.298 2.295 2.255 2.265 2.27 2.298 2.285 2.258 2.195 2.125 2.11 2.09 2.065 2.09 2.125 2.158 2.168 2.098 2.018 1.985 1.99 1.993 1.965 1.97 1.998 1.973 1.963 1.983 1.965 1.983 1.99 1.978 1.955 1.988 2.025 1.988 1.998 2.04 2.098 2.003 1.993 2.19 2.193 2.193 2.2 2.178 2.143 2.133 2.065 2.078 2.063 2.058 2.11 2.09 1.788 1.838 2.035 2.068 2.013 2.021 2.003 2.026 2.033 1.986 2.011 1.946 2.018 2.053 2.106 2.121 2.133 2.186 2.163 2.171 2.153 2.148 2.158 2.446 2.848 2.296 3.056 2.548 2.923 3.596 2.718 2.686 2.846 2.763 2.401 2.431 2.453 2.481 2.501 2.553 2.596 2.628 2.673 2.693 2.713 2.761 2.818 2.863 2.843 2.871 2.883 2.926 2.973 3.021 3.038 3.061 3.133 3.221 3.276 3.283 3.283 3.313 3.386 3.428 3.433 3.968 4.656 4.776 5.058 4.828 4.596 4.013 4.168 7.933 11.628 9.591 3.811 3.656 3.811 3.731 3.776 4.421 5.826 7.318 9.543 16.046 17.676 14.303 14.596 11.366 6.823 4.808 8.593 12.041 16.631 11.941 10.126 10.016 7.391 9.193 8.168 6.486 3.246 3.413 3.371 4.118 5.678 7.463
34.35 34.307 34.867 35.41 34.585 34.412 34.882 37.847 37.882 37.802 37.482 35.385 33.365 33.392 34.45 35.752 33.777 36.08 40.462 39.547 35.107 33.632 33.42 33.377 33.312 33.3 33.285 34.182 35.102 35.397 37.235 36.947 36.177 37.51 39.892 39.957 38.627 38.257 35.842 32.852 34.63 34.712 32.435 32.345 35.622 38.447 38.215 37.805 37.592 37.022 34.522 33.092 32.33 32.865 33.23 32.332 32.007 31.94 31.932 31.975 31.78 31.782 31.765 33.917 33.985 33.68 32.915 32.332 32.395 31.587 31.565 31.542 31.485 31.84 31.56 31.562 31.567 31.515 31.942 32.27 33.042 32.74 31.31 31.23 31.292 32.037 36.03 39.502 39.552 37.26 39.417 38.647 30.95 30.012 32.48 36.645 38.932 36.975 37.6 34.875 33.825 36.492 35.755 33.817 30.247 34.975 33.377 31.9 28.932 29.495 29.982 28.725 28.607 28.525 28.517 30.062 30.255 29.085 29.567 28.68 28.792 28.325 28.225 27.957 28.822 30.06 28.287 29.25 28.812 27.3 28.66 27.105 26.53 25.99 25.882 25.845 25.832 25.847 26.15 25.99 26.697 27.67 28.308 26.63 26.775 26.553 27.045 26.68 30.735 28.468 25.575 23.89 23.86 26.698 25.128 24.558 25.235 27.188 23.758 21.188 21.06 21.008 22.798 26.155 27.05 25.845 25.713 26.673 27.92 27.75 24.563 24.373 22.723 19.865 19.743 19.598 19.215 20.073 20.968 21.935 17.935 17.83 17.818 17.81 17.83 17.825 17.595 17.093 16.955 16.753 16.193 15.863 15.54 14.993 14.663 14.838 14.243 13.86 13.645 13.623 13.555 13.388 13.165 13.048 13.77 12.79 12.318 12.003 11.683 11.408 11.16 10.93 11.26 19.095 13.283 10.173 10.015 14.935 12.735 9.178 19.1 13.285 8.98 7.793 7.7 9.223 9.373 8.505 6.75 6.783 6.885 6.55 6.053 5.663 5.54 5.368 4.923 6.17 7.958 8.86 9.168 8.41 6.785 4.878 5.018 5.62 5.223 5.463 6.708 4.768 4.673 4.483 4.548 4.34 3.83 3.873 3.818 8.138 12.628 11.54 12.718 9.655 6.758 5.755 9.283 4.558 2.96 2.88 2.833 2.838 2.803 2.79 2.738 2.718 2.685 2.668 2.61 2.585 2.528 2.455 2.385 2.358 2.305 2.29 2.313 2.308 2.285 2.295 2.318 2.313 2.3 2.233 2.18 2.133 2.093 2.083 2.075 2.1 2.153 2.183 2.163 2.085 2.023 2.018 2.04 2.038 1.99 1.968 1.975 1.96 1.963 1.998 1.973 2.01 1.988 1.973 1.995 2 2.008 2.015 2.038 2.045 2.06 2.095 1.945 2.073 2.23 2.2 2.218 2.175 2.173 2.158 2.095 2.05 2.06 2.073 2.113 1.873 1.78 2.038 2.085 2.058 2.023 2.053 2.046 2.031 2.021 2.011 2.016 2.058 2.153 2.126 2.146 2.163 2.198 2.143 2.126 2.166 2.201 2.221 2.246 3.018 3.448 2.811 2.308 2.286 3.061 3.351 2.696 3.156 2.416 2.381 2.418 2.441 2.486 2.508 2.556 2.593 2.638 2.673 2.701 2.738 2.781 2.846 2.896 2.913 2.903 2.908 2.966 3.011 3.056 3.081 3.111 3.166 3.256 3.328 3.406 3.371 3.366 3.416 3.471 3.526 3.553 3.583 3.593 3.703 3.878 4.433 4.753 5.336 9.041 11.091 10.416 3.918 3.831 3.701 3.786 4.196 4.056 5.243 9.573 13.653 17.018 16.698 17.953 11.473 16.281 14.698 11.111 10.171 10.126 13.451 17.858 11.716 4.988 6.676 8.663 11.211 11.538 8.208 3.953 4.703 4.026 4.771 5.968 5.593
34.467 34.347 34.517 35.24 34.652 34.51 34.965 38.107 38.38 38.237 37.425 34.705 33.622 33.577 34.807 36.462 34.302 39.27 42.132 41.287 34.887 34.077 33.71 34.475 33.705 33.555 33.535 34.165 35.265 35.68 37.015 37.097 36.202 37.617 39.545 40.285 37.877 34.447 32.912 32.74 33.722 35.12 32.617 32.475 33.92 36.712 36.285 34.815 34.162 33.177 32.457 33 32.4 32.535 32.29 32.127 32.072 32.205 32.667 32.642 32.395 31.807 32.245 34.217 34.005 33.387 31.805 32.12 31.89 31.735 31.672 31.685 31.622 31.57 31.57 31.572 31.535 31.487 31.447 31.425 31.362 31.33 31.28 31.24 31.157 31.072 31.015 32.847 35.187 37.302 38.692 34.352 31.27 30.402 33.142 35.187 38.002 37.062 39.127 36.967 37.037 35.337 33.407 36.392 33.837 30.807 31.012 31.257 29.135 33.047 34.397 28.902 28.81 28.7 28.542 28.957 30.352 29.42 29.435 29.532 28.88 28.78 28.847 28.24 29 28.542 28.377 28.89 28.777 28.922 28.445 28.307 26.605 26.117 25.907 25.877 25.847 25.907 26.225 27.112 28.54 30.597 29.565 25.638 25.39 25.305 29.413 32.373 33.305 32.238 28.53 25.673 24.06 28.63 32.57 26.963 26.465 30.693 26.995 22.34 21.135 21.73 25.195 26.58 26.575 25.695 26.11 26.583 28.078 25.968 21.763 20.245 20.36 19.885 19.878 20.135 20.853 19.735 19.19 18.135 17.905 17.873 17.87 17.833 17.835 17.818 17.665 17.08 16.9 16.728 16.165 15.87 15.538 15.08 15.13 17.74 17.703 13.948 13.733 13.723 13.625 13.51 13.315 13.015 12.723 12.49 12.22 11.94 11.63 11.39 11.185 10.96 10.758 13.358 11.695 11.823 10.01 9.78 9.523 9.095 8.7 11.835 9.54 7.783 8.67 9.513 11.335 10.093 6.873 6.73 6.69 6.66 6.653 5.87 5.633 5.293 6.443 7.663 8.658 9.228 8.62 7.76 5.045 4.63 6.055 5.685 5.163 4.758 5.048 4.808 4.683 5.06 4.983 3.863 3.893 3.888 4.035 5.088 8.84 12.79 15.113 8.773 7.378 5.515 3.275 3.2 2.96 2.94 2.91 2.843 2.775 2.758 2.738 2.7 2.66 2.638 2.593 2.545 2.48 2.4 2.36 2.323 2.32 2.305 2.303 2.29 2.273 2.305 2.335 2.313 2.288 2.218 2.163 2.14 2.1 2.075 2.09 2.118 2.148 2.175 2.138 2.078 2.033 2.033 2.02 1.998 1.97 1.983 1.98 1.97 1.98 1.988 1.975 2.005 2.013 1.993 2.01 2.005 2.01 2.033 2.048 2.033 2.035 2.053 2.06 2.02 2.145 2.2 2.215 2.25 2.275 2.255 2.18 2.155 2.13 2.163 1.938 1.785 2.035 2.118 2.13 2.143 2.103 2.083 2.073 2.038 2.033 2.088 2.146 2.128 2.146 2.178 2.161 2.173 2.161 2.136 2.201 2.281 2.803 2.918 3.251 3.288 3.496 2.991 2.356 2.331 2.533 2.381 2.401 2.438 2.456 2.478 2.508 2.536 2.536 2.556 2.606 2.648 2.691 2.718 2.743 2.801 2.866 2.921 2.971 2.973 2.993 2.998 3.058 3.133 3.158 3.161 3.201 3.281 3.386 3.423 3.456 3.451 3.486 3.508 3.573 3.591 3.633 3.686 3.693 3.736 3.753 3.766 3.876 5.103 10.708 7.763 9.576 10.881 7.746 3.953 4.266 4.013 3.961 9.851 15.406 17.061 17.341 17.276 17.088 14.986 14.426 10.006 11.843 12.371 9.848 11.521 11.961 5.408 7.931 13.233 8.206 11.286 12.606 8.468 3.706 5.571 5.901 7.823 7.568 7.443
34.595 34.505 34.51 35.427 34.692 34.627 34.917 37.41 37.745 38.075 37.435 35.577 34.432 34.272 34.722 35.76 35.337 36.112 40.512 38.895 34.782 33.965 33.902 33.897 33.845 33.81 33.737 33.925 35.592 34.93 36.827 37.232 35.88 36.985 39.042 40.557 38.37 34.767 32.955 33.03 33.19 33.945 32.915 32.615 32.55 32.59 32.517 32.502 32.505 32.532 32.525 32.5 32.45 32.832 32.885 32.22 33.345 33.795 33.555 34.052 33.672 33.6 34.317 34.117 33.195 31.96 31.882 31.93 31.88 31.862 31.797 31.767 31.752 31.725 31.665 31.645 31.597 31.58 31.525 31.5 31.46 31.415 31.335 31.282 31.237 31.16 31.077 30.96 30.975 31.367 35.285 33.617 30.465 30.425 34.01 35.357 36.43 37.062 38.525 39.115 33.43 36.422 37.822 38.34 35.672 29.512 30.477 29.48 29.142 30.045 33.717 29.202 28.922 28.795 28.617 28.795 29.745 29.17 28.625 29.332 29.565 29.085 28.885 28.875 28.267 28 28.247 27.84 28.03 27.98 27.407 28.382 27.36 27.032 26.105 26.607 27.567 26.827 26.62 27.13 27.442 28.572 26.583 25.278 25.163 27.313 32.045 29.403 35.31 37.435 36.005 27.505 23.86 29.733 32.98 33.18 32.303 35.193 29.78 26.228 21.375 23.273 26.475 27.49 25.49 21.613 24.658 26.185 26.5 25.84 22.54 20.298 20.035 19.863 20.358 20.933 21.148 21.765 18.898 17.983 17.908 17.903 17.858 17.86 17.883 17.865 17.575 16.92 16.818 16.63 16.158 15.835 15.44 14.87 14.688 17.278 16.668 13.985 13.868 13.77 13.673 13.533 13.308 13.03 12.72 12.45 12.17 11.893 11.608 11.368 11.125 10.958 10.743 10.555 10.345 10.168 9.963 9.715 9.408 9.1 8.698 8.4 8.108 9.168 9.285 9.235 9.443 8.89 6.935 6.693 6.655 6.598 6.62 6.048 5.79 6.82 8.8 8.425 9.218 8.83 7.95 5.445 4.535 5.648 5.965 5.098 4.665 4.655 4.675 4.62 4.58 4.775 3.953 3.865 3.905 3.878 4.55 4.43 4.048 8.22 15.185 4.158 10.348 8.028 3.145 2.895 2.888 2.94 2.913 2.885 2.845 2.76 2.748 2.713 2.678 2.645 2.608 2.515 2.448 2.378 2.338 2.318 2.325 2.32 2.34 2.32 2.3 2.325 2.345 2.325 2.243 2.193 2.153 2.115 2.093 2.1 2.113 2.14 2.178 2.165 2.105 2.043 2.033 2.04 2 2.013 1.995 1.958 1.973 1.973 1.97 1.98 1.995 1.975 2.008 2.005 2.025 2.015 2.033 2.045 2.048 2.035 2.028 2.033 2.063 2.1 2.053 2.185 2.215 2.218 2.228 2.29 2.233 2.243 2.255 2.07 1.745 1.968 2.128 2.138 2.128 2.128 2.113 2.106 2.046 2.111 2.126 2.158 2.248 2.221 2.273 2.226 2.191 2.201 2.196 2.191 2.226 2.296 3.008 3.213 2.733 2.518 2.456 2.343 2.333 2.338 2.376 2.398 2.438 2.463 2.511 2.536 2.546 2.561 2.573 2.621 2.681 2.741 2.753 2.773 2.823 2.843 2.913 2.971 2.981 3.061 3.103 3.103 3.166 3.216 3.246 3.271 3.313 3.401 3.491 3.518 3.528 3.558 3.601 3.636 3.658 3.691 3.731 3.783 3.788 3.806 3.823 3.866 3.908 3.876 8.703 10.521 12.753 12.436 10.423 4.758 5.118 4.301 5.171 13.438 16.871 16.956 16.503 15.473 15.438 10.038 5.553 5.118 11.446 15.028 14.976 11.546 10.248 4.793 14.898 16.511 12.526 13.568 10.453 9.386 5.896 4.013 4.288 7.348 11.153 11.866
35.795 34.642 34.572 34.927 34.74 34.737 34.645 35.825 37.402 37.972 37.38 35.57 34.605 34.262 34.61 34.552 34.975 35.417 35.647 34.507 34.332 34.082 34.075 34.065 34.182 34.402 34.172 34.372 35.59 34.552 34.95 34.88 34.507 35.075 38.592 40.585 39.077 35.752 33.37 33.025 33.14 32.992 33.287 32.802 32.732 32.697 32.725 32.742 32.78 32.82 32.865 32.672 32.747 32.802 33.265 32.347 32.495 33.587 34.46 34.225 33.385 33.087 32.705 32.272 32.055 32.075 32.085 32.045 31.965 31.965 31.892 31.87 31.817 31.78 31.72 31.722 31.625 31.582 31.542 31.477 31.475 31.407 31.35 31.312 31.27 31.14 31.085 31.015 30.912 30.835 30.717 30.665 30.56 30.492 30.477 31.752 30.8 32.522 32.907 33.907 33.787 34.507 39.485 39.875 34.657 31.18 30.762 29.545 29.712 29.107 29.12 29.3 30.345 29.892 29.22 29.232 29.142 28.497 28.642 28.82 29.35 29.04 29.372 28.562 27.875 28.072 27.612 28.242 28.51 27.657 27.7 27.917 28.632 29.535 29.062 30.722 30.165 30.342 26.785 26.41 26.34 26.522 26.328 25.248 25.125 25.155 28.44 28.628 30.873 33.47 32.69 28.033 24.063 26.473 32.555 33.698 28.125 26.688 33.46 25.62 21.205 23.308 25.963 26.405 24.11 20.493 20.44 21.51 25.133 26.55 24.6 20.303 20.113 19.885 19.638 20.203 19.64 20.578 18.62 17.98 17.915 17.883 17.863 17.933 17.973 17.805 17.34 16.913 16.808 16.563 16.115 15.788 15.35 14.81 14.438 14.275 14.183 14.085 13.938 13.84 13.715 13.54 13.263 12.985 12.7 12.408 12.145 11.885 11.613 11.41 11.138 10.913 10.74 10.585 10.398 10.238 9.983 9.713 9.388 9.008 8.675 8.333 9.14 9.893 8.433 8.438 7.458 6.783 7.22 7.513 6.64 6.473 6.263 6.005 5.968 6.65 6.07 7.745 9.008 8.118 6.065 4.603 5.078 5.66 5.258 5.133 4.585 4.493 4.678 4.533 4.275 4.008 3.918 4.53 8.203 6.403 9.67 3.923 3.158 3.533 10.56 5.903 15.763 9.643 2.955 2.915 2.873 2.875 2.888 2.873 2.855 2.795 2.748 2.69 2.66 2.62 2.588 2.488 2.398 2.358 2.325 2.315 2.313 2.318 2.328 2.283 2.308 2.348 2.368 2.308 2.218 2.15 2.128 2.088 2.083 2.11 2.12 2.143 2.18 2.175 2.128 2.028 2.048 2.05 2.025 2.003 2 1.973 2.003 1.983 1.978 1.978 1.963 2 2.013 1.983 2.008 2.028 2.038 2.043 2.028 2.045 2.033 2.048 2.075 2.11 2.195 2.123 2.16 2.383 2.355 2.295 2.263 2.263 2.58 2.458 2.103 2.05 2.17 2.163 2.138 2.12 2.076 2.088 2.098 2.138 2.198 2.253 2.326 2.253 2.233 2.256 2.266 2.231 2.228 2.251 2.253 2.263 2.338 2.371 2.318 2.301 2.303 2.328 2.348 2.383 2.433 2.441 2.491 2.483 2.526 2.556 2.573 2.576 2.646 2.691 2.756 2.806 2.841 2.873 2.901 2.956 2.978 3.033 3.088 3.136 3.163 3.213 3.251 3.286 3.306 3.363 3.451 3.526 3.601 3.601 3.641 3.658 3.708 3.758 3.783 3.831 3.833 3.868 3.881 3.883 3.931 3.953 3.933 3.963 5.648 10.453 9.556 11.546 8.666 4.913 5.913 4.716 4.926 13.271 16.021 16.308 11.133 14.253 14.236 8.103 4.206 6.721 13.951 14.573 15.913 14.718 15.668 6.296 9.666 14.328 9.103 10.931 5.293 10.761 8.716 4.293 5.436 8.793 12.646 14.973
35.402 34.73 34.66 34.685 34.747 34.8 34.602 35.267 37.452 37.96 37.332 35.602 34.505 34.297 34.25 34.29 34.295 34.435 35.31 34.445 34.175 34.197 34.242 34.325 34.345 34.45 34.557 34.41 35.687 35.117 34.432 33.732 33.622 34.662 38.385 40.227 37.482 36.48 33.51 33.127 33.13 33.147 33.432 32.945 32.882 32.897 33.005 33.007 32.965 32.915 33.297 33.1 33.787 32.582 32.525 32.435 32.417 32.435 32.357 32.342 32.297 32.24 32.227 32.22 32.22 32.185 32.127 32.065 32.067 32.002 31.982 31.897 31.86 31.795 31.722 31.657 31.62 31.612 31.517 31.48 31.442 31.4 31.367 31.325 31.245 31.14 31.137 31.025 30.96 30.84 30.722 30.64 30.602 30.567 30.535 30.427 30.302 30.21 30.115 30.355 30.542 34.802 36.345 38.807 36.12 35.55 33.367 33.587 29.862 29.16 29.705 31.7 31.42 36.8 29.86 28.917 28.572 29.047 30.34 29.42 30.105 30.832 28.425 28.297 28.092 29.077 28.415 30.33 28.605 27.902 28 28.102 28.982 31.115 31.252 31.617 31.967 29.757 26.775 26.112 25.94 26.005 28.413 25.295 25.175 25.245 27.01 28.158 27.588 26.298 25.11 24.54 24.48 24.26 31.878 32.483 27.74 27.503 31.548 27.76 21.875 21.143 21.248 23.183 21.363 20.573 20.468 21.143 23.848 24.685 22.535 20.303 20.143 19.9 19.743 19.54 19.915 19.178 18.723 18.24 17.94 17.895 17.95 18.038 18.023 17.725 17.083 16.933 16.825 16.505 16.088 15.75 15.158 14.63 14.438 14.273 14.223 14.103 13.953 13.843 13.705 13.498 13.195 12.893 12.638 12.36 12.105 11.853 11.618 11.403 11.178 10.928 10.708 10.54 10.373 10.235 9.973 9.685 9.33 8.993 8.645 9.11 10.185 9.233 7.965 8.273 7.313 6.785 7.088 8 6.768 6.365 6.133 6.148 7.855 9.363 7.695 5.883 6.55 6.923 4.703 5.315 8.398 5.31 5.133 5.458 5.238 4.573 4.35 4.405 4.085 3.965 3.92 5.333 10.858 8.2 8.518 3.19 3.443 3.185 5.515 4.43 5.868 4.198 2.96 2.915 2.878 2.86 2.818 2.8 2.828 2.795 2.795 2.705 2.643 2.628 2.54 2.478 2.403 2.375 2.325 2.318 2.33 2.313 2.34 2.273 2.313 2.36 2.358 2.288 2.205 2.16 2.16 2.145 2.093 2.108 2.13 2.148 2.205 2.175 2.108 2.053 2.053 2.038 1.995 1.993 1.99 2.003 1.975 1.985 1.973 1.978 1.99 1.97 1.988 2.013 2.033 2.023 2.015 2.02 2.015 2.053 2.043 2.03 2.048 2.098 2.175 2.188 2.048 2.305 2.958 2.895 2.498 2.32 2.988 5.84 3.218 2.118 2.075 2.108 2.135 2.128 2.073 2.106 2.121 2.231 2.261 2.268 2.391 3.328 3.121 2.286 2.298 2.253 2.281 2.273 2.256 2.288 2.316 2.311 2.316 2.321 2.343 2.366 2.393 2.433 2.488 2.498 2.511 2.543 2.548 2.576 2.648 2.666 2.726 2.793 2.873 2.901 2.906 2.923 2.963 3.063 3.098 3.121 3.181 3.233 3.256 3.323 3.386 3.396 3.391 3.453 3.571 3.636 3.691 3.718 3.743 3.796 3.836 3.883 3.911 3.928 3.953 3.971 3.973 3.998 3.991 4.026 4.033 4.026 4.056 4.588 5.896 6.021 4.063 4.256 4.306 4.453 4.453 8.311 13.351 13.988 12.238 12.013 7.558 5.448 9.968 12.658 17.001 15.783 14.546 12.728 15.546 14.388 7.866 12.886 12.848 9.791 3.368 7.073 8.803 4.371 5.683 10.588 12.371 15.093
35.457 34.827 34.75 34.975 35.48 34.872 34.587 34.897 36.107 36.057 36.535 35.81 34.56 34.362 34.302 34.345 34.32 34.28 34.572 34.272 34.197 34.225 34.67 34.915 36.5 36.925 36.682 34.74 35.765 36.415 37.18 35.252 33.972 33.417 35.257 34.31 33.245 33.22 33.225 33.27 33.245 33.267 34.592 33.1 33.005 33 33.027 33.022 33.052 34 34.155 33.615 32.72 32.577 32.552 32.525 32.51 32.5 32.467 32.462 32.385 32.407 32.49 32.6 32.22 32.5 33.217 33.07 32.625 32.367 32.797 33.01 32.952 35.235 32.557 33.052 32.627 32.582 32.272 32.22 32.21 34.14 33.687 32.345 32.65 32.155 31.835 31.082 30.975 30.852 30.712 30.592 30.562 30.545 30.475 30.382 30.312 30.187 30.09 29.94 29.9 34.572 37.987 38.935 34.922 32.632 31.4 31.487 32.352 29.952 31.62 34.69 29.41 36.305 28.835 29.182 29.775 29.015 31.887 30.295 29.992 29.632 28.222 28.087 28.155 28.732 28.672 29.155 28.105 28.105 28.185 28.615 29.942 30.06 31.185 31.54 31.182 27.397 26.295 26.017 25.907 28.742 29.203 25.623 25.625 25.198 25.613 26.575 26.32 25.653 25.753 24.598 24.7 25.25 27.528 25.113 22.203 22.348 26.065 25.508 21.173 21.185 21.38 20.838 20.903 20.638 20.513 21.17 24.225 23.233 20.993 20.385 20.175 19.98 20.325 19.985 19.585 18.903 18.675 18.56 18.338 18.315 18.44 18.438 18.253 17.585 16.99 16.935 16.813 16.39 16.048 15.65 14.855 14.57 14.443 14.42 14.33 14.155 14.005 13.888 13.683 13.42 13.133 12.858 12.605 12.328 12.065 11.868 11.635 11.42 11.175 10.895 10.673 10.493 10.32 10.16 9.905 9.648 9.298 8.95 8.883 9.338 10.315 8.748 7.59 6.98 6.883 7.333 8.258 8.578 7.58 6.378 6.023 7.1 9.193 10.058 10.503 8.783 6.2 6.093 6.955 9.268 10.91 6.113 5.133 5.248 5.253 4.48 4.37 4.565 4.688 4.013 4.628 4.993 11.688 9.795 3.403 3.215 3.808 3.395 3.42 4.915 3.89 2.98 2.96 2.913 2.88 2.855 2.795 2.755 2.768 2.74 2.775 2.723 2.65 2.588 2.505 2.445 2.385 2.38 2.363 2.343 2.338 2.338 2.303 2.32 2.365 2.388 2.338 2.258 2.205 2.213 2.163 2.115 2.09 2.105 2.148 2.17 2.2 2.163 2.08 2.053 2.018 2.003 2.008 2 1.998 1.998 1.988 1.98 1.975 1.988 2.01 2 1.995 2.015 2.028 2.02 2.03 2.043 2.015 2.04 2.033 2.045 2.06 2.098 2.153 2.218 2.16 1.933 2.095 3.5 4.05 2.563 2.423 2.653 2.683 2.19 2.143 2.073 2.123 2.125 2.108 2.173 2.206 2.286 2.323 3.216 3.653 4.391 3.038 2.353 2.311 2.346 2.311 2.273 2.271 2.318 2.341 2.343 2.333 2.376 2.403 2.428 2.446 2.496 2.491 2.531 2.573 2.616 2.631 2.688 2.746 2.783 2.811 2.863 2.913 2.946 2.976 3.013 3.096 3.181 3.196 3.243 3.278 3.336 3.371 3.418 3.476 3.486 3.533 3.593 3.693 3.753 3.773 3.818 3.843 3.896 3.938 3.988 4.051 4.061 4.051 4.083 4.096 4.121 4.083 4.103 4.098 4.121 4.138 4.161 4.133 4.141 4.123 4.121 4.131 4.121 4.101 4.933 5.221 5.821 10.173 10.626 4.568 7.763 13.953 17.398 19.796 17.988 14.691 12.143 13.641 14.508 15.096 14.938 16.513 12.501 5.091 5.688 5.318 5.408 6.883 11.553 12.358 13.396
36.462 35.452 34.822 34.902 35.495 35.052 34.835 34.415 34.23 34.157 34.49 36.51 34.817 34.482 34.43 34.435 34.397 35.16 34.652 34.245 34.4 35.465 37.6 38.252 38.53 38.765 39.65 36.482 35.097 35.952 36.07 35.962 33.94 33.64 33.46 33.357 33.31 33.322 33.325 33.335 33.36 33.912 36.037 33.215 33.277 33.985 34.195 34.127 33.502 33.125 32.772 32.76 32.702 32.677 32.677 32.595 32.587 32.562 32.692 33.3 33.46 33.745 34.347 34.95 33.582 34.007 35.57 35.575 35.2 35.222 32.797 32.962 32.825 36.382 33.117 33.185 32.622 32.63 32.765 32.955 32.807 34.247 35.25 33.61 34.027 32.877 33.072 32.505 32.342 31.865 32.965 32.917 31.847 30.7 30.897 31.955 34.005 30.147 30.012 30.732 33.637 34.022 39.952 38.37 35.387 32.39 31.415 32.122 32.137 30.205 30.115 38.045 37.002 32.947 32.002 30.56 31.11 28.65 28.407 28.627 31.287 31.44 28.465 28.415 28.28 28.805 28.175 28.132 27.635 27.487 27.922 28.287 29.247 29.375 29.282 28.297 27.492 29.127 26.657 26.11 26.185 28.822 29.858 26.158 27.16 26.608 24.88 25.073 26.485 26.035 25.433 26.435 26.363 25.57 23.618 23.295 22.878 22.51 21.805 21.355 21.213 21.73 22.553 20.858 20.665 20.613 20.725 21.82 23.285 24.203 21.243 20.518 20.185 20.02 20.388 20.428 19.113 18.693 18.67 18.653 18.663 18.698 18.673 18.588 18.25 17.308 17.025 16.955 16.81 16.34 15.983 15.37 14.75 14.64 14.56 14.518 14.4 14.225 14.063 13.925 13.66 13.365 13.098 12.818 12.503 12.28 12.088 11.89 11.68 11.413 11.17 10.93 10.705 10.515 10.308 10.128 9.88 9.605 9.27 9.01 9.45 10.095 9.638 8.268 7.308 7.178 8.288 8.625 8.84 8.255 7.163 6.21 6.73 8.953 9.885 10.54 9.973 8.795 6.498 5.37 13.705 10.395 13.815 14.403 8.458 4.998 4.848 4.573 4.553 8.258 12.538 10.51 11.385 10.348 6.128 6.943 3.31 4.005 3.545 3.358 3.028 3.01 3.013 3 2.968 2.928 2.888 2.848 2.808 2.8 2.738 2.698 2.688 2.67 2.633 2.568 2.463 2.43 2.375 2.348 2.33 2.36 2.358 2.323 2.315 2.345 2.395 2.36 2.325 2.225 2.193 2.153 2.138 2.098 2.108 2.11 2.155 2.203 2.193 2.128 2.05 2.048 2.055 2.01 2.02 1.99 1.993 2.023 2.008 2 2.008 2.008 2.013 2.008 2.02 2.013 2.028 2.033 2.055 2.035 2.018 2.053 2.038 2.05 2.07 2.1 2.118 2.128 2.155 2.23 2.145 2.033 3.198 3.248 2.508 2.275 2.228 2.255 2.25 2.188 2.19 2.173 2.196 2.243 2.276 2.353 2.391 2.413 3.691 3.316 2.643 2.361 2.331 2.321 2.321 2.316 2.353 2.396 2.363 2.353 2.343 2.403 2.461 2.528 2.538 2.538 2.568 2.598 2.638 2.676 2.756 2.786 2.816 2.846 2.908 2.951 2.986 3.043 3.073 3.133 3.211 3.253 3.296 3.371 3.401 3.428 3.503 3.556 3.551 3.586 3.636 3.756 3.868 3.856 3.898 3.913 3.971 4.008 4.058 4.076 4.123 4.153 4.201 4.201 4.208 4.216 4.226 4.218 4.218 4.228 4.221 4.238 4.223 4.213 4.196 4.191 4.193 4.181 4.143 4.131 4.123 4.158 4.483 4.423 4.581 11.106 15.116 15.471 17.561 16.918 13.583 12.481 7.141 8.481 15.246 19.216 18.078 7.668 4.863 4.426 12.146 16.396 13.378 9.586 12.411 12.283
35.542 35.17 34.9 34.905 34.955 35.072 35.03 34.76 34.565 34.452 35.175 35.085 34.577 34.56 34.53 34.517 34.505 34.742 34.745 34.532 35.745 36.227 39.857 40.257 40.737 41.032 41.225 40.34 35.365 36.047 34.962 35.687 34.555 33.765 33.657 33.512 33.492 33.505 33.867 34.122 33.7 33.672 34.8 33.927 34.027 34.195 33.047 32.977 32.962 32.922 32.93 32.842 32.787 32.727 33.625 34.275 33.757 34.532 34.587 34.632 35.097 35.315 34.727 33.927 33.135 33.362 34.185 34.237 33.882 33.62 33.065 32.722 32.42 32.707 32.42 32.427 32.742 32.59 33.155 33.742 33.402 32.597 32.595 33.155 33.517 32.857 32.6 32.65 32.402 32.52 33.832 33.442 31.252 30.722 31.125 33.96 31.595 30.67 30.597 31.67 33.922 31.347 34.082 34.585 33.037 36.712 37.472 38.392 33.76 30.24 29.59 37.487 35.302 32.15 30.205 29.542 29.712 30.205 28.815 28.61 29.07 28.43 28.252 28.227 28.472 29.152 28.475 27.892 28.407 27.715 30.452 31.73 28.05 27.112 26.952 26.94 26.802 27.897 26.607 26.092 25.835 27.647 27.47 26.008 25.74 26.27 24.983 24.668 24.668 25.54 26.175 25.565 25.343 23.98 23.648 23.518 23.415 23.25 22.745 22.078 21.613 23.45 24.198 23.545 21.663 21.005 20.92 22.513 23.21 23.448 21.46 20.588 20.248 20.098 20.715 20.26 18.828 18.65 18.653 18.645 18.65 18.658 18.703 18.56 18.13 17.238 17.073 16.985 16.723 16.263 15.848 15.125 14.833 14.763 14.71 14.58 14.443 14.273 14.105 13.855 13.558 13.298 13.015 12.773 12.495 12.283 12.043 11.898 11.67 11.405 11.128 10.905 10.705 10.52 10.345 10.075 9.88 9.605 9.313 9.56 8.95 9.355 10.265 8.71 7.755 7.435 7.118 8.755 8.815 7.12 6.478 6.43 8.705 9.708 10.48 10.138 9.145 7.658 5.628 5.86 10.638 15.215 13.34 15.188 6.338 4.993 4.573 4.653 5.213 13.65 17.08 14.683 15.12 16.75 5.588 3.313 4.508 7.64 3.883 3.065 3.068 3.03 2.98 2.973 2.953 2.933 2.873 2.818 2.778 2.758 2.753 2.705 2.648 2.608 2.573 2.563 2.448 2.413 2.363 2.348 2.313 2.353 2.348 2.353 2.345 2.38 2.403 2.345 2.295 2.208 2.185 2.155 2.113 2.1 2.108 2.095 2.148 2.215 2.19 2.098 2.048 2.015 2.01 2.003 2.008 2.008 2.008 2.015 1.985 2.008 2.043 2.045 2.003 2.028 2.03 2.013 2.045 2.05 2.038 2.008 2.035 2.043 2.063 2.063 2.07 2.088 2.11 2.135 2.13 2.213 2.32 1.978 1.998 2.645 2.53 2.26 2.268 2.318 2.33 2.265 2.228 2.233 2.306 2.353 2.378 2.386 2.391 2.831 7.183 2.411 2.368 2.346 2.373 2.368 2.396 2.396 2.401 2.411 2.361 2.383 2.418 2.468 2.478 2.516 2.561 2.621 2.628 2.676 2.721 2.773 2.841 2.878 2.903 2.951 3.021 3.056 3.083 3.136 3.158 3.253 3.331 3.341 3.411 3.483 3.526 3.553 3.593 3.658 3.656 3.703 3.801 3.896 3.976 3.998 4.018 4.043 4.098 4.136 4.166 4.198 4.231 4.271 4.313 4.306 4.323 4.321 4.326 4.318 4.328 4.348 4.356 4.358 4.353 4.328 4.288 4.266 4.238 4.181 4.178 4.151 4.173 4.166 4.116 4.093 4.213 7.501 14.171 14.236 15.798 12.911 14.376 13.541 10.943 4.671 7.673 18.468 11.183 12.711 6.731 7.071 18.383 23.908 16.523 10.248 8.186 8.641
35.37 35.31 35.075 35.02 35.02 35.067 35.09 34.925 34.797 34.712 34.902 35.017 34.722 34.637 34.65 34.637 34.617 34.557 34.552 34.42 35.107 35.285 41.252 41.25 40.937 40.617 40.377 39.365 34.395 34.52 34.195 34.152 33.99 33.87 33.76 33.685 33.67 33.61 34.122 34.117 34.075 34.317 34.142 33.792 33.207 33.202 33.122 33.062 33.047 32.98 33.03 33.195 33.552 34.63 35.445 39.717 34.295 34.375 34.312 34.312 34.64 34.76 33.967 33.347 33.337 32.697 33.347 33.18 33.127 32.845 32.705 33.005 32.605 33.185 32.695 32.45 32.845 32.647 32.72 32.655 32.645 32.242 32.227 32.387 32.667 32.292 32.242 32.665 33.05 32.82 32.737 32.38 31.462 30.837 30.817 30.99 31.722 31.332 30.602 31.192 31.947 32.63 31.58 30.202 31.755 32.522 36.915 37.832 36.605 31.52 29.122 31.662 30.835 28.73 28.612 28.515 28.407 28.567 28.56 28.647 29.672 29.297 30.237 29.825 28.94 29.117 28.16 27.767 28.115 27.667 29.007 32.165 31.05 27.51 27.082 27.252 27.205 28.187 27.722 26.13 25.93 25.747 25.475 25.313 25.305 25.115 24.973 24.76 25.278 27.498 24.408 24.135 23.973 23.795 23.658 23.528 23.355 23.243 23.103 22.95 22.698 23.525 24.71 24.723 24.245 23.66 21.815 20.855 21.953 21.665 20.808 20.605 20.263 20.145 20.993 19.435 18.79 18.738 18.708 18.713 18.675 18.655 18.638 18.578 18.01 17.223 17.073 16.983 16.585 16.295 15.788 15.113 14.993 14.978 14.83 14.68 14.51 14.283 14.025 13.768 13.495 13.218 12.95 12.73 12.493 12.283 12.025 11.803 11.613 11.425 11.12 10.925 10.698 10.508 10.305 10.065 9.865 9.593 9.9 9.508 10.368 9.898 9.92 8.763 8.898 8.635 7.553 9.023 8.075 6.798 6.113 8.213 9.54 10.41 10.303 9.435 8.215 5.72 9.303 12.995 11.87 8.003 10.118 13.163 4.638 4.79 4.63 4.365 6.68 16.873 20.06 18.755 18.368 19.513 14.08 5.08 4.63 3.843 3.085 3.065 3.053 2.993 2.978 2.943 2.913 2.9 2.85 2.83 2.775 2.735 2.735 2.68 2.655 2.588 2.55 2.503 2.435 2.413 2.393 2.365 2.355 2.338 2.34 2.338 2.375 2.408 2.41 2.353 2.3 2.21 2.193 2.16 2.133 2.12 2.103 2.098 2.15 2.185 2.158 2.07 2.043 2.01 2.018 1.985 2.003 1.985 1.988 2.003 2.01 2.04 2.043 2.07 2.048 2.04 2.033 1.998 2.045 2.025 2.038 2.043 2.03 2.045 2.093 2.053 2.085 2.098 2.113 2.153 2.133 2.24 2.248 1.988 2.418 2.428 2.293 2.288 2.268 2.333 2.368 2.353 2.31 2.43 2.543 2.371 2.418 2.436 2.441 2.423 2.448 2.408 2.388 2.356 2.368 2.406 2.416 2.443 2.418 2.426 2.408 2.423 2.476 2.538 2.586 2.616 2.663 2.703 2.761 2.751 2.801 2.868 2.926 2.976 3.041 3.083 3.126 3.163 3.191 3.233 3.323 3.376 3.421 3.473 3.531 3.596 3.636 3.698 3.731 3.778 3.788 3.853 3.963 4.038 4.083 4.091 4.121 4.183 4.211 4.266 4.316 4.323 4.353 4.383 4.428 4.458 4.436 4.421 4.433 4.433 4.451 4.458 4.476 4.481 4.466 4.408 4.388 4.373 4.321 4.286 4.241 4.183 4.196 4.171 4.118 4.018 4.013 3.998 7.221 12.163 11.526 12.498 15.861 15.816 15.816 10.636 6.936 10.266 9.978 10.048 13.773 19.063 20.816 22.553 17.161 16.326 11.333 3.111
35.725 37.11 35.42 35.09 35.09 35.085 35.125 35.065 34.99 34.967 35.215 35.46 34.865 34.857 34.985 35.315 34.745 34.717 35.232 35.297 34.837 35.667 38.262 39.992 39.28 38.662 38.557 37.527 34.342 34.302 34.29 34.212 34.03 33.902 33.895 33.86 33.772 33.8 34.217 34.755 34.12 33.607 33.415 33.332 33.317 33.31 33.202 33.407 34.292 36.187 34.48 34.272 33.93 33.707 33.972 36.102 34.63 33.9 34.23 33.845 34.81 34.592 33.997 34.165 33.845 32.935 33.04 33.547 33.662 34.105 33.482 33.792 34.542 33.512 33.19 32.505 32.42 32.277 32.167 32.082 32.055 32.012 31.91 31.852 31.8 31.705 31.577 31.58 32.042 33.05 33.25 32.37 31.492 30.957 30.832 30.952 31.9 32.165 30.442 30.305 30.247 30.217 30.157 30.257 31.68 32.65 37.187 38.24 36.437 35.06 29.212 29.237 28.812 28.655 28.59 28.515 28.425 28.347 28.255 28.182 28.092 28.047 28.052 28.395 29.265 29.33 29.882 28.41 30.04 29.735 28.895 30.657 28.195 27.017 27.517 28.252 27.902 29.287 28.465 26.902 26.235 26.057 25.75 25.698 25.245 25.118 25.013 24.853 26.423 29.113 24.485 24.123 23.953 23.788 23.605 23.483 23.338 23.288 23.2 22.983 22.833 22.675 22.595 23.495 23.975 24.555 24.373 23.573 22.47 20.905 20.96 20.588 20.295 20.608 21.183 19.54 18.853 18.75 18.708 18.733 18.715 18.72 18.69 18.61 17.963 17.273 17.08 16.928 16.553 16.163 15.54 15.265 15.17 15.043 14.908 14.723 14.518 14.258 13.97 13.725 13.448 13.12 12.85 12.73 12.515 12.253 12.01 11.763 11.565 11.338 11.11 10.9 10.688 10.49 10.293 10.05 9.818 10.563 10.195 9.175 10.103 9.765 9.168 8.903 10.62 10.71 9.103 8.04 7.485 7.605 7.99 9.318 10.248 10.06 9.543 8.093 5.718 5.833 11.54 16.943 14.268 10.175 5.708 8.458 4.688 5.873 4.48 4.193 12.93 18.558 16.118 20.313 18.258 19.708 15.193 8.568 3.378 3.27 3.135 3.053 3.02 2.965 2.97 2.95 2.89 2.855 2.798 2.805 2.753 2.765 2.705 2.655 2.633 2.603 2.545 2.518 2.435 2.448 2.375 2.378 2.315 2.33 2.34 2.355 2.375 2.405 2.423 2.34 2.255 2.223 2.198 2.175 2.143 2.123 2.113 2.123 2.153 2.188 2.165 2.083 2.043 2.023 2.018 2 2.013 1.995 2.005 2 2.02 2.038 2.02 2.075 2.045 2.033 2.025 2.02 2.015 2.02 2.013 2.028 2.045 2.028 2.075 2.073 2.08 2.133 2.108 2.143 2.195 2.285 2.105 2.303 2.595 2.365 2.283 2.31 2.278 2.295 2.4 2.44 2.4 2.983 3.221 2.523 2.438 2.431 2.453 2.491 2.536 2.413 2.396 2.403 2.436 2.473 2.498 2.496 2.488 2.448 2.458 2.513 2.588 2.653 2.716 2.728 2.738 2.791 2.846 2.866 2.901 2.956 3.031 3.081 3.133 3.191 3.233 3.271 3.301 3.378 3.451 3.511 3.533 3.626 3.653 3.728 3.788 3.841 3.861 3.871 3.938 4.033 4.126 4.163 4.188 4.206 4.263 4.313 4.346 4.388 4.433 4.486 4.491 4.516 4.566 4.586 4.561 4.543 4.551 4.568 4.563 4.586 4.598 4.586 4.546 4.516 4.483 4.443 4.411 4.356 4.328 4.271 4.268 4.208 4.141 4.071 4.031 4.001 3.948 4.863 8.133 13.056 13.621 13.038 14.106 14.653 11.778 7.961 6.763 15.673 15.668 18.326 18.088 14.566 13.943 15.416 11.241 3.213
35.67 35.722 35.422 35.142 35.182 35.16 35.185 35.262 35.245 35.21 35.79 35.837 36.71 38.272 39.162 39.952 37.44 34.83 35.71 36.365 34.587 35.217 37.067 37.205 36.297 34.69 34.967 34.45 34.417 34.425 34.325 34.337 34.09 33.967 34.21 33.967 34.065 34.53 34.39 33.63 33.522 33.472 33.475 33.435 33.44 33.512 34.202 34.795 34.852 36.672 35.24 34.06 34.397 34.085 34.402 33.535 35.087 34.725 34.032 33.612 34.847 35.84 35.287 35.05 34.495 33.485 33.93 34.087 34.33 34.472 33.63 34.162 34.072 33.192 33.03 32.647 32.397 32.337 32.242 32.2 32.177 32.12 32.062 31.977 31.98 31.807 31.617 31.537 31.512 32.382 33.73 33.322 31.322 30.997 30.87 30.785 30.902 30.592 30.392 30.307 30.247 30.162 30.04 30.052 30.3 30.835 38.485 38.595 38.055 34.922 31.58 31.382 31.095 30.092 29.22 28.922 28.807 28.292 28.262 28.17 28.07 27.972 27.847 27.745 27.637 27.602 27.82 27.915 29.497 29.662 30.827 31.89 30.002 28.422 30.357 27.847 28.165 28.537 27.895 26.962 26.282 28.132 27.125 25.695 25.225 25.09 24.988 24.82 24.943 25.79 24.48 24.125 23.963 23.793 23.61 23.478 23.308 23.255 23.398 23.26 22.923 22.573 22.425 22.31 22.193 23.163 24.61 25.195 23.068 21.208 21.16 20.59 20.36 21.045 21.135 20.43 18.958 18.808 18.77 18.78 18.838 18.775 18.753 18.735 17.948 17.268 17.095 16.893 16.548 15.803 15.473 15.46 15.338 15.158 14.98 14.803 14.545 14.233 13.938 13.665 13.385 13.063 12.863 12.728 12.54 12.285 12.003 11.74 11.528 11.325 11.15 10.905 10.648 10.445 10.265 10.063 9.888 12.223 10.645 10.063 10.483 10.94 9.658 10.05 9.688 9.255 8.53 7.963 7.933 7.9 8.303 9.97 10.533 9.84 8.755 6.165 5.703 6.128 8.253 15.023 14.28 8 5.048 6.418 8.73 8.633 4.295 6.733 14.755 17.06 20.558 20.988 19.165 19.023 15.69 11.688 5.093 4.433 3.168 3.05 3.005 2.955 2.938 2.908 2.885 2.83 2.79 2.77 2.765 2.76 2.753 2.65 2.618 2.573 2.548 2.523 2.433 2.433 2.395 2.373 2.373 2.365 2.348 2.37 2.428 2.438 2.385 2.293 2.253 2.22 2.215 2.198 2.183 2.143 2.14 2.128 2.19 2.215 2.155 2.088 2.038 2.015 2.023 2.028 2.018 1.988 1.995 2.025 2.02 2.01 2.013 2.038 2.038 2.033 2.013 2.023 2.035 2.01 2.018 2.038 2.048 2.03 2.053 2.07 2.09 2.125 2.135 2.158 2.283 2.22 2.283 2.43 2.378 2.33 2.293 2.3 2.328 2.333 2.42 2.49 2.443 2.455 2.596 2.496 2.466 2.481 2.486 2.491 2.451 2.443 2.458 2.493 2.523 2.556 2.578 2.548 2.546 2.538 2.556 2.643 2.693 2.748 2.798 2.811 2.836 2.906 2.943 2.988 3.026 3.078 3.141 3.198 3.268 3.318 3.361 3.403 3.443 3.531 3.611 3.641 3.721 3.751 3.826 3.888 3.961 4.003 4.003 4.023 4.088 4.198 4.291 4.298 4.316 4.341 4.416 4.436 4.498 4.523 4.551 4.593 4.603 4.641 4.653 4.686 4.691 4.661 4.663 4.701 4.708 4.721 4.708 4.676 4.598 4.593 4.573 4.523 4.488 4.433 4.411 4.386 4.341 4.253 4.213 4.113 4.086 4.033 3.948 3.881 8.513 9.353 13.818 15.926 15.141 9.976 13.533 14.821 16.891 21.443 15.831 19.148 15.848 12.528 12.268 14.211 7.286 3.158
36.102 35.82 35.372 35.27 35.242 35.242 35.28 35.397 35.425 35.395 36.25 35.24 38 41.282 41.33 41.427 39.29 34.9 34.995 35.395 34.782 34.605 34.497 34.467 34.442 34.415 34.445 34.467 34.415 34.407 34.51 34.607 34.35 34.01 34.537 34.21 33.89 33.765 33.722 33.732 33.625 33.632 33.642 33.927 35.375 34.905 34.432 34.09 34.107 34.347 34.595 35.2 35.482 34.697 34.797 33.9 34.46 35.817 35.49 36.18 37.475 36.187 35.742 35.752 36.057 34.427 35.357 35.167 35.527 35.605 34.585 34.02 33.825 33.17 32.655 32.52 32.487 32.447 32.372 32.325 32.265 32.222 32.152 32.09 32.045 31.98 31.84 31.63 31.65 31.797 32.972 32.902 31.57 31.067 30.975 30.822 30.702 30.592 30.45 30.39 30.282 30.19 30.125 29.977 30.005 33.245 37.72 37.607 36.737 34.027 31.017 29.865 29.43 31.88 32.452 30.487 31.037 30.597 29.06 28.98 28.222 28.145 27.797 27.765 27.61 27.532 27.432 27.302 27.22 27.112 27.112 27.987 28.562 28.422 31.487 29.867 29.887 31.247 29.415 28.217 26.695 26.385 26.968 26.87 26.223 25.29 24.978 24.8 24.638 24.518 24.35 24.188 24.363 24.59 23.59 23.495 23.393 23.473 23.575 23.29 22.86 22.968 22.703 22.278 22.105 22.333 21.978 24.17 25.568 23.055 20.998 20.568 20.488 20.673 21.138 20.215 19.603 18.85 18.848 18.805 18.828 18.798 18.78 18.77 17.873 17.233 17.085 16.863 16.153 15.7 15.648 15.605 15.428 15.225 15.053 14.833 14.473 14.178 13.93 13.638 13.348 13.083 12.893 12.708 12.535 12.303 12.073 11.773 11.543 11.305 11.138 10.918 10.665 10.443 10.24 10.615 11.463 12.248 11.598 11.463 11.82 11.748 12.523 12.27 9.538 8.653 8.283 8.79 9.77 9.06 7.143 6.735 9.535 9.15 6.498 5.793 5.843 6.683 7.87 9 12.743 6.278 4.858 4.515 7.865 5.648 4.738 9.895 15.035 17.843 20.345 20.36 18.108 17.83 14.12 4.693 4.923 4.455 3.185 3.08 3.015 2.97 2.925 2.893 2.843 2.843 2.808 2.818 2.758 2.758 2.73 2.66 2.623 2.553 2.545 2.515 2.44 2.433 2.428 2.425 2.373 2.373 2.348 2.39 2.445 2.435 2.365 2.29 2.255 2.215 2.208 2.205 2.18 2.16 2.16 2.165 2.23 2.233 2.17 2.095 2.045 2.04 2.025 2.018 2.003 1.998 2.018 2.015 2.008 1.998 2.033 2.065 2.065 2.04 2.015 2.028 2.045 2.023 2.05 2.06 2.038 2.068 2.078 2.07 2.108 2.14 2.173 2.298 2.228 2.043 2.398 2.36 2.355 2.298 2.293 2.288 2.325 2.39 2.47 3.138 3.353 2.445 2.421 2.456 2.473 2.521 2.533 2.501 2.491 2.493 2.523 2.561 2.601 2.631 2.611 2.631 2.636 2.663 2.698 2.763 2.821 2.881 2.888 2.943 2.986 3.036 3.071 3.123 3.168 3.211 3.266 3.323 3.383 3.466 3.486 3.516 3.586 3.683 3.748 3.796 3.878 3.938 3.996 4.056 4.116 4.148 4.163 4.201 4.251 4.371 4.398 4.418 4.453 4.483 4.523 4.578 4.628 4.658 4.693 4.708 4.718 4.756 4.801 4.803 4.788 4.793 4.831 4.846 4.836 4.846 4.828 4.776 4.723 4.688 4.648 4.618 4.588 4.523 4.508 4.463 4.383 4.308 4.251 4.188 4.168 4.096 4.006 3.901 7.006 6.751 10.681 10.856 14.806 12.053 10.388 17.166 16.411 15.358 16.226 21.298 12.893 11.603 13.548 12.398 7.038 3.056
36.365 35.725 35.915 35.602 35.302 35.322 35.3 35.422 35.532 35.535 36.69 35.272 38 41.907 41.992 42.115 41.812 35.025 35.047 35.7 35.387 35.577 35.35 35.097 34.5 34.512 34.5 34.522 34.512 34.395 34.392 34.46 34.26 34.015 33.967 33.932 33.897 33.852 33.795 33.825 34.302 34.705 34.64 34.442 34.935 34.335 34.432 34.202 34.175 34.222 35.35 35.275 35.182 35.047 34.75 34.27 34.95 35.802 35.775 36.26 37.172 36.172 36.35 35.147 35.842 36.45 36.075 35.97 35.277 34.52 33.95 33.042 32.88 32.747 32.682 32.645 32.61 32.555 32.465 32.392 32.372 32.292 32.252 32.22 32.187 32.045 31.87 31.71 31.697 31.657 31.575 31.692 32.165 32.692 31.962 32.215 32.057 30.73 30.55 30.472 30.37 30.297 30.235 30.092 29.927 30.245 33.695 35.66 34.925 32.67 31.16 30.355 29.972 29.642 29.452 29.615 29.31 30.395 30.385 30.432 29.512 30.01 30.53 28.885 28.182 27.52 27.645 27.265 27.157 27.052 26.927 26.855 26.807 26.797 27.577 29.477 31.247 30.075 30.055 29.652 28.822 26.147 26.358 26.69 26.395 25.325 24.978 24.803 24.603 24.47 24.323 24.8 25.898 25.653 23.65 23.478 23.38 23.618 23.838 23.68 23.205 22.763 22.52 22.198 22.028 22.025 22.963 21.675 23.305 24.56 22.618 22.73 24.283 23.303 22.735 22.613 20.668 19.285 18.878 18.818 18.79 18.785 18.84 19.015 18.31 17.338 16.963 16.568 16.013 15.898 15.85 15.713 15.483 15.288 15.073 14.775 14.45 14.168 13.903 13.628 13.343 13.123 12.895 12.698 12.523 12.313 12.05 11.808 11.555 11.325 11.118 10.89 10.648 10.435 10.51 11.723 11.79 11.883 11.998 10.643 11.38 11.738 12.258 11.853 10.315 8.5 8.533 9.91 8.88 9.57 9.97 7.24 6.305 7.415 7.223 6.928 6.073 6.518 7.373 7.118 5.818 5.45 6.765 6.423 10.318 4.433 5.565 11.853 15.048 13.74 18.868 19.803 16.343 14.523 9.705 3.463 3.263 3.455 3.13 3.09 3.083 3.025 2.965 2.89 2.838 2.833 2.768 2.793 2.763 2.778 2.76 2.645 2.59 2.538 2.558 2.508 2.478 2.493 2.453 2.403 2.403 2.38 2.408 2.448 2.418 2.405 2.39 2.313 2.26 2.233 2.198 2.195 2.198 2.18 2.183 2.218 2.265 2.245 2.178 2.085 2.058 2.028 2.023 2.018 2.015 2.013 2.013 2.015 2.02 2.023 2.018 2.058 2.048 2.04 2.04 2.035 2.028 2.023 2.028 2.038 2.04 2.048 2.063 2.065 2.118 2.183 2.248 2.213 1.923 2.383 2.418 2.733 2.443 2.325 2.278 2.283 2.368 2.43 2.753 3.963 3.58 2.415 2.421 2.453 2.536 2.541 2.546 2.533 2.538 2.553 2.606 2.653 2.688 2.718 2.728 2.721 2.766 2.781 2.861 2.911 2.938 2.983 3.013 3.076 3.133 3.168 3.191 3.256 3.336 3.338 3.413 3.468 3.548 3.596 3.613 3.673 3.736 3.831 3.911 3.978 4.043 4.116 4.178 4.236 4.281 4.328 4.346 4.376 4.458 4.521 4.541 4.558 4.586 4.633 4.683 4.713 4.761 4.771 4.798 4.811 4.843 4.848 4.881 4.888 4.918 4.961 4.961 4.986 4.951 4.971 4.926 4.863 4.853 4.823 4.761 4.718 4.688 4.656 4.596 4.513 4.443 4.381 4.301 4.251 4.198 4.106 4.036 4.458 9.531 10.921 12.093 13.421 15.601 14.628 13.608 12.288 18.808 17.518 22.898 20.993 16.268 11.618 11.061 9.138 4.886 4.678
37.157 36.085 35.8 35.62 35.452 35.427 35.432 35.48 35.595 35.597 35.99 35.375 36.582 41.61 41.547 41.455 41.422 35.147 35.607 35.425 36.12 37.627 37.522 37.452 35.042 34.677 34.577 34.622 34.647 34.49 34.255 34.182 34.092 34.125 34.087 34.015 33.942 34.305 35.215 35.267 34.69 34.495 34.77 35.027 34.197 34.53 34.597 34.485 34.355 34.14 34.455 35.095 35.117 35.045 35.395 35.242 35.577 35.08 35.912 35.982 35.562 34.757 35.372 34.912 34.987 35.555 35.13 35.267 34.057 33.22 33.042 32.957 32.877 32.812 32.755 32.732 32.695 32.62 32.597 32.525 32.472 32.38 32.312 32.22 32.09 32.047 31.962 31.882 31.847 31.75 31.627 33.25 34.435 35.11 35.112 34.747 34.34 31.16 30.71 30.62 30.595 30.785 30.457 30.215 30.05 29.972 29.807 30.835 30.487 29.867 30.735 30.727 30.565 30.535 30.272 29.002 28.805 28.725 28.752 29.852 28.925 28.697 28.962 29.452 29.952 29.965 30.542 29.04 27.575 27.017 26.91 26.755 26.64 27.767 31.272 31.08 26.575 26.845 27.587 28.577 27.155 26.365 25.883 26.083 26.448 26.988 25.215 24.81 24.563 24.33 24.445 24.29 24.13 24.638 23.778 23.528 23.423 23.293 23.153 23.42 23.083 22.868 22.423 22.078 21.988 21.943 23.29 21.603 21.52 21.323 21.833 21.89 24.853 24.26 22.07 21.083 20.535 19.113 18.875 18.845 18.818 18.773 18.803 18.843 18.338 17.448 16.858 16.405 16.138 16.06 15.955 15.753 15.54 15.335 15.038 14.705 14.383 14.108 13.848 13.575 13.36 13.145 12.94 12.725 12.563 12.285 12.058 11.83 11.593 11.363 11.135 10.955 10.688 10.488 11.298 12.485 10.14 10.873 11.408 10.253 10.188 10.153 11.36 11.695 10.708 9.068 9.805 10.055 9.453 8.678 9.818 8.273 8.025 6.84 7.313 6.708 6.08 6.77 6.495 6.24 5.6 5.288 8.275 5.558 5.023 5.973 9.098 14.668 15.08 12.758 16.588 16.613 18.34 18.518 11.325 3.705 3.263 3.188 3.09 3.035 3.03 3.025 2.993 2.945 2.883 2.84 2.78 2.763 2.76 2.73 2.698 2.658 2.588 2.52 2.523 2.498 2.483 2.48 2.445 2.393 2.403 2.403 2.433 2.448 2.41 2.4 2.358 2.303 2.253 2.218 2.198 2.223 2.213 2.223 2.2 2.223 2.245 2.243 2.158 2.088 2.08 2.03 2.04 2.03 2.038 2.005 2.015 2.02 2.018 2.018 2.035 2.028 2.035 2.013 2.003 2.025 2.05 2.04 2.048 2.03 2.053 2.048 2.098 2.123 2.165 2.248 2.275 2.105 2.328 2.253 2.2 4.243 5.205 2.403 2.373 2.36 4.82 3.29 7.843 4.21 2.468 2.455 2.466 2.526 2.558 2.563 2.543 2.561 2.596 2.626 2.711 2.763 2.793 2.823 2.823 2.813 2.881 2.926 3.013 3.068 3.101 3.106 3.171 3.228 3.271 3.326 3.388 3.421 3.461 3.516 3.578 3.631 3.706 3.718 3.743 3.831 3.928 4.023 4.071 4.168 4.223 4.286 4.343 4.398 4.441 4.476 4.548 4.591 4.678 4.673 4.686 4.721 4.751 4.783 4.816 4.863 4.911 4.911 4.941 4.936 4.956 4.981 4.991 4.993 5.018 5.076 5.098 5.093 5.098 5.086 4.998 4.978 4.961 4.926 4.868 4.831 4.781 4.743 4.678 4.588 4.501 4.426 4.363 4.348 4.243 4.153 4.091 4.646 11.771 14.376 13.288 12.583 14.578 12.078 13.358 12.861 17.156 14.473 18.971 17.261 13.181 10.638 7.593 3.471 3.171 4.988
37.027 36.262 35.892 35.937 35.742 35.527 35.515 35.502 35.62 35.657 35.697 35.6 35.685 40.32 40.547 39.765 39.687 35.337 35.902 35.385 35.68 36.695 37.407 36.325 36.02 35.24 34.66 34.85 35 34.287 34.25 34.242 34.205 34.17 35.137 35.557 35.737 35.907 35.207 35.45 35.45 34.582 34.637 34.455 34.495 34.78 34.637 34.925 34.725 34.335 34.915 35.237 34.902 34.975 35.655 35.072 36.282 35.812 35.862 34.865 33.977 33.7 33.945 34.472 34.727 34.932 34.912 34.05 33.327 33.222 33.157 33.112 33.027 32.925 32.862 32.817 32.725 32.652 32.61 32.662 32.582 32.407 32.347 32.307 32.312 32.292 32.067 31.87 31.82 31.82 31.67 31.787 32.322 33.147 33.492 34.045 33.167 31.045 30.822 30.795 30.817 31.43 31.165 30.357 30.225 30.075 29.985 30.07 30.012 29.572 29.592 29.807 30.352 30.79 30.097 28.875 28.89 28.745 28.927 29.79 29.735 29.277 28.965 28.732 28.972 29.08 28.95 30.28 29.872 29.05 28.272 27.42 27.055 27.565 32.707 33.737 27.165 27.97 26.082 26.57 27.387 27.342 28.623 28.618 26.935 28.745 26.758 26.315 24.743 24.46 24.855 24.383 24.538 24.25 23.738 23.55 23.4 23.335 23.203 23.305 22.86 22.59 22.305 22.068 21.915 21.715 23.2 21.688 22.088 23.95 21.233 21.78 24.768 20.883 20.675 20.495 19.37 18.93 18.915 18.87 18.785 19.275 18.96 18.66 18.2 17.7 16.893 16.453 16.26 16.128 15.963 15.735 15.578 15.33 14.948 14.653 14.293 14.035 13.815 13.548 13.355 13.183 12.978 12.768 12.55 12.268 12.07 11.853 11.605 11.398 11.163 10.948 10.723 12.198 12.968 11.268 10.983 10.843 10.88 10.748 9.42 10.513 9.55 9.983 11.298 9.845 11.555 9.003 9.938 9.175 7.808 7.148 6.875 6.645 6.598 6.31 6.92 7.505 6.553 5.73 5.818 6.123 5.388 6.09 11.795 14.188 16.988 17.253 15.263 16.503 11.973 15.935 17.23 20.708 17.745 5.198 3.27 3.205 3.12 3.045 2.983 2.965 2.983 2.96 2.93 2.885 2.803 2.768 2.72 2.713 2.665 2.648 2.575 2.553 2.533 2.475 2.478 2.478 2.49 2.413 2.42 2.435 2.45 2.448 2.438 2.393 2.323 2.265 2.258 2.24 2.21 2.228 2.2 2.2 2.21 2.258 2.285 2.235 2.17 2.058 2.05 2.06 2.033 2.043 2.03 2.035 2.038 2.058 2.06 2.038 2.028 2.053 2.038 2.025 2.02 2.03 2.04 2.03 2.033 2.04 2.075 2.105 2.118 2.175 2.245 2.345 2.09 2.155 2.26 2.255 2.345 2.375 3.415 2.373 2.433 2.493 6.343 7.04 10.72 3.04 2.453 2.505 2.556 2.588 2.593 2.583 2.588 2.618 2.678 2.773 2.823 2.866 2.891 2.903 2.931 2.933 3.008 3.096 3.166 3.218 3.238 3.271 3.333 3.386 3.458 3.506 3.531 3.586 3.638 3.716 3.791 3.808 3.861 3.871 3.918 4.033 4.116 4.201 4.283 4.341 4.393 4.458 4.528 4.576 4.618 4.646 4.723 4.828 4.881 4.868 4.853 4.861 4.923 4.993 4.981 5.018 5.051 5.053 5.078 5.096 5.118 5.116 5.101 5.138 5.178 5.181 5.228 5.236 5.241 5.203 5.126 5.098 5.048 5.021 4.966 4.916 4.861 4.831 4.736 4.643 4.556 4.498 4.451 4.383 4.286 4.198 4.111 4.333 9.258 11.871 15.756 10.818 12.886 6.346 8.956 18.003 19.693 23.091 20.893 17.646 11.176 7.476 5.278 6.036 6.338 4.798
36.877 37.397 37.015 36.265 35.9 35.635 35.63 35.632 35.602 35.655 35.8 35.562 36.69 38.31 38.297 38.347 38.3 37.197 35.755 35.46 35.832 36.105 36.91 36.965 36.112 35.355 35.045 34.552 34.455 34.43 34.397 34.335 34.377 35.66 37.342 37.972 36.14 37.082 35.772 35.622 35.33 35.052 34.39 34.592 34.665 34.865 34.777 34.865 35.23 35.217 35.157 35.095 34.882 35.382 35.89 34.912 35.357 35.112 34.087 33.885 33.802 33.75 33.607 33.625 33.705 33.965 33.795 33.482 33.37 33.327 33.232 33.157 33.1 33.007 32.945 32.912 32.82 32.715 33.132 34.505 34.075 32.472 32.415 32.35 32.31 32.24 32.1 31.927 31.93 31.85 31.772 31.647 31.522 31.427 31.572 31.365 31.222 30.977 30.882 30.877 30.83 30.807 30.612 30.385 30.315 30.205 30.035 29.892 29.742 29.635 29.52 29.63 30.362 30.265 30.245 29.007 28.992 28.78 28.547 28.875 29.682 29.587 30.117 29.537 30.497 30.122 28.402 28.752 28.705 28.447 29.352 28.657 28.725 27.767 29.122 28.96 26.152 26.102 25.945 25.877 25.79 26.017 26.873 28.193 27.45 30.425 31.575 28.813 25.503 24.508 25.933 26.328 24.058 23.913 23.723 23.543 23.378 23.255 23.42 23.34 22.805 22.755 22.24 22.045 21.898 21.7 22.385 22.148 21.323 21.21 21.155 24.07 22.645 21.148 20.745 19.985 19.86 19.093 18.96 18.905 21.77 24.598 25.798 22.958 20.17 17.645 17.158 16.54 16.358 16.223 16.05 15.848 15.62 15.243 14.88 14.56 14.285 14.035 13.788 13.59 13.35 13.188 13.013 12.775 12.51 12.29 12.1 11.918 11.678 11.43 11.165 10.97 11.893 13.46 13.605 13.083 15.638 11.185 10.905 10.13 10.348 11.355 9.96 10.705 9.95 9.6 11.043 8.163 8.953 9.68 8.613 7.195 6.933 6.838 7.893 11.765 6.725 8.06 7.578 8.065 11.323 9.905 5.79 11.085 17.028 20.365 21.72 21.123 16.375 16.553 14.783 12.853 16.23 18.355 16.463 7.408 3.253 3.193 3.165 3.108 3.035 2.958 2.925 2.93 2.953 2.928 2.84 2.795 2.743 2.69 2.67 2.6 2.588 2.538 2.523 2.498 2.455 2.47 2.458 2.433 2.453 2.473 2.498 2.448 2.43 2.375 2.33 2.268 2.265 2.263 2.243 2.225 2.223 2.218 2.225 2.288 2.333 2.243 2.158 2.068 2.053 2.04 2.05 2.03 2.045 2.058 2.065 2.068 2.058 2.053 2.06 2.063 2.013 2.02 2.048 2.01 2.053 2.038 2.04 2.065 2.113 2.115 2.128 2.22 2.333 2.243 2.12 2.395 2.188 2.238 2.34 2.295 2.363 2.48 2.835 7.755 2.55 9.535 5.4 2.763 2.503 2.553 2.623 2.641 2.648 2.641 2.671 2.711 2.793 2.881 2.936 2.968 3.023 3.008 3.041 3.108 3.156 3.243 3.323 3.378 3.426 3.458 3.493 3.561 3.611 3.688 3.723 3.781 3.838 3.923 3.981 4.016 4.033 4.036 4.096 4.216 4.326 4.411 4.468 4.511 4.576 4.643 4.688 4.721 4.763 4.851 4.951 5.028 5.041 5.038 5.033 5.048 5.108 5.128 5.151 5.173 5.193 5.206 5.236 5.263 5.263 5.268 5.263 5.298 5.318 5.306 5.326 5.351 5.348 5.298 5.238 5.176 5.128 5.093 5.046 4.988 4.941 4.891 4.783 4.688 4.616 4.548 4.486 4.398 4.308 4.216 4.126 5.873 10.786 14.906 12.146 10.533 9.501 9.078 24.413 17.678 24.876 18.333 17.876 21.381 22.083 9.686 6.036 10.761 14.096 3.868
37.007 38.285 37.345 36.055 35.947 35.75 35.69 35.717 35.682 35.667 35.635 35.765 37.122 38.252 37.895 36.505 36.487 35.995 37.27 35.495 36.09 37.027 37.097 36.85 35.587 34.64 34.622 34.607 34.547 34.537 34.8 34.93 35.647 37.205 35.815 35.74 35.525 36.955 36.705 35.082 35.447 35.265 34.515 34.412 34.442 34.4 34.327 34.4 34.797 35.367 35.152 34.752 34.902 35.395 35.18 34.707 34.635 34.437 34.03 33.995 33.947 33.855 33.702 33.557 33.5 33.587 33.577 33.547 33.53 33.437 33.33 33.275 33.162 33.085 33.042 32.967 32.905 32.837 33.63 34.575 33.2 32.535 32.457 32.38 32.325 32.222 32.12 32.085 31.99 31.912 31.822 31.722 31.602 31.537 31.447 31.345 31.24 31.045 30.995 30.94 30.812 30.617 30.497 30.382 30.262 30.2 30.075 30.4 31.237 31.895 33.887 33.587 35.577 32.01 30.64 29.125 29.092 28.725 28.582 28.78 30.65 31.362 31.062 30.842 30.277 31.507 31.205 29.462 30.015 30.337 29.852 28.085 27.592 28.095 28.252 27.8 27.02 26.262 25.93 25.762 25.667 25.525 25.568 26.38 27.153 29.615 30.893 27.275 25.828 24.748 24.9 27.038 26.133 23.9 23.705 23.518 23.33 23.158 23.135 23.108 22.593 22.58 22.24 22.058 21.885 21.71 21.563 21.503 21.333 21.953 21.05 21.133 21.223 21.485 20.763 21.923 20.828 19.273 19.073 19.67 27.478 28.69 29.228 28.493 21.888 17.125 17.19 17.058 16.475 16.275 16.15 15.93 15.525 15.153 14.843 14.495 14.22 14.008 13.783 13.585 13.358 13.16 12.995 12.748 12.493 12.31 12.113 11.905 11.688 11.445 11.193 11.69 13.155 15.123 15.828 11.063 13.563 12.735 11.475 10.428 9.698 10.583 9.598 9.833 9.185 10.485 9.738 8.453 8.24 8.828 7.88 7.418 7.165 7.888 8.733 6.438 6.858 9.855 9.478 8.71 11.935 7.523 11.343 17.195 19.243 20.66 23.625 22.655 17.783 15.903 13.783 9.088 10.67 15.96 9.723 5.073 3.268 3.205 3.163 3.108 3.058 2.995 2.955 2.94 2.888 2.898 2.875 2.838 2.82 2.755 2.683 2.633 2.563 2.54 2.513 2.508 2.455 2.473 2.475 2.443 2.453 2.48 2.455 2.445 2.448 2.393 2.305 2.313 2.295 2.28 2.255 2.238 2.238 2.235 2.263 2.288 2.295 2.23 2.15 2.088 2.073 2.08 2.043 2.04 2.053 2.06 2.078 2.068 2.063 2.103 2.093 2.098 2.043 2.065 2.048 2.048 2.05 2.075 2.073 2.11 2.118 2.155 2.22 2.315 2.258 2.075 2.598 2.478 2.2 2.38 2.38 2.385 2.395 11.493 2.993 4.058 9.098 9.538 4.34 2.533 2.583 2.663 2.671 2.693 2.711 2.746 2.793 2.818 2.881 3.001 3.043 3.078 3.136 3.156 3.208 3.251 3.318 3.403 3.508 3.561 3.593 3.641 3.693 3.748 3.816 3.861 3.928 3.998 4.041 4.111 4.166 4.206 4.216 4.281 4.338 4.428 4.511 4.631 4.663 4.706 4.778 4.831 4.863 4.898 4.953 5.043 5.158 5.198 5.211 5.218 5.221 5.251 5.281 5.313 5.338 5.363 5.366 5.381 5.403 5.406 5.416 5.366 5.398 5.431 5.463 5.461 5.453 5.491 5.453 5.411 5.361 5.273 5.188 5.138 5.111 5.058 5.026 4.961 4.841 4.713 4.656 4.606 4.516 4.398 4.326 4.263 4.138 6.031 13.973 15.026 9.498 5.833 10.888 17.066 26.451 25.651 16.173 22.721 12.373 17.661 9.901 6.141 3.193 9.871 7.978 5.013
38.365 39.082 37.295 36.58 36.075 35.94 35.81 35.8 35.755 35.807 36.76 35.785 35.92 36.555 35.945 35.697 35.452 36.812 37.507 35.74 35.725 36.477 35.32 34.837 34.777 34.742 34.71 35.265 35.997 36.29 36.1 35.457 35.35 35.405 35.542 35.385 35.21 36.282 36.3 35.152 34.992 34.825 34.575 34.53 34.472 34.45 34.397 34.37 34.397 34.762 34.732 34.515 35.22 35.12 34.535 34.78 34.887 34.76 34.08 34.082 34.035 33.907 33.797 33.655 33.667 33.707 33.677 33.655 33.585 33.505 33.437 33.332 33.242 33.152 33.502 33.112 32.985 32.91 32.83 32.787 32.647 32.59 32.512 32.425 32.355 32.245 32.15 32.105 32.032 31.927 31.867 31.77 31.68 31.59 31.452 31.337 31.212 31.082 31.007 30.927 30.78 30.655 30.55 30.45 30.79 33.175 34.307 35.737 38.092 38.422 39.037 39.152 38.517 35.512 30.197 29.147 29.065 28.76 28.605 28.44 28.707 29.887 30.265 30.725 31.095 31.62 31.627 31.207 30.712 30.955 30.612 29.16 27.922 27.107 27.467 27.25 27.322 27.085 26.2 25.802 25.587 25.45 25.373 25.31 25.703 27.145 26.79 27.203 25.143 24.873 25.538 24.733 24.93 23.955 23.7 23.48 23.285 23.085 22.888 22.735 22.77 23.045 22.215 22.06 21.898 21.718 21.605 21.495 21.778 21.145 21.098 21.533 23.168 23.1 21.72 23.618 23.3 19.54 19.63 19.613 25.828 27.043 28.238 28.188 20.485 17.293 17.26 17.388 16.97 16.35 16.205 15.898 15.543 15.08 14.825 14.48 14.19 14.008 13.81 13.625 13.393 13.22 12.985 12.765 12.493 12.288 12.135 11.918 11.64 11.39 11.593 13.26 13.375 15.188 15.64 11.293 11.685 11.41 13.188 10.505 10.303 11.148 9.835 9.893 9.528 10.575 9.483 9.193 9.125 8.945 9.608 7.64 7.263 7.468 10.645 6.825 10.37 14.263 12.98 8.093 5.77 6.07 15.778 20.678 20.755 20.625 21.533 21.023 17.003 13.43 6.718 4.603 3.493 7.26 5.865 3.39 3.323 3.253 3.21 3.163 3.08 3.005 3.003 2.945 2.883 2.87 2.815 2.848 2.833 2.805 2.728 2.653 2.623 2.565 2.53 2.475 2.443 2.45 2.445 2.47 2.478 2.493 2.458 2.49 2.435 2.368 2.338 2.295 2.303 2.27 2.268 2.26 2.248 2.278 2.3 2.348 2.31 2.213 2.143 2.103 2.083 2.068 2.068 2.048 2.068 2.083 2.098 2.105 2.108 2.123 2.103 2.093 2.07 2.085 2.093 2.088 2.075 2.09 2.098 2.14 2.16 2.203 2.323 2.378 2.128 2.363 2.475 3.693 2.325 2.435 2.44 2.453 2.495 3.81 7.56 7.198 6.53 8.06 2.595 2.615 2.683 2.728 2.746 2.783 2.788 2.838 2.906 2.973 3.056 3.128 3.163 3.198 3.231 3.271 3.346 3.443 3.533 3.611 3.681 3.756 3.803 3.858 3.906 3.956 4.021 4.053 4.126 4.213 4.266 4.303 4.376 4.351 4.396 4.483 4.561 4.643 4.721 4.818 4.876 4.911 5.001 5.033 5.078 5.096 5.176 5.231 5.316 5.313 5.343 5.363 5.431 5.443 5.461 5.493 5.506 5.523 5.538 5.538 5.528 5.538 5.548 5.521 5.546 5.578 5.586 5.598 5.603 5.596 5.578 5.556 5.478 5.383 5.291 5.213 5.191 5.153 5.106 5.016 4.873 4.781 4.718 4.666 4.543 4.416 4.351 4.268 4.166 4.063 7.373 9.971 12.436 12.911 11.188 18.736 25.818 28.773 21.263 24.758 21.548 12.018 5.188 3.158 3.288 3.236 6.476 4.916
37.142 37.062 37.865 38.28 37.457 36.59 35.957 35.89 35.862 35.882 35.932 36.02 35.805 36.01 36.697 36.37 36.202 37.127 37.52 35.815 35.505 35.055 35.162 35.165 34.887 35.022 35.895 36.657 37.102 36.467 35.827 35.322 35.255 35.512 36.212 35.77 35.27 36.072 35.94 35.412 34.805 34.732 34.687 34.647 34.622 34.537 34.512 34.477 34.43 34.59 35.052 35.43 36.33 36.2 34.775 34.817 35.077 34.735 34.152 34.155 34.09 33.972 33.872 33.747 33.822 33.822 33.765 33.752 33.71 33.577 33.477 33.332 33.272 33.242 34.105 33.267 33 32.917 32.89 32.797 32.73 32.635 32.57 32.482 32.387 32.27 32.182 32.117 32.027 31.957 31.872 31.765 31.652 31.607 31.482 31.365 31.197 31.085 31 30.887 30.785 30.68 31.267 31.992 34.9 38.11 39.287 40.43 40.2 39.745 39.29 39.162 38.545 37.01 33.87 29.082 29.072 28.835 28.652 28.497 28.327 28.227 28.342 29.2 29.452 29.59 29.437 29.952 30.557 30.532 29.49 29.11 27.205 27.025 27.155 26.86 27.287 26.83 26.245 25.717 25.517 25.432 25.278 25.175 25.065 24.943 26.183 26.528 25.148 25.08 26.21 24.748 25.21 25.49 24.943 23.645 23.233 23.038 22.9 22.673 22.488 22.405 22.185 22.035 21.853 21.728 22.243 22.748 21.973 21.46 20.915 21.76 24.06 24.94 21.245 20.18 22.158 20.465 19.595 19.288 19.05 19.765 26.87 29.755 23.088 17.295 17.093 16.883 17.363 17.543 17.16 16.51 16.013 15.143 14.7 14.46 14.248 14.02 13.82 13.645 13.39 13.16 12.923 12.718 12.52 12.285 12.085 11.853 11.6 11.485 13.18 13.505 13.29 12.908 14.145 12.658 12.515 11.265 11.658 11.918 11.225 11.368 10.38 10.335 10.893 11.61 9.24 9.57 8.9 9.04 8.935 9.75 8 7.083 6.998 11.898 15.605 15.713 14.278 11.845 5.293 7.785 17.18 22.085 21.663 20.475 20.963 17.68 9.218 7.96 4.523 3.603 3.5 3.44 3.4 3.335 3.29 3.27 3.24 3.198 3.155 3.078 3.025 3.003 2.903 2.86 2.825 2.808 2.79 2.783 2.753 2.693 2.653 2.635 2.59 2.53 2.498 2.483 2.468 2.483 2.475 2.495 2.49 2.508 2.435 2.388 2.353 2.323 2.325 2.335 2.298 2.278 2.295 2.33 2.358 2.368 2.33 2.223 2.163 2.1 2.095 2.083 2.075 2.09 2.088 2.085 2.123 2.115 2.113 2.133 2.11 2.13 2.083 2.08 2.095 2.085 2.105 2.123 2.143 2.163 2.213 2.29 2.375 2.205 2.14 2.445 3.033 2.408 2.375 2.473 2.49 2.483 2.528 2.615 3.558 6.595 4.178 2.835 2.665 2.725 2.763 2.813 2.853 2.871 2.901 2.968 3.041 3.131 3.223 3.243 3.308 3.363 3.398 3.448 3.543 3.653 3.748 3.828 3.893 3.966 4.036 4.106 4.136 4.178 4.211 4.273 4.363 4.403 4.471 4.546 4.568 4.551 4.636 4.698 4.778 4.868 4.936 5.016 5.083 5.143 5.216 5.258 5.261 5.296 5.371 5.436 5.461 5.461 5.491 5.543 5.623 5.611 5.626 5.623 5.656 5.671 5.683 5.708 5.718 5.686 5.661 5.676 5.711 5.713 5.698 5.738 5.713 5.693 5.661 5.663 5.628 5.518 5.388 5.303 5.286 5.273 5.166 5.053 4.926 4.858 4.781 4.683 4.561 4.428 4.378 5.501 6.591 4.136 6.688 7.561 11.593 12.941 12.316 15.856 13.661 21.586 19.651 17.756 16.206 10.736 8.978 5.796 3.288 3.748 3.201 3.763
