ncols 460
nrows 30
xllcorner    461028
yllcorner    93094
cellsize     2
NODATA_value -9999
-1.674 -1.686 -1.695 -1.736 -1.736 -1.719 -1.749 -1.769 -1.767 -1.801 -1.799 -1.808 -1.764 -1.742 -1.735 -1.67 -1.671 -1.711 -1.639 -1.695 -1.708 -1.694 -1.701 -1.74 -1.695 -1.719 -1.736 -1.708 -1.71 -1.738 -1.759 -1.733 -1.83 -1.761 -1.77 -1.777 -1.815 -1.847 -1.857 -1.867 -1.879 -1.919 -1.948 -1.936 -1.944 -1.959 -1.973 -1.998 -2.043 -2.038 -2.04 -2.1 -2.143 -2.081 -2.081 -2.084 -2.078 -2.046 -2.118 -2.103 -2.039 -2.172 -2.085 -2.029 -2.022 -2.086 -1.987 -1.913 -1.903 -1.872 -1.864 -1.79 -1.811 -1.81 -1.769 -1.733 -1.695 -1.669 -1.677 -1.721 -1.786 -1.775 -1.795 -1.858 -1.869 -1.893 -1.932 -1.935 -1.966 -2.047 -2.007 -2.099 -2.193 -2.121 -2.129 -2.113 -2.104 -2.076 -2.044 -2.163 -2.084 -2.054 -2.138 -2.171 -2.116 -2.129 -2.135 -2.098 -2.202 -2.069 -2.083 -2.124 -2.056 -2.099 -2.096 -2.159 -2.084 -2.082 -2.105 -2.1 -2.12 -2.11 -2.104 -2.1 -2.139 -2.074 -2.079 -2.124 -2.049 -2.088 -2.075 -2.067 -2.107 -2.102 -2.106 -2.035 -2.113 -2.046 -2.025 -2.046 -2.117 -2.041 -2.115 -2.092 -2.064 -2.103 -2.104 -2.076 -2.147 -2.075 -2.04 -2.056 -2.098 -2.077 -2.091 -2.049 -2.037 -2.037 -2.126 -2.097 -2.071 -2.128 -2.119 -2.094 -2.069 -2.063 -2.068 -2.056 -2.049 -2.068 -2.084 -2.084 -2.028 -2.111 -2.036 -2.046 -2.044 -2.055 -2.073 -2.075 -2.027 -2.059 -2.044 -2.077 -2.081 -2.029 -2.014 -2.051 -1.999 -2.109 -2.033 -2.081 -2.068 -2.095 -2.11 -2.122 -2.069 -2.066 -2.052 -2.111 -2.063 -2.09 -2.044 -2.019 -1.977 -2.032 -2.1 -2.078 -2.039 -2.045 -2.054 -2.087 -2.04 -2.019 -2.069 -2.089 -2.031 -2.035 -2.057 -2.101 -2.164 -2.027 -2.03 -2.084 -2.088 -2.065 -2.04 -2.064 -2.068 -2.056 -2.087 -2.065 -2.114 -2.133 -2.09 -2.112 -2.067 -2.085 -2.063 -2.045 -2.117 -2.106 -2.088 -2.189 -2.028 -2.122 -2.106 -2.138 -2.143 -1.949 -2.039 -2.097 -1.441 -1.214 -1.106 -0.946 -0.819 -0.723 -0.62 -2.09 -0.345 -0.282 -0.02 0.226 -2.095 -2.047 -2.039 -2.126 -9999 -2.124 -2.053 -2.059 -2.145 0.193 -0.01 0.125 -2.066 -2.089 0.152 0.168 0.289 -2.071 -2.038 -2.075 0.327 0.196 0.033 -0.133 -0.282 -0.49 -0.677 -0.882 -1.063 -2.109 -2.05 -1.783 -1.968 -1.995 -2.106 -2 -2.04 -2.115 -2.031 -2.104 -2.099 -2.053 -2.058 -2.081 -2.05 -2.061 -2.024 -2.07 -2.102 -1.998 -2.079 -2.071 -2.037 -2.008 -1.996 -2.035 -2.121 -2.109 -2.057 -1.995 -2.034 -2.097 -2.047 -2.024 -2.059 -2.023 -2.01 -2.03 -2.038 -2.106 -2.078 -2.077 -1.981 -2.046 -2.042 -2.006 -2.031 -2.07 -2.083 -2.043 -1.998 -2.034 -2.053 -2.08 -2.046 -2.046 -2.021 -2.099 -2.028 -1.997 -2.102 -2.015 -2.017 -1.984 -2.062 -2.07 -2.002 -2.008 -2.117 -2.088 -2.008 -2.025 -2.078 -2.092 -1.982 -1.995 -2.047 -2.084 -2.083 -1.995 -2.01 -2.055 -2.093 -2.073 -2.062 -2.041 -2.049 -1.949 -2.019 -2.083 -2.071 -2.004 -2.008 -1.988 -1.986 -2.067 -2.061 -2.025 -2.075 -2.022 -2.014 -2.062 -2.105 -2.031 -1.99 -2.093 -2.002 -1.966 -2.045 -2.028 -2.053 -2.055 -1.996 -1.996 -1.99 -2.006 -2.043 -2.049 -2.02 -2 -1.996 -2.063 -2.071 -2.021 -2.079 -2.035 -2.053 -1.945 -2.05 -2.141 -2.064 -2.047 -2.037 -2.006 -1.826 -2.005 -2.033 -1.346 -1.158 -1.034 -0.937 -0.878 -0.845 -0.82 -0.749 -0.683 -0.658 -0.703 -0.805 -2.147 -1.046 -1.095 -1.224 -1.333 -2.077 -2.047 -2.007 -2.007 -2.028 -2.031 -2.093 -2.035 -1.972 -2.121 -1.136 -1.115
-1.679 -1.701 -1.689 -1.713 -1.749 -1.721 -1.773 -1.767 -1.757 -1.777 -1.794 -1.749 -1.758 -1.743 -1.769 -1.704 -1.683 -1.712 -1.667 -1.665 -1.693 -1.724 -1.7 -1.77 -1.713 -1.735 -1.71 -1.724 -1.721 -1.71 -1.676 -1.735 -1.773 -1.783 -1.796 -1.783 -1.781 -1.851 -1.85 -1.849 -1.841 -1.903 -1.931 -1.946 -1.95 -1.965 -1.969 -2.01 -2.031 -2.034 -2.05 -2.089 -2.093 -2.072 -2.067 -2.058 -2.066 -2.019 -2.097 -2.031 -2.052 -2.073 -2.064 -2.007 -2.093 -1.942 -1.957 -1.957 -1.897 -1.881 -1.845 -1.8 -1.789 -1.77 -1.803 -1.738 -1.661 -1.638 -1.678 -1.694 -1.753 -1.841 -1.787 -1.823 -1.871 -1.891 -1.871 -1.903 -1.988 -2.017 -2.033 -2.128 -2.156 -2.091 -2.125 -2.052 -2.148 -2.1 -2.112 -2.087 -2.099 -2.091 -2.063 -2.102 -2.153 -2.174 -2.132 -2.058 -2.162 -2.089 -2.091 -2.132 -2.081 -2.114 -2.094 -2.136 -2.097 -2.078 -2.133 -2.11 -2.03 -2.08 -2.173 -2.099 -2.135 -2.097 -2.1 -2.078 -2.083 -2.102 -2.128 -2.106 -2.089 -2.097 -2.059 -2.059 -2.111 -2.057 -2.111 -2.167 -2.087 -2.13 -2.115 -2.079 -2.096 -2.105 -2.097 -2.091 -2.095 -2.101 -2.072 -2.037 -2.089 -2.067 -2.068 -2.052 -2.074 -2.042 -2.064 -2.078 -2.109 -2.101 -2.143 -2.089 -2.046 -2.11 -2.011 -2.073 -2.061 -2.077 -2.084 -2.111 -2.061 -2.107 -2.102 -2.055 -2.033 -2.091 -2.077 -2.095 -2.085 -2.047 -2.064 -2.072 -2.006 -2.052 -2.038 -2.054 -2.067 -2.035 -2.058 -2.155 -2.062 -2.075 -2.162 -2.084 -2.078 -2.082 -2.026 -2.037 -2.06 -2.109 -2.043 -1.991 -2.038 -2.051 -2.064 -2.073 -2.041 -2.117 -2.045 -2.033 -2.073 -2.029 -2.1 -2.1 -1.994 -2.085 -2.084 -2.124 -2.049 -2.039 -2.088 -2.088 -2.072 -2.052 -1.998 -2.065 -2.091 -2.07 -2.084 -2.052 -2.11 -2.112 -2.04 -2.174 -2.113 -2.093 -2.013 -2.063 -2.087 -2.052 -2.035 -2.091 -2.013 -2.071 -2.02 -2.111 -2.043 -2.068 -2.069 -2.1 -2.074 -2.122 -2.044 -1.047 -0.949 -0.967 -0.838 -0.683 -2.145 -0.296 -0.016 0.221 0.458 0.683 0.901 1.09 -2.207 -2.082 -2.162 -2.188 -2.183 0.143 0.192 0.313 -2.076 -2.057 -2.052 0.327 -2.062 -2.088 -2.143 -2.152 -2.104 -2.096 -2.112 -0.287 -0.441 -0.631 -0.779 -1.028 -1.175 -1.373 -1.601 -1.852 -2.049 -2.055 -2.029 -2.092 -2.063 -2.084 -2.038 -1.967 -1.934 -2.073 -2.04 -1.858 -1.866 -1.889 -1.94 -2.034 -2.104 -2.025 -2.035 -2.067 -2.076 -2.046 -2.032 -2.015 -2.086 -2.083 -2.058 -2.017 -2.038 -2.107 -2.123 -2.072 -2.037 -2.081 -2.031 -2.037 -2.028 -2.078 -2.12 -2.116 -1.999 -1.955 -2.089 -2.1 -2.072 -2.056 -2.083 -2.02 -1.983 -2.042 -2.057 -2.055 -2.009 -2.034 -2.04 -2.095 -2.076 -1.992 -2.081 -2.021 -2.059 -2.038 -2.022 -2.086 -2.044 -1.994 -2.004 -2.056 -2.013 -2.019 -2.053 -2.082 -2.018 -2.014 -2.047 -2.061 -2.078 -2.012 -2.031 -2.073 -2.062 -2.041 -2.123 -2.098 -2.029 -1.999 -2.064 -2.085 -2.15 -2.067 -1.914 -1.991 -2.011 -2.037 -2.107 -2.075 -2.081 -2.02 -2.04 -2.045 -2.129 -2.076 -2.012 -2.108 -2.062 -1.968 -2.007 -2.07 -2.086 -2.047 -2.037 -1.98 -1.942 -2.02 -2.001 -2.021 -1.996 -1.961 -1.978 -2.058 -2.047 -1.989 -1.999 -2.072 -2.054 -1.972 -2.053 -2.094 -2.026 -2.046 -2.015 -2.015 -2.017 -1.809 -2.07 -1.518 -1.334 -1.198 -1.131 -1.101 -1.085 -0.983 -0.95 -0.887 -0.875 -0.981 -0.981 -1.128 -1.192 -1.329 -1.412 -2.058 -1.998 -2.022 -2.134 -2.039 -2.005 -2.082 -2.098 -2.063 -1.977 -1.478 -1.316 -2.071
-1.685 -1.706 -1.699 -1.724 -1.757 -1.745 -1.729 -1.772 -1.779 -1.776 -1.753 -1.748 -1.744 -1.776 -1.73 -1.744 -1.724 -1.735 -1.779 -1.683 -1.705 -1.693 -1.687 -1.776 -1.756 -1.71 -1.703 -1.77 -1.741 -1.698 -1.722 -1.74 -1.747 -1.756 -1.786 -1.782 -1.762 -1.815 -1.85 -1.835 -1.834 -1.88 -1.931 -1.927 -1.931 -1.912 -1.942 -1.978 -1.98 -1.955 -2.04 -2.037 -2.024 -2.071 -2.077 -2.088 -2.126 -2.109 -2.156 -2.07 -2.097 -2.123 -2.098 -2.019 -2.037 -1.976 -1.999 -1.921 -1.906 -1.921 -1.865 -1.82 -1.773 -1.73 -1.712 -1.729 -1.705 -1.647 -1.692 -1.712 -1.753 -1.778 -1.827 -1.848 -1.866 -1.905 -1.907 -1.951 -1.924 -2.009 -2.008 -2.089 -2.072 -2.17 -2.126 -2.093 -2.134 -2.088 -2.071 -2.003 -2.103 -2.142 -2.069 -2.11 -2.083 -2.107 -2.137 -2.058 -2.053 -2.088 -2.078 -2.098 -2.062 -2.024 -2.032 -2.127 -2.113 -2.135 -2.105 -2.146 -2.052 -2.123 -2.122 -2.134 -2.141 -2.066 -2.084 -2.118 -2.055 -2.11 -2.105 -2.086 -2.072 -2.029 -2.159 -2.078 -2.127 -2.115 -2.082 -2.089 -2.1 -2.071 -2.128 -2.077 -2.088 -2.108 -2.129 -2.036 -2.141 -2.106 -2.111 -2.106 -2.156 -2.047 -2.107 -2.094 -2.123 -2.094 -2.045 -2.072 -2.096 -2.077 -2.059 -2.115 -2.076 -2.102 -2.067 -2.07 -2.089 -2.022 -2.007 -2.057 -2.067 -2.098 -2.09 -2.053 -2.07 -2.114 -2.089 -2.075 -2.085 -2.036 -2.069 -2.076 -2.019 -2.084 -2.108 -2.014 -2.067 -2.066 -2.108 -2.049 -2.021 -2.052 -2.081 -2.093 -2.068 -2.032 -2.073 -2.049 -2.063 -2.062 -2.074 -2.054 -2.047 -2.03 -2.042 -2.052 -2.025 -2.072 -2.086 -2.058 -2.001 -2.05 -2.099 -2.133 -2.023 -2.026 -2.034 -2.109 -2.079 -2.044 -2.047 -2.075 -2.018 -2.057 -2.042 -2.041 -2.057 -2.11 -2.048 -2.014 -2.086 -2.106 -2.083 -2.061 -2.057 -2.082 -2.038 -2.067 -2.047 -2.072 -2.062 -2.128 -2.09 -2.012 -2.043 -2.158 -2.113 -2.053 -2.011 -1.878 -1.682 -1.541 -2.047 -1.976 -1.22 -1.143 -0.996 -0.756 -0.511 -0.3 -0.021 0.188 0.354 0.576 0.753 0.9 -2.145 -2.093 -2.096 -2.105 -2.134 0.161 0.354 0.516 -2.109 -2.109 -2.094 -2.013 -2.055 -2.222 -2.135 -2.011 -2.023 -0.214 -0.336 -0.445 -0.617 -0.769 -0.923 -1.11 -1.365 -1.55 -2.038 -1.86 -2.011 -2.061 -2.036 -2.101 -2.012 -1.915 -1.846 -1.808 -1.651 -2.056 -2.035 -1.671 -1.666 -1.729 -1.709 -1.701 -1.788 -1.887 -2.051 -2.13 -2.072 -2.034 -2.01 -1.981 -2.126 -2.055 -2.012 -2.067 -2.037 -2.057 -2.139 -2.085 -2.023 -2.043 -2.016 -2.061 -2.065 -2.074 -2.047 -2.062 -2.008 -1.962 -1.996 -2.047 -2.05 -1.968 -2.006 -2.056 -2.026 -1.992 -2.015 -2.091 -2.071 -2.034 -1.987 -2.065 -2.053 -1.978 -2.026 -2.075 -2.046 -2.014 -2.021 -2.067 -2.019 -2.012 -2.025 -2.028 -2.036 -2.003 -2.009 -2.063 -2.012 -1.934 -2.047 -2.038 -2.067 -2.054 -2.008 -2.04 -2.048 -2.063 -2.062 -2.093 -2.024 -1.928 -1.999 -2.078 -2.089 -2.015 -1.941 -1.951 -1.997 -2.048 -2.063 -2.089 -1.991 -2.022 -2.022 -2.056 -2.122 -2.041 -1.98 -1.998 -2.057 -2.018 -2.001 -2.097 -2.039 -2.063 -2.026 -1.992 -1.963 -2.044 -2.049 -2.08 -2.002 -2.04 -2.017 -2.006 -2.02 -1.982 -2.011 -2.088 -2.045 -1.984 -2.025 -2.034 -2.046 -2.056 -2.091 -2.061 -1.994 -2.004 -2.085 -2.021 -1.557 -1.346 -1.312 -1.322 -1.291 -1.196 -1.176 -1.13 -1.123 -1.161 -1.196 -2.081 -1.367 -1.514 -1.612 -2.023 -1.989 -2.048 -2.081 -2.023 -2.013 -2.101 -1.91 -1.763 -1.642 -1.584 -1.56 -1.473
-1.672 -1.692 -1.705 -1.744 -1.777 -1.75 -1.74 -1.743 -1.773 -1.794 -1.736 -1.741 -1.74 -1.753 -1.746 -1.701 -1.688 -1.745 -1.723 -1.69 -1.718 -1.712 -1.738 -1.794 -1.752 -1.666 -1.731 -1.783 -1.693 -1.69 -1.687 -1.754 -1.704 -1.785 -1.772 -1.773 -1.789 -1.761 -1.812 -1.794 -1.815 -1.871 -1.887 -1.904 -1.918 -1.911 -1.883 -1.928 -1.98 -2.047 -2.046 -2.018 -2.042 -2.081 -2.042 -2.129 -2.074 -2.126 -2.051 -2.07 -2.028 -1.973 -2.099 -2.033 -2.003 -1.986 -1.964 -1.913 -1.874 -1.873 -1.839 -1.826 -1.801 -1.762 -1.718 -1.72 -1.708 -1.669 -1.678 -1.726 -1.783 -1.805 -1.801 -1.878 -1.864 -1.855 -1.91 -1.917 -1.9 -1.992 -2.038 -2.122 -2.152 -2.011 -2.055 -2.069 -2.136 -2.097 -2.073 -2.142 -2.085 -1.987 -2.116 -2.076 -2.174 -2.057 -2.131 -2.13 -2.104 -2.025 -2.062 -2.071 -2.093 -2.075 -2.087 -2.116 -2.101 -2.065 -2.088 -2.047 -2.156 -2.047 -2.075 -2.135 -2.123 -2.147 -2.111 -2.125 -2.094 -2.097 -2.168 -2.07 -2.062 -2.095 -2.126 -2.091 -2.093 -2.036 -2.114 -2.1 -2.083 -2.068 -2.075 -2.152 -2.086 -2.085 -2.112 -2.063 -2.097 -2.026 -2.121 -2.11 -2.182 -2.141 -2.059 -2.06 -2.107 -2.063 -2.145 -2.045 -2.055 -2.042 -2.085 -2.098 -2.087 -2.09 -2.055 -2.062 -2.1 -2.057 -2.031 -2.067 -2.049 -2.085 -2.054 -2.098 -2.089 -2.077 -2.038 -2.065 -2.057 -2.049 -2.097 -2.071 -2.066 -2.056 -2.057 -2.06 -2.08 -2.102 -2.044 -2.051 -2.04 -2.055 -2.057 -2.12 -2.049 -2.013 -2.083 -2.096 -2.099 -2.094 -2.037 -2.043 -2.001 -2.08 -2.084 -2.064 -2.098 -2.081 -2.076 -2.079 -2.079 -2.048 -2.071 -2.135 -2.029 -1.994 -2.07 -2.074 -2.052 -2.025 -2.073 -2.091 -2.126 -2.084 -2.022 -2.068 -2.106 -2.006 -2.04 -2.06 -2.069 -2.187 -2.061 -2.065 -2.143 -2.114 -2.065 -2.102 -2.038 -2.027 -2.12 -2.067 -2.031 -1.993 -2.135 -2.154 -2.091 -2.093 -2.182 -2.022 -1.919 -1.749 -2.047 -2.053 -2.035 -1.251 -1.032 -0.832 -0.608 -0.363 -0.132 0.041 0.257 0.432 0.577 0.689 0.716 0.703 0.593 0.41 0.331 0.425 0.534 0.701 -2.069 -2.084 -2.085 -2.072 -2.07 -2.011 -2.113 -0.092 -0.323 -0.429 -0.528 -0.645 -0.789 -0.946 -1.05 -1.223 -1.227 -1.41 -2.111 -1.772 -1.904 -2.216 -2.098 -1.924 -1.761 -1.699 -1.629 -1.569 -2.047 -2.021 -2.045 -2.009 -1.416 -1.475 -2.033 -1.494 -1.528 -1.655 -2.119 -1.994 -2.031 -2.046 -2.007 -2.011 -2.078 -2.101 -2.059 -2.089 -1.985 -2.018 -2.099 -2.074 -2.002 -2.06 -2.044 -2.008 -2.081 -2.089 -2.101 -2.109 -2.015 -2.036 -1.986 -2.029 -2.134 -1.991 -1.987 -2.007 -2.041 -2.015 -2.063 -2.047 -2.035 -2.043 -2.052 -2.111 -2 -2.002 -2.052 -2.06 -2.124 -2.043 -2.008 -2.031 -2.047 -2.03 -2.049 -2.041 -2.037 -2.017 -2.066 -2.076 -2.053 -1.984 -2.044 -2.079 -2.112 -2.075 -1.984 -1.975 -1.987 -2.046 -2.067 -2.064 -2.116 -1.996 -2 -2.072 -2.081 -2.02 -2.011 -1.928 -2.035 -2.004 -2.049 -2.062 -2.035 -1.996 -2.017 -2.027 -2.072 -1.998 -2.009 -1.98 -2.012 -1.986 -1.995 -2.06 -2.025 -2.015 -2.034 -1.981 -1.981 -2.025 -2.041 -2.03 -2.03 -2.032 -1.972 -2.093 -2.123 -2.02 -1.977 -2.075 -2.022 -1.979 -1.99 -2.091 -2.081 -2.035 -2.038 -2.047 -1.997 -2.004 -2.026 -2.059 -1.979 -1.925 -1.911 -1.996 -1.449 -1.422 -1.347 -1.303 -2.019 -1.382 -2.052 -2.047 -2.093 -1.732 -1.813 -1.915 -2.011 -2.015 -2.135 -2.119 -2.029 -2.064 -2.034 -2.002 -1.857 -1.784 -1.749 -1.749
-1.693 -1.683 -1.711 -1.742 -1.752 -1.708 -1.758 -1.754 -1.774 -1.772 -1.749 -1.776 -1.779 -1.694 -1.739 -1.737 -1.764 -1.766 -1.746 -1.74 -1.738 -1.696 -1.675 -1.743 -1.748 -1.736 -1.696 -1.77 -1.711 -1.671 -1.697 -1.671 -1.712 -1.751 -1.77 -1.755 -1.787 -1.758 -1.795 -1.834 -1.851 -1.854 -1.874 -1.871 -1.91 -1.9 -1.902 -1.922 -1.975 -2.015 -2.034 -2.021 -2.049 -2.094 -2.077 -2.113 -2.067 -2.075 -2.086 -2.112 -2.093 -2.024 -2.075 -2.015 -2.019 -1.964 -1.948 -1.963 -1.872 -1.881 -1.843 -1.825 -1.768 -1.754 -1.743 -1.73 -1.723 -1.721 -1.707 -1.715 -1.713 -1.745 -1.789 -1.878 -1.852 -1.908 -1.932 -1.917 -1.94 -1.925 -1.985 -2.072 -2.041 -2.135 -2.033 -2.128 -2.062 -2.096 -2.043 -2.082 -2.128 -2.099 -2.049 -2.093 -2.145 -2.136 -2.057 -2.095 -2.112 -2.049 -2.056 -2.099 -2.062 -2.119 -2.089 -2.178 -2.16 -2.092 -2.115 -2.058 -2.103 -2.112 -2.056 -2.084 -2.026 -2.117 -2.121 -2.096 -2.125 -2.065 -2.091 -2.104 -2.055 -2.116 -2.126 -2.102 -2.081 -2.093 -2.163 -2.042 -2.069 -2.084 -2.104 -2.11 -2.055 -2.045 -2.174 -2.041 -2.144 -2.078 -2.099 -2.133 -2.063 -2.104 -2.114 -2.079 -2.123 -2.05 -2.066 -2.08 -2.1 -2.105 -2.058 -2.071 -2.094 -2.083 -2.097 -2.036 -2.067 -2.044 -2.072 -2.058 -2.013 -2.042 -2.103 -2.058 -2.046 -2.036 -2.092 -2.095 -2.06 -2.059 -2.043 -2.052 -2.103 -2.068 -2.074 -2.071 -2.077 -2.069 -2.086 -2.06 -2.029 -2.027 -2.087 -2.074 -2.049 -2.067 -2.107 -2.122 -2.134 -2.073 -2.084 -2.058 -2.101 -2.034 -2.064 -2.013 -2.074 -2.03 -2.089 -2.081 -2.064 -2.061 -2.054 -2.037 -2.015 -2.066 -2.14 -2.058 -2.09 -2.015 -2.12 -2.114 -2.077 -2.093 -2.083 -2.014 -2.06 -2.022 -2.042 -2.085 -2.028 -2.127 -2.106 -2.035 -2.046 -2.137 -2.046 -2.095 -2.061 -2.095 -2.094 -2.065 -2.095 -2.007 -2.044 -2.082 -2.109 -2.094 -2.089 -2.088 -2.078 -1.961 -2.058 -2.097 -2.041 -2.066 -1.109 -0.867 -0.647 -2.058 -2.054 -2.076 -2.135 -2.119 -2.122 -2.173 0.492 0.497 0.413 0.431 0.568 0.645 0.68 0.86 -2.114 -2.189 -2.156 -2.094 -2.095 -2.117 -2.068 0.026 -0.04 -0.287 -0.607 -0.735 -0.861 -0.888 -0.921 -0.999 -1.103 -1.244 -2.074 -1.536 -1.744 -1.882 -1.837 -1.737 -1.601 -1.478 -1.394 -2.056 -2.1 -2.035 -2.001 -2.078 -2.08 -2.165 -2.033 -1.304 -1.347 -1.483 -2.085 -1.787 -1.91 -1.982 -2.008 -1.974 -2.028 -2.191 -2.083 -2.104 -2.082 -2.013 -2.085 -2.054 -2.025 -2.084 -2.055 -2.073 -2.062 -2.054 -2.074 -2.062 -2.032 -2.02 -2.04 -2.083 -2.182 -2.006 -1.987 -2.025 -2.064 -2.047 -2.072 -2.086 -2.095 -2.008 -2.069 -2.046 -2.047 -1.988 -2.001 -2.03 -2.111 -2.016 -2.021 -2.008 -1.962 -2.034 -2.022 -2.076 -2.022 -2.036 -2.057 -2.1 -2.071 -2.005 -2.037 -2.056 -2.063 -2.053 -2.04 -1.996 -1.981 -2.058 -2.03 -2.064 -2.046 -2.028 -1.978 -2.076 -2.142 -2.057 -2.032 -1.98 -2.02 -2.019 -2.097 -2.035 -2.013 -2.004 -2.008 -2.032 -2.073 -2.089 -1.994 -1.969 -2.031 -2.052 -1.997 -2.125 -2.078 -2.041 -2.037 -2.013 -2.034 -2.026 -2.027 -2.026 -2.052 -2.006 -1.989 -2.018 -2.12 -2.029 -2.029 -2.041 -2.012 -2.011 -2.021 -2.02 -2.07 -2.107 -2.053 -2.041 -2.027 -1.951 -2.042 -2.087 -2.009 -1.838 -1.737 -1.684 -1.669 -1.627 -1.599 -1.543 -2.019 -2.063 -2.087 -1.761 -1.754 -1.899 -2.109 -2.095 -1.975 -2.004 -2.057 -2.021 -2.13 -2.087 -2.02 -2 -2.018 -2.085 -1.991 -2.047
-1.715 -1.709 -1.724 -1.741 -1.729 -1.723 -1.726 -1.752 -1.74 -1.737 -1.743 -1.735 -1.76 -1.753 -1.702 -1.739 -1.724 -1.732 -1.696 -1.681 -1.757 -1.721 -1.715 -1.725 -1.723 -1.744 -1.731 -1.709 -1.714 -1.684 -1.701 -1.721 -1.728 -1.746 -1.752 -1.723 -1.712 -1.775 -1.793 -1.81 -1.871 -1.864 -1.818 -1.886 -1.889 -1.878 -1.881 -1.965 -1.96 -1.98 -2.043 -2.011 -1.987 -2.025 -2.029 -2.067 -2.117 -2.051 -2.094 -2.065 -2.107 -2.061 -2.073 -2.115 -2.025 -2.042 -1.959 -1.949 -1.922 -1.853 -1.847 -1.838 -1.796 -1.782 -1.746 -1.749 -1.746 -1.742 -1.704 -1.737 -1.76 -1.779 -1.824 -1.838 -1.871 -1.927 -1.931 -1.958 -1.974 -1.974 -2.06 -2.075 -2.082 -2.092 -2.051 -2.139 -2.132 -2.122 -2.038 -2.106 -2.136 -2.067 -2.085 -2.077 -2.075 -2.109 -2.105 -2.094 -2.135 -2.119 -2.174 -2.082 -2.085 -2.136 -2.096 -2.087 -2.071 -2.116 -2.084 -2.095 -2.089 -2.015 -2.062 -2.058 -2.073 -2.089 -2.084 -2.091 -2.127 -2.049 -2.045 -2.087 -2.084 -2.072 -2.066 -2.138 -2.129 -2.085 -2.059 -2.103 -2.114 -2.083 -2.085 -2.053 -2.127 -2.102 -2.024 -2.005 -2.05 -2.09 -2.024 -2.094 -2.063 -2.079 -2.078 -2.116 -2.109 -2.071 -2.096 -2.086 -2.071 -2.083 -2.09 -2.079 -2.068 -2.052 -2.093 -2.093 -2.077 -2.087 -2.055 -2.054 -1.982 -2.111 -2.079 -2.035 -2.054 -2.06 -2.09 -2.092 -2.087 -2.059 -2.041 -2.066 -2.054 -2.093 -2.054 -2.018 -2.009 -2.078 -2.126 -2.014 -2.17 -2.047 -2.08 -2.068 -2.086 -2.045 -2.117 -2.116 -2.052 -2.058 -2.051 -2.075 -2.045 -2.029 -2.013 -2.04 -2.039 -2.051 -2.032 -2.093 -2.065 -2.034 -2.06 -2.053 -2.032 -2.07 -2.08 -2.027 -2.099 -2.044 -2.045 -2.091 -2.028 -2.073 -2.035 -2.015 -2.043 -2.02 -2.019 -2.079 -2.099 -2.096 -2.098 -2.068 -2.067 -2.096 -2.058 -2.09 -2.12 -2.051 -2.083 -2.095 -2.043 -2.013 -2.05 -2.009 -2.098 -2.052 -2.07 -2.049 -2.126 -2.139 -2.038 -2.121 -2.151 -2.047 -2.045 -0.945 -2.022 -2.073 -1.9 -0.186 -0.128 0.026 -2.118 -2.086 0.276 0.266 0.395 0.568 0.713 0.838 0.926 0.925 -2.15 -9999 -2.124 -2.127 -2.095 -2.114 -2.07 0.209 0.008 -0.307 -0.505 -0.511 -0.611 -0.659 -0.734 -0.862 -2.079 -2.033 -2.071 -2.051 -1.582 -1.588 -1.637 -1.619 -2.06 -1.32 -2.106 -2.047 -2.127 -1.026 -0.995 -2.025 -2.043 -2.103 -1.072 -1.085 -1.164 -1.3 -1.429 -1.587 -1.682 -1.847 -1.95 -2 -2.049 -2.174 -2.065 -2.111 -2.023 -1.983 -2.079 -2.094 -2.02 -2.013 -2.017 -2.051 -2.063 -2.074 -2.082 -2.063 -2.046 -1.979 -2.049 -2.051 -2.155 -2.048 -2.034 -1.995 -2.037 -2.098 -1.999 -2.065 -1.991 -2.011 -2.105 -2.139 -2.075 -1.993 -1.985 -2.06 -2.081 -2.085 -2.031 -2.048 -2.025 -2.062 -2.055 -2.038 -2.027 -1.963 -2.027 -2.014 -2.085 -2.047 -2.042 -2.017 -2.026 -2.055 -2.075 -2.075 -1.967 -2.002 -2.041 -2.088 -2.011 -1.991 -2.009 -2.066 -2.113 -2.077 -2.073 -1.967 -1.967 -2.034 -2.066 -1.989 -1.988 -1.994 -2.028 -2.084 -2.071 -2.092 -1.992 -2.065 -2.083 -2.076 -2.013 -2.065 -2.08 -1.98 -2.069 -2.013 -2.008 -2.02 -2.047 -2.024 -2.014 -1.949 -1.952 -2.061 -2.09 -2.046 -2.036 -2.04 -2.009 -2.034 -2.017 -2.013 -2.061 -1.994 -2.046 -2.083 -2.037 -2.044 -2.014 -2.018 -1.981 -1.999 -1.97 -1.926 -1.899 -1.848 -2.094 -1.762 -1.953 -1.948 -2.095 -2.038 -2.003 -2.01 -2.053 -2.039 -2.057 -2.045 -2.09 -2.046 -2.031 -2.194 -2.009 -1.999 -1.989 -2.079 -2.06 -2.04
-1.736 -1.696 -1.699 -1.697 -1.736 -1.722 -1.729 -1.733 -1.724 -1.713 -1.711 -1.755 -1.707 -1.746 -1.77 -1.784 -1.765 -1.75 -1.694 -1.702 -1.681 -1.733 -1.686 -1.679 -1.7 -1.677 -1.72 -1.727 -1.739 -1.704 -1.684 -1.713 -1.728 -1.695 -1.771 -1.733 -1.749 -1.785 -1.817 -1.818 -1.84 -1.829 -1.817 -1.829 -1.867 -1.821 -1.875 -1.927 -1.952 -1.941 -1.968 -1.978 -1.997 -1.97 -1.991 -2.041 -2.031 -2.094 -2.076 -2.08 -2.095 -2.082 -2.146 -2.079 -2.041 -1.971 -1.975 -1.972 -1.92 -1.868 -1.854 -1.849 -1.789 -1.773 -1.761 -1.754 -1.77 -1.767 -1.785 -1.722 -1.758 -1.771 -1.837 -1.889 -1.882 -1.882 -1.934 -1.958 -1.957 -1.978 -2.006 -2.067 -2.164 -2.107 -2.098 -2.103 -2.13 -2.158 -2.107 -2.118 -2.06 -2.153 -2.108 -2.072 -2.103 -2.114 -2.083 -2.076 -2.122 -2.048 -2.095 -2.068 -2.113 -2.073 -2.049 -2.053 -2.141 -2.095 -2.077 -2.061 -2.105 -2.103 -2.109 -2.047 -2.054 -2.053 -2.106 -2.174 -2.201 -2.196 -2.07 -2.097 -2.11 -2.058 -2.144 -2.087 -2.08 -2.093 -2.072 -2.123 -2.141 -2.06 -2.071 -2.121 -2.102 -2.084 -2.136 -2.049 -2.085 -2.038 -2.057 -2.092 -2.083 -2.083 -2.064 -2.082 -2.117 -2.072 -2.082 -2.114 -2.075 -2.084 -2.056 -2.084 -2.038 -2.059 -2.09 -2.073 -2.053 -2.033 -2.071 -2.08 -2.011 -2.098 -2.058 -2.03 -2.022 -2.117 -2.08 -2.095 -2.146 -2.042 -2.072 -2.075 -1.997 -2.053 -2.037 -2.052 -2.041 -2.11 -2.076 -2.097 -2.033 -2.074 -2.057 -2.11 -2.047 -2.063 -2.061 -2.04 -2.115 -2.071 -2.094 -2.053 -2.063 -2.039 -2.071 -2.079 -2.053 -2.094 -2.044 -2.065 -2.033 -2.104 -2.109 -2.058 -2.02 -2.003 -2.023 -2.04 -2.05 -2.12 -2.106 -2.103 -2.102 -2.012 -2.093 -2.073 -2.057 -2.069 -2.09 -2.039 -2.101 -2.125 -2.049 -2.092 -2.069 -2.049 -2.093 -2.068 -2.083 -2.029 -2.079 -2.05 -2.042 -2.057 -1.991 -2.005 -2.004 -2.006 -2.035 -2.027 -2.08 -2.128 -2.064 -1.911 -2.108 -2.121 -1.337 -1.122 -0.907 -2.025 -2.089 -0.339 -0.326 -0.197 -1.877 -2.127 0.009 0.248 0.454 0.653 0.823 0.98 1.108 1.024 -2.112 -2.08 -2.108 -2.247 -2.086 0.623 0.408 0.179 -0.029 -0.266 -0.274 -0.285 -0.361 -0.397 -2.047 -0.643 -0.729 -2.121 -2.084 -2.032 -2.092 -1.401 -1.392 -2.057 -2.04 -2.084 -2.054 -2.108 -0.808 -0.787 -0.759 -0.752 -2.067 -2.104 -2.131 -0.912 -1.008 -1.103 -1.297 -1.394 -1.991 -2.068 -1.839 -1.987 -1.993 -2.128 -2.122 -2.102 -2.046 -2.026 -2.058 -2.066 -2.045 -2.059 -2.005 -1.986 -2.1 -2.063 -2.088 -2.039 -2.008 -1.997 -2.088 -2.047 -2.076 -2.003 -1.989 -2.035 -2.018 -1.988 -2.061 -2.065 -2.068 -2.01 -2.025 -2.052 -2.105 -1.97 -1.963 -1.99 -2.089 -2.108 -2.026 -2.019 -2.044 -2.014 -2.066 -1.967 -1.99 -2.045 -2.039 -2.069 -2.05 -2.039 -2.052 -2.028 -1.987 -2.069 -2.047 -2.087 -2.033 -2.042 -2.065 -2.073 -2.004 -1.984 -2.023 -2.058 -2.064 -2.097 -1.99 -1.914 -2.005 -2.08 -2.032 -2.037 -1.981 -2.016 -2.035 -2.012 -2.082 -2.068 -1.995 -1.985 -2.073 -2.036 -2.037 -2.02 -2.093 -1.985 -2.013 -1.961 -1.98 -2.014 -2.047 -2.02 -2.021 -2.033 -1.976 -2.016 -2.036 -2.029 -2.043 -1.998 -2.021 -2.083 -1.959 -1.981 -2.098 -2.069 -2.04 -2.056 -2.041 -2.029 -2.008 -2.005 -2.022 -1.957 -1.994 -2.03 -2.023 -2.07 -2.041 -1.989 -1.974 -1.997 -2.084 -2.213 -2.002 -2.059 -2.041 -2.077 -1.988 -2 -2.064 -2.042 -2.078 -1.975 -2.001 -2.022 -1.741 -1.757 -1.917 -1.854
-1.695 -1.681 -1.708 -1.684 -1.694 -1.696 -1.748 -1.729 -1.714 -1.734 -1.75 -1.742 -1.757 -1.749 -1.765 -1.796 -1.735 -1.722 -1.71 -1.736 -1.665 -1.739 -1.734 -1.678 -1.711 -1.699 -1.715 -1.729 -1.71 -1.704 -1.672 -1.737 -1.728 -1.73 -1.773 -1.758 -1.799 -1.781 -1.778 -1.797 -1.822 -1.811 -1.826 -1.837 -1.836 -1.852 -1.883 -1.938 -1.95 -1.922 -1.945 -1.99 -1.997 -1.997 -2.062 -1.962 -2.035 -2.129 -2.069 -2.089 -2.063 -2.097 -2.044 -2.077 -2.052 -1.981 -2.007 -1.965 -1.945 -1.889 -1.88 -1.876 -1.83 -1.795 -1.791 -1.774 -1.774 -1.795 -1.807 -1.776 -1.751 -1.788 -1.825 -1.931 -1.927 -1.893 -1.9 -2.011 -2.011 -2.041 -2.036 -2.055 -2.079 -2.048 -2.085 -2.125 -2.106 -2.207 -2.062 -2.127 -2.019 -2.053 -2.099 -2.083 -2.048 -2.099 -2.134 -2.019 -2.148 -2.102 -2.133 -2.121 -2.121 -2.075 -2.045 -2.051 -2.107 -2.08 -2.039 -2.067 -2.105 -2.07 -2.109 -2.155 -2.037 -2.08 -2.1 -2.142 -2.16 -2.191 -2.071 -2.086 -2.106 -2.047 -2.041 -2.071 -2.043 -2.123 -2.165 -2.074 -2.111 -2.085 -2.073 -2.14 -2.105 -2.095 -2.125 -2.034 -2.109 -2.063 -2.056 -2.069 -2.083 -2.108 -2.086 -2.09 -2.095 -2.087 -2.063 -2.09 -2.079 -2.129 -2.033 -2.096 -2.071 -2.089 -2.033 -2.095 -2.143 -2.141 -2.107 -2.068 -2.113 -2.09 -2.032 -2.07 -2.033 -2.069 -2.07 -2.095 -2.081 -2.097 -2.111 -2.043 -2.127 -2.045 -2.055 -2.044 -2.096 -2.061 -2.119 -2.117 -2.057 -2.077 -2.077 -2.076 -2.109 -2.083 -2.05 -2.091 -2.082 -2.046 -2.052 -2.025 -2.093 -2.083 -2.026 -2.047 -2.049 -2.072 -2.12 -2.053 -2.095 -2.055 -2.106 -2.054 -2.042 -1.998 -2.122 -2.071 -2.045 -2.071 -2.067 -2.082 -2.127 -2.017 -2.01 -2.079 -2.072 -2.037 -2.123 -2.052 -2.075 -2.117 -2.072 -2.027 -2.079 -1.994 -2.063 -2.028 -2.041 -2.083 -2.101 -2.107 -2.076 -2.076 -2.1 -2.094 -2.028 -2.032 -2.026 -2.142 -2.112 -2.13 -2.101 -1.993 -2.011 -2.155 -1.474 -1.291 -1.079 -2.107 -2.093 -0.623 -0.391 -0.313 -0.202 -2.086 -2.099 -2.082 0.479 0.678 0.886 1.081 1.279 1.071 -2.063 -2.038 -9999 -2.091 -1.992 0.654 0.428 0.184 0.031 -0.028 -0.028 -0.034 -0.111 -0.192 -0.291 -0.435 -0.58 -0.751 -2.106 -2.061 -1.137 -1.201 -1.248 -1.219 -2.067 -2.056 -2.022 -2.092 -0.639 -0.561 -0.567 -0.535 -0.514 -0.531 -0.642 -0.711 -0.806 -0.883 -1.115 -1.286 -2.079 -2.079 -2.074 -1.863 -1.971 -2.056 -2.114 -2.063 -2.075 -2.084 -2.119 -2.078 -2.092 -1.998 -1.991 -2.003 -2.054 -2.052 -2.1 -2.172 -2.051 -1.939 -2.042 -2.128 -2.137 -2.062 -2.063 -2.057 -2.046 -1.995 -2.02 -2.005 -1.994 -1.976 -2.048 -2.05 -2.062 -2.044 -1.952 -2.016 -2.08 -2.051 -2.012 -2.052 -2.074 -2.079 -2.051 -2.003 -2.019 -2.036 -2.042 -2.047 -2.039 -2.024 -2.077 -2.001 -2.035 -1.98 -2.009 -2.057 -2.007 -2.055 -2.055 -2.044 -2.038 -1.968 -2.003 -2.047 -2.084 -2.051 -2.026 -1.967 -2.051 -2.04 -2.124 -2.014 -1.948 -1.997 -2.053 -2.037 -2.064 -2.066 -2.012 -2.028 -2.078 -2.051 -1.96 -2.089 -2.047 -2.055 -2.006 -1.979 -2.015 -2.024 -2.023 -2.053 -2.029 -1.998 -1.971 -2.029 -2.053 -2.037 -2.074 -2.025 -2.049 -2.072 -2.014 -2.032 -2.085 -2.04 -2.046 -2.117 -2.079 -2.016 -2.032 -2.022 -1.995 -2.045 -1.964 -2.072 -2.089 -2.061 -2.055 -1.996 -1.965 -2.006 -2.04 -2.109 -2.046 -2.006 -2.065 -2.091 -2.007 -2.004 -2.021 -2.042 -1.861 -2.116 -2.081 -2.022 -1.993 -1.596 -1.641 -2.064
-1.662 -1.67 -1.697 -1.696 -1.679 -1.663 -1.713 -1.72 -1.74 -1.755 -1.763 -1.726 -1.743 -1.72 -1.77 -1.796 -1.766 -1.717 -1.77 -1.721 -1.718 -1.725 -1.725 -1.697 -1.741 -1.654 -1.672 -1.701 -1.699 -1.711 -1.663 -1.683 -1.712 -1.716 -1.743 -1.731 -1.772 -1.756 -1.786 -1.781 -1.804 -1.774 -1.809 -1.843 -1.862 -1.877 -1.901 -1.883 -1.884 -1.926 -1.948 -2.043 -1.98 -1.942 -1.989 -1.992 -1.969 -2.08 -2.11 -2.05 -2.183 -2.171 -2.06 -2.122 -2.017 -2.058 -2.044 -2.003 -1.931 -1.929 -1.903 -1.875 -1.835 -1.855 -1.81 -1.792 -1.784 -1.781 -1.794 -1.821 -1.813 -1.832 -1.848 -1.854 -1.881 -1.929 -1.956 -2.059 -2.017 -2.058 -2.017 -1.98 -2.082 -2.159 -2.12 -2.138 -2.108 -2.021 -2.111 -2.05 -2.076 -2.082 -2.094 -2.144 -2.055 -2.093 -2.075 -2.146 -2.106 -2.031 -2.11 -2.086 -2.075 -2.12 -2.093 -2.114 -2.081 -2.102 -2.073 -2.023 -2.06 -2.103 -2.226 -2.178 -2.107 -2.124 -2.081 -2.123 -2.117 -2.117 -2.1 -2.08 -2.089 -2.073 -2.076 -2.101 -2.127 -2.119 -2.07 -2.114 -2.101 -2.092 -2.102 -2.072 -2.074 -2.056 -2.127 -2.094 -2.141 -2.075 -2.085 -2.065 -2.088 -2.093 -2.131 -2.11 -2.078 -2.11 -2.08 -2.102 -2.077 -2.074 -2.057 -2.086 -2.083 -2.09 -2.061 -2.1 -2.071 -2.083 -2.051 -2.072 -2.038 -2.121 -2.096 -2.062 -2.114 -2.075 -2.078 -2.111 -2.051 -2.103 -2.05 -2.054 -2.077 -2.054 -2.083 -2.097 -2.072 -2.089 -2.104 -2.04 -2.105 -2.112 -2.061 -2.069 -2.064 -2.059 -2.063 -2.033 -2.101 -2.065 -2.044 -2.069 -2.048 -2.046 -2.027 -2.054 -2.057 -2.049 -2.063 -2.049 -2.006 -2.076 -2.083 -2.078 -2.031 -2.013 -2.068 -2.066 -2.083 -2.067 -2.07 -2.076 -2.077 -2.058 -2.012 -2.059 -2.077 -2.068 -2.036 -2.052 -2.099 -2.065 -2.097 -2.055 -2.063 -2.109 -2.06 -2.115 -2.122 -2.089 -2.041 -2.023 -2.016 -2.04 -1.995 -2.057 -2.038 -2.016 -2.046 -2.012 -2.061 -2.03 -2.089 -2.025 -2.088 -2.118 -1.667 -1.455 -1.261 -2.088 -0.944 -0.815 -0.706 -0.495 -0.373 -0.267 -2.127 -2.086 0.426 0.657 0.847 0.981 1.031 0.952 -2.103 -2.065 -2.035 1.019 0.823 0.623 0.405 0.164 0.157 0.2 0.186 0.18 0.078 0.028 -0.108 -0.262 -0.445 -0.574 -2.055 -2.046 -0.888 -0.925 -1.001 -1.02 -2.029 -2.04 -2.073 -2.068 -0.446 -0.384 -0.333 -0.267 -0.242 -0.279 -0.379 -0.531 -0.636 -0.742 -0.933 -1.116 -1.317 -2.201 -2.097 -1.825 -1.932 -2.021 -2.042 -2.124 -2.024 -2.092 -2.079 -2.028 -2.062 -2.017 -1.998 -2.047 -2.11 -2.125 -2.081 -2.104 -2.02 -1.973 -1.967 -2.07 -2.091 -2.1 -2.004 -2.027 -2.093 -2.023 -2.055 -2.042 -2.014 -2.026 -2.05 -2.1 -2.05 -2.05 -2.049 -2.014 -2.103 -2.019 -2.025 -2.039 -2.07 -2.015 -2.102 -2.017 -2.037 -2.045 -2.054 -1.945 -2.035 -2.033 -2.092 -2.041 -2.059 -2.016 -1.96 -2.038 -2.101 -2.11 -2.072 -2.055 -1.996 -1.992 -1.982 -2.089 -2.107 -2.065 -1.979 -1.942 -2.014 -2.093 -2.126 -2.026 -1.97 -2.013 -2.022 -2.084 -2.045 -2.097 -2.02 -2.042 -2.06 -2.039 -2.005 -2.07 -2.089 -2.053 -2.012 -1.989 -1.988 -2.03 -1.967 -2.006 -2.018 -2.031 -1.992 -2.025 -1.981 -2.047 -2.081 -2.047 -2.004 -1.975 -1.991 -2.036 -2.125 -2.101 -2.047 -2.032 -2.112 -2.081 -2.024 -2.017 -1.925 -1.994 -2.023 -2.017 -2.039 -2.052 -2.119 -2.033 -2.016 -2.011 -2 -2.012 -2.053 -2.008 -2.12 -2.137 -2.046 -1.979 -1.779 -1.722 -2.077 -2.047 -2.045 -1.98 -2 -2.029 -2.09 -2.111
-1.667 -1.631 -1.645 -1.649 -1.653 -1.648 -1.671 -1.668 -1.727 -1.748 -1.742 -1.766 -1.752 -1.753 -1.77 -1.783 -1.789 -1.774 -1.794 -1.741 -1.721 -1.702 -1.735 -1.724 -1.732 -1.702 -1.691 -1.693 -1.668 -1.665 -1.66 -1.667 -1.714 -1.716 -1.73 -1.723 -1.728 -1.747 -1.759 -1.787 -1.801 -1.804 -1.767 -1.819 -1.801 -1.845 -1.867 -1.86 -1.883 -1.934 -1.967 -2.044 -1.989 -1.953 -1.99 -1.997 -2.041 -2.049 -2.094 -2.046 -2.038 -2.098 -2.158 -2.147 -2.069 -2.015 -2.067 -1.983 -1.977 -1.915 -1.911 -1.925 -1.853 -1.824 -1.828 -1.837 -1.822 -1.854 -1.852 -1.857 -1.854 -1.882 -1.888 -1.892 -1.95 -1.928 -2.005 -1.969 -2.056 -1.997 -2.031 -2.03 -2.011 -2.13 -2.106 -2.097 -2.121 -2.055 -2.026 -2.038 -2.085 -2.071 -2.066 -2.125 -2.071 -2.144 -2.101 -2.078 -2.079 -2.027 -2.091 -2.109 -2.076 -2.158 -2.077 -2.132 -2.147 -2.083 -2.089 -2.066 -2.105 -2.105 -2.117 -2.132 -2.075 -2.066 -2.12 -2.082 -2.078 -2.065 -2.127 -2.088 -2.132 -2.092 -2.077 -2.077 -2.096 -2.093 -2.041 -2.122 -2.137 -2.069 -2.078 -2.039 -2.112 -2.086 -2.1 -2.109 -2.081 -2.114 -2.066 -2.04 -2.062 -2.036 -2.114 -2.154 -2.074 -2.159 -2.053 -2.077 -2.101 -2.045 -2.078 -2.075 -2.123 -2.074 -2.053 -2.047 -2.027 -2.085 -2.06 -2.079 -2.044 -2.079 -2.113 -2.089 -2.058 -2.063 -2.038 -2.094 -2.076 -2.08 -2.042 -2.094 -2.073 -2.01 -2.081 -2.013 -2.075 -2.07 -2.074 -2.038 -2.072 -2.078 -2.069 -2.085 -2.067 -2.073 -2.04 -2.138 -2.141 -2.091 -2.059 -2.126 -2.106 -2.063 -2.02 -1.98 -2.039 -2.079 -2.016 -2.074 -2.056 -2.089 -2.121 -2.098 -2.09 -2.033 -2.064 -2.045 -2.084 -2.02 -2.076 -2.093 -2.055 -2.04 -2.079 -2.06 -2.033 -2.084 -2.03 -2.049 -2.065 -2.077 -2.085 -2.031 -2.099 -2.015 -2.048 -2.084 -2.048 -2.005 -2.076 -2.098 -2.062 -2.018 -2.001 -2.034 -2.045 -2.088 -2.06 -2.057 -2.108 -2.074 -2.114 -2.095 -2.158 -2.061 -1.814 -1.603 -1.398 -2.107 -2.089 -0.979 -0.936 -0.737 -0.531 -0.339 -2.11 -2.088 0.33 0.58 0.727 0.813 0.823 0.787 0.674 0.844 0.901 0.845 0.696 0.504 0.314 0.188 0.333 0.398 0.404 0.36 0.313 0.212 0.072 -0.098 -0.292 -0.48 -2.108 -2.065 -0.701 -0.743 -0.884 -0.88 -0.773 -0.613 -0.494 -2.119 -0.245 -0.134 -0.087 -0.03 -0 -0.085 -0.207 -0.354 -0.491 -0.604 -0.768 -0.964 -2.066 -2.157 -1.447 -1.674 -1.852 -2.048 -2.058 -2.014 -2.068 -2.086 -2.069 -2.074 -2.033 -2.068 -2.048 -1.953 -2.055 -2.037 -2.108 -2.122 -2.05 -2.029 -2.012 -2.106 -2.154 -2.115 -1.996 -2.024 -2.066 -2.085 -2.006 -2.012 -2.012 -1.998 -2.052 -2.087 -2.022 -2.02 -2.025 -1.985 -2.037 -2.077 -2.034 -2.019 -2.059 -2.036 -2.04 -2.011 -2.07 -2.071 -2.091 -2.018 -1.97 -2.03 -2.051 -2.081 -2.058 -2.016 -2.007 -1.997 -2.003 -2.081 -2.108 -2.07 -2.044 -1.976 -1.998 -2.057 -2.171 -2.138 -1.992 -1.922 -1.95 -2.048 -2.102 -2.019 -2.004 -1.953 -2.05 -2.126 -2.067 -2.121 -2.012 -2.031 -2.033 -2.073 -2.032 -1.998 -2.076 -2.077 -2.058 -1.986 -1.975 -1.966 -2.001 -2.043 -2.019 -2.007 -1.997 -1.999 -1.985 -2.012 -2.079 -2.058 -2.06 -1.964 -1.985 -1.958 -2.035 -2.082 -2.033 -2.04 -2.028 -2.003 -2.041 -2.056 -1.968 -1.98 -2.027 -2.054 -2.055 -2.044 -2.045 -2.106 -2.04 -2.005 -2.018 -2.035 -2.072 -2.011 -2.012 -2.042 -1.931 -1.713 -1.598 -1.487 -1.413 -1.335 -2.053 -2.049 -2.097 -2.036 -1.17 -1.219
-1.678 -1.616 -1.608 -1.606 -1.628 -1.663 -1.708 -1.695 -1.701 -1.74 -1.737 -1.76 -1.769 -1.749 -1.767 -1.802 -1.788 -1.796 -1.788 -1.786 -1.711 -1.725 -1.674 -1.699 -1.721 -1.726 -1.696 -1.703 -1.68 -1.702 -1.687 -1.679 -1.708 -1.711 -1.65 -1.693 -1.711 -1.685 -1.72 -1.77 -1.8 -1.746 -1.781 -1.783 -1.825 -1.805 -1.885 -1.898 -1.87 -1.917 -1.914 -1.969 -2.014 -2.01 -1.933 -2.043 -2.017 -2.047 -2.064 -2.072 -2.094 -2.085 -2.092 -2.188 -2.148 -2.073 -2.041 -2.038 -2.006 -1.966 -1.951 -1.948 -1.87 -1.853 -1.867 -1.85 -1.903 -1.893 -1.906 -1.912 -1.897 -1.913 -1.929 -1.934 -1.931 -1.932 -2.026 -2.039 -2.052 -2.026 -2.058 -2.087 -2.081 -2.081 -2.086 -2.035 -2.123 -2.107 -2.022 -2.072 -2.07 -2.114 -2.092 -2.124 -2.019 -2.065 -2.043 -2.081 -2.048 -2.036 -2.088 -2.028 -2.044 -2.05 -2.074 -2.009 -2.047 -2.075 -2.072 -2.132 -2.068 -2.157 -2.144 -2.148 -2.1 -2.087 -2.06 -2.089 -2.07 -2.077 -2.085 -2.101 -2.103 -2.164 -2.136 -2.049 -2.051 -2.151 -2.114 -2.118 -2.128 -2.118 -2.082 -2.099 -2.091 -2.098 -2.145 -2.124 -2.131 -2.054 -2.114 -2.095 -2.073 -2.089 -2.138 -2.1 -2.105 -2.032 -2.071 -2.083 -2.097 -2.046 -2.09 -2.113 -2.087 -2.078 -2.125 -2.086 -2.045 -2.052 -2.077 -2.047 -2.072 -2.052 -2.084 -2.063 -2.053 -2.067 -2.072 -2.077 -2.052 -2.064 -2.07 -2.088 -2.044 -2.036 -2.052 -2.068 -2.071 -2.134 -2.068 -2.035 -2.056 -2.095 -2.047 -2.095 -2.053 -2.093 -2.044 -2.107 -2.111 -2.076 -2.045 -2.04 -2.067 -2.012 -2.084 -2.034 -2.069 -2.028 -2.054 -2.077 -2.037 -2.103 -2.106 -2.058 -2.084 -2.071 -2.052 -2.08 -2.063 -2.011 -2.049 -2.095 -2.053 -2.086 -2.036 -2.09 -2.061 -2.101 -2.006 -2.047 -2.024 -2.081 -2.107 -2.074 -2.039 -2.04 -2.013 -2.12 -2.087 -1.992 -2.062 -2.066 -2.085 -2.041 -2.008 -2.051 -2.002 -2.086 -2.009 -2.015 -2.063 -2.099 -2.095 -2.089 -2.022 -2.046 -2.187 -2.117 -2.058 -2.116 -2.007 -1.173 -1.064 -0.812 -0.603 -0.419 -0.228 -2.124 0.189 0.389 0.512 0.573 0.609 -2.171 0.505 0.643 0.702 0.628 0.515 0.361 0.182 0.368 0.533 0.622 0.645 0.599 0.518 0.412 0.255 0.012 -0.193 -0.401 -2.073 -2.071 -0.443 -0.515 -0.567 -0.671 -0.649 -0.485 -0.311 -0.201 -0.071 0.048 0.105 0.186 0.185 0.116 0.009 -0.18 -0.334 -0.539 -0.649 -0.833 -2.076 -1.238 -1.368 -1.575 -1.866 -2.089 -2.038 -2.011 -2.145 -2.064 -2.104 -1.956 -2.024 -2.078 -2.031 -1.948 -2.076 -2.056 -2.095 -2.112 -2.025 -2.008 -1.991 -2.053 -2.066 -2.098 -1.978 -1.998 -2.012 -2.03 -2.038 -2.022 -2.067 -2.005 -2.009 -2.061 -2.035 -2.021 -2.051 -2.015 -2.096 -2.096 -2.1 -2.079 -2.046 -2.026 -2.007 -2.017 -2.028 -2.008 -2.091 -2.13 -1.952 -2.021 -2.121 -2.086 -2.073 -2.016 -2.002 -2.041 -2.038 -2.03 -2.104 -2.064 -2.03 -2.001 -1.984 -2.057 -2.067 -2.129 -2.023 -1.925 -1.967 -2.067 -2.17 -2.048 -1.942 -1.963 -2.062 -2.054 -2.082 -2.047 -2.035 -2.016 -2.056 -2.081 -2.071 -2.066 -2.044 -2.077 -2.004 -1.981 -1.992 -2.01 -2.011 -2.091 -2.026 -2.038 -1.965 -2.024 -2.055 -1.99 -2.037 -2.079 -2.075 -2.007 -2.005 -1.944 -2.108 -2.094 -2.05 -2.016 -2.023 -2.032 -2.071 -2.11 -2.051 -1.97 -2.005 -2.039 -2.033 -2.019 -2.044 -2.059 -1.977 -2.036 -2.02 -1.984 -2.028 -2.04 -2.064 -1.874 -1.715 -1.55 -1.395 -1.319 -1.212 -1.096 -1.025 -2.009 -2.035 -0.919 -0.945 -0.931
-1.663 -1.6 -1.59 -1.616 -1.642 -1.653 -1.681 -1.69 -1.738 -1.766 -1.739 -1.74 -1.812 -1.767 -1.767 -1.823 -1.795 -1.788 -1.762 -1.736 -1.777 -1.729 -1.732 -1.728 -1.711 -1.685 -1.715 -1.706 -1.704 -1.677 -1.668 -1.686 -1.699 -1.727 -1.75 -1.7 -1.718 -1.705 -1.708 -1.743 -1.813 -1.794 -1.744 -1.778 -1.829 -1.864 -1.838 -1.896 -1.937 -1.909 -1.915 -1.905 -1.937 -1.951 -1.959 -2.021 -2.056 -2.032 -2.086 -2.017 -2.043 -2.072 -2.065 -2.074 -2.029 -2.052 -2.064 -2.042 -2.074 -2.003 -1.963 -1.952 -1.934 -1.957 -1.912 -1.883 -1.903 -1.86 -1.889 -1.905 -1.921 -1.939 -1.933 -2.026 -1.984 -1.969 -1.981 -2.015 -2.084 -2.039 -2.153 -2.076 -2.051 -2.121 -2.124 -2.054 -2.084 -2.078 -2.088 -2.07 -2.129 -2.121 -2.093 -2.047 -2.057 -2.103 -2.049 -2.118 -2.127 -2.05 -2.027 -2.1 -2.058 -2.115 -2.025 -2.083 -2.079 -2.104 -2.049 -2.094 -2.064 -2.051 -2.084 -2.079 -2.07 -2.045 -2.097 -2.133 -2.114 -2.069 -2.09 -2.098 -2.111 -2.097 -2.131 -2.069 -2.102 -2.12 -2.107 -2.049 -2.12 -2.08 -2.106 -2.102 -2.058 -2.08 -2.116 -2.123 -2.13 -2.102 -2.106 -2.069 -2.064 -2.063 -2.136 -2.139 -2.088 -2.045 -2.091 -2.068 -2.103 -2.09 -2.057 -2.095 -2.101 -2.075 -2.091 -2.1 -2.116 -2.112 -2.086 -2.059 -2.063 -2.044 -2.074 -2.062 -2.042 -2.07 -2.053 -2.134 -2.081 -2.048 -2.108 -2.08 -2.075 -2.031 -2.027 -2.06 -2.054 -2.111 -2.017 -2.11 -2.071 -2.08 -2.09 -2.072 -2.047 -2.037 -2.086 -2.073 -2.076 -2.09 -2.049 -2.073 -2.107 -2.115 -2.052 -2.056 -2.024 -2.063 -2.053 -2.063 -2.11 -1.999 -2.069 -2.048 -2.108 -2.038 -2.061 -2.046 -2.085 -2.038 -2.036 -2.021 -2.089 -2.114 -2.033 -2.062 -2.079 -2.023 -2.02 -2.041 -2.08 -2.094 -2.097 -2.099 -2.071 -2.079 -2.035 -2.067 -2.084 -2.073 -2.019 -2.101 -2.114 -2.048 -2.071 -2.059 -2.019 -2.022 -1.979 -2.033 -2.068 -2.079 -2.077 -2.072 -2.035 -2.069 -2.122 -2.083 -2.081 -2.051 -2.047 -1.369 -1.183 -0.933 -0.731 -0.54 -0.38 -0.173 -2.084 0.164 0.338 0.317 0.381 -2.077 0.512 0.605 0.67 0.624 0.515 0.359 0.306 0.501 0.726 0.843 0.891 0.82 0.706 0.525 0.323 0.108 -0.101 -0.202 -2.051 -2.038 -2.009 -0.307 -0.368 -0.433 -0.556 -0.363 -0.164 -0.055 0.144 0.258 0.315 0.39 0.386 0.312 0.164 0.009 -0.246 -0.395 -0.546 -0.704 -0.891 -1.143 -1.405 -1.511 -1.734 -1.95 -2.102 -2.065 -2.061 -2.031 -2.044 -2.086 -2.06 -2.095 -2.073 -1.961 -2.039 -2.113 -2.076 -2.068 -2.081 -2.006 -1.944 -2.08 -2.185 -2.106 -2.068 -1.967 -2.105 -2.018 -2.016 -2.014 -2.025 -2.032 -2.046 -2.034 -2.035 -2.059 -2.035 -1.993 -1.994 -2.057 -2.115 -2.074 -2.039 -2.007 -2.089 -2.009 -2.034 -2.093 -2.094 -2.031 -2.012 -1.975 -2.092 -2.078 -2.037 -2.018 -2.005 -2.039 -2.039 -2.017 -2.1 -2.041 -2.017 -1.993 -2.041 -2.01 -2.079 -2.05 -2.018 -1.924 -2.007 -2.024 -2.09 -2.032 -1.937 -1.944 -2.007 -2.065 -2.095 -2.081 -2.041 -2.012 -2.049 -2.083 -2.004 -2.048 -2.018 -2.103 -2.1 -2.068 -1.998 -1.984 -2.018 -1.985 -2.049 -2.047 -1.982 -2.058 -2.077 -2.002 -1.996 -2.078 -2.157 -1.991 -1.976 -1.988 -1.982 -2.057 -2.062 -2.041 -2.035 -2.007 -2.051 -2.094 -2.071 -2.06 -1.967 -1.962 -2.05 -2.004 -2.032 -2.077 -2.008 -2.044 -2.028 -1.949 -2.034 -2.06 -1.889 -1.707 -1.491 -1.354 -1.216 -1.075 -1.013 -0.897 -0.768 -0.744 -0.711 -0.741 -0.738 -0.762
-1.614 -1.597 -1.56 -1.588 -1.623 -1.656 -1.674 -1.698 -1.734 -1.839 -1.774 -1.756 -1.816 -1.764 -1.772 -1.806 -1.876 -1.861 -1.789 -1.768 -1.791 -1.767 -1.784 -1.778 -1.738 -1.712 -1.711 -1.757 -1.709 -1.718 -1.686 -1.688 -1.712 -1.769 -1.787 -1.747 -1.762 -1.689 -1.702 -1.708 -1.779 -1.775 -1.77 -1.81 -1.783 -1.818 -1.831 -1.885 -1.854 -1.904 -1.917 -1.899 -1.908 -1.964 -1.994 -1.997 -2.019 -2.052 -2.106 -2.069 -2.075 -2.076 -2.099 -2.089 -2.107 -2.091 -2.081 -2.13 -2.118 -2.086 -1.971 -1.901 -1.947 -1.94 -1.927 -1.958 -1.923 -1.911 -1.926 -1.939 -1.981 -1.961 -1.978 -2.012 -2.014 -1.954 -2.059 -2.057 -2.065 -2.068 -2.015 -2.046 -2.074 -2.07 -2.086 -2.086 -2.076 -2.153 -2.056 -2.091 -2.102 -2.137 -2.125 -2.071 -2.091 -2.065 -2.169 -2.059 -2.09 -2.112 -2.158 -2.119 -2.039 -2.094 -2.013 -2.07 -2.075 -2.122 -2.122 -2.098 -2.081 -2.072 -2.085 -2.041 -2.08 -2.056 -2.039 -2.094 -2.099 -2.043 -2.05 -2.092 -2.107 -2.159 -2.003 -2.097 -2.116 -2.132 -2.076 -2.155 -2.117 -2.051 -2.088 -2.067 -2.113 -2.1 -2.054 -2.088 -2.134 -2.099 -2.053 -2.046 -2.132 -2.088 -2.077 -2.134 -2.069 -2.052 -2.048 -2.078 -2.074 -2.068 -2.049 -2.141 -2.155 -2.094 -2.017 -2.059 -2.085 -2.099 -2.118 -2.077 -2.079 -2.063 -2.061 -2.066 -2.007 -2.048 -2.048 -2.061 -2.065 -2.081 -2.044 -2.1 -2.071 -2.066 -2.033 -2.045 -2.044 -2.056 -2.084 -2.089 -2.103 -2.049 -2.111 -2.083 -2.044 -2.038 -2.07 -2.049 -2.078 -2.049 -2.071 -2.074 -2.085 -2.115 -2.035 -2.037 -2.001 -2.044 -2.023 -2.014 -2.108 -2.035 -2.107 -2.083 -2.103 -2.045 -2.059 -2.087 -2.063 -1.991 -2.013 -2.049 -2.108 -2.109 -2.042 -2.062 -2.044 -2.081 -2.023 -2.046 -2.047 -2.065 -2.07 -2.047 -2.078 -2.109 -2.121 -2.032 -2.074 -2.006 -2.09 -2.076 -2.142 -2.076 -2.02 -2.066 -2.085 -2.073 -2.059 -2.038 -2.006 -2.026 -2.122 -2.022 -1.994 -2.087 -2.236 -2.121 -1.939 -1.805 -2.027 -1.429 -1.237 -0.977 -0.778 -0.621 -0.452 -0.227 -0.19 -0.045 0.077 0.13 0.25 0.496 0.673 0.794 0.839 0.819 0.697 0.505 -2.103 0.612 0.834 1.026 -2.12 -2.053 0.809 0.6 0.395 0.186 -0.009 -0.161 -2.059 -0.035 -0.064 -0.081 -0.139 -0.22 -0.349 -0.247 -0.036 0.143 0.304 0.422 0.507 0.602 0.6 0.508 0.362 0.159 -0.137 -0.324 -0.442 -0.576 -2.02 -1.071 -1.247 -1.509 -1.661 -1.872 -2.063 -2.073 -1.971 -2.012 -2.101 -2.078 -2.117 -2.074 -2.052 -2.006 -2.025 -2.161 -2.08 -2.147 -2.098 -1.966 -2.006 -1.986 -2.068 -2.099 -2.108 -2.001 -2.072 -2.053 -2.007 -2 -2.028 -2.074 -2.141 -2.016 -2.059 -2.029 -2.039 -2.038 -1.966 -2.116 -2.053 -2.099 -2.067 -2.035 -2.042 -2.022 -1.994 -2.033 -2.061 -2.083 -1.973 -2.016 -2.095 -2.059 -1.992 -2.003 -1.994 -2.023 -2.019 -2.003 -2.059 -2.101 -2.038 -2.033 -2.024 -2.03 -2.077 -2.02 -1.971 -1.985 -1.986 -2.003 -2.064 -2.083 -2.006 -1.987 -2.02 -2.05 -2.091 -2.106 -2.034 -1.969 -1.996 -2.078 -2.032 -1.991 -2.009 -2.145 -2.047 -2.037 -1.98 -1.984 -2.038 -1.993 -2.032 -2.011 -2.004 -2.062 -2.044 -2.028 -2.064 -2.027 -2.108 -2.001 -2.029 -2.045 -2.026 -2.081 -2.039 -2.087 -2.034 -2.033 -2.016 -2.037 -2.054 -2.079 -1.975 -2.007 -2.087 -2.016 -1.988 -2.027 -2.042 -2.039 -2.025 -2.035 -2.038 -1.889 -1.739 -1.573 -1.358 -1.199 -1.026 -0.923 -0.796 -0.688 -0.585 -0.505 -0.507 -0.531 -0.541 -0.55
-1.601 -1.593 -1.598 -1.615 -1.637 -1.661 -1.685 -1.676 -1.7 -1.75 -1.779 -1.748 -1.779 -1.77 -1.77 -1.795 -1.833 -1.859 -1.842 -1.827 -1.804 -1.821 -1.793 -1.786 -1.755 -1.733 -1.723 -1.777 -1.761 -1.716 -1.706 -1.706 -1.751 -1.746 -1.725 -1.737 -1.753 -1.754 -1.759 -1.71 -1.693 -1.782 -1.774 -1.748 -1.75 -1.83 -1.868 -1.87 -1.857 -1.92 -1.964 -1.879 -1.889 -1.951 -1.978 -1.992 -2.01 -1.988 -2.005 -2.044 -2.053 -2.053 -2.036 -2.049 -2.097 -2.071 -2.115 -2.108 -2.067 -2.07 -2.046 -1.976 -1.967 -1.981 -1.915 -1.978 -1.997 -1.959 -1.951 -1.956 -2.013 -1.972 -2.002 -2.036 -1.99 -2.005 -2.073 -2.093 -2.034 -2.07 -2.046 -2.056 -2.059 -2.028 -1.991 -2.024 -2.107 -2.123 -2.13 -2.075 -2.033 -2.137 -2.104 -2.059 -2.056 -2.074 -2.132 -2.118 -2.091 -2.095 -2.093 -2.13 -2.096 -2.102 -2.104 -2.058 -2.065 -2.055 -2.101 -2.07 -2.103 -2.066 -2.078 -2.018 -2.148 -2.072 -2.104 -2.078 -2.046 -2.057 -2.062 -2.011 -2.067 -2.12 -2.134 -2.141 -2.066 -2.117 -2.157 -2.085 -2.167 -2.042 -2.125 -2.105 -2.087 -2.041 -2.132 -2.078 -2.122 -2.059 -2.055 -2.083 -2.055 -2.044 -2.111 -2.115 -2.053 -2.045 -2.069 -2.079 -2.114 -2.075 -2.08 -2.085 -2.076 -2.083 -2.09 -2.046 -2.094 -2.143 -2.131 -2.057 -2.073 -2.049 -2.069 -2.088 -2.019 -2.073 -2.064 -2.087 -2.116 -2.104 -2.068 -2.091 -2.046 -2.056 -2.037 -2.074 -2.022 -2.047 -2.045 -2.099 -2.073 -2.05 -2.105 -2.056 -2.066 -2.052 -2.034 -2.013 -2.073 -2.09 -2.118 -2.037 -2.076 -2.038 -2.107 -2.055 -2.038 -2.017 -2.019 -2.033 -2.008 -2.059 -2.074 -2.096 -2.045 -2.077 -2.066 -2.068 -2.147 -2.045 -2.021 -2.078 -2.126 -2.055 -2.072 -2.063 -2.056 -2.033 -2.028 -2.043 -2.058 -2.036 -2.098 -2.039 -2.065 -2.074 -2.077 -2.05 -2.061 -2.085 -1.991 -2.028 -2.117 -2.091 -2.039 -2.049 -2.075 -2.089 -2.039 -2.036 -2.007 -2.072 -2.075 -2.144 -2.054 -2.133 -2.13 -2.17 -2.168 -1.936 -1.721 -1.529 -1.32 -1.123 -0.898 -0.676 -0.545 -0.408 -0.356 -0.228 -0.08 -2.111 0.435 0.594 0.815 0.998 1.093 1.01 0.811 0.578 0.404 -2.088 -2.098 -2.046 -9999 1.094 0.872 0.643 0.448 0.214 0.01 0.046 0.111 0.165 0.145 0.162 0.097 -0.01 -0.201 -0.184 -2.072 -2.064 0.423 0.572 0.698 0.784 0.787 0.654 0.458 0.256 -2.112 -0.162 -0.36 -0.557 -2.001 -1.01 -1.175 -1.378 -2.038 -2.029 -2.027 -2.068 -2.013 -2.077 -2.089 -2.066 -2.036 -2.098 -2.034 -1.98 -2.007 -2.056 -2.107 -2.125 -2.133 -1.991 -2.006 -2.002 -1.989 -2.109 -2.025 -1.977 -2.045 -2.077 -2.065 -2.007 -2.05 -2.101 -2.079 -2.056 -2.03 -2.048 -2.082 -2.122 -2.059 -2.016 -2.059 -2.132 -2.052 -1.982 -2.034 -2.057 -2.02 -2.045 -2.086 -2.033 -1.96 -1.994 -2.036 -2.047 -2.011 -2.012 -2.01 -2.014 -2.076 -2.035 -2.032 -2.036 -2.045 -2.062 -2.001 -2.077 -2.058 -2.032 -1.963 -1.995 -1.964 -2.065 -2.052 -2.057 -1.994 -2.054 -2.076 -2.04 -2.024 -2.063 -2.071 -2.029 -2.111 -2.07 -2.05 -2.051 -2.019 -2.073 -2.045 -2.047 -1.97 -1.997 -1.984 -1.996 -2.068 -1.985 -1.998 -2.023 -1.984 -2.033 -2.051 -2.042 -2.076 -2.016 -1.963 -2.024 -2.013 -2.045 -2.017 -2.116 -2.053 -2 -2.058 -2.027 -2.029 -2.087 -1.968 -1.958 -1.97 -1.984 -2.035 -1.959 -2.029 -2.016 -2.019 -2.003 -1.933 -1.804 -1.593 -1.385 -1.227 -1.059 -0.9 -0.736 -0.584 -0.463 -0.44 -0.315 -0.239 -0.24 -0.278 -2.061
-1.655 -1.643 -1.63 -1.641 -1.682 -1.674 -1.724 -1.71 -1.732 -1.769 -1.757 -1.772 -1.794 -1.814 -1.808 -1.838 -1.835 -1.804 -1.826 -1.813 -1.801 -1.839 -1.787 -1.76 -1.779 -1.721 -1.747 -1.731 -1.707 -1.648 -1.722 -1.71 -1.695 -1.721 -1.721 -1.709 -1.721 -1.754 -1.772 -1.738 -1.749 -1.771 -1.766 -1.803 -1.769 -1.801 -1.875 -1.876 -1.86 -1.89 -1.892 -1.918 -1.941 -1.945 -1.976 -1.943 -2.05 -2.034 -1.94 -2.057 -2.053 -2.054 -2.028 -2.033 -2.068 -2.076 -2.121 -2.109 -2.073 -2.065 -2.025 -2.049 -2.006 -1.982 -2 -2.015 -2.013 -1.948 -1.998 -1.959 -2.02 -2.021 -2.032 -2.057 -2.045 -2.05 -2.129 -2.09 -2.023 -2.09 -2.139 -2.067 -2.054 -2.1 -2.053 -2.06 -2.11 -2.096 -2.054 -2.138 -2.069 -2.065 -2.135 -2.107 -2.033 -2.05 -2.091 -2.135 -1.994 -2.082 -2.09 -2.117 -2.086 -2.071 -2.062 -2.049 -2.064 -2.082 -2.11 -2.085 -2.15 -2.078 -2.036 -2.142 -2.134 -2.116 -2.064 -2.049 -2.046 -2.111 -2.075 -2.053 -2.061 -2.076 -2.135 -2.12 -2.125 -2.095 -2.106 -2.082 -2.15 -2.141 -2.097 -2.136 -2.134 -2.112 -2.104 -2.126 -2.085 -2.037 -2.124 -2.09 -2.108 -2.071 -2.089 -2.035 -2.066 -2.049 -2.067 -2.083 -2.145 -2.043 -2.044 -2.083 -2.121 -2.033 -2.07 -2.085 -2.108 -2.138 -2.107 -2.08 -2.081 -2.046 -2.11 -2.051 -2.06 -2.067 -2.085 -2.065 -2.088 -2.081 -2.092 -2.09 -2.086 -2.096 -2.075 -2.04 -2.027 -2.086 -1.996 -2.084 -2.063 -2.072 -2.112 -2.075 -2.086 -2.074 -2.027 -2.053 -2.065 -2.029 -2.064 -2.067 -2.086 -2.009 -2.083 -2.04 -2.091 -2.097 -2.045 -2.042 -2.039 -2.088 -2.138 -2.049 -2.099 -2.063 -2.074 -2.108 -2.117 -2.066 -2.036 -2.07 -2.117 -2.067 -2.074 -2.072 -2.043 -2.032 -2.07 -2.02 -2.048 -2.004 -2.069 -2.038 -2.051 -2.06 -2.089 -2.086 -2.063 -2.051 -2.073 -2.017 -2.191 -2.047 -2.058 -2.038 -2.137 -2.092 -2.135 -2.041 -2.027 -2.072 -2.076 -2.089 -2.078 -2.059 -2.191 -2.11 -2.095 -1.975 -1.764 -1.604 -1.439 -1.223 -1.087 -0.939 -0.777 -0.682 -0.522 -0.265 -0.091 -2.061 0.396 0.645 0.863 1.096 1.35 1.14 0.869 0.625 0.419 0.606 -2.042 -2.107 1.097 0.991 0.809 0.619 0.464 0.231 0.052 0.21 0.345 0.434 0.405 0.389 0.304 0.156 -0.044 -0.105 0.088 0.315 0.5 0.665 0.828 0.984 0.926 0.748 0.542 0.331 0.12 -0.096 -0.304 -0.521 -0.715 -2.069 -2.091 -2.07 -2.075 -2.054 -2.066 -2.105 -2.043 -2.121 -2.114 -2.067 -2.09 -2.067 -2.095 -1.956 -1.991 -2.067 -1.999 -2.092 -2.14 -2.04 -2.066 -2.009 -2.019 -2.037 -2.087 -2.023 -2.021 -2.046 -2.096 -2.027 -1.965 -2.099 -2.145 -2.04 -2.031 -2.077 -2.081 -2.09 -1.993 -1.999 -2.017 -2.065 -2.037 -2.017 -2.045 -2.008 -1.989 -2.042 -2.068 -2.022 -2.032 -2.051 -2.059 -2.078 -2.021 -2.007 -2.025 -2.035 -2.076 -1.985 -2.068 -2.071 -2.036 -2.001 -2.042 -2.041 -2.061 -2.046 -1.991 -2.029 -1.987 -2.05 -2.061 -2.091 -2.025 -1.979 -2.013 -2.059 -2.048 -2.029 -2.016 -2.009 -1.999 -2.021 -2.072 -2.054 -2.053 -2.062 -2.034 -2.058 -2.023 -1.973 -2.034 -2.063 -2.045 -2.022 -2.013 -1.994 -1.971 -2.054 -2.094 -2.078 -2.088 -2.037 -1.973 -1.941 -2.015 -2.012 -1.995 -2.069 -2.086 -1.982 -1.971 -2.006 -1.998 -2.084 -2.031 -1.998 -2.032 -2.027 -2.054 -1.991 -2.033 -2.001 -2.039 -2.023 -1.932 -1.705 -1.459 -1.326 -1.099 -0.936 -0.711 -0.553 -0.38 -0.269 -0.168 -0.066 0.001 -0.006 -2.078 -2
-1.639 -1.687 -1.653 -1.665 -1.682 -1.699 -1.767 -1.749 -1.789 -1.844 -1.849 -1.772 -1.772 -1.838 -1.801 -1.85 -1.807 -1.802 -1.778 -1.78 -1.793 -1.826 -1.776 -1.769 -1.769 -1.753 -1.732 -1.719 -1.706 -1.728 -1.72 -1.719 -1.68 -1.662 -1.718 -1.709 -1.754 -1.802 -1.751 -1.697 -1.761 -1.776 -1.757 -1.783 -1.775 -1.817 -1.816 -1.854 -1.855 -1.842 -1.875 -1.902 -1.905 -1.938 -1.932 -1.959 -1.973 -1.982 -1.951 -1.997 -2.01 -2.015 -2.047 -2.035 -2.04 -2.059 -2.095 -2.06 -2.1 -2.117 -2.066 -2.045 -2.029 -1.978 -1.998 -2.009 -2.018 -1.979 -2.035 -2.067 -2.055 -2.036 -2.067 -2.062 -2.02 -2.065 -2.024 -2.034 -2.053 -2.099 -1.998 -2.033 -2.062 -2.093 -2.134 -2.154 -2.066 -2.091 -2.112 -2.049 -2.079 -2.071 -2.07 -2.08 -2.076 -2.057 -2.126 -2.107 -2.175 -2.072 -2.14 -2.144 -2.104 -2.113 -2.078 -2.053 -2.126 -2.044 -2.11 -2.086 -2.029 -2.055 -2.099 -2.127 -2.126 -2.073 -2.031 -2.061 -2.07 -2.14 -2.155 -2.127 -2.097 -2.083 -2.062 -2.109 -2.139 -2.055 -2.113 -2.082 -2.073 -2.097 -2.091 -2.099 -2.112 -2.156 -2.095 -2.114 -2.134 -2.125 -2.072 -2.113 -2.123 -2.09 -2.115 -2.118 -2.081 -2.135 -2.078 -2.096 -2.103 -2.099 -2.084 -2.019 -2.051 -2.104 -2.121 -2.08 -2.107 -2.06 -2.06 -2.101 -2.09 -2.087 -2.056 -2.036 -2.006 -2.056 -2.045 -2.027 -2.103 -2.075 -2.088 -2.077 -2.08 -2.086 -2.031 -2.062 -2.078 -2.026 -1.993 -2.033 -2.127 -2.111 -2.061 -2.042 -2.114 -2.043 -2.023 -2.03 -2.061 -2.076 -2.05 -2.021 -2.047 -2.103 -2.085 -2.033 -2.054 -2.045 -2.058 -2.035 -2.06 -2.104 -2.055 -2.058 -2.048 -2.01 -2.01 -2.038 -2.091 -2.056 -2.019 -2.054 -2.099 -2.07 -2.055 -2.115 -2.09 -2.097 -2.048 -2.033 -2.038 -2.016 -2.049 -2.062 -2.092 -2.069 -2.088 -2.084 -2.084 -2.023 -2.061 -2.068 -2.087 -2.14 -2.067 -2.095 -2.065 -2.128 -2.122 -2.075 -2.049 -2.076 -2.087 -2.042 -2.054 -1.986 -2.093 -2.141 -2.095 -2.152 -1.955 -1.714 -1.576 -1.441 -2.06 -2.09 -0.953 -0.784 -0.539 -0.334 -0.105 -2.034 0.364 0.588 0.804 1.019 1.153 1.053 0.846 0.621 0.381 0.473 0.688 -2.122 0.875 0.8 0.66 0.501 0.513 0.132 0.194 0.376 0.512 0.643 0.652 0.597 0.479 0.352 0.145 -0.029 0.129 0.342 0.546 0.727 0.936 1.212 1.002 0.796 0.587 0.376 0.15 -0.099 -0.298 -0.508 -2.04 -2.09 -2.109 -2.086 -2.047 -1.849 -1.992 -2.133 -1.926 -1.883 -1.912 -1.848 -1.808 -1.882 -1.949 -1.999 -1.936 -2.096 -2.121 -2.184 -2.104 -2.082 -1.996 -2.024 -2.049 -2.004 -2.085 -2.055 -2.093 -2.086 -2.087 -2.047 -1.915 -1.992 -2.089 -2.173 -2.015 -2.028 -2.065 -2.043 -1.996 -2.04 -2.043 -2.044 -2.07 -2.032 -2.069 -2.015 -1.993 -2.038 -2.029 -2.065 -2.055 -2.009 -2.039 -2.09 -2.091 -2.012 -2.024 -1.989 -2.048 -2.051 -2.043 -2.007 -2.055 -1.99 -2.042 -2.094 -2.103 -2.065 -1.983 -1.948 -2.02 -2.07 -2.031 -1.998 -1.965 -1.97 -2.046 -2.092 -2.071 -2.077 -2.026 -2.028 -2.021 -2.01 -2.106 -2.072 -2.071 -2.062 -2.011 -2.016 -2.042 -2.023 -2.034 -1.996 -2.076 -2.059 -2.008 -2.033 -1.937 -2.014 -2.077 -2.095 -2.076 -2.024 -1.997 -1.995 -2.023 -2.031 -1.99 -2.05 -2.091 -2.03 -1.999 -2.046 -1.987 -2.025 -2.011 -1.965 -2.038 -2.019 -2.06 -2.025 -2.041 -2.008 -2.032 -1.961 -1.755 -1.618 -1.386 -2.044 -0.994 -0.747 -0.584 -0.41 -0.233 -0.074 0.045 0.142 0.227 0.229 0.187 -2.031
-1.682 -1.675 -1.631 -1.635 -1.654 -1.662 -1.739 -1.723 -1.73 -1.777 -1.822 -1.8 -1.79 -1.807 -1.82 -1.898 -1.806 -1.813 -1.783 -1.823 -1.797 -1.84 -1.82 -1.765 -1.765 -1.768 -1.766 -1.744 -1.728 -1.741 -1.705 -1.729 -1.713 -1.725 -1.741 -1.782 -1.785 -1.777 -1.764 -1.725 -1.718 -1.745 -1.802 -1.77 -1.769 -1.844 -1.767 -1.814 -1.829 -1.799 -1.871 -1.898 -1.913 -1.922 -1.911 -1.935 -1.975 -2.044 -1.97 -1.99 -1.966 -1.983 -2.033 -2.034 -1.986 -2.042 -2.058 -2.104 -2.061 -2.094 -2.081 -2.064 -2.028 -2.061 -2.088 -2.097 -2.026 -1.996 -2.018 -2.044 -2.053 -2.055 -2.041 -2.064 -2.026 -2.09 -2.038 -2.076 -2.05 -2.062 -2.025 -2.053 -2.114 -2.081 -2.117 -2.081 -2.078 -2.082 -2.049 -2.092 -2.112 -2.131 -2.077 -2.033 -2.161 -2.126 -2.08 -2.039 -2.079 -2.073 -2.044 -2.127 -2.02 -2.072 -2.075 -2.085 -2.116 -2.078 -2.095 -2.014 -2.031 -2.119 -2.102 -2.157 -2.036 -2.027 -2.061 -2.093 -2.033 -2.087 -2.166 -2.123 -2.065 -2.1 -2.105 -2.11 -2.058 -2.094 -2.138 -2.138 -2.044 -2.121 -2.105 -2.119 -2.082 -2.117 -2.079 -2.126 -2.1 -2.095 -2.044 -2.099 -2.032 -2.058 -2.047 -2.124 -2.101 -2.063 -2.093 -2.057 -2.112 -2.1 -2.097 -2.086 -2.068 -2.075 -2.068 -2.08 -2.069 -2.096 -2.097 -2.093 -2.081 -2.071 -2.013 -2.072 -2.056 -2.088 -2.098 -2.085 -2.023 -2.033 -2.106 -2.066 -2.077 -2.046 -2.07 -2.073 -2.083 -2.081 -2.034 -2.087 -2.134 -2.046 -2.105 -2.089 -2.062 -2.049 -2.102 -2.107 -2.082 -2.073 -2.059 -2.045 -2.062 -2.117 -2.111 -2.035 -2.039 -2.031 -2.096 -2.022 -2.059 -2.007 -2.045 -2.098 -2.052 -2.041 -2.003 -2.064 -2.067 -2.058 -2.064 -2.057 -2.075 -2.11 -2.084 -2.09 -2.062 -2.07 -2.001 -2.047 -2.042 -2.01 -2.032 -2.034 -2.055 -2.076 -2.11 -2.1 -2.112 -2.086 -2.07 -2.059 -2.039 -2.117 -2.123 -2.058 -2.082 -2.093 -2.061 -2.074 -2.077 -2.036 -2.08 -2.006 -2.047 -2.036 -2.086 -2.109 -2.092 -2.104 -2.118 -1.914 -1.704 -1.639 -1.375 -1.256 -1.006 -0.761 -0.586 -0.415 -0.174 0.073 -2.067 0.467 0.623 0.854 0.988 0.873 0.747 0.556 0.311 0.355 0.51 0.646 0.685 0.618 0.531 0.411 0.608 0.877 0.305 0.451 0.652 0.812 -2.106 0.792 0.653 0.467 0.267 0.04 0.081 0.307 0.537 0.71 0.877 0.986 0.905 0.754 0.548 0.343 0.121 -0.1 -0.365 -0.557 -0.73 -2.059 -2.189 -2.084 -2.006 -1.788 -1.824 -1.803 -1.701 -1.651 -1.621 -1.597 -1.572 -1.636 -1.686 -1.749 -1.94 -1.876 -2.058 -2.094 -2.077 -1.995 -2.053 -2.123 -2.083 -2.089 -2.047 -2.073 -2.024 -2.066 -2.071 -2.012 -1.97 -1.964 -2.033 -2.098 -2.108 -2.022 -2.06 -2.084 -1.981 -2.025 -2.036 -2.037 -2.007 -2.049 -2.07 -1.996 -2.033 -2.004 -2.018 -2.044 -2.049 -1.993 -2.027 -2.061 -2.06 -2.007 -1.949 -2.04 -2.049 -2.012 -2.059 -2.085 -2.016 -2.03 -2.054 -2.048 -2.061 -2.077 -1.944 -1.986 -2.039 -2.107 -2.046 -2.013 -1.937 -1.977 -2.033 -2.089 -2.122 -2.044 -1.983 -2.026 -2.052 -2.005 -2.008 -2.012 -2.178 -2.085 -2.062 -2.035 -2.02 -1.986 -2.01 -1.994 -2.042 -2.028 -1.989 -2.002 -1.959 -2.01 -2.102 -2.115 -2.115 -2.038 -2.02 -1.939 -2.021 -2.067 -2.048 -1.968 -2.05 -2.079 -1.97 -1.999 -2.025 -2.001 -2.003 -1.991 -2.014 -2.045 -2.013 -2.029 -2.069 -2.035 -2.016 -1.934 -1.727 -1.597 -1.289 -1.124 -0.903 -0.674 -0.472 -0.291 -0.134 0.094 0.236 0.382 0.469 0.497 0.448 0.349
-1.658 -1.632 -1.622 -1.617 -1.646 -1.639 -1.711 -1.72 -1.723 -1.757 -1.829 -1.797 -1.809 -1.852 -1.934 -1.964 -1.848 -1.777 -1.768 -1.828 -1.748 -1.803 -1.893 -1.822 -1.774 -1.743 -1.712 -1.729 -1.743 -1.763 -1.739 -1.719 -1.684 -1.704 -1.742 -1.746 -1.725 -1.753 -1.747 -1.738 -1.708 -1.728 -1.77 -1.768 -1.756 -1.804 -1.813 -1.859 -1.853 -1.827 -1.835 -1.907 -1.947 -1.933 -1.922 -1.953 -1.979 -1.974 -1.932 -1.988 -1.989 -1.977 -1.962 -1.992 -2.017 -2.048 -2.076 -2.089 -2.052 -2.108 -2.084 -2.116 -2.157 -2.113 -2.078 -2.067 -2.083 -2.07 -2.027 -2.046 -2.053 -2.1 -2.021 -2.053 -2.168 -2.044 -2.049 -2.085 -2.078 -2.117 -2.096 -2.044 -2.121 -1.982 -2.068 -2.063 -2.044 -2.039 -2.146 -2.123 -2.057 -2.104 -2.12 -2.123 -2.107 -2.065 -2.055 -2.15 -2.08 -2.105 -2.167 -2.099 -2.04 -2.079 -2.074 -2.16 -2.129 -2.087 -2.133 -2.114 -2.112 -2.095 -2.12 -2.035 -2.054 -2.018 -2.05 -2.053 -2.068 -2.119 -2.089 -2.103 -2.072 -2.087 -2.098 -2.072 -2.112 -2.064 -2.105 -2.086 -2.058 -2.119 -2.062 -2.131 -2.062 -2.157 -2.071 -2.089 -2.093 -2.118 -2.078 -2.078 -2.034 -2.074 -2.037 -2.048 -2.15 -2.094 -2.105 -2.084 -2.117 -2.033 -2.122 -2.155 -2.048 -2.06 -2.12 -2.149 -2.041 -2.093 -2.053 -2.037 -2.054 -2.082 -2.058 -2.037 -2.06 -2.052 -2.085 -2.036 -2.015 -2.038 -2.088 -2.071 -2.056 -2.049 -2.062 -2.08 -2.053 -2.039 -2.047 -2.041 -2.044 -2.104 -2.063 -2.04 -2.085 -2.066 -2.083 -2.101 -2.069 -2.079 -2.05 -2.064 -2.038 -2.072 -2.104 -2.051 -2.06 -2.063 -2.024 -2.066 -2.032 -2.083 -2.061 -2.043 -2.034 -2.055 -2.043 -2.048 -2.022 -2.017 -2.012 -2.121 -2.087 -2.04 -2.039 -2.033 -2.095 -2.088 -2.041 -2.048 -2.069 -2.023 -2.035 -2.07 -2.114 -2.072 -2.137 -2.103 -2.102 -2.083 -2.08 -2.047 -2.032 -2.054 -2.07 -2.029 -2.066 -2.161 -2.054 -2.105 -2.056 -2.072 -2.051 -2.019 -2.131 -2.063 -2.058 -2.111 -2.103 -2.101 -2.039 -2.053 -1.854 -1.773 -1.518 -1.338 -1.05 -0.832 -0.606 -0.406 -0.248 -0.009 0.157 0.327 0.425 0.589 0.718 0.652 0.548 0.381 0.181 0.17 0.313 0.435 0.492 0.447 0.455 0.455 0.416 0.32 0.365 0.575 0.772 -2.078 -2.127 -2.068 0.779 0.57 0.344 0.119 0.093 0.283 0.451 0.599 0.696 0.754 -2.028 -1.988 -2.039 -2.069 0.04 -0.162 -0.383 -0.565 -2.037 -2.052 -2.117 -2.105 -1.982 -2.044 -1.604 -1.547 -2.133 -1.428 -1.394 -1.402 -1.339 -2.059 -2.129 -2.038 -2.019 -2.047 -1.856 -2.002 -2.068 -2.029 -2.017 -2.051 -2.015 -2.034 -2.051 -2.024 -1.998 -2.004 -2.089 -2.024 -2.028 -1.982 -1.99 -2.089 -2.09 -2.056 -2.019 -2.09 -2.055 -2.054 -2.053 -2.083 -1.981 -2.029 -2.02 -2.048 -2.071 -1.973 -2.026 -2.076 -2.032 -1.981 -2.043 -2.122 -2.119 -2.039 -1.996 -2.057 -2.023 -2.047 -2.026 -2.076 -2.089 -1.986 -2.046 -2.073 -2.09 -2.082 -1.995 -1.988 -1.993 -2.067 -2.065 -2.076 -1.905 -1.952 -2.024 -2.085 -2.076 -2.091 -2.054 -2.013 -2.022 -2.043 -1.958 -1.971 -2.093 -2.066 -2.071 -2.021 -2.015 -1.973 -2.015 -2.014 -2.064 -2.056 -2.059 -2.01 -1.958 -2.002 -2.044 -2.075 -2.073 -2.026 -2.023 -1.952 -2.004 -2.067 -2.021 -2.017 -2.073 -2.091 -2.049 -2.058 -2.027 -2.019 -2.008 -1.982 -2.012 -1.974 -2.067 -2.03 -2.049 -2.054 -2.03 -1.869 -1.688 -1.47 -1.241 -1.038 -0.852 -0.572 -0.393 -0.233 -0.009 0.215 0.439 0.591 0.694 0.726 0.661 -2.054
-1.638 -1.59 -1.575 -1.64 -1.645 -1.656 -1.68 -1.702 -1.708 -1.762 -1.825 -1.844 -1.786 -1.802 -1.876 -1.881 -1.786 -1.827 -1.799 -1.804 -1.756 -1.795 -1.867 -1.87 -1.779 -1.766 -1.748 -1.723 -1.73 -1.784 -1.768 -1.699 -1.699 -1.726 -1.759 -1.747 -1.733 -1.726 -1.723 -1.729 -1.695 -1.723 -1.714 -1.801 -1.769 -1.796 -1.855 -1.913 -1.893 -1.865 -1.839 -1.875 -1.904 -1.925 -1.959 -1.975 -1.965 -1.99 -1.931 -1.982 -1.966 -1.972 -2.003 -2.017 -2.012 -2.053 -2.094 -2.05 -2.076 -2.091 -2.073 -2.098 -2.088 -2.026 -2.056 -2.056 -2.037 -2.071 -2.095 -2.031 -2.061 -2.075 -2.057 -2.092 -2.058 -2.058 -2.05 -2.09 -2.061 -2.042 -2.074 -2.077 -2.039 -2.051 -2.028 -2.061 -2.175 -2.094 -2.174 -2.123 -2.066 -2.114 -2.169 -2.053 -2.089 -2.086 -2.045 -2.088 -2.062 -2.089 -2.103 -2.079 -2.107 -2.092 -2.049 -2.106 -2.086 -2.129 -2.063 -2.083 -2.093 -2.121 -2.101 -2.056 -2.068 -2.145 -2.067 -2.06 -2.021 -2.097 -2.146 -2.063 -2.134 -2.164 -2.125 -2.174 -2.144 -2.119 -2.092 -2.08 -2.169 -2.055 -2.017 -2.1 -2.111 -2.137 -2.125 -2.082 -2.148 -2.076 -2.111 -2.095 -2.066 -2.05 -2.067 -2.144 -2.206 -2.13 -2.093 -2.035 -2.05 -2.103 -2.18 -2.118 -2.09 -2.059 -2.046 -2.092 -2.108 -2.052 -2.066 -2.105 -2.065 -2.122 -2.117 -2.076 -2.055 -2.04 -2.081 -2.064 -2.087 -2.051 -2.083 -2.092 -2.121 -2.062 -2.06 -2.072 -2.109 -2.05 -2.065 -2.059 -2.091 -2.069 -2.035 -2.014 -2.035 -2.036 -2.056 -2.044 -2.096 -2.061 -2.022 -2.079 -2.073 -2.094 -2.049 -2.059 -2.076 -2.059 -2.051 -2.07 -2.075 -2.078 -2.057 -2.062 -2.083 -2.068 -2.029 -2.106 -2.083 -2.041 -2.066 -2.063 -2.08 -2.037 -2.057 -2.064 -2.035 -2.086 -2.041 -2.099 -2.076 -2.047 -2.062 -2.024 -2.062 -2.072 -2.08 -2.09 -2.084 -2.035 -2.052 -1.999 -2.054 -2.01 -2.046 -2.113 -2.037 -2.059 -2.091 -2.035 -2.068 -2.09 -2.033 -2.046 -2.099 -2.059 -2.042 -2.138 -2.063 -2.086 -2.094 -2.106 -1.991 -1.874 -1.595 -1.354 -1.154 -0.925 -0.756 -0.532 -0.331 -0.138 0.063 0.181 0.294 0.377 -1.8 0.411 0.318 0.215 0.061 0.007 0.193 0.395 0.565 0.672 0.681 0.672 0.651 0.552 0.502 0.608 0.805 1.024 -9999 -2.03 -2.069 0.591 -2.041 0.159 -0.056 0.147 0.317 0.431 0.514 0.541 -2.127 -2.066 -2.049 0.128 -0.062 -0.238 -0.382 -0.512 -0.649 -0.853 -2.055 -2.096 -2.046 -1.481 -1.414 -1.371 -1.262 -2.046 -1.202 -1.18 -2.038 -2.009 -2.06 -2.055 -2.003 -2.013 -2.064 -1.787 -1.901 -2.002 -2.045 -2.059 -2.07 -2.038 -1.998 -2.096 -2.01 -1.996 -2.106 -2.037 -2.024 -2.075 -2.012 -2.056 -2.131 -1.972 -1.983 -2.044 -2.016 -2.03 -2.066 -2.106 -2.026 -1.993 -2.06 -2.014 -2.004 -2.084 -2.046 -2.088 -2.039 -2.004 -1.969 -2.059 -2.069 -2.089 -2.011 -1.991 -2.101 -2.023 -2.031 -2.054 -2.077 -2.025 -2.004 -2.071 -2.069 -2.043 -2.007 -1.994 -2.036 -2.06 -2.059 -2.036 -2.025 -1.982 -2.033 -2.062 -2.077 -2.052 -2.037 -2.009 -2.027 -2.065 -1.977 -1.979 -2.048 -2.064 -2.091 -2.024 -2.013 -2.019 -2.02 -2.041 -2.092 -2.009 -2.011 -2.013 -1.975 -2.025 -2.035 -2.07 -2.062 -2.109 -2.063 -1.951 -1.971 -2.001 -2.053 -2.017 -1.976 -2.066 -2.079 -1.965 -2.057 -2.007 -1.981 -2.023 -2.017 -2.001 -2.033 -2.015 -2.119 -2.043 -2.013 -1.801 -1.69 -1.436 -1.227 -1.022 -0.785 -0.529 -0.324 -0.12 0.091 0.288 0.601 0.777 0.883 0.927 0.857 0.699
-1.629 -1.595 -1.567 -1.625 -1.646 -1.674 -1.66 -1.692 -1.717 -1.749 -1.8 -1.825 -1.771 -1.786 -1.853 -1.916 -1.864 -1.81 -1.769 -1.784 -1.761 -1.777 -1.789 -1.766 -1.749 -1.785 -1.748 -1.746 -1.765 -1.788 -1.77 -1.746 -1.743 -1.736 -1.714 -1.715 -1.718 -1.731 -1.724 -1.722 -1.752 -1.742 -1.742 -1.819 -1.805 -1.842 -1.858 -1.82 -1.89 -1.828 -1.849 -1.853 -1.882 -1.894 -1.9 -1.961 -1.965 -1.974 -1.987 -1.97 -1.928 -1.962 -1.945 -1.96 -1.985 -2.006 -2.02 -2.076 -2.061 -2.067 -2.075 -2.107 -2.056 -2.102 -2.065 -2.099 -2.068 -2.147 -2.089 -2.09 -2.087 -2.047 -2.066 -2.048 -2.089 -2.03 -2.009 -2.058 -1.989 -2.062 -2.073 -2.035 -2.039 -2.076 -2.107 -2.071 -2.097 -2.107 -2.109 -2.026 -2.072 -2.018 -2.077 -2.033 -2.037 -2.117 -2.046 -2.091 -2.051 -2.078 -2.02 -1.996 -2.067 -2.122 -2.081 -2.043 -2.09 -2.072 -2.09 -2.117 -2.096 -2.059 -2.105 -2.176 -2.084 -2.088 -2.095 -2.03 -2.099 -2.063 -2.085 -2.034 -2.034 -2.108 -2.098 -2.129 -2.141 -2.087 -2.066 -2.088 -2.152 -2.092 -2.126 -2.143 -2.107 -2.063 -2.121 -2.07 -2.083 -2.056 -2.091 -2.1 -2.184 -2.073 -2.066 -2.094 -2.098 -2.121 -2.073 -2.118 -2.069 -2.087 -2.132 -2.055 -2.097 -2.106 -2.064 -2.105 -2.124 -2.113 -2.09 -2.115 -2.062 -2.11 -2.115 -2.105 -2.055 -2.06 -2.098 -2.093 -2.061 -2.106 -2.122 -2.112 -2.071 -2.077 -2.079 -2.099 -2.058 -2.057 -2.047 -2.05 -2.046 -2.091 -2.105 -2.076 -2.09 -2.056 -2.039 -2.047 -2.121 -2.06 -2.022 -2.044 -2.047 -2.079 -2.033 -2.036 -2.049 -2.009 -2.032 -2.048 -2.061 -2.136 -2.087 -2.075 -2.086 -2.074 -2.103 -2.09 -2.036 -2.051 -2.064 -2.04 -2.077 -2.057 -2.055 -2.101 -2.065 -2.074 -2.066 -2.04 -2.031 -2.055 -2.084 -2.085 -2.069 -2.03 -2.09 -2.105 -2.116 -2.101 -2.059 -2.034 -2.049 -2.049 -2.104 -2.019 -2.067 -2.03 -2.153 -2.043 -2.052 -2.074 -2.078 -2.08 -2.077 -2.121 -2.064 -2.058 -2.07 -2.129 -2.023 -2.044 -2.004 -1.867 -1.657 -1.461 -1.228 -1.018 -0.838 -0.72 -0.491 -0.248 -0.102 0.011 0.091 0.143 -2.135 0.168 0.112 0.013 -0.108 0.103 0.321 0.531 0.743 0.88 0.909 0.887 0.888 0.743 0.656 0.768 0.805 0.9 0.995 -2.115 -2.088 -2.099 -2.049 0.251 0.029 0.225 0.44 0.614 -1.997 -2.096 -2.085 -2.076 0.418 0.233 0.053 -0.059 -0.204 -0.377 -0.528 -0.68 -2.073 -1.024 -1.248 -1.281 -1.221 -1.145 -1.026 -0.986 -2.089 -2.065 -2.077 -1.992 -2.075 -2.126 -1.974 -1.988 -1.457 -1.614 -1.746 -1.871 -1.959 -2.075 -2.034 -2.009 -2.021 -2.025 -2.062 -1.944 -2.007 -2.05 -2.129 -2.09 -2.041 -2.019 -2.055 -2.086 -2.037 -2.056 -1.984 -2.047 -2.088 -2.081 -2.118 -1.998 -2.001 -2.025 -2.049 -2.052 -2.027 -2.06 -2.026 -2.042 -1.98 -2.062 -2.036 -2.058 -2.076 -2.001 -2.058 -2.021 -2.058 -2.079 -2.068 -2.024 -2.043 -2.06 -2.075 -2.035 -2.027 -1.95 -2.06 -2.029 -2.079 -2.075 -1.991 -2.012 -1.972 -2.045 -2.093 -2.047 -1.996 -2.062 -2.044 -2.055 -1.994 -2.015 -2.044 -2.114 -2.124 -2.041 -2.043 -2.033 -2.003 -2.046 -2.026 -2.01 -1.997 -2.053 -1.955 -2.069 -2.003 -2.046 -2.084 -2.068 -2.056 -2.052 -1.991 -2.033 -2.07 -2.072 -1.98 -2.02 -2.042 -2.001 -2.022 -2.027 -2.009 -2.036 -2.01 -2.012 -2.028 -2.024 -2.033 -2.05 -2.014 -1.821 -1.635 -2.068 -1.144 -1.013 -0.741 -2.036 -0.277 -0.029 0.19 0.393 0.66 0.895 1.065 1.153 1.041 0.805
-1.642 -1.623 -1.617 -1.632 -1.621 -1.657 -1.705 -1.678 -1.725 -1.717 -1.76 -1.79 -1.812 -1.787 -1.795 -1.959 -1.854 -1.776 -1.807 -1.832 -1.833 -1.759 -1.749 -1.756 -1.744 -1.747 -1.731 -1.748 -1.719 -1.782 -1.729 -1.751 -1.731 -1.745 -1.734 -1.754 -1.713 -1.705 -1.705 -1.708 -1.722 -1.745 -1.755 -1.822 -1.801 -1.806 -1.864 -1.835 -1.82 -1.878 -1.899 -1.853 -1.871 -1.884 -1.919 -1.952 -2.006 -1.955 -2 -1.98 -1.965 -1.999 -1.953 -1.938 -1.983 -2.004 -2.097 -2.122 -2.085 -2.107 -2.102 -2.125 -2.109 -2.064 -2.042 -2.093 -2.053 -2.043 -2.047 -2.067 -2.048 -2.077 -2.087 -2.063 -2.058 -2.069 -2.016 -2.008 -2.028 -2.043 -2.04 -2.031 -2.031 -2.069 -2.064 -2.102 -2.104 -2.048 -2.028 -2.065 -2.03 -1.999 -2.085 -2.097 -2.074 -2.046 -2.078 -2.085 -2.053 -2.028 -2.061 -2.053 -2.067 -2.066 -2.092 -2.075 -2.121 -2.067 -2.117 -2.102 -2.074 -2.107 -2.097 -2.127 -2.087 -2.071 -2.055 -2.156 -2.122 -2.1 -2.125 -2.098 -2.04 -2.027 -2.08 -2.149 -2.108 -2.094 -2.129 -2.067 -2.066 -2.065 -2.083 -2.038 -2.114 -2.117 -2.154 -2.068 -2.051 -2.1 -2.13 -2.068 -2.125 -2.093 -2.134 -2.135 -2.076 -2.066 -2.101 -2.058 -2.093 -2.073 -2.114 -2.086 -2.135 -2.081 -2.073 -2.082 -2.047 -2.044 -2.058 -2.129 -2.097 -2.058 -2.082 -2.047 -2.088 -2.091 -2.091 -2.071 -2.062 -2.031 -2.075 -2.115 -2.038 -2.059 -2.036 -2.047 -2.054 -2.059 -2.069 -2.008 -2.087 -2.102 -2.095 -2.09 -2.064 -2.071 -2.041 -2.068 -2.079 -2.053 -2.068 -2.056 -2.069 -2.089 -2.081 -2.063 -2.039 -2.056 -2.093 -2.107 -2.108 -2.079 -2.08 -2.081 -2.028 -2.065 -2.063 -2.079 -2.056 -2.064 -2.061 -2.004 -2.049 -2.056 -2.005 -2.082 -2.078 -2.15 -2.052 -2.039 -1.977 -2.016 -2.056 -2.011 -2.122 -2.042 -2.084 -2.106 -2.138 -2.045 -2.12 -1.998 -2.064 -2.048 -2.039 -2.04 -2.1 -2.103 -2.073 -2.061 -2.118 -2.063 -2.066 -2.003 -2.101 -2.081 -2.032 -2.018 -2.083 -2 -2.087 -2.075 -2.017 -1.956 -1.752 -2.12 -2.115 -1.057 -1.002 -0.808 -0.627 -0.358 -0.343 -0.186 -0.099 -0.07 -2.126 -0.058 -0.112 -0.194 -0.021 0.166 0.385 0.627 0.859 1.051 1.14 1.125 1.093 0.856 0.825 1.026 1.048 0.877 1.003 -2.097 -2.102 -2.019 -2.021 0.365 0.154 0.324 0.518 0.726 0.905 -2.067 -2.063 -2.024 -2.084 0.3 0.252 0.118 -0.044 -0.233 -0.43 -0.618 -2.124 -0.88 -1.105 -1.124 -1.005 -0.918 -0.846 -0.817 -0.706 -0.758 -0.719 -0.71 -2.012 -2.03 -2.045 -1.979 -1.25 -1.443 -1.697 -1.714 -1.869 -2.049 -2.07 -2.005 -2.109 -1.996 -2.097 -2.003 -2.02 -2.104 -2.102 -2.02 -2.002 -2.068 -2.065 -2.158 -2.005 -2.009 -2.056 -2.056 -2.028 -2.11 -2.088 -1.972 -2.011 -1.995 -2.049 -2.115 -2.01 -2.062 -2.036 -2.009 -2.035 -2.078 -2.128 -2.033 -2.07 -2.028 -1.996 -2.101 -2.048 -2.033 -2.037 -1.995 -2.03 -2.065 -2.023 -2.097 -2.022 -1.989 -2.011 -2.014 -2.035 -2.02 -2.018 -2.005 -2.022 -2.062 -2.05 -2.027 -2.008 -2.047 -2.08 -2.036 -1.98 -2 -1.999 -2.067 -2.09 -2.033 -2.068 -2.004 -1.999 -1.992 -2.045 -2.03 -1.983 -2.014 -1.994 -2.07 -2.061 -1.997 -2.064 -2.054 -2.071 -1.992 -2.011 -2.012 -2.063 -2.049 -1.993 -2.029 -2.112 -2.01 -2.048 -2.004 -2 -1.968 -2.071 -2.048 -2.063 -2.011 -2.027 -2.095 -2.027 -1.79 -1.57 -1.321 -1.158 -0.922 -0.715 -2.039 -2.026 -0.01 0.211 0.446 0.688 0.941 1.177 1.391 1.137 0.882
-1.639 -1.658 -1.644 -1.637 -1.636 -1.621 -1.66 -1.687 -1.716 -1.709 -1.802 -1.825 -1.856 -1.79 -1.76 -1.847 -1.806 -1.763 -1.748 -1.778 -1.832 -1.775 -1.736 -1.744 -1.756 -1.732 -1.752 -1.733 -1.74 -1.762 -1.736 -1.741 -1.747 -1.774 -1.782 -1.768 -1.708 -1.698 -1.729 -1.819 -1.791 -1.76 -1.754 -1.783 -1.811 -1.779 -1.806 -1.838 -1.827 -1.876 -1.927 -1.892 -1.861 -1.93 -1.923 -2.023 -1.948 -1.959 -1.98 -1.939 -1.946 -1.926 -1.957 -1.983 -1.976 -1.987 -2.051 -2.161 -2.125 -2.088 -2.076 -2.12 -2.118 -2.093 -2.023 -2.142 -2.037 -2.052 -2.105 -2.155 -2.083 -2.098 -2.063 -2.003 -2.09 -2.07 -2.087 -1.996 -2.053 -2.052 -2.038 -2.101 -2.059 -2.048 -2.122 -2.067 -2.103 -2.056 -2.124 -2.036 -2.038 -2.014 -2.033 -2.106 -2.085 -2.075 -2.113 -2.133 -2.141 -2.091 -2.113 -2.101 -2.096 -2.103 -2.099 -2.055 -2.129 -2.054 -2.034 -2.059 -2.15 -2.051 -2.056 -2.054 -2.095 -2.121 -2.041 -2.029 -2.073 -2.076 -2.109 -2.074 -2.075 -2.044 -2.048 -2.057 -2.104 -2.181 -2.125 -2.065 -2.104 -2.06 -2.097 -2.076 -2.073 -2.127 -2.08 -2.084 -2.101 -2.064 -2.069 -2.104 -2.111 -2.12 -2.079 -2.078 -2.115 -2.101 -2.141 -2.084 -2.09 -2.08 -2.066 -2.065 -2.166 -2.125 -2.114 -2.086 -2.146 -2.065 -2.138 -2.076 -2.105 -2.034 -2.072 -2.071 -2.102 -2.066 -2.081 -2.036 -2.051 -2.057 -2.144 -2.122 -2.046 -2.083 -2.066 -2.093 -2.078 -2.052 -2.079 -2.066 -2.044 -2.055 -2.114 -2.018 -2.101 -2.057 -2.081 -2.051 -2.048 -2.087 -2.047 -2.069 -2.048 -2.019 -2.051 -2.056 -2.038 -2.037 -2.047 -2.137 -2.055 -2.109 -2.142 -2.042 -2.089 -2.072 -2.047 -2.101 -2.071 -2.051 -2.032 -2.162 -2.039 -2.035 -2.009 -2.023 -2.028 -2.033 -2.045 -2.085 -2.028 -2.029 -2.052 -2.048 -2.076 -2.036 -2.097 -2.08 -2.145 -2.108 -2.12 -2.101 -2.036 -2.036 -2.078 -2.107 -2.033 -2.043 -2.098 -2.061 -2.052 -2.094 -2.105 -2.083 -2.107 -2.051 -2.022 -2.084 -2.012 -2 -2.052 -2.054 -2.027 -2.016 -2.112 -2.067 -2.091 -1.947 -2.102 -0.975 -0.726 -0.656 -0.523 -0.381 -0.336 -0.318 -0.308 -0.271 -0.301 -0.121 0.001 -2.152 0.409 0.675 0.904 1.146 1.361 1.369 1.167 0.884 0.868 1.104 1.296 1.039 -9999 1.316 1.088 0.856 0.675 0.473 0.381 0.359 0.558 0.784 0.994 -9999 -2.092 0.713 0.501 0.463 0.398 -2.079 -2.07 -0.124 -0.348 -0.507 -2.123 -0.854 -1.082 -1.001 -0.805 -0.711 -0.625 -0.538 -0.522 -0.575 -0.502 -0.51 -0.557 -0.656 -0.837 -0.923 -1.044 -1.274 -1.449 -1.541 -1.721 -1.922 -2.042 -2.031 -2.016 -2.021 -2.126 -2.044 -2.095 -1.985 -2.008 -2.071 -2.068 -2.07 -2.083 -2.123 -2.101 -2.023 -2.054 -2.037 -1.997 -2.075 -2.086 -2.022 -1.978 -1.987 -2.014 -2.101 -2.032 -2.058 -2.009 -2.021 -2.039 -2.059 -2.076 -2.067 -2.074 -2.041 -2.006 -2.021 -2.03 -2.071 -2.064 -1.992 -2.021 -2.082 -2.081 -2.081 -2.06 -2.005 -2.058 -2.017 -2.064 -2.001 -1.97 -1.99 -2.051 -2.058 -2.027 -2.012 -2.055 -2.063 -2.055 -2.025 -2.065 -2.031 -2.048 -2.047 -2.066 -2.076 -2.044 -2.042 -2.049 -2.049 -2.09 -2.005 -2.024 -1.962 -1.903 -2.03 -2.059 -2.02 -2.022 -2.044 -2.057 -2.018 -2.02 -2.005 -2.031 -2.036 -2.002 -2.006 -2.018 -2.063 -2.019 -2.055 -1.999 -1.995 -2.019 -2.014 -2.06 -2.071 -2.036 -2.03 -1.996 -1.804 -1.616 -1.39 -1.144 -0.903 -0.7 -0.475 -2.028 -2.034 0.218 0.437 0.664 0.88 1.07 1.17 -2.052 0.861
-1.635 -1.649 -1.658 -1.641 -1.646 -1.632 -1.691 -1.701 -1.71 -1.695 -1.75 -1.833 -1.806 -1.778 -1.807 -1.887 -1.792 -1.749 -1.71 -1.767 -1.779 -1.745 -1.75 -1.743 -1.739 -1.749 -1.724 -1.738 -1.726 -1.776 -1.716 -1.745 -1.737 -1.744 -1.766 -1.722 -1.726 -1.707 -1.706 -1.73 -1.695 -1.735 -1.758 -1.784 -1.796 -1.78 -1.803 -1.814 -1.805 -1.818 -1.902 -1.894 -1.881 -1.94 -1.987 -1.986 -1.898 -1.906 -1.921 -1.935 -1.938 -1.909 -1.948 -1.929 -1.973 -1.943 -1.988 -2.049 -2.09 -2.051 -2.074 -2.039 -2.163 -2.142 -2.028 -2.039 -2.001 -2.037 -2.075 -2.096 -2.05 -2.11 -2.075 -2.082 -2.058 -2.077 -2.052 -2.078 -2.01 -2.01 -2.116 -2.077 -2.089 -2.036 -2.043 -2.092 -2.082 -2.089 -2.075 -2.023 -2.029 -2.004 -2.054 -2.145 -2.043 -2.014 -2.043 -2.08 -2.038 -2.032 -2.11 -2.021 -2.042 -2.083 -2.104 -2.122 -2.125 -2.078 -2.089 -2.106 -2.068 -2.171 -2.071 -2.121 -2.121 -2.081 -2.054 -2.089 -2.092 -2.063 -2.022 -2.088 -2.085 -2.015 -2.117 -2.147 -2.095 -2.168 -2.113 -2.091 -2.158 -2.09 -2.106 -2.06 -1.988 -2.052 -2.057 -2.064 -2.103 -2.057 -2.078 -2.054 -2.052 -2.081 -2.089 -2.143 -2.032 -2.058 -2.119 -2.121 -2.099 -2.062 -2.089 -2.092 -2.116 -2.101 -2.046 -2.034 -2.133 -2.086 -2.04 -2.097 -2.077 -2.063 -2.063 -2.094 -2.047 -2.061 -2.079 -2.087 -2.101 -2.12 -2.085 -2.007 -2.089 -2.063 -2.122 -2.051 -2.067 -2.032 -2.074 -2.103 -2.09 -2.056 -2.073 -2.044 -2.114 -2.109 -2.086 -2.056 -2.028 -2.056 -2.058 -2.056 -2.111 -2.087 -2.018 -2.037 -2.024 -2.045 -2.073 -2.15 -2.02 -2.063 -2.091 -2.09 -2.08 -2.052 -2.028 -2.045 -2.069 -2.079 -2.089 -2.08 -2.04 -2.049 -2.087 -2.029 -2.066 -2.044 -2.046 -2.069 -2.052 -2.001 -2.047 -2.039 -2.062 -2.031 -2.085 -2.102 -2.08 -2.078 -2.078 -2.086 -2.043 -2.083 -2.032 -2.15 -2.089 -2.013 -2.026 -2.1 -2.122 -2.049 -2.049 -2.135 -2.068 -2.126 -2.088 -2.038 -2.006 -2.064 -2.055 -2.046 -2.078 -2.032 -2.062 -2.074 -1.583 -1.394 -1.292 -1.118 -0.999 -0.877 -0.697 -0.599 -0.551 -0.536 -2.085 -0.508 -0.465 -0.094 0.089 0.209 0.408 0.625 0.833 1.029 1.126 1.126 1.056 0.806 0.884 1.08 1.305 -1.993 -1.999 1.332 1.09 1.038 0.827 0.583 0.584 0.546 0.538 0.728 0.891 -2.121 -2.046 0.651 0.702 0.655 0.543 -2.067 -1.984 -0.02 -0.246 -0.432 -2.025 -0.754 -0.986 -0.741 -0.611 -0.528 -0.443 -0.335 -0.303 -0.294 -0.31 -0.298 -0.377 -0.482 -0.643 -0.732 -0.915 -1.107 -1.324 -2.114 -2.082 -2.091 -1.995 -2.035 -1.973 -2.008 -2.07 -2.072 -2.125 -2.004 -2.041 -2.079 -2.056 -2.11 -2.108 -2.1 -2.106 -2.064 -2.045 -2.048 -1.991 -2.031 -1.999 -2.006 -2.095 -2.033 -2.011 -2.111 -2.027 -2.024 -2.039 -2.033 -2.05 -2.02 -2.026 -2.155 -2.06 -2.038 -1.999 -2.014 -2.012 -2.063 -2.067 -2.002 -2.043 -2.055 -2.082 -2.032 -1.993 -2.003 -1.976 -2.065 -1.995 -2.008 -1.982 -2.003 -2.062 -2.031 -2.06 -2.004 -2.036 -2.048 -2.008 -2.011 -2.047 -2.042 -2.011 -2.036 -2.09 -2.092 -2.001 -1.977 -2.056 -2.036 -2.087 -1.99 -2.036 -1.984 -1.92 -2.044 -2.058 -2.033 -2.051 -2.032 -2.04 -2.055 -2.028 -1.993 -2.026 -2.013 -2.023 -1.973 -2.046 -2.011 -2.056 -2.014 -2 -2 -2.004 -2.051 -2.037 -2.065 -2.003 -2.001 -1.945 -1.862 -1.677 -1.387 -1.152 -0.929 -0.696 -0.474 -0.243 -0.015 0.154 0.356 0.556 0.737 0.871 0.942 0.873 0.744
-1.66 -1.649 -1.677 -1.662 -1.695 -1.665 -1.682 -1.697 -1.738 -1.722 -1.765 -1.817 -1.818 -1.789 -1.758 -1.772 -1.735 -1.717 -1.716 -1.69 -1.729 -1.702 -1.679 -1.736 -1.732 -1.728 -1.73 -1.745 -1.729 -1.734 -1.708 -1.712 -1.745 -1.732 -1.774 -1.794 -1.774 -1.722 -1.735 -1.728 -1.719 -1.751 -1.733 -1.821 -1.807 -1.783 -1.805 -1.813 -1.839 -1.82 -1.847 -1.85 -1.967 -1.962 -1.935 -1.918 -1.933 -1.918 -1.957 -1.92 -1.915 -1.913 -1.932 -1.962 -1.9 -1.967 -2.029 -2.054 -2.076 -2.059 -2.077 -2.058 -2.071 -2.101 -2.094 -2.082 -2.069 -2.057 -2.056 -2.05 -2.008 -2.043 -2.03 -2.078 -2.042 -2.057 -2.04 -2.092 -2.093 -2.062 -2.099 -2.083 -2.061 -2.073 -2.175 -2.04 -2.061 -2.046 -2.129 -2.113 -2.041 -2.055 -2.063 -2.082 -2.016 -2.004 -2.057 -2.039 -2.031 -2.039 -2.075 -2.023 -2.137 -2.126 -2.127 -2.119 -2.058 -2.143 -2.101 -2.07 -2.059 -2.064 -2.084 -2.18 -2.113 -2.027 -2.079 -2.15 -2.085 -2.142 -2.067 -2.04 -2.107 -2.101 -2.11 -2.069 -2.038 -2.164 -2.168 -2.162 -2.135 -2.042 -2.058 -2.065 -2.009 -2.077 -2.097 -2.124 -2.15 -2.009 -2.073 -2.084 -2.125 -2.083 -2.116 -2.095 -2.109 -2.132 -2.116 -2.121 -2.116 -2.113 -2.03 -2.086 -2.02 -2.064 -2.08 -2.066 -2.108 -2.101 -2.076 -2.091 -2.093 -2.063 -2.09 -2.116 -2.102 -2.054 -2.13 -2.052 -2.122 -2.066 -2.09 -2.083 -2.047 -2.022 -2.078 -2.047 -2.083 -2.104 -2.032 -2.074 -2.033 -2.09 -2.035 -2.04 -2.048 -2.068 -2.043 -2.074 -2.047 -2.076 -2.084 -2.048 -2.078 -2.055 -2.115 -2.063 -2.014 -2.021 -2.06 -2.076 -2 -2.072 -2.066 -2.053 -2.045 -1.971 -2.084 -2.041 -2.025 -2.054 -2.015 -2.057 -2.061 -2.012 -2.062 -2.041 -2.091 -2.004 -2 -2.071 -2.06 -2.055 -2.024 -2.055 -2.078 -2.016 -2.07 -2.086 -2.078 -2.073 -2.041 -2.096 -2.08 -2.115 -2.123 -2.068 -2.054 -1.999 -2.009 -2.104 -2.112 -2.037 -2.089 -2.129 -2.076 -2.13 -2.089 -2.06 -2.097 -2.099 -2.038 -2.11 -2.084 -2.098 -2.075 -2.075 -1.699 -1.498 -1.421 -1.331 -1.193 -1.039 -0.912 -0.851 -0.747 -0.691 -0.717 -0.774 -0.522 -0.314 0.049 0.253 0.446 0.497 0.74 0.867 0.896 0.912 0.844 0.7 0.872 1.028 1.137 1.048 1.05 1.127 1.332 1.145 0.885 0.805 0.818 0.735 0.616 0.587 0.682 0.701 -2.112 0.817 0.927 0.841 0.663 0.484 0.267 0.039 -0.188 -0.378 -0.564 -0.709 -0.74 -0.59 -0.451 -0.361 -0.254 -0.117 -0.073 -0.027 -0.052 -0.08 -0.143 -0.289 -0.465 -0.593 -0.738 -0.926 -1.184 -2.116 -2.066 -2.053 -1.91 -2.023 -2.028 -1.991 -2.075 -2.054 -2.07 -2.054 -2.029 -1.989 -2.014 -2 -2.138 -2.072 -2.094 -2.053 -2.004 -2.074 -2.019 -1.995 -1.989 -2.031 -2.112 -1.94 -1.974 -2.06 -2.046 -1.994 -2.019 -1.984 -2.032 -2.003 -1.999 -2.053 -2.014 -2.027 -1.984 -1.991 -2.009 -2.025 -2.039 -1.994 -2.014 -2.075 -2.077 -2.02 -1.981 -2.048 -1.979 -2.001 -2.082 -2.053 -1.972 -1.983 -2.061 -2.06 -2.076 -2.059 -2.037 -2.053 -2.019 -2.041 -2.023 -2.036 -2.001 -2.045 -2.071 -2.061 -2.064 -2.009 -2.011 -2.064 -2.039 -1.999 -2.053 -2.009 -1.91 -1.978 -2.065 -2.069 -2.02 -2.05 -2.059 -2.046 -2.006 -2.015 -2.018 -2.031 -2.039 -2.002 -2.045 -2.005 -2.051 -2.033 -2.005 -2.027 -2.072 -2.002 -2.056 -2.044 -2.033 -2.018 -1.978 -1.824 -1.659 -1.446 -1.26 -1.002 -0.769 -0.542 -0.338 -0.114 0.055 0.235 0.41 0.572 0.663 0.676 0.644 -2.047
-1.692 -1.691 -1.716 -1.717 -1.706 -1.682 -1.703 -1.699 -1.753 -1.747 -1.723 -1.781 -1.775 -1.704 -1.755 -1.724 -1.698 -1.689 -1.671 -1.67 -1.686 -1.701 -1.686 -1.695 -1.69 -1.7 -1.765 -1.716 -1.746 -1.748 -1.724 -1.73 -1.725 -1.738 -1.771 -1.733 -1.756 -1.772 -1.737 -1.758 -1.715 -1.727 -1.792 -1.831 -1.816 -1.795 -1.823 -1.837 -1.866 -1.868 -1.872 -1.906 -2.005 -1.892 -1.944 -1.931 -1.902 -1.922 -1.924 -1.893 -1.911 -1.932 -1.923 -1.962 -1.947 -2.002 -1.971 -2.058 -2.083 -2.047 -2.064 -2.098 -2.057 -2.1 -2.089 -2.085 -2.07 -2.043 -2.076 -2.097 -2.078 -2.053 -2.031 -2.094 -2.061 -2.107 -2.053 -2.077 -2.071 -2.125 -2.087 -2.098 -2.039 -2.074 -2.038 -2.081 -2.143 -2.163 -2.051 -2.036 -2.028 -2.063 -2.013 -2.028 -1.991 -2.035 -2.058 -1.99 -2.068 -2.099 -2.067 -2.108 -2.053 -2.013 -2.076 -2.114 -2.16 -2.106 -2.084 -2.062 -2.089 -2.141 -2.133 -2.077 -2.06 -2.184 -2.163 -2.08 -2.097 -2.134 -2.087 -2.034 -2.073 -2.113 -2.109 -2.12 -2.119 -2.111 -2.157 -2.103 -2.027 -2.062 -2.077 -2.069 -2.108 -2.019 -2.144 -2.111 -2.114 -2.048 -2.073 -2.094 -2.057 -2.135 -2.069 -2.093 -2.1 -2.027 -2.138 -2.086 -2.091 -2.055 -2.137 -2.075 -2.1 -2.046 -2.1 -2.121 -2.096 -2.065 -2.102 -2.072 -2.081 -2.131 -2.116 -2.071 -2.032 -2.092 -2.137 -2.101 -2.035 -2.061 -2.083 -2.072 -2.053 -2.103 -2.043 -2.057 -2.09 -2.06 -2.054 -2.046 -2.018 -2.142 -2.048 -2.09 -2.156 -2.076 -2.083 -2.033 -2.093 -2.036 -2.063 -2.059 -2.073 -2.093 -2.053 -2.032 -1.968 -2.034 -2.063 -2.079 -2.012 -2.076 -2.059 -2.045 -2.058 -2.059 -2.167 -2.025 -2.061 -2.096 -1.992 -2.147 -2.055 -2.074 -2.04 -2.069 -2.032 -2.087 -2.036 -2.025 -2.105 -2.098 -2.022 -2.046 -2.03 -2.061 -2.067 -2.072 -2.055 -2.075 -2.096 -2.1 -2.074 -2.082 -2.12 -2.121 -2.055 -2.067 -2.063 -2.077 -2.073 -2.039 -2.027 -2.094 -2.029 -2.041 -2.082 -2.042 -2.121 -2.059 -2.026 -2.054 -2.083 -2.052 -2.047 -2.101 -1.864 -1.675 -1.601 -1.494 -1.382 -1.22 -1.166 -1.04 -0.964 -0.879 -0.929 -0.833 -0.636 -0.375 -0.039 0.157 0.223 0.336 0.502 0.663 0.598 0.602 0.6 0.513 0.731 0.858 0.927 0.879 0.86 1.046 1.145 1.025 0.824 0.991 -2.084 0.918 0.764 0.569 0.464 0.492 0.666 0.876 1.137 0.955 0.737 0.529 0.313 0.088 -0.172 -0.375 -2.078 -0.709 -0.589 -0.443 -0.275 -0.13 -0.038 0.082 0.142 0.195 0.165 0.124 0.023 -0.107 -0.316 -0.513 -0.636 -0.788 -1.066 -2.159 -2.062 -1.582 -1.859 -2.061 -2.094 -2.063 -1.988 -2.021 -2.117 -2.04 -2.082 -2.039 -2.053 -2.011 -2.029 -2.08 -2.04 -2.1 -2.027 -2.034 -2.115 -1.999 -2.072 -2.115 -2.056 -1.991 -2 -2.087 -2.147 -2.021 -2.038 -2.077 -2.095 -2.059 -2.044 -2.052 -2.064 -2.041 -2.059 -1.992 -2.033 -2.037 -2.037 -2.075 -1.979 -2.046 -2.073 -2.103 -2.037 -2.012 -2.019 -2.026 -2.151 -2.039 -1.93 -2.024 -2.056 -2.007 -2.084 -2.041 -2.054 -2.055 -2.053 -2.012 -2.001 -2.037 -2.034 -2.065 -1.998 -2.043 -1.988 -2.06 -2.039 -2.034 -2.02 -2.03 -2.066 -2.062 -1.94 -1.944 -2.025 -2.061 -2.03 -2.089 -2.038 -2.059 -2.086 -2.014 -2.03 -2.04 -2.014 -2.04 -2.057 -1.999 -1.999 -2.067 -2.032 -2.037 -2.034 -2.005 -2.083 -2.08 -2.065 -2.02 -2.023 -1.883 -1.715 -1.535 -1.331 -1.057 -0.872 -0.664 -0.447 -0.259 -0.102 0.054 0.231 0.365 0.455 0.447 0.401 -2.087
-1.717 -1.709 -1.714 -1.699 -1.716 -1.713 -1.717 -1.739 -1.747 -1.764 -1.78 -1.743 -1.746 -1.734 -1.734 -1.724 -1.688 -1.646 -1.652 -1.644 -1.647 -1.666 -1.668 -1.664 -1.678 -1.705 -1.753 -1.705 -1.708 -1.727 -1.723 -1.731 -1.738 -1.73 -1.785 -1.791 -1.799 -1.745 -1.749 -1.714 -1.769 -1.756 -1.764 -1.785 -1.806 -1.824 -1.809 -1.825 -1.84 -1.87 -1.921 -1.976 -1.903 -1.938 -1.939 -1.895 -1.893 -1.877 -1.9 -1.907 -1.882 -1.847 -1.889 -1.96 -1.932 -1.976 -1.973 -2.057 -2.101 -2.104 -2.085 -2.072 -2.065 -2.096 -2.148 -2.046 -2.093 -2.017 -2.061 -2.042 -2.038 -2.06 -2.066 -2.016 -2.04 -2.079 -2.092 -2.038 -2.055 -2.031 -2.129 -2.036 -2.013 -2.056 -2.072 -2.083 -2.176 -2.064 -2.128 -2.028 -2.097 -2.093 -2.023 -2.081 -2.055 -2.123 -2.069 -2.038 -2.089 -2.07 -2.097 -2.011 -2.029 -2.08 -2.068 -2.086 -2.063 -2.115 -2.119 -2.104 -2.163 -2.128 -2.039 -2.047 -2.087 -2.138 -2.102 -2.083 -2.117 -2.159 -2.093 -2.07 -2.062 -2.052 -2.139 -2.092 -2.12 -2.113 -2.217 -2.092 -2.083 -2.06 -2.098 -2.098 -2.078 -2.053 -2.069 -2.103 -2.177 -2.094 -2.065 -2.066 -2.149 -2.092 -2.071 -2.054 -2.138 -2.079 -2.203 -2.124 -2.076 -2.059 -2.083 -2.057 -2.092 -2.054 -2.101 -2.116 -2.089 -2.117 -2.068 -2.045 -2.14 -2.081 -2.097 -2.089 -2.044 -2.083 -2.071 -2.089 -2.081 -2.108 -2.105 -2.087 -2.14 -2.076 -2.013 -2.03 -2.03 -2.065 -2.032 -2.028 -2.023 -2.045 -2.054 -2.032 -2.085 -2.056 -2.055 -2.082 -2.056 -2.1 -2.018 -2.055 -2.077 -2.056 -2.062 -2.081 -2.053 -2.041 -2.074 -2.07 -2.066 -2.093 -2.042 -2.061 -2.044 -2.062 -2.043 -2.104 -2.031 -2.083 -2.066 -2.061 -2.044 -2.096 -2.029 -2.014 -2.073 -2.056 -2.084 -2.053 -2.046 -2.054 -2.092 -2.036 -2.066 -2.084 -2.099 -2.004 -2.045 -2.056 -2.057 -2.045 -2.046 -2.067 -2.074 -2.112 -2.071 -2.069 -2.037 -2.035 -2.018 -2.085 -2.056 -2.069 -2.026 -2.038 -2.073 -2.021 -2.023 -2.057 -2.074 -2.106 -2.074 -2.1 -2.054 -2.083 -2.02 -1.86 -1.721 -1.647 -1.589 -1.477 -1.333 -1.234 -1.197 -1.126 -1.157 -0.947 -0.72 -0.462 -0.231 0.023 0.214 0.216 0.43 0.379 0.388 0.392 0.371 0.341 0.539 0.643 0.704 0.672 0.731 0.816 0.873 0.797 0.842 1.041 1.24 0.99 0.757 0.5 0.276 0.445 0.608 0.723 0.872 0.861 -2.082 0.506 0.276 0.054 -0.19 -0.387 -0.496 -2.09 -0.512 -0.28 -0.142 0.05 0.158 0.282 0.362 0.397 0.395 0.305 0.208 0.032 -0.174 -0.373 -0.546 -0.716 -0.936 -1.164 -1.349 -1.518 -1.804 -1.928 -2.039 -1.975 -2.02 -2.083 -2.065 -2.037 -2.117 -2.031 -2.028 -2.033 -2.133 -2.121 -2.011 -2.058 -2.036 -2.027 -2.009 -2.008 -2.023 -2.026 -2.06 -2.041 -1.993 -2.059 -2.101 -1.981 -1.982 -2.003 -2.05 -2.149 -2.088 -2.071 -2.043 -2.063 -2.002 -1.983 -1.962 -1.974 -2.015 -2.024 -2.033 -2.038 -2.072 -2.08 -2.028 -2.023 -1.972 -2.095 -2.064 -2.014 -1.98 -1.954 -2.03 -2.063 -2.098 -2.024 -2.065 -2.034 -2.054 -2.008 -1.994 -1.999 -1.998 -2.056 -2.093 -2.034 -1.986 -2.021 -2.023 -2.102 -2.013 -1.989 -2.023 -2.042 -1.972 -2.017 -2.052 -2.064 -2.016 -1.991 -2.036 -2.06 -2.065 -2.033 -2.034 -2.017 -2.05 -2.015 -2.072 -2.049 -2.031 -2.07 -2.004 -1.988 -2.045 -2.041 -2.028 -2.055 -2.011 -1.944 -2.046 -1.952 -1.793 -1.596 -1.392 -1.161 -0.991 -0.824 -0.606 -0.398 -0.261 -0.13 -0.001 0.147 0.212 0.235 0.17 0.144
-1.7 -1.72 -1.726 -1.705 -1.739 -1.758 -1.731 -1.74 -1.73 -1.768 -1.779 -1.744 -1.767 -1.736 -1.731 -1.715 -1.666 -1.63 -1.638 -1.659 -1.65 -1.651 -1.665 -1.648 -1.705 -1.704 -1.685 -1.713 -1.7 -1.73 -1.769 -1.74 -1.75 -1.769 -1.768 -1.788 -1.787 -1.778 -1.734 -1.725 -1.728 -1.741 -1.743 -1.722 -1.787 -1.787 -1.817 -1.838 -1.813 -1.862 -1.93 -1.886 -1.879 -1.985 -1.957 -1.951 -1.893 -1.851 -1.837 -1.874 -1.869 -1.857 -1.896 -1.902 -1.968 -1.97 -1.987 -2.044 -2.098 -2.024 -2.053 -2.08 -2.051 -2.054 -2.061 -2.064 -2.025 -2.052 -2.12 -2.129 -2.06 -2.065 -2.006 -2.053 -2.056 -2.123 -2.139 -2.123 -2.078 -2.109 -2.093 -2.022 -2.068 -2.107 -2.101 -2.071 -2.098 -2.068 -2.083 -2.085 -2.035 -2.049 -2.042 -2.046 -2.094 -2.148 -2.125 -2.114 -2.11 -2.064 -2.052 -2.038 -2.14 -2.056 -2.081 -2.087 -2.083 -2.093 -2.06 -2.116 -2.03 -2.083 -2.085 -2.092 -2.054 -2.093 -2.031 -2.047 -2.051 -2.089 -2.127 -2.113 -2.1 -2.127 -2.122 -2.114 -2.107 -2.088 -2.134 -2.106 -2.044 -2.081 -2.1 -2.103 -2.093 -2.063 -2.101 -2.145 -2.082 -2.176 -2.17 -2.056 -2.151 -2.073 -2.105 -2.072 -2.135 -2.208 -2.106 -2.063 -2.083 -2.073 -2.15 -2.151 -2.093 -2.067 -2.071 -2.065 -2.142 -2.134 -2.097 -2.036 -2.088 -2.087 -2.125 -2.112 -2.059 -2.018 -2.121 -2.056 -2.114 -2.076 -2.097 -2.064 -2.104 -2.072 -2.086 -2.062 -2.022 -2.043 -2.11 -2.029 -2.093 -2.073 -2.097 -2.063 -2.07 -1.968 -2.074 -2.033 -2.132 -2.083 -2.038 -2.106 -2.057 -2.044 -2.046 -2.049 -2.037 -2.106 -2.089 -2.075 -2.052 -2.067 -2.064 -2.056 -2.086 -2.047 -2.051 -2.041 -2.109 -2.083 -2.054 -2.026 -2.084 -2.045 -2.043 -2.077 -2.105 -2.044 -2.088 -2.06 -2.06 -2.045 -2.078 -2.055 -2.073 -2.091 -2.049 -2.051 -2.095 -2.048 -2.067 -2.021 -2.045 -2.043 -2.101 -2.092 -2.093 -2.071 -2.075 -2.042 -2.065 -2.045 -2.022 -2.067 -2.051 -2.041 -2.11 -2.097 -2.028 -2.088 -2.043 -2.09 -2.084 -2.049 -2.031 -2.087 -2.081 -2.097 -1.83 -1.69 -1.598 -1.627 -1.504 -1.478 -1.406 -1.207 -1.858 -1.034 -0.829 -0.649 -0.273 -0.261 -0.074 -2.093 0.081 0.143 0.181 0.217 0.202 0.168 0.32 0.42 0.553 0.724 0.818 0.826 0.73 0.608 0.815 1.015 1.232 0.993 0.747 0.523 0.296 0.371 0.512 0.602 0.732 0.765 0.622 0.419 0.234 0.063 -0.096 -0.232 -2.108 -0.447 -0.394 -0.164 0.019 0.188 -2.033 0.468 0.561 0.626 0.595 0.528 0.318 0.131 -0.058 -0.224 -0.455 -0.701 -0.878 -1.09 -1.262 -1.454 -1.702 -1.882 -2.099 -2.013 -2.032 -2.154 -2.055 -2.063 -2.062 -2.116 -2.129 -2.052 -1.99 -2.132 -2.083 -2.032 -2.015 -2.012 -2.075 -2.081 -2.021 -1.993 -2.047 -2.074 -1.985 -2.09 -2.072 -2.089 -2.017 -1.941 -2.057 -2.036 -2.032 -2.063 -1.997 -2.114 -2.034 -2.024 -2.05 -2.047 -2.026 -1.998 -2.046 -2.017 -2.053 -2.087 -2.028 -1.956 -2.006 -2.026 -2.072 -2.039 -1.98 -1.929 -1.993 -2.088 -2.082 -1.998 -2.103 -2.024 -2.018 -2.039 -2.044 -1.999 -2.008 -2.019 -2.072 -2.013 -1.987 -1.991 -2.026 -2.105 -2.066 -1.972 -2.026 -2.05 -1.959 -2.002 -2.03 -2.087 -2.03 -1.993 -2.03 -2.051 -2.014 -2.067 -2 -2.037 -2.056 -1.993 -2.039 -2.067 -1.976 -2.012 -1.988 -1.974 -2.004 -2.035 -2.037 -2.065 -2.012 -1.985 -2.002 -2.065 -1.852 -1.693 -1.51 -1.265 -1.083 -0.979 -0.778 -0.566 -0.441 -0.295 -0.174 -0.074 -0.001 0.014 -0.035 -0.113
-1.728 -1.737 -1.741 -1.734 -1.745 -1.725 -1.757 -1.742 -1.735 -1.725 -1.763 -1.739 -1.75 -1.744 -1.757 -1.697 -1.664 -1.643 -1.631 -1.634 -1.626 -1.633 -1.654 -1.655 -1.644 -1.699 -1.739 -1.711 -1.707 -1.709 -1.789 -1.751 -1.752 -1.739 -1.753 -1.72 -1.742 -1.764 -1.726 -1.713 -1.743 -1.74 -1.775 -1.764 -1.8 -1.8 -1.817 -1.843 -1.828 -1.848 -1.906 -1.949 -2.009 -1.889 -1.843 -1.893 -1.881 -1.838 -1.809 -1.846 -1.827 -1.873 -1.905 -1.919 -1.925 -1.939 -1.997 -1.989 -2.027 -2.021 -2.061 -2.093 -2.083 -2.072 -2.127 -2.141 -2.079 -2.04 -2.06 -2.114 -2.057 -2.09 -2.072 -2.091 -2.078 -2.045 -2.066 -2.093 -2.021 -2.052 -2.112 -2.107 -2.088 -2.063 -2.011 -2.091 -2.048 -2.117 -2.093 -2.042 -2.07 -2.16 -2.074 -2.017 -2.07 -2.102 -2.086 -2.115 -2.14 -2.078 -2.058 -2.042 -2.072 -2.076 -2.07 -2.045 -2.082 -2.068 -2.125 -2.153 -2.113 -2.079 -2.109 -2.098 -2.067 -2.038 -2.08 -2.081 -2.092 -2.085 -2.134 -2.076 -2.059 -2.112 -2.072 -2.072 -2.087 -2.098 -2.056 -2.11 -2.062 -2.079 -2.124 -2.111 -2.074 -2.078 -2.095 -2.098 -2.166 -2.134 -2.157 -2.099 -2.12 -2.103 -2.16 -2.089 -2.083 -2.158 -2.099 -2.076 -2.062 -2.164 -2.13 -2.017 -2.073 -2.073 -2.087 -2.049 -2.082 -2.09 -2.088 -2.065 -2.076 -2.082 -2.056 -2.161 -2.097 -2.067 -2.046 -2.066 -2.069 -2.087 -2.052 -2.086 -2.081 -2.096 -2.044 -2.065 -2.08 -2.053 -2.078 -2.093 -2.071 -2.043 -2.142 -2.161 -2.096 -2.052 -2.047 -2.069 -2.07 -2.039 -2.044 -2.035 -2.097 -2.078 -2 -2.111 -2.058 -2.022 -2.073 -2.063 -2.058 -2.072 -2.086 -2.065 -2.107 -2.071 -2.075 -2.024 -2.085 -2.072 -2.035 -2.036 -2.048 -2.036 -2.061 -2.059 -2.051 -2.012 -2.077 -2.076 -2.08 -2.091 -2.021 -2.15 -2.012 -2.107 -2.072 -2.045 -2.042 -2.07 -2.071 -2.035 -2.028 -2.161 -2.08 -2.104 -2.06 -2.092 -2.057 -2.099 -2.046 -2.08 -2.059 -2.018 -2.065 -2.078 -2.074 -2.07 -2.071 -2.062 -2.15 -2.116 -2.047 -2.074 -2.042 -2.083 -2.086 -2.066 -1.983 -1.966 -1.859 -1.838 -1.828 -1.694 -1.677 -1.317 -1.351 -1.119 -0.929 -0.794 -0.536 -0.363 -0.22 -2.051 -0.117 -0.038 -0.015 0.017 -0.057 -0.01 0.188 0.414 0.642 0.847 0.955 1.016 0.879 0.731 0.757 0.946 1.021 0.911 0.703 0.506 0.267 0.251 0.389 0.482 0.592 0.606 0.467 0.345 0.311 0.249 0.117 -2.108 -0.191 -0.327 -0.317 -0.07 0.126 -2.019 -2.017 0.631 0.766 0.815 0.781 0.644 0.379 0.16 0.017 -0.129 -0.392 -0.655 -0.794 -1.031 -1.209 -1.427 -1.684 -1.862 -2.096 -2.029 -2.079 -2.038 -2.054 -2.011 -2.08 -2.076 -2.103 -2.081 -2.027 -2.077 -2.064 -2.114 -2.026 -2.023 -2.064 -2.063 -2.105 -1.982 -2.074 -2.087 -2.107 -1.992 -2.105 -2.087 -2.057 -2.013 -1.997 -2.096 -2.127 -2.111 -1.989 -2.055 -2.025 -2.021 -2.078 -1.994 -1.979 -2.024 -2.05 -2.088 -2.055 -2.042 -2.016 -2.055 -2.023 -2.042 -2.107 -2.052 -2.05 -1.978 -2.024 -2.072 -2.045 -2.079 -2.071 -2.022 -2.027 -2.05 -2.016 -2.04 -1.996 -2.012 -2.057 -2.026 -2.014 -2.023 -2.04 -2.099 -2.055 -1.988 -2.002 -1.998 -2.037 -1.994 -2.039 -1.999 -2.066 -1.982 -1.99 -2.017 -2.012 -2.084 -2.053 -2.056 -2.072 -2.025 -2.016 -1.979 -2.059 -2.031 -2.012 -1.982 -1.949 -2.011 -2.047 -2.083 -2 -2.022 -2.029 -2.007 -1.973 -1.795 -1.643 -1.442 -1.212 -1.077 -0.921 -0.71 -0.572 -0.468 -0.356 -0.273 -0.237 -0.176 -0.227 -0.298
-1.751 -1.721 -1.748 -1.775 -1.727 -1.741 -1.775 -1.75 -1.768 -1.739 -1.792 -1.74 -1.699 -1.676 -1.683 -1.677 -1.649 -1.619 -1.618 -1.625 -1.611 -1.597 -1.642 -1.679 -1.645 -1.673 -1.714 -1.71 -1.727 -1.795 -1.71 -1.76 -1.783 -1.756 -1.77 -1.771 -1.737 -1.747 -1.762 -1.75 -1.704 -1.701 -1.763 -1.757 -1.819 -1.798 -1.773 -1.842 -1.893 -1.876 -1.925 -1.919 -1.992 -1.914 -1.872 -1.846 -1.859 -1.807 -1.773 -1.833 -1.861 -1.878 -1.849 -1.896 -1.896 -1.925 -1.931 -1.984 -1.995 -2 -2.045 -2.019 -2.062 -2.105 -2.099 -2.19 -2.037 -2.052 -2.004 -2.053 -2.145 -2.077 -2.043 -2.042 -2.032 -2.074 -2.091 -2.091 -2.033 -2.07 -2.092 -2.067 -2.013 -2.023 -2.01 -2.019 -2.048 -2.058 -2.048 -2.026 -2.047 -2.071 -2.014 -2.066 -2.064 -2.049 -2.032 -2.11 -2.147 -2.02 -2.067 -2.1 -2.136 -2.092 -2.087 -2.062 -2.046 -2.18 -2.175 -2.066 -2.088 -2.163 -2.068 -2.107 -2.02 -2.055 -2.044 -2.107 -2.064 -2.068 -2.133 -2.135 -2.09 -2.152 -2.096 -2.084 -2.069 -2.082 -2.081 -2.059 -2.157 -2.067 -2.094 -2.108 -2.106 -2.108 -2.124 -2.066 -2.04 -2.166 -2.088 -2.109 -2.099 -2.105 -2.101 -2.063 -2.169 -2.109 -2.112 -2.107 -2.11 -2.116 -2.083 -2.076 -2.065 -2.131 -2.046 -2.085 -2.088 -2.086 -2.098 -2.055 -2.113 -2.066 -2.073 -2.092 -2.063 -2.073 -2.034 -2.077 -2.091 -2.086 -2.103 -2.051 -2.081 -2.076 -2.115 -2.087 -2.067 -2.061 -2.07 -2.113 -2.035 -2.105 -2.08 -2.067 -2.065 -2.066 -2.095 -2.064 -2.098 -2.037 -2.015 -2.064 -2.06 -2.078 -2.087 -2.073 -2.051 -2.079 -2.062 -2.056 -2.071 -2.045 -2.09 -2.026 -2.078 -2.026 -2.091 -2.052 -2.037 -2.103 -2.1 -2.039 -2.072 -2.065 -2.04 -2.05 -2.083 -2.06 -2.062 -2.055 -2.091 -2.086 -2.063 -2.088 -2.076 -2.068 -2.123 -2.088 -2.059 -2.048 -2.038 -2.09 -2.054 -2.086 -2.053 -2.04 -2.083 -2.072 -2.101 -2.045 -2.079 -2.114 -2.027 -2.055 -2.132 -2.086 -2.086 -2.093 -2.066 -2.086 -2.095 -2.073 -2.029 -2.071 -2.125 -2.151 -2.06 -2.044 -1.998 -1.986 -2.054 -2.081 -2.041 -1.966 -1.815 -1.612 -1.433 -1.262 -1.091 -0.939 -0.687 -0.529 -0.438 -0.348 -0.311 -0.264 -0.231 -0.237 -0.258 -0.005 0.209 0.482 0.676 0.925 1.071 1.267 1.013 -2.06 0.617 0.786 0.821 0.755 0.614 -2.06 0.195 0.063 0.202 0.287 0.333 0.437 0.545 0.578 0.554 0.443 0.283 -2.073 -1.83 -0.225 -0.284 -0.019 -2.055 -2.117 -2.099 0.757 0.938 1.016 0.93 0.737 0.444 0.222 0.069 -0.086 -0.31 -0.519 -0.742 -0.918 -1.195 -1.436 -1.561 -1.802 -2.172 -2.026 -2.056 -2.053 -2.042 -1.986 -2.013 -2.021 -2.134 -2.06 -1.948 -2.043 -2.05 -2.12 -2.006 -2.018 -2.05 -2.104 -2.103 -2.003 -2.049 -2.112 -2.071 -2.067 -2.038 -2.025 -2 -2.052 -2.054 -2.032 -2.034 -2.05 -2.01 -2.046 -2.072 -2.038 -2.072 -2.036 -1.985 -2.011 -2.048 -2.088 -2.038 -2.022 -1.989 -2.034 -2.061 -1.996 -2.096 -2.033 -1.991 -1.963 -1.976 -2.026 -1.999 -2.035 -2.008 -2.047 -2.09 -1.989 -2.052 -2.087 -2.002 -2.01 -2.021 -2.109 -2.012 -1.976 -1.996 -2.102 -2.066 -2.001 -1.971 -2.008 -1.993 -2.005 -2.041 -1.991 -2.089 -2.025 -1.99 -2.018 -2.002 -2.045 -2.044 -2.055 -2.036 -2.031 -2.018 -2.001 -2.019 -2.061 -2.036 -1.985 -1.989 -1.983 -2.002 -2.081 -2.061 -1.996 -2.057 -2.003 -2.02 -1.894 -1.76 -2.055 -1.389 -1.229 -1.023 -0.88 -0.764 -0.671 -0.57 -0.493 -0.436 -0.393 -0.454 -0.51
-1.76 -1.746 -1.732 -1.753 -1.728 -1.744 -1.741 -1.755 -1.766 -1.77 -1.784 -1.724 -1.716 -1.681 -1.678 -1.673 -1.654 -1.638 -1.616 -1.601 -1.577 -1.568 -1.625 -1.655 -1.674 -1.665 -1.694 -1.752 -1.828 -1.803 -1.77 -1.774 -1.757 -1.743 -1.838 -1.769 -1.731 -1.785 -1.762 -1.733 -1.719 -1.712 -1.732 -1.784 -1.827 -1.794 -1.857 -1.815 -1.844 -1.939 -1.955 -1.911 -1.954 -1.883 -1.858 -1.81 -1.84 -1.845 -1.844 -1.853 -1.848 -1.846 -1.839 -1.844 -1.902 -1.97 -1.956 -1.977 -1.963 -2.037 -2.019 -2.089 -2.06 -2.019 -2.083 -2.072 -2.073 -2.048 -2.066 -2.068 -2.071 -2.086 -2.066 -2.011 -2.079 -2.071 -2.088 -2.094 -2.08 -2.05 -2.089 -2.101 -2.064 -2.022 -2.04 -2.078 -2.091 -2.028 -2.095 -2.053 -2.044 -2.093 -2.099 -2.045 -2.093 -2.054 -2.023 -1.996 -2.053 -2.055 -2.043 -2.143 -2.042 -2.057 -2.097 -2.003 -2.043 -2.146 -2.092 -1.984 -2.048 -2.138 -2.069 -2.092 -2.055 -2.045 -2.072 -2.095 -2.056 -2.064 -2.085 -2.146 -2.045 -2.064 -2.093 -2.085 -2.111 -2.11 -2.11 -2.09 -2.111 -2.05 -2.113 -2.088 -2.054 -2.105 -2.176 -2.079 -2.041 -2.1 -2.061 -2.086 -2.072 -2.025 -2.092 -2.109 -2.102 -2.03 -2.063 -2.127 -2.121 -2.044 -2.086 -2.12 -2.115 -2.125 -2.083 -2.078 -2.046 -2.128 -2.116 -2.023 -1.999 -2.053 -2.017 -2.052 -2.065 -2.084 -2.088 -2.042 -2.083 -2.046 -2.074 -2.091 -2.086 -2.062 -2.124 -2.112 -2.002 -2.071 -2.069 -2.044 -2.015 -2.042 -2.031 -2.057 -2.076 -2.057 -2.074 -2.078 -2.061 -2.039 -2.094 -2.042 -2.037 -2.049 -2.063 -2.052 -2.051 -2.072 -2.076 -2.11 -2.06 -2.069 -2.063 -2.06 -2.031 -2.026 -2.037 -2.082 -2.064 -2.093 -2.098 -2.054 -2.022 -2.06 -2.041 -2.023 -2.053 -2.077 -2.09 -2.034 -2.028 -2.061 -2.067 -2.112 -2.079 -2.086 -2.059 -2.039 -2.054 -2.042 -2.063 -2.036 -2.059 -2.033 -2.062 -2.088 -2.085 -2.082 -2.026 -2.066 -2.072 -2.152 -2.007 -2.033 -2.05 -2.118 -2.089 -2.107 -2.092 -2.097 -2.096 -2.033 -2.108 -2.058 -2.092 -2.073 -2.039 -2.092 -2.034 -2.044 -1.97 -2.096 -2.07 -2.098 -1.947 -1.72 -1.605 -1.446 -1.236 -1.112 -0.923 -0.586 -0.629 -0.547 -0.549 -0.473 -0.454 -0.44 -0.247 -0.035 0.179 0.408 0.595 0.901 1.121 1.317 1.06 0.802 0.57 0.544 0.614 0.608 0.605 -2.07 0.379 0.242 0.088 0.22 0.381 0.536 0.702 0.784 0.727 0.582 0.395 -2.059 -2.116 -2.121 -0.293 -2.079 0.206 -2.055 -2.02 -2.06 -2.269 1.24 1.02 0.798 0.529 0.303 0.112 -0.076 -0.305 -0.517 -0.752 -0.967 -1.172 -1.375 -1.626 -1.799 -2.072 -2.073 -2.039 -2.036 -2.057 -2.117 -2.028 -2.049 -2.065 -2.118 -2.025 -2.156 -2.017 -2.114 -2.018 -2.06 -2.073 -2.059 -2.122 -2.051 -2.004 -2.108 -2.029 -2.055 -2.032 -2.061 -2.032 -2.089 -2.037 -2.025 -2.103 -2.089 -2.046 -2.093 -2.055 -2.028 -2.083 -2.074 -2.001 -1.994 -2.011 -2.068 -2.072 -2.07 -2.006 -1.999 -2.045 -2.031 -2.027 -2.064 -1.97 -1.971 -1.975 -2.028 -2.04 -2.041 -2.013 -2.045 -2.072 -1.983 -2.049 -2.097 -1.995 -1.992 -2.041 -2.031 -2.042 -1.998 -2.032 -2.112 -2.137 -2.021 -1.992 -2.018 -2.008 -1.993 -2.07 -2.064 -2.099 -2.01 -1.994 -2.019 -1.947 -2.052 -2.058 -2.043 -2.04 -2.073 -1.998 -2.038 -2.017 -2.054 -2.048 -2.04 -1.981 -2.033 -2.005 -2.07 -2.03 -2.004 -2.035 -2.035 -2.078 -2.047 -1.908 -1.726 -1.485 -1.373 -1.186 -1.073 -0.966 -0.83 -0.739 -0.725 -0.65 -0.658 -0.717 -0.713
