ncols 493
nrows 32
xllcorner    461008
yllcorner    87922
cellsize     2
NODATA_value -9999
3.946 3.881 3.916 4.026 4.049 4.036 4.104 4.191 4.274 4.374 4.474 4.564 4.616 4.696 4.686 4.611 4.741 4.686 4.666 4.606 4.591 4.539 4.471 4.519 4.521 4.476 4.446 4.401 4.351 4.271 4.269 4.251 4.226 4.164 4.144 4.079 4.021 3.959 3.854 3.639 3.526 3.549 3.606 3.571 3.499 3.491 3.454 3.591 3.596 3.519 3.454 3.426 3.366 3.299 3.314 3.214 3.151 3.069 3.046 2.996 2.961 2.876 2.729 2.434 2.144 2.099 2.089 2.279 2.741 3.066 3.204 3.229 3.336 3.434 3.531 3.619 3.681 3.766 3.801 3.829 3.831 3.889 3.934 4.006 3.941 3.881 3.864 3.799 3.726 3.681 3.694 3.634 3.539 3.499 3.506 3.466 3.469 3.421 3.364 3.259 3.286 3.334 3.331 3.186 3.021 2.999 2.801 2.834 2.889 2.684 2.729 2.609 2.611 2.536 2.576 2.626 2.564 2.354 2.151 1.944 1.931 2.029 1.959 1.866 1.836 1.809 1.736 1.774 1.881 2.034 1.864 1.894 2.196 2.069 2.039 2.119 1.856 1.769 1.826 1.879 1.934 1.999 2.034 2.026 2.079 2.144 2.189 2.271 2.289 2.334 2.381 2.391 2.434 2.449 2.481 2.536 2.536 2.556 2.599 2.634 2.659 2.679 2.721 2.794 2.824 2.826 2.874 2.901 2.946 2.969 2.969 2.981 3.041 3.076 3.139 3.161 3.174 3.201 3.239 3.229 3.291 3.301 3.349 3.329 3.419 3.419 3.431 3.489 3.494 3.519 3.481 3.514 3.629 3.659 3.911 4.239 4.411 4.551 4.704 4.761 4.759 4.789 4.786 4.796 4.836 4.896 4.909 4.921 4.921 4.904 4.919 4.896 4.926 4.806 4.574 4.246 4.001 3.861 3.811 3.794 3.789 3.766 3.746 3.751 3.721 3.679 3.669 3.719 3.771 3.781 3.764 3.729 3.641 3.549 3.441 3.491 3.446 3.406 3.319 3.296 3.289 3.286 3.311 3.321 3.226 3.199 3.171 3.176 3.156 3.114 3.044 3.009 3.014 2.984 2.899 2.886 2.849 2.909 3.429 2.854 2.651 2.611 2.501 2.424 2.366 2.306 2.279 2.239 2.136 2.071 1.999 1.929 1.869 1.829 1.701 1.694 1.689 1.589 1.571 1.669 1.769 1.816 1.984 1.649 0.841 0.136 0.824 1.754 1.221 1.156 1.161 1.211 1.184 1.014 0.886 0.746 0.669 0.589 0.606 0.621 0.716 0.851 0.859 0.741 0.611 0.556 0.661 0.776 0.811 0.754 0.741 0.779 0.784 0.754 0.749 0.789 0.744 0.659 0.646 0.626 0.639 0.659 0.596 0.584 0.571 0.529 0.556 0.594 0.619 0.631 0.609 0.444 0.339 0.381 0.524 0.534 0.606 0.649 0.689 0.701 0.736 0.729 0.711 0.631 0.596 0.586 0.521 0.541 0.621 0.701 0.716 0.706 0.756 0.789 0.771 0.596 0.581 0.709 0.784 0.786 0.774 0.741 0.729 0.714 0.696 0.701 0.701 0.619 0.496 0.476 0.489 0.576 0.684 0.714 0.739 0.719 0.754 0.779 0.779 0.806 0.809 0.791 0.741 0.766 0.819 0.709 0.679 0.681 0.716 0.759 0.694 0.644 0.581 0.501 0.441 0.454 0.406 0.411 0.231 0.261 0.689 1.269 2.354 1.611 1.226 0.684 0.331 0.279 0.261 0.279 0.286 0.279 0.309 0.301 0.296 0.284 0.231 0.329 0.294 0.284 0.169 0.071 0.176 0.271 0.279 0.271 0.271 0.276 0.239 0.226 0.231 0.206 0.196 0.156 0.119 0.039 0.044 0.111 0.131 0.099 0.151 0.141 0.124 0.164 0.216 0.243 0.282 0.289 0.3 0.299 0.316 0.324 0.32 0.283 0.282 0.28 0.255 0.246 0.279 0.29 0.189 0.059 0.004 -0.043 -0.149 -0.042 0.014 0.06 0.115 0.197 0.206 0.24 0.246 0.297 0.291 0.279 0.314 0.327 0.333 0.334 0.301 0.315 0.355 0.365 0.393 0.363 0.396 0.411 0.419 0.429 0.441 0.649 0.796
4.046 4.009 4.031 4.036 3.976 4.056 4.136 4.216 4.179 4.209 4.324 4.406 4.424 4.496 4.596 4.621 4.631 4.469 4.526 4.521 4.574 4.554 4.496 4.501 4.541 4.479 4.451 4.384 4.331 4.269 4.234 4.254 4.226 4.184 4.131 4.056 4.004 3.931 3.756 3.719 3.674 3.686 3.664 3.584 3.509 3.486 3.519 3.586 3.691 3.654 3.604 3.604 3.471 3.369 3.304 3.259 3.181 3.091 3.051 2.976 2.916 2.906 2.814 2.744 2.476 2.286 2.111 2.116 2.194 2.599 2.976 3.134 3.224 3.349 3.496 3.586 3.619 3.659 3.684 3.706 3.689 3.721 3.789 3.881 3.841 3.774 3.699 3.639 3.616 3.516 3.564 3.491 3.491 3.406 3.436 3.451 3.499 3.429 3.339 3.261 3.229 3.296 3.304 3.289 3.176 3.089 2.971 2.806 2.739 2.666 2.619 2.629 2.574 2.629 2.656 2.581 2.641 2.589 2.389 2.189 2.179 2.149 2.044 1.961 1.879 2.001 1.824 1.989 2.116 2.111 1.966 2.046 2.176 2.106 2.096 2.179 2.129 1.844 1.864 1.916 1.961 2.016 2.034 2.064 2.084 2.161 2.201 2.291 2.311 2.339 2.401 2.426 2.454 2.486 2.489 2.514 2.559 2.591 2.616 2.649 2.669 2.699 2.751 2.816 2.846 2.851 2.911 2.921 2.974 2.994 3.004 3.004 3.031 3.079 3.136 3.144 3.161 3.196 3.224 3.201 3.299 3.326 3.384 3.396 3.409 3.406 3.439 3.521 3.526 3.531 3.679 3.731 3.996 4.254 4.449 4.589 4.679 4.709 4.736 4.766 4.756 4.809 4.844 4.876 4.886 4.934 4.934 4.936 4.889 4.839 4.856 4.774 4.599 4.151 3.831 3.734 3.726 3.781 3.784 3.751 3.744 3.744 3.681 3.739 3.701 3.676 3.719 3.859 3.804 3.706 3.666 3.601 3.541 3.536 3.446 3.439 3.419 3.336 3.286 3.259 3.226 3.214 3.274 3.319 3.219 3.221 3.116 3.119 3.084 3.059 3.029 2.956 2.959 2.929 2.851 2.806 2.794 2.819 2.906 2.664 2.641 2.559 2.491 2.396 2.336 2.266 2.246 2.206 2.106 2.094 2.271 2.061 1.941 1.786 1.656 1.629 1.581 1.539 1.531 1.604 1.671 1.786 1.826 1.389 0.709 0.211 1.226 1.491 1.201 1.156 1.209 1.226 1.119 0.996 0.851 0.731 0.654 0.606 0.589 0.646 0.751 0.861 0.826 0.671 0.579 0.589 0.666 0.754 0.761 0.746 0.749 0.754 0.736 0.756 0.776 0.746 0.739 0.716 0.674 0.621 0.626 0.659 0.586 0.626 0.591 0.556 0.549 0.626 0.676 0.659 0.594 0.491 0.351 0.359 0.514 0.546 0.629 0.726 0.691 0.666 0.706 0.694 0.706 0.616 0.549 0.554 0.514 0.521 0.616 0.669 0.689 0.724 0.744 0.799 0.774 0.614 0.576 0.709 0.769 0.796 0.764 0.736 0.709 0.671 0.696 0.746 0.761 0.681 0.566 0.496 0.479 0.524 0.614 0.689 0.744 0.729 0.726 0.699 0.731 0.761 0.781 0.784 0.744 0.771 0.821 0.759 0.709 0.669 0.671 0.709 0.704 0.659 0.606 0.549 0.494 0.451 0.444 0.439 0.366 0.299 0.659 1.184 1.696 1.604 0.964 0.586 0.336 0.284 0.254 0.266 0.256 0.269 0.236 0.284 0.299 0.304 0.274 0.201 0.121 0.111 0.136 0.181 0.244 0.276 0.289 0.264 0.274 0.274 0.269 0.281 0.284 0.226 0.221 0.199 0.194 0.156 0.171 0.181 0.199 0.246 0.274 0.239 0.249 0.271 0.321 0.327 0.335 0.349 0.341 0.379 0.356 0.339 0.337 0.294 0.287 0.297 0.299 0.354 0.361 0.299 0.282 0.184 0.042 0 -0.087 0.008 -0.018 0.009 0.042 0.084 0.146 0.214 0.256 0.304 0.292 0.286 0.306 0.296 0.31 0.322 0.303 0.313 0.346 0.358 0.381 0.361 0.394 0.399 0.429 0.474 0.499 0.736 0.756
4.104 4.074 4.024 3.964 3.966 4.041 4.159 4.156 4.211 4.211 4.211 4.176 4.296 4.394 4.539 4.586 4.464 4.341 4.461 4.524 4.576 4.511 4.479 4.471 4.476 4.471 4.424 4.381 4.316 4.269 4.276 4.254 4.196 4.196 4.139 4.074 4.044 3.966 3.816 3.766 3.759 3.754 3.681 3.596 3.574 3.609 3.624 3.609 3.644 3.676 3.689 3.691 3.599 3.469 3.384 3.304 3.249 3.131 3.066 3.014 2.956 2.919 2.834 2.816 2.801 2.709 2.276 2.114 2.111 2.151 2.424 2.751 3.026 3.166 3.384 3.551 3.614 3.604 3.644 3.634 3.609 3.651 3.689 3.811 3.739 3.696 3.596 3.521 3.469 3.529 3.444 3.341 3.391 3.361 3.321 3.419 3.431 3.436 3.369 3.246 3.221 3.239 3.234 3.224 3.209 3.126 3.031 2.951 2.846 2.804 2.716 2.664 2.609 2.831 2.734 2.649 2.714 2.684 2.571 2.394 2.306 2.256 2.144 2.194 2.049 2.054 2.019 2.306 2.251 2.244 2.184 2.239 2.269 2.164 2.174 2.279 2.221 2.034 1.894 1.929 1.959 2.019 2.036 2.099 2.121 2.211 2.211 2.281 2.326 2.349 2.389 2.424 2.481 2.509 2.514 2.551 2.566 2.631 2.666 2.664 2.716 2.711 2.749 2.816 2.859 2.869 2.909 2.936 2.941 2.966 3.009 3.034 3.051 3.084 3.124 3.121 3.199 3.231 3.281 3.259 3.321 3.359 3.331 3.369 3.439 3.439 3.499 3.741 3.824 3.941 4.279 4.414 4.521 4.579 4.661 4.689 4.684 4.731 4.754 4.791 4.814 4.851 4.889 4.881 4.881 4.881 4.869 4.871 4.781 4.574 4.351 4.094 3.876 3.719 3.679 3.706 3.719 3.761 3.731 3.669 3.689 3.699 3.654 3.699 3.674 3.744 3.789 3.829 3.676 3.609 3.524 3.619 3.916 3.801 3.411 3.381 3.329 3.291 3.291 3.201 3.226 3.236 3.186 3.229 3.209 3.144 3.059 3.029 3.071 3.059 2.984 2.936 2.894 2.874 2.831 2.851 2.756 2.681 2.694 2.669 2.544 2.474 2.419 2.366 2.291 2.204 2.139 2.141 2.221 2.686 3.151 3.044 2.454 1.859 1.599 1.549 1.541 1.491 1.504 1.606 1.696 1.764 1.651 1.231 0.604 0.339 0.956 1.169 1.089 1.106 1.191 1.194 1.069 0.944 0.841 0.766 0.666 0.646 0.609 0.649 0.799 0.859 0.744 0.621 0.589 0.581 0.666 0.776 0.779 0.744 0.739 0.739 0.736 0.756 0.764 0.789 0.761 0.759 0.701 0.604 0.561 0.584 0.591 0.614 0.599 0.581 0.586 0.684 0.729 0.686 0.614 0.481 0.361 0.336 0.449 0.539 0.714 0.731 0.624 0.591 0.581 0.654 0.709 0.599 0.544 0.511 0.489 0.551 0.616 0.671 0.696 0.716 0.751 0.794 0.786 0.619 0.574 0.644 0.751 0.796 0.756 0.756 0.711 0.681 0.701 0.674 0.699 0.699 0.631 0.541 0.504 0.486 0.561 0.596 0.674 0.739 0.756 0.736 0.746 0.746 0.761 0.756 0.749 0.746 0.761 0.761 0.731 0.681 0.651 0.671 0.681 0.649 0.606 0.551 0.509 0.481 0.481 0.459 0.336 0.201 0.626 1.256 1.691 1.574 0.951 0.514 0.296 0.241 0.231 0.236 0.254 0.261 0.239 0.249 0.236 0.146 0.066 0.126 0.171 0.109 0.096 0.134 0.236 0.239 0.261 0.294 0.294 0.299 0.286 0.291 0.281 0.254 0.264 0.261 0.271 0.251 0.274 0.284 0.289 0.329 0.296 0.296 0.319 0.326 0.356 0.374 0.362 0.377 0.365 0.355 0.363 0.361 0.336 0.305 0.29 0.325 0.361 0.357 0.33 0.326 0.328 0.319 0.171 0.09 0.055 0.033 -0.008 0.014 -0.002 0.048 0.08 0.164 0.2 0.291 0.306 0.286 0.304 0.323 0.34 0.315 0.313 0.326 0.344 0.369 0.394 0.389 0.396 0.396 0.431 0.476 0.546 0.771 0.706
4.146 4.039 3.976 3.899 4.004 4.089 4.149 4.221 4.274 4.211 4.179 4.154 4.149 4.236 4.386 4.466 4.431 4.299 4.366 4.481 4.489 4.489 4.439 4.441 4.399 4.429 4.389 4.321 4.286 4.309 4.256 4.224 4.226 4.194 4.124 4.049 3.981 3.876 3.826 3.761 3.761 3.724 3.686 3.624 3.661 3.621 3.646 3.756 3.691 3.724 3.696 3.716 3.606 3.521 3.491 3.426 3.324 3.261 3.176 3.074 3.039 3.024 2.949 2.879 2.824 2.854 2.801 2.579 2.401 2.199 2.114 2.234 2.509 2.866 3.131 3.399 3.549 3.569 3.556 3.506 3.476 3.531 3.574 3.654 3.694 3.556 3.486 3.414 3.374 3.431 3.439 3.419 3.364 3.326 3.301 3.344 3.289 3.311 3.304 3.219 3.139 3.089 3.094 3.066 3.044 3.029 2.991 3.034 2.989 2.789 2.751 2.651 2.649 2.796 2.731 2.751 2.761 2.816 2.721 2.644 2.506 2.416 2.321 2.336 2.324 2.304 2.259 2.411 2.459 2.436 2.396 2.399 2.304 2.296 2.246 2.296 2.236 2.279 2.041 1.929 1.954 2.019 2.056 2.124 2.151 2.206 2.244 2.279 2.336 2.384 2.394 2.416 2.471 2.514 2.544 2.584 2.596 2.619 2.664 2.654 2.714 2.734 2.766 2.804 2.871 2.894 2.926 2.949 2.981 2.979 3.026 3.051 3.029 3.079 3.134 3.174 3.196 3.234 3.311 3.286 3.339 3.344 3.389 3.404 3.406 3.584 3.864 4.214 4.346 4.496 4.604 4.586 4.626 4.626 4.639 4.659 4.684 4.734 4.776 4.816 4.874 4.886 4.901 4.906 4.824 4.691 4.634 4.499 4.194 3.876 3.754 3.721 3.754 3.674 3.699 3.654 3.681 3.699 3.661 3.591 3.601 3.654 3.644 3.709 3.741 3.716 3.699 3.609 3.544 3.486 3.434 3.756 4.211 3.991 3.434 3.296 3.226 3.241 3.244 3.181 3.149 3.124 3.246 3.419 3.159 3.141 3.056 2.949 2.961 2.946 2.904 2.844 2.841 2.964 2.779 2.851 2.706 2.676 2.631 2.604 2.539 2.449 2.394 2.314 2.264 2.226 2.091 2.061 2.346 3.191 3.391 3.209 2.594 1.911 1.581 1.504 1.489 1.464 1.534 1.634 1.754 1.796 1.601 1.041 0.346 0.346 0.844 1.019 0.976 1.051 1.201 1.146 1.051 0.939 0.809 0.714 0.679 0.619 0.626 0.681 0.821 0.831 0.701 0.596 0.574 0.581 0.731 0.779 0.751 0.746 0.736 0.731 0.704 0.744 0.766 0.786 0.806 0.791 0.729 0.606 0.531 0.509 0.551 0.576 0.604 0.546 0.576 0.624 0.639 0.606 0.559 0.459 0.386 0.361 0.344 0.411 0.661 0.689 0.559 0.504 0.524 0.576 0.694 0.694 0.531 0.446 0.521 0.581 0.589 0.666 0.689 0.646 0.729 0.816 0.801 0.634 0.569 0.596 0.696 0.776 0.776 0.714 0.709 0.709 0.686 0.644 0.669 0.676 0.729 0.664 0.541 0.494 0.489 0.496 0.556 0.704 0.746 0.721 0.746 0.739 0.756 0.761 0.761 0.749 0.756 0.764 0.711 0.699 0.681 0.679 0.656 0.616 0.576 0.584 0.496 0.474 0.426 0.546 0.266 0.201 1.006 2.131 2.136 1.539 0.906 0.474 0.314 0.251 0.244 0.246 0.266 0.239 0.169 0.094 0.071 0.179 0.274 0.244 0.184 0.141 0.121 0.149 0.141 0.171 0.246 0.299 0.296 0.286 0.291 0.321 0.316 0.291 0.254 0.329 0.369 0.364 0.381 0.346 0.356 0.356 0.364 0.344 0.344 0.364 0.381 0.401 0.386 0.384 0.375 0.353 0.362 0.351 0.347 0.328 0.31 0.331 0.356 0.359 0.348 0.359 0.356 0.328 0.287 0.196 0.121 0.102 0.07 0.041 0.006 0.142 0.043 0.066 0.154 0.25 0.315 0.331 0.319 0.336 0.319 0.306 0.319 0.304 0.319 0.334 0.359 0.389 0.404 0.451 0.451 0.424 0.646 0.731 0.724
4.041 4.011 3.874 3.726 3.974 4.124 4.186 4.204 4.261 4.121 4.144 4.174 4.076 4.096 4.194 4.266 4.341 4.296 4.279 4.369 4.439 4.421 4.409 4.409 4.384 4.349 4.329 4.291 4.271 4.339 4.256 4.224 4.226 4.184 4.126 4.064 3.974 3.921 3.814 3.756 3.724 3.726 3.761 3.674 3.646 3.656 3.651 3.754 3.799 3.739 3.686 3.646 3.589 3.501 3.541 3.499 3.399 3.341 3.251 3.149 3.069 3.019 2.974 2.906 2.911 2.904 2.891 2.876 2.879 2.671 2.176 2.164 2.166 2.341 2.694 3.056 3.289 3.414 3.426 3.391 3.371 3.386 3.439 3.474 3.459 3.426 3.379 3.329 3.306 3.351 3.431 3.434 3.376 3.389 3.316 3.264 3.194 3.151 3.104 2.999 2.959 2.999 2.981 2.971 2.904 2.909 2.876 2.821 2.901 2.676 2.711 2.696 2.704 2.764 2.774 2.794 2.851 2.906 2.954 2.796 2.621 2.511 2.579 2.434 2.424 2.519 2.514 2.584 2.591 2.546 2.551 2.564 2.454 2.441 2.264 2.264 2.321 2.394 2.179 2.014 1.979 2.049 2.061 2.126 2.159 2.216 2.251 2.294 2.349 2.394 2.431 2.449 2.479 2.516 2.551 2.599 2.649 2.631 2.646 2.709 2.759 2.774 2.754 2.799 2.871 2.916 2.941 2.946 2.969 2.961 3.019 3.031 3.041 3.099 3.139 3.166 3.209 3.256 3.304 3.346 3.419 3.474 3.446 3.659 3.924 4.176 4.374 4.481 4.554 4.586 4.614 4.606 4.649 4.634 4.614 4.654 4.684 4.709 4.744 4.786 4.789 4.819 4.659 4.461 4.236 3.926 3.826 3.769 3.651 3.644 3.631 3.669 3.679 3.664 3.646 3.584 3.609 3.614 3.616 3.569 3.594 3.646 3.666 3.724 3.679 3.674 3.596 3.506 3.539 3.431 3.334 4.371 4.234 3.809 3.336 3.251 3.224 3.184 3.199 3.156 3.126 3.074 3.204 3.284 3.094 3.114 3.039 2.934 2.966 2.894 2.836 2.799 2.819 2.854 2.751 2.684 2.656 2.674 2.594 2.551 2.494 2.366 2.294 2.231 2.176 2.126 2.064 1.956 2.181 3.129 3.454 2.891 2.244 1.736 1.504 1.464 1.434 1.474 1.581 1.746 1.819 1.769 1.361 0.684 0.199 0.521 0.904 0.996 0.951 1.044 1.154 1.091 0.966 0.871 0.741 0.671 0.631 0.606 0.646 0.701 0.854 0.781 0.676 0.576 0.584 0.601 0.631 0.699 0.681 0.651 0.681 0.714 0.684 0.711 0.714 0.726 0.736 0.721 0.674 0.586 0.546 0.564 0.561 0.536 0.571 0.514 0.481 0.499 0.491 0.499 0.546 0.534 0.516 0.464 0.386 0.354 0.491 0.594 0.566 0.496 0.519 0.536 0.599 0.609 0.526 0.501 0.576 0.624 0.589 0.554 0.571 0.566 0.716 0.829 0.829 0.694 0.581 0.554 0.649 0.796 0.794 0.719 0.721 0.664 0.661 0.631 0.631 0.641 0.731 0.721 0.534 0.511 0.509 0.511 0.489 0.529 0.584 0.624 0.629 0.629 0.649 0.736 0.771 0.739 0.744 0.736 0.699 0.656 0.674 0.661 0.671 0.641 0.614 0.601 0.549 0.504 0.444 0.549 0.381 0.241 1.524 2.734 1.676 1.494 0.854 0.459 0.289 0.244 0.196 0.171 0.124 0.121 0.161 0.196 0.231 0.274 0.296 0.249 0.239 0.169 0.181 0.159 0.179 0.206 0.244 0.289 0.296 0.296 0.294 0.321 0.321 0.341 0.311 0.321 0.386 0.421 0.411 0.381 0.391 0.374 0.366 0.361 0.361 0.389 0.396 0.401 0.369 0.371 0.367 0.359 0.364 0.371 0.365 0.323 0.29 0.304 0.335 0.346 0.342 0.34 0.338 0.333 0.305 0.329 0.231 0.179 0.137 0.069 0.051 0.114 0.115 0.02 0.044 0.126 0.189 0.296 0.354 0.331 0.309 0.341 0.344 0.324 0.319 0.329 0.336 0.374 0.401 0.411 0.396 0.469 0.739 0.711 0.749
3.996 3.931 3.779 3.816 3.984 4.089 4.204 4.209 4.144 4.069 4.091 4.161 4.116 4.074 4.096 4.154 4.204 4.261 4.171 4.224 4.309 4.359 4.391 4.351 4.309 4.246 4.279 4.279 4.299 4.334 4.274 4.236 4.196 4.206 4.119 4.016 3.954 3.979 3.829 3.786 3.791 3.759 3.749 3.664 3.689 3.686 3.749 3.724 3.714 3.666 3.599 3.631 3.579 3.586 3.619 3.546 3.491 3.354 3.311 3.244 3.151 3.051 2.969 2.976 2.971 2.966 2.964 2.949 2.934 2.809 2.514 2.246 2.166 2.194 2.304 2.519 2.834 3.094 3.244 3.261 3.296 3.389 3.331 3.309 3.321 3.364 3.321 3.269 3.296 3.329 3.306 3.356 3.381 3.389 3.339 3.221 3.154 3.086 2.961 2.916 2.869 2.911 2.929 2.939 2.871 2.849 2.786 2.689 2.716 2.799 2.801 2.806 2.816 2.826 2.876 2.924 2.919 2.959 2.974 2.951 2.781 2.654 2.599 2.569 2.491 2.554 2.686 2.784 2.649 2.681 2.684 2.796 2.609 2.459 2.389 2.386 2.441 2.379 2.291 2.194 2.024 2.096 2.106 2.129 2.119 2.229 2.261 2.289 2.341 2.396 2.451 2.469 2.494 2.511 2.561 2.586 2.626 2.651 2.674 2.704 2.754 2.756 2.766 2.779 2.831 2.901 2.911 2.976 3.001 2.989 3.016 3.046 3.066 3.116 3.154 3.189 3.239 3.239 3.359 3.494 3.649 3.876 3.994 4.169 4.391 4.436 4.456 4.476 4.539 4.596 4.596 4.586 4.656 4.606 4.569 4.639 4.664 4.669 4.656 4.551 4.434 4.386 3.966 3.669 3.601 3.551 3.576 3.591 3.604 3.596 3.599 3.624 3.606 3.601 3.599 3.519 3.541 3.556 3.536 3.556 3.609 3.684 3.689 3.656 3.549 3.499 3.544 3.949 4.009 3.549 3.314 3.469 3.699 3.354 3.214 3.229 3.164 3.116 3.124 3.086 3.071 3.009 3.034 3.029 3.021 3.041 3.051 2.969 2.896 2.831 2.869 2.756 2.724 2.731 2.691 2.649 2.699 2.829 2.549 2.494 2.416 2.374 2.286 2.259 2.209 2.094 2.031 1.876 2.109 2.821 2.761 2.434 1.869 1.586 1.446 1.584 1.569 1.524 1.706 1.924 1.946 1.746 1.181 0.571 0.294 0.719 0.966 1.024 1.006 1.064 1.034 0.996 0.879 0.794 0.691 0.656 0.631 0.624 0.634 0.786 0.796 0.684 0.611 0.576 0.554 0.591 0.614 0.634 0.646 0.686 0.701 0.719 0.714 0.684 0.616 0.589 0.596 0.566 0.576 0.584 0.576 0.566 0.586 0.564 0.629 0.596 0.569 0.504 0.506 0.566 0.596 0.654 0.686 0.639 0.489 0.381 0.366 0.441 0.516 0.509 0.536 0.519 0.481 0.496 0.496 0.549 0.586 0.621 0.624 0.541 0.486 0.581 0.741 0.824 0.761 0.641 0.566 0.604 0.714 0.806 0.794 0.774 0.721 0.656 0.689 0.684 0.661 0.669 0.761 0.706 0.569 0.511 0.574 0.596 0.529 0.504 0.531 0.529 0.571 0.621 0.619 0.701 0.754 0.744 0.744 0.721 0.689 0.711 0.756 0.694 0.711 0.701 0.684 0.646 0.566 0.469 0.401 0.496 0.304 0.291 1.044 2.601 1.826 1.616 0.836 0.354 0.186 0.124 0.119 0.189 0.261 0.284 0.251 0.221 0.216 0.249 0.264 0.254 0.211 0.201 0.239 0.156 0.206 0.231 0.246 0.281 0.314 0.309 0.326 0.334 0.379 0.376 0.364 0.349 0.369 0.401 0.424 0.419 0.409 0.399 0.366 0.359 0.379 0.384 0.386 0.391 0.376 0.394 0.38 0.373 0.376 0.36 0.341 0.327 0.315 0.301 0.319 0.337 0.328 0.319 0.333 0.321 0.309 0.33 0.324 0.293 0.198 0.165 0.098 0.094 0.058 0.071 0.044 0.109 0.141 0.169 0.276 0.371 0.341 0.341 0.349 0.336 0.319 0.311 0.329 0.339 0.396 0.424 0.386 0.501 0.736 0.714 0.816
3.914 3.814 3.861 3.931 4.029 4.086 4.244 4.246 4.109 4.129 4.159 4.139 4.116 4.049 3.964 3.969 4.024 4.134 4.131 4.106 4.224 4.301 4.336 4.306 4.259 4.254 4.321 4.319 4.359 4.306 4.259 4.224 4.209 4.174 4.089 3.959 3.909 3.891 3.831 3.799 3.776 3.759 3.739 3.676 3.689 3.766 3.771 3.801 3.709 3.699 3.629 3.609 3.621 3.631 3.661 3.579 3.521 3.424 3.426 3.411 3.261 3.224 3.044 3.014 2.981 2.986 2.961 2.981 2.966 2.931 2.891 2.779 2.554 2.319 2.201 2.229 2.331 2.654 2.944 3.106 3.266 3.284 3.269 3.269 3.224 3.291 3.224 3.214 3.281 3.304 3.254 3.266 3.286 3.279 3.301 3.234 3.154 3.079 2.994 2.926 2.951 2.934 2.906 2.916 2.836 2.781 2.724 2.746 2.744 2.931 2.966 2.929 2.904 2.871 2.869 2.856 2.874 3.016 3.001 3.021 2.884 2.719 2.746 2.736 2.809 2.774 2.821 2.879 2.779 2.724 2.771 2.781 2.754 2.606 2.514 2.544 2.544 2.486 2.404 2.384 2.354 2.319 2.491 2.369 2.129 2.201 2.276 2.326 2.346 2.386 2.419 2.464 2.504 2.541 2.596 2.579 2.609 2.654 2.669 2.676 2.731 2.764 2.759 2.789 2.819 2.901 2.916 2.936 2.966 2.996 3.031 3.039 3.081 3.141 3.191 3.356 3.699 3.616 3.691 3.959 4.129 4.199 4.274 4.426 4.429 4.444 4.424 4.464 4.529 4.599 4.584 4.609 4.686 4.566 4.569 4.584 4.466 4.264 4.069 3.804 3.719 3.644 3.594 3.526 3.554 3.514 3.519 3.554 3.556 3.549 3.579 3.574 3.541 3.519 3.531 3.474 3.506 3.534 3.546 3.539 3.659 3.624 3.564 3.439 3.506 3.959 4.219 4.239 3.926 3.681 3.359 3.324 3.286 3.204 3.181 3.181 3.174 3.116 3.134 3.109 3.009 2.969 2.951 2.959 2.914 2.934 3.029 2.971 2.854 3.096 3.174 2.944 2.701 2.681 2.656 2.606 2.636 2.736 2.466 2.464 2.429 2.316 2.244 2.204 2.151 2.031 1.976 1.879 1.856 2.061 1.979 1.769 1.591 1.506 1.631 1.904 1.824 1.661 1.846 1.984 1.936 1.516 0.756 0.419 0.214 0.599 1.026 1.084 1.046 1.021 0.964 0.904 0.834 0.729 0.689 0.649 0.644 0.661 0.719 0.821 0.754 0.636 0.584 0.591 0.586 0.621 0.671 0.684 0.706 0.726 0.701 0.704 0.686 0.634 0.566 0.566 0.584 0.564 0.591 0.609 0.601 0.619 0.616 0.596 0.621 0.659 0.669 0.574 0.591 0.616 0.611 0.686 0.724 0.709 0.561 0.421 0.369 0.371 0.339 0.359 0.384 0.329 0.364 0.434 0.481 0.534 0.566 0.599 0.636 0.599 0.536 0.596 0.789 0.781 0.639 0.586 0.631 0.686 0.734 0.709 0.721 0.716 0.704 0.646 0.681 0.719 0.686 0.726 0.779 0.709 0.546 0.509 0.644 0.754 0.701 0.654 0.604 0.596 0.651 0.709 0.694 0.721 0.764 0.751 0.744 0.749 0.746 0.769 0.789 0.724 0.696 0.689 0.644 0.584 0.469 0.471 0.449 0.389 0.176 0.301 1.276 2.889 1.774 1.786 0.766 0.309 0.256 0.269 0.266 0.281 0.291 0.316 0.259 0.256 0.259 0.261 0.254 0.241 0.221 0.224 0.211 0.166 0.199 0.209 0.251 0.281 0.314 0.329 0.331 0.354 0.389 0.391 0.391 0.401 0.366 0.374 0.411 0.416 0.391 0.381 0.379 0.381 0.389 0.396 0.379 0.384 0.384 0.366 0.364 0.374 0.379 0.352 0.336 0.321 0.348 0.321 0.33 0.333 0.325 0.327 0.333 0.314 0.319 0.338 0.323 0.324 0.306 0.254 0.194 0.156 0.116 0.084 0.079 0.044 0.104 0.126 0.249 0.324 0.364 0.349 0.344 0.349 0.324 0.314 0.331 0.361 0.359 0.394 0.404 0.654 0.731 0.701 0.906
3.844 3.839 3.919 4.109 4.119 4.134 4.221 4.294 4.181 4.199 4.186 4.194 4.071 3.869 3.719 3.669 3.934 4.086 4.084 4.181 4.219 4.254 4.291 4.236 4.256 4.311 4.349 4.351 4.359 4.316 4.254 4.194 4.164 4.141 3.981 3.911 3.881 3.844 3.804 3.804 3.809 3.806 3.736 3.694 3.746 3.811 3.909 3.866 3.846 3.864 3.716 3.711 3.676 3.659 3.666 3.586 3.541 3.481 3.479 3.466 3.326 3.256 3.146 3.051 3.049 3.004 3.026 2.969 2.934 2.916 2.976 2.974 2.874 2.839 2.459 2.234 2.244 2.286 2.459 2.684 3.006 3.194 3.196 3.209 3.234 3.241 3.166 3.194 3.199 3.256 3.211 3.206 3.201 3.169 3.254 3.171 3.131 3.106 3.026 2.984 2.976 2.944 2.914 2.904 2.896 2.831 2.741 2.781 2.881 2.926 2.944 2.909 2.886 2.901 2.931 2.879 2.971 3.011 3.001 3.026 2.954 2.849 2.816 2.836 2.851 2.876 2.941 2.919 2.881 2.856 2.804 2.839 2.874 2.761 2.669 2.739 2.706 2.569 2.566 2.604 2.651 2.549 2.641 2.629 2.206 2.204 2.261 2.301 2.336 2.371 2.419 2.446 2.474 2.539 2.569 2.554 2.631 2.631 2.646 2.664 2.724 2.741 2.771 2.801 2.851 2.886 2.906 2.921 2.979 2.981 3.041 3.101 3.134 3.211 3.404 3.789 4.069 4.014 4.031 4.131 4.194 4.259 4.324 4.369 4.374 4.426 4.434 4.459 4.509 4.511 4.509 4.546 4.531 4.474 4.249 4.006 3.794 3.616 3.536 3.531 3.549 3.534 3.539 3.501 3.489 3.474 3.486 3.516 3.511 3.491 3.519 3.471 3.461 3.436 3.434 3.454 3.496 3.491 3.486 3.514 3.539 3.456 3.336 3.434 4.139 4.639 4.489 4.041 3.879 3.766 3.551 3.179 3.151 3.136 3.131 3.124 3.131 3.056 3.051 3.054 2.986 2.964 2.884 2.841 2.829 2.846 2.896 2.836 3.006 3.471 3.529 3.289 2.929 2.694 2.591 2.529 2.489 2.466 2.459 2.399 2.326 2.346 2.211 2.194 2.044 1.934 1.839 1.769 1.769 1.679 1.604 1.606 1.551 1.621 2.099 2.316 2.081 1.816 1.914 1.944 1.744 1.126 0.399 1.511 0.876 0.631 1.031 1.076 1.024 0.959 0.909 0.846 0.784 0.699 0.661 0.636 0.621 0.724 0.819 0.839 0.726 0.606 0.554 0.589 0.651 0.739 0.781 0.784 0.756 0.711 0.634 0.626 0.634 0.596 0.559 0.576 0.609 0.611 0.584 0.581 0.619 0.694 0.661 0.591 0.549 0.556 0.559 0.576 0.671 0.729 0.684 0.711 0.724 0.656 0.589 0.534 0.499 0.429 0.379 0.369 0.414 0.384 0.386 0.344 0.431 0.461 0.569 0.604 0.644 0.609 0.526 0.601 0.724 0.694 0.619 0.621 0.711 0.754 0.709 0.636 0.621 0.664 0.651 0.636 0.689 0.696 0.576 0.636 0.756 0.729 0.549 0.491 0.671 0.789 0.769 0.701 0.631 0.579 0.639 0.711 0.719 0.709 0.731 0.716 0.731 0.789 0.764 0.731 0.711 0.646 0.636 0.579 0.519 0.471 0.449 0.494 0.434 0.379 0.151 0.199 1.156 3.184 1.669 1.361 0.641 0.314 0.316 0.264 0.234 0.261 0.301 0.346 0.354 0.324 0.299 0.274 0.234 0.244 0.276 0.221 0.234 0.219 0.186 0.189 0.211 0.241 0.289 0.334 0.341 0.349 0.369 0.371 0.381 0.386 0.394 0.384 0.399 0.406 0.381 0.389 0.371 0.374 0.379 0.386 0.361 0.391 0.389 0.384 0.404 0.394 0.364 0.352 0.341 0.336 0.346 0.333 0.344 0.35 0.331 0.325 0.328 0.313 0.338 0.33 0.339 0.316 0.317 0.315 0.306 0.241 0.166 0.121 0.066 0.081 0.099 0.064 0.146 0.254 0.369 0.361 0.339 0.349 0.354 0.344 0.339 0.339 0.319 0.344 0.381 0.696 0.744 0.786 1.019
3.816 3.879 3.891 3.961 4.061 4.176 4.096 4.161 4.024 4.141 4.194 4.079 3.896 3.666 3.596 3.596 3.834 3.976 4.009 4.149 4.226 4.284 4.306 4.256 4.296 4.334 4.356 4.351 4.349 4.316 4.249 4.201 4.166 4.039 3.896 3.886 3.886 3.834 3.736 3.756 3.761 3.761 3.796 3.771 3.799 3.819 3.929 3.951 3.936 3.936 3.849 3.799 3.766 3.721 3.721 3.671 3.614 3.504 3.491 3.479 3.366 3.354 3.259 3.204 3.124 3.061 3.059 3.036 3.004 2.991 3.006 3.051 3.016 2.996 2.954 2.709 2.401 2.291 2.284 2.331 2.541 2.841 2.989 3.156 3.219 3.219 3.141 3.134 3.199 3.154 3.129 3.176 3.171 3.146 3.194 3.096 3.086 3.094 3.094 3.051 3.029 2.996 2.901 2.874 2.844 2.789 2.764 2.831 2.939 2.979 2.989 3.004 2.924 2.971 2.994 2.954 3.074 3.039 2.974 2.936 2.914 2.916 2.869 2.859 2.891 2.894 2.929 2.909 2.934 2.909 2.944 2.971 2.979 2.871 2.826 2.921 2.869 2.839 2.744 2.741 2.671 2.404 2.399 2.566 2.336 2.206 2.261 2.284 2.331 2.376 2.396 2.419 2.454 2.469 2.511 2.551 2.606 2.604 2.639 2.674 2.706 2.766 2.764 2.786 2.829 2.886 2.904 2.929 2.966 3.041 3.116 3.241 3.446 3.651 3.874 3.971 4.014 4.031 4.084 4.114 4.136 4.224 4.254 4.289 4.346 4.404 4.421 4.426 4.464 4.401 4.291 4.209 4.034 3.826 3.689 3.476 3.406 3.426 3.456 3.456 3.486 3.496 3.479 3.439 3.436 3.416 3.406 3.476 3.471 3.446 3.419 3.366 3.364 3.369 3.414 3.464 3.471 3.391 3.346 3.339 3.341 3.364 3.306 3.484 4.139 4.316 4.284 3.874 3.876 3.821 3.986 3.429 3.099 3.071 3.046 3.041 3.064 3.001 2.994 2.966 2.936 2.911 2.876 2.829 2.754 2.786 2.819 2.789 2.949 3.221 3.329 3.049 2.746 2.589 2.529 2.486 2.431 2.454 2.379 2.344 2.319 2.226 2.111 2.019 1.999 1.889 1.691 1.654 1.729 1.634 1.646 1.591 1.501 1.636 1.886 2.064 2.109 1.941 1.881 1.894 1.536 0.979 0.251 3.621 2.451 0.849 1.049 1.064 0.994 0.924 0.864 0.806 0.731 0.699 0.686 0.644 0.651 0.754 0.776 0.716 0.686 0.609 0.581 0.564 0.631 0.699 0.734 0.766 0.711 0.641 0.619 0.634 0.599 0.606 0.606 0.594 0.601 0.621 0.561 0.549 0.599 0.666 0.674 0.621 0.581 0.549 0.556 0.566 0.634 0.801 0.841 0.776 0.676 0.584 0.581 0.569 0.546 0.564 0.501 0.541 0.544 0.546 0.496 0.369 0.359 0.419 0.534 0.621 0.619 0.609 0.539 0.571 0.699 0.684 0.664 0.736 0.759 0.654 0.569 0.574 0.576 0.621 0.641 0.624 0.644 0.629 0.581 0.611 0.654 0.729 0.591 0.531 0.591 0.694 0.661 0.571 0.514 0.496 0.481 0.549 0.671 0.681 0.714 0.701 0.749 0.776 0.746 0.716 0.664 0.554 0.494 0.464 0.424 0.399 0.436 0.444 0.514 0.291 0.144 0.179 1.774 1.956 1.709 1.439 0.686 0.276 0.276 0.251 0.246 0.266 0.339 0.366 0.369 0.354 0.316 0.269 0.269 0.304 0.304 0.269 0.256 0.214 0.226 0.236 0.254 0.266 0.291 0.331 0.331 0.344 0.359 0.359 0.384 0.371 0.411 0.429 0.361 0.379 0.414 0.409 0.376 0.349 0.374 0.366 0.356 0.351 0.364 0.386 0.386 0.371 0.359 0.331 0.351 0.326 0.336 0.323 0.334 0.324 0.319 0.33 0.329 0.315 0.315 0.33 0.317 0.33 0.329 0.334 0.339 0.324 0.209 0.189 0.159 0.094 0.146 0.064 0.069 0.156 0.231 0.266 0.306 0.361 0.359 0.366 0.359 0.356 0.299 0.291 0.476 0.734 0.751 0.849 0.699
3.771 3.844 3.781 3.836 3.989 4.034 4.074 4.026 3.911 3.909 4.029 3.756 3.596 3.569 3.606 3.619 3.851 3.961 4.019 4.196 4.259 4.296 4.351 4.331 4.351 4.359 4.344 4.364 4.321 4.286 4.236 4.211 4.166 3.971 3.844 3.834 3.854 3.804 3.736 3.731 3.764 3.809 3.899 3.821 3.899 3.994 4.004 4.026 3.979 3.931 3.944 3.944 3.866 3.796 3.806 3.796 3.699 3.586 3.571 3.594 3.479 3.474 3.439 3.294 3.166 3.171 3.184 3.099 3.069 3.109 3.079 3.089 3.099 3.104 3.081 3.084 2.899 2.681 2.404 2.291 2.304 2.406 2.604 2.936 3.194 3.231 3.196 3.194 3.206 3.129 3.106 3.164 3.171 3.119 3.046 3.036 3.011 3.039 3.061 3.044 3.036 3.039 2.906 2.809 2.756 2.716 2.776 2.906 3.006 3.014 3.044 3.051 3.066 3.044 3.006 3.001 3.014 2.994 2.859 2.846 2.919 2.939 3.029 3.049 3.044 3.006 2.954 2.981 2.999 2.971 2.969 3.004 3.016 2.931 2.909 2.959 3.021 2.989 2.869 2.801 2.671 2.556 2.569 2.594 2.481 2.271 2.349 2.301 2.351 2.371 2.394 2.406 2.414 2.434 2.499 2.559 2.586 2.624 2.636 2.689 2.706 2.761 2.771 2.844 2.851 2.911 2.924 2.951 3.104 3.344 3.496 3.686 3.824 3.899 3.936 3.936 4.001 3.999 4.009 4.076 4.106 4.151 4.216 4.274 4.374 4.364 4.296 4.216 4.101 3.979 3.724 3.524 3.434 3.411 3.434 3.404 3.356 3.351 3.356 3.376 3.431 3.409 3.421 3.376 3.334 3.329 3.329 3.346 3.379 3.336 3.381 3.631 3.851 3.689 3.426 3.424 3.421 3.334 3.289 3.344 3.609 3.389 3.236 3.241 3.304 3.754 3.814 3.401 3.624 3.764 3.804 3.211 3.084 3.029 3.049 3.001 2.989 2.981 2.979 2.944 2.904 2.861 2.819 2.759 2.749 2.774 2.784 2.736 2.724 2.701 2.769 2.634 2.549 2.531 2.499 2.419 2.401 2.364 2.349 2.266 2.241 2.174 2.211 2.229 1.926 1.721 1.606 1.559 1.476 1.454 1.531 1.474 1.486 1.571 1.684 2.041 2.124 1.931 1.824 1.741 1.286 0.631 0.096 2.016 2.356 0.916 0.966 0.931 0.904 0.899 0.851 0.771 0.731 0.716 0.699 0.656 0.639 0.669 0.644 0.611 0.626 0.619 0.596 0.581 0.586 0.669 0.684 0.686 0.646 0.621 0.601 0.661 0.681 0.684 0.644 0.611 0.639 0.674 0.669 0.564 0.534 0.599 0.619 0.596 0.551 0.531 0.571 0.596 0.591 0.676 0.781 0.734 0.611 0.546 0.536 0.569 0.596 0.621 0.694 0.731 0.709 0.696 0.646 0.484 0.349 0.354 0.486 0.606 0.611 0.581 0.559 0.604 0.701 0.676 0.689 0.701 0.604 0.539 0.499 0.574 0.636 0.604 0.609 0.629 0.584 0.556 0.524 0.569 0.591 0.686 0.679 0.549 0.496 0.519 0.504 0.489 0.489 0.436 0.404 0.424 0.611 0.716 0.746 0.694 0.714 0.724 0.734 0.721 0.629 0.484 0.361 0.326 0.404 0.351 0.401 0.424 0.419 0.391 0.249 0.246 0.944 1.424 1.709 1.449 0.706 0.336 0.274 0.266 0.269 0.291 0.346 0.409 0.409 0.431 0.404 0.344 0.276 0.309 0.291 0.286 0.239 0.221 0.211 0.204 0.209 0.264 0.296 0.316 0.326 0.339 0.351 0.376 0.369 0.386 0.379 0.401 0.386 0.366 0.409 0.389 0.369 0.349 0.364 0.346 0.346 0.361 0.381 0.371 0.376 0.386 0.356 0.351 0.336 0.329 0.324 0.314 0.329 0.289 0.319 0.319 0.319 0.309 0.336 0.336 0.331 0.334 0.319 0.341 0.339 0.364 0.291 0.236 0.171 0.149 0.089 0.069 0.046 0.064 0.121 0.174 0.199 0.309 0.356 0.336 0.334 0.359 0.324 0.319 0.596 0.696 0.756 0.856 0.676
3.746 3.801 3.801 4.001 3.991 4.029 4.026 3.944 3.841 3.789 3.686 3.614 3.446 3.354 3.579 3.824 3.861 3.864 4.051 4.296 4.316 4.326 4.389 4.429 4.399 4.389 4.346 4.334 4.316 4.254 4.226 4.211 3.999 3.871 3.839 3.859 3.806 3.809 3.794 3.809 3.909 3.926 3.911 3.996 4.026 4.144 4.116 4.066 4.059 3.976 3.969 3.921 3.991 3.944 3.891 3.834 3.656 3.654 3.669 3.656 3.591 3.574 3.559 3.456 3.406 3.426 3.374 3.276 3.176 3.176 3.161 3.136 3.161 3.201 3.211 3.181 3.139 3.071 2.874 2.569 2.386 2.324 2.351 2.504 2.856 3.079 3.164 3.201 3.231 3.246 3.234 3.161 3.146 3.156 3.126 3.104 3.059 3.056 3.074 3.026 3.011 3.034 3.019 2.864 2.794 2.736 2.816 2.936 2.951 3.014 3.066 3.144 3.229 3.186 3.161 3.104 3.021 3.126 2.949 2.989 2.994 3.036 3.051 3.129 3.071 3.079 3.111 3.114 3.094 3.084 3.066 3.054 3.071 2.999 3.051 3.061 3.121 3.141 3.126 3.244 3.036 2.816 2.699 2.556 2.504 2.416 2.479 2.356 2.369 2.399 2.379 2.369 2.394 2.436 2.491 2.516 2.561 2.571 2.639 2.704 2.734 2.801 2.844 2.854 2.926 3.066 3.114 3.374 3.601 3.699 3.749 3.861 3.904 3.869 3.889 3.891 3.954 4.001 4.026 4.056 4.224 4.106 4.181 4.226 4.159 4.026 3.776 3.596 3.421 3.404 3.404 3.399 3.389 3.359 3.364 3.344 3.316 3.296 3.249 3.316 3.349 3.351 3.334 3.289 3.261 3.246 3.236 3.231 3.251 3.231 3.896 4.354 4.239 3.694 3.421 3.364 3.289 3.454 3.444 3.541 3.926 3.731 3.254 3.124 3.081 3.354 3.521 3.464 3.616 3.916 3.499 3.061 3.006 3.044 3.101 2.961 2.936 2.921 2.894 2.834 2.851 2.844 2.764 2.749 2.739 2.704 2.684 2.676 2.681 2.644 2.661 2.534 2.524 2.501 2.436 2.366 2.281 2.299 2.281 2.249 2.146 2.151 2.571 3.059 2.591 1.654 1.564 1.519 1.374 1.334 1.316 1.349 1.504 1.691 1.709 1.869 1.999 1.866 1.639 1.284 0.769 0.356 0.306 2.141 0.906 0.909 0.894 0.816 0.839 0.816 0.821 0.764 0.741 0.739 0.706 0.656 0.639 0.631 0.579 0.579 0.589 0.599 0.589 0.541 0.574 0.601 0.644 0.659 0.656 0.666 0.669 0.691 0.791 0.816 0.689 0.619 0.649 0.804 0.761 0.609 0.541 0.549 0.559 0.561 0.569 0.546 0.561 0.574 0.634 0.659 0.714 0.676 0.594 0.536 0.516 0.541 0.574 0.621 0.724 0.756 0.701 0.641 0.634 0.504 0.351 0.266 0.426 0.579 0.594 0.604 0.609 0.669 0.731 0.651 0.629 0.604 0.531 0.574 0.619 0.724 0.731 0.606 0.581 0.569 0.549 0.526 0.511 0.516 0.536 0.661 0.744 0.636 0.549 0.529 0.519 0.489 0.506 0.501 0.411 0.401 0.614 0.704 0.721 0.734 0.739 0.684 0.699 0.706 0.599 0.424 0.321 0.351 0.384 0.421 0.421 0.316 0.344 0.421 0.211 0.189 0.964 1.634 1.796 1.444 0.736 0.389 0.299 0.289 0.349 0.364 0.386 0.414 0.464 0.474 0.474 0.426 0.334 0.319 0.316 0.309 0.269 0.249 0.229 0.251 0.226 0.206 0.296 0.314 0.319 0.341 0.336 0.344 0.364 0.354 0.359 0.379 0.386 0.366 0.371 0.411 0.366 0.376 0.371 0.369 0.354 0.386 0.371 0.356 0.354 0.369 0.349 0.324 0.326 0.329 0.324 0.316 0.316 0.306 0.301 0.319 0.316 0.319 0.351 0.336 0.336 0.329 0.311 0.319 0.306 0.324 0.351 0.301 0.191 0.156 0.129 0.121 0.049 0.036 0.084 0.146 0.206 0.226 0.301 0.331 0.336 0.329 0.304 0.371 0.691 0.721 0.801 0.931 0.619
3.761 3.821 3.951 3.989 3.969 4.066 3.976 3.904 3.819 3.721 3.511 3.606 3.644 3.434 3.711 3.596 3.726 3.869 4.184 4.361 4.369 4.339 4.386 4.399 4.396 4.334 4.341 4.326 4.329 4.269 4.236 4.101 3.894 3.909 3.849 3.829 3.809 3.761 3.839 3.874 3.984 4.001 3.914 4.006 4.041 4.069 4.144 4.146 4.024 3.964 4.011 4.041 3.981 3.926 3.966 3.886 3.819 3.749 3.624 3.611 3.654 3.656 3.589 3.524 3.499 3.619 3.519 3.424 3.354 3.341 3.284 3.274 3.266 3.254 3.234 3.249 3.194 3.234 3.159 3.091 2.941 2.574 2.326 2.344 2.431 2.634 2.884 3.099 3.184 3.231 3.221 3.191 3.156 3.126 3.164 3.149 3.159 3.136 3.089 3.056 3.106 3.161 3.091 3.029 2.986 2.934 2.911 2.931 2.886 2.964 2.981 3.099 3.211 3.244 3.194 3.216 3.146 3.156 3.171 3.066 3.071 3.096 3.121 3.136 3.231 3.229 3.221 3.186 3.119 3.056 3.104 3.169 3.129 3.091 3.089 3.084 3.121 3.196 3.204 3.321 3.179 3.031 2.869 2.651 2.561 2.386 2.449 2.436 2.456 2.436 2.409 2.401 2.396 2.419 2.469 2.491 2.524 2.576 2.629 2.701 2.804 2.901 3.064 3.104 3.269 3.509 3.599 3.639 3.676 3.711 3.761 3.811 3.831 3.836 3.856 3.891 3.924 3.939 3.996 4.044 4.074 4.081 4.039 3.869 3.534 3.354 3.334 3.331 3.329 3.351 3.384 3.319 3.321 3.316 3.286 3.304 3.264 3.229 3.196 3.236 3.291 3.291 3.231 3.216 3.176 3.194 3.179 3.139 3.181 3.401 4.201 4.179 4.124 3.874 3.376 3.316 3.839 3.849 3.579 3.414 3.561 3.744 3.104 3.054 3.016 3.019 3.279 3.626 3.969 4.246 3.661 2.999 3.021 3.726 3.411 2.849 2.856 2.849 2.801 2.821 2.791 2.809 2.769 2.736 2.656 2.676 2.681 2.614 2.644 2.641 2.514 2.491 2.514 2.444 2.354 2.311 2.281 2.209 2.174 2.121 2.076 2.436 3.184 3.541 3.264 2.039 1.494 1.359 1.351 1.351 1.369 1.466 1.534 1.586 1.576 1.554 1.584 1.456 1.144 0.726 0.326 0.164 0.344 0.756 0.859 0.891 0.844 0.814 0.821 0.809 0.759 0.701 0.711 0.706 0.694 0.674 0.639 0.636 0.594 0.611 0.626 0.606 0.556 0.526 0.546 0.551 0.619 0.611 0.709 0.741 0.696 0.679 0.774 0.891 0.831 0.634 0.646 0.744 0.781 0.669 0.566 0.529 0.561 0.531 0.531 0.544 0.566 0.626 0.766 0.749 0.689 0.616 0.536 0.536 0.549 0.596 0.656 0.621 0.644 0.586 0.541 0.526 0.556 0.529 0.386 0.176 0.371 0.556 0.594 0.589 0.599 0.661 0.674 0.616 0.581 0.571 0.604 0.704 0.784 0.824 0.706 0.564 0.569 0.624 0.646 0.594 0.541 0.514 0.546 0.671 0.754 0.739 0.704 0.614 0.589 0.611 0.589 0.469 0.389 0.444 0.644 0.714 0.721 0.724 0.739 0.714 0.666 0.666 0.529 0.409 0.351 0.371 0.356 0.391 0.311 0.256 0.229 0.239 0.199 0.279 1.019 1.636 1.791 1.429 0.724 0.431 0.356 0.311 0.351 0.389 0.404 0.459 0.506 0.509 0.484 0.434 0.349 0.341 0.329 0.316 0.266 0.254 0.241 0.229 0.234 0.264 0.306 0.311 0.309 0.309 0.326 0.319 0.339 0.331 0.334 0.346 0.361 0.359 0.346 0.344 0.336 0.339 0.361 0.374 0.361 0.356 0.359 0.334 0.351 0.341 0.326 0.319 0.319 0.331 0.316 0.311 0.301 0.319 0.291 0.311 0.311 0.324 0.346 0.339 0.356 0.334 0.306 0.326 0.311 0.331 0.351 0.366 0.271 0.176 0.176 0.126 0.066 0.011 0.059 0.109 0.236 0.251 0.281 0.284 0.299 0.301 0.286 0.479 0.691 0.716 0.864 0.761 0.526
3.721 3.874 3.996 3.979 3.971 3.906 3.899 3.851 3.839 3.824 3.614 3.739 3.786 3.609 3.721 3.654 3.676 3.921 4.299 4.376 4.381 4.381 4.364 4.391 4.321 4.344 4.351 4.359 4.356 4.241 4.134 4.009 3.909 4.021 3.866 3.846 3.774 3.799 3.901 3.966 4.056 3.986 3.999 4.044 4.076 4.109 4.186 4.056 4.026 3.996 4.024 4.031 3.999 3.959 3.924 3.941 3.881 3.789 3.661 3.616 3.634 3.586 3.571 3.554 3.591 3.669 3.626 3.566 3.564 3.479 3.526 3.456 3.366 3.314 3.324 3.241 3.234 3.249 3.251 3.239 3.174 3.101 2.684 2.571 2.384 2.369 2.464 2.706 2.976 3.106 3.184 3.169 3.124 3.166 3.209 3.199 3.251 3.214 3.181 3.186 3.189 3.156 3.119 3.156 3.151 3.111 3.041 2.976 2.926 2.916 2.994 3.086 3.171 3.231 3.219 3.219 3.246 3.234 3.259 3.249 3.219 3.224 3.189 3.239 3.256 3.281 3.276 3.231 3.144 3.111 3.134 3.189 3.166 3.144 3.144 3.146 3.139 3.194 3.151 3.126 3.049 2.971 2.849 2.694 2.586 2.414 2.391 2.366 2.461 2.441 2.411 2.379 2.374 2.429 2.484 2.496 2.506 2.554 2.649 2.891 3.119 3.289 3.459 3.556 3.614 3.644 3.641 3.666 3.681 3.754 3.746 3.744 3.786 3.799 3.846 3.856 3.859 3.881 3.906 3.921 3.711 3.561 3.401 3.249 3.176 3.224 3.231 3.281 3.296 3.311 3.311 3.274 3.234 3.206 3.214 3.196 3.134 3.101 3.111 3.161 3.209 3.169 3.119 3.124 3.076 3.104 3.109 3.154 3.181 3.494 3.874 3.906 3.701 3.324 3.386 3.901 4.059 3.796 3.436 3.254 3.376 3.399 3.114 3.011 2.986 2.966 3.001 3.494 4.401 4.519 3.964 3.019 2.944 3.379 3.084 2.811 2.859 2.774 2.731 2.711 2.719 2.786 2.704 2.629 2.594 2.631 2.674 2.606 2.566 2.671 2.464 2.506 2.451 2.366 2.314 2.254 2.206 2.146 2.086 2.029 1.964 2.089 2.574 2.794 2.564 1.894 1.364 1.376 1.414 1.556 1.629 1.544 1.496 1.369 1.391 1.001 0.876 0.706 0.414 0.236 0.164 0.296 0.639 0.849 0.844 0.881 0.846 0.839 0.861 0.794 0.729 0.704 0.696 0.716 0.681 0.646 0.631 0.631 0.626 0.656 0.639 0.644 0.549 0.514 0.524 0.569 0.606 0.629 0.721 0.706 0.641 0.604 0.649 0.759 0.884 0.729 0.641 0.739 0.794 0.714 0.599 0.546 0.519 0.469 0.489 0.556 0.681 0.756 0.791 0.746 0.724 0.591 0.549 0.521 0.534 0.644 0.716 0.599 0.491 0.469 0.456 0.451 0.499 0.531 0.389 0.204 0.376 0.521 0.566 0.576 0.554 0.576 0.586 0.609 0.624 0.631 0.689 0.766 0.776 0.734 0.591 0.546 0.556 0.689 0.734 0.714 0.641 0.519 0.611 0.726 0.751 0.724 0.729 0.739 0.761 0.754 0.609 0.444 0.424 0.539 0.691 0.701 0.711 0.719 0.721 0.704 0.701 0.636 0.504 0.396 0.321 0.304 0.271 0.316 0.226 0.214 0.299 0.334 0.116 0.364 0.876 1.584 1.806 1.489 0.761 0.451 0.459 0.319 0.356 0.399 0.416 0.471 0.494 0.484 0.484 0.439 0.326 0.329 0.349 0.341 0.201 0.259 0.304 0.226 0.211 0.219 0.269 0.306 0.306 0.284 0.306 0.326 0.336 0.329 0.324 0.311 0.299 0.306 0.301 0.286 0.291 0.321 0.326 0.346 0.339 0.341 0.334 0.349 0.334 0.341 0.321 0.334 0.301 0.329 0.314 0.304 0.314 0.319 0.294 0.304 0.306 0.324 0.319 0.321 0.304 0.326 0.304 0.329 0.339 0.311 0.364 0.384 0.336 0.221 0.169 0.169 0.079 0.121 0.116 0.074 0.269 0.289 0.281 0.269 0.261 0.266 0.324 0.609 0.699 0.769 0.899 0.626 0.491
3.731 3.801 3.906 3.896 3.854 3.846 3.929 4.219 4.086 3.839 3.649 3.679 3.674 3.706 3.619 3.721 3.669 3.974 4.324 4.334 4.421 4.384 4.414 4.336 4.394 4.374 4.394 4.376 4.336 4.199 4.071 3.981 3.906 3.969 3.861 3.799 3.801 3.854 3.976 4.046 4.071 4.099 4.181 4.129 4.134 4.109 4.156 3.974 4.046 4.109 4.041 4.026 4.064 4.006 3.996 4.001 3.901 3.784 3.654 3.609 3.616 3.566 3.589 3.566 3.576 3.686 3.586 3.624 3.694 3.734 3.579 3.566 3.496 3.471 3.416 3.321 3.299 3.286 3.304 3.304 3.281 3.246 3.176 3.091 2.839 2.511 2.359 2.414 2.536 2.744 2.964 3.121 3.134 3.209 3.251 3.259 3.301 3.339 3.326 3.354 3.259 3.256 3.224 3.241 3.211 3.196 3.201 3.099 3.109 2.981 3.034 3.109 3.164 3.239 3.256 3.266 3.374 3.354 3.356 3.344 3.379 3.331 3.276 3.284 3.249 3.286 3.291 3.206 3.189 3.204 3.179 3.221 3.204 3.196 3.184 3.204 3.189 3.151 3.144 3.094 3.024 2.976 2.871 2.774 2.619 2.439 2.414 2.329 2.354 2.389 2.406 2.409 2.401 2.476 2.519 2.714 2.781 2.826 3.064 3.261 3.379 3.474 3.521 3.576 3.589 3.626 3.651 3.679 3.741 3.739 3.736 3.771 3.721 3.761 3.806 3.801 3.829 3.759 3.514 3.311 3.136 3.069 3.101 3.156 3.139 3.176 3.189 3.209 3.254 3.236 3.234 3.186 3.131 3.144 3.111 3.084 3.069 3.031 3.091 3.101 3.096 3.084 3.056 3.069 3.031 3.106 3.164 3.201 3.186 3.204 3.196 3.356 3.661 4.229 4.029 4.136 3.949 3.529 3.454 3.281 3.191 3.061 3.124 3.109 3.231 3.089 2.924 3.184 4.109 4.024 3.159 2.819 2.914 2.814 2.741 2.769 2.779 2.736 2.669 2.666 2.686 2.711 2.649 2.614 2.574 2.619 2.526 2.469 2.451 2.471 2.449 2.424 2.376 2.309 2.251 2.191 2.131 2.021 1.921 1.859 1.944 2.111 1.851 1.724 1.569 1.401 1.394 1.486 1.571 1.564 1.434 1.246 1.119 1.216 1.604 0.454 0.341 0.266 0.356 0.449 0.496 0.736 0.901 0.904 0.866 0.831 0.861 0.839 0.806 0.781 0.759 0.746 0.734 0.699 0.641 0.664 0.631 0.641 0.619 0.636 0.629 0.624 0.576 0.539 0.551 0.561 0.589 0.594 0.601 0.609 0.561 0.541 0.584 0.719 0.894 0.821 0.781 0.826 0.816 0.739 0.606 0.556 0.539 0.471 0.536 0.619 0.756 0.821 0.814 0.776 0.719 0.611 0.551 0.496 0.546 0.596 0.699 0.609 0.481 0.484 0.471 0.444 0.494 0.524 0.431 0.296 0.381 0.469 0.566 0.589 0.589 0.589 0.594 0.579 0.589 0.606 0.706 0.749 0.751 0.626 0.564 0.554 0.666 0.801 0.771 0.699 0.679 0.579 0.584 0.676 0.724 0.711 0.699 0.729 0.771 0.759 0.571 0.489 0.489 0.636 0.726 0.699 0.691 0.684 0.664 0.681 0.684 0.621 0.464 0.364 0.364 0.296 0.244 0.269 0.324 0.359 0.374 0.414 0.136 0.314 0.864 1.584 1.879 1.541 0.801 0.511 0.541 0.324 0.329 0.364 0.381 0.419 0.454 0.454 0.471 0.434 0.366 0.304 0.286 0.334 0.279 0.279 0.271 0.266 0.241 0.224 0.269 0.316 0.314 0.296 0.311 0.291 0.324 0.321 0.309 0.291 0.301 0.301 0.301 0.296 0.304 0.304 0.309 0.306 0.301 0.319 0.324 0.349 0.336 0.341 0.319 0.306 0.321 0.321 0.311 0.284 0.314 0.314 0.294 0.296 0.309 0.309 0.299 0.329 0.316 0.324 0.326 0.329 0.309 0.306 0.344 0.339 0.319 0.259 0.191 0.176 0.156 0.094 0.074 0.071 0.216 0.281 0.256 0.244 0.261 0.266 0.424 0.674 0.694 0.791 1.041 0.576 0.489
3.829 3.729 3.874 3.871 3.866 3.851 3.834 3.991 3.919 3.751 3.599 3.851 3.899 4.014 3.949 3.701 3.696 4.094 4.301 4.339 4.434 4.439 4.389 4.419 4.394 4.344 4.366 4.361 4.244 4.071 3.939 3.966 3.931 3.859 3.824 3.779 3.841 3.916 4.009 4.089 4.141 4.221 4.251 4.156 4.114 4.214 4.061 4.031 4.034 4.084 4.081 4.046 4.064 4.076 4.001 4.041 3.959 3.859 3.729 3.599 3.556 3.559 3.631 3.619 3.611 3.699 3.714 3.751 3.824 3.774 3.676 3.676 3.649 3.641 3.506 3.421 3.384 3.301 3.361 3.329 3.296 3.271 3.256 3.166 3.051 2.874 2.601 2.481 2.396 2.454 2.659 2.854 3.096 3.156 3.246 3.276 3.311 3.359 3.369 3.431 3.414 3.349 3.341 3.346 3.301 3.326 3.331 3.226 3.164 3.119 3.129 3.174 3.236 3.266 3.294 3.344 3.441 3.386 3.431 3.469 3.466 3.359 3.329 3.286 3.296 3.286 3.279 3.271 3.201 3.209 3.244 3.261 3.274 3.261 3.169 3.181 3.196 3.196 3.191 3.149 3.091 3.029 3.004 3.001 2.831 2.656 2.551 2.449 2.284 2.296 2.399 2.531 2.726 2.741 3.059 3.224 3.234 3.306 3.349 3.386 3.386 3.424 3.441 3.489 3.529 3.594 3.649 3.704 3.749 3.774 3.706 3.694 3.706 3.749 3.724 3.504 3.356 3.136 2.964 2.986 2.989 3.009 3.036 3.061 3.064 3.119 3.139 3.129 3.156 3.134 3.144 3.096 3.044 3.059 3.081 3.026 2.996 2.981 3.014 3.001 2.986 3.014 3.051 3.076 3.106 3.109 3.136 3.139 3.119 3.084 3.601 4.396 4.701 4.444 3.849 3.914 4.059 3.856 3.659 3.886 3.296 3.244 3.139 3.329 3.581 3.436 3.306 3.364 3.054 3.036 2.871 2.826 2.749 2.744 2.719 2.671 2.736 2.691 2.626 2.976 3.591 3.541 2.989 2.551 2.504 2.501 2.439 2.389 2.369 2.389 2.426 2.369 2.304 2.244 2.166 2.119 1.994 1.904 1.804 1.774 1.681 1.656 1.541 1.451 1.421 1.451 1.546 1.624 1.509 1.209 0.934 0.851 0.586 0.579 0.321 0.311 0.736 1.206 1.084 0.796 0.889 0.911 0.931 0.886 0.841 0.809 0.826 0.789 0.806 0.789 0.784 0.771 0.744 0.696 0.664 0.616 0.609 0.611 0.601 0.604 0.659 0.616 0.626 0.651 0.636 0.596 0.611 0.596 0.566 0.566 0.564 0.536 0.579 0.681 0.854 0.836 0.819 0.846 0.814 0.729 0.596 0.561 0.539 0.454 0.504 0.629 0.774 0.839 0.809 0.809 0.831 0.689 0.551 0.546 0.576 0.659 0.689 0.614 0.546 0.489 0.459 0.464 0.584 0.614 0.474 0.376 0.364 0.496 0.574 0.631 0.699 0.724 0.661 0.621 0.546 0.554 0.671 0.701 0.656 0.581 0.599 0.636 0.724 0.814 0.786 0.739 0.691 0.634 0.546 0.624 0.691 0.696 0.691 0.719 0.724 0.739 0.614 0.501 0.499 0.641 0.709 0.676 0.679 0.676 0.674 0.646 0.644 0.606 0.494 0.354 0.329 0.344 0.271 0.389 0.491 0.529 0.476 0.406 0.199 0.351 0.949 1.679 1.864 1.569 0.874 0.564 0.591 0.341 0.319 0.339 0.371 0.439 0.456 0.431 0.414 0.384 0.326 0.341 0.299 0.256 0.304 0.344 0.281 0.266 0.279 0.281 0.311 0.354 0.309 0.279 0.271 0.281 0.316 0.329 0.316 0.336 0.309 0.314 0.331 0.309 0.306 0.319 0.316 0.301 0.311 0.306 0.324 0.339 0.336 0.326 0.316 0.301 0.314 0.304 0.311 0.279 0.296 0.321 0.309 0.311 0.291 0.274 0.279 0.319 0.326 0.314 0.311 0.304 0.316 0.296 0.304 0.304 0.281 0.289 0.284 0.194 0.191 0.089 0.119 0.099 0.164 0.274 0.259 0.269 0.266 0.296 0.509 0.664 0.669 0.901 1.064 0.591 0.546
3.841 3.736 3.891 3.904 3.946 3.919 3.884 3.919 3.806 3.649 3.731 3.841 3.841 3.831 3.879 3.766 3.774 4.201 4.294 4.379 4.439 4.449 4.416 4.424 4.394 4.354 4.311 4.276 4.106 3.954 4.009 3.946 3.904 3.846 3.844 3.844 3.919 4.026 4.064 4.161 4.294 4.271 4.266 4.119 4.076 4.116 4.086 4.041 4.086 4.079 4.124 4.141 4.096 4.066 3.916 3.954 3.944 3.864 3.761 3.714 3.594 3.659 3.671 3.631 3.564 3.591 3.614 3.671 3.711 3.681 3.711 3.724 3.629 3.626 3.654 3.509 3.436 3.394 3.489 3.384 3.326 3.279 3.276 3.236 3.186 3.059 2.964 2.809 2.604 2.444 2.441 2.511 2.801 3.106 3.246 3.286 3.254 3.381 3.504 3.471 3.461 3.431 3.369 3.366 3.291 3.399 3.379 3.271 3.266 3.216 3.199 3.174 3.226 3.269 3.281 3.329 3.389 3.381 3.451 3.404 3.376 3.354 3.299 3.311 3.341 3.411 3.349 3.309 3.234 3.214 3.301 3.239 3.246 3.276 3.216 3.204 3.174 3.179 3.099 3.084 3.061 2.999 2.984 3.014 2.959 2.826 2.679 2.461 2.316 2.539 2.821 3.046 3.194 3.269 3.351 3.464 3.329 3.321 3.349 3.381 3.354 3.409 3.431 3.474 3.519 3.611 3.656 3.661 3.704 3.739 3.679 3.614 3.506 3.469 3.171 3.011 2.894 2.834 2.871 2.924 2.929 2.916 2.931 2.981 3.019 3.051 3.039 3.049 3.059 3.064 3.046 3.021 2.991 2.976 3.011 2.981 2.961 2.954 2.946 2.959 2.966 3.046 3.126 3.139 3.114 3.119 3.096 3.106 3.054 3.416 4.519 4.659 4.489 4.301 4.084 3.929 4.021 3.904 3.979 3.766 3.571 3.434 3.459 3.561 3.441 3.291 3.616 3.951 2.946 2.756 2.799 2.774 2.706 2.726 2.641 2.621 2.651 2.616 3.126 3.831 3.844 3.654 2.976 2.496 2.454 2.409 2.384 2.334 2.279 2.271 2.334 2.279 2.204 2.159 2.081 2.001 1.834 1.731 1.666 1.586 1.534 1.539 1.539 1.634 1.626 1.564 1.581 1.409 1.079 0.816 0.526 0.374 0.296 0.309 0.696 1.164 1.816 1.799 0.954 0.869 0.891 0.871 0.841 0.824 0.814 0.804 0.804 0.776 0.804 0.779 0.754 0.759 0.729 0.726 0.639 0.626 0.599 0.596 0.639 0.651 0.736 0.744 0.724 0.734 0.684 0.614 0.611 0.601 0.559 0.601 0.604 0.559 0.594 0.631 0.704 0.691 0.751 0.774 0.711 0.619 0.569 0.566 0.524 0.469 0.474 0.611 0.706 0.779 0.796 0.854 0.886 0.764 0.636 0.639 0.706 0.719 0.636 0.554 0.501 0.439 0.516 0.576 0.711 0.664 0.499 0.479 0.401 0.459 0.551 0.636 0.746 0.786 0.729 0.579 0.526 0.566 0.614 0.704 0.674 0.569 0.594 0.611 0.616 0.684 0.736 0.761 0.741 0.711 0.629 0.586 0.626 0.664 0.701 0.711 0.699 0.689 0.576 0.509 0.489 0.551 0.651 0.684 0.724 0.704 0.664 0.646 0.621 0.589 0.506 0.309 0.336 0.344 0.309 0.416 0.449 0.536 0.539 0.486 0.271 0.329 0.879 1.496 1.896 1.699 1.174 0.544 0.591 0.346 0.301 0.319 0.379 0.441 0.456 0.426 0.414 0.374 0.319 0.324 0.304 0.279 0.351 0.334 0.349 0.331 0.311 0.281 0.306 0.336 0.324 0.309 0.284 0.289 0.316 0.326 0.319 0.326 0.316 0.299 0.334 0.339 0.341 0.324 0.341 0.331 0.311 0.294 0.279 0.281 0.314 0.314 0.301 0.316 0.321 0.284 0.296 0.299 0.301 0.304 0.284 0.289 0.289 0.289 0.294 0.314 0.321 0.311 0.326 0.309 0.304 0.314 0.279 0.304 0.311 0.331 0.296 0.209 0.211 0.149 0.076 0.076 0.116 0.249 0.241 0.249 0.234 0.294 0.669 0.679 0.726 0.779 0.734 0.531 0.774
3.786 3.644 3.786 3.886 3.916 3.911 3.941 3.929 3.789 3.726 3.791 3.749 3.849 3.846 3.811 3.784 3.834 4.081 4.356 4.439 4.434 4.441 4.464 4.431 4.404 4.321 4.271 4.119 4.039 3.976 3.994 3.989 3.911 3.874 3.816 3.851 3.951 4.089 4.179 4.249 4.349 4.316 4.241 4.089 4.054 4.106 4.019 4.026 4.086 4.091 4.091 4.089 4.089 3.949 3.906 3.936 3.914 3.896 3.824 3.764 3.711 3.754 3.694 3.624 3.634 3.619 3.624 3.661 3.679 3.664 3.729 3.676 3.686 3.579 3.646 3.581 3.606 3.486 3.561 3.514 3.429 3.356 3.291 3.266 3.201 3.124 3.054 2.944 2.759 2.594 2.519 2.466 2.519 2.739 2.969 3.151 3.229 3.349 3.451 3.454 3.434 3.399 3.346 3.349 3.334 3.404 3.429 3.339 3.291 3.261 3.299 3.279 3.334 3.329 3.324 3.324 3.374 3.384 3.439 3.366 3.291 3.304 3.311 3.364 3.369 3.371 3.409 3.331 3.309 3.274 3.321 3.266 3.236 3.201 3.191 3.136 3.099 3.154 3.141 3.104 3.086 2.996 2.976 3.026 3.084 2.906 2.776 2.669 2.866 3.059 3.196 3.241 3.276 3.286 3.291 3.301 3.314 3.306 3.326 3.366 3.359 3.381 3.461 3.496 3.504 3.594 3.621 3.631 3.659 3.601 3.421 3.174 2.914 2.804 2.796 2.809 2.819 2.794 2.814 2.854 2.876 2.874 2.866 2.899 2.911 2.921 2.944 2.914 2.956 2.986 2.971 2.939 2.954 2.921 2.949 2.954 2.916 2.891 2.896 2.941 3.031 3.079 3.096 3.111 3.084 3.061 3.034 3.039 3.126 3.929 4.494 4.681 4.591 4.584 4.246 3.634 3.571 3.841 3.809 3.881 3.701 3.526 3.561 3.541 3.464 3.154 3.386 3.564 2.784 2.721 2.704 2.669 2.626 2.634 2.654 2.654 2.669 2.596 3.206 3.891 3.666 3.694 3.064 2.429 2.511 2.349 2.296 2.254 2.201 2.221 2.211 2.161 2.184 2.109 2.051 1.851 1.756 1.664 1.549 1.524 1.564 1.594 1.654 1.726 1.644 1.539 1.351 0.944 0.576 0.301 0.371 0.934 0.919 1.189 1.624 1.576 1.509 1.021 0.724 0.719 0.801 0.809 0.796 0.796 0.781 0.779 0.766 0.744 0.749 0.774 0.796 0.736 0.764 0.736 0.639 0.609 0.601 0.609 0.616 0.709 0.784 0.816 0.806 0.776 0.674 0.614 0.654 0.654 0.631 0.694 0.741 0.654 0.566 0.581 0.609 0.686 0.786 0.729 0.659 0.599 0.596 0.579 0.554 0.471 0.506 0.551 0.604 0.611 0.759 0.839 0.861 0.779 0.731 0.766 0.799 0.719 0.589 0.546 0.526 0.454 0.469 0.536 0.659 0.681 0.526 0.506 0.364 0.434 0.624 0.736 0.776 0.781 0.714 0.599 0.524 0.561 0.584 0.706 0.739 0.631 0.586 0.641 0.621 0.619 0.674 0.744 0.771 0.764 0.646 0.589 0.614 0.699 0.709 0.699 0.699 0.669 0.606 0.574 0.516 0.511 0.581 0.671 0.719 0.716 0.696 0.674 0.609 0.549 0.464 0.351 0.351 0.334 0.354 0.454 0.424 0.516 0.524 0.464 0.351 0.396 0.856 1.461 1.841 1.769 1.641 0.619 0.611 0.364 0.289 0.321 0.371 0.424 0.431 0.434 0.419 0.391 0.376 0.356 0.291 0.316 0.341 0.354 0.344 0.351 0.339 0.321 0.279 0.309 0.306 0.291 0.299 0.309 0.304 0.309 0.301 0.319 0.331 0.334 0.329 0.369 0.356 0.344 0.344 0.331 0.309 0.309 0.271 0.286 0.311 0.291 0.314 0.306 0.304 0.301 0.309 0.319 0.311 0.289 0.294 0.276 0.281 0.294 0.296 0.296 0.321 0.309 0.306 0.299 0.301 0.314 0.296 0.301 0.291 0.299 0.319 0.301 0.189 0.171 0.081 -0.009 0.069 0.224 0.269 0.261 0.274 0.399 0.686 0.686 0.769 0.844 0.499 0.441 0.489
3.796 3.719 3.699 3.846 3.784 3.846 3.896 3.909 3.841 3.704 3.761 3.726 3.869 3.814 3.801 3.809 3.806 3.994 4.229 4.339 4.366 4.419 4.429 4.344 4.304 4.239 4.191 4.079 3.966 3.866 3.971 3.941 3.916 3.849 3.841 3.904 3.969 4.076 4.151 4.259 4.329 4.261 4.139 4.074 4.091 4.086 4.011 4.034 4.091 4.074 4.059 4.081 4.069 4.001 3.919 3.879 3.871 3.871 3.794 3.794 3.801 3.791 3.729 3.721 3.734 3.659 3.666 3.686 3.656 3.656 3.691 3.666 3.671 3.614 3.641 3.601 3.529 3.571 3.661 3.529 3.476 3.421 3.389 3.304 3.206 3.149 3.116 3.091 3.081 3.016 2.884 2.716 2.531 2.486 2.559 2.786 3.041 3.206 3.351 3.396 3.404 3.419 3.344 3.311 3.321 3.369 3.369 3.396 3.371 3.349 3.386 3.401 3.401 3.394 3.351 3.359 3.311 3.366 3.406 3.384 3.364 3.296 3.339 3.304 3.379 3.431 3.464 3.394 3.351 3.334 3.366 3.319 3.201 3.156 3.101 3.109 3.071 3.119 3.201 3.129 3.029 2.966 2.944 2.969 2.941 2.929 2.961 3.006 3.101 3.134 3.174 3.216 3.244 3.269 3.291 3.304 3.316 3.326 3.324 3.346 3.369 3.384 3.429 3.464 3.489 3.534 3.534 3.489 3.231 2.909 2.724 2.674 2.671 2.719 2.731 2.754 2.786 2.781 2.796 2.826 2.836 2.834 2.821 2.819 2.829 2.841 2.851 2.861 2.901 3.046 3.046 2.931 2.926 2.849 2.856 2.861 2.941 3.329 3.489 3.186 3.054 3.051 3.044 3.029 3.054 3.354 3.476 3.336 3.696 4.146 4.284 4.364 4.341 3.896 3.396 3.114 3.009 3.174 3.411 3.594 3.196 2.931 3.174 3.651 3.579 3.376 3.339 3.469 2.846 2.709 2.646 2.654 2.641 2.631 2.629 2.644 2.539 2.469 2.861 3.829 3.821 3.789 2.746 2.386 2.391 2.376 2.214 2.164 2.116 2.109 2.116 2.074 2.094 1.994 1.876 1.691 1.639 1.551 1.559 1.639 1.644 1.631 1.646 1.576 1.449 1.214 0.869 0.459 0.216 0.291 0.774 1.314 1.449 1.229 1.369 1.041 0.861 0.696 0.649 0.664 0.741 0.769 0.756 0.729 0.799 0.766 0.766 0.764 0.764 0.796 0.796 0.789 0.721 0.709 0.669 0.614 0.601 0.596 0.606 0.659 0.689 0.714 0.741 0.699 0.621 0.599 0.641 0.754 0.806 0.794 0.806 0.706 0.609 0.609 0.669 0.781 0.881 0.829 0.721 0.659 0.691 0.706 0.609 0.529 0.531 0.561 0.601 0.631 0.689 0.766 0.811 0.799 0.759 0.764 0.786 0.676 0.571 0.524 0.531 0.464 0.454 0.516 0.564 0.649 0.589 0.486 0.371 0.436 0.654 0.749 0.736 0.729 0.699 0.629 0.519 0.549 0.661 0.734 0.751 0.729 0.729 0.711 0.674 0.611 0.594 0.711 0.761 0.736 0.709 0.711 0.704 0.709 0.689 0.701 0.754 0.671 0.604 0.616 0.514 0.449 0.469 0.674 0.739 0.734 0.704 0.661 0.626 0.561 0.466 0.371 0.359 0.281 0.371 0.479 0.429 0.484 0.489 0.474 0.429 0.379 0.904 1.374 1.766 1.759 2.189 0.751 0.596 0.389 0.326 0.361 0.369 0.371 0.394 0.429 0.414 0.434 0.406 0.349 0.329 0.351 0.371 0.354 0.341 0.349 0.374 0.351 0.301 0.356 0.344 0.326 0.301 0.289 0.321 0.309 0.321 0.309 0.324 0.336 0.351 0.359 0.366 0.341 0.336 0.339 0.341 0.324 0.291 0.291 0.284 0.306 0.306 0.299 0.304 0.326 0.329 0.314 0.294 0.291 0.296 0.291 0.291 0.276 0.289 0.319 0.299 0.316 0.311 0.294 0.304 0.291 0.286 0.271 0.286 0.281 0.314 0.314 0.256 0.174 0.079 -0.006 0.051 0.224 0.249 0.271 0.306 0.596 0.684 0.726 0.771 0.546 0.454 0.476 0.506
3.791 3.746 3.629 3.819 3.744 3.756 3.834 3.899 3.884 3.759 3.789 3.826 3.869 3.619 3.659 3.754 3.769 3.889 4.054 4.229 4.284 4.304 4.339 4.299 4.229 4.164 4.084 4.049 3.981 3.921 3.916 3.846 3.784 3.804 3.851 3.934 3.981 4.046 4.189 4.246 4.196 4.196 4.141 4.009 4.029 4.081 3.981 4.054 4.036 4.064 4.054 4.079 4.054 3.996 4.021 3.909 3.889 3.894 3.854 3.874 3.849 3.806 3.794 3.761 3.779 3.716 3.681 3.679 3.674 3.649 3.666 3.699 3.614 3.681 3.649 3.631 3.646 3.554 3.559 3.579 3.509 3.469 3.406 3.401 3.311 3.231 3.169 3.131 3.086 3.059 3.039 3.026 2.834 2.501 2.481 2.491 2.546 2.851 3.174 3.351 3.356 3.341 3.364 3.306 3.286 3.261 3.301 3.341 3.349 3.469 3.479 3.474 3.416 3.401 3.426 3.381 3.319 3.344 3.354 3.391 3.386 3.419 3.376 3.369 3.421 3.444 3.444 3.414 3.441 3.384 3.376 3.309 3.249 3.164 3.174 3.124 3.116 3.156 3.166 2.986 2.939 2.894 3.014 2.969 2.939 2.921 2.979 3.019 3.031 3.066 3.104 3.176 3.209 3.254 3.279 3.294 3.294 3.321 3.306 3.326 3.356 3.359 3.384 3.371 3.326 3.286 3.091 2.791 2.631 2.581 2.576 2.569 2.594 2.644 2.681 2.704 2.706 2.731 2.744 2.781 2.771 2.769 2.764 2.734 2.716 2.771 2.789 2.886 3.289 3.599 3.439 2.934 2.846 2.789 2.796 2.906 3.806 4.524 4.371 3.904 3.129 2.996 2.994 3.189 3.829 3.871 3.769 3.624 3.976 3.794 3.869 3.836 3.654 3.309 3.224 3.214 2.944 2.824 2.914 2.914 2.796 2.796 2.809 3.291 3.384 3.279 3.151 2.839 2.664 2.604 2.619 2.574 2.591 2.594 2.586 2.536 2.489 2.424 2.784 3.469 3.244 3.149 2.394 2.276 2.291 2.344 2.171 2.034 1.969 1.934 1.971 1.939 1.874 1.834 1.704 1.599 1.544 1.579 1.574 1.674 1.596 1.556 1.416 1.221 0.989 0.581 0.266 0.271 0.489 0.849 1.454 1.474 1.141 1.046 1.051 0.901 0.764 0.624 0.591 0.694 0.689 0.714 0.679 0.669 0.726 0.754 0.766 0.764 0.786 0.816 0.804 0.851 0.856 0.746 0.676 0.619 0.586 0.576 0.609 0.621 0.616 0.624 0.614 0.589 0.599 0.589 0.659 0.764 0.821 0.821 0.799 0.709 0.621 0.629 0.756 0.839 0.889 0.929 0.871 0.776 0.769 0.764 0.641 0.579 0.596 0.666 0.696 0.691 0.721 0.684 0.764 0.809 0.771 0.746 0.756 0.669 0.586 0.566 0.504 0.459 0.489 0.581 0.631 0.669 0.616 0.536 0.374 0.364 0.569 0.694 0.691 0.674 0.629 0.579 0.616 0.686 0.724 0.736 0.739 0.786 0.804 0.831 0.751 0.609 0.591 0.694 0.766 0.711 0.706 0.771 0.759 0.716 0.621 0.646 0.721 0.699 0.584 0.624 0.576 0.426 0.479 0.676 0.729 0.649 0.596 0.596 0.621 0.569 0.444 0.369 0.354 0.344 0.359 0.486 0.479 0.491 0.519 0.446 0.466 0.336 0.859 1.309 1.711 1.769 1.824 0.854 0.581 0.456 0.376 0.359 0.354 0.356 0.369 0.396 0.374 0.389 0.369 0.361 0.296 0.379 0.389 0.364 0.341 0.366 0.379 0.356 0.316 0.349 0.334 0.346 0.319 0.331 0.339 0.331 0.331 0.336 0.324 0.359 0.359 0.359 0.366 0.341 0.366 0.351 0.361 0.311 0.314 0.261 0.296 0.296 0.301 0.326 0.324 0.331 0.331 0.324 0.319 0.306 0.304 0.289 0.284 0.289 0.296 0.321 0.301 0.299 0.301 0.299 0.284 0.276 0.271 0.276 0.274 0.274 0.301 0.331 0.256 0.174 0.074 0.066 0.099 0.219 0.246 0.279 0.396 0.694 0.684 0.751 0.671 0.426 0.454 0.621 0.564
3.869 3.746 3.631 3.736 3.724 3.666 3.746 3.889 3.894 3.691 3.729 3.799 3.871 3.651 3.661 3.731 3.854 3.914 4.044 4.219 4.316 4.266 4.281 4.231 4.214 4.109 4.016 3.956 3.926 3.901 3.869 3.809 3.739 3.836 3.884 3.941 3.964 4.006 4.129 4.201 4.144 4.104 4.024 3.936 3.941 4.009 3.934 3.976 3.989 4.091 4.041 4.086 4.096 4.061 4.004 3.979 3.976 3.961 3.936 4.016 3.949 3.886 3.794 3.714 3.719 3.704 3.714 3.711 3.676 3.659 3.664 3.671 3.696 3.659 3.594 3.636 3.696 3.651 3.686 3.571 3.509 3.549 3.466 3.396 3.359 3.306 3.254 3.196 3.141 3.129 3.141 3.111 3.049 3.004 2.944 2.554 2.486 2.509 2.624 2.916 3.234 3.274 3.376 3.286 3.269 3.326 3.359 3.361 3.356 3.426 3.451 3.506 3.459 3.456 3.491 3.359 3.389 3.394 3.414 3.419 3.426 3.446 3.456 3.401 3.431 3.459 3.424 3.411 3.374 3.369 3.391 3.361 3.279 3.274 3.259 3.269 3.246 3.136 3.049 2.969 2.914 2.961 2.999 3.024 2.954 2.916 2.941 3.001 3.016 3.044 3.106 3.171 3.181 3.229 3.261 3.291 3.301 3.261 3.279 3.254 3.281 3.219 3.219 2.994 2.804 2.671 2.501 2.471 2.461 2.486 2.531 2.534 2.551 2.586 2.631 2.616 2.631 2.636 2.639 2.664 2.701 2.664 2.669 2.639 2.649 2.686 2.954 3.361 3.741 3.819 3.444 3.039 2.829 2.824 2.904 3.561 4.439 4.486 4.321 3.971 3.121 2.946 3.484 4.126 4.051 3.854 3.726 3.694 3.724 3.641 3.571 3.576 3.481 3.324 3.174 2.919 2.741 2.719 2.734 2.746 2.714 2.716 2.734 2.759 2.796 3.116 2.794 2.594 2.604 2.584 2.534 2.579 2.509 2.524 2.491 2.514 2.506 2.819 3.299 3.266 3.066 3.124 2.501 2.161 2.131 2.191 2.084 1.931 1.819 1.731 1.716 1.664 1.701 1.654 1.596 1.534 1.524 1.651 1.566 1.506 1.379 1.099 0.781 0.536 0.376 0.246 0.194 0.651 1.076 1.319 1.164 1.056 1.016 0.996 0.959 0.831 0.749 0.704 0.671 0.731 0.689 0.654 0.684 0.644 0.639 0.694 0.766 0.821 0.839 0.876 0.899 0.989 1.024 0.846 0.679 0.636 0.596 0.591 0.609 0.616 0.624 0.601 0.596 0.576 0.591 0.576 0.651 0.719 0.749 0.801 0.806 0.739 0.634 0.646 0.769 0.829 0.859 0.919 0.939 0.901 0.891 0.804 0.621 0.559 0.616 0.666 0.686 0.761 0.754 0.664 0.744 0.801 0.771 0.754 0.801 0.726 0.611 0.541 0.514 0.464 0.624 0.756 0.776 0.696 0.596 0.521 0.411 0.379 0.581 0.649 0.666 0.589 0.594 0.579 0.656 0.734 0.741 0.721 0.736 0.744 0.814 0.809 0.691 0.589 0.619 0.706 0.739 0.716 0.716 0.756 0.744 0.656 0.614 0.539 0.579 0.576 0.581 0.624 0.599 0.441 0.496 0.594 0.576 0.541 0.546 0.534 0.564 0.536 0.421 0.339 0.306 0.284 0.406 0.486 0.524 0.554 0.524 0.436 0.491 0.319 0.674 1.209 1.694 1.786 2.091 1.071 0.599 0.521 0.366 0.339 0.334 0.316 0.349 0.401 0.394 0.399 0.376 0.351 0.311 0.386 0.381 0.361 0.361 0.349 0.376 0.379 0.356 0.344 0.341 0.366 0.351 0.341 0.346 0.346 0.349 0.359 0.354 0.344 0.329 0.361 0.371 0.364 0.356 0.351 0.349 0.324 0.299 0.304 0.279 0.296 0.321 0.321 0.329 0.316 0.319 0.306 0.314 0.306 0.294 0.304 0.296 0.286 0.279 0.296 0.309 0.304 0.299 0.301 0.309 0.291 0.281 0.281 0.241 0.266 0.269 0.291 0.209 0.121 0.094 0.049 0.136 0.219 0.266 0.306 0.549 0.716 0.704 0.731 0.521 0.364 0.426 0.376 0.419
3.854 3.591 3.406 3.569 3.674 3.629 3.706 3.721 3.656 3.531 3.556 3.641 3.786 3.669 3.566 3.674 3.964 3.976 4.081 4.209 4.251 4.266 4.236 4.204 4.164 4.076 3.971 3.876 3.901 3.884 3.859 3.801 3.844 3.869 3.924 3.966 4.041 4.004 4.011 4.064 4.091 4.016 4.024 3.884 3.906 4.011 3.946 3.951 3.979 4.031 4.084 4.091 4.171 4.126 4.066 4.076 4.021 3.971 4.064 4.016 3.939 3.929 3.776 3.724 3.719 3.711 3.761 3.734 3.679 3.666 3.689 3.719 3.679 3.641 3.659 3.701 3.749 3.796 3.681 3.609 3.624 3.566 3.559 3.419 3.549 3.419 3.324 3.304 3.211 3.176 3.176 3.141 3.109 3.094 3.099 2.971 2.701 2.631 2.544 2.524 2.764 3.061 3.179 3.219 3.226 3.349 3.421 3.364 3.356 3.376 3.444 3.491 3.456 3.489 3.519 3.476 3.451 3.441 3.516 3.534 3.459 3.441 3.456 3.431 3.424 3.379 3.396 3.371 3.294 3.236 3.326 3.354 3.369 3.381 3.419 3.379 3.314 3.229 3.119 3.006 2.991 3.009 3.059 3.066 2.974 2.926 2.974 3.029 3.074 3.109 3.146 3.151 3.236 3.251 3.274 3.251 3.231 3.239 3.231 3.176 3.009 2.799 2.951 2.534 2.421 2.379 2.379 2.439 2.416 2.439 2.466 2.504 2.506 2.536 2.554 2.581 2.574 2.584 2.589 2.579 2.594 2.606 2.586 2.634 2.714 2.981 3.456 3.886 3.936 3.641 3.216 2.899 2.891 2.894 3.026 3.701 4.281 4.346 3.924 3.296 2.934 3.209 3.896 3.921 3.896 3.886 3.721 3.564 3.439 3.489 3.369 3.296 3.589 3.569 3.224 2.769 2.691 2.679 2.664 2.816 3.259 3.149 2.741 2.566 2.536 2.569 2.526 2.551 2.544 2.514 2.526 2.454 2.451 2.436 2.434 2.549 2.439 2.794 3.161 3.241 2.989 3.079 2.511 2.064 2.016 2.026 1.899 1.829 1.726 1.629 1.584 1.536 1.524 1.531 1.469 1.486 1.451 1.406 1.299 1.106 0.709 0.384 0.246 0.339 0.381 0.379 0.559 0.804 0.886 0.956 0.939 0.951 0.921 0.926 0.931 0.881 0.809 0.769 0.734 0.731 0.661 0.571 0.599 0.609 0.609 0.679 0.859 0.906 0.946 1.006 1.029 1.059 1.074 0.934 0.726 0.656 0.646 0.579 0.594 0.659 0.651 0.636 0.604 0.569 0.576 0.589 0.661 0.676 0.711 0.759 0.794 0.801 0.721 0.664 0.679 0.759 0.821 0.906 0.926 0.914 0.914 0.861 0.676 0.599 0.559 0.574 0.594 0.691 0.731 0.681 0.716 0.786 0.789 0.814 0.869 0.759 0.596 0.519 0.489 0.516 0.649 0.734 0.719 0.679 0.591 0.559 0.419 0.434 0.516 0.619 0.669 0.596 0.641 0.666 0.689 0.746 0.766 0.734 0.719 0.746 0.806 0.769 0.651 0.674 0.681 0.714 0.721 0.701 0.731 0.714 0.696 0.624 0.679 0.621 0.564 0.534 0.626 0.656 0.584 0.486 0.551 0.551 0.524 0.606 0.619 0.539 0.491 0.451 0.351 0.324 0.266 0.261 0.449 0.544 0.591 0.596 0.571 0.481 0.459 0.244 0.571 1.131 1.761 1.804 1.741 0.916 0.559 0.576 0.379 0.336 0.304 0.309 0.351 0.389 0.389 0.386 0.361 0.324 0.351 0.379 0.396 0.369 0.351 0.361 0.359 0.366 0.361 0.349 0.354 0.366 0.354 0.341 0.361 0.344 0.346 0.359 0.349 0.341 0.339 0.376 0.376 0.356 0.354 0.364 0.354 0.336 0.331 0.311 0.274 0.276 0.319 0.321 0.306 0.319 0.294 0.311 0.311 0.304 0.309 0.281 0.284 0.274 0.284 0.289 0.299 0.289 0.276 0.296 0.296 0.284 0.286 0.274 0.271 0.281 0.256 0.209 0.149 0.084 0.069 0.086 0.174 0.219 0.271 0.346 0.664 0.686 0.724 0.716 0.489 0.379 0.414 0.456 0.374
3.659 3.329 3.321 3.484 3.626 3.664 3.634 3.589 3.456 3.499 3.586 3.614 3.634 3.726 3.619 3.794 4.019 3.941 4.166 4.166 4.219 4.209 4.146 4.149 4.164 4.106 3.991 3.901 3.916 3.894 3.889 3.896 3.949 3.959 3.999 4.036 4.079 4.009 4.019 4.019 4.009 3.954 3.959 3.926 3.921 3.949 3.864 3.899 3.926 3.991 4.109 4.126 4.129 4.101 4.109 4.131 4.039 4.054 4.109 3.994 3.956 3.939 3.786 3.784 3.709 3.686 3.734 3.761 3.771 3.696 3.641 3.666 3.694 3.691 3.766 3.751 3.786 3.789 3.906 3.804 3.714 3.754 3.736 3.569 3.576 3.556 3.481 3.389 3.314 3.174 3.206 3.221 3.219 3.164 3.171 3.119 3.074 2.954 2.816 2.539 2.509 2.526 2.754 3.099 3.196 3.269 3.356 3.361 3.366 3.386 3.424 3.466 3.491 3.474 3.514 3.491 3.509 3.519 3.564 3.566 3.514 3.364 3.414 3.466 3.381 3.351 3.356 3.439 3.356 3.256 3.274 3.366 3.421 3.406 3.426 3.414 3.341 3.269 3.119 3.024 3.026 3.101 3.094 3.106 3.044 3.014 3.009 3.054 3.074 3.141 3.144 3.171 3.216 3.214 3.216 3.171 3.154 3.209 3.104 2.789 2.531 2.409 2.444 2.401 2.369 2.336 2.324 2.384 2.396 2.406 2.439 2.416 2.479 2.486 2.514 2.531 2.539 2.534 2.544 2.531 2.546 2.561 2.611 2.789 3.141 3.474 3.761 3.814 3.569 3.116 2.926 2.836 2.826 2.841 2.866 3.166 3.596 3.444 3.044 3.176 3.201 3.234 3.869 3.901 3.784 3.811 3.776 3.471 3.371 3.581 3.526 3.594 3.366 3.361 2.826 2.639 2.641 2.601 2.704 3.809 3.921 3.624 3.121 2.594 2.546 2.629 2.969 2.869 2.834 2.571 2.466 2.391 2.406 2.371 2.389 2.474 2.666 2.591 3.106 3.179 3.159 3.179 2.296 1.961 1.871 1.799 1.716 1.656 1.559 1.479 1.386 1.374 1.429 1.471 1.449 1.424 1.196 1.041 0.821 0.406 0.184 0.101 0.571 0.731 0.801 0.881 0.984 0.984 0.964 0.914 0.869 0.874 0.866 0.876 0.881 0.934 0.891 0.854 0.806 0.719 0.621 0.564 0.571 0.519 0.561 0.759 0.896 0.964 1.016 1.076 1.099 1.091 1.069 0.961 0.764 0.699 0.639 0.599 0.616 0.726 0.786 0.759 0.649 0.604 0.616 0.629 0.729 0.746 0.699 0.749 0.814 0.829 0.809 0.779 0.794 0.791 0.829 0.874 0.919 0.926 0.906 0.889 0.776 0.656 0.561 0.569 0.576 0.599 0.666 0.661 0.734 0.826 0.814 0.839 0.879 0.741 0.571 0.511 0.496 0.514 0.539 0.574 0.554 0.614 0.616 0.531 0.414 0.416 0.459 0.619 0.691 0.694 0.716 0.729 0.724 0.721 0.759 0.751 0.701 0.741 0.781 0.719 0.656 0.739 0.784 0.714 0.664 0.651 0.691 0.724 0.661 0.616 0.744 0.766 0.704 0.641 0.691 0.651 0.554 0.549 0.676 0.619 0.526 0.611 0.669 0.569 0.464 0.384 0.299 0.309 0.249 0.314 0.494 0.589 0.614 0.609 0.606 0.506 0.426 0.236 0.381 1.046 2.471 1.894 1.736 1.394 0.781 0.534 0.346 0.299 0.276 0.296 0.341 0.381 0.369 0.361 0.354 0.301 0.336 0.374 0.394 0.376 0.356 0.359 0.379 0.344 0.356 0.351 0.344 0.369 0.381 0.344 0.341 0.321 0.351 0.356 0.349 0.349 0.361 0.381 0.381 0.369 0.381 0.376 0.359 0.344 0.339 0.341 0.301 0.266 0.301 0.299 0.294 0.316 0.331 0.339 0.324 0.331 0.319 0.291 0.264 0.294 0.291 0.284 0.294 0.284 0.289 0.284 0.276 0.276 0.291 0.269 0.284 0.296 0.216 0.169 0.134 0.009 0.144 0.071 0.129 0.134 0.249 0.401 0.711 0.681 0.754 0.599 0.421 0.461 0.429 0.551 0.386
3.351 3.274 3.384 3.531 3.484 3.586 3.551 3.484 3.544 3.544 3.579 3.631 3.631 3.824 3.734 3.846 3.914 3.999 4.111 4.091 4.144 4.116 4.004 4.066 4.124 4.096 4.084 3.956 3.891 3.906 3.889 3.949 3.991 4.016 4.116 4.116 4.096 4.014 3.999 3.981 3.931 3.886 3.854 3.904 3.899 3.856 3.856 3.861 3.934 3.989 4.094 4.126 4.076 4.061 4.091 4.129 4.064 4.084 4.056 4.024 3.924 3.859 3.859 3.891 3.761 3.696 3.716 3.759 3.816 3.756 3.719 3.686 3.734 3.776 3.846 3.894 3.971 3.919 3.886 3.891 3.939 3.891 3.924 3.794 3.749 3.641 3.579 3.469 3.379 3.349 3.299 3.286 3.289 3.251 3.181 3.161 3.141 3.106 3.049 2.799 2.581 2.471 2.444 2.486 2.924 3.179 3.379 3.376 3.371 3.374 3.434 3.496 3.529 3.541 3.566 3.549 3.576 3.514 3.469 3.514 3.479 3.414 3.404 3.451 3.454 3.404 3.341 3.376 3.364 3.271 3.234 3.331 3.426 3.321 3.411 3.431 3.414 3.321 3.221 3.089 3.006 3.079 3.079 3.106 3.104 3.061 2.994 3.034 3.079 3.116 3.139 3.191 3.191 3.221 3.171 3.066 2.934 2.736 2.501 2.316 2.296 2.336 2.351 2.326 2.324 2.314 2.304 2.329 2.379 2.356 2.396 2.416 2.454 2.441 2.461 2.464 2.476 2.489 2.511 2.554 2.589 2.671 2.976 3.369 3.624 3.721 3.529 3.296 3.049 2.809 2.786 2.784 2.796 2.814 2.799 2.799 2.839 3.266 3.566 3.399 3.274 3.384 3.461 3.769 3.761 3.834 3.776 3.519 3.374 3.456 3.439 3.109 2.869 2.644 2.574 2.541 2.554 2.514 2.931 3.946 3.934 3.569 3.274 2.791 2.694 3.016 3.624 3.166 3.144 2.894 2.834 2.431 2.469 2.544 2.676 2.711 2.794 2.794 2.979 3.314 3.331 2.916 1.979 1.821 1.744 1.654 1.571 1.436 1.391 1.314 1.299 1.349 1.496 1.481 1.409 1.244 0.944 0.544 0.314 0.244 0.361 0.636 0.794 0.871 0.989 1.006 0.994 0.946 0.956 0.911 0.854 0.826 0.781 0.804 0.829 0.899 0.911 0.904 0.816 0.754 0.624 0.574 0.529 0.524 0.621 0.746 0.976 0.999 1.039 1.091 1.091 1.104 1.059 0.976 0.806 0.676 0.679 0.646 0.606 0.696 0.806 0.814 0.699 0.654 0.644 0.646 0.796 0.859 0.766 0.766 0.804 0.839 0.836 0.869 0.846 0.859 0.889 0.876 0.904 0.936 0.899 0.859 0.824 0.779 0.721 0.666 0.581 0.581 0.599 0.631 0.789 0.849 0.809 0.836 0.896 0.764 0.594 0.551 0.506 0.489 0.459 0.446 0.454 0.549 0.679 0.676 0.516 0.394 0.391 0.586 0.669 0.681 0.749 0.744 0.709 0.721 0.749 0.754 0.746 0.729 0.709 0.704 0.631 0.721 0.754 0.716 0.686 0.641 0.661 0.714 0.669 0.596 0.674 0.766 0.749 0.716 0.721 0.641 0.576 0.661 0.789 0.706 0.524 0.496 0.624 0.556 0.416 0.349 0.271 0.254 0.286 0.386 0.534 0.596 0.634 0.644 0.636 0.496 0.311 0.131 0.189 1.049 2.611 2.099 2.169 3.074 0.656 0.481 0.386 0.316 0.319 0.319 0.351 0.374 0.361 0.346 0.336 0.311 0.351 0.379 0.391 0.381 0.374 0.371 0.366 0.366 0.351 0.329 0.331 0.359 0.374 0.349 0.361 0.366 0.366 0.359 0.371 0.361 0.369 0.386 0.394 0.384 0.396 0.394 0.381 0.354 0.336 0.324 0.314 0.241 0.296 0.301 0.286 0.301 0.314 0.331 0.289 0.304 0.304 0.316 0.299 0.294 0.299 0.296 0.276 0.289 0.286 0.284 0.281 0.274 0.256 0.289 0.276 0.244 0.179 0.171 0.126 0.064 -0.009 0.081 0.116 0.134 0.266 0.721 0.699 0.699 0.764 0.494 0.574 0.461 0.471 0.479 0.284
3.116 3.179 3.321 3.421 3.454 3.439 3.489 3.554 3.619 3.584 3.569 3.601 3.596 3.706 3.969 3.851 3.826 3.929 4.046 4.064 4.094 4.039 3.946 3.954 4.014 4.051 4.006 3.944 3.949 3.919 3.971 4.014 4.066 4.054 4.189 4.161 4.119 4.034 3.966 4.006 3.889 3.776 3.749 3.809 3.839 3.904 3.939 3.889 3.921 3.999 4.014 4.011 4.011 4.046 4.076 4.104 4.061 4.056 4.066 3.989 3.914 3.906 3.886 3.894 3.784 3.759 3.761 3.789 3.829 3.804 3.769 3.789 3.769 3.724 3.894 3.969 3.939 4.031 3.961 4.006 3.994 3.961 3.916 3.866 3.826 3.766 3.631 3.539 3.561 3.541 3.454 3.379 3.351 3.276 3.214 3.129 3.186 3.156 3.136 3.161 3.034 2.696 2.439 2.394 2.449 2.771 3.276 3.344 3.379 3.396 3.424 3.504 3.496 3.491 3.581 3.506 3.541 3.436 3.449 3.524 3.421 3.416 3.394 3.369 3.411 3.404 3.294 3.389 3.431 3.169 3.184 3.261 3.321 3.319 3.421 3.401 3.421 3.326 3.264 3.119 2.991 3.024 3.006 3.046 3.066 3.064 3.026 3.056 3.141 3.124 3.106 3.219 3.209 3.256 3.051 2.599 2.304 2.231 2.249 2.276 2.254 2.251 2.314 2.286 2.309 2.289 2.294 2.296 2.351 2.366 2.364 2.371 2.381 2.409 2.404 2.414 2.444 2.429 2.479 2.604 2.831 3.054 3.444 3.536 3.601 3.329 2.986 2.844 2.789 2.734 2.736 2.749 2.729 2.721 2.761 3.284 3.429 3.441 3.371 3.136 3.159 3.124 2.791 2.971 3.096 3.264 3.226 2.886 2.839 2.689 2.649 2.561 2.549 2.526 2.516 2.491 2.476 2.469 2.916 3.949 3.979 3.764 3.429 3.491 3.279 2.934 3.481 3.191 3.176 3.014 3.141 2.779 2.666 2.924 2.849 2.674 2.594 2.371 2.464 2.936 2.264 1.876 1.741 1.661 1.574 1.486 1.409 1.319 1.221 1.224 1.276 1.419 1.444 1.334 1.206 0.864 0.329 0.146 0.231 0.596 0.806 0.934 0.981 1.019 1.014 1.004 0.989 0.969 0.949 0.864 0.806 0.769 0.689 0.699 0.749 0.831 0.891 0.884 0.786 0.711 0.601 0.549 0.529 0.591 0.714 0.801 0.961 1.074 1.054 1.079 1.079 1.076 1.004 0.956 0.829 0.721 0.684 0.706 0.609 0.619 0.706 0.809 0.766 0.746 0.706 0.709 0.796 0.884 0.811 0.726 0.794 0.829 0.821 0.819 0.844 0.891 0.861 0.809 0.816 0.854 0.861 0.831 0.804 0.794 0.744 0.731 0.661 0.621 0.629 0.641 0.856 0.856 0.834 0.836 0.859 0.809 0.639 0.584 0.549 0.516 0.444 0.384 0.369 0.514 0.739 0.759 0.606 0.394 0.334 0.509 0.626 0.704 0.774 0.764 0.734 0.661 0.676 0.741 0.779 0.736 0.724 0.734 0.671 0.706 0.739 0.739 0.724 0.694 0.724 0.786 0.724 0.569 0.559 0.674 0.704 0.704 0.729 0.611 0.561 0.694 0.776 0.774 0.541 0.434 0.529 0.514 0.399 0.336 0.199 0.216 0.321 0.461 0.564 0.609 0.634 0.641 0.579 0.536 0.361 0.134 0.151 0.701 1.324 1.799 1.929 1.824 0.716 0.324 0.396 0.309 0.284 0.301 0.306 0.351 0.354 0.316 0.321 0.339 0.379 0.409 0.399 0.399 0.379 0.386 0.359 0.339 0.354 0.329 0.334 0.369 0.349 0.351 0.339 0.356 0.364 0.354 0.391 0.379 0.369 0.359 0.381 0.404 0.381 0.399 0.381 0.344 0.359 0.341 0.351 0.296 0.269 0.296 0.299 0.311 0.309 0.331 0.299 0.309 0.306 0.319 0.311 0.284 0.306 0.309 0.281 0.291 0.281 0.276 0.286 0.276 0.279 0.284 0.254 0.241 0.186 0.169 0.099 0.056 0.071 0.066 0.074 0.131 0.386 1.139 0.694 0.721 0.691 0.389 0.479 0.396 0.476 0.429 0.231
2.829 3.146 3.334 3.494 3.516 3.391 3.529 3.561 3.569 3.554 3.576 3.629 3.564 3.606 3.666 3.754 3.804 3.816 3.889 4.049 4.039 3.896 3.691 3.699 3.881 3.896 3.909 3.894 4.004 3.956 3.974 4.039 4.069 4.111 4.179 4.141 4.046 4.031 3.934 3.931 3.831 3.709 3.649 3.681 3.761 3.869 3.946 3.939 3.939 3.981 4.011 4.021 3.996 3.991 4.036 4.101 4.024 3.994 4.004 3.986 3.979 3.971 3.924 3.841 3.791 3.794 3.794 3.811 3.816 3.824 3.806 3.751 3.734 3.744 3.799 3.891 3.899 3.986 4.041 4.014 3.894 3.916 3.934 3.894 3.809 3.781 3.784 3.739 3.671 3.639 3.606 3.524 3.426 3.364 3.324 3.184 3.186 3.131 3.114 3.116 3.041 2.994 2.821 2.656 2.461 2.421 2.614 2.904 3.154 3.321 3.434 3.486 3.509 3.436 3.464 3.531 3.494 3.446 3.459 3.474 3.506 3.424 3.351 3.414 3.384 3.376 3.461 3.321 3.321 3.299 3.199 3.229 3.261 3.504 3.486 3.414 3.326 3.249 3.146 3.089 3.084 3.146 2.976 2.979 3.044 3.031 3.044 3.071 3.031 3.076 3.011 3.069 2.961 2.804 2.384 2.181 2.171 2.184 2.184 2.214 2.206 2.219 2.236 2.266 2.266 2.279 2.264 2.319 2.329 2.344 2.336 2.331 2.321 2.356 2.354 2.396 2.441 2.566 2.786 3.011 3.299 3.366 3.526 3.399 3.106 2.914 2.739 2.696 2.681 2.664 2.664 2.691 2.654 3.014 3.586 3.666 3.549 3.156 2.986 3.021 2.981 3.161 2.639 2.621 2.616 2.644 2.581 2.561 2.549 2.501 2.476 2.556 2.784 2.824 2.739 2.536 2.419 2.381 2.641 3.246 3.296 3.341 3.489 3.559 3.214 3.114 3.224 3.191 2.986 3.201 3.351 3.166 3.236 3.076 2.911 2.611 2.571 1.984 1.891 1.801 1.694 1.654 1.601 1.521 1.471 1.411 1.369 1.231 1.131 1.166 1.374 1.521 1.479 1.216 0.836 0.531 0.126 0.304 0.774 0.979 0.969 0.946 0.971 0.954 0.964 0.959 0.929 0.876 0.846 0.784 0.779 0.691 0.571 0.559 0.654 0.781 0.836 0.819 0.761 0.676 0.624 0.591 0.604 0.699 0.789 0.891 0.949 1.011 1.081 1.039 1.039 1.044 0.991 0.974 0.851 0.774 0.759 0.764 0.691 0.616 0.631 0.789 0.824 0.791 0.791 0.796 0.806 0.879 0.821 0.711 0.749 0.811 0.831 0.844 0.859 0.866 0.846 0.756 0.716 0.744 0.806 0.834 0.806 0.739 0.719 0.754 0.786 0.674 0.579 0.654 0.804 0.796 0.834 0.844 0.809 0.834 0.761 0.614 0.591 0.581 0.519 0.394 0.371 0.529 0.741 0.719 0.541 0.461 0.316 0.411 0.579 0.684 0.731 0.721 0.671 0.559 0.581 0.739 0.789 0.764 0.729 0.749 0.721 0.636 0.681 0.774 0.781 0.756 0.774 0.799 0.784 0.616 0.541 0.584 0.659 0.701 0.736 0.676 0.561 0.664 0.726 0.716 0.546 0.414 0.471 0.441 0.311 0.309 0.176 0.201 0.369 0.496 0.591 0.631 0.621 0.606 0.479 0.414 0.191 0.129 0.121 0.536 1.074 1.489 1.869 1.534 0.866 0.379 0.439 0.329 0.309 0.289 0.284 0.306 0.321 0.319 0.339 0.354 0.409 0.416 0.416 0.389 0.401 0.379 0.381 0.354 0.349 0.341 0.356 0.369 0.349 0.344 0.356 0.359 0.354 0.361 0.339 0.354 0.371 0.379 0.386 0.394 0.384 0.411 0.394 0.376 0.366 0.351 0.349 0.329 0.301 0.291 0.306 0.321 0.319 0.309 0.289 0.301 0.311 0.331 0.269 0.294 0.309 0.306 0.296 0.274 0.296 0.241 0.296 0.291 0.296 0.274 0.251 0.219 0.154 0.126 0.071 0.021 0.071 0.106 0.119 0.149 0.534 0.901 0.681 0.734 0.704 0.389 0.439 0.424 0.494 0.364 0.239
2.694 2.936 3.324 3.124 2.874 3.184 3.514 3.496 3.514 3.506 3.526 3.516 3.601 3.661 3.764 3.721 3.801 3.781 3.851 3.789 3.704 3.599 3.579 3.646 3.741 3.731 3.781 3.876 3.981 4.004 3.966 4.059 4.101 4.141 4.159 4.094 4.001 3.941 3.896 3.776 3.706 3.591 3.574 3.566 3.696 3.801 3.916 3.971 3.966 3.984 4.024 4.031 4.001 3.946 3.976 3.976 3.989 3.871 3.916 4.011 4.021 3.961 3.971 3.874 3.816 3.754 3.769 3.774 3.806 3.799 3.846 3.751 3.706 3.739 3.751 3.806 3.829 3.911 4.031 3.951 3.856 3.886 3.941 3.951 3.806 3.804 3.756 3.764 3.771 3.761 3.701 3.569 3.479 3.399 3.334 3.241 3.196 3.186 3.151 3.096 3.079 3.084 3.039 3.004 2.929 2.609 2.376 2.409 2.641 2.919 3.266 3.391 3.396 3.394 3.436 3.434 3.431 3.436 3.514 3.494 3.424 3.421 3.369 3.471 3.474 3.416 3.326 3.394 3.396 3.239 3.296 3.279 3.256 3.431 3.441 3.384 3.254 3.194 3.091 3.099 3.076 3.024 2.936 3.009 2.984 2.989 2.994 3.026 2.931 2.771 2.501 2.521 2.441 2.161 2.086 2.116 2.131 2.146 2.169 2.184 2.181 2.191 2.196 2.219 2.224 2.244 2.254 2.291 2.306 2.304 2.346 2.316 2.304 2.314 2.339 2.449 2.731 3.029 3.231 3.399 3.374 3.144 2.974 2.761 2.676 2.661 2.614 2.629 2.629 2.631 2.636 2.604 2.721 3.589 3.656 3.504 3.456 3.056 3.104 3.056 3.116 2.806 2.551 2.546 2.516 2.539 2.504 2.451 2.456 2.416 2.444 2.941 3.474 3.294 3.341 2.919 2.379 2.316 2.324 2.324 2.334 2.419 3.251 3.551 3.281 3.096 3.006 3.236 3.331 3.311 3.176 3.039 3.286 3.066 2.654 2.366 2.114 1.884 1.789 1.666 1.576 1.506 1.426 1.379 1.369 1.356 1.304 1.186 1.369 1.591 1.454 1.401 1.266 0.934 0.449 0.249 0.481 0.894 1.061 1.026 0.981 0.984 0.956 0.926 0.934 0.911 0.869 0.814 0.766 0.779 0.769 0.711 0.659 0.581 0.566 0.689 0.744 0.756 0.696 0.634 0.589 0.604 0.674 0.769 0.874 0.941 0.986 0.999 1.001 1.011 1.036 1.014 0.979 0.934 0.904 0.889 0.889 0.879 0.851 0.694 0.636 0.794 0.859 0.839 0.864 0.831 0.836 0.879 0.889 0.804 0.771 0.831 0.836 0.859 0.871 0.906 0.899 0.771 0.681 0.726 0.844 0.876 0.806 0.769 0.706 0.769 0.814 0.724 0.604 0.626 0.731 0.761 0.821 0.804 0.806 0.831 0.841 0.721 0.616 0.576 0.536 0.459 0.449 0.576 0.744 0.736 0.614 0.484 0.389 0.401 0.516 0.659 0.704 0.691 0.584 0.519 0.564 0.699 0.806 0.761 0.736 0.756 0.744 0.639 0.629 0.754 0.791 0.786 0.754 0.714 0.709 0.616 0.516 0.571 0.604 0.679 0.739 0.699 0.569 0.576 0.616 0.601 0.496 0.451 0.466 0.394 0.319 0.276 0.244 0.266 0.396 0.534 0.644 0.639 0.596 0.529 0.426 0.336 0.286 0.134 0.176 0.461 0.896 1.314 1.714 1.634 1.046 0.476 0.436 0.356 0.299 0.309 0.306 0.304 0.284 0.376 0.379 0.369 0.379 0.404 0.406 0.414 0.429 0.396 0.396 0.381 0.366 0.346 0.346 0.366 0.391 0.364 0.361 0.371 0.359 0.369 0.369 0.366 0.359 0.389 0.376 0.374 0.404 0.406 0.421 0.391 0.389 0.386 0.366 0.314 0.286 0.306 0.314 0.301 0.294 0.296 0.304 0.301 0.321 0.336 0.301 0.289 0.264 0.279 0.289 0.279 0.261 0.281 0.294 0.286 0.296 0.246 0.221 0.189 0.134 0.029 -0.011 0.071 0.146 0.184 0.189 0.251 0.859 0.699 0.689 0.771 0.759 0.536 0.379 0.406 0.489 0.251 0.266
2.424 2.591 2.979 3.411 3.259 3.641 3.569 3.461 3.491 3.589 3.504 3.506 3.629 3.624 3.816 3.784 3.711 3.729 3.694 3.641 3.591 3.516 3.471 3.571 3.646 3.659 3.759 3.864 3.891 3.886 3.914 3.979 4.111 4.136 4.094 4.051 3.854 3.786 3.816 3.769 3.654 3.674 3.514 3.516 3.606 3.744 3.926 3.969 3.956 3.979 4.004 3.966 3.944 3.931 3.954 3.899 3.881 3.826 3.889 3.951 4.014 3.946 3.881 3.889 3.899 3.859 3.824 3.814 3.836 3.806 3.789 3.699 3.736 3.789 3.739 3.764 3.866 3.939 3.969 3.984 3.991 4.024 4.001 3.896 3.846 3.791 3.771 3.786 3.871 3.754 3.784 3.709 3.629 3.504 3.359 3.271 3.269 3.204 3.164 3.124 3.101 3.104 3.061 3.039 3.021 3.029 2.681 2.514 2.416 2.454 2.606 3.106 3.309 3.391 3.381 3.411 3.416 3.449 3.439 3.429 3.401 3.414 3.424 3.469 3.531 3.449 3.429 3.374 3.411 3.429 3.399 3.359 3.381 3.379 3.354 3.331 3.244 3.164 3.064 3.091 3.044 2.989 2.999 3.019 2.881 2.921 2.896 2.834 2.604 2.179 2.061 2.164 2.129 2.014 2.044 2.069 2.089 2.129 2.136 2.129 2.146 2.141 2.151 2.196 2.189 2.159 2.219 2.276 2.256 2.279 2.281 2.319 2.281 2.356 2.619 2.909 3.204 3.466 3.411 3.254 2.936 2.756 2.621 2.599 2.559 2.571 2.579 2.584 2.536 2.539 2.581 2.591 2.559 2.841 3.294 3.431 3.219 2.826 2.931 2.684 2.504 2.501 2.471 2.461 2.461 2.491 2.456 2.399 2.381 2.361 2.349 3.209 3.454 3.409 3.571 3.136 2.399 2.299 2.336 2.354 2.319 2.314 3.314 3.624 3.484 3.341 3.131 3.059 2.896 2.846 2.484 2.271 2.481 2.314 2.099 2.001 1.859 1.761 1.646 1.571 1.484 1.381 1.334 1.376 1.271 1.261 1.181 1.069 1.229 1.509 1.431 1.354 1.231 0.624 0.164 0.451 0.951 1.126 1.059 0.974 0.976 0.986 0.979 0.956 0.899 0.846 0.801 0.779 0.739 0.764 0.796 0.831 0.831 0.746 0.666 0.629 0.706 0.626 0.649 0.554 0.536 0.601 0.671 0.791 0.891 0.976 1.019 1.004 0.999 0.981 0.991 0.961 0.976 0.929 0.884 0.901 0.899 0.859 0.816 0.659 0.614 0.761 0.859 0.864 0.886 0.871 0.844 0.876 0.901 0.866 0.814 0.851 0.831 0.856 0.856 0.906 0.861 0.766 0.661 0.674 0.796 0.874 0.841 0.799 0.764 0.761 0.811 0.759 0.616 0.574 0.661 0.769 0.836 0.771 0.751 0.786 0.829 0.811 0.686 0.586 0.529 0.516 0.546 0.666 0.779 0.769 0.639 0.474 0.401 0.316 0.364 0.554 0.636 0.659 0.584 0.624 0.709 0.756 0.776 0.769 0.726 0.746 0.746 0.699 0.579 0.654 0.719 0.709 0.681 0.671 0.641 0.591 0.606 0.666 0.664 0.696 0.721 0.719 0.651 0.524 0.514 0.509 0.454 0.469 0.501 0.379 0.316 0.234 0.314 0.364 0.501 0.641 0.676 0.651 0.589 0.436 0.421 0.294 0.246 0.226 0.231 0.181 0.704 1.209 1.659 1.714 1.216 0.614 0.411 0.399 0.301 0.301 0.309 0.326 0.351 0.389 0.389 0.371 0.369 0.376 0.386 0.409 0.446 0.414 0.396 0.389 0.359 0.344 0.371 0.369 0.371 0.371 0.369 0.361 0.354 0.364 0.366 0.369 0.391 0.399 0.391 0.384 0.384 0.384 0.381 0.391 0.374 0.371 0.356 0.364 0.334 0.336 0.311 0.274 0.296 0.319 0.324 0.301 0.316 0.309 0.294 0.281 0.259 0.286 0.266 0.244 0.274 0.271 0.266 0.261 0.219 0.194 0.194 0.179 0.086 0.044 0.051 0.144 0.251 0.241 0.274 0.531 0.936 0.624 0.719 0.734 0.496 0.394 0.456 0.419 0.396 0.206 0.269
2.386 2.301 2.534 2.546 2.934 3.311 3.361 3.471 3.406 3.536 3.481 3.451 3.591 3.756 3.784 3.831 3.784 3.674 3.599 3.531 3.429 3.226 3.366 3.491 3.571 3.614 3.851 3.886 3.866 3.904 4.026 4.049 4.061 3.966 3.984 3.979 3.789 3.604 3.641 3.649 3.631 3.704 3.519 3.446 3.529 3.629 3.714 3.839 3.859 3.914 3.989 3.929 3.904 3.879 3.916 3.859 3.824 3.816 3.859 3.886 3.946 3.936 3.914 3.959 3.981 4.011 3.916 3.824 3.841 3.786 3.754 3.744 3.789 3.794 3.724 3.884 3.841 3.939 3.969 3.931 3.979 4.054 4.039 4.006 3.961 3.844 3.759 3.786 3.764 3.754 3.736 3.826 3.684 3.609 3.536 3.339 3.284 3.279 3.226 3.226 3.169 3.139 3.139 3.141 3.076 3.104 3.019 2.771 2.624 2.516 2.359 2.511 2.869 3.129 3.189 3.319 3.394 3.421 3.434 3.439 3.464 3.454 3.479 3.461 3.454 3.539 3.434 3.409 3.489 3.489 3.461 3.511 3.496 3.364 3.386 3.264 3.126 3.084 3.044 3.019 3.039 3.099 3.021 2.971 2.856 2.786 2.459 2.301 2.081 1.994 1.941 1.964 1.971 1.959 1.954 2.006 2.026 2.021 2.084 2.091 2.074 2.084 2.096 2.131 2.151 2.111 2.161 2.176 2.211 2.224 2.219 2.304 2.449 2.774 3.236 3.449 3.439 3.319 3.019 2.734 2.624 2.529 2.506 2.501 2.516 2.481 2.511 2.526 2.571 2.631 2.556 2.486 2.506 2.526 3.076 3.251 2.796 2.666 2.559 2.479 2.474 2.444 2.424 2.384 2.361 2.364 2.341 2.324 2.319 2.296 2.266 2.696 3.556 3.636 3.424 2.769 2.341 2.234 2.286 2.306 2.324 2.249 2.514 3.196 3.424 3.414 2.909 2.241 2.094 2.131 2.119 2.046 1.999 1.994 2.091 1.916 1.756 1.646 1.534 1.464 1.411 1.334 1.271 1.306 1.241 1.096 0.966 0.939 1.054 1.409 1.411 1.319 0.896 0.356 0.346 0.836 1.081 1.056 0.974 0.939 0.976 0.979 0.926 0.899 0.884 0.861 0.799 0.791 0.794 0.834 0.859 0.956 0.984 0.936 0.814 0.671 0.599 0.584 0.591 0.539 0.574 0.639 0.729 0.824 0.906 0.959 1.016 1.024 1.006 0.989 0.999 0.979 0.984 0.969 0.931 0.894 0.829 0.754 0.669 0.629 0.624 0.749 0.871 0.871 0.886 0.889 0.876 0.854 0.886 0.889 0.839 0.821 0.851 0.836 0.844 0.886 0.756 0.689 0.654 0.669 0.734 0.836 0.846 0.836 0.799 0.786 0.771 0.701 0.599 0.604 0.656 0.791 0.856 0.766 0.754 0.756 0.791 0.721 0.659 0.591 0.546 0.509 0.524 0.599 0.719 0.754 0.609 0.486 0.379 0.341 0.371 0.404 0.516 0.599 0.629 0.741 0.789 0.764 0.759 0.746 0.731 0.751 0.774 0.726 0.624 0.596 0.616 0.641 0.671 0.671 0.634 0.654 0.709 0.734 0.714 0.699 0.746 0.749 0.721 0.619 0.591 0.576 0.556 0.529 0.496 0.371 0.254 0.269 0.394 0.511 0.626 0.679 0.681 0.644 0.564 0.356 0.344 0.346 0.434 0.379 0.244 0.149 0.589 1.291 1.541 1.741 1.506 0.931 0.426 0.429 0.321 0.294 0.294 0.331 0.346 0.381 0.389 0.374 0.376 0.389 0.389 0.396 0.409 0.424 0.404 0.381 0.356 0.366 0.366 0.366 0.394 0.384 0.396 0.384 0.379 0.359 0.369 0.369 0.381 0.374 0.381 0.391 0.374 0.351 0.366 0.396 0.384 0.369 0.381 0.359 0.321 0.326 0.301 0.289 0.316 0.299 0.331 0.274 0.291 0.321 0.289 0.236 0.241 0.281 0.266 0.261 0.256 0.276 0.244 0.224 0.181 0.131 0.146 0.054 0.039 0.019 0.056 0.194 0.269 0.306 0.316 0.579 0.666 0.646 0.724 0.641 0.779 0.391 0.479 0.429 0.259 0.214 0.254
2.551 2.374 2.301 2.274 2.511 2.751 3.164 3.271 3.246 3.384 3.374 3.504 3.551 3.736 3.781 3.839 3.656 3.551 3.516 3.369 3.169 3.184 3.366 3.391 3.499 3.576 3.771 3.731 3.866 3.906 3.891 3.894 3.911 3.864 3.766 3.719 3.456 3.444 3.496 3.509 3.466 3.409 3.374 3.399 3.426 3.489 3.566 3.684 3.804 3.891 3.934 3.921 3.901 3.869 3.824 3.839 3.816 3.804 3.841 3.859 3.931 3.936 3.951 3.999 3.999 4.011 3.929 3.889 3.891 3.786 3.729 3.826 3.786 3.844 3.846 3.879 3.794 3.904 3.954 3.991 4.014 4.036 4.091 4.089 4.039 3.959 3.919 3.836 3.741 3.731 3.699 3.761 3.744 3.704 3.574 3.484 3.389 3.346 3.334 3.269 3.266 3.251 3.204 3.229 3.161 3.146 3.161 3.096 3.064 2.829 2.541 2.384 2.434 2.571 2.906 3.191 3.334 3.391 3.414 3.446 3.514 3.534 3.534 3.504 3.491 3.479 3.454 3.454 3.461 3.404 3.489 3.476 3.416 3.294 3.241 3.196 3.091 3.059 2.936 3.036 3.004 2.959 2.851 2.821 2.651 2.279 2.059 1.976 1.979 1.944 1.909 1.886 1.894 1.901 1.914 1.954 1.961 1.981 2.029 2.056 2.019 2.046 2.031 2.076 2.084 2.074 2.091 2.131 2.149 2.204 2.261 2.484 2.936 3.329 3.639 3.429 3.044 2.791 2.584 2.469 2.441 2.449 2.486 2.526 2.444 2.409 2.479 2.679 2.709 2.581 2.531 2.509 2.474 2.539 3.264 3.064 2.789 2.649 2.754 3.049 2.906 2.366 2.336 2.321 2.299 2.369 2.329 2.266 2.251 2.231 2.219 2.309 2.924 3.131 2.434 2.324 2.224 2.224 2.266 2.286 2.229 2.229 2.251 2.209 2.591 2.609 2.139 1.996 1.999 2.039 2.009 1.969 1.934 1.891 1.826 1.736 1.661 1.539 1.424 1.379 1.414 1.341 1.214 1.166 1.109 1.051 0.954 0.969 1.171 1.371 1.411 1.261 0.614 0.159 0.614 0.984 1.001 0.959 0.939 0.936 0.986 0.954 0.879 0.864 0.886 0.894 0.879 0.919 0.919 0.931 0.929 1.006 1.066 0.989 0.864 0.761 0.666 0.561 0.544 0.626 0.656 0.741 0.829 0.879 0.891 0.934 1.019 1.006 1.001 0.996 1.009 1.006 0.996 0.976 0.946 0.851 0.746 0.706 0.626 0.626 0.726 0.859 0.919 0.931 0.924 0.931 0.946 0.884 0.869 0.866 0.846 0.861 0.851 0.871 0.901 0.846 0.689 0.629 0.604 0.614 0.671 0.761 0.796 0.781 0.784 0.764 0.704 0.636 0.636 0.686 0.766 0.846 0.839 0.806 0.781 0.779 0.751 0.641 0.606 0.639 0.634 0.541 0.521 0.554 0.549 0.579 0.486 0.451 0.439 0.366 0.379 0.319 0.419 0.579 0.666 0.734 0.784 0.714 0.716 0.751 0.749 0.766 0.716 0.621 0.571 0.594 0.564 0.569 0.566 0.584 0.596 0.586 0.631 0.659 0.669 0.666 0.706 0.711 0.689 0.646 0.641 0.639 0.569 0.536 0.484 0.384 0.296 0.319 0.486 0.596 0.634 0.649 0.654 0.639 0.536 0.311 0.379 0.446 0.466 0.486 0.399 0.146 0.436 1.131 1.814 2.009 1.631 0.994 0.411 0.464 0.349 0.314 0.331 0.306 0.356 0.409 0.381 0.384 0.366 0.366 0.386 0.399 0.379 0.409 0.386 0.384 0.366 0.361 0.369 0.376 0.396 0.406 0.414 0.396 0.384 0.396 0.366 0.379 0.399 0.389 0.396 0.401 0.361 0.371 0.379 0.386 0.366 0.389 0.419 0.369 0.344 0.314 0.306 0.299 0.304 0.294 0.274 0.284 0.299 0.291 0.271 0.204 0.199 0.249 0.201 0.224 0.251 0.264 0.219 0.169 0.071 0.076 0.101 0.089 0.059 0.106 0.184 0.231 0.284 0.311 0.349 0.691 0.636 0.704 0.724 0.511 0.404 0.449 0.631 0.439 0.229 0.214 0.239
2.689 2.559 2.354 2.121 2.139 2.231 2.734 2.989 3.034 3.276 3.394 3.491 3.496 3.606 3.624 3.619 3.484 3.376 3.351 3.176 3.124 3.211 3.304 3.421 3.509 3.581 3.636 3.654 3.846 3.816 3.819 3.811 3.819 3.651 3.541 3.444 3.329 3.286 3.409 3.449 3.444 3.224 3.246 3.356 3.359 3.404 3.476 3.599 3.761 3.779 3.894 3.899 3.921 3.871 3.771 3.806 3.809 3.821 3.831 3.871 3.934 3.909 3.909 3.906 3.954 3.886 3.814 3.864 3.914 3.926 3.844 3.736 3.761 3.814 3.836 3.891 3.829 3.874 3.864 3.974 3.954 3.969 3.979 4.009 3.939 4.019 3.986 3.869 3.821 3.819 3.756 3.744 3.699 3.659 3.594 3.504 3.519 3.456 3.304 3.291 3.404 3.341 3.356 3.334 3.329 3.256 3.254 3.246 3.161 3.036 3.066 2.676 2.409 2.416 2.506 2.716 3.096 3.276 3.394 3.481 3.511 3.531 3.526 3.504 3.514 3.519 3.516 3.464 3.384 3.424 3.374 3.371 3.351 3.241 3.196 3.164 3.036 2.996 2.951 2.981 3.064 2.941 2.799 2.681 2.244 2.106 1.956 1.864 1.881 1.866 1.904 1.864 1.881 1.874 1.904 1.886 1.946 1.974 1.989 1.966 1.991 2.021 1.996 2.006 2.044 2.071 2.064 2.099 2.221 2.446 2.774 3.031 3.311 3.486 3.299 2.921 2.559 2.429 2.366 2.396 2.369 2.389 2.436 2.409 2.389 2.474 2.561 2.589 2.604 2.549 2.549 2.524 2.429 2.504 3.096 3.151 3.006 2.896 2.964 2.981 2.614 2.284 2.264 2.256 2.231 2.294 2.239 2.216 2.201 2.181 2.189 2.196 2.201 2.211 2.251 2.266 2.224 2.199 2.191 2.219 2.124 2.141 2.089 2.046 2.016 2.034 2.011 2.001 2.009 1.939 1.929 1.874 1.834 1.794 1.709 1.664 1.564 1.451 1.389 1.376 1.286 1.226 1.156 1.114 1.066 1.086 1.076 1.141 1.379 1.439 1.336 1.034 0.316 0.574 0.854 0.961 0.939 0.924 0.929 0.951 0.986 0.914 0.836 0.841 0.936 0.996 1.004 1.016 1.019 1.019 0.999 1.034 1.051 1.004 0.951 0.844 0.749 0.649 0.704 0.786 0.799 0.834 0.881 0.916 0.939 0.969 1.034 1.021 0.999 1.011 1.039 1.041 1.004 1.006 0.936 0.839 0.739 0.689 0.661 0.694 0.896 1.009 0.989 0.981 0.981 0.971 0.959 0.946 0.924 0.899 0.859 0.879 0.886 0.896 0.889 0.819 0.644 0.616 0.601 0.579 0.614 0.629 0.679 0.656 0.689 0.669 0.631 0.664 0.744 0.794 0.826 0.844 0.834 0.764 0.684 0.689 0.686 0.626 0.676 0.729 0.689 0.659 0.624 0.589 0.476 0.421 0.404 0.376 0.521 0.521 0.504 0.416 0.356 0.436 0.619 0.699 0.706 0.679 0.734 0.751 0.754 0.654 0.609 0.554 0.511 0.436 0.451 0.446 0.474 0.496 0.531 0.501 0.529 0.576 0.621 0.616 0.629 0.614 0.589 0.629 0.674 0.671 0.546 0.519 0.464 0.354 0.339 0.351 0.496 0.621 0.649 0.641 0.629 0.629 0.509 0.309 0.376 0.434 0.486 0.496 0.574 0.261 0.304 0.841 1.416 1.916 1.684 1.506 0.529 0.419 0.359 0.306 0.306 0.344 0.346 0.389 0.394 0.384 0.371 0.376 0.381 0.389 0.384 0.406 0.384 0.371 0.359 0.369 0.359 0.386 0.411 0.401 0.386 0.399 0.404 0.379 0.406 0.394 0.381 0.394 0.384 0.396 0.381 0.371 0.374 0.384 0.364 0.371 0.394 0.394 0.336 0.359 0.316 0.304 0.326 0.349 0.326 0.331 0.326 0.316 0.289 0.259 0.259 0.211 0.181 0.164 0.201 0.214 0.176 0.094 0.009 0.004 0.076 0.109 0.181 0.251 0.231 0.249 0.284 0.319 0.506 0.666 0.681 0.731 0.689 0.726 0.449 0.491 0.591 0.394 0.294 0.321 0.311
2.691 2.684 2.541 2.301 2.036 2.099 2.219 2.729 2.899 3.091 3.336 3.404 3.484 3.539 3.534 3.646 3.516 3.326 3.321 3.096 3.021 3.184 3.419 3.424 3.541 3.529 3.654 3.624 3.664 3.841 3.744 3.724 3.601 3.376 3.319 3.329 3.304 3.191 3.189 3.164 3.151 3.101 3.184 3.221 3.246 3.304 3.381 3.504 3.664 3.764 3.794 3.864 3.856 3.789 3.694 3.754 3.826 3.806 3.849 3.889 3.851 3.839 3.776 3.769 3.876 3.776 3.751 3.771 3.819 3.866 3.816 3.784 3.744 3.724 3.824 3.844 3.786 3.739 3.834 3.896 3.804 3.806 3.969 3.906 3.886 3.984 4.006 3.826 3.841 3.849 3.781 3.639 3.646 3.701 3.606 3.556 3.561 3.511 3.416 3.284 3.414 3.464 3.469 3.486 3.501 3.416 3.336 3.314 3.241 3.219 3.181 3.006 2.806 2.629 2.441 2.464 2.561 2.924 3.319 3.429 3.454 3.451 3.511 3.491 3.539 3.484 3.451 3.416 3.461 3.381 3.391 3.324 3.311 3.241 3.196 3.181 3.129 3.059 2.934 2.871 2.911 2.844 2.614 2.334 2.116 1.976 1.854 1.789 1.826 1.844 1.856 1.849 1.839 1.876 1.879 1.891 1.926 1.946 1.934 1.924 1.921 1.964 1.999 2.006 2.031 2.031 2.091 2.306 2.641 3.049 3.321 3.366 3.149 2.794 2.654 2.401 2.366 2.346 2.306 2.324 2.306 2.299 2.311 2.326 2.381 2.551 2.489 2.486 2.726 2.579 2.564 2.496 2.484 2.454 3.244 3.174 2.946 2.956 2.619 2.359 2.254 2.234 2.211 2.221 2.201 2.211 2.206 2.179 2.161 2.146 2.146 2.144 2.164 2.174 2.329 2.269 2.176 2.184 2.336 2.291 2.084 2.114 2.031 1.989 1.989 1.949 2.061 1.946 1.954 1.956 1.919 1.874 1.796 1.741 1.689 1.566 1.486 1.429 1.319 1.254 1.204 1.139 1.106 1.106 1.146 1.231 1.291 1.409 1.394 1.446 1.311 0.781 0.306 0.699 0.924 0.956 0.911 0.901 0.954 1.001 0.999 0.924 0.846 0.866 0.909 1.026 1.069 1.046 1.014 1.046 1.074 1.056 1.079 1.054 0.991 0.876 0.761 0.779 0.839 0.911 0.911 0.899 0.901 0.916 0.946 1.009 1.046 1.031 1.046 1.036 1.029 1.031 1.029 1.011 0.959 0.859 0.734 0.681 0.669 0.764 0.951 1.021 0.984 0.931 0.914 0.866 0.839 0.796 0.844 0.876 0.889 0.904 0.934 0.946 0.906 0.759 0.604 0.611 0.616 0.616 0.591 0.576 0.606 0.596 0.609 0.596 0.624 0.744 0.839 0.834 0.804 0.816 0.849 0.756 0.656 0.599 0.646 0.711 0.734 0.684 0.676 0.714 0.669 0.541 0.449 0.386 0.499 0.569 0.661 0.641 0.666 0.544 0.411 0.331 0.509 0.641 0.654 0.681 0.756 0.729 0.631 0.589 0.516 0.434 0.334 0.311 0.311 0.359 0.381 0.364 0.381 0.379 0.426 0.484 0.541 0.596 0.591 0.579 0.541 0.564 0.651 0.664 0.589 0.496 0.374 0.329 0.359 0.386 0.531 0.666 0.654 0.631 0.639 0.624 0.501 0.341 0.351 0.456 0.509 0.484 0.569 0.346 0.261 0.801 1.339 1.996 1.734 1.711 0.699 0.409 0.401 0.314 0.299 0.336 0.371 0.381 0.384 0.366 0.371 0.384 0.394 0.394 0.404 0.381 0.381 0.376 0.369 0.371 0.371 0.384 0.369 0.391 0.381 0.391 0.409 0.431 0.411 0.419 0.421 0.399 0.386 0.389 0.404 0.379 0.386 0.379 0.371 0.341 0.376 0.394 0.364 0.329 0.336 0.344 0.351 0.384 0.356 0.346 0.341 0.316 0.306 0.284 0.276 0.251 0.139 0.106 0.101 0.099 0.109 0.041 0.064 0.119 0.169 0.226 0.249 0.279 0.276 0.299 0.289 0.336 0.636 0.624 0.691 0.714 0.709 1.079 0.664 0.564 0.524 0.326 0.336 0.381 0.374
2.681 2.681 2.639 2.534 2.204 2.044 2.126 2.149 2.564 2.924 3.231 3.359 3.746 3.429 3.569 3.526 3.369 3.409 3.181 2.989 3.024 3.336 3.484 3.444 3.531 3.489 3.514 3.476 3.544 3.686 3.729 3.596 3.324 3.251 3.311 3.269 3.221 3.119 2.944 3.014 3.034 2.999 2.979 2.981 3.156 3.209 3.311 3.414 3.551 3.666 3.711 3.781 3.741 3.669 3.664 3.769 3.824 3.806 3.839 3.866 3.781 3.706 3.676 3.666 3.639 3.654 3.709 3.734 3.796 3.851 3.806 3.784 3.741 3.679 3.839 3.756 3.634 3.586 3.641 3.776 3.759 3.829 3.934 3.919 3.896 3.861 3.834 3.874 3.816 3.784 3.696 3.609 3.621 3.714 3.671 3.544 3.554 3.569 3.454 3.394 3.459 3.499 3.571 3.579 3.526 3.511 3.439 3.351 3.291 3.274 3.256 3.236 3.171 3.011 2.926 2.549 2.351 2.406 2.684 3.136 3.291 3.399 3.404 3.451 3.474 3.439 3.431 3.419 3.449 3.334 3.251 3.211 3.301 3.296 3.284 3.211 3.216 3.166 3.041 2.886 2.796 2.716 2.424 1.966 1.849 1.841 1.806 1.791 1.796 1.836 1.796 1.819 1.821 1.821 1.861 1.876 1.879 1.901 1.896 1.869 1.866 1.906 1.959 2.016 2.041 2.186 2.529 2.924 3.266 3.499 3.299 2.814 2.481 2.496 2.744 2.296 2.276 2.276 2.271 2.271 2.264 2.261 2.284 2.276 2.311 2.411 2.391 2.406 2.596 2.756 2.836 2.524 2.419 2.299 2.594 3.089 2.941 3.144 2.389 2.254 2.216 2.186 2.166 2.176 2.169 2.166 2.164 2.139 2.116 2.124 2.139 2.106 2.091 2.076 2.221 2.216 2.146 2.134 2.699 2.891 2.446 2.019 1.949 1.969 2.021 1.886 2.616 1.881 1.861 1.784 1.811 1.806 1.686 1.721 1.574 1.519 1.446 1.396 1.286 1.171 1.154 1.106 1.141 1.221 1.284 1.486 1.501 1.599 1.576 1.534 0.919 0.331 0.366 0.776 0.959 0.941 0.914 0.946 0.966 1.026 1.051 0.984 0.909 0.859 0.889 0.969 1.066 1.034 1.056 1.026 1.061 1.081 1.091 1.086 1.006 0.891 0.849 0.886 0.919 0.939 0.941 0.929 0.911 0.941 0.956 1.009 1.016 1.066 1.069 1.059 1.041 1.031 1.071 1.036 0.999 0.911 0.804 0.696 0.609 0.634 0.786 0.859 0.856 0.781 0.689 0.634 0.646 0.646 0.676 0.734 0.819 0.949 0.981 0.929 0.741 0.621 0.581 0.606 0.644 0.711 0.674 0.606 0.586 0.606 0.641 0.659 0.719 0.841 0.881 0.834 0.756 0.776 0.804 0.771 0.774 0.639 0.711 0.821 0.716 0.601 0.659 0.709 0.621 0.476 0.411 0.489 0.559 0.606 0.699 0.724 0.756 0.634 0.514 0.344 0.364 0.436 0.541 0.614 0.641 0.564 0.494 0.419 0.356 0.309 0.346 0.359 0.386 0.391 0.416 0.459 0.444 0.366 0.366 0.374 0.454 0.501 0.531 0.541 0.521 0.526 0.561 0.571 0.509 0.401 0.319 0.311 0.421 0.431 0.541 0.644 0.639 0.606 0.629 0.596 0.466 0.336 0.366 0.454 0.496 0.486 0.484 0.464 0.209 0.696 1.239 1.894 1.974 1.646 1.079 0.409 0.444 0.334 0.334 0.349 0.359 0.389 0.399 0.381 0.384 0.371 0.396 0.389 0.389 0.384 0.364 0.386 0.374 0.366 0.394 0.389 0.376 0.386 0.374 0.389 0.421 0.431 0.429 0.439 0.421 0.396 0.416 0.401 0.406 0.376 0.369 0.371 0.376 0.359 0.359 0.391 0.349 0.336 0.361 0.364 0.349 0.361 0.361 0.346 0.331 0.326 0.299 0.306 0.254 0.171 0.059 0.066 0.109 0.101 0.096 0.091 0.161 0.214 0.259 0.274 0.289 0.279 0.294 0.309 0.304 0.454 0.666 0.611 0.669 0.774 0.874 0.594 0.566 0.891 0.481 0.304 0.361 0.366 0.406
