ncols 435
nrows 32
xllcorner    461050
yllcorner    89722
cellsize     2
NODATA_value -9999
40.75 42.752 39.517 42.937 41.317 40.787 42.167 40.85 40.895 40.687 40.757 40.832 40.907 40.937 40.945 40.96 41.005 41.055 41.09 41.187 41.29 41.29 41.31 41.34 41.357 41.382 41.432 41.447 41.492 41.532 41.557 41.585 41.645 41.677 41.697 41.755 41.787 41.832 41.862 41.875 41.907 41.917 41.917 41.935 42.012 42.057 42.085 42.152 42.26 42.285 42.285 42.345 42.32 42.317 42.327 42.395 42.47 42.55 42.695 42.767 42.87 42.95 43.1 43.14 43.027 43.067 43.07 42.99 43.027 43.09 43.1 43.112 43.165 43.227 43.285 43.347 43.337 43.272 43.275 43.237 43.235 43.265 43.307 43.282 43.332 43.327 43.355 43.425 43.425 43.482 43.547 43.57 43.617 43.667 43.695 43.745 43.772 43.81 43.86 43.927 43.997 44.032 44.062 44.132 44.122 44.177 44.21 44.282 44.345 44.357 44.377 44.357 44.375 44.52 44.565 44.67 44.665 44.66 44.68 44.722 44.747 44.782 44.86 44.95 45.045 45.117 45.127 45.1 45.175 45.212 45.192 45.237 45.282 45.32 45.442 45.547 45.64 45.565 45.54 45.537 45.562 45.615 45.7 45.685 45.722 45.852 45.86 45.907 45.932 46.01 46.045 46.082 46.145 46.18 46.217 46.257 46.242 46.292 46.355 46.41 46.327 46.335 46.457 46.522 46.465 46.375 46.475 46.405 46.942 48.09 46.522 46.405 46.462 46.502 46.567 46.597 46.612 46.645 46.7 46.737 46.747 46.775 46.77 46.74 46.76 46.805 47.46 47.555 46.82 46.922 47.195 47.235 47.312 47.345 47.412 47.367 47.37 47.377 47.387 47.42 47.467 47.485 47.522 47.52 47.502 47.5 47.49 47.485 47.522 47.577 47.59 47.632 47.637 47.667 47.69 47.652 47.605 47.607 47.567 47.545 47.497 47.52 47.495 47.472 47.455 47.485 47.432 47.452 47.372 47.322 47.29 47.245 47.147 47.07 47.08 47.005 46.89 46.822 46.72 46.592 46.467 46.322 46.192 46.08 45.902 45.77 45.612 45.455 45.26 45.08 44.857 44.64 44.452 44.26 44.01 43.82 43.645 43.442 43.202 42.982 42.742 42.527 42.287 42.11 41.945 41.772 41.587 41.4 41.225 41.067 40.895 40.697 40.58 40.412 40.257 40.167 40.09 40.02 40.06 40.052 39.94 39.92 39.98 39.942 39.99 40.075 40.14 40.087 40.132 40.202 40.317 40.36 40.497 40.467 40.55 40.552 40.66 40.67 40.612 40.622 40.62 40.582 40.6 40.567 40.487 40.535 40.88 40.977 41.16 41.24 41.357 41.512 41.637 41.78 41.867 41.895 41.99 42.072 42.085 42.09 42.175 42.282 42.392 42.457 42.502 42.54 42.562 42.542 42.517 42.56 42.585 42.567 42.6 42.667 42.68 42.697 42.717 42.797 42.807 42.842 42.79 42.825 42.847 42.875 42.87 42.867 42.85 42.827 42.85 42.84 42.925 42.962 43.025 43.11 43.097 43.13 43.177 43.15 43.13 43.087 43.032 42.99 43.032 43.025 42.965 42.97 42.992 42.992 43.04 43.097 43.12 43.167 43.187 43.185 43.177 43.205 43.187 43.115 43.095 43.04 43.007 42.987 42.877 42.765 42.722 42.68 42.607 42.607 42.525 42.565 42.542 42.58 42.622 42.532 42.502 42.44 42.44 42.407 42.295 42.175 42.04 41.89 41.85 41.87 41.857 41.82 41.79 41.807 41.837 41.852 41.895 41.88 41.93 42.037 42.062 42.045 42.062 42.09 42.097 42.147 42.215 42.172 42.122 42.16 42.525 43.77 41.822 42.52 42.857 43.59 44.32 42.885 42.605 42.717 42.167
39.427 39.64 40.277 41.5 42.197 41.695 41.567 40.792 40.712 40.762 40.835 40.89 40.912 40.957 40.97 40.995 41.075 41.165 41.32 41.41 41.33 41.33 41.357 41.385 41.425 41.455 41.477 41.492 41.527 41.55 41.587 41.637 41.687 41.722 41.737 41.765 41.822 41.847 41.89 41.937 41.947 41.98 42.017 42.047 42.09 42.147 42.207 42.257 42.302 42.292 42.322 42.352 42.367 42.387 42.43 42.46 42.632 42.712 42.89 42.887 42.895 42.887 42.992 43.005 42.915 42.987 42.96 42.997 43.022 43.095 43.22 43.322 43.362 43.342 43.427 43.382 43.372 43.27 43.307 43.34 43.357 43.36 43.377 43.422 43.405 43.437 43.45 43.502 43.53 43.567 43.607 43.66 43.72 43.792 43.795 43.822 43.85 43.885 43.945 43.98 44.012 44.092 44.092 44.16 44.18 44.222 44.347 44.417 44.44 44.512 44.555 44.585 44.762 44.65 44.722 44.712 44.74 44.745 44.795 44.83 44.865 44.912 44.995 45.055 45.052 45.14 45.13 45.185 45.222 45.242 45.32 45.345 45.305 45.322 45.432 45.527 45.6 45.565 45.632 45.61 45.647 45.717 45.755 45.795 45.845 45.932 45.992 45.982 46.01 46.042 46.067 46.177 46.247 46.295 46.342 46.305 46.395 46.382 46.422 46.472 46.49 46.425 46.402 46.502 46.58 46.54 46.507 46.492 46.502 47.37 47.68 46.507 46.505 46.59 46.592 46.642 46.68 46.707 46.742 46.767 46.807 46.8 46.785 46.822 46.812 47.057 47.867 47.07 46.885 47.112 47.26 47.332 47.38 47.412 47.41 47.43 47.435 47.447 47.477 47.487 47.53 47.585 47.572 47.567 47.585 47.595 47.54 47.552 47.617 47.61 47.64 47.695 47.705 47.745 47.73 47.695 47.71 47.67 47.627 47.592 47.57 47.567 47.535 47.555 47.542 47.545 47.51 47.46 47.417 47.402 47.325 47.252 47.182 47.132 47.092 47.037 46.935 46.872 46.735 46.557 46.442 46.315 46.232 46.035 45.882 45.755 45.612 45.43 45.227 45.05 44.84 44.61 44.417 44.187 43.997 43.83 43.632 43.362 43.11 42.912 42.707 42.492 42.305 42.112 41.925 41.752 41.562 41.405 41.235 41.06 40.88 40.702 40.547 40.43 40.377 40.242 40.177 40.155 40.197 40.102 40.022 40.065 40.045 40.097 40.19 40.272 40.23 40.362 40.352 40.497 40.587 40.672 40.687 40.67 40.687 40.752 40.83 40.917 40.875 40.89 40.855 40.855 40.792 40.74 40.705 40.807 41 41.202 41.297 41.36 41.5 41.645 41.787 41.837 41.952 42.012 42.112 42.157 42.18 42.222 42.325 42.442 42.51 42.562 42.62 42.665 42.677 42.662 42.702 42.715 42.697 42.69 42.757 42.802 42.772 42.845 42.887 42.915 42.957 42.932 42.965 42.99 43.04 43.02 43.032 43.032 42.985 42.94 42.965 42.917 42.945 43.04 43.102 43.14 43.177 43.25 43.242 43.225 43.205 43.177 43.08 43.115 43.147 43.072 43.052 43.035 43.117 43.15 43.172 43.197 43.197 43.26 43.26 43.275 43.342 43.35 43.307 43.297 43.277 43.197 43.157 43.137 43.042 42.952 42.867 42.845 42.842 42.782 42.77 42.717 42.76 42.785 42.765 42.715 42.65 42.645 42.615 42.522 42.38 42.262 42.115 42.05 42.065 41.95 41.91 41.952 41.92 41.927 41.95 42 42.012 42.005 42.077 42.145 42.18 42.135 42.17 42.212 42.212 42.275 42.23 42.217 42.475 42.342 43.825 43.595 42.232 42.17 41.867 41.78 41.98 41.83 41.76 41.79 42.16
40.277 40.592 40.58 41.425 41.022 40.745 40.742 40.737 40.765 40.81 40.855 40.912 40.957 40.97 41.005 41.07 41.167 41.365 41.635 41.472 41.452 41.44 41.487 41.405 41.452 41.477 41.495 41.495 41.55 41.587 41.63 41.672 41.685 41.747 41.78 41.815 41.867 41.925 41.942 41.992 42.035 42.045 42.08 42.117 42.135 42.22 42.227 42.262 42.312 42.385 42.435 42.507 42.527 42.582 42.59 42.57 42.647 42.687 42.84 42.875 42.912 43 42.98 43.052 43.047 43.127 43.165 43.19 43.205 43.247 43.185 43.262 43.302 43.345 43.43 43.537 43.45 43.372 43.375 43.412 43.405 43.475 43.5 43.51 43.617 43.567 43.557 43.6 43.65 43.67 43.687 43.727 43.777 43.907 43.88 43.887 43.91 43.957 43.975 44.05 44.145 44.207 44.25 44.292 44.345 44.372 44.45 44.507 44.552 44.625 44.652 44.695 44.782 44.725 44.755 44.81 44.825 44.875 44.855 44.942 44.977 44.957 45.005 45.047 45.127 45.215 45.2 45.247 45.26 45.267 45.3 45.375 45.347 45.412 45.485 45.53 45.602 45.632 45.692 45.732 45.775 45.807 45.842 45.88 45.92 45.99 46.055 46.11 46.132 46.155 46.155 46.245 46.337 46.34 46.36 46.41 46.442 46.447 46.485 46.547 46.572 46.56 46.467 46.535 46.657 46.602 46.552 46.497 46.502 46.572 48.375 46.957 46.57 46.662 46.682 46.672 46.702 46.745 46.79 46.817 46.83 46.835 46.86 46.905 46.89 47.605 47.772 46.935 47.085 47.315 47.335 47.397 47.46 47.52 47.5 47.502 47.482 47.512 47.587 47.62 47.65 47.685 47.662 47.667 47.682 47.645 47.587 47.617 47.68 47.67 47.725 47.74 47.74 47.795 47.76 47.777 47.785 47.697 47.577 47.647 47.62 47.625 47.607 47.607 47.585 47.55 47.532 47.49 47.462 47.43 47.32 47.235 47.217 47.182 47.115 47.045 46.97 46.857 46.717 46.56 46.452 46.345 46.212 46.077 45.912 45.722 45.59 45.39 45.202 44.992 44.802 44.58 44.375 44.16 43.972 43.765 43.535 43.275 43.102 42.867 42.657 42.5 42.285 42.137 41.92 41.735 41.572 41.397 41.2 41.042 40.867 40.685 40.57 40.517 40.392 40.332 40.282 40.277 40.262 40.157 40.137 40.185 40.2 40.28 40.395 40.36 40.505 40.575 40.69 40.68 40.825 40.827 40.875 40.887 40.957 41.02 41.105 41.155 41.135 41.13 41.11 41.08 41.02 40.982 40.977 41.015 41.187 41.34 41.427 41.562 41.655 41.8 41.87 41.93 42.05 42.165 42.232 42.215 42.267 42.397 42.502 42.56 42.622 42.695 42.725 42.78 42.827 42.87 42.855 42.847 42.85 42.872 42.892 42.882 42.917 42.977 43.015 43.027 43.05 43.09 43.145 43.115 43.14 43.122 43.147 43.135 43.07 43.112 43.107 43.1 43.107 43.192 43.187 43.242 43.252 43.325 43.302 43.272 43.28 43.232 43.22 43.212 43.187 43.147 43.132 43.137 43.182 43.267 43.267 43.255 43.305 43.337 43.39 43.407 43.432 43.412 43.457 43.455 43.425 43.352 43.295 43.217 43.135 43.137 43.12 43.087 43.005 42.967 42.955 42.98 42.962 42.945 42.882 42.867 42.865 42.855 42.795 42.58 42.537 42.455 42.43 42.332 42.272 42.135 42.05 42.05 42.065 42.04 42.11 42.11 42.115 42.13 42.197 42.25 42.245 42.255 42.26 42.337 42.377 42.412 42.477 44.135 45.745 43.352 42.645 43.095 44.527 44.005 43.797 43.752 42.285 42.357 43.015 41.862 41.815
40.67 40.835 41.142 40.817 40.805 40.715 40.737 40.767 40.81 40.867 40.897 40.947 40.987 41.015 41.052 41.132 41.29 41.422 41.495 41.417 41.47 41.47 41.45 41.47 41.51 41.532 41.547 41.555 41.62 41.682 41.74 41.77 41.79 41.825 41.852 41.9 41.942 41.955 42.005 42.037 42.075 42.112 42.16 42.185 42.197 42.222 42.31 42.392 42.462 42.675 42.685 42.652 42.655 42.687 42.682 42.662 42.705 42.727 42.792 42.922 42.99 43.095 43.135 43.155 43.1 43.15 43.185 43.237 43.31 43.252 43.265 43.325 43.332 43.342 43.352 43.342 43.487 43.407 43.425 43.427 43.482 43.567 43.625 43.577 43.565 43.532 43.597 43.655 43.692 43.762 43.78 43.865 43.935 43.942 43.987 43.997 44.05 44.095 44.202 44.257 44.31 44.347 44.415 44.472 44.497 44.48 44.575 44.572 44.597 44.63 44.7 44.735 44.782 44.76 44.822 44.832 44.902 44.895 44.962 44.97 45.04 45.082 45.092 45.135 45.135 45.192 45.202 45.297 45.31 45.365 45.387 45.46 45.477 45.477 45.535 45.602 45.69 45.73 45.75 45.79 45.862 45.885 45.902 45.922 45.975 46.077 46.117 46.137 46.17 46.237 46.225 46.267 46.337 46.407 46.392 46.385 46.46 46.482 46.44 46.507 46.572 46.547 46.527 46.537 46.622 46.665 46.655 46.595 46.587 46.577 47.47 48.065 46.757 46.66 46.732 46.78 46.77 46.825 46.85 46.877 46.867 46.887 46.972 46.932 47.245 47.852 47.225 47.03 47.277 47.4 47.402 47.505 47.57 47.562 47.555 47.545 47.567 47.582 47.652 47.68 47.722 47.737 47.767 47.765 47.77 47.705 47.667 47.76 47.742 47.737 47.765 47.795 47.82 47.845 47.82 47.847 47.812 47.7 47.677 47.695 47.655 47.685 47.69 47.692 47.62 47.62 47.595 47.515 47.467 47.445 47.325 47.307 47.307 47.232 47.155 47.047 46.967 46.86 46.712 46.557 46.48 46.357 46.192 46.067 45.925 45.742 45.565 45.352 45.165 44.98 44.78 44.542 44.312 44.122 43.917 43.717 43.45 43.21 43.022 42.84 42.642 42.455 42.275 42.09 41.912 41.757 41.587 41.415 41.22 41.015 40.842 40.705 40.65 40.56 40.457 40.382 40.415 40.4 40.332 40.37 40.35 40.357 40.417 40.542 40.495 40.592 40.735 40.8 40.8 40.93 40.972 41.04 41.085 41.197 41.287 41.282 41.355 41.405 41.455 41.41 41.375 41.307 41.302 41.23 41.185 41.137 41.237 41.442 41.575 41.7 41.81 41.832 41.972 42.047 42.17 42.242 42.27 42.32 42.455 42.555 42.61 42.68 42.752 42.805 42.852 42.902 42.982 43.002 42.965 42.957 42.995 42.962 42.97 43.01 43.085 43.07 43.107 43.142 43.187 43.242 43.257 43.23 43.25 43.247 43.242 43.23 43.225 43.235 43.25 43.315 43.292 43.272 43.307 43.315 43.362 43.345 43.337 43.335 43.307 43.292 43.302 43.295 43.257 43.215 43.24 43.282 43.295 43.317 43.315 43.34 43.39 43.435 43.487 43.54 43.525 43.552 43.572 43.575 43.555 43.51 43.44 43.375 43.32 43.32 43.267 43.22 43.172 43.142 43.145 43.13 43.082 43.057 43.055 43.025 43.097 42.992 42.857 42.755 42.67 42.672 42.642 42.545 42.435 42.315 42.212 42.145 42.2 42.26 42.287 42.265 42.252 42.292 42.33 42.332 42.31 42.362 42.397 42.49 42.56 42.852 43.405 45.785 45.495 45.245 42.975 43.1 43.292 43.467 43.677 43.547 43.415 45.475 44.445 43.075 44.82
40.93 40.872 41.272 40.945 40.73 40.735 40.755 40.797 40.855 40.892 40.93 40.965 40.992 41.05 41.135 41.202 41.265 41.325 41.4 41.43 41.475 41.487 41.547 41.635 41.655 41.685 41.742 41.757 41.787 41.887 41.862 41.83 41.82 41.882 41.887 41.952 41.97 42.012 42.062 42.1 42.15 42.187 42.195 42.24 42.287 42.322 42.417 42.437 42.515 42.707 42.76 42.73 42.717 42.727 42.74 42.795 42.832 42.912 42.957 43.007 43.12 43.125 43.092 43.172 43.175 43.195 43.23 43.287 43.347 43.375 43.402 43.392 43.405 43.43 43.462 43.455 43.52 43.55 43.542 43.517 43.522 43.565 43.575 43.622 43.665 43.665 43.735 43.807 43.812 43.845 43.917 43.97 44.002 44.05 44.087 44.165 44.187 44.302 44.345 44.38 44.407 44.495 44.505 44.542 44.677 44.74 44.762 44.765 44.8 44.847 44.895 44.785 44.84 44.885 44.895 44.902 44.96 45.02 45.03 45.035 45.08 45.13 45.17 45.225 45.225 45.237 45.312 45.387 45.42 45.475 45.487 45.54 45.565 45.622 45.707 45.73 45.775 45.795 45.847 45.872 45.917 45.96 46.057 46.075 46.19 46.157 46.117 46.112 46.135 46.205 46.245 46.262 46.31 46.365 46.4 46.47 46.537 46.555 46.535 46.557 46.61 46.61 46.632 46.58 46.567 46.707 46.737 46.755 46.692 46.7 46.702 47.892 48.067 46.825 46.762 46.822 46.872 46.9 46.905 46.91 46.945 46.975 47.012 47.032 47.675 47.55 47.03 47.197 47.405 47.45 47.497 47.587 47.597 47.6 47.577 47.575 47.587 47.665 47.75 47.78 47.797 47.81 47.822 47.807 47.81 47.8 47.807 47.827 47.807 47.84 47.837 47.862 47.862 47.852 47.907 47.88 47.827 47.73 47.76 47.747 47.752 47.75 47.757 47.722 47.685 47.655 47.615 47.565 47.525 47.45 47.372 47.387 47.367 47.29 47.16 47.067 46.952 46.842 46.697 46.585 46.477 46.335 46.237 46.1 45.93 45.747 45.53 45.33 45.17 44.955 44.82 44.53 44.265 44.075 43.887 43.577 43.355 43.162 42.97 42.82 42.617 42.492 42.28 42.077 41.935 41.782 41.62 41.39 41.222 41.062 40.887 40.765 40.677 40.6 40.507 40.532 40.485 40.402 40.47 40.537 40.532 40.607 40.68 40.647 40.707 40.84 40.92 40.962 41.015 41.095 41.182 41.242 41.38 41.487 41.495 41.585 41.725 41.72 41.697 41.68 41.622 41.6 41.555 41.462 41.362 41.297 41.35 41.517 41.65 41.805 41.877 41.997 42.087 42.175 42.275 42.347 42.43 42.552 42.617 42.692 42.775 42.83 42.862 42.937 42.982 43.037 43.062 43.072 43.09 43.117 43.142 43.11 43.087 43.152 43.152 43.18 43.237 43.252 43.29 43.325 43.35 43.332 43.35 43.335 43.297 43.327 43.335 43.362 43.405 43.412 43.387 43.382 43.36 43.37 43.397 43.4 43.39 43.4 43.412 43.417 43.387 43.372 43.357 43.347 43.315 43.34 43.355 43.435 43.387 43.44 43.472 43.542 43.59 43.625 43.622 43.68 43.685 43.672 43.685 43.627 43.562 43.467 43.495 43.387 43.415 43.375 43.335 43.297 43.242 43.27 43.232 43.2 43.19 43.22 43.205 43.06 42.975 42.92 42.927 42.925 42.745 42.6 42.517 42.47 42.355 42.38 42.462 42.412 42.39 42.39 42.385 42.4 42.417 42.392 42.395 42.472 42.595 42.722 43.515 43.735 44.987 45.18 46.155 44.545 43.155 43.125 43.16 43.217 43.212 43.387 43.292 43.81 43.71 43.455 43.507
41.537 40.95 40.832 40.812 40.71 40.737 40.77 40.847 40.885 40.925 40.94 41.005 41.062 41.15 41.19 41.25 41.31 41.37 41.487 41.58 41.665 41.65 41.767 41.77 41.78 41.775 41.722 41.777 41.782 41.81 41.895 41.917 41.945 41.987 42.005 42.045 42.175 42.322 42.275 42.215 42.27 42.277 42.315 42.347 42.407 42.477 42.612 42.567 42.615 42.625 42.74 42.777 42.807 42.805 42.835 42.965 42.985 42.937 42.955 43.015 43.042 43.13 43.157 43.235 43.245 43.305 43.272 43.365 43.41 43.49 43.467 43.467 43.505 43.482 43.537 43.585 43.647 43.707 43.607 43.622 43.617 43.65 43.692 43.83 43.835 43.852 43.94 43.892 43.912 43.905 44.007 44.025 44.087 44.135 44.187 44.295 44.317 44.34 44.362 44.39 44.437 44.54 44.545 44.62 44.675 44.715 44.72 44.72 44.742 44.777 44.822 44.82 44.895 44.887 44.927 44.99 45.022 45.075 45.082 45.137 45.182 45.217 45.272 45.31 45.36 45.362 45.39 45.442 45.562 45.56 45.597 45.65 45.675 45.72 45.812 45.842 45.835 45.867 45.897 45.902 45.987 46.005 46.085 46.11 46.112 46.107 46.047 46.1 46.17 46.235 46.297 46.347 46.43 46.49 46.58 46.615 46.687 46.687 46.717 46.705 46.695 46.74 46.76 46.682 46.697 46.737 46.835 46.842 46.83 46.77 46.767 46.942 48.035 47.947 46.847 46.862 46.952 46.967 46.987 47 47.032 47.072 47.047 47.422 47.95 47.247 47.157 47.437 47.505 47.537 47.602 47.687 47.662 47.655 47.652 47.672 47.707 47.737 47.825 47.84 47.865 47.895 47.89 47.872 47.875 47.855 47.912 47.882 47.912 47.882 47.892 47.9 47.9 47.895 47.932 47.897 47.857 47.772 47.81 47.807 47.852 47.775 47.762 47.762 47.71 47.697 47.632 47.615 47.527 47.492 47.442 47.45 47.35 47.242 47.157 47.1 46.967 46.817 46.697 46.6 46.487 46.35 46.25 46.107 45.935 45.72 45.497 45.362 45.11 44.982 44.745 44.477 44.242 44.027 43.76 43.512 43.332 43.125 42.912 42.74 42.57 42.42 42.247 42.077 41.93 41.782 41.577 41.407 41.202 41.037 40.965 40.832 40.735 40.64 40.635 40.657 40.587 40.58 40.635 40.687 40.74 40.825 40.775 40.822 40.965 41.035 41.062 41.135 41.212 41.282 41.365 41.55 41.645 41.652 41.732 41.835 41.967 41.895 41.922 41.895 41.877 41.802 41.755 41.69 41.572 41.51 41.525 41.692 41.815 41.907 41.98 42.132 42.23 42.307 42.41 42.465 42.64 42.72 42.777 42.867 42.91 42.987 42.995 43.09 43.157 43.15 43.182 43.237 43.235 43.185 43.22 43.26 43.265 43.242 43.237 43.307 43.32 43.322 43.322 43.39 43.387 43.43 43.432 43.432 43.43 43.455 43.515 43.487 43.557 43.527 43.532 43.49 43.48 43.472 43.475 43.485 43.455 43.467 43.495 43.485 43.48 43.437 43.422 43.455 43.48 43.487 43.535 43.562 43.525 43.532 43.565 43.61 43.645 43.697 43.74 43.772 43.802 43.787 43.745 43.797 43.725 43.685 43.625 43.595 43.517 43.495 43.455 43.457 43.472 43.467 43.43 43.392 43.357 43.34 43.295 43.282 43.257 43.182 43.08 42.9 42.732 42.697 42.682 42.617 42.645 42.622 42.522 42.482 42.442 42.497 42.48 42.452 42.432 42.5 42.555 42.695 43.03 43.47 43.822 44.507 45.517 46.407 44.075 43.195 43.23 43.222 43.28 43.302 43.292 43.202 43.172 43.185 43.18 43.215 43.247
40.835 40.907 40.772 40.717 40.725 40.745 40.815 40.86 40.9 40.93 40.995 41.057 41.127 41.19 41.252 41.33 41.427 41.59 41.695 41.58 41.735 41.652 41.627 41.665 41.72 41.735 41.842 41.85 41.887 41.965 42.002 42.082 42.112 42.262 42.357 42.38 42.347 42.44 42.42 42.387 42.517 42.705 42.752 42.662 42.752 42.815 42.767 42.74 42.737 42.715 42.702 42.74 42.787 42.88 42.942 42.977 42.972 43.012 43.082 43.035 43.132 43.295 43.285 43.347 43.262 43.25 43.295 43.342 43.437 43.47 43.637 43.65 43.64 43.647 43.72 43.71 43.82 43.75 43.722 43.72 43.81 43.882 43.87 43.977 44.01 44.007 44.015 43.965 43.995 44.005 44.042 44.115 44.167 44.242 44.31 44.365 44.362 44.375 44.43 44.46 44.515 44.567 44.582 44.64 44.66 44.7 44.747 44.745 44.805 44.847 44.895 44.927 45.012 45.025 45.015 45.025 45.087 45.145 45.19 45.225 45.26 45.282 45.325 45.367 45.45 45.455 45.487 45.517 45.622 45.66 45.672 45.662 45.727 45.737 45.755 45.84 45.797 45.902 45.945 45.955 45.985 46.08 46.125 46.16 46.177 46.16 46.157 46.202 46.275 46.35 46.412 46.465 46.52 46.617 46.77 46.772 46.777 46.74 46.837 46.797 46.797 46.817 46.782 46.787 46.785 46.77 46.825 46.95 46.942 46.885 46.9 46.847 47.365 48.497 47.845 46.902 46.935 47.012 47.062 47.097 47.1 47.102 47.167 48.04 47.632 47.147 47.302 47.56 47.605 47.592 47.7 47.75 47.692 47.737 47.722 47.762 47.795 47.86 47.902 47.937 47.945 47.942 47.947 47.925 47.925 47.957 47.96 47.982 48.02 47.98 48.012 47.977 47.972 47.955 47.927 47.93 47.852 47.88 47.88 47.907 47.895 47.88 47.815 47.817 47.77 47.725 47.677 47.635 47.552 47.515 47.515 47.477 47.337 47.26 47.167 47.07 46.947 46.812 46.73 46.607 46.475 46.39 46.26 46.06 45.897 45.685 45.495 45.31 45.152 44.937 44.705 44.47 44.207 43.942 43.712 43.54 43.312 43.075 42.877 42.692 42.505 42.375 42.232 42.075 41.905 41.747 41.555 41.38 41.227 41.085 40.985 40.907 40.745 40.767 40.78 40.715 40.695 40.782 40.83 40.825 40.907 40.94 40.96 41.05 41.16 41.217 41.285 41.38 41.427 41.515 41.655 41.757 41.772 41.88 41.997 42.09 42.09 42.097 42.102 42.14 42.06 42.032 41.947 41.897 41.772 41.677 41.64 41.742 41.965 42.045 42.13 42.28 42.4 42.51 42.6 42.752 42.797 42.862 42.965 43.042 43.065 43.095 43.17 43.235 43.265 43.3 43.315 43.347 43.315 43.325 43.367 43.32 43.327 43.367 43.337 43.385 43.397 43.39 43.412 43.405 43.45 43.47 43.522 43.55 43.512 43.557 43.612 43.672 43.645 43.652 43.655 43.592 43.6 43.555 43.55 43.522 43.532 43.57 43.582 43.57 43.562 43.592 43.61 43.622 43.575 43.62 43.62 43.66 43.627 43.632 43.657 43.672 43.762 43.83 43.867 43.865 43.882 43.867 43.857 43.84 43.855 43.837 43.735 43.71 43.625 43.662 43.635 43.672 43.662 43.65 43.595 43.5 43.507 43.522 43.452 43.417 43.34 43.227 43.117 43.01 42.937 42.967 42.942 42.8 42.722 42.682 42.63 42.557 42.565 42.56 42.502 42.452 42.532 42.675 42.782 43 43.407 43.775 45.095 44.625 44.27 43.53 43.305 43.297 43.345 43.325 43.302 43.345 43.307 43.237 43.207 43.207 43.202 43.305 43.277
40.787 40.84 40.702 40.707 40.732 40.79 40.857 40.882 40.932 40.98 41.035 41.132 41.215 41.26 41.317 41.392 41.457 41.47 41.545 41.567 41.61 41.615 41.702 41.78 41.907 42.012 41.95 41.917 41.962 42.062 42.202 42.23 42.342 42.4 42.47 42.527 42.567 42.465 42.612 42.662 42.677 42.792 42.79 42.825 42.88 42.89 42.752 42.73 42.81 42.817 42.785 42.842 42.887 42.925 42.942 42.97 43.06 43.055 43.122 43.135 43.165 43.16 43.19 43.23 43.29 43.34 43.5 43.497 43.592 43.612 43.665 43.707 43.72 43.73 43.742 43.767 43.86 43.917 43.852 43.927 43.902 43.907 43.897 43.985 44.01 44.065 44.067 44.087 44.075 44.112 44.137 44.195 44.237 44.322 44.337 44.385 44.412 44.455 44.507 44.527 44.565 44.62 44.655 44.725 44.772 44.807 44.862 44.862 44.915 44.945 44.98 45.02 45.052 45.07 45.09 45.15 45.24 45.232 45.282 45.27 45.29 45.352 45.422 45.482 45.55 45.575 45.542 45.565 45.562 45.625 45.672 45.767 45.81 45.892 45.882 45.897 45.99 46.03 46.097 46.05 46.1 46.152 46.172 46.19 46.242 46.28 46.317 46.36 46.407 46.442 46.43 46.517 46.595 46.667 46.765 46.792 46.782 46.822 46.857 46.855 46.875 46.865 46.835 46.875 46.902 46.877 46.87 46.947 46.972 46.957 46.942 46.967 46.955 47.935 48.832 47.702 46.962 47.045 47.075 47.107 47.11 47.16 47.81 48.18 47.33 47.267 47.502 47.645 47.662 47.675 47.77 47.762 47.745 47.76 47.79 47.825 47.905 47.935 47.957 47.96 47.95 47.98 47.972 47.985 47.987 48 48.015 48.05 48.04 48.04 48.072 48.055 48.032 47.987 47.975 47.952 47.907 47.94 47.925 47.94 47.952 47.9 47.872 47.85 47.822 47.757 47.7 47.617 47.585 47.565 47.52 47.425 47.337 47.267 47.145 47.042 46.915 46.852 46.73 46.615 46.507 46.365 46.237 46.055 45.87 45.655 45.49 45.317 45.095 44.89 44.635 44.425 44.22 43.887 43.657 43.472 43.24 43.02 42.82 42.665 42.505 42.355 42.21 42.065 41.847 41.697 41.472 41.412 41.297 41.165 41.035 40.915 40.837 40.915 40.82 40.785 40.83 40.92 40.952 40.945 41.01 41.04 41.192 41.287 41.32 41.415 41.492 41.572 41.637 41.802 41.857 41.92 42.052 42.102 42.242 42.232 42.302 42.32 42.375 42.337 42.3 42.227 42.125 42.02 41.935 41.805 41.792 41.9 42.082 42.167 42.33 42.412 42.57 42.682 42.807 42.922 42.987 43.075 43.12 43.185 43.195 43.275 43.297 43.342 43.407 43.46 43.492 43.45 43.44 43.425 43.455 43.447 43.412 43.432 43.41 43.412 43.422 43.392 43.42 43.455 43.472 43.56 43.605 43.622 43.642 43.667 43.73 43.737 43.73 43.792 43.762 43.765 43.752 43.68 43.602 43.602 43.622 43.645 43.672 43.702 43.72 43.71 43.717 43.727 43.735 43.737 43.76 43.74 43.777 43.735 43.787 43.802 43.85 43.885 43.902 43.905 43.902 43.947 43.952 44.015 43.967 43.927 43.872 43.817 43.827 43.832 43.815 43.805 43.8 43.785 43.745 43.665 43.575 43.592 43.545 43.48 43.397 43.315 43.292 43.275 43.24 43.16 43.01 42.902 42.757 42.74 42.657 42.63 42.617 42.582 42.617 42.685 42.777 43.267 46.165 44.297 44.567 44.76 45.1 44.08 43.43 43.477 43.467 43.392 43.43 43.457 43.342 43.337 43.31 43.255 43.252 43.252 43.255 43.325 43.302
40.707 40.717 40.717 40.742 40.8 40.86 40.905 40.905 40.967 41.047 41.125 41.182 41.252 41.31 41.36 41.425 41.48 41.515 41.715 41.82 41.852 41.77 41.765 41.835 41.887 42.02 41.985 41.977 42.147 42.295 42.245 42.307 42.365 42.322 42.49 42.617 42.54 42.602 42.667 42.75 42.725 42.792 42.842 42.777 42.752 42.76 42.75 42.76 42.785 42.865 42.907 42.96 42.987 42.98 43 43.05 43.105 43.11 43.165 43.225 43.247 43.315 43.37 43.435 43.517 43.577 43.632 43.675 43.79 43.792 43.782 43.77 43.815 43.845 43.852 43.862 43.88 43.915 43.992 43.99 44.11 44.082 44.03 44.027 44.052 44.115 44.162 44.17 44.167 44.192 44.227 44.275 44.287 44.377 44.457 44.492 44.532 44.555 44.582 44.635 44.707 44.71 44.747 44.8 44.865 44.917 44.925 44.912 44.967 45.007 45.045 45.112 45.135 45.165 45.192 45.26 45.345 45.327 45.352 45.395 45.4 45.405 45.462 45.477 45.47 45.53 45.62 45.702 45.68 45.775 45.842 45.91 45.917 45.925 45.925 45.98 46.022 46.105 46.122 46.11 46.185 46.235 46.27 46.257 46.31 46.385 46.347 46.375 46.462 46.522 46.515 46.577 46.66 46.73 46.727 46.782 46.842 46.87 46.897 46.925 46.907 46.895 46.925 46.955 46.947 46.957 46.935 46.987 47.08 47.065 47.052 47.04 47.04 47.182 48.44 48.865 47.702 47.042 47.087 47.08 47.087 47.52 48.14 47.795 47.292 47.43 47.642 47.73 47.712 47.747 47.825 47.8 47.775 47.855 47.882 47.91 47.952 47.972 48.01 48.042 48.045 48.045 48 48.027 48.075 48.057 48.105 48.122 48.15 48.145 48.145 48.135 48.087 48.052 48.027 48 47.995 47.977 47.955 47.997 48 47.93 47.907 47.862 47.835 47.782 47.715 47.7 47.65 47.6 47.527 47.415 47.34 47.267 47.132 47.02 46.905 46.857 46.717 46.597 46.512 46.347 46.18 46.01 45.852 45.687 45.472 45.25 45.015 44.837 44.605 44.375 44.095 43.857 43.615 43.425 43.217 42.962 42.772 42.65 42.475 42.342 42.195 42.032 41.855 41.652 41.542 41.392 41.327 41.272 41.07 40.99 41.045 40.957 40.922 40.925 40.942 41.042 41.095 41.117 41.187 41.342 41.377 41.45 41.532 41.64 41.74 41.77 41.882 41.977 42.05 42.175 42.327 42.41 42.397 42.417 42.515 42.57 42.577 42.515 42.477 42.367 42.265 42.195 42.12 42.007 41.98 42.032 42.24 42.332 42.39 42.505 42.737 42.89 42.977 43.097 43.135 43.252 43.3 43.307 43.332 43.405 43.457 43.47 43.552 43.577 43.58 43.555 43.55 43.535 43.542 43.535 43.567 43.512 43.475 43.472 43.497 43.445 43.472 43.462 43.575 43.617 43.605 43.67 43.79 43.822 43.857 43.855 43.867 43.88 43.927 43.872 43.832 43.715 43.725 43.68 43.687 43.71 43.79 43.792 43.837 43.835 43.842 43.897 43.86 43.842 43.8 43.83 43.805 43.815 43.882 43.88 43.922 43.92 43.94 43.972 43.995 44.04 44.09 44.092 44.062 44.027 43.97 43.965 43.995 43.95 43.947 43.89 43.877 43.845 43.807 43.775 43.725 43.74 43.69 43.662 43.575 43.555 43.427 43.355 43.255 43.155 43.015 42.875 42.812 42.732 42.69 42.702 42.755 42.83 42.925 43.02 43.25 44.98 44.427 44.345 45.292 43.76 43.497 43.602 43.575 43.585 43.547 43.495 43.495 43.46 43.37 43.307 43.307 43.302 43.29 43.275 43.297 43.305 43.292
40.692 40.722 40.745 40.807 40.832 40.897 40.922 40.965 41.035 41.125 41.175 41.25 41.312 41.387 41.417 41.602 41.59 41.672 41.782 41.797 41.772 41.857 41.927 42.017 42.107 42.105 42.24 42.267 42.3 42.342 42.415 42.43 42.502 42.465 42.502 42.577 42.577 42.457 42.605 42.727 42.715 42.755 42.805 42.867 42.77 42.872 42.875 42.835 42.855 42.877 42.967 42.975 43.032 43.07 43.092 43.117 43.17 43.227 43.252 43.35 43.432 43.582 43.592 43.592 43.542 43.605 43.65 43.665 43.735 43.787 43.89 43.867 43.877 43.927 43.96 43.977 44.082 44.042 44.085 44.045 44.117 44.037 44.04 44.13 44.135 44.172 44.215 44.267 44.292 44.317 44.347 44.382 44.395 44.467 44.51 44.552 44.597 44.652 44.642 44.702 44.775 44.835 44.865 44.912 44.992 45.015 45.025 45.082 45.12 45.067 45.135 45.172 45.2 45.25 45.245 45.315 45.262 45.317 45.412 45.467 45.487 45.492 45.58 45.587 45.62 45.667 45.707 45.76 45.815 45.847 45.867 45.927 45.97 46.017 46.112 46.145 46.175 46.177 46.177 46.252 46.297 46.347 46.357 46.387 46.427 46.42 46.452 46.51 46.545 46.562 46.557 46.645 46.705 46.74 46.777 46.827 46.902 46.915 46.92 46.92 46.932 46.947 46.982 47.01 47.035 47.05 47.04 47.055 47.11 47.22 47.22 47.182 47.162 47.112 47.187 48.47 48.702 47.372 47.057 47.067 47.18 47.917 48.062 47.452 47.39 47.64 47.767 47.79 47.79 47.867 47.867 47.835 47.845 47.877 47.927 48.007 48.007 48.015 48.067 48.06 48.087 48.05 48.08 48.115 48.105 48.157 48.152 48.175 48.227 48.187 48.177 48.167 48.145 48.065 48.057 48.067 48.042 48.01 48.032 48.072 48.032 47.992 47.957 47.91 47.852 47.83 47.72 47.725 47.69 47.635 47.525 47.457 47.335 47.245 47.117 46.995 46.91 46.815 46.69 46.592 46.462 46.317 46.155 45.975 45.81 45.685 45.437 45.217 44.982 44.782 44.562 44.31 44.075 43.852 43.605 43.367 43.132 42.912 42.772 42.62 42.457 42.345 42.155 42.015 41.862 41.667 41.53 41.482 41.39 41.285 41.02 41.055 41.075 41.045 41.05 41.037 41.18 41.27 41.245 41.257 41.395 41.512 41.54 41.637 41.73 41.83 41.925 42.01 42.092 42.172 42.245 42.382 42.527 42.497 42.617 42.702 42.745 42.775 42.722 42.7 42.645 42.56 42.455 42.367 42.275 42.217 42.212 42.17 42.295 42.415 42.53 42.717 42.922 43.025 43.177 43.31 43.347 43.405 43.47 43.457 43.515 43.557 43.58 43.652 43.717 43.675 43.677 43.722 43.66 43.6 43.667 43.697 43.645 43.612 43.57 43.55 43.52 43.547 43.587 43.602 43.622 43.65 43.707 43.782 43.87 43.92 43.94 43.955 43.947 43.93 43.945 43.927 43.877 43.802 43.81 43.777 43.772 43.807 43.87 43.89 43.952 44.015 43.997 43.965 43.952 43.955 43.94 43.937 43.945 43.945 43.975 43.997 44.03 44.015 44.005 44.03 44.105 44.157 44.172 44.152 44.15 44.147 44.09 44.07 44.03 44.042 44.047 44.012 43.977 43.977 43.915 43.915 43.867 43.927 43.802 43.737 43.625 43.527 43.422 43.315 43.192 43.075 42.97 42.895 42.842 42.777 42.847 42.95 43.032 43.217 43.252 42.947 43.295 44.967 46.295 44.13 43.522 43.592 43.725 43.712 43.702 43.665 43.57 43.542 43.475 43.485 43.422 43.39 43.4 43.385 43.365 43.32 43.315 43.27 43.285
40.74 40.78 40.802 40.87 40.882 40.925 40.985 41.06 41.122 41.187 41.262 41.297 41.377 41.405 41.632 41.74 41.707 41.747 41.852 41.772 41.86 42.022 42.127 42.24 42.307 42.31 42.455 42.415 42.505 42.482 42.46 42.502 42.512 42.522 42.495 42.595 42.565 42.642 42.692 42.715 42.732 42.737 42.777 42.812 42.85 42.872 42.887 42.907 42.955 42.972 43.012 43.032 43.102 43.2 43.2 43.287 43.337 43.407 43.425 43.487 43.507 43.542 43.562 43.587 43.627 43.705 43.735 43.852 43.9 43.89 43.937 44.035 44.005 43.962 44.042 44.007 44.085 44.082 44.06 44.075 44.105 44.157 44.122 44.212 44.257 44.302 44.297 44.372 44.392 44.377 44.432 44.395 44.452 44.53 44.582 44.635 44.732 44.765 44.752 44.81 44.88 44.937 45.055 45.045 45.05 45.015 45.06 45.092 45.11 45.115 45.132 45.195 45.31 45.347 45.34 45.397 45.487 45.44 45.507 45.56 45.602 45.595 45.642 45.68 45.712 45.722 45.767 45.787 45.847 45.905 46.002 46.03 46.1 46.15 46.19 46.242 46.25 46.245 46.245 46.272 46.305 46.39 46.42 46.437 46.482 46.48 46.537 46.562 46.625 46.62 46.632 46.702 46.772 46.775 46.822 46.882 46.96 47.007 47.007 47.032 47.01 47.035 47.037 47.05 47.085 47.142 47.12 47.145 47.155 47.22 47.315 47.31 47.247 47.265 47.217 47.932 48.86 48.39 47.172 47.152 47.777 48.617 47.98 47.422 47.537 47.747 47.845 47.877 47.882 47.892 47.885 47.917 47.9 47.92 47.987 48.062 48.06 48.122 48.122 48.112 48.137 48.117 48.135 48.187 48.172 48.237 48.2 48.237 48.257 48.262 48.217 48.252 48.21 48.155 48.12 48.117 48.09 48.085 48.14 48.097 48.037 48.017 47.972 47.897 47.88 47.815 47.772 47.747 47.705 47.605 47.55 47.457 47.345 47.225 47.107 47.022 46.895 46.795 46.682 46.585 46.467 46.265 46.102 45.935 45.787 45.587 45.387 45.17 44.935 44.745 44.515 44.235 44.017 43.83 43.565 43.332 43.072 42.897 42.73 42.605 42.492 42.375 42.177 41.997 41.847 41.695 41.597 41.525 41.392 41.217 41.132 41.15 41.127 41.175 41.18 41.23 41.325 41.387 41.382 41.46 41.6 41.655 41.75 41.85 41.915 42.02 42.16 42.212 42.327 42.427 42.487 42.652 42.707 42.79 42.815 42.85 42.902 42.907 42.887 42.892 42.847 42.767 42.632 42.557 42.447 42.432 42.337 42.237 42.26 42.5 42.767 42.89 42.995 43.14 43.27 43.392 43.46 43.49 43.547 43.627 43.65 43.7 43.717 43.752 43.802 43.79 43.79 43.772 43.725 43.695 43.702 43.695 43.705 43.72 43.69 43.637 43.657 43.682 43.627 43.662 43.667 43.72 43.805 43.845 43.947 43.995 43.99 44.042 44.035 44.02 43.997 43.98 43.962 43.895 43.91 43.932 43.935 43.947 43.98 44.032 44.037 44.077 44.072 44.035 44.057 44.055 44.022 44.017 44.005 44.03 44.01 44.082 44.04 44.065 44.112 44.122 44.195 44.205 44.25 44.237 44.21 44.177 44.177 44.147 44.115 44.17 44.175 44.112 44.092 44.11 44.052 44.015 43.912 43.82 43.73 43.692 43.562 43.477 43.415 43.29 43.177 43.092 43.022 43.022 43.042 43.022 43.122 43.22 43.297 45.05 43.482 43.342 45.195 43.745 44.012 43.585 43.685 43.797 43.805 43.812 43.762 43.675 43.572 43.545 43.535 43.545 43.507 43.52 43.552 43.502 43.442 43.392 43.382 43.337 43.295
40.807 40.842 40.88 40.917 40.967 41.007 41.075 41.137 41.195 41.257 41.305 41.34 41.405 41.505 41.66 41.772 41.822 41.847 42.017 42.027 42.01 42.28 42.362 42.387 42.457 42.47 42.492 42.547 42.532 42.542 42.652 42.532 42.557 42.582 42.627 42.637 42.597 42.652 42.657 42.692 42.715 42.775 42.84 42.89 42.957 42.96 43.077 43.157 43.152 43.192 43.152 43.225 43.207 43.267 43.312 43.352 43.417 43.42 43.47 43.562 43.6 43.625 43.652 43.707 43.767 43.875 44 44.007 43.962 43.965 44.03 44.01 44.025 44.09 44.105 44.077 44.105 44.175 44.192 44.227 44.245 44.267 44.255 44.302 44.307 44.397 44.41 44.5 44.462 44.49 44.497 44.557 44.57 44.605 44.657 44.737 44.75 44.807 44.845 44.852 44.832 44.92 44.935 44.99 45.07 45.112 45.165 45.185 45.252 45.25 45.31 45.36 45.47 45.482 45.437 45.467 45.56 45.545 45.592 45.612 45.632 45.665 45.685 45.762 45.775 45.792 45.875 45.9 45.935 46.005 46.1 46.13 46.16 46.207 46.225 46.237 46.272 46.305 46.35 46.362 46.432 46.472 46.522 46.545 46.585 46.6 46.597 46.605 46.662 46.67 46.735 46.782 46.817 46.852 46.965 46.945 46.957 47.01 47.077 47.112 47.107 47.085 47.135 47.177 47.135 47.227 47.26 47.24 47.217 47.287 47.342 47.39 47.365 47.342 47.347 47.257 47.875 48.53 48.105 48.102 48.567 48.555 47.655 47.525 47.727 47.872 47.912 47.972 47.927 47.925 47.905 47.937 47.965 48.01 48.055 48.115 48.122 48.165 48.15 48.162 48.137 48.185 48.23 48.207 48.242 48.255 48.277 48.305 48.315 48.332 48.295 48.312 48.23 48.2 48.195 48.155 48.122 48.15 48.167 48.12 48.097 48.04 48.005 47.95 47.905 47.837 47.817 47.81 47.712 47.645 47.575 47.437 47.325 47.22 47.137 47.035 46.892 46.797 46.677 46.592 46.447 46.257 46.067 45.915 45.725 45.53 45.335 45.145 44.912 44.707 44.44 44.212 44.007 43.745 43.52 43.26 43.065 42.907 42.72 42.592 42.47 42.302 42.16 41.97 41.837 41.75 41.63 41.585 41.365 41.25 41.23 41.187 41.245 41.25 41.337 41.437 41.48 41.49 41.585 41.697 41.76 41.875 41.947 42.107 42.16 42.267 42.332 42.437 42.592 42.7 42.765 42.732 42.805 42.93 42.997 42.995 43.027 43.095 43.085 43.05 43.03 42.952 42.842 42.757 42.655 42.557 42.412 42.377 42.435 42.647 42.867 42.98 43.13 43.227 43.382 43.455 43.532 43.625 43.672 43.737 43.787 43.847 43.847 43.875 43.877 43.935 43.905 43.847 43.825 43.842 43.765 43.757 43.76 43.777 43.72 43.71 43.75 43.735 43.71 43.755 43.815 43.82 43.895 43.94 44.032 44.05 44.122 44.127 44.105 44.062 44.037 44.04 44.025 43.952 43.955 43.985 44.06 44.077 44.122 44.14 44.185 44.16 44.165 44.125 44.14 44.155 44.065 44.055 44.065 44.047 44.105 44.102 44.075 44.107 44.145 44.185 44.21 44.245 44.267 44.297 44.285 44.227 44.212 44.24 44.22 44.197 44.147 44.105 44.087 44.065 44.03 44.002 43.91 43.817 43.74 43.645 43.56 43.465 43.395 43.335 43.265 43.27 43.28 43.23 43.212 43.225 44.15 45.747 47.125 44.227 43.897 44.432 43.745 43.665 43.687 43.792 43.795 43.825 43.847 43.782 43.777 43.672 43.632 43.627 43.715 43.7 43.672 43.625 43.66 43.63 43.565 43.502 43.45 43.4 43.385
40.822 40.885 40.932 40.957 41.037 41.115 41.172 41.197 41.27 41.302 41.362 41.415 41.537 41.662 41.707 41.762 41.9 41.91 42.022 42.01 42.22 42.252 42.36 42.442 42.54 42.625 42.562 42.565 42.612 42.417 42.372 42.487 42.452 42.585 42.75 42.68 42.632 42.672 42.672 42.747 42.877 43.025 43.145 43.26 43.33 43.332 43.35 43.385 43.32 43.342 43.337 43.355 43.357 43.322 43.375 43.46 43.5 43.522 43.65 43.66 43.727 43.75 43.787 43.782 43.845 43.902 43.932 43.947 44.002 44.045 44.065 44.105 44.122 44.17 44.215 44.205 44.217 44.25 44.287 44.292 44.337 44.345 44.347 44.38 44.455 44.452 44.512 44.602 44.572 44.602 44.625 44.652 44.642 44.647 44.687 44.72 44.797 44.86 44.9 44.945 44.977 45.005 45.065 45.122 45.207 45.317 45.305 45.27 45.345 45.355 45.345 45.397 45.46 45.5 45.555 45.557 45.595 45.63 45.692 45.685 45.717 45.755 45.79 45.837 45.857 45.892 45.937 45.982 46.057 46.072 46.142 46.182 46.232 46.257 46.28 46.307 46.382 46.425 46.44 46.44 46.485 46.555 46.587 46.597 46.655 46.647 46.635 46.667 46.72 46.755 46.83 46.867 46.87 46.902 46.987 47.025 47.067 47.11 47.17 47.187 47.212 47.217 47.32 47.277 47.22 47.275 47.317 47.302 47.325 47.355 47.44 47.485 47.515 47.492 47.477 47.46 47.417 47.687 48.207 49.172 48.937 48.182 47.572 47.695 47.865 47.935 47.947 48.04 48.017 48.032 48.005 48.002 48.067 48.097 48.15 48.23 48.197 48.215 48.225 48.217 48.207 48.272 48.282 48.295 48.312 48.327 48.352 48.345 48.342 48.365 48.38 48.32 48.247 48.222 48.232 48.22 48.222 48.262 48.172 48.175 48.115 48.072 48.017 47.98 47.935 47.895 47.872 47.817 47.715 47.662 47.577 47.44 47.325 47.205 47.132 46.99 46.932 46.777 46.667 46.565 46.412 46.212 46.052 45.887 45.715 45.475 45.257 45.125 44.875 44.602 44.337 44.177 43.93 43.71 43.47 43.257 43.04 42.895 42.735 42.612 42.462 42.317 42.12 41.985 41.855 41.767 41.66 41.527 41.397 41.285 41.292 41.32 41.305 41.42 41.512 41.56 41.587 41.692 41.875 41.867 41.947 42.09 42.122 42.32 42.482 42.535 42.585 42.672 42.825 42.93 42.855 42.925 43.027 43.107 43.125 43.162 43.227 43.272 43.275 43.255 43.187 43.097 43.03 42.937 42.765 42.63 42.56 42.582 42.647 42.735 42.91 43.13 43.222 43.307 43.4 43.475 43.565 43.662 43.762 43.832 43.905 43.905 43.942 43.985 44.03 44.027 44.002 43.977 43.952 43.965 43.9 43.895 43.822 43.762 43.8 43.75 43.71 43.707 43.75 43.76 43.842 43.87 43.922 44.03 44.11 44.125 44.187 44.192 44.177 44.18 44.157 44.085 44.042 44.017 44.002 44.04 44.192 44.157 44.192 44.27 44.25 44.187 44.222 44.207 44.21 44.192 44.102 44.08 44.102 44.092 44.175 44.175 44.122 44.172 44.185 44.242 44.29 44.277 44.355 44.385 44.345 44.337 44.347 44.282 44.185 44.122 44.052 44.027 44.01 44.01 43.977 43.937 43.85 43.78 43.737 43.627 43.602 43.557 43.58 43.587 43.52 43.487 43.472 43.445 43.37 43.722 44.392 46.637 47.84 46.092 47.112 43.962 43.757 43.877 43.942 43.92 43.917 43.887 43.83 43.802 43.772 43.79 43.732 43.827 43.87 43.872 43.805 43.77 43.75 43.715 43.69 43.555 43.51 43.512 43.505
40.9 40.922 40.962 41.05 41.12 41.197 41.232 41.255 41.33 41.41 41.457 41.622 41.677 41.705 41.72 41.827 41.925 41.927 42.07 42.245 42.35 42.335 42.35 42.357 42.37 42.415 42.465 42.557 42.53 42.56 42.57 42.562 42.657 42.69 42.822 42.835 42.837 42.892 42.947 43.065 43.077 43.18 43.342 43.345 43.41 43.47 43.617 43.535 43.36 43.362 43.427 43.437 43.457 43.515 43.535 43.545 43.61 43.655 43.722 43.697 43.777 43.842 43.86 43.867 43.872 43.947 44.027 44.097 44.07 44.135 44.162 44.172 44.195 44.245 44.262 44.265 44.297 44.315 44.33 44.41 44.437 44.475 44.52 44.542 44.515 44.557 44.527 44.59 44.645 44.675 44.66 44.632 44.7 44.75 44.785 44.822 44.932 44.972 45.027 45.055 45.057 45.127 45.145 45.175 45.242 45.287 45.305 45.307 45.367 45.385 45.442 45.505 45.562 45.57 45.602 45.677 45.655 45.712 45.73 45.762 45.81 45.86 45.892 45.92 45.955 46.015 46.035 46.09 46.12 46.172 46.247 46.252 46.285 46.307 46.362 46.41 46.437 46.49 46.49 46.527 46.572 46.602 46.607 46.625 46.7 46.705 46.715 46.735 46.792 46.81 46.9 46.892 46.955 46.985 46.992 47.047 47.082 47.107 47.19 47.212 47.235 47.262 47.272 47.275 47.31 47.285 47.322 47.375 47.455 47.49 47.482 47.482 47.645 47.612 47.52 47.54 47.497 47.495 47.602 48.74 48.76 47.722 47.645 47.877 47.972 48.017 48.037 48.065 48.06 48.052 48.092 48.105 48.125 48.165 48.235 48.24 48.252 48.247 48.252 48.275 48.287 48.362 48.355 48.335 48.342 48.407 48.415 48.42 48.405 48.432 48.42 48.35 48.362 48.315 48.305 48.28 48.27 48.255 48.23 48.172 48.125 48.085 48.07 47.985 47.947 47.942 47.887 47.802 47.74 47.677 47.552 47.442 47.317 47.245 47.152 46.992 46.877 46.772 46.667 46.522 46.377 46.175 46.02 45.87 45.665 45.437 45.24 45.047 44.792 44.527 44.305 44.082 43.855 43.65 43.472 43.227 43.035 42.867 42.772 42.562 42.417 42.3 42.112 42.002 41.905 41.8 41.657 41.527 41.375 41.362 41.407 41.37 41.442 41.53 41.625 41.672 41.717 41.92 41.97 42.042 42.137 42.25 42.412 42.525 42.71 42.717 42.78 42.882 43.022 42.942 43.027 43.112 43.177 43.22 43.332 43.407 43.395 43.41 43.44 43.422 43.355 43.272 43.165 43.01 42.91 42.817 42.785 42.765 42.802 42.9 42.987 43.202 43.257 43.38 43.51 43.632 43.78 43.837 43.925 43.992 44.007 43.957 44.015 44.06 44.125 44.097 44.01 44.022 44.022 44.03 43.992 43.892 43.802 43.73 43.755 43.745 43.735 43.742 43.787 43.87 43.915 43.94 44.012 44.047 44.107 44.187 44.235 44.235 44.237 44.257 44.237 44.24 44.165 44.177 44.187 44.227 44.27 44.282 44.21 44.312 44.257 44.29 44.305 44.237 44.235 44.215 44.177 44.152 44.187 44.202 44.312 44.265 44.255 44.32 44.32 44.37 44.437 44.427 44.387 44.385 44.34 44.272 44.272 44.225 44.135 44.032 44.01 43.997 43.987 43.935 43.922 43.892 43.885 43.842 43.825 43.777 43.782 43.762 43.772 43.812 43.787 43.667 43.677 46.362 45.075 44.26 44.245 44.785 46.592 44.427 44.155 43.925 43.995 44.035 44.04 44.005 43.912 43.9 43.815 43.84 43.93 43.975 43.985 43.967 44.025 44.015 43.965 43.905 43.9 43.852 43.775 43.64 43.652 43.645 43.567
40.965 41.007 41.06 41.127 41.197 41.23 41.305 41.352 41.437 41.617 41.642 41.7 41.782 41.79 41.817 41.92 41.875 41.952 42.022 42.14 42.292 42.267 42.347 42.412 42.437 42.622 42.6 42.642 42.715 42.732 42.687 42.805 42.885 42.855 42.942 43.025 43.112 43.185 43.237 43.172 43.122 43.217 43.287 43.337 43.512 43.595 43.625 43.6 43.545 43.59 43.602 43.522 43.482 43.517 43.572 43.647 43.66 43.735 43.845 43.907 43.867 43.945 44.012 43.977 44.03 44.12 44.117 44.162 44.13 44.22 44.235 44.267 44.272 44.302 44.38 44.382 44.425 44.43 44.425 44.452 44.497 44.545 44.595 44.59 44.565 44.577 44.592 44.677 44.685 44.737 44.78 44.817 44.877 44.897 44.957 45.002 45.042 45.057 45.102 45.152 45.19 45.27 45.29 45.272 45.355 45.355 45.392 45.42 45.467 45.477 45.535 45.602 45.642 45.642 45.707 45.717 45.74 45.79 45.835 45.855 45.867 45.972 45.965 46.045 46.072 46.11 46.137 46.175 46.192 46.247 46.297 46.32 46.372 46.417 46.497 46.5 46.537 46.58 46.622 46.577 46.662 46.635 46.667 46.72 46.732 46.802 46.827 46.83 46.867 46.877 46.915 46.92 46.932 46.975 46.972 47.045 47.06 47.115 47.187 47.217 47.25 47.267 47.315 47.342 47.362 47.37 47.437 47.512 47.527 47.55 47.56 47.515 47.58 47.757 47.662 47.625 47.582 47.572 47.62 48.247 48.065 47.655 47.807 48.017 48.047 48.052 48.132 48.082 48.105 48.145 48.152 48.16 48.205 48.247 48.302 48.307 48.295 48.332 48.31 48.347 48.367 48.425 48.382 48.402 48.427 48.462 48.465 48.445 48.45 48.48 48.46 48.43 48.417 48.425 48.412 48.335 48.37 48.347 48.3 48.22 48.197 48.135 48.065 48.035 47.992 47.982 47.89 47.8 47.755 47.68 47.55 47.46 47.342 47.24 47.115 46.96 46.875 46.785 46.66 46.507 46.33 46.16 46.015 45.84 45.602 45.402 45.182 44.97 44.687 44.46 44.26 44.022 43.827 43.592 43.407 43.225 43.017 42.865 42.725 42.527 42.385 42.232 42.13 42.017 41.882 41.77 41.627 41.552 41.47 41.442 41.5 41.485 41.592 41.692 41.7 41.812 41.955 42.075 42.112 42.225 42.302 42.427 42.595 42.76 42.822 42.82 42.887 43.092 43.067 43.1 43.182 43.285 43.357 43.427 43.522 43.54 43.592 43.635 43.615 43.552 43.482 43.44 43.312 43.175 43.115 43.05 43.017 43.022 43.065 43.145 43.22 43.257 43.407 43.462 43.612 43.757 43.855 43.985 43.982 44.03 44.03 44.035 44.095 44.2 44.165 44.152 44.087 44.115 44.07 44 43.905 43.815 43.747 43.69 43.712 43.775 43.73 43.767 43.837 43.907 43.98 43.977 44.04 44.092 44.175 44.232 44.237 44.327 44.315 44.337 44.332 44.342 44.31 44.26 44.26 44.237 44.232 44.232 44.295 44.245 44.322 44.377 44.367 44.317 44.305 44.31 44.3 44.322 44.367 44.36 44.382 44.39 44.442 44.442 44.412 44.385 44.39 44.362 44.312 44.272 44.25 44.18 44.172 44.127 44.085 44.035 44.03 43.997 43.99 44.015 43.99 44.037 44.04 43.957 43.952 43.937 43.945 43.947 43.995 43.887 44.275 44.142 43.92 45.385 46.54 44.155 44.097 43.992 44.1 44.03 44.03 44.12 44.17 44.157 44.082 44.022 43.937 43.91 43.952 44.002 44.11 44.112 44.135 44.12 44.147 44.125 44.1 43.975 43.947 43.95 43.847 43.727 43.75 43.74 43.65
41.025 41.08 41.17 41.215 41.25 41.317 41.362 41.427 41.592 41.855 41.885 41.85 41.775 41.965 41.937 41.935 41.977 41.977 42.057 42.157 42.265 42.305 42.452 42.51 42.48 42.585 42.687 42.74 42.87 42.847 42.955 43.097 43.105 43.062 43.075 43.152 43.212 43.13 43.19 43.247 43.355 43.342 43.407 43.445 43.497 43.46 43.435 43.497 43.48 43.53 43.507 43.542 43.585 43.575 43.75 43.727 43.752 43.815 43.922 43.985 44.067 44.075 44.08 44.12 44.08 44.102 44.142 44.177 44.195 44.245 44.27 44.32 44.377 44.405 44.442 44.45 44.465 44.49 44.495 44.595 44.622 44.7 44.68 44.625 44.655 44.67 44.762 44.815 44.835 44.867 44.9 44.942 44.962 45.017 45.06 45.085 45.13 45.175 45.232 45.272 45.315 45.367 45.407 45.397 45.45 45.51 45.51 45.54 45.572 45.597 45.635 45.665 45.682 45.725 45.79 45.795 45.85 45.887 45.952 45.982 45.957 46.025 46.045 46.107 46.137 46.172 46.19 46.242 46.29 46.317 46.38 46.435 46.49 46.517 46.57 46.602 46.65 46.645 46.635 46.652 46.697 46.705 46.707 46.73 46.767 46.827 46.852 46.867 46.855 46.85 46.895 46.972 46.975 47.002 47.037 47.06 47.14 47.155 47.275 47.305 47.39 47.387 47.435 47.452 47.48 47.485 47.547 47.562 47.567 47.582 47.615 47.582 47.58 47.727 47.822 47.745 47.635 47.645 47.982 48.415 47.77 47.767 47.982 48.05 48.08 48.095 48.167 48.145 48.152 48.17 48.225 48.25 48.322 48.33 48.372 48.355 48.367 48.38 48.387 48.407 48.457 48.452 48.482 48.497 48.502 48.505 48.497 48.5 48.537 48.552 48.457 48.487 48.505 48.497 48.427 48.45 48.41 48.392 48.36 48.267 48.207 48.165 48.08 48.052 48.035 47.977 47.895 47.825 47.772 47.642 47.537 47.447 47.367 47.282 47.112 46.977 46.88 46.772 46.627 46.46 46.302 46.132 45.997 45.777 45.547 45.335 45.155 44.867 44.625 44.425 44.197 43.982 43.785 43.562 43.38 43.17 43.017 42.845 42.682 42.53 42.38 42.22 42.155 42.027 41.905 41.742 41.652 41.562 41.45 41.577 41.607 41.657 41.692 41.745 41.837 41.997 42.167 42.23 42.277 42.402 42.552 42.675 42.817 42.877 42.92 42.977 43.155 43.157 43.197 43.365 43.45 43.462 43.507 43.552 43.632 43.702 43.76 43.817 43.765 43.745 43.687 43.567 43.485 43.382 43.325 43.277 43.252 43.345 43.352 43.32 43.327 43.322 43.527 43.637 43.74 43.812 43.907 43.992 44.08 44.105 44.137 44.17 44.2 44.245 44.292 44.295 44.182 44.132 44.085 43.995 43.935 43.89 43.807 43.757 43.825 43.822 43.87 43.915 43.94 44.077 44.15 44.105 44.22 44.29 44.362 44.332 44.365 44.395 44.472 44.445 44.417 44.43 44.437 44.395 44.36 44.4 44.367 44.372 44.427 44.4 44.425 44.48 44.467 44.455 44.457 44.475 44.435 44.427 44.402 44.415 44.447 44.435 44.442 44.397 44.4 44.372 44.337 44.31 44.315 44.252 44.26 44.195 44.125 44.122 44.112 44.142 44.18 44.22 44.235 44.247 44.197 44.2 44.167 44.195 44.142 43.922 44.055 44.297 44.945 44.295 44.6 44.457 44.137 44.4 44.787 44.072 44.09 44.135 44.21 44.18 44.187 44.252 44.23 44.217 44.125 44.062 44.04 44.1 44.19 44.217 44.232 44.232 44.212 44.235 44.195 44.212 44.152 44.085 44.06 44.035 43.99 43.952 43.9 43.87 43.71
41.085 41.19 41.252 41.282 41.33 41.38 41.442 41.472 41.565 41.715 41.787 41.827 41.89 41.892 41.822 41.877 41.98 42.042 42.177 42.305 42.327 42.472 42.415 42.655 42.59 42.755 42.827 42.895 43.007 43.042 43.085 42.967 43.122 43.227 43.28 43.337 43.372 43.352 43.422 43.495 43.38 43.322 43.335 43.332 43.515 43.482 43.51 43.587 43.672 43.752 43.717 43.695 43.73 43.742 43.845 43.822 43.857 43.922 43.977 44.1 44.125 44.165 44.187 44.132 44.14 44.187 44.26 44.215 44.27 44.335 44.367 44.397 44.405 44.467 44.517 44.532 44.6 44.56 44.582 44.63 44.73 44.765 44.747 44.787 44.84 44.82 44.86 44.887 44.9 44.975 45.002 45.025 45.085 45.12 45.127 45.205 45.242 45.327 45.33 45.38 45.387 45.477 45.467 45.517 45.54 45.58 45.607 45.625 45.647 45.665 45.717 45.757 45.802 45.83 45.86 45.907 45.975 45.982 46.01 46.027 46.05 46.155 46.147 46.16 46.195 46.232 46.287 46.357 46.407 46.385 46.485 46.537 46.555 46.605 46.617 46.652 46.702 46.71 46.702 46.695 46.71 46.75 46.75 46.745 46.78 46.867 46.905 46.97 46.947 46.98 47.037 47.11 47.147 47.125 47.107 47.172 47.215 47.267 47.35 47.382 47.47 47.46 47.51 47.532 47.52 47.577 47.602 47.617 47.652 47.64 47.652 47.66 47.747 47.8 47.81 47.767 47.705 47.777 49.037 48.717 47.765 47.942 48.072 48.132 48.162 48.18 48.165 48.16 48.247 48.252 48.257 48.305 48.355 48.355 48.385 48.42 48.402 48.422 48.452 48.48 48.51 48.525 48.57 48.552 48.542 48.557 48.527 48.542 48.585 48.535 48.525 48.517 48.555 48.505 48.48 48.5 48.43 48.412 48.347 48.277 48.245 48.175 48.13 48.08 48.04 47.96 47.897 47.847 47.755 47.662 47.542 47.487 47.352 47.242 47.117 47.032 46.877 46.722 46.62 46.42 46.257 46.127 45.91 45.75 45.487 45.262 45.025 44.797 44.595 44.372 44.13 43.995 43.745 43.525 43.355 43.167 42.997 42.862 42.677 42.51 42.332 42.25 42.137 42.075 41.912 41.737 41.64 41.535 41.607 41.687 41.692 41.707 41.782 41.875 41.995 42.222 42.377 42.44 42.49 42.625 42.735 42.915 43.012 43.022 43.052 43.15 43.25 43.315 43.48 43.557 43.562 43.53 43.662 43.722 43.8 43.892 43.847 43.967 43.942 43.922 43.875 43.78 43.68 43.692 43.675 43.565 43.517 43.517 43.592 43.572 43.647 43.61 43.615 43.852 43.937 44.017 44.102 44.192 44.255 44.29 44.367 44.38 44.367 44.357 44.395 44.345 44.257 44.227 44.162 44.137 44.145 44.067 43.95 43.932 43.935 43.935 44.022 44.077 44.125 44.225 44.237 44.232 44.347 44.41 44.487 44.482 44.507 44.537 44.625 44.652 44.637 44.6 44.572 44.56 44.517 44.492 44.537 44.535 44.562 44.567 44.56 44.525 44.477 44.497 44.457 44.43 44.42 44.427 44.41 44.41 44.457 44.422 44.395 44.407 44.38 44.367 44.375 44.355 44.29 44.26 44.252 44.252 44.275 44.337 44.372 44.412 44.437 44.467 44.485 44.49 44.417 44.212 44.412 44.572 44.747 44.29 44.47 44.687 45.075 44.69 44.512 44.272 44.215 44.185 44.242 44.247 44.277 44.332 44.322 44.302 44.312 44.31 44.25 44.225 44.227 44.23 44.322 44.385 44.377 44.315 44.322 44.275 44.352 44.315 44.315 44.31 44.222 44.167 44.127 44.115 44.047 43.99 43.895 43.81 43.787
41.177 41.265 41.315 41.35 41.425 41.485 41.522 41.565 41.67 41.84 41.897 41.96 42.055 41.957 41.972 42.012 42.135 42.2 42.307 42.367 42.55 42.712 42.74 42.855 42.86 42.857 43.055 42.952 43.127 43.127 43.18 43.107 43.277 43.232 43.332 43.305 43.442 43.35 43.31 43.217 43.265 43.36 43.432 43.402 43.502 43.65 43.652 43.647 43.752 43.81 43.867 43.935 43.93 43.905 43.907 43.895 43.927 44 44.04 44.092 44.197 44.26 44.29 44.21 44.21 44.205 44.245 44.325 44.397 44.445 44.51 44.48 44.525 44.605 44.602 44.66 44.672 44.735 44.765 44.77 44.835 44.84 44.887 44.95 44.945 44.945 44.972 44.997 45.01 45.067 45.13 45.177 45.192 45.23 45.252 45.305 45.36 45.377 45.392 45.432 45.44 45.517 45.557 45.57 45.607 45.672 45.702 45.735 45.767 45.78 45.847 45.897 45.885 45.942 45.985 46.047 46.057 46.03 46.085 46.162 46.18 46.187 46.237 46.315 46.242 46.32 46.392 46.452 46.442 46.482 46.532 46.562 46.61 46.707 46.7 46.697 46.725 46.71 46.75 46.742 46.78 46.807 46.81 46.835 46.887 46.972 47.01 47.06 47.07 47.102 47.095 47.127 47.115 47.155 47.212 47.23 47.29 47.327 47.395 47.435 47.485 47.54 47.605 47.622 47.597 47.637 47.69 47.752 47.752 47.692 47.712 47.787 47.88 47.92 47.862 47.84 47.795 48.33 49.295 47.987 47.867 48.067 48.167 48.18 48.205 48.247 48.22 48.255 48.292 48.305 48.322 48.402 48.392 48.425 48.475 48.445 48.467 48.49 48.502 48.57 48.54 48.6 48.605 48.617 48.617 48.612 48.602 48.577 48.612 48.61 48.552 48.612 48.6 48.587 48.56 48.535 48.47 48.452 48.372 48.31 48.282 48.197 48.155 48.13 48.045 47.975 47.912 47.827 47.75 47.622 47.53 47.457 47.362 47.257 47.167 47.02 46.85 46.722 46.57 46.417 46.255 46.065 45.857 45.677 45.412 45.175 44.965 44.8 44.577 44.285 44.105 43.905 43.66 43.495 43.307 43.145 43 42.795 42.667 42.472 42.327 42.25 42.165 42.077 41.895 41.787 41.625 41.625 41.71 41.78 41.77 41.81 41.89 42.06 42.305 42.457 42.552 42.68 42.712 42.827 42.965 43.122 43.11 43.17 43.29 43.325 43.437 43.58 43.685 43.687 43.762 43.77 43.84 43.832 43.875 43.93 44.02 44.112 44.115 44.057 44.037 44.025 44.02 43.927 43.83 43.72 43.785 43.782 43.835 43.847 43.887 43.907 43.767 43.915 43.99 44.105 44.162 44.222 44.307 44.437 44.445 44.41 44.425 44.42 44.445 44.465 44.367 44.342 44.267 44.295 44.222 44.097 44.027 44.04 44.042 44.087 44.135 44.167 44.225 44.28 44.315 44.312 44.362 44.402 44.475 44.512 44.587 44.65 44.647 44.682 44.682 44.662 44.647 44.575 44.51 44.522 44.575 44.59 44.63 44.582 44.567 44.527 44.535 44.525 44.51 44.532 44.517 44.495 44.485 44.477 44.47 44.452 44.49 44.477 44.442 44.435 44.417 44.397 44.422 44.45 44.49 44.497 44.512 44.537 44.622 44.69 45.302 45.517 44.842 45.465 45.817 45.622 44.672 45.02 45.64 44.725 44.432 44.387 44.317 44.28 44.317 44.315 44.355 44.347 44.385 44.38 44.43 44.425 44.415 44.4 44.365 44.337 44.357 44.407 44.43 44.465 44.487 44.47 44.46 44.422 44.415 44.427 44.407 44.417 44.402 44.355 44.3 44.257 44.185 44.167 44.097 43.967 43.92 43.89 43.957
41.26 41.29 41.355 41.415 41.492 41.587 41.64 41.667 41.827 42.005 42.015 42.077 42.265 42.18 42.177 42.247 42.25 42.215 42.33 42.572 42.76 42.865 42.81 42.892 42.947 42.945 43.005 43.112 43.092 43.247 43.225 43.222 43.29 43.202 43.225 43.422 43.465 43.432 43.39 43.385 43.497 43.585 43.565 43.545 43.68 43.852 43.775 43.755 43.792 43.952 43.957 44.115 44.075 44.015 43.99 44.002 44.072 44.055 44.092 44.132 44.285 44.31 44.295 44.315 44.357 44.372 44.38 44.382 44.442 44.51 44.557 44.627 44.655 44.675 44.7 44.762 44.797 44.865 44.867 44.885 44.932 44.962 45.015 45 45.052 45.042 45.13 45.122 45.137 45.177 45.232 45.262 45.302 45.317 45.382 45.43 45.505 45.547 45.49 45.52 45.56 45.625 45.677 45.695 45.7 45.73 45.777 45.82 45.835 45.907 45.97 46 45.987 46.06 46.102 46.13 46.177 46.192 46.205 46.297 46.3 46.342 46.265 46.32 46.312 46.332 46.405 46.427 46.465 46.52 46.55 46.67 46.75 46.79 46.825 46.83 46.887 46.865 46.877 46.922 46.945 46.93 46.932 46.885 46.932 47.007 47.062 47.07 47.15 47.207 47.19 47.24 47.29 47.332 47.355 47.367 47.387 47.45 47.507 47.532 47.552 47.59 47.69 47.687 47.697 47.702 47.74 47.777 47.745 47.732 47.77 47.91 48 48.005 47.942 47.882 47.845 49.257 48.732 47.9 48.08 48.157 48.232 48.26 48.287 48.317 48.285 48.32 48.36 48.385 48.432 48.472 48.482 48.495 48.497 48.5 48.535 48.545 48.602 48.6 48.615 48.695 48.677 48.68 48.665 48.69 48.612 48.657 48.627 48.607 48.655 48.64 48.62 48.595 48.605 48.557 48.505 48.442 48.36 48.332 48.32 48.22 48.207 48.13 48.082 47.97 47.91 47.807 47.765 47.622 47.56 47.46 47.337 47.227 47.152 47.022 46.837 46.715 46.547 46.367 46.227 45.997 45.815 45.635 45.402 45.117 44.91 44.767 44.5 44.262 44.042 43.82 43.637 43.452 43.275 43.107 42.947 42.772 42.62 42.477 42.38 42.32 42.21 42.052 41.937 41.77 41.715 41.775 41.825 41.837 41.85 41.935 42.097 42.325 42.49 42.61 42.75 42.88 42.985 43.062 43.205 43.22 43.267 43.412 43.507 43.532 43.617 43.802 43.865 43.975 43.957 43.94 43.947 43.982 44.047 44.072 44.177 44.25 44.222 44.252 44.262 44.217 44.145 44.045 43.982 43.957 44.035 44.087 44.102 44.08 44.07 44.027 43.927 43.945 44.032 44.14 44.185 44.28 44.347 44.4 44.445 44.452 44.46 44.475 44.48 44.452 44.432 44.427 44.367 44.32 44.23 44.167 44.15 44.157 44.145 44.2 44.255 44.31 44.345 44.377 44.395 44.45 44.452 44.475 44.507 44.562 44.642 44.707 44.702 44.722 44.695 44.672 44.645 44.625 44.617 44.602 44.56 44.552 44.56 44.535 44.577 44.622 44.677 44.63 44.55 44.562 44.522 44.497 44.497 44.482 44.477 44.5 44.542 44.61 44.62 44.657 44.627 44.585 44.58 44.617 44.625 44.805 45.457 45.942 45.037 45.425 46.135 45.547 45.897 45.177 45.355 44.765 44.617 44.52 44.457 44.36 44.407 44.387 44.45 44.465 44.457 44.482 44.477 44.48 44.472 44.482 44.465 44.492 44.452 44.44 44.457 44.535 44.535 44.62 44.645 44.615 44.587 44.57 44.56 44.575 44.537 44.532 44.537 44.51 44.485 44.452 44.365 44.295 44.257 44.195 44.102 44.03 44.012 44.055 44.027
41.322 41.355 41.425 41.55 41.632 41.64 41.8 41.765 41.91 41.96 41.867 42.137 42.377 42.442 42.317 42.315 42.25 42.237 42.397 42.53 42.627 42.797 42.775 42.937 43.002 42.95 43.037 43.14 43.205 43.167 43.225 43.23 43.335 43.355 43.497 43.617 43.62 43.637 43.692 43.727 43.752 43.742 43.717 43.662 43.715 43.69 43.812 43.835 43.895 43.902 43.977 44.067 43.987 43.962 44.055 44.117 44.182 44.17 44.282 44.372 44.43 44.44 44.447 44.372 44.427 44.482 44.465 44.532 44.555 44.67 44.692 44.662 44.7 44.812 44.825 44.89 44.925 44.922 44.975 45.045 45.04 45.08 45.112 45.137 45.192 45.26 45.202 45.28 45.242 45.297 45.342 45.357 45.385 45.47 45.565 45.565 45.587 45.575 45.577 45.61 45.637 45.682 45.702 45.755 45.762 45.862 45.912 45.967 45.965 46.017 46.055 46.047 46.085 46.125 46.177 46.165 46.172 46.31 46.29 46.315 46.302 46.312 46.282 46.372 46.43 46.422 46.467 46.552 46.61 46.7 46.707 46.727 46.77 46.795 46.817 46.835 46.847 46.875 46.895 46.94 46.997 46.99 47.02 47.022 47.085 47.115 47.13 47.165 47.24 47.312 47.325 47.385 47.412 47.452 47.432 47.432 47.457 47.485 47.597 47.6 47.625 47.67 47.695 47.745 47.83 47.852 47.862 47.825 47.802 47.807 47.837 47.97 48.052 48.042 48.017 47.92 48.267 49.197 48.045 48.027 48.207 48.277 48.295 48.362 48.387 48.37 48.332 48.412 48.427 48.445 48.517 48.55 48.565 48.557 48.552 48.565 48.585 48.622 48.682 48.675 48.717 48.755 48.702 48.742 48.705 48.705 48.697 48.687 48.647 48.655 48.69 48.645 48.687 48.667 48.632 48.572 48.525 48.467 48.407 48.385 48.367 48.255 48.22 48.147 48.067 48 47.912 47.827 47.725 47.63 47.54 47.445 47.322 47.23 47.152 46.992 46.847 46.655 46.525 46.362 46.16 45.952 45.772 45.582 45.355 45.11 44.892 44.665 44.39 44.202 43.985 43.76 43.59 43.385 43.19 43.085 42.902 42.757 42.617 42.502 42.432 42.352 42.172 42.02 41.902 41.84 41.84 41.875 41.93 41.937 42.055 42.205 42.37 42.54 42.667 42.81 42.927 43.107 43.212 43.365 43.422 43.48 43.6 43.695 43.7 43.745 43.927 44.002 44.105 44.137 44.095 44.097 44.125 44.185 44.287 44.402 44.347 44.377 44.45 44.405 44.35 44.355 44.312 44.302 44.252 44.232 44.205 44.215 44.232 44.225 44.205 44.09 44.027 44.082 44.137 44.207 44.305 44.342 44.43 44.455 44.482 44.547 44.557 44.575 44.547 44.565 44.537 44.48 44.442 44.39 44.335 44.31 44.287 44.287 44.31 44.332 44.35 44.4 44.427 44.442 44.477 44.51 44.532 44.545 44.58 44.605 44.65 44.697 44.73 44.71 44.725 44.725 44.695 44.707 44.722 44.66 44.602 44.607 44.625 44.58 44.587 44.617 44.642 44.612 44.582 44.585 44.597 44.6 44.627 44.662 44.67 44.715 44.77 44.792 44.757 44.762 44.78 44.81 44.802 45.1 45.372 45.665 46.137 45.53 45.105 45.05 45.032 44.945 44.9 44.765 44.645 44.545 44.575 44.54 44.53 44.542 44.515 44.547 44.525 44.547 44.545 44.53 44.525 44.565 44.547 44.547 44.525 44.567 44.585 44.57 44.662 44.737 44.765 44.782 44.717 44.7 44.72 44.685 44.682 44.672 44.635 44.61 44.615 44.575 44.525 44.485 44.415 44.327 44.277 44.167 44.127 44.19 44.152 44.115 44.045
41.36 41.425 41.485 41.615 41.66 41.73 41.757 41.767 41.892 41.957 42.097 42.292 42.302 42.462 42.48 42.527 42.552 42.46 42.43 42.725 42.792 42.812 42.947 43.065 43.172 43.15 43.11 43.28 43.347 43.322 43.357 43.42 43.517 43.555 43.632 43.635 43.565 43.595 43.565 43.655 43.777 43.872 43.817 43.817 43.7 43.752 43.845 43.865 43.872 43.902 44.007 44.075 44.127 44.155 44.227 44.29 44.352 44.385 44.357 44.417 44.462 44.452 44.482 44.482 44.507 44.55 44.57 44.64 44.7 44.687 44.73 44.815 44.857 44.877 44.895 44.985 45.012 45.02 45.047 45.097 45.155 45.205 45.232 45.287 45.292 45.32 45.292 45.44 45.442 45.442 45.412 45.457 45.507 45.535 45.607 45.637 45.69 45.757 45.797 45.817 45.8 45.875 45.865 45.867 45.887 45.972 46.042 46.04 46.02 46.047 46.09 46.127 46.172 46.175 46.212 46.24 46.242 46.302 46.35 46.385 46.432 46.462 46.452 46.495 46.547 46.585 46.63 46.68 46.7 46.74 46.762 46.787 46.817 46.832 46.872 46.91 46.91 46.935 47.002 47.057 47.115 47.17 47.2 47.172 47.175 47.217 47.24 47.295 47.335 47.352 47.422 47.43 47.44 47.46 47.472 47.505 47.54 47.612 47.647 47.665 47.647 47.725 47.78 47.872 47.917 47.975 47.982 47.922 47.877 47.865 47.967 48.062 48.09 48.077 48.005 47.96 49.34 48.667 48.01 48.167 48.31 48.38 48.362 48.425 48.45 48.407 48.43 48.437 48.477 48.525 48.55 48.592 48.602 48.592 48.597 48.607 48.665 48.67 48.725 48.75 48.762 48.757 48.747 48.752 48.772 48.757 48.765 48.73 48.722 48.765 48.727 48.705 48.725 48.7 48.692 48.605 48.562 48.522 48.467 48.39 48.357 48.292 48.265 48.137 48.1 47.995 47.902 47.82 47.737 47.642 47.517 47.412 47.335 47.26 47.092 46.932 46.775 46.67 46.507 46.31 46.087 45.905 45.7 45.497 45.245 45.06 44.85 44.557 44.345 44.137 43.902 43.695 43.547 43.38 43.192 43.01 42.88 42.717 42.602 42.562 42.475 42.36 42.185 42.047 41.95 41.98 41.955 42.002 42.037 42.152 42.215 42.372 42.57 42.765 42.897 43.037 43.185 43.35 43.462 43.607 43.687 43.715 43.87 43.85 43.952 44.022 44.102 44.2 44.232 44.197 44.25 44.295 44.31 44.465 44.612 44.597 44.525 44.56 44.485 44.53 44.512 44.545 44.532 44.45 44.417 44.362 44.325 44.277 44.29 44.257 44.257 44.275 44.3 44.427 44.475 44.552 44.592 44.672 44.712 44.71 44.735 44.79 44.795 44.812 44.832 44.797 44.767 44.68 44.622 44.567 44.542 44.517 44.51 44.495 44.482 44.497 44.555 44.567 44.577 44.595 44.615 44.662 44.69 44.725 44.802 44.79 44.81 44.825 44.867 44.832 44.885 44.855 44.832 44.8 44.815 44.782 44.785 44.757 44.77 44.75 44.787 44.78 44.78 44.747 44.757 44.782 44.807 44.84 44.86 44.897 44.915 44.957 44.992 45.035 44.892 45.125 45.075 45.255 46.422 47.442 46.262 46.32 45.292 45.2 45.072 45.012 44.917 44.892 44.862 44.755 44.715 44.727 44.74 44.712 44.707 44.675 44.64 44.647 44.63 44.6 44.59 44.595 44.512 44.515 44.567 44.622 44.66 44.675 44.775 44.845 44.865 44.905 44.867 44.862 44.83 44.817 44.82 44.762 44.755 44.752 44.707 44.695 44.647 44.59 44.57 44.497 44.417 44.385 44.362 44.322 44.307 44.28 44.222 44.182 44.117
41.41 41.51 41.562 41.602 41.677 41.77 41.875 41.84 41.875 41.937 42.005 42.192 42.445 42.522 42.56 42.567 42.495 42.515 42.577 42.692 42.79 42.81 42.87 43.005 43.14 43.225 43.192 43.355 43.382 43.442 43.417 43.432 43.497 43.495 43.46 43.492 43.675 43.622 43.632 43.735 43.697 43.75 43.775 43.785 43.877 43.9 43.932 43.972 44.03 44.137 44.122 44.29 44.375 44.38 44.29 44.292 44.315 44.465 44.447 44.497 44.522 44.535 44.525 44.552 44.627 44.68 44.677 44.685 44.732 44.757 44.845 44.865 44.915 44.942 44.982 45.052 45.085 45.182 45.182 45.212 45.275 45.282 45.327 45.32 45.375 45.39 45.452 45.52 45.527 45.48 45.527 45.61 45.705 45.735 45.77 45.847 45.86 45.937 45.915 45.885 45.902 45.937 45.9 45.897 45.925 46.02 46.025 46.087 46.06 46.082 46.227 46.305 46.31 46.32 46.352 46.365 46.375 46.415 46.422 46.487 46.547 46.555 46.562 46.61 46.655 46.657 46.685 46.682 46.72 46.812 46.875 46.917 46.917 46.932 46.967 46.992 47.025 47.04 47.07 47.165 47.175 47.225 47.225 47.215 47.227 47.282 47.327 47.367 47.387 47.415 47.472 47.515 47.515 47.522 47.545 47.585 47.635 47.68 47.697 47.707 47.727 47.787 47.84 47.892 47.982 48.03 47.992 47.95 47.927 47.965 48.072 48.12 48.125 48.082 48.01 48.55 49.43 48.167 48.095 48.352 48.412 48.445 48.442 48.517 48.497 48.482 48.492 48.495 48.562 48.63 48.615 48.642 48.677 48.662 48.657 48.65 48.677 48.757 48.775 48.77 48.822 48.822 48.815 48.825 48.827 48.847 48.825 48.775 48.757 48.77 48.775 48.79 48.77 48.765 48.715 48.667 48.567 48.537 48.49 48.427 48.385 48.337 48.282 48.19 48.127 48 47.915 47.78 47.71 47.63 47.542 47.402 47.342 47.205 47.057 46.92 46.737 46.62 46.437 46.242 46.05 45.847 45.627 45.42 45.217 45.01 44.735 44.49 44.302 44.085 43.845 43.64 43.48 43.302 43.132 42.985 42.82 42.712 42.627 42.547 42.437 42.252 42.177 42.13 42.08 42.085 42.08 42.15 42.217 42.285 42.41 42.592 42.762 42.947 43.132 43.267 43.405 43.575 43.675 43.752 43.915 43.985 43.957 44.075 44.182 44.312 44.307 44.38 44.395 44.38 44.492 44.602 44.665 44.76 44.795 44.795 44.687 44.68 44.687 44.78 44.767 44.655 44.597 44.56 44.505 44.495 44.46 44.432 44.442 44.557 44.702 44.737 44.68 44.667 44.67 44.655 44.73 44.782 44.845 44.895 44.96 45.022 45.132 45.045 45.07 45.03 45 44.935 44.897 44.897 44.88 44.867 44.835 44.852 44.822 44.862 44.855 44.862 44.885 44.88 44.875 44.86 44.877 44.902 44.925 44.92 44.91 44.947 44.952 44.922 44.94 44.957 44.957 44.955 44.987 44.985 44.987 44.997 45.052 44.992 44.992 45.015 44.982 45.032 45.14 45.012 45.02 45.097 45.237 45.23 45.195 45.9 45.272 45.025 45.752 45.8 45.492 45.577 45.997 45.94 45.4 45.187 45.112 45.14 45.112 45.102 45.07 45.015 44.97 44.917 44.847 44.835 44.8 44.787 44.745 44.73 44.73 44.69 44.652 44.615 44.607 44.615 44.642 44.712 44.735 44.795 44.895 44.927 44.952 44.987 44.98 44.947 44.917 44.917 44.92 44.88 44.882 44.835 44.847 44.83 44.79 44.68 44.667 44.61 44.51 44.462 44.492 44.537 44.552 44.462 44.385 44.395 44.297 44.252 44.202
41.49 41.562 41.595 41.635 41.67 41.74 41.817 41.935 41.945 42.14 42.267 42.357 42.577 42.535 42.595 42.625 42.547 42.685 42.785 42.805 42.98 42.972 43.125 43.052 43.17 43.29 43.427 43.487 43.455 43.57 43.53 43.562 43.502 43.462 43.482 43.487 43.605 43.585 43.712 43.867 43.87 43.92 43.985 44.072 44.135 44.072 44.107 44.17 44.147 44.252 44.225 44.315 44.362 44.437 44.442 44.395 44.5 44.552 44.512 44.495 44.547 44.597 44.692 44.742 44.73 44.765 44.742 44.802 44.837 44.905 44.91 44.987 45.045 45.055 45.095 45.122 45.182 45.245 45.27 45.337 45.357 45.37 45.395 45.422 45.432 45.502 45.632 45.592 45.612 45.627 45.725 45.765 45.82 45.862 45.875 45.812 45.865 45.905 45.865 45.835 45.862 45.93 45.982 46.052 46.075 46.082 46.107 46.222 46.255 46.32 46.332 46.345 46.342 46.392 46.42 46.427 46.457 46.495 46.532 46.597 46.677 46.65 46.68 46.687 46.722 46.757 46.777 46.81 46.842 46.92 46.925 46.957 46.967 46.99 47.055 47.062 47.092 47.105 47.167 47.22 47.252 47.317 47.297 47.355 47.322 47.36 47.445 47.45 47.47 47.452 47.49 47.552 47.587 47.605 47.6 47.592 47.68 47.68 47.71 47.732 47.76 47.857 47.945 47.977 48 48.015 47.987 47.987 47.965 48.085 48.192 48.212 48.152 48.102 48.045 49.087 48.87 48.107 48.317 48.47 48.502 48.537 48.557 48.577 48.535 48.542 48.56 48.557 48.632 48.685 48.727 48.707 48.715 48.742 48.752 48.732 48.812 48.797 48.815 48.877 48.875 48.895 48.872 48.87 48.872 48.912 48.852 48.822 48.872 48.807 48.797 48.817 48.84 48.792 48.792 48.65 48.615 48.567 48.48 48.455 48.44 48.39 48.332 48.252 48.112 48.027 47.905 47.827 47.697 47.6 47.512 47.442 47.3 47.18 47.052 46.867 46.742 46.602 46.39 46.195 45.995 45.775 45.6 45.33 45.122 44.937 44.685 44.457 44.24 44.012 43.822 43.625 43.44 43.292 43.117 42.935 42.82 42.745 42.635 42.517 42.38 42.305 42.232 42.185 42.185 42.18 42.185 42.232 42.327 42.452 42.647 42.752 42.975 43.2 43.32 43.48 43.682 43.81 43.897 43.947 44.125 44.13 44.185 44.212 44.347 44.385 44.47 44.515 44.65 44.69 44.792 44.867 44.967 44.982 44.875 44.807 44.847 44.927 44.995 44.932 44.855 44.78 44.712 44.685 44.705 44.665 44.662 44.805 44.865 44.857 44.865 44.84 44.9 45.037 45.072 45.305 45.622 45.162 45.64 45.597 46.1 47.065 48.515 47.415 47.772 46.75 45.712 45.437 45.37 45.047 45.075 45.087 45.072 45.082 45.007 45.02 45.045 45.03 45.072 45.38 45.012 45.145 45.177 45.177 45.49 45.277 45.68 45.237 44.945 44.897 45.09 45.467 46.647 45.107 45.187 45.41 45.41 46.075 45.33 45.165 45.545 45.88 45.802 45.33 45.992 46.052 46.452 45.565 46.035 45.842 45.952 45.905 45.495 45.462 45.57 45.51 45.375 45.31 45.312 45.395 45.382 45.385 45.355 45.307 45.26 45.16 45.127 45.055 45.002 44.967 44.905 44.897 44.872 44.83 44.77 44.765 44.77 44.745 44.742 44.752 44.77 44.797 44.855 44.922 44.985 45.01 45.017 45.022 45.045 45.032 44.992 45.047 44.982 44.985 44.98 44.945 44.917 44.915 44.89 44.887 44.825 44.737 44.637 44.655 44.627 44.61 44.7 44.632 44.622 44.53 44.437 44.445 44.37 44.345 44.22
41.58 41.61 41.652 41.7 41.757 41.845 41.91 42.032 41.997 42.115 42.202 42.302 42.262 42.457 42.645 42.682 42.702 42.925 42.932 42.992 42.91 42.957 43.127 43.107 43.172 43.342 43.362 43.38 43.41 43.46 43.502 43.575 43.585 43.56 43.672 43.682 43.705 43.91 43.937 43.952 44.032 44.067 44.122 44.177 44.142 44.187 44.237 44.307 44.25 44.265 44.282 44.335 44.367 44.46 44.517 44.642 44.645 44.545 44.667 44.612 44.642 44.71 44.822 44.877 44.892 44.847 44.86 44.89 44.95 45 45.02 45.042 45.095 45.137 45.192 45.215 45.267 45.327 45.335 45.39 45.407 45.432 45.492 45.522 45.615 45.627 45.702 45.685 45.712 45.722 45.745 45.692 45.73 45.75 45.782 45.85 46.01 46.037 45.967 45.995 46.037 46.157 46.165 46.2 46.22 46.262 46.305 46.307 46.345 46.375 46.432 46.432 46.462 46.475 46.482 46.565 46.617 46.635 46.66 46.715 46.772 46.877 46.83 46.802 46.857 46.88 46.905 46.925 46.942 46.947 46.98 47.022 47.007 47.05 47.11 47.152 47.162 47.207 47.255 47.35 47.367 47.372 47.372 47.375 47.38 47.37 47.41 47.447 47.485 47.52 47.525 47.58 47.617 47.672 47.687 47.665 47.705 47.682 47.74 47.832 47.847 47.925 47.977 48.015 48.062 48.097 48.037 48.047 48.145 48.242 48.272 48.247 48.207 48.122 48.652 49.427 48.267 48.227 48.455 48.545 48.57 48.607 48.607 48.602 48.615 48.61 48.652 48.635 48.742 48.767 48.802 48.802 48.817 48.81 48.795 48.805 48.87 48.835 48.895 48.917 48.93 48.965 48.922 48.932 48.93 48.907 48.86 48.895 48.905 48.87 48.852 48.892 48.805 48.817 48.78 48.71 48.687 48.592 48.527 48.515 48.462 48.38 48.297 48.202 48.097 48.052 47.922 47.797 47.695 47.57 47.525 47.41 47.265 47.125 46.96 46.805 46.707 46.562 46.342 46.155 45.967 45.757 45.502 45.305 45.1 44.862 44.64 44.392 44.162 43.982 43.775 43.565 43.435 43.267 43.092 42.955 42.812 42.745 42.642 42.457 42.42 42.355 42.305 42.28 42.295 42.295 42.31 42.37 42.507 42.665 42.797 42.995 43.225 43.385 43.59 43.737 43.855 43.962 44.05 44.172 44.22 44.302 44.305 44.36 44.455 44.605 44.752 44.872 44.917 44.985 45.05 45.1 45.047 45.05 45.005 45.04 45.162 45.132 45.03 44.95 44.875 44.845 44.877 44.835 44.855 45.002 45.107 45.035 44.995 45.04 45.222 45.292 45.645 46.005 45.985 45.707 46 46.03 46.532 47.332 46.897 47.392 47.475 48.142 48.047 48.52 48.405 48.285 47.06 48.13 47.817 45.792 45.545 46.172 45.4 45.84 47.045 45.535 46.137 46.105 45.137 45.455 46.332 45.66 46.94 46.825 48.417 46.53 46.615 46.23 46.337 45.365 45.025 45.637 45.295 45.482 46.035 46.022 45.255 45.43 45.477 46.43 46.097 46.2 46.077 46.08 46.01 45.615 46.15 45.52 45.477 45.485 45.415 45.447 45.47 45.54 45.547 45.535 45.535 45.525 45.482 45.465 45.425 45.327 45.257 45.202 45.12 45.072 45.042 44.992 44.952 44.915 44.915 44.875 44.887 44.87 44.91 44.915 44.88 44.917 45.02 45 45.04 45.065 45.075 45.105 45.097 45.092 45.087 45.095 45.14 45.115 45.075 45.07 45.032 45.05 45.015 44.982 44.977 44.917 44.795 44.805 44.752 44.767 44.82 44.767 44.757 44.73 44.677 44.627 44.552 44.547 44.462 44.387 44.305
41.617 41.665 41.705 41.752 41.837 41.937 42.042 42.072 42.135 42.235 42.257 42.282 42.395 42.44 42.507 42.727 42.9 42.98 42.987 42.965 42.895 42.902 42.965 43.04 43.117 43.24 43.47 43.475 43.57 43.56 43.637 43.627 43.732 43.772 43.97 43.96 43.99 44.055 44.03 44 44.07 44.165 44.247 44.327 44.315 44.402 44.407 44.407 44.37 44.36 44.36 44.435 44.53 44.597 44.695 44.627 44.647 44.617 44.717 44.822 44.76 44.792 44.847 44.902 44.87 44.905 44.925 44.967 45.04 45.065 45.11 45.157 45.172 45.202 45.235 45.305 45.365 45.362 45.447 45.497 45.562 45.565 45.557 45.675 45.697 45.655 45.685 45.715 45.69 45.73 45.805 45.877 45.855 45.975 45.955 46.102 46.072 46.102 46.11 46.107 46.145 46.182 46.222 46.24 46.252 46.285 46.36 46.385 46.432 46.477 46.485 46.507 46.58 46.595 46.61 46.637 46.712 46.73 46.725 46.79 46.852 46.87 46.915 46.937 46.93 46.93 46.972 46.972 46.977 47.05 47.06 47.09 47.095 47.155 47.187 47.197 47.247 47.27 47.277 47.332 47.407 47.39 47.4 47.412 47.452 47.442 47.512 47.495 47.502 47.6 47.612 47.627 47.677 47.715 47.705 47.71 47.78 47.787 47.802 47.9 47.907 47.965 47.947 47.972 48.002 48.05 48.067 48.115 48.212 48.307 48.357 48.28 48.197 48.152 49.325 48.797 48.215 48.407 48.577 48.607 48.617 48.687 48.697 48.665 48.7 48.7 48.677 48.722 48.805 48.835 48.822 48.857 48.882 48.867 48.887 48.92 48.96 48.915 48.995 48.967 48.977 49.002 49.002 49 48.962 48.945 48.94 48.985 48.972 48.927 48.93 48.92 48.887 48.865 48.807 48.775 48.685 48.625 48.532 48.525 48.48 48.385 48.292 48.207 48.127 48.02 47.95 47.817 47.67 47.582 47.502 47.367 47.22 47.075 46.912 46.795 46.692 46.497 46.3 46.12 45.91 45.675 45.455 45.297 45.02 44.812 44.585 44.357 44.16 43.932 43.712 43.59 43.45 43.262 43.09 42.947 42.85 42.75 42.607 42.527 42.497 42.435 42.417 42.387 42.412 42.412 42.465 42.52 42.682 42.877 42.985 43.195 43.34 43.542 43.782 43.96 44.022 44.137 44.227 44.292 44.42 44.467 44.55 44.582 44.77 44.877 44.955 45.03 45.085 45.12 45.197 45.185 45.19 45.21 45.292 45.285 45.252 45.215 45.065 44.992 44.955 44.987 44.995 45.172 45.292 45.255 45.182 45.232 45.5 46.392 46.062 46.327 46.272 46.242 46.615 46.47 46.3 46.165 46.1 46.075 46.055 46.117 46.082 46.135 46.207 46.402 46.852 47.1 46.775 48.845 49.835 45.797 47.32 47.987 48.065 46.765 48.03 46.897 47.237 47.62 46.87 45.932 46.915 46.837 46.677 46.962 46.775 46.432 45.95 46.437 45.955 45.857 45.665 46.29 46.027 45.675 45.85 45.735 45.572 45.622 45.59 45.59 45.612 45.592 45.567 45.547 45.542 45.575 45.582 45.562 45.55 45.6 45.622 45.642 45.662 45.637 45.605 45.58 45.56 45.525 45.505 45.467 45.405 45.332 45.245 45.192 45.142 45.115 45.025 45.01 45.045 45.055 45.06 45.05 45.045 45.037 45.022 45.035 45.05 45.1 45.13 45.092 45.11 45.13 45.132 45.182 45.192 45.205 45.202 45.185 45.15 45.187 45.165 45.137 45.112 45.1 45.047 45.027 44.955 44.932 44.945 44.92 44.945 44.932 44.885 44.827 44.78 44.805 44.755 44.707 44.662 44.612 44.562 44.47 44.42
41.695 41.747 41.797 41.83 41.91 41.982 42.155 42.207 42.242 42.247 42.285 42.342 42.407 42.482 42.577 42.727 42.827 42.86 42.86 42.88 42.955 42.96 43.017 43.222 43.302 43.452 43.557 43.577 43.605 43.552 43.65 43.715 43.697 43.917 43.937 43.985 44.152 44.132 44.182 44.157 44.217 44.27 44.32 44.29 44.347 44.412 44.445 44.39 44.495 44.63 44.535 44.585 44.565 44.737 44.752 44.732 44.727 44.797 44.855 44.84 44.792 44.845 44.92 44.877 44.927 44.995 45.027 45.09 45.167 45.135 45.21 45.302 45.315 45.312 45.387 45.385 45.402 45.442 45.492 45.535 45.665 45.625 45.737 45.827 45.797 45.762 45.792 45.817 45.825 45.88 45.945 45.962 46.002 46.057 46.067 46.157 46.15 46.22 46.245 46.287 46.242 46.317 46.34 46.372 46.45 46.47 46.462 46.495 46.457 46.5 46.557 46.575 46.652 46.655 46.682 46.675 46.722 46.765 46.807 46.915 46.927 46.94 46.957 46.99 47 47.002 47.057 47.037 47.05 47.107 47.09 47.085 47.137 47.2 47.242 47.28 47.3 47.335 47.347 47.347 47.392 47.43 47.482 47.525 47.512 47.53 47.57 47.567 47.577 47.625 47.622 47.66 47.682 47.697 47.777 47.757 47.805 47.82 47.882 47.91 47.965 48.037 48 48.112 48.057 48.102 48.112 48.242 48.33 48.362 48.375 48.302 48.207 48.74 49.525 48.32 48.352 48.552 48.63 48.71 48.717 48.742 48.707 48.705 48.757 48.765 48.792 48.842 48.882 48.897 48.9 48.91 48.935 48.937 48.93 49.042 49.007 49.022 49.072 49.06 49.057 49.03 49.02 49.042 49.035 49.01 49.01 48.997 48.985 48.957 48.982 48.97 48.925 48.857 48.832 48.802 48.712 48.645 48.605 48.547 48.497 48.407 48.302 48.222 48.137 48.017 47.917 47.802 47.67 47.555 47.467 47.317 47.18 47.007 46.862 46.77 46.62 46.425 46.242 46.07 45.855 45.632 45.452 45.235 44.99 44.78 44.552 44.31 44.125 43.902 43.697 43.582 43.425 43.26 43.11 42.997 42.867 42.705 42.64 42.652 42.59 42.535 42.527 42.547 42.522 42.577 42.61 42.742 42.89 43.012 43.2 43.362 43.552 43.757 43.96 44.135 44.237 44.31 44.37 44.447 44.557 44.657 44.78 44.862 44.945 45.072 45.175 45.225 45.192 45.275 45.35 45.385 45.45 45.492 45.44 45.39 45.305 45.22 45.15 45.142 45.14 45.247 45.445 45.422 45.38 45.367 45.42 45.872 46.33 46.755 46.462 46.647 46.347 46.22 46.155 46.067 46.05 46.042 46.062 46.067 46.082 46.057 46.052 46.045 46.045 46.037 46.002 45.987 46.02 46.492 46.342 46.08 46.46 46.237 46.33 45.995 46.21 45.955 46.042 46.025 46.047 45.89 45.865 45.86 45.835 45.8 45.797 45.767 45.742 45.737 45.732 45.75 45.692 45.687 45.652 45.63 45.652 45.607 45.627 45.615 45.62 45.622 45.622 45.625 45.645 45.717 45.737 45.71 45.707 45.717 45.69 45.712 45.682 45.685 45.675 45.64 45.597 45.575 45.55 45.525 45.5 45.49 45.397 45.335 45.26 45.21 45.19 45.157 45.12 45.175 45.187 45.2 45.207 45.205 45.177 45.115 45.155 45.155 45.172 45.155 45.175 45.172 45.217 45.227 45.24 45.26 45.275 45.282 45.3 45.257 45.252 45.227 45.207 45.165 45.187 45.147 45.03 45.015 45.037 45.032 45.047 45.045 45.015 44.997 44.937 44.867 44.887 44.86 44.807 44.76 44.702 44.62 44.627 44.567 44.512
41.792 41.86 41.875 41.897 42.017 42.162 42.365 42.407 42.3 42.325 42.397 42.452 42.497 42.575 42.692 42.725 42.807 42.88 42.912 43.08 43.275 43.32 43.425 43.42 43.442 43.455 43.472 43.462 43.505 43.622 43.64 43.71 43.912 43.987 44.032 44.112 44.15 44.217 44.19 44.305 44.217 44.267 44.305 44.32 44.317 44.485 44.46 44.492 44.595 44.577 44.545 44.587 44.657 44.677 44.797 44.807 44.872 44.935 44.93 44.907 44.962 44.932 45.045 45.002 45.045 45.1 45.132 45.187 45.245 45.292 45.35 45.467 45.375 45.382 45.395 45.395 45.432 45.512 45.57 45.637 45.695 45.757 45.805 45.807 45.915 45.9 45.907 45.93 45.982 46.06 46.067 46.047 46.072 46.077 46.155 46.185 46.247 46.355 46.405 46.417 46.44 46.445 46.525 46.61 46.57 46.515 46.572 46.552 46.545 46.557 46.637 46.675 46.687 46.742 46.747 46.8 46.862 46.877 46.907 46.967 46.982 47.032 47.05 47.04 47.052 47.057 47.087 47.065 47.11 47.122 47.142 47.142 47.172 47.222 47.315 47.325 47.33 47.392 47.402 47.432 47.46 47.457 47.54 47.57 47.52 47.57 47.625 47.62 47.677 47.682 47.68 47.72 47.805 47.82 47.862 47.912 47.935 47.987 48.007 48.027 48.082 48.115 48.127 48.195 48.185 48.192 48.192 48.32 48.455 48.417 48.35 48.31 48.27 49.692 48.947 48.32 48.542 48.652 48.71 48.737 48.782 48.805 48.827 48.79 48.815 48.845 48.907 48.942 48.942 48.995 48.945 48.962 49 48.97 49.02 49.085 49.075 49.107 49.1 49.097 49.115 49.112 49.102 49.055 49.067 49.02 49.072 49.04 49.01 49.012 49.017 48.977 48.932 48.9 48.852 48.78 48.697 48.67 48.625 48.59 48.49 48.44 48.292 48.247 48.117 48.017 47.927 47.8 47.692 47.585 47.452 47.272 47.12 46.95 46.835 46.68 46.522 46.352 46.197 46.025 45.787 45.585 45.382 45.195 44.965 44.72 44.532 44.305 44.087 43.895 43.717 43.58 43.422 43.262 43.145 43.017 42.902 42.79 42.777 42.72 42.695 42.645 42.642 42.67 42.662 42.702 42.8 42.91 43.075 43.212 43.385 43.577 43.762 43.95 44.145 44.24 44.397 44.49 44.56 44.637 44.835 44.88 45.012 45.092 45.117 45.227 45.302 45.3 45.32 45.425 45.537 45.582 45.577 45.557 45.48 45.412 45.452 45.447 45.375 45.35 45.532 45.517 45.5 45.592 45.615 45.6 45.62 46.83 46.47 46.405 46.3 46.055 46.065 46.055 46.075 46.09 46.102 46.115 46.115 46.165 46.16 46.185 46.192 46.182 46.195 46.14 46.13 46.112 46.062 46.037 46.012 46.002 46 46.04 46.017 46.047 46.055 46.032 46.027 46.002 46.002 45.952 45.93 45.93 45.925 45.92 45.932 45.97 45.982 45.935 45.925 45.9 45.845 45.842 45.815 45.787 45.8 45.827 45.81 45.83 45.827 45.797 45.785 45.785 45.785 45.782 45.78 45.752 45.73 45.727 45.72 45.71 45.707 45.702 45.682 45.625 45.567 45.532 45.53 45.512 45.515 45.487 45.447 45.37 45.31 45.285 45.28 45.275 45.297 45.312 45.302 45.315 45.305 45.267 45.247 45.217 45.205 45.247 45.232 45.29 45.292 45.267 45.335 45.317 45.352 45.345 45.362 45.345 45.35 45.325 45.32 45.26 45.257 45.217 45.145 45.097 45.135 45.127 45.13 45.172 45.127 45.107 45.057 45.067 45.002 44.957 44.942 44.92 44.87 44.822 44.735 44.665 44.68 44.645 44.592
41.867 41.897 41.942 41.99 42.115 42.277 42.37 42.4 42.415 42.452 42.457 42.547 42.627 42.745 42.85 42.887 43.12 43.332 43.392 43.46 43.502 43.557 43.587 43.452 43.547 43.605 43.607 43.57 43.61 43.76 43.797 43.862 43.952 44.062 44.172 44.245 44.347 44.335 44.347 44.352 44.392 44.47 44.395 44.41 44.505 44.49 44.537 44.545 44.587 44.677 44.637 44.807 44.747 44.767 44.815 44.82 44.89 44.935 44.957 45.04 45.092 45.06 45.102 45.077 45.12 45.162 45.235 45.287 45.242 45.377 45.51 45.582 45.477 45.447 45.467 45.512 45.62 45.667 45.745 45.785 45.827 45.842 45.847 45.925 45.962 45.97 46.027 46.087 46.095 46.135 46.137 46.197 46.22 46.232 46.292 46.33 46.34 46.437 46.552 46.535 46.487 46.512 46.57 46.62 46.567 46.61 46.592 46.6 46.672 46.702 46.76 46.795 46.797 46.847 46.865 46.897 46.957 46.922 46.97 46.975 47.022 47.067 47.072 47.085 47.117 47.15 47.165 47.172 47.22 47.2 47.2 47.232 47.277 47.292 47.335 47.332 47.377 47.435 47.475 47.51 47.535 47.54 47.575 47.587 47.587 47.62 47.705 47.762 47.78 47.83 47.812 47.822 47.862 47.905 47.935 47.95 47.987 48.002 48.06 48.105 48.17 48.2 48.247 48.305 48.237 48.237 48.277 48.437 48.45 48.417 48.38 48.31 49.042 49.58 48.415 48.442 48.665 48.72 48.785 48.787 48.852 48.84 48.842 48.9 48.897 48.935 48.972 48.98 49.01 49.06 49.012 49.037 49.04 49.045 49.085 49.075 49.167 49.167 49.172 49.167 49.152 49.157 49.135 49.135 49.09 49.105 49.115 49.057 49.072 49.06 49.025 48.97 48.965 48.93 48.857 48.755 48.732 48.702 48.615 48.59 48.505 48.38 48.287 48.222 48.107 48.007 47.92 47.802 47.68 47.585 47.415 47.242 47.065 46.92 46.805 46.627 46.45 46.302 46.142 45.952 45.732 45.54 45.367 45.205 44.98 44.76 44.547 44.287 44.102 43.927 43.74 43.605 43.435 43.335 43.192 43.077 42.977 42.902 42.89 42.807 42.772 42.775 42.787 42.782 42.82 42.867 42.972 43.11 43.255 43.45 43.617 43.795 43.985 44.172 44.31 44.462 44.665 44.72 44.777 44.927 45.055 45.162 45.255 45.275 45.295 45.39 45.42 45.475 45.575 45.622 45.685 45.692 45.627 45.675 45.627 45.67 45.592 45.522 45.652 45.657 45.622 45.625 45.737 45.865 45.837 45.792 45.772 46.977 46.865 46.217 45.997 45.987 46.04 46.067 46.077 46.097 46.112 46.167 46.187 46.2 46.212 46.247 46.255 46.235 46.262 46.23 46.24 46.267 46.267 46.22 46.192 46.152 46.16 46.167 46.19 46.197 46.197 46.152 46.117 46.15 46.152 46.11 46.032 46.05 46.062 46.032 46.03 46.01 46.022 45.985 45.97 45.935 45.887 45.875 45.877 45.932 45.89 45.877 45.865 45.852 45.852 45.82 45.797 45.787 45.767 45.755 45.792 45.757 45.76 45.707 45.717 45.702 45.68 45.695 45.702 45.635 45.632 45.607 45.645 45.61 45.58 45.51 45.505 45.462 45.44 45.385 45.38 45.377 45.4 45.412 45.41 45.395 45.337 45.342 45.335 45.335 45.335 45.312 45.315 45.372 45.385 45.382 45.397 45.39 45.435 45.412 45.427 45.41 45.425 45.392 45.395 45.342 45.25 45.2 45.215 45.222 45.237 45.26 45.245 45.235 45.165 45.14 45.127 45.107 45.04 44.977 45.007 44.937 44.87 44.855 44.82 44.76 44.712 44.64 44.527
41.907 41.972 42.017 42.07 42.155 42.22 42.355 42.485 42.612 42.717 42.777 42.877 43 43.007 43.117 43.185 43.282 43.417 43.417 43.527 43.532 43.587 43.697 43.745 43.742 43.697 43.692 43.795 43.897 43.915 44 44.037 44.067 44.125 44.202 44.282 44.367 44.477 44.565 44.512 44.505 44.517 44.475 44.465 44.54 44.44 44.582 44.635 44.62 44.682 44.725 44.852 44.86 44.892 44.877 44.947 45.02 44.992 44.96 45.012 45.205 45.187 45.202 45.157 45.225 45.222 45.302 45.355 45.395 45.55 45.55 45.605 45.58 45.562 45.6 45.637 45.7 45.76 45.792 45.887 45.925 45.93 45.985 46.032 46.06 46.087 46.122 46.17 46.182 46.245 46.267 46.327 46.352 46.385 46.392 46.392 46.435 46.507 46.582 46.537 46.532 46.582 46.632 46.605 46.615 46.642 46.732 46.76 46.752 46.757 46.785 46.815 46.835 46.907 46.912 46.947 46.977 46.992 47.027 47.047 47.08 47.107 47.15 47.172 47.187 47.185 47.19 47.215 47.192 47.29 47.282 47.277 47.3 47.317 47.35 47.447 47.455 47.522 47.507 47.58 47.637 47.665 47.675 47.69 47.692 47.7 47.762 47.807 47.82 47.865 47.882 47.91 47.947 47.96 47.997 48.057 48.06 48.085 48.12 48.195 48.247 48.272 48.322 48.315 48.325 48.312 48.4 48.557 48.5 48.46 48.435 48.365 50.052 49.15 48.43 48.6 48.762 48.807 48.845 48.862 48.87 48.88 48.92 48.937 48.972 49.022 49.065 49.062 49.077 49.11 49.102 49.105 49.13 49.117 49.125 49.15 49.22 49.257 49.24 49.225 49.232 49.205 49.185 49.155 49.147 49.182 49.14 49.12 49.107 49.102 49.097 49.072 49.02 48.957 48.855 48.79 48.74 48.727 48.622 48.547 48.505 48.402 48.295 48.202 48.127 48.015 47.892 47.78 47.702 47.525 47.365 47.227 47.045 46.897 46.747 46.54 46.38 46.275 46.095 45.875 45.705 45.505 45.347 45.19 44.965 44.74 44.54 44.315 44.155 43.977 43.8 43.622 43.517 43.372 43.232 43.11 43.015 42.987 42.932 42.887 42.887 42.94 42.912 42.945 42.985 43.077 43.217 43.35 43.527 43.715 43.897 44.05 44.202 44.36 44.53 44.705 44.842 44.917 45.052 45.187 45.205 45.282 45.32 45.405 45.485 45.62 45.68 45.682 45.682 45.717 45.79 45.822 45.827 45.812 45.742 45.765 45.8 45.845 45.77 45.74 45.8 45.875 45.987 45.96 45.972 45.952 45.995 46.552 46.91 46.67 46.08 46.022 46.07 46.12 46.145 46.157 46.117 46.157 46.27 46.3 46.342 46.35 46.36 46.285 46.245 46.227 46.232 46.282 46.307 46.265 46.235 46.192 46.162 46.172 46.217 46.2 46.21 46.155 46.177 46.21 46.187 46.152 46.132 46.142 46.097 46.062 46.06 46.067 46.01 46.017 45.985 45.95 45.935 45.915 45.88 45.915 45.872 45.882 45.872 45.835 45.802 45.767 45.79 45.787 45.787 45.752 45.765 45.722 45.755 45.752 45.762 45.815 45.78 45.812 45.74 45.727 45.712 45.717 45.735 45.697 45.66 45.63 45.572 45.56 45.517 45.46 45.447 45.46 45.472 45.472 45.475 45.472 45.43 45.46 45.457 45.412 45.427 45.392 45.432 45.442 45.455 45.442 45.46 45.47 45.497 45.497 45.477 45.465 45.432 45.377 45.28 45.285 45.302 45.242 45.305 45.327 45.272 45.277 45.277 45.22 45.19 45.207 45.185 45.145 45.062 45.065 45.012 44.982 44.947 44.897 44.897 44.812 44.62 44.585 44.56
41.992 42.045 42.122 42.175 42.255 42.412 42.657 42.822 42.93 42.98 43.07 43.045 43.035 43.147 43.215 43.375 43.482 43.53 43.585 43.657 43.675 43.662 43.687 43.842 43.785 43.825 43.787 43.877 44.015 43.927 43.982 44.065 44.15 44.16 44.255 44.29 44.342 44.425 44.557 44.437 44.622 44.67 44.627 44.7 44.655 44.635 44.625 44.675 44.712 44.817 44.83 44.832 44.885 44.87 44.882 44.937 45.01 45.02 44.977 45.065 45.175 45.177 45.197 45.267 45.332 45.367 45.522 45.56 45.585 45.565 45.6 45.62 45.617 45.65 45.662 45.707 45.775 45.815 45.885 45.94 46.007 46.042 46.125 46.115 46.175 46.167 46.182 46.26 46.302 46.325 46.317 46.355 46.34 46.432 46.455 46.517 46.595 46.627 46.632 46.607 46.642 46.67 46.667 46.717 46.727 46.74 46.775 46.767 46.83 46.792 46.797 46.865 46.902 46.99 46.99 47.03 47.05 47.037 47.082 47.11 47.125 47.107 47.152 47.237 47.225 47.25 47.27 47.26 47.295 47.352 47.355 47.355 47.39 47.45 47.52 47.527 47.57 47.602 47.597 47.65 47.677 47.692 47.705 47.707 47.777 47.825 47.875 47.93 47.937 47.932 48.007 48 48.022 48.057 48.102 48.125 48.102 48.152 48.227 48.282 48.26 48.287 48.35 48.365 48.377 48.352 48.53 48.557 48.532 48.51 48.417 48.967 49.967 48.64 48.552 48.795 48.822 48.855 48.917 48.972 48.93 48.935 49 48.997 49.047 49.125 49.147 49.165 49.152 49.185 49.14 49.17 49.197 49.195 49.197 49.24 49.265 49.3 49.267 49.287 49.292 49.255 49.212 49.215 49.21 49.217 49.182 49.13 49.125 49.122 49.117 49.077 49.02 48.922 48.837 48.787 48.797 48.71 48.627 48.552 48.457 48.392 48.28 48.197 48.092 47.992 47.872 47.795 47.7 47.507 47.367 47.177 46.987 46.872 46.657 46.492 46.332 46.185 46.02 45.837 45.672 45.517 45.37 45.185 44.972 44.767 44.56 44.372 44.225 44.052 43.872 43.705 43.555 43.43 43.295 43.135 43.142 43.035 42.99 43 43.045 43.08 43.11 43.157 43.242 43.325 43.445 43.582 43.84 44.022 44.182 44.33 44.45 44.582 44.752 44.907 45.04 45.135 45.24 45.262 45.302 45.41 45.51 45.672 45.73 45.705 45.752 45.725 45.84 45.945 45.97 45.997 45.945 45.907 46.03 46.035 45.975 45.932 45.955 46.007 46.02 46.017 46.067 46.042 46.087 46.055 46.117 46.277 47.165 47.437 46.177 46.122 46.145 46.185 46.232 46.232 46.155 46.177 46.212 46.237 46.292 46.29 46.29 46.245 46.217 46.255 46.25 46.265 46.245 46.24 46.177 46.192 46.245 46.25 46.217 46.197 46.207 46.197 46.145 46.127 46.155 46.132 46.142 46.11 46.097 46.105 46.02 46.072 46.035 46.03 46.045 46.03 45.96 45.915 45.88 45.88 45.902 45.897 45.857 45.867 45.817 45.805 45.83 45.837 45.852 45.835 45.852 45.847 45.867 45.892 45.872 45.91 45.905 45.88 45.872 45.832 45.797 45.812 45.825 45.792 45.755 45.69 45.572 45.535 45.482 45.51 45.57 45.562 45.555 45.547 45.537 45.54 45.472 45.525 45.49 45.467 45.437 45.47 45.502 45.522 45.54 45.54 45.547 45.542 45.532 45.522 45.46 45.407 45.392 45.347 45.38 45.342 45.392 45.392 45.36 45.38 45.36 45.325 45.327 45.287 45.287 45.255 45.207 45.167 45.092 45.095 45.072 45.035 44.975 44.925 44.84 44.745 44.675 44.665 44.685
42.08 42.185 42.267 42.332 42.375 42.452 42.575 42.697 42.8 43.1 43.167 43.212 43.3 43.397 43.38 43.46 43.495 43.462 43.637 43.617 43.74 43.722 43.817 43.875 43.792 43.87 43.89 43.95 43.912 43.965 44.017 44.112 44.277 44.257 44.425 44.417 44.472 44.55 44.562 44.622 44.68 44.73 44.75 44.682 44.605 44.577 44.607 44.8 44.837 44.92 44.842 44.862 44.992 45.012 44.977 45.002 45.19 45.207 45.19 45.212 45.375 45.327 45.375 45.392 45.41 45.492 45.555 45.602 45.642 45.687 45.697 45.76 45.765 45.797 45.802 45.807 45.847 45.895 45.96 45.997 46.062 46.102 46.145 46.18 46.207 46.297 46.28 46.33 46.362 46.382 46.4 46.437 46.475 46.487 46.52 46.585 46.58 46.672 46.635 46.67 46.692 46.71 46.72 46.735 46.757 46.802 46.817 46.807 46.855 46.892 46.91 46.985 47.025 46.975 47.025 47.06 47.082 47.095 47.132 47.157 47.202 47.242 47.32 47.392 47.4 47.397 47.377 47.397 47.407 47.417 47.425 47.442 47.485 47.525 47.542 47.542 47.595 47.61 47.672 47.752 47.767 47.79 47.837 47.837 47.85 47.925 47.965 48.037 48.052 48.077 48.07 48.057 48.072 48.112 48.11 48.13 48.145 48.182 48.235 48.26 48.347 48.405 48.382 48.407 48.42 48.495 48.627 48.632 48.537 48.502 48.555 50.09 49.295 48.537 48.72 48.887 48.9 48.952 49 48.967 48.997 49.057 49.062 49.09 49.137 49.18 49.205 49.23 49.215 49.235 49.222 49.212 49.237 49.237 49.25 49.26 49.332 49.337 49.345 49.342 49.34 49.31 49.227 49.225 49.287 49.26 49.252 49.18 49.145 49.157 49.155 49.102 49.057 48.92 48.837 48.805 48.795 48.72 48.612 48.57 48.487 48.35 48.262 48.192 48.07 47.925 47.837 47.757 47.627 47.462 47.305 47.137 46.977 46.832 46.592 46.442 46.285 46.12 45.957 45.815 45.67 45.495 45.327 45.13 44.955 44.767 44.585 44.425 44.267 44.102 43.905 43.77 43.62 43.505 43.33 43.237 43.23 43.132 43.145 43.185 43.23 43.26 43.3 43.375 43.48 43.582 43.737 43.925 44.095 44.257 44.482 44.557 44.68 44.82 44.992 45.047 45.16 45.245 45.34 45.42 45.52 45.69 45.767 45.782 45.807 45.84 45.967 46.067 46.142 46.13 46.082 46.137 46.3 46.295 46.227 46.157 46.147 46.255 46.297 46.255 46.187 46.16 46.202 46.23 46.27 46.187 46.265 46.33 47.642 48.11 46.305 46.207 46.22 46.277 46.302 46.227 46.227 46.227 46.255 46.28 46.287 46.287 46.315 46.3 46.28 46.265 46.252 46.222 46.217 46.21 46.227 46.22 46.22 46.237 46.242 46.207 46.212 46.227 46.212 46.212 46.21 46.19 46.205 46.19 46.21 46.2 46.167 46.145 46.152 46.1 46.07 46.04 45.987 45.942 45.95 45.935 45.957 45.962 45.947 45.972 45.937 45.925 45.987 45.99 45.96 46 46.025 46 46.007 46.01 46.032 46.057 46.005 46.01 45.967 45.885 45.855 45.832 45.817 45.752 45.722 45.64 45.61 45.602 45.585 45.58 45.625 45.64 45.64 45.627 45.6 45.597 45.572 45.565 45.54 45.55 45.56 45.572 45.595 45.595 45.6 45.595 45.582 45.57 45.532 45.482 45.5 45.485 45.455 45.445 45.462 45.442 45.405 45.397 45.405 45.392 45.357 45.407 45.382 45.342 45.32 45.29 45.24 45.187 45.117 45.112 45.075 45.072 44.952 44.87 44.825 44.797 44.822 44.792 44.732
42.23 42.295 42.345 42.452 42.487 42.552 42.65 42.707 42.825 43.045 43.152 43.215 43.387 43.54 43.48 43.53 43.585 43.532 43.682 43.685 43.75 43.895 43.885 43.945 44.02 43.937 44.085 44.095 44.16 44.212 44.275 44.355 44.245 44.277 44.29 44.347 44.37 44.382 44.435 44.562 44.657 44.715 44.825 44.905 44.757 44.645 44.745 44.912 45.04 44.94 44.975 45.032 45.062 45.16 45.137 45.17 45.302 45.32 45.36 45.335 45.395 45.407 45.445 45.515 45.547 45.525 45.63 45.635 45.667 45.75 45.792 45.827 45.862 45.845 45.905 45.912 45.97 45.982 46.03 46.102 46.11 46.155 46.162 46.215 46.257 46.327 46.352 46.412 46.43 46.45 46.497 46.55 46.525 46.532 46.595 46.59 46.612 46.657 46.662 46.69 46.74 46.752 46.78 46.852 46.89 46.862 46.852 46.832 46.817 46.855 46.932 47 47.035 47.032 47.077 47.122 47.125 47.19 47.22 47.265 47.295 47.302 47.32 47.35 47.385 47.395 47.445 47.45 47.495 47.515 47.552 47.52 47.567 47.565 47.577 47.61 47.677 47.695 47.722 47.825 47.887 47.95 47.93 47.932 47.945 48.025 48.072 48.062 48.112 48.102 48.12 48.13 48.125 48.145 48.16 48.18 48.202 48.235 48.262 48.287 48.39 48.482 48.45 48.5 48.517 48.637 48.692 48.65 48.57 48.532 49.21 50.172 48.8 48.625 48.915 48.99 49.027 49.042 49.075 49.06 49.085 49.122 49.127 49.167 49.217 49.275 49.265 49.27 49.285 49.307 49.26 49.28 49.35 49.295 49.335 49.38 49.395 49.415 49.365 49.385 49.385 49.342 49.33 49.342 49.345 49.27 49.242 49.247 49.195 49.185 49.18 49.13 49.035 48.935 48.88 48.83 48.737 48.7 48.64 48.572 48.462 48.362 48.26 48.157 48.025 47.91 47.847 47.735 47.582 47.465 47.257 47.075 46.947 46.747 46.565 46.425 46.255 46.08 45.942 45.775 45.612 45.517 45.3 45.145 44.932 44.755 44.62 44.465 44.31 44.107 43.955 43.835 43.69 43.537 43.382 43.392 43.352 43.282 43.347 43.377 43.43 43.492 43.497 43.592 43.74 43.89 44.052 44.282 44.39 44.537 44.732 44.817 44.922 45.02 45.1 45.21 45.315 45.405 45.52 45.592 45.645 45.767 45.877 45.922 46.015 46.12 46.197 46.222 46.19 46.3 46.422 46.47 46.427 46.37 46.362 46.45 46.497 46.545 46.425 46.385 46.332 46.36 46.417 46.475 46.422 46.31 46.297 46.357 48.437 49.495 46.442 46.31 46.305 46.322 46.332 46.362 46.277 46.317 46.375 46.407 46.372 46.367 46.415 46.405 46.395 46.355 46.345 46.327 46.352 46.335 46.365 46.37 46.385 46.345 46.35 46.325 46.322 46.315 46.32 46.352 46.355 46.367 46.355 46.355 46.287 46.282 46.255 46.275 46.31 46.255 46.162 46.175 46.11 46.105 46.045 46.085 46.13 46.135 46.135 46.112 46.085 46.077 46.077 46.112 46.095 46.122 46.135 46.175 46.117 46.145 46.14 46.147 46.135 46.067 45.987 45.897 45.897 45.91 45.887 45.835 45.777 45.762 45.747 45.745 45.697 45.742 45.69 45.707 45.73 45.687 45.667 45.672 45.635 45.625 45.62 45.652 45.64 45.685 45.66 45.637 45.607 45.622 45.565 45.59 45.557 45.57 45.58 45.562 45.565 45.512 45.482 45.47 45.462 45.46 45.455 45.44 45.442 45.41 45.427 45.36 45.312 45.297 45.28 45.192 45.13 45.157 45.107 44.987 44.96 44.92 44.91 44.932 44.892 44.857 44.782
