ncols 471
nrows 32
xllcorner    461040
yllcorner    88250
cellsize     2
NODATA_value -9999
1.384 1.499 1.429 1.311 1.246 1.321 1.259 1.206 1.164 1.199 1.264 1.374 1.374 1.289 1.246 1.294 1.289 1.204 1.411 1.866 2.206 2.156 1.766 2.504 3.124 2.936 1.051 0.896 1.479 1.866 1.456 1.141 1.031 1.121 1.379 2.136 2.541 2.436 2.241 2.334 2.514 2.586 2.471 2.456 2.396 1.874 1.926 2.246 2.184 2.429 2.364 1.851 1.959 2.384 2.411 2.294 1.556 1.336 1.221 1.179 0.936 0.646 1.126 2.491 2.951 3.761 1.759 1.386 0.869 1.131 1.039 1.109 1.161 1.181 1.124 1.126 1.279 1.344 2.364 4.359 1.489 0.566 0.376 0.296 0.099 0.009 0.136 0.179 0.376 0.339 0.344 0.341 0.381 0.334 0.494 0.374 0.309 0.746 0.669 0.889 0.771 0.759 0.669 0.681 0.576 0.631 0.736 0.769 0.764 1.109 1.614 2.081 2.016 1.536 1.016 0.721 0.516 0.539 0.621 0.556 0.439 0.506 0.664 2.896 2.809 1.739 0.389 0.439 0.411 0.651 0.609 1.451 3.926 1.579 0.499 0.461 0.619 0.609 0.731 1.101 1.379 1.381 1.309 1.349 1.341 1.489 1.454 1.394 1.419 1.546 1.664 1.721 1.671 1.626 1.531 1.474 1.414 1.376 1.376 1.494 1.384 1.416 1.421 1.461 1.359 1.299 1.264 1.316 1.244 1.341 1.361 1.414 1.524 1.481 1.504 1.501 1.421 1.369 1.296 1.256 1.254 1.334 1.349 1.346 1.961 3.001 3.134 2.354 2.719 2.324 2.194 2.306 1.894 1.586 1.569 1.581 1.639 1.674 1.661 1.701 1.754 1.754 1.769 1.789 1.796 2.004 2.364 2.866 3.456 4.311 5.019 5.366 5.714 5.789 5.561 5.146 4.631 4.159 3.669 3.241 2.864 2.371 1.886 1.621 1.511 1.466 1.439 1.424 1.396 1.304 1.294 1.304 1.326 1.341 1.349 1.366 1.371 1.356 1.359 1.334 1.371 1.364 1.344 1.339 1.311 1.286 1.281 1.271 1.231 1.244 1.346 1.271 1.331 1.304 1.279 1.311 1.251 1.214 1.309 1.309 1.399 1.311 1.221 1.219 1.254 1.229 1.179 1.146 1.229 1.254 1.434 1.534 1.881 2.329 2.654 2.984 3.259 3.384 3.479 3.354 2.844 2.184 1.784 1.366 1.236 1.196 1.121 1.019 0.869 0.836 0.869 0.746 0.719 0.654 0.536 0.771 1.314 2.531 1.849 2.499 2.286 1.919 2.171 2.361 2.324 2.191 1.841 2.026 2.431 1.544 1.386 1.809 0.956 1.044 1.026 0.984 0.929 0.971 1.099 1.116 1.041 0.624 0.379 1.339 2.031 1.049 0.806 0.809 0.816 0.776 0.766 0.769 0.806 0.804 0.859 0.884 0.926 0.914 0.971 1.021 0.979 1.004 0.979 0.986 0.974 1.044 1.096 1.219 1.286 1.406 1.506 1.596 1.689 1.759 1.849 1.921 2.009 1.964 1.916 1.956 1.986 1.981 3.201 3.794 3.481 4.244 4.571 3.579 3.981 2.791 2.384 2.471 2.566 2.594 2.511 2.516 2.524 2.546 2.589 2.604 2.626 2.646 2.686 2.696 2.711 2.754 2.761 2.801 2.814 2.859 2.886 2.881 2.886 2.941 2.956 2.989 2.994 3.021 3.066 3.086 3.114 3.109 3.106 3.111 3.109 3.109 3.129 3.121 3.094 3.139 3.161 3.149 3.166 3.174 3.159 3.166 3.194 3.196 3.224 3.231 3.249 3.291 3.309 3.309 3.356 3.364 3.394 3.411 3.429 3.416 3.436 3.431 3.474 3.466 3.499 3.571 3.591 3.606 3.606 3.626 3.679 3.719 3.744 3.794 3.831 3.876 3.871 3.934 3.951 4.039 5.671 6.354 3.574 2.479 2.016 1.651 3.776 4.366 1.469 2.144 4.279 4.189 3.456 3.374 3.501 3.756 3.371 3.899 3.804 4.031 4.756
1.821 1.714 1.606 1.396 1.366 1.359 1.326 1.231 1.334 1.291 1.321 1.306 1.344 1.339 1.309 1.211 1.326 1.364 1.464 1.941 1.924 1.534 1.431 2.091 2.649 1.956 0.626 0.846 1.224 1.711 1.481 1.081 1.021 1.119 1.376 1.891 2.389 2.499 2.161 2.609 2.836 2.121 2.159 2.364 2.816 2.141 1.996 2.166 2.036 2.379 2.184 1.886 1.916 2.199 2.414 2.206 1.559 1.314 1.274 1.181 1.104 0.519 2.034 1.919 2.974 1.606 3.079 2.214 0.756 0.859 1.086 1.011 1.106 1.221 1.186 1.211 1.239 1.221 0.996 0.311 0.369 0.151 0.061 0.049 0.036 0.176 0.366 0.454 0.214 0.271 0.189 0.216 0.279 0.421 0.556 0.601 0.586 0.629 0.691 0.846 0.779 0.599 0.499 0.534 0.656 0.649 0.631 0.681 1.111 1.674 2.289 2.664 2.486 1.721 0.924 0.581 0.519 0.561 0.536 0.591 0.581 0.551 0.611 1.826 3.629 3.056 0.556 1.116 0.736 0.759 0.561 1.751 4.936 1.796 0.606 0.609 0.524 0.541 0.551 0.921 1.299 1.326 1.269 1.306 1.334 1.469 1.464 1.369 1.456 1.596 1.704 1.761 1.731 1.671 1.601 1.519 1.471 1.431 1.411 1.506 1.491 1.456 1.441 1.426 1.359 1.444 1.301 1.216 1.211 1.326 1.369 1.454 1.491 1.486 1.501 1.484 1.409 1.391 1.284 1.224 1.249 1.251 1.299 1.459 2.674 2.839 3.144 2.501 2.686 2.151 1.891 1.891 1.746 1.619 1.641 1.661 1.619 1.696 1.679 1.734 1.749 1.784 1.801 1.806 1.834 2.031 2.369 3.119 4.041 4.739 5.234 5.504 5.574 5.526 5.229 4.859 4.406 4.016 3.586 3.206 2.804 2.286 1.796 1.579 1.474 1.434 1.386 1.364 1.366 1.319 1.289 1.276 1.316 1.346 1.354 1.366 1.354 1.331 1.341 1.346 1.304 1.304 1.299 1.294 1.324 1.326 1.286 1.266 1.326 1.346 1.336 1.261 1.219 1.326 1.344 1.331 1.189 1.124 1.316 1.251 1.349 1.249 1.226 1.229 1.299 1.301 1.144 1.134 1.149 1.204 1.239 1.269 1.499 1.841 2.129 2.491 2.726 2.751 2.516 2.199 1.841 1.529 1.281 1.194 1.224 1.169 1.156 1.029 0.896 0.801 0.676 0.696 0.746 0.799 0.716 0.864 1.559 2.161 1.604 1.484 2.031 1.679 2.324 2.409 2.386 2.256 1.859 1.764 1.971 1.921 1.419 1.421 1.309 1.449 1.374 1.209 1.096 1.146 1.196 1.051 0.826 0.916 0.484 1.451 2.069 1.106 0.796 0.766 0.779 0.766 0.779 0.751 0.781 0.786 0.789 0.844 0.944 1.006 0.966 0.971 1.006 1.026 0.999 1.011 1.001 1.049 1.094 1.204 1.289 1.366 1.474 1.566 1.644 1.769 1.839 1.911 1.969 1.939 1.899 1.946 1.974 1.991 2.531 3.709 4.149 4.246 4.439 3.326 4.064 3.951 2.481 2.444 2.506 2.546 2.559 2.519 2.536 2.544 2.546 2.586 2.566 2.581 2.606 2.646 2.681 2.726 2.739 2.754 2.776 2.771 2.794 2.839 2.844 2.871 2.931 2.936 2.966 2.994 3.029 3.074 3.086 3.076 3.061 3.046 3.041 3.076 3.066 3.079 3.104 3.114 3.121 3.109 3.104 3.121 3.121 3.141 3.149 3.161 3.166 3.181 3.236 3.241 3.264 3.271 3.279 3.331 3.346 3.364 3.381 3.379 3.384 3.401 3.436 3.434 3.489 3.486 3.521 3.549 3.551 3.601 3.641 3.676 3.669 3.726 3.766 3.781 3.834 3.856 4.044 4.534 5.986 6.486 3.399 2.211 1.984 2.079 4.809 6.354 2.354 1.651 3.126 3.379 3.359 2.589 2.899 3.691 2.886 3.419 3.446 4.386 4.806
1.934 1.939 1.841 1.681 1.666 1.646 1.526 1.386 1.434 1.439 1.334 1.321 1.466 1.331 1.381 1.174 1.129 1.286 1.574 1.959 1.829 1.384 1.301 1.359 1.746 0.756 0.539 0.784 1.291 1.896 1.611 1.054 1.069 1.264 1.386 1.916 2.371 2.529 2.516 2.646 2.589 2.311 2.194 2.254 2.329 2.229 2.084 2.071 2.421 2.529 2.259 1.899 1.959 2.346 2.694 2.159 1.664 1.309 1.299 1.221 1.224 0.836 0.616 1.426 2.661 2.114 1.469 1.749 0.926 0.894 0.911 1.201 1.051 1.186 1.189 1.196 1.264 1.084 0.671 0.371 0.251 0.116 0.109 0.261 0.464 0.601 0.521 0.154 0.044 0.584 0.201 0.066 0.211 0.416 0.551 0.599 0.596 0.624 0.649 0.719 0.534 0.646 0.504 0.629 0.704 0.714 0.734 0.796 1.169 1.849 2.399 2.674 2.394 1.724 0.871 0.546 0.531 0.516 0.591 0.504 0.639 0.616 0.751 2.069 1.944 1.764 0.744 3.469 4.549 2.811 0.419 2.516 5.011 4.146 2.194 0.651 0.744 0.434 0.446 0.686 0.999 1.311 1.306 1.279 1.326 1.364 1.359 1.454 1.519 1.604 1.799 1.761 1.706 1.699 1.641 1.606 1.561 1.516 1.436 1.421 1.506 1.501 1.469 1.481 1.379 1.489 1.421 1.209 1.344 1.369 1.386 1.479 1.536 1.541 1.499 1.461 1.349 1.284 1.239 1.206 1.199 1.251 1.279 1.606 3.096 2.589 3.146 2.766 2.679 2.366 1.819 1.636 1.654 1.659 1.676 1.734 1.709 1.639 1.631 1.686 1.751 1.789 1.754 1.774 1.796 1.999 2.469 3.374 4.359 4.726 4.946 4.996 4.826 4.711 4.516 4.214 3.836 3.531 3.201 2.891 2.506 2.081 1.716 1.556 1.456 1.406 1.356 1.334 1.321 1.296 1.276 1.246 1.271 1.306 1.324 1.351 1.371 1.364 1.321 1.326 1.274 1.296 1.311 1.269 1.274 1.286 1.256 1.234 1.209 1.309 1.166 1.106 1.131 1.219 1.339 1.384 1.299 1.176 1.181 1.229 1.244 1.239 1.231 1.231 1.254 1.269 1.196 1.154 1.121 1.159 1.206 1.156 1.236 1.364 1.631 1.936 2.101 2.019 1.649 1.469 1.304 1.244 1.241 1.219 1.196 1.184 1.144 1.044 0.926 0.909 0.759 0.796 0.774 0.806 0.829 0.901 1.254 0.954 1.694 1.724 1.004 1.371 2.144 1.856 2.169 2.164 1.989 1.851 1.869 1.911 1.526 1.549 1.649 1.501 1.514 1.344 1.176 1.499 2.694 3.971 1.596 0.374 0.636 1.799 1.964 1.029 0.781 0.724 0.716 0.694 0.699 0.766 0.761 0.751 0.781 0.849 0.979 1.006 1.039 1.011 0.969 1.001 1.039 1.044 1.026 1.066 1.104 1.169 1.239 1.319 1.416 1.509 1.611 1.696 1.784 1.844 1.889 1.904 1.904 1.931 1.981 1.994 2.136 3.019 4.041 3.694 3.684 3.651 4.991 4.281 2.619 2.351 2.494 2.536 2.544 2.506 2.511 2.481 2.494 2.534 2.541 2.531 2.581 2.654 2.651 2.684 2.681 2.711 2.734 2.764 2.746 2.799 2.776 2.804 2.856 2.889 2.916 2.956 2.971 2.989 3.011 2.971 2.974 2.976 3.041 3.031 3.029 3.049 3.051 3.051 3.066 3.049 3.071 3.086 3.091 3.101 3.131 3.156 3.159 3.184 3.204 3.204 3.224 3.259 3.264 3.324 3.326 3.319 3.314 3.326 3.354 3.364 3.359 3.374 3.431 3.439 3.459 3.476 3.506 3.529 3.551 3.584 3.619 3.661 3.704 3.729 3.741 4.034 5.951 6.889 4.826 3.636 4.091 2.271 1.899 2.006 5.244 3.914 1.771 1.541 2.939 3.309 2.731 3.024 2.781 2.786 3.011 3.661 4.001 2.824 3.289
2.076 2.036 1.951 1.926 1.906 1.846 1.816 1.629 1.549 1.581 1.576 1.376 1.456 1.309 1.316 1.239 1.214 1.341 1.454 1.964 1.999 1.246 1.316 1.799 1.751 0.719 0.679 0.866 1.144 1.694 1.596 1.179 1.104 1.191 1.466 2.099 2.369 2.484 2.486 2.806 2.989 2.589 2.634 2.374 2.124 2.379 2.351 2.609 2.639 2.294 2.449 2.439 2.034 1.924 2.309 2.291 1.956 1.349 1.314 1.216 1.319 1.101 0.564 0.486 1.901 2.201 1.896 2.794 2.599 1.451 2.179 1.864 1.611 0.969 0.976 1.019 0.964 0.859 0.749 0.759 0.589 0.451 0.611 0.641 0.604 0.676 0.754 0.501 0.091 1.036 0.811 0.186 0.401 0.576 0.554 0.716 0.656 0.769 0.626 0.606 0.661 0.686 0.694 0.584 0.731 0.669 0.736 0.781 0.966 1.581 2.106 2.281 2.094 1.544 0.881 0.539 0.561 0.569 0.546 0.484 0.589 0.556 0.706 1.006 1.134 0.589 1.191 3.611 3.351 3.536 0.594 0.689 1.844 2.126 3.919 1.171 0.966 0.401 3.826 1.104 0.789 1.094 1.251 1.269 1.281 1.286 1.276 1.384 1.464 1.596 1.851 1.766 1.726 1.671 1.664 1.649 1.644 1.619 1.519 1.454 1.469 1.741 1.676 1.409 1.289 1.366 1.359 1.324 1.349 1.389 1.426 1.506 1.531 1.521 1.506 1.444 1.324 1.219 1.254 1.151 1.214 1.244 1.236 2.129 3.141 3.209 2.866 2.501 2.354 2.221 1.896 1.651 1.634 1.664 1.704 1.616 1.656 1.636 1.601 1.629 1.679 1.739 1.751 1.754 1.776 2.016 2.774 3.594 4.081 4.379 4.539 4.419 4.186 3.829 3.621 3.311 2.941 2.571 2.369 2.124 1.984 1.796 1.636 1.546 1.461 1.404 1.371 1.306 1.276 1.261 1.261 1.231 1.214 1.219 1.214 1.266 1.309 1.344 1.329 1.331 1.274 1.279 1.326 1.246 1.289 1.261 1.251 1.261 1.199 1.174 1.149 1.114 1.036 1.074 1.264 1.349 1.306 1.154 1.236 1.271 1.256 1.234 1.241 1.234 1.239 1.246 1.211 1.161 1.136 1.121 1.219 1.121 1.064 1.166 1.266 1.406 1.381 1.391 1.319 1.284 1.246 1.254 1.261 1.244 1.219 1.201 1.176 1.071 0.949 0.896 0.931 0.711 0.681 0.839 0.896 0.874 0.964 0.861 0.836 1.016 1.281 1.424 1.931 2.194 2.286 2.061 1.531 1.304 1.134 1.164 1.276 1.659 1.859 1.541 1.554 1.564 2.406 2.861 2.199 3.221 3.314 0.384 0.674 1.659 1.549 0.789 0.754 0.676 0.681 0.676 0.701 0.721 0.736 0.749 0.754 0.901 0.986 1.021 1.019 0.989 0.931 0.974 1.006 1.006 1.021 1.071 1.119 1.134 1.169 1.281 1.369 1.454 1.566 1.669 1.751 1.779 1.826 1.871 1.869 1.919 1.951 1.974 1.969 2.329 3.144 3.781 3.806 5.066 4.281 3.694 2.949 2.279 2.384 2.451 2.541 2.516 2.471 2.464 2.464 2.469 2.511 2.491 2.534 2.589 2.601 2.626 2.639 2.636 2.691 2.689 2.711 2.716 2.741 2.731 2.804 2.824 2.851 2.904 2.921 2.931 2.931 2.901 2.931 2.961 2.954 2.964 2.996 2.991 2.989 2.996 3.044 3.031 3.031 3.026 3.071 3.044 3.064 3.066 3.104 3.149 3.156 3.179 3.181 3.211 3.204 3.236 3.251 3.271 3.284 3.286 3.279 3.304 3.316 3.316 3.369 3.359 3.401 3.409 3.401 3.406 3.449 3.504 3.531 3.591 3.646 3.669 4.421 5.806 6.026 6.596 4.266 4.124 2.234 1.629 2.451 5.879 2.596 2.321 1.634 1.769 1.741 1.891 1.841 3.471 3.141 2.301 2.699 4.599 5.256 2.916 3.391
2.336 2.164 2.154 2.101 2.026 1.914 1.894 1.949 1.844 1.736 1.521 1.431 1.461 1.391 1.169 1.126 1.226 1.299 1.594 2.036 2.061 1.494 1.711 2.034 1.629 0.911 1.964 0.961 1.026 1.371 1.341 1.264 1.221 1.351 1.776 2.154 2.431 2.306 2.476 2.604 2.706 2.794 2.711 2.426 2.266 2.444 2.514 2.624 2.419 2.081 2.249 2.429 2.359 2.959 2.461 2.566 2.381 1.669 1.184 1.186 1.119 1.199 1.029 0.486 0.789 1.681 2.314 2.811 3.511 3.139 2.679 2.644 3.119 2.019 1.469 0.774 0.944 0.786 0.721 1.129 1.561 0.926 1.556 1.434 1.579 1.541 1.316 0.871 0.214 1.019 2.371 1.514 0.644 0.759 0.716 0.709 0.594 0.681 0.616 0.659 0.759 0.724 0.681 0.726 0.756 0.586 0.576 0.626 0.864 1.234 1.679 1.684 1.514 1.131 0.756 0.539 0.541 0.651 0.639 0.576 0.599 0.536 0.579 0.609 0.699 0.794 0.524 2.599 3.674 2.741 1.036 0.621 0.354 0.541 0.351 2.906 0.916 1.249 5.906 1.646 0.739 0.801 1.124 1.244 1.244 1.209 1.301 1.306 1.429 1.516 1.674 1.776 1.696 1.676 1.691 1.684 1.704 1.679 1.581 1.576 1.826 2.279 1.846 1.439 1.254 1.319 1.376 1.391 1.439 1.461 1.451 1.481 1.526 1.524 1.479 1.451 1.361 1.216 1.171 1.146 1.229 1.329 1.316 2.491 3.121 3.139 3.134 2.829 2.731 2.241 1.744 1.631 1.596 1.564 1.524 1.551 1.599 1.594 1.576 1.596 1.649 1.701 1.751 1.744 1.804 2.141 2.919 3.549 3.801 3.986 4.104 3.961 3.609 3.219 2.976 2.636 2.061 1.819 1.734 1.649 1.631 1.586 1.584 1.521 1.446 1.394 1.364 1.284 1.224 1.224 1.221 1.196 1.159 1.156 1.151 1.144 1.174 1.174 1.219 1.279 1.284 1.264 1.261 1.239 1.284 1.271 1.274 1.274 1.221 1.171 1.134 1.194 1.179 1.191 1.121 1.184 1.194 1.106 1.196 1.219 1.221 1.266 1.171 1.214 1.246 1.259 1.201 1.166 1.136 1.121 1.216 1.071 1.054 1.114 1.171 1.229 1.276 1.291 1.289 1.239 1.241 1.279 1.264 1.251 1.226 1.199 1.171 1.066 0.914 0.846 1.051 0.889 0.994 0.731 0.739 0.879 0.831 0.649 0.599 0.881 1.564 2.464 2.536 2.616 2.316 1.524 1.011 0.924 0.931 0.906 0.979 1.774 2.391 1.891 1.471 1.456 2.144 3.066 3.804 3.154 3.749 1.736 0.949 1.581 1.004 0.744 0.714 0.664 0.721 0.724 0.711 0.729 0.719 0.734 0.841 0.966 0.976 0.951 0.891 0.876 0.856 0.906 0.904 0.904 0.964 0.989 1.044 1.094 1.176 1.251 1.354 1.431 1.539 1.629 1.714 1.726 1.771 1.806 1.849 1.899 1.949 1.959 1.949 1.999 2.906 4.031 3.596 2.814 2.811 2.734 3.931 3.169 2.284 2.414 2.471 2.516 2.479 2.446 2.449 2.451 2.474 2.471 2.514 2.536 2.556 2.584 2.604 2.584 2.604 2.644 2.661 2.664 2.681 2.704 2.789 2.791 2.824 2.854 2.884 2.849 2.859 2.866 2.889 2.896 2.924 2.944 2.914 2.921 2.936 2.949 2.984 2.996 3.001 2.979 3.011 3.006 3.024 3.036 3.081 3.111 3.116 3.156 3.141 3.141 3.166 3.179 3.181 3.196 3.204 3.221 3.239 3.236 3.251 3.271 3.289 3.311 3.314 3.334 3.356 3.389 3.414 3.454 3.536 3.546 3.559 4.064 6.141 5.994 5.234 3.454 3.196 2.814 1.926 1.551 3.466 4.419 1.641 1.571 2.499 1.626 1.646 1.804 1.704 3.304 3.286 2.034 2.519 4.314 3.821 3.399 3.719
3.089 2.709 2.436 2.131 2.104 2.109 2.026 2.084 2.019 1.981 1.851 1.739 1.764 1.679 1.446 1.091 1.314 1.219 1.464 2.019 2.126 1.394 1.754 1.944 1.661 0.804 1.564 0.849 0.941 1.329 1.309 1.161 1.104 1.371 1.761 2.261 2.521 2.354 2.584 2.414 2.274 2.691 2.664 2.559 2.406 2.589 3.081 3.201 2.619 2.586 2.711 2.654 2.724 2.811 2.576 2.319 2.294 1.784 1.456 1.146 1.201 1.139 1.144 0.959 0.571 0.534 0.826 1.601 1.716 3.036 2.439 2.486 2.139 2.776 2.316 2.801 3.254 2.469 2.334 3.206 3.166 2.999 3.064 2.329 2.276 2.131 2.229 1.811 1.206 1.309 2.259 0.819 0.746 0.774 0.796 0.899 0.774 0.721 0.744 0.796 0.751 0.786 0.689 0.816 0.844 0.626 0.549 0.591 0.756 0.931 1.069 1.036 0.886 0.809 0.696 0.594 0.616 0.629 0.654 0.641 0.601 0.591 0.619 0.646 0.716 0.699 0.549 0.594 2.414 2.806 1.974 3.169 3.056 0.971 0.376 2.129 1.826 0.639 3.499 1.984 0.574 0.589 0.851 1.129 1.204 1.181 1.256 1.246 1.286 1.416 1.511 1.564 1.554 1.661 1.684 1.704 1.746 1.724 1.639 1.644 1.854 2.194 1.774 1.449 1.379 1.399 1.426 1.374 1.476 1.456 1.471 1.486 1.479 1.479 1.459 1.456 1.421 1.254 1.229 1.256 1.224 1.296 1.324 2.089 2.991 3.174 3.091 3.074 2.549 1.884 1.684 1.616 1.626 1.604 1.546 1.564 1.606 1.631 1.549 1.564 1.664 1.734 1.759 1.809 2.014 2.454 2.961 3.289 3.439 3.664 3.726 3.574 3.146 2.634 2.281 1.936 1.734 1.654 1.619 1.616 1.586 1.566 1.526 1.459 1.449 1.399 1.351 1.261 1.181 1.164 1.166 1.149 1.139 1.146 1.151 1.126 1.126 1.134 1.176 1.224 1.249 1.256 1.229 1.211 1.206 1.291 1.299 1.209 1.186 1.146 1.249 1.279 1.226 1.371 1.039 0.891 1.016 1.101 1.176 1.226 1.226 1.234 1.219 1.254 1.269 1.226 1.206 1.174 1.141 1.099 1.211 1.234 1.234 1.254 1.144 1.199 1.246 1.251 1.289 1.286 1.221 1.239 1.221 1.186 1.209 1.139 1.109 0.986 0.889 0.824 1.036 0.971 0.879 0.874 0.851 0.716 0.609 0.519 0.529 1.206 2.236 2.521 2.426 2.229 1.999 1.579 1.329 1.001 0.969 0.971 0.956 1.341 1.574 1.296 1.399 1.481 1.251 2.411 3.249 1.584 2.159 1.734 1.584 2.049 1.036 0.769 0.706 0.721 0.734 0.726 0.691 0.701 0.744 0.776 0.916 1.006 1.014 0.949 0.869 0.841 0.834 0.881 0.891 0.861 0.909 0.934 0.964 1.031 1.156 1.264 1.341 1.429 1.539 1.619 1.684 1.739 1.849 1.866 1.876 1.869 1.901 1.944 1.949 1.964 2.304 3.414 2.931 2.504 2.419 2.461 4.184 3.936 2.381 2.309 2.419 2.479 2.479 2.436 2.426 2.439 2.444 2.451 2.469 2.494 2.499 2.519 2.519 2.534 2.574 2.596 2.596 2.621 2.669 2.691 2.729 2.776 2.781 2.791 2.826 2.821 2.836 2.811 2.839 2.854 2.859 2.861 2.889 2.889 2.869 2.894 2.921 2.929 2.914 2.944 2.951 2.959 2.979 3.001 3.039 3.036 3.029 3.056 3.069 3.094 3.129 3.139 3.129 3.169 3.186 3.194 3.234 3.244 3.249 3.239 3.229 3.264 3.264 3.271 3.304 3.381 3.379 3.381 3.429 3.879 3.699 3.436 4.621 4.459 3.956 3.181 2.781 2.156 1.689 1.594 2.056 1.556 2.496 1.851 2.426 2.489 1.726 1.649 3.914 4.394 2.131 3.029 2.009 5.111 3.299 4.086 3.681
3.149 3.161 3.044 2.866 2.779 2.736 2.549 2.341 2.209 2.029 1.894 1.834 1.839 1.819 1.616 1.284 1.229 1.284 1.589 1.926 1.984 1.511 1.796 1.944 1.524 0.566 0.759 1.004 0.806 1.046 1.224 1.029 1.074 1.501 2.081 2.249 2.609 2.494 2.454 2.036 2.059 2.354 2.374 2.489 2.649 2.664 2.894 2.876 2.701 3.051 2.931 2.841 3.126 2.626 2.366 2.004 2.029 2.301 1.541 1.261 1.231 1.141 1.191 1.239 1.024 0.544 0.584 1.386 1.361 2.026 2.739 2.244 1.344 1.771 3.019 3.376 2.846 2.781 3.141 3.594 3.701 3.014 3.396 2.391 2.214 2.379 2.259 1.881 1.554 1.591 2.409 1.321 1.016 1.016 0.994 0.976 0.906 0.826 0.834 0.814 0.809 0.951 1.244 1.301 1.121 1.049 0.886 0.819 0.796 0.834 0.914 0.916 0.851 0.836 0.919 0.719 0.674 0.666 0.671 0.686 0.669 0.709 0.671 0.664 0.746 0.741 0.574 0.454 0.609 2.004 3.009 4.989 5.314 2.501 0.401 0.421 0.341 0.506 2.509 0.549 0.461 0.656 0.671 0.994 1.166 1.199 1.204 1.214 1.211 1.311 1.334 1.359 1.474 1.566 1.699 1.706 1.861 2.031 1.724 1.601 1.529 1.516 1.479 1.426 1.404 1.444 1.431 1.359 1.406 1.421 1.391 1.421 1.494 1.451 1.414 1.419 1.419 1.259 1.211 1.124 1.121 1.169 1.259 1.884 2.994 3.281 3.081 2.936 2.154 1.656 1.586 1.591 1.599 1.556 1.616 1.601 1.609 1.589 1.556 1.601 1.664 1.691 1.731 1.799 2.026 2.379 2.659 2.856 3.129 3.251 3.176 3.014 2.514 2.081 1.766 1.724 1.651 1.611 1.624 1.611 1.529 1.476 1.454 1.436 1.379 1.334 1.299 1.249 1.181 1.126 1.164 1.166 1.081 1.094 1.121 1.091 1.064 1.064 1.126 1.229 1.284 1.396 1.786 1.509 1.451 1.469 1.476 1.436 1.329 1.266 1.261 1.181 1.269 1.309 1.326 1.086 1.196 1.241 1.184 1.216 1.224 1.249 1.259 1.264 1.226 1.211 1.191 1.194 1.156 1.121 1.316 1.231 1.284 1.191 1.161 1.219 1.244 1.259 1.274 1.281 1.224 1.184 1.111 1.036 1.064 1.059 1.001 0.934 0.886 0.816 1.066 0.939 0.966 1.054 0.846 0.864 0.761 0.771 1.369 2.621 2.344 2.444 2.406 2.254 2.136 2.019 1.696 1.039 0.944 0.971 0.966 1.024 0.964 0.979 1.294 1.571 1.484 2.176 3.879 4.279 3.884 2.686 1.946 2.044 1.509 0.831 0.781 0.719 0.711 0.719 0.709 0.749 0.791 0.891 0.951 1.001 1.009 0.946 0.871 0.839 0.821 0.851 0.854 0.851 0.904 0.929 0.939 1.016 1.154 1.284 1.364 1.459 1.529 1.584 1.649 1.741 1.894 1.849 1.834 1.839 1.884 1.949 1.954 1.949 2.216 2.886 3.159 2.644 2.391 3.161 4.096 3.886 3.144 2.399 2.341 2.381 2.449 2.459 2.429 2.414 2.444 2.436 2.469 2.454 2.446 2.456 2.514 2.509 2.531 2.559 2.576 2.611 2.631 2.661 2.716 2.729 2.729 2.719 2.749 2.764 2.736 2.729 2.761 2.781 2.791 2.821 2.821 2.841 2.876 2.874 2.861 2.859 2.879 2.891 2.891 2.894 2.934 2.946 2.961 2.984 2.986 3.029 3.034 3.044 3.064 3.061 3.061 3.104 3.126 3.096 3.141 3.154 3.179 3.174 3.196 3.204 3.354 3.584 3.254 3.211 3.211 3.176 3.099 3.399 3.236 3.184 3.259 4.314 3.336 2.671 2.224 1.764 1.641 1.496 1.461 2.226 3.019 2.041 3.851 3.444 2.196 1.769 3.431 3.626 3.329 4.571 3.966 2.649 4.564 4.709 2.636
2.396 2.574 2.926 3.129 3.301 3.406 3.316 3.199 3.054 2.569 2.159 1.851 1.824 1.841 1.774 1.531 1.374 1.339 1.714 1.729 1.671 1.369 1.761 1.974 1.621 0.744 0.809 0.934 0.776 0.776 0.976 1.144 1.171 1.599 2.041 2.341 2.759 2.681 2.624 2.094 2.201 2.541 2.351 2.419 2.369 2.411 2.919 2.509 2.479 2.846 2.714 2.851 2.741 2.421 2.326 2.444 2.259 2.261 1.851 1.364 1.194 1.109 1.081 1.229 1.121 0.894 0.541 0.456 0.756 1.019 2.364 1.734 2.469 1.736 2.366 1.426 1.421 2.526 3.706 2.616 2.191 3.006 3.004 1.799 1.736 1.866 1.864 1.569 1.191 1.141 1.431 1.546 1.364 1.536 1.316 1.126 1.096 0.991 1.034 1.004 1.074 1.386 1.761 1.741 1.806 1.866 1.241 1.106 1.044 1.044 1.074 1.014 0.744 0.786 0.839 0.841 0.806 0.899 0.871 0.821 0.789 0.771 0.744 0.704 0.701 0.709 0.659 0.421 1.019 2.449 3.436 3.746 4.296 5.794 1.651 0.356 0.364 1.521 1.456 0.499 0.506 0.521 0.706 0.799 1.041 1.116 1.141 1.164 1.214 1.241 1.324 1.341 1.409 1.604 1.714 2.036 2.301 2.421 1.876 1.569 1.586 1.514 1.451 1.459 1.476 1.424 1.394 1.419 1.426 1.374 1.364 1.369 1.411 1.366 1.274 1.336 1.381 1.309 1.181 1.089 1.136 1.096 1.199 2.504 3.136 3.256 3.046 2.834 1.991 1.636 1.634 1.576 1.586 1.549 1.521 1.571 1.611 1.604 1.606 1.634 1.709 1.724 1.729 1.736 1.929 2.114 2.304 2.496 2.684 2.701 2.671 2.389 2.039 1.784 1.666 1.656 1.641 1.566 1.564 1.581 1.481 1.446 1.384 1.371 1.359 1.254 1.239 1.161 1.194 1.141 1.124 1.076 1.061 1.026 1.024 0.984 0.949 0.939 0.954 1.076 1.214 1.481 2.166 2.229 2.184 2.074 2.024 1.761 1.471 1.361 1.176 1.211 1.144 1.221 1.229 1.241 1.321 1.449 1.206 1.221 1.244 1.264 1.276 1.229 1.226 1.224 1.224 1.156 1.124 1.099 1.221 1.321 1.391 1.201 1.141 1.209 1.249 1.251 1.264 1.251 1.161 1.096 0.959 0.891 0.916 0.941 0.934 0.919 0.914 0.986 0.979 0.956 1.004 1.061 0.956 0.846 1.019 1.911 2.471 2.481 2.399 2.436 2.174 2.106 2.124 2.429 1.744 1.499 1.061 0.981 1.086 1.141 0.956 0.936 1.149 1.451 1.594 1.799 2.756 3.506 2.594 1.324 0.779 1.524 1.871 0.966 0.831 0.749 0.746 0.761 0.751 0.799 0.901 0.986 0.994 1.029 1.011 0.939 0.909 0.906 0.914 0.866 0.899 0.906 0.936 0.941 0.966 1.036 1.171 1.286 1.401 1.466 1.519 1.579 1.604 1.704 1.809 1.774 1.816 1.821 1.876 1.924 1.936 1.924 1.946 2.684 3.089 3.156 3.491 3.194 2.784 3.709 4.136 3.359 2.599 2.319 2.384 2.424 2.424 2.429 2.434 2.426 2.419 2.411 2.434 2.439 2.481 2.521 2.526 2.566 2.606 2.641 2.646 2.621 2.644 2.609 2.609 2.664 2.684 2.629 2.634 2.684 2.709 2.716 2.731 2.764 2.744 2.781 2.786 2.811 2.809 2.819 2.831 2.821 2.841 2.871 2.871 2.886 2.931 2.916 2.924 2.951 2.956 2.961 2.971 2.994 3.014 3.061 3.086 3.094 3.076 3.051 3.064 3.059 3.059 3.019 3.396 3.534 2.896 2.876 3.209 2.641 2.664 2.694 2.701 2.784 2.771 3.644 2.754 2.169 2.371 1.541 1.421 1.441 1.484 2.261 2.021 1.911 3.069 3.424 3.661 3.334 3.109 4.256 4.061 3.604 4.341 2.589 3.221 3.859 3.269
1.679 1.976 2.246 2.406 2.626 2.886 3.196 3.389 3.334 3.111 2.566 2.001 1.794 1.831 1.801 1.554 1.361 1.279 1.586 1.669 1.369 1.306 1.716 1.909 1.641 0.826 0.634 0.966 0.696 0.789 0.856 1.046 1.204 1.729 2.291 2.421 2.709 2.859 2.931 2.691 2.706 2.684 2.269 1.989 1.876 1.989 2.169 1.941 2.141 2.476 2.746 2.849 2.639 2.566 2.404 2.526 2.436 2.121 2.109 1.714 1.286 1.174 1.104 1.129 1.141 1.226 0.936 0.624 0.426 0.314 0.814 1.161 1.321 2.131 1.106 0.711 0.621 1.489 2.416 1.794 1.474 1.144 1.544 1.134 1.031 1.076 0.949 0.776 0.796 0.814 0.871 0.826 1.044 1.374 1.274 0.931 1.069 0.994 1.126 1.009 1.309 1.906 1.836 1.714 1.266 1.519 1.701 1.176 1.164 1.181 1.586 1.916 1.299 0.984 0.931 0.796 1.019 1.404 1.566 1.429 1.434 1.111 1.034 0.829 0.756 0.774 0.796 0.606 0.609 1.839 4.911 4.466 2.286 5.471 5.856 1.811 1.649 3.634 3.026 0.521 0.471 0.594 0.824 0.846 1.031 1.059 1.116 1.144 1.171 1.209 1.279 1.324 1.384 1.516 1.691 2.016 2.264 2.179 2.094 1.644 1.544 1.489 1.449 1.396 1.479 1.489 1.414 1.399 1.386 1.359 1.314 1.331 1.291 1.186 1.101 1.174 1.216 1.181 1.141 1.129 1.104 1.109 1.166 2.056 2.836 3.189 2.976 2.856 1.894 1.606 1.651 1.656 1.651 1.514 1.516 1.526 1.554 1.554 1.576 1.626 1.661 1.659 1.684 1.676 1.739 1.826 1.969 2.089 2.274 2.234 2.181 1.954 1.759 1.669 1.639 1.646 1.611 1.551 1.561 1.561 1.439 1.394 1.354 1.289 1.279 1.206 1.176 1.126 1.116 1.039 0.984 0.944 0.906 0.926 0.959 0.901 0.874 0.859 0.859 0.926 0.959 1.181 2.001 2.256 2.106 2.311 2.334 2.291 2.099 1.256 1.134 1.209 1.101 1.119 1.166 1.321 1.559 1.514 1.209 1.244 1.246 1.254 1.236 1.196 1.194 1.201 1.166 1.116 1.051 1.104 1.209 1.209 1.214 1.231 1.109 1.179 1.221 1.249 1.176 1.141 1.049 0.956 0.916 0.896 0.879 0.849 0.931 0.981 0.921 0.896 0.901 0.814 0.981 0.869 1.021 1.064 0.906 1.124 1.336 1.996 2.229 2.201 1.936 1.696 2.224 2.394 1.896 1.761 1.101 1.264 1.306 1.101 0.954 0.954 1.016 1.516 2.036 1.821 1.779 2.609 1.999 1.806 0.624 1.011 1.774 1.094 0.866 0.821 0.796 0.776 0.796 0.866 0.986 1.001 1.011 1.004 0.996 0.966 0.926 0.961 0.969 0.929 0.954 0.959 0.949 0.961 0.959 1.034 1.216 1.314 1.389 1.459 1.514 1.564 1.586 1.706 1.764 1.746 1.754 1.796 1.844 1.871 1.911 1.911 1.931 1.941 2.169 3.129 3.541 3.596 3.274 3.736 4.919 4.441 2.921 2.224 2.284 2.356 2.399 2.386 2.374 2.391 2.426 2.394 2.429 2.449 2.494 2.464 2.481 2.516 2.549 2.574 2.554 2.509 2.496 2.541 2.569 2.571 2.534 2.569 2.594 2.596 2.636 2.644 2.666 2.684 2.689 2.726 2.731 2.726 2.731 2.761 2.774 2.809 2.934 3.196 3.526 4.369 4.074 3.601 3.331 2.924 2.971 3.009 3.151 3.234 3.241 2.989 3.014 2.929 2.856 2.769 2.731 2.654 2.639 2.649 2.561 2.419 2.439 2.496 2.286 2.366 2.511 2.406 2.139 2.139 2.209 2.586 3.684 1.771 1.941 3.221 1.579 1.801 1.701 1.864 1.646 3.259 3.551 1.794 3.234 5.159 3.881 3.619 4.584 2.816 3.096 3.344 2.873 3.609 3.673
1.611 1.609 1.721 1.921 1.931 2.119 2.331 2.534 2.579 2.746 2.629 2.086 1.801 1.811 1.811 1.569 1.389 1.376 1.631 1.524 1.244 1.396 1.761 1.824 1.641 0.741 0.419 1.116 0.791 0.759 0.856 1.136 1.319 1.714 2.439 2.831 3.006 3.036 3.036 3.019 2.966 2.659 2.296 2.206 1.916 2.111 2.079 1.691 1.854 2.281 2.291 2.534 2.586 2.371 2.426 2.544 2.246 2.154 2.076 2.166 1.741 1.281 1.216 1.141 1.101 1.184 1.084 1.221 0.996 0.886 0.921 2.599 2.326 2.439 1.904 0.614 0.376 0.331 0.531 0.561 0.911 1.536 0.846 1.019 0.704 0.596 0.621 0.916 0.969 0.814 0.886 0.796 0.911 0.721 0.629 0.589 0.671 0.734 0.869 0.784 1.024 1.641 1.469 1.214 1.294 1.404 2.449 1.424 1.221 1.186 1.401 2.371 1.771 1.326 1.146 1.096 1.446 1.431 1.806 2.011 2.191 2.479 2.636 2.499 2.096 1.351 1.186 1.374 1.941 1.356 2.289 6.679 5.329 4.661 4.056 1.321 1.461 3.584 3.676 2.274 0.391 0.496 0.864 1.576 1.066 0.996 1.054 1.079 1.146 1.209 1.256 1.311 1.314 1.409 1.564 1.726 2.086 1.979 1.984 1.691 1.526 1.481 1.431 1.386 1.331 1.394 1.454 1.566 1.391 1.356 1.384 1.206 1.039 0.971 0.964 0.974 1.001 1.081 1.116 1.114 1.084 1.114 1.364 1.939 2.461 2.901 2.886 2.549 1.829 1.631 1.751 1.839 1.536 1.454 1.521 1.511 1.509 1.519 1.556 1.589 1.634 1.664 1.679 1.631 1.674 1.709 1.771 1.861 1.994 1.891 1.836 1.756 1.664 1.654 1.684 1.616 1.601 1.556 1.536 1.481 1.409 1.346 1.266 1.179 1.204 1.181 1.109 1.009 0.981 0.909 0.861 0.814 0.821 0.886 0.896 0.854 0.856 0.811 0.789 0.784 0.826 1.046 1.769 1.974 1.934 2.079 2.276 2.241 2.154 1.284 1.349 1.436 1.429 1.289 1.109 1.249 1.449 1.281 1.151 1.179 1.214 1.214 1.181 1.184 1.191 1.161 1.134 1.061 1.046 1.011 1.139 1.179 1.146 1.194 1.046 1.119 1.174 1.171 1.091 1.014 0.924 0.859 0.984 0.976 0.814 0.761 0.769 0.929 0.939 0.894 0.869 0.616 0.759 0.771 0.889 1.001 0.826 0.984 0.989 1.201 1.419 1.484 1.404 1.359 2.429 2.131 1.941 1.556 1.831 1.879 1.636 1.391 0.969 0.954 0.966 1.369 2.224 1.989 1.656 1.794 2.131 1.371 0.256 0.281 1.004 1.024 0.994 0.901 0.901 0.861 0.916 0.974 0.994 0.969 0.979 0.994 1.011 1.019 0.979 0.981 0.989 0.996 0.956 0.926 0.944 0.959 0.981 1.044 1.124 1.224 1.366 1.436 1.496 1.509 1.634 1.701 1.689 1.714 1.736 1.766 1.809 1.856 1.916 1.899 1.899 1.899 1.919 2.581 3.196 3.261 3.936 4.191 3.956 4.519 3.489 2.521 2.214 2.279 2.356 2.346 2.309 2.304 2.329 2.351 2.354 2.379 2.371 2.351 2.381 2.391 2.416 2.411 2.429 2.444 2.456 2.494 2.454 2.379 2.396 2.466 2.491 2.519 2.556 2.581 2.629 2.611 2.641 2.646 2.671 2.806 2.699 2.726 3.006 3.624 4.426 4.474 4.964 4.841 4.339 5.331 3.596 2.881 3.224 3.276 3.496 3.851 2.951 2.814 3.259 2.549 2.369 2.309 2.289 2.189 2.199 3.471 2.774 1.881 1.779 1.851 1.816 1.656 1.486 1.416 1.381 1.551 1.586 1.506 1.436 1.524 2.561 4.106 4.196 3.181 1.924 1.609 2.536 2.084 3.246 2.851 2.911 2.856 2.351 3.614 3.924 2.811 3.697 4.095 3.194 3.144 3.095
2.001 1.889 1.911 1.864 1.794 1.929 1.869 1.916 1.884 2.119 2.169 2.014 1.944 1.864 1.791 1.864 1.844 1.674 1.746 1.554 1.244 1.364 1.711 1.784 1.431 0.684 0.384 1.006 0.751 0.809 0.856 1.081 1.309 1.944 2.659 2.969 3.036 3.049 3.059 3.076 2.979 2.689 2.456 2.176 1.781 1.616 1.594 1.401 1.414 1.784 2.076 2.259 2.346 2.151 2.396 2.534 2.191 2.421 2.214 2.434 1.754 1.574 1.284 1.101 1.296 1.226 1.126 1.286 1.319 1.234 1.914 2.211 2.274 2.866 1.374 0.926 0.879 0.571 0.489 0.346 0.476 0.726 0.736 0.836 0.651 0.804 0.781 0.666 0.979 1.004 1.031 0.741 0.509 1.299 0.564 0.391 0.441 0.354 0.396 0.341 0.426 0.596 0.601 0.579 1.711 2.269 1.761 0.794 3.546 3.159 4.949 3.716 1.511 1.441 1.279 1.264 1.254 1.524 1.726 1.949 2.594 3.279 3.416 3.516 3.499 4.144 4.001 2.701 2.164 0.676 2.751 6.296 4.624 1.199 0.624 0.526 0.651 1.386 4.121 0.691 0.436 1.121 1.159 1.736 0.909 0.884 0.939 1.034 1.136 1.196 1.301 1.244 1.264 1.356 1.396 1.546 1.699 1.634 1.634 1.804 1.544 1.484 1.434 1.364 1.366 1.369 1.586 1.566 1.329 1.259 1.214 1.166 1.026 0.954 1.039 0.936 0.954 1.031 1.064 1.066 1.041 1.136 1.124 1.831 2.771 2.851 2.809 2.419 2.054 2.219 2.381 1.779 1.489 1.479 1.474 1.481 1.499 1.516 1.544 1.561 1.621 1.626 1.619 1.654 1.669 1.666 1.696 1.766 1.786 1.779 1.719 1.696 1.656 1.624 1.609 1.599 1.619 1.579 1.491 1.451 1.361 1.319 1.201 1.216 1.169 1.099 0.946 0.844 0.826 0.809 0.816 0.816 0.831 0.934 0.984 0.941 0.981 0.879 0.834 0.839 0.841 0.989 1.584 1.431 1.536 2.081 2.171 1.866 1.756 0.981 1.384 1.744 1.849 1.844 1.536 1.184 1.154 1.076 1.074 1.141 1.129 1.166 1.164 1.144 1.119 1.099 1.046 1.024 1.021 0.986 1.026 1.176 1.106 1.089 1.084 1.016 1.039 1.011 0.944 0.859 0.864 0.989 0.984 0.854 0.701 0.604 0.616 0.726 0.829 0.829 0.764 0.604 0.616 0.874 0.904 0.891 0.891 0.924 1.076 1.124 1.234 1.189 1.011 1.276 2.119 2.106 2.161 1.774 2.134 2.531 2.319 1.474 0.926 0.926 0.954 1.439 2.009 2.031 1.826 1.641 1.501 1.039 0.504 0.186 0.669 1.014 1.051 1.041 0.994 0.984 0.976 1.011 0.919 0.849 0.861 0.976 1.069 1.081 1.054 1.009 0.979 0.971 0.971 0.951 0.939 0.984 1.006 1.066 1.124 1.176 1.296 1.409 1.479 1.514 1.596 1.651 1.631 1.686 1.709 1.721 1.781 1.816 1.869 1.876 1.891 1.904 1.894 1.934 2.544 3.126 2.949 2.864 3.274 3.814 4.099 3.486 2.256 2.236 2.276 2.256 2.246 2.246 2.254 2.271 2.269 2.279 2.281 2.269 2.309 2.359 2.381 2.444 2.444 2.461 2.451 2.439 2.391 2.336 3.004 2.454 3.469 2.759 2.406 2.334 2.441 2.464 2.479 2.671 3.051 3.584 3.834 3.079 2.766 3.706 4.279 3.601 3.086 3.081 3.141 2.851 2.674 2.909 2.996 3.259 3.299 2.811 2.061 2.086 3.301 2.914 1.774 2.236 1.979 1.644 1.641 2.104 1.571 1.371 1.259 1.451 1.581 0.964 0.906 1.126 0.966 0.941 1.001 0.946 0.814 1.311 2.829 2.399 2.856 2.456 2.076 1.506 2.089 2.774 4.506 3.426 2.821 2.821 2.504 2.384 4.618 4.281 3.334 2.9 2.799 2.658 2.4
2.096 2.029 2.106 2.319 2.221 2.219 2.146 1.859 1.841 2.301 2.259 2.139 2.044 1.964 2.011 2.156 2.109 1.796 1.696 1.314 1.196 1.434 1.769 1.611 1.381 1.094 0.566 0.604 0.844 0.946 1.026 1.159 1.339 2.206 2.831 2.966 3.026 3.074 3.094 3.111 2.976 2.546 1.934 1.489 1.484 1.344 1.294 1.121 1.214 1.406 1.629 1.994 2.181 2.066 1.991 1.991 2.124 2.519 2.584 2.586 1.969 2.029 1.461 1.259 1.391 1.251 1.116 1.201 1.344 1.449 1.634 1.674 1.924 1.651 1.679 1.306 1.271 1.116 1.054 0.959 1.014 0.921 0.916 0.829 0.876 0.796 0.769 0.629 0.776 0.976 1.021 0.894 0.904 1.209 1.041 1.071 1.126 0.951 1.209 1.051 0.771 0.779 0.536 0.496 0.424 0.594 0.424 1.034 3.231 4.144 4.296 2.524 0.591 1.074 1.136 0.944 1.079 1.169 1.279 2.096 2.569 3.191 3.759 3.819 3.526 3.674 4.126 3.626 3.574 1.216 0.784 2.279 2.276 0.976 1.036 1.964 1.856 1.569 1.249 0.584 0.576 0.941 1.166 0.769 0.709 0.729 0.859 0.971 1.064 1.181 1.271 1.264 1.271 1.349 1.354 1.439 1.499 1.409 1.736 2.124 1.634 1.499 1.446 1.426 1.411 1.426 1.539 1.364 1.294 1.246 1.191 1.179 1.044 0.901 0.941 0.859 0.881 0.959 1.056 1.076 1.101 1.106 1.076 2.436 2.944 2.889 2.899 2.434 1.991 2.239 1.841 1.499 1.404 1.431 1.479 1.499 1.546 1.571 1.546 1.601 1.601 1.606 1.636 1.654 1.666 1.676 1.704 1.716 1.724 1.736 1.711 1.664 1.636 1.611 1.601 1.596 1.581 1.529 1.381 1.344 1.281 1.254 1.119 1.144 0.959 0.926 0.901 0.816 0.796 0.799 0.816 0.879 0.886 0.956 0.989 0.949 1.011 1.061 1.086 0.986 0.956 0.959 1.034 1.154 1.449 2.036 2.049 1.851 1.489 0.891 1.011 1.356 1.579 1.641 1.316 1.196 1.099 0.966 1.004 1.119 1.124 1.141 1.161 1.121 1.054 0.991 1.004 0.976 0.979 1.016 1.064 1.076 1.046 0.989 1.161 1.036 0.916 0.854 0.861 0.901 0.984 0.954 0.919 0.794 0.616 0.509 0.521 0.691 0.604 0.679 0.751 0.771 0.696 0.756 0.999 0.884 0.934 1.029 1.121 1.201 1.271 1.119 0.969 1.411 1.804 2.054 2.201 1.611 1.294 1.904 1.666 1.019 0.909 0.919 0.984 1.479 1.991 2.229 2.066 1.706 1.574 1.299 0.894 0.306 0.366 0.876 1.031 1.074 1.044 0.981 0.959 0.894 0.786 0.684 0.694 0.799 0.949 1.059 1.056 1.049 0.991 0.946 0.946 0.929 0.984 1.071 1.086 1.106 1.131 1.209 1.291 1.376 1.456 1.469 1.566 1.586 1.569 1.626 1.661 1.684 1.731 1.761 1.814 1.859 1.876 1.889 1.889 1.876 1.886 2.374 2.856 2.871 2.656 2.984 3.614 4.279 2.196 2.211 2.226 2.254 2.259 2.219 2.221 2.216 2.229 2.259 2.276 2.329 2.356 2.416 2.386 2.401 2.389 2.406 2.384 2.369 2.459 2.604 4.069 2.814 2.416 3.944 1.921 2.351 3.654 1.819 1.961 2.864 2.409 2.204 4.296 2.864 2.259 2.801 3.301 2.684 2.369 2.344 2.804 4.086 2.796 7.416 3.963 3.404 4.044 1.962 1.62 1.565 2.189 1.766 1.353 1.459 1.223 1.145 1.095 1.062 0.945 0.983 1.226 0.746 0.761 1.344 0.621 0.661 0.529 0.866 1.299 0.789 0.226 0.421 0.209 0.414 0.741 0.829 1.464 0.979 1.046 1.861 4.136 3.811 2.746 2.486 2.582 5.366 2.13 3.386 4.479 3.252 3.177 3.087 3.284
2.279 2.161 2.191 2.331 2.371 2.424 2.451 2.346 2.294 2.424 2.409 2.279 2.059 2.106 2.139 2.119 2.161 2.051 1.629 1.321 1.256 1.734 1.791 1.634 2.136 2.856 1.274 0.701 0.824 1.004 0.844 1.156 1.446 2.356 2.871 2.964 3.009 3.074 3.134 3.059 2.809 2.061 1.416 1.161 1.204 1.214 1.259 1.176 1.231 1.244 1.304 1.534 1.649 1.611 1.679 2.231 2.499 2.811 2.671 2.364 2.081 2.191 2.199 1.614 1.509 1.336 1.076 1.131 1.196 1.096 1.189 1.506 1.256 0.724 0.996 1.261 1.276 1.276 1.226 1.256 1.256 1.174 1.154 1.116 1.069 1.004 0.969 1.021 1.046 1.176 1.211 1.299 1.179 1.206 1.246 1.409 1.556 1.379 1.426 1.336 1.326 1.429 1.276 1.121 1.006 0.969 1.239 1.111 1.059 0.961 1.466 0.744 0.621 0.981 0.921 0.734 0.486 0.434 0.594 2.034 2.751 3.171 2.809 3.459 4.184 4.326 3.646 3.704 3.334 3.336 2.926 2.704 1.504 1.274 1.496 1.664 1.686 1.279 0.831 0.671 0.711 0.611 0.681 0.656 0.779 0.724 0.794 0.859 0.931 1.099 1.214 1.284 1.321 1.491 1.399 1.434 1.431 1.394 1.826 2.254 1.794 1.531 1.481 1.431 1.424 1.416 1.334 1.289 1.251 1.194 1.126 1.029 0.911 0.811 0.971 0.894 0.801 0.864 1.026 1.124 1.186 1.209 1.276 2.449 3.171 2.941 3.104 2.559 1.794 1.986 1.684 1.511 1.359 1.356 1.446 1.474 1.511 1.514 1.574 1.614 1.614 1.619 1.656 1.679 1.664 1.631 1.671 1.676 1.684 1.686 1.681 1.644 1.609 1.579 1.554 1.581 1.509 1.424 1.309 1.254 1.189 1.159 1.014 0.906 0.856 0.806 0.721 0.769 0.886 0.861 0.826 0.759 0.776 0.869 0.949 0.911 0.964 1.029 1.044 0.959 0.996 1.039 1.044 1.239 1.844 1.909 1.676 1.816 1.516 0.979 0.749 0.824 1.014 0.996 1.159 1.501 1.031 0.926 0.941 1.006 1.046 1.101 1.104 1.036 1.014 0.954 0.966 0.946 0.976 0.959 1.006 1.106 1.051 1.056 1.116 1.144 0.989 0.874 0.884 1.039 1.039 0.894 0.844 0.734 0.644 0.554 0.541 0.699 0.624 0.594 0.691 0.789 0.846 0.821 0.864 0.951 0.931 0.946 1.131 1.146 1.176 1.099 1.011 1.324 1.859 2.266 1.909 1.119 0.931 0.931 0.919 0.909 0.919 0.921 0.984 1.396 2.211 2.384 2.061 1.806 1.676 1.431 1.271 0.506 0.286 0.504 0.879 0.876 0.734 0.629 0.639 0.631 0.696 0.786 0.801 0.721 0.774 0.931 0.976 0.959 0.926 0.931 0.951 0.949 0.974 1.119 1.216 1.184 1.151 1.199 1.259 1.356 1.414 1.481 1.584 1.559 1.551 1.634 1.619 1.651 1.699 1.746 1.786 1.814 1.844 1.841 1.851 1.854 1.859 1.864 2.089 2.961 3.281 2.876 2.451 2.831 3.001 3.474 2.134 2.201 2.204 2.189 2.174 2.224 2.261 2.331 2.341 2.341 2.354 2.379 2.394 2.371 2.354 2.509 3.606 4.579 3.066 2.104 2.056 2.201 1.641 1.821 1.524 1.676 2.849 2.266 2.359 2.294 3.139 1.801 1.681 2.229 1.756 1.791 1.851 1.996 1.936 1.904 1.824 1.829 4.507 5.303 3.703 2.686 3.633 1.615 1.129 1.191 1.69 1.759 1.925 1.643 0.916 0.812 0.71 0.86 0.932 0.87 1.191 0.555 0.376 0.456 0.601 0.206 0.236 0.099 0.126 0.181 0.181 0.194 0.461 0.441 1.346 0.346 0.641 0.591 0.699 0.819 1.864 2.599 1.571 1.939 2.192 2.9 1.992 3.948 3.667 2.739 2.671 2.514 3.199
2.321 2.294 2.271 2.309 2.316 2.391 2.446 2.424 2.371 2.356 2.386 2.326 2.284 2.269 2.184 2.039 2.026 1.864 1.491 1.184 1.426 1.821 1.634 1.579 2.381 2.624 0.561 0.789 0.974 0.941 0.954 1.159 1.856 2.639 2.906 2.991 2.999 3.061 3.049 2.821 2.216 1.804 1.391 1.304 1.354 1.339 1.324 1.309 1.309 1.274 1.489 1.306 1.484 1.339 1.476 1.641 1.926 2.271 2.584 2.526 2.331 2.259 2.199 1.939 1.804 1.336 1.149 0.934 0.981 1.054 0.914 0.809 0.611 0.679 0.906 1.131 1.096 1.156 1.156 1.206 1.339 1.384 1.381 1.299 1.289 1.331 1.244 1.184 1.204 1.271 1.284 1.266 1.239 1.244 1.219 1.581 1.729 1.521 1.486 1.459 1.499 1.519 1.636 1.514 1.391 1.521 1.574 1.449 1.469 1.426 1.566 1.534 1.424 1.264 1.181 0.766 0.564 0.449 0.369 0.759 1.196 1.974 0.914 0.841 2.076 2.391 1.986 3.119 2.804 2.831 2.346 1.576 1.581 1.616 1.809 1.579 1.504 1.209 0.936 0.859 0.784 0.599 0.731 0.804 0.814 0.814 0.884 0.744 0.746 0.964 1.139 1.244 1.296 1.311 1.254 1.294 1.376 1.374 1.621 2.054 1.711 1.546 1.504 1.464 1.436 1.301 1.244 1.156 1.071 1.004 0.864 0.824 0.756 0.724 0.846 0.896 0.829 0.761 0.866 1.026 1.089 1.339 2.239 3.151 3.214 3.416 2.971 1.959 2.044 1.679 1.516 1.554 1.484 1.414 1.314 1.359 1.459 1.494 1.526 1.591 1.619 1.661 1.674 1.684 1.649 1.619 1.611 1.666 1.669 1.674 1.641 1.611 1.606 1.586 1.594 1.564 1.454 1.341 1.219 1.216 1.174 1.084 0.884 0.756 0.741 0.729 0.764 0.774 0.806 0.686 0.614 0.524 0.614 0.546 0.629 0.714 0.564 0.729 0.821 0.761 0.846 0.881 0.954 1.161 1.779 1.999 1.736 1.451 1.494 1.044 0.719 0.784 0.889 0.936 0.939 1.309 1.204 1.004 0.919 0.886 0.984 1.019 1.029 0.994 0.954 0.971 1.104 0.991 1.011 0.949 1.051 1.156 1.131 1.044 1.024 1.094 0.954 0.879 0.819 0.996 0.974 0.846 0.776 0.726 0.729 0.806 0.679 0.874 1.029 0.789 0.866 1.391 0.881 0.824 0.876 0.964 0.946 0.926 1.111 1.059 1.051 1.014 1.031 1.201 1.794 2.189 1.486 0.951 0.944 0.926 0.916 0.919 0.894 0.921 1.014 1.709 2.231 2.511 2.386 1.969 1.809 1.569 1.539 0.999 0.604 0.381 0.401 0.446 0.469 0.301 0.501 0.684 0.856 0.879 0.839 0.804 0.751 0.734 0.836 0.901 0.889 0.949 0.949 0.944 0.936 1.044 1.204 1.311 1.254 1.259 1.309 1.346 1.411 1.489 1.539 1.521 1.509 1.589 1.606 1.649 1.674 1.694 1.739 1.776 1.794 1.794 1.811 1.834 1.844 1.839 1.804 2.069 3.319 2.509 2.641 3.134 2.334 2.384 2.261 2.464 2.159 2.131 2.124 2.149 2.214 2.256 2.299 2.329 2.346 2.356 2.349 2.294 2.916 3.279 2.649 3.044 1.776 1.869 1.529 1.491 1.404 1.076 1.034 1.136 1.359 2.409 2.314 2.726 1.389 1.306 1.694 1.236 1.344 1.401 1.401 1.416 1.384 1.274 1.216 2.043 2.941 3.595 3.164 2.07 2.712 1.829 1.26 0.856 1.488 1.684 1.821 1.342 0.645 0.876 0.844 0.82 1.629 2.092 1.191 0.886 0.662 0.519 0.894 1.494 0.691 0.321 0.399 0.316 0.266 0.334 0.536 0.596 0.296 0.196 0.664 0.231 0.489 0.464 0.924 2.499 0.801 0.979 0.915 1.162 2.875 1.683 3.576 2.833 2.425 2.861 4.309
2.274 2.301 2.294 2.434 2.454 2.449 2.551 2.464 2.341 2.296 2.251 2.311 2.361 2.314 2.216 2.039 1.916 1.581 1.194 1.139 1.456 1.759 1.459 1.334 1.121 0.614 0.544 0.841 1.144 1.141 1.231 1.284 2.021 2.851 2.891 2.961 2.989 2.981 2.831 2.244 1.809 1.471 1.519 1.424 1.489 1.406 1.454 1.459 1.476 1.411 1.311 1.424 1.511 1.391 1.451 1.391 1.519 1.861 2.379 2.434 2.139 2.181 2.116 2.296 2.086 1.561 1.159 0.949 0.879 0.979 0.804 0.581 0.404 0.579 0.809 0.966 1.064 1.046 1.066 1.206 1.391 1.376 1.361 1.336 1.421 1.356 1.389 1.451 1.476 1.431 1.436 1.366 1.331 1.351 1.314 1.411 1.551 1.604 1.574 1.501 1.466 1.456 1.539 1.449 1.316 1.351 1.486 1.596 1.486 1.429 1.409 1.466 1.474 1.366 1.424 1.359 1.404 1.186 1.096 1.006 1.414 1.086 0.466 0.421 0.721 1.684 0.631 1.031 1.399 1.671 1.319 0.891 1.041 1.409 1.741 1.739 1.864 1.451 0.899 1.246 2.024 1.961 2.026 1.954 1.144 0.901 0.794 0.779 0.704 0.774 0.954 1.114 1.214 1.231 1.286 1.301 1.324 1.369 1.504 1.736 1.701 1.664 1.641 1.561 1.529 1.384 1.211 0.976 0.786 0.739 0.751 0.746 0.729 0.774 0.784 0.884 0.874 0.801 0.689 0.789 0.819 0.856 1.784 2.814 2.979 3.729 3.396 2.754 2.329 1.674 1.459 1.481 1.504 1.474 1.439 1.459 1.436 1.461 1.534 1.589 1.636 1.646 1.639 1.616 1.609 1.621 1.604 1.616 1.609 1.616 1.601 1.604 1.566 1.586 1.554 1.504 1.356 1.289 1.174 1.151 1.031 0.906 0.816 0.784 0.739 0.791 0.921 1.006 1.271 0.919 0.656 0.464 0.389 0.394 0.246 0.361 0.306 0.381 0.621 0.616 0.739 0.689 0.616 0.639 0.924 1.271 1.476 1.676 1.671 0.819 0.701 0.806 0.849 0.859 0.859 0.811 0.774 0.841 0.924 0.864 0.896 0.926 0.954 0.916 0.976 1.121 1.106 0.999 1.151 1.119 1.111 1.134 0.981 0.906 0.896 0.954 0.806 0.761 0.854 0.959 0.944 0.866 0.759 0.756 0.796 0.719 1.004 0.879 1.039 0.926 1.139 0.869 0.894 0.924 0.921 0.924 0.961 0.889 0.876 0.926 0.891 0.941 1.031 1.254 1.574 1.469 1.044 0.961 0.971 0.961 0.959 0.964 0.936 0.944 1.144 1.969 2.294 2.551 2.501 2.416 2.244 1.681 1.399 1.159 0.891 0.591 0.329 0.186 0.309 0.394 0.809 0.944 0.929 0.901 0.866 0.861 0.821 0.691 0.676 0.796 0.829 0.899 0.904 0.909 0.944 1.021 1.156 1.261 1.326 1.341 1.334 1.369 1.384 1.479 1.469 1.486 1.489 1.559 1.611 1.629 1.621 1.671 1.696 1.726 1.746 1.764 1.781 1.799 1.806 1.776 1.739 1.726 1.756 1.894 2.911 3.511 3.381 2.876 3.589 3.159 1.934 1.981 2.076 2.111 2.139 2.184 2.249 2.274 2.341 2.314 2.349 3.076 3.974 2.496 1.741 1.559 1.531 1.514 1.489 1.401 1.171 0.641 0.501 1.186 1.764 1.029 1.191 2.039 0.504 0.471 0.584 0.564 0.859 1.281 0.861 1.064 2.126 0.867 1.54 1.223 1.973 1.542 1.74 1.701 1.955 2.654 1.624 1.104 0.897 1.372 2.22 1.64 1.477 1.398 1.257 1.337 1.601 1.629 1.453 1.133 1.18 1.241 0.845 1.201 0.779 1.229 0.416 0.434 0.319 0.304 0.746 1.139 0.669 0.494 0.201 0.331 0.449 0.251 1.376 0.939 0.573 0.463 0.708 1.084 1.701 2.618 2.188 2.527 2.849 3.092 2.055
2.149 2.291 2.354 2.416 2.451 2.456 2.536 2.376 2.219 2.146 2.099 2.364 2.334 2.264 2.139 2.089 1.889 1.529 1.159 1.344 1.749 1.904 1.481 1.234 0.446 0.426 1.031 1.011 1.096 1.179 1.074 1.504 2.299 2.836 2.931 2.974 2.964 2.814 2.214 1.731 1.529 1.679 1.624 1.596 1.729 1.866 1.896 1.759 1.739 1.551 1.381 1.424 1.371 1.356 1.336 1.411 1.421 1.674 2.199 2.419 2.186 2.289 2.476 2.396 1.889 1.774 1.439 1.036 0.916 0.979 0.741 0.516 0.344 0.501 0.806 1.086 1.119 1.051 1.059 1.306 1.289 1.189 1.131 1.051 1.094 1.186 1.229 1.439 1.529 1.621 1.614 1.491 1.486 1.539 1.509 1.371 1.479 1.474 1.324 1.136 1.029 1.026 1.071 1.036 1.081 1.116 1.204 1.286 1.269 1.251 1.321 1.326 1.316 1.419 1.434 1.456 1.429 1.391 1.416 1.486 1.389 1.581 1.379 1.374 1.419 0.974 0.894 0.519 0.406 0.411 0.621 0.434 0.536 0.914 1.134 1.649 1.791 1.349 0.601 1.666 2.871 3.309 3.849 3.254 3.029 1.671 0.861 0.801 0.696 0.731 0.741 0.879 1.006 1.101 1.174 1.229 1.239 1.304 1.731 2.176 2.161 2.134 2.079 1.794 1.766 1.626 1.396 0.999 0.851 0.794 0.786 0.786 0.829 0.796 0.846 0.896 0.844 0.686 0.576 0.696 0.621 0.789 2.321 1.899 2.304 4.281 3.579 2.839 2.211 1.601 1.481 1.546 1.684 1.724 1.759 1.701 1.509 1.421 1.486 1.544 1.609 1.636 1.591 1.596 1.579 1.599 1.611 1.626 1.601 1.589 1.576 1.574 1.586 1.561 1.496 1.371 1.279 1.261 1.166 1.061 0.894 0.871 0.866 0.806 0.826 0.923 1.172 1.439 1.43 0.931 0.653 0.372 0.281 0.293 0.46 0.406 0.331 0.481 0.604 0.406 0.566 0.516 0.634 0.431 0.599 0.811 0.894 0.844 0.914 0.811 0.794 0.859 0.894 0.864 0.779 0.804 0.626 0.669 0.781 0.791 0.801 0.859 0.859 0.874 0.921 1.039 1.054 0.996 1.064 1.089 1.039 0.914 0.891 0.869 0.896 0.809 0.839 0.721 0.961 0.869 0.881 0.921 0.816 0.819 0.901 0.769 0.781 0.871 1.044 0.901 0.839 0.829 0.891 0.931 0.906 0.914 0.949 0.899 0.861 0.911 0.901 0.949 1.039 1.146 1.214 1.121 0.994 0.976 0.966 1.059 1.171 1.189 1.121 1.091 1.536 2.386 2.609 2.469 2.324 2.356 2.316 1.916 1.336 1.206 1.161 1.004 0.621 0.234 0.396 1.451 1.169 1.079 0.896 0.894 0.939 0.939 0.899 0.826 0.724 0.681 0.754 0.824 0.876 0.979 1.039 1.106 1.174 1.239 1.291 1.331 1.351 1.351 1.344 1.379 1.401 1.429 1.469 1.566 1.576 1.591 1.621 1.616 1.651 1.676 1.704 1.714 1.731 1.724 1.694 1.676 1.624 1.591 1.564 1.626 1.776 1.856 1.954 2.214 2.966 1.766 1.754 1.889 2.009 2.014 2.039 2.121 2.196 2.206 2.271 2.196 2.759 4.401 1.881 1.596 1.759 2.626 2.424 1.759 1.391 1.331 0.961 1.044 1.234 0.541 0.841 0.821 0.314 0.589 0.359 0.651 0.316 0.249 0.954 1.376 0.304 1.644 2.186 2.212 0.571 1.962 0.779 0.528 0.602 1.686 2.016 2.461 2.32 1.924 0.741 1.306 1.925 2.452 2.438 1.987 1.748 0.331 1.504 1.145 0.852 0.549 0.568 0.662 0.84 0.389 0.259 1.104 1.369 0.414 0.214 1.019 0.816 1.039 0.651 0.891 0.414 0.449 0.346 0.119 0.149 0.217 0.375 0.41 0.604 0.525 1.084 0.964 1.005 1.313 1.576 1.81 1.536
2.239 2.326 2.294 2.384 2.471 2.514 2.476 2.371 2.304 2.289 2.239 2.241 1.979 1.806 1.639 1.714 1.704 1.359 1.251 1.421 1.904 1.901 1.509 0.799 0.384 0.644 0.884 0.996 1.049 1.169 1.291 1.761 2.694 3.004 2.966 2.984 2.979 2.604 1.784 1.646 1.584 1.789 1.899 1.914 2.059 2.221 2.301 2.109 2.026 1.769 1.596 1.466 1.484 1.291 1.259 1.336 1.301 1.336 1.874 2.264 2.329 2.346 2.201 2.141 1.836 1.631 1.334 1.071 0.909 0.871 0.756 0.506 0.431 0.571 0.809 1.231 1.499 1.551 1.244 1.119 1.086 1.094 1.076 1.039 1.031 1.049 1.069 1.089 1.206 1.169 1.194 1.171 1.139 1.149 1.086 1.044 1.091 1.124 1.046 0.986 1.046 1.046 1.011 0.946 0.959 1.154 1.776 1.519 1.246 1.116 1.316 1.204 1.304 1.386 1.364 1.376 1.339 1.419 1.441 1.406 1.399 1.346 1.371 1.564 1.739 1.641 1.454 1.371 1.066 0.799 0.599 0.321 0.229 0.344 0.419 0.761 0.656 0.424 0.429 1.944 2.106 2.216 4.106 4.019 3.669 2.239 1.566 1.604 1.176 1.561 0.959 0.734 0.774 0.854 0.881 0.976 1.019 1.106 1.844 2.386 2.456 2.254 2.219 1.946 1.979 1.944 1.604 1.084 0.829 0.821 0.891 0.889 0.891 0.841 0.911 0.866 1.019 1.459 1.411 1.086 0.929 1.319 3.376 1.984 3.594 3.874 3.631 2.741 2.109 1.529 1.474 1.616 1.899 2.171 2.206 2.026 1.866 1.461 1.424 1.546 1.586 1.599 1.576 1.579 1.589 1.584 1.589 1.629 1.581 1.571 1.581 1.559 1.554 1.509 1.436 1.296 1.231 1.229 1.124 0.944 0.812 0.819 0.855 0.922 0.869 0.842 0.914 1.565 1.212 0.648 0.493 0.477 0.682 0.839 0.896 0.877 0.881 0.799 0.861 0.826 0.801 0.669 0.666 0.589 0.354 0.434 0.329 0.296 0.356 0.834 0.951 0.904 0.951 0.921 0.944 0.894 0.599 0.606 0.686 0.779 0.849 0.816 0.871 0.946 0.974 1.006 1.049 0.996 0.969 1.011 0.926 0.851 0.874 0.904 1.051 0.996 0.886 0.844 0.914 0.836 0.826 0.791 0.756 0.924 0.986 0.739 0.751 0.824 0.974 0.919 0.849 0.871 0.886 0.926 0.934 0.951 0.939 0.856 0.854 0.836 0.846 0.856 0.981 1.021 1.139 1.286 1.169 1.204 1.226 1.216 1.306 1.439 1.424 1.466 2.426 2.754 2.464 2.449 2.146 1.789 1.766 1.466 1.189 1.229 1.321 1.209 0.989 0.746 0.369 0.914 1.346 1.111 0.956 0.824 0.904 0.974 0.986 0.954 0.841 0.726 0.746 0.829 0.986 1.149 1.219 1.244 1.279 1.304 1.324 1.341 1.361 1.381 1.364 1.346 1.384 1.431 1.456 1.524 1.524 1.564 1.581 1.606 1.591 1.614 1.636 1.606 1.611 1.576 1.531 1.524 1.451 1.429 1.454 1.554 1.739 1.814 1.851 1.839 1.681 1.676 1.804 1.871 1.846 1.869 1.934 2.009 2.109 2.949 2.696 3.171 2.614 1.931 1.604 2.726 2.586 2.786 2.244 2.724 2.126 1.706 1.386 1.236 0.619 0.639 0.559 0.759 0.234 0.181 0.156 0.189 0.174 0.219 0.204 0.991 0.166 0.158 0.294 0.422 0.556 0.784 0.596 0.269 0.915 2.034 2.089 2.573 2.671 2.032 1.279 1.723 2.252 2.199 1.207 2.502 1.874 0.731 0.625 0.53 0.459 0.551 0.591 0.34 0.668 0.594 1.351 0.936 2.041 2.139 0.796 1.084 0.751 0.739 0.611 0.519 0.459 0.541 0.484 0.181 0.346 0.637 0.704 0.879 0.388 0.49 0.369 0.722 1.277 1.143 1.215 1.402 1.496
2.104 2.169 2.186 2.279 2.399 2.471 2.394 2.284 2.214 2.274 2.404 2.009 1.711 1.604 1.544 1.604 1.379 1.241 1.364 1.671 1.841 1.946 1.279 0.586 0.629 0.724 0.821 1.079 1.079 1.379 1.721 2.364 2.889 3.104 2.971 2.996 2.956 2.404 1.736 1.679 1.854 2.141 2.311 2.301 2.461 2.666 2.544 2.521 2.391 2.141 1.914 1.754 1.559 1.396 1.351 1.344 1.371 1.381 1.569 1.726 1.954 2.166 2.349 2.204 2.301 1.844 1.276 1.026 0.971 0.961 0.819 0.601 0.624 0.691 0.851 1.139 1.386 1.506 1.231 1.044 1.061 1.086 1.061 1.036 1.016 1.039 1.051 1.051 1.049 1.059 1.061 1.079 1.119 1.121 1.156 1.104 1.076 1.084 1.039 1.001 0.991 0.999 0.974 0.969 1.001 1.129 1.784 1.689 0.984 1.001 1.026 1.036 1.061 1.111 1.156 1.194 1.261 1.321 1.331 1.261 1.274 1.166 1.264 1.624 1.719 1.869 1.804 1.724 1.716 1.399 1.369 1.146 1.116 0.734 0.494 0.384 0.436 0.346 0.259 1.199 3.304 3.734 3.599 3.681 2.826 2.324 2.829 2.206 2.869 2.599 1.724 2.036 1.644 1.031 0.889 0.831 0.981 1.549 2.221 2.531 2.426 2.339 2.364 2.111 1.951 1.991 1.479 1.154 0.896 0.844 0.864 0.866 0.831 0.726 0.846 1.406 2.309 3.039 2.896 3.006 3.171 2.336 2.814 3.151 2.919 3.311 3.671 2.006 1.559 1.374 1.404 1.569 2.189 2.441 2.326 1.716 1.634 1.494 1.506 1.539 1.544 1.564 1.544 1.551 1.554 1.489 1.544 1.601 1.564 1.574 1.559 1.534 1.494 1.461 1.321 1.226 1.371 1.696 1.389 0.984 0.828 0.813 0.909 0.869 0.773 1.054 0.872 0.518 0.332 0.331 0.659 0.887 0.887 0.925 0.893 0.887 0.802 0.805 0.872 0.851 0.826 0.891 0.886 0.769 0.789 0.719 0.361 0.389 0.289 0.446 0.834 0.999 0.999 0.944 0.916 0.874 0.649 0.624 0.634 0.661 0.709 0.764 0.889 0.881 0.986 1.041 1.019 0.996 0.974 0.961 0.994 0.941 0.924 0.971 0.816 0.926 0.874 0.839 0.766 0.726 0.711 0.721 0.841 1.074 1.089 0.841 0.819 0.846 0.891 0.904 0.886 0.881 0.884 0.944 0.966 0.961 0.896 0.811 0.761 0.766 0.736 0.811 0.849 0.899 1.021 1.144 1.184 1.334 1.541 1.261 1.124 1.241 1.441 2.076 2.431 2.456 2.244 1.746 1.456 1.301 1.251 0.949 0.921 1.174 1.341 1.326 1.204 1.016 0.589 0.326 0.706 1.489 0.969 0.841 0.829 0.939 1.009 1.029 0.954 0.859 0.829 0.906 1.114 1.256 1.291 1.286 1.304 1.334 1.369 1.351 1.324 1.384 1.361 1.339 1.351 1.384 1.391 1.476 1.516 1.529 1.539 1.536 1.534 1.549 1.506 1.454 1.391 1.339 1.321 1.331 1.289 1.279 1.334 1.486 1.711 1.746 1.776 1.744 1.669 1.676 1.606 1.596 1.649 1.714 1.764 1.886 2.061 3.224 2.254 2.451 3.271 2.194 1.611 2.284 3.809 1.249 2.056 1.094 1.214 2.029 0.669 0.381 0.654 1.799 0.721 0.374 0.636 0.691 0.219 0.216 0.271 0.204 0.204 0.079 0.761 0.641 0.433 1.25 0.703 0.797 0.684 0.514 1.204 2.942 2.274 3.134 3.025 1.865 1.244 1.273 0.886 0.689 0.267 1.662 1.812 1.098 0.418 0.421 0.534 0.544 0.45 0.585 0.713 1.412 3.063 0.784 0.949 0.449 1.111 0.831 0.179 0.309 0.494 0.326 0.289 0.444 0.381 0.109 0.213 0.4 0.361 0.431 0.36 0.431 0.554 0.816 0.878 0.62 0.875 0.996 1.037
2.021 2.141 2.226 2.249 2.251 2.289 2.359 2.291 2.209 2.276 2.329 1.911 1.504 1.531 1.679 1.661 1.474 1.396 1.551 1.639 1.886 2.629 1.461 0.576 0.816 0.861 1.031 1.161 1.309 1.549 1.979 2.731 2.994 3.049 2.994 2.916 2.826 2.376 1.704 1.779 2.086 2.451 2.736 2.871 2.901 2.936 2.926 2.824 2.796 2.601 2.411 2.211 1.986 1.714 1.446 1.431 1.474 1.464 1.566 1.794 2.021 1.999 2.394 2.469 2.859 2.386 1.669 1.136 1.084 1.031 0.934 0.606 0.634 0.759 0.969 1.096 1.134 1.161 1.159 1.101 1.084 1.131 1.146 1.059 1.036 1.066 1.154 1.136 1.141 1.196 1.169 1.164 1.169 1.131 1.139 1.121 1.106 1.104 1.106 1.056 1.001 0.974 0.956 0.969 0.999 1.126 1.271 1.131 1.004 1.016 0.986 0.979 1.001 1.094 1.066 1.076 1.079 1.086 1.131 1.156 1.206 1.044 1.291 1.404 1.641 1.826 1.954 1.836 1.796 1.461 1.421 1.179 1.309 1.244 1.134 1.049 1.206 0.901 0.546 0.984 2.181 2.949 2.674 3.931 2.561 2.624 2.914 2.599 1.941 1.646 2.106 2.884 2.451 2.499 2.231 2.371 1.714 1.794 2.236 2.049 2.491 2.516 2.369 2.279 2.276 1.766 1.364 1.271 0.964 0.866 0.814 0.764 0.764 0.704 0.874 1.696 2.546 2.441 1.334 1.239 2.211 2.369 2.649 2.081 2.991 2.789 2.901 1.309 1.441 1.199 1.304 1.594 2.421 2.534 2.351 1.924 1.466 1.471 1.546 1.549 1.521 1.541 1.551 1.549 1.486 1.479 1.531 1.541 1.531 1.551 1.541 1.524 1.436 1.366 1.319 1.396 1.914 2.256 2.011 1.383 0.841 0.811 0.826 0.846 0.708 0.686 0.401 0.3 0.347 0.564 0.846 0.932 0.862 0.863 0.924 0.886 0.832 0.868 0.865 0.817 0.831 0.859 0.899 0.911 1.026 0.864 0.556 0.481 0.324 0.249 0.544 0.924 1.006 1.001 1.136 1.176 0.884 0.724 0.656 0.631 0.671 0.704 0.791 0.946 1.021 1.064 1.089 1.054 1.016 0.961 0.941 0.901 0.891 0.884 0.799 0.829 0.976 0.981 1.241 1.189 0.836 0.949 1.041 1.021 0.919 0.886 0.881 0.871 0.924 0.941 0.934 0.921 0.871 0.959 0.991 0.944 0.874 0.774 0.721 0.696 0.726 0.744 0.799 0.836 0.859 0.959 0.996 1.166 1.349 1.334 1.026 1.039 1.311 1.966 2.264 1.564 1.111 0.976 0.889 0.904 1.076 0.999 0.891 1.669 1.694 1.224 1.299 1.206 1.079 0.744 0.459 0.919 1.874 0.984 0.784 0.869 0.964 1.049 1.024 0.994 0.989 0.994 1.166 1.266 1.321 1.299 1.314 1.356 1.394 1.386 1.321 1.329 1.319 1.346 1.346 1.316 1.329 1.421 1.461 1.461 1.449 1.449 1.426 1.391 1.371 1.281 1.169 1.159 1.136 1.134 1.149 1.176 1.224 1.396 1.551 1.579 1.569 1.616 1.589 1.479 1.379 1.374 1.479 1.576 1.611 1.709 2.209 3.389 2.426 2.584 2.996 2.701 2.159 3.119 2.461 1.164 0.794 0.844 1.014 1.031 0.624 0.871 0.714 0.664 0.796 0.696 0.696 0.314 0.171 0.231 0.186 0.254 0.216 0.294 0.586 0.735 0.967 2.615 1.006 0.932 0.638 0.413 0.962 2.208 2.487 2.996 2.682 1.426 1.255 0.955 1.303 0.894 0.518 0.544 0.958 0.741 0.451 0.57 0.687 0.351 0.408 0.561 0.459 0.619 0.47 0.7 0.541 0.599 0.794 2.801 0.596 0.214 0.169 0.184 0.564 0.606 0.209 0.229 0.372 0.251 0.541 0.566 1.194 0.949 1.167 1.455 1.209 0.568 0.468 0.63 0.739
1.906 2.004 2.219 2.296 2.299 2.239 2.284 2.321 2.359 2.274 2.006 1.601 1.486 1.631 1.926 1.761 1.539 1.441 1.789 1.769 2.076 2.654 1.384 0.776 0.864 1.064 1.184 1.276 1.414 1.824 2.401 2.899 3.109 3.109 3.049 2.961 2.724 2.464 1.846 1.906 2.299 2.716 3.039 3.291 3.421 3.331 3.386 3.346 3.289 3.151 2.949 2.661 2.349 1.954 1.581 1.496 1.406 1.336 1.549 2.184 2.464 2.371 2.611 2.539 2.679 2.436 1.554 1.156 1.149 1.154 0.994 0.631 0.656 0.841 1.109 1.179 1.051 1.109 1.131 1.064 1.084 1.141 1.154 1.131 1.119 1.126 1.124 1.191 1.354 1.291 1.339 1.301 1.246 1.106 1.084 1.121 1.134 1.134 1.104 1.059 1.046 1.019 0.974 0.981 1.024 1.071 1.094 1.091 1.069 1.056 1.011 1.039 0.989 1.054 1.051 1.076 1.056 1.046 1.066 1.119 1.011 1.359 1.359 1.454 1.694 1.679 1.596 1.864 1.851 1.951 1.731 1.266 1.269 1.571 1.414 1.426 1.439 1.194 0.846 0.566 0.739 0.709 0.759 1.939 2.499 2.396 3.061 3.371 2.084 1.951 1.901 2.589 1.544 2.691 2.639 3.176 2.771 2.456 2.371 1.906 2.356 2.604 2.614 2.371 3.284 2.431 1.261 1.406 0.901 0.791 0.676 0.714 0.624 0.476 0.396 0.954 1.481 1.596 0.641 0.569 1.281 1.799 2.034 2.099 1.629 2.996 2.739 1.056 1.001 1.041 1.379 1.746 1.959 1.891 1.921 1.511 1.469 1.481 1.529 1.544 1.526 1.519 1.556 1.534 1.451 1.474 1.516 1.519 1.509 1.489 1.504 1.401 1.366 1.344 1.276 1.619 1.857 1.645 1.39 1.45 1.217 0.852 0.796 0.672 0.506 0.453 0.269 0.359 0.679 0.93 0.987 0.975 0.917 0.836 0.914 0.895 0.941 0.885 0.872 0.764 0.754 0.79 0.859 0.849 0.891 0.834 0.829 0.676 0.521 0.451 0.366 0.544 0.901 1.279 1.754 1.809 1.471 1.329 0.931 0.636 0.606 0.624 0.664 0.801 0.966 1.076 1.139 1.156 1.119 1.039 0.951 0.924 0.921 0.899 0.871 0.851 1.036 1.116 1.059 1.096 1.034 1.011 0.971 0.921 0.939 0.921 0.911 0.919 0.959 0.969 0.946 0.954 0.916 0.961 0.944 0.866 0.821 0.701 0.746 0.646 0.696 0.714 0.736 0.821 0.826 0.889 0.899 0.926 1.006 1.064 0.964 0.886 1.081 1.461 1.436 0.791 0.754 0.809 0.861 1.064 1.676 1.201 0.984 1.726 1.756 1.281 1.204 1.366 1.326 1.246 0.636 0.274 0.866 0.951 0.776 0.809 0.879 0.976 1.026 1.036 1.064 1.071 1.141 1.259 1.321 1.326 1.294 1.324 1.374 1.374 1.381 1.349 1.349 1.374 1.376 1.324 1.289 1.341 1.396 1.366 1.336 1.296 1.276 1.239 1.209 1.106 1.064 1.041 1.074 1.069 1.089 1.114 1.151 1.241 1.359 1.369 1.331 1.356 1.339 1.231 1.189 1.201 1.249 1.314 1.401 1.511 1.701 2.991 3.211 3.274 3.054 3.484 3.436 2.241 1.209 1.036 0.706 0.669 0.801 0.839 0.784 1.296 3.579 1.706 0.551 0.816 0.439 0.281 0.499 0.276 0.321 0.476 0.439 0.442 0.842 0.795 1.158 3.804 2.888 2.175 1.687 1.635 1.606 1.772 1.901 2.29 2.265 2.031 1.322 0.665 0.723 0.813 0.618 0.771 1.065 0.818 0.644 0.779 0.988 0.338 0.639 0.824 0.606 0.332 0.471 1.352 0.341 0.489 0.426 0.686 0.436 0.941 0.399 0.699 0.551 0.336 0.296 0.243 0.391 0.604 1.345 1.018 1.334 1.222 1.098 1.412 1.558 1.691 1.737 0.983 0.634
2.071 2.019 2.041 2.174 2.234 2.249 2.299 2.354 2.261 2.094 1.826 1.679 1.651 1.784 1.986 1.676 1.814 1.949 1.979 1.884 1.384 0.586 0.799 0.946 1.049 1.139 1.219 1.354 1.714 2.331 2.951 3.116 3.144 3.099 3.051 3.014 2.704 2.354 1.876 1.994 2.421 2.829 3.269 3.546 3.779 3.806 3.826 3.934 3.896 3.784 3.631 3.281 2.801 2.201 1.701 1.436 1.369 1.249 1.429 1.984 2.496 2.599 2.619 2.761 2.599 2.114 1.319 1.189 1.294 1.306 0.969 0.754 0.841 0.976 1.201 1.169 1.096 1.061 1.074 1.124 1.154 1.181 1.204 1.184 1.104 1.124 1.111 1.234 1.274 1.249 1.291 1.304 1.239 1.101 1.081 1.106 1.149 1.176 1.124 1.086 1.056 1.026 1.006 1.044 1.046 1.094 1.136 1.076 1.041 1.039 1.054 1.076 1.046 1.076 1.024 1.024 1.084 1.079 1.049 1.046 0.991 1.066 1.146 1.046 1.086 1.036 1.039 1.281 1.431 1.711 1.549 1.151 1.204 1.291 1.806 1.676 1.359 1.291 0.651 1.049 1.691 1.121 0.849 0.824 0.581 0.741 2.034 1.556 1.216 3.656 2.854 1.674 1.154 1.469 1.969 2.566 2.681 2.634 2.734 2.501 2.436 2.609 2.764 3.394 3.876 3.234 1.594 2.431 0.989 0.486 0.386 0.294 0.294 0.339 0.389 0.339 0.371 0.406 0.354 0.304 0.444 1.414 2.561 2.201 2.291 3.804 2.939 1.411 0.831 0.959 1.149 1.884 1.649 1.446 1.409 1.429 1.461 1.524 1.531 1.489 1.471 1.511 1.556 1.579 1.506 1.479 1.521 1.494 1.459 1.451 1.491 1.381 1.349 1.339 1.229 1.234 1.246 1.012 1.023 1.254 1.337 0.944 0.799 1.552 0.731 0.279 0.363 0.713 1.054 1.008 0.96 0.961 0.918 0.832 0.822 0.94 0.919 0.893 0.839 0.795 0.887 0.831 0.842 0.539 0.499 0.546 0.816 0.921 0.801 0.666 0.364 0.259 1.869 2.624 2.129 2.036 1.629 1.706 1.756 1.241 0.674 0.594 0.606 0.696 0.846 1.029 1.256 1.464 1.399 1.036 0.919 0.971 0.994 0.951 0.899 0.851 0.954 1.149 1.249 0.986 0.844 0.849 0.909 0.924 0.951 0.949 0.971 0.956 0.966 0.949 0.991 0.911 0.939 0.909 0.886 0.836 0.731 0.664 0.759 0.664 0.669 0.691 0.681 0.699 0.739 0.916 0.859 0.869 0.911 0.899 0.876 0.859 0.899 0.884 0.834 0.754 0.774 0.851 0.891 1.994 2.354 1.891 1.476 1.574 2.104 1.439 1.066 1.436 1.376 1.479 1.279 0.391 0.179 0.416 0.736 0.766 0.791 0.916 0.991 1.039 1.054 1.081 1.109 1.201 1.261 1.271 1.309 1.364 1.369 1.384 1.426 1.404 1.426 1.404 1.366 1.309 1.229 1.266 1.254 1.189 1.189 1.146 1.156 1.129 1.089 1.031 1.034 1.029 1.034 1.066 1.049 1.064 1.049 1.074 1.104 1.076 1.049 1.041 1.014 0.926 0.936 0.984 0.986 1.034 1.064 1.154 1.464 1.821 3.596 3.804 3.644 2.546 2.736 2.919 2.754 1.431 2.244 0.894 0.611 0.634 2.944 1.106 0.859 0.604 0.494 0.474 0.559 0.361 0.686 0.881 0.249 0.191 0.369 0.906 2.119 0.614 0.838 1.746 2.34 3.817 3.372 3.313 2.483 1.665 0.835 0.944 1.193 1.435 1.219 0.984 0.749 0.802 0.753 0.848 1.032 1.064 1.05 1.35 1.058 0.577 0.65 0.842 0.791 0.795 0.522 0.425 0.229 0.149 0.224 0.641 0.114 0.214 0.254 0.334 0.466 0.461 0.416 0.519 0.742 0.846 1.085 0.794 1.107 0.749 0.763 1.203 1.814 3.33 2.398 2.13 0.607
2.109 2.096 2.074 2.179 2.284 2.314 2.321 2.244 2.156 2.099 2.449 2.064 1.679 1.629 1.861 1.799 1.819 2.009 1.829 1.544 0.759 0.906 1.126 1.081 1.214 1.214 1.339 1.539 2.279 3.039 3.131 3.176 3.144 3.121 3.096 2.984 2.741 2.366 1.844 1.946 2.349 2.814 3.201 3.611 3.951 4.219 4.116 3.961 4.016 3.921 3.796 3.609 3.221 2.379 1.826 1.426 1.326 1.194 1.576 2.256 2.214 2.434 2.541 2.739 2.544 1.884 1.514 1.226 1.261 1.276 0.934 0.816 0.914 1.039 1.239 1.164 1.144 1.119 1.076 1.114 1.159 1.189 1.201 1.154 1.111 1.074 1.041 1.174 1.201 1.126 1.146 1.136 1.106 1.069 1.089 1.124 1.139 1.091 1.104 1.056 1.114 1.066 1.061 1.086 1.121 1.121 1.041 1.044 1.061 1.059 1.094 1.051 1.054 1.021 1.044 1.084 1.111 1.084 1.091 1.069 1.046 0.996 0.944 0.904 0.951 1.016 0.979 1.081 1.256 1.529 1.336 1.021 1.364 1.704 1.919 1.566 1.166 1.091 1.869 3.189 2.869 1.291 1.919 2.691 3.406 3.651 0.904 0.369 0.351 1.071 0.881 0.716 2.796 1.844 1.786 1.391 1.861 2.484 2.349 2.639 2.456 2.664 2.319 3.154 3.384 1.471 0.804 1.026 0.534 0.356 0.529 0.851 0.614 0.756 0.776 0.756 0.799 0.849 0.736 0.669 0.514 0.409 1.176 2.846 2.974 3.351 3.114 1.326 0.766 0.886 0.936 1.071 1.326 1.481 1.684 1.356 1.379 1.431 1.481 1.469 1.481 1.496 1.524 1.569 1.534 1.541 1.526 1.489 1.416 1.436 1.451 1.401 1.414 1.501 1.316 1.1 1.023 1.108 1.183 1.577 1.317 0.779 0.559 0.455 0.566 0.508 0.626 0.922 1.023 1.007 0.985 0.965 0.859 0.846 0.808 0.791 0.878 0.804 0.792 0.937 0.818 0.767 0.672 0.641 0.819 1.254 1.211 1.161 0.991 1.024 0.811 0.424 0.504 0.934 2.044 1.951 1.566 1.951 1.949 1.484 0.929 0.806 0.694 0.741 0.801 0.899 1.089 1.369 1.686 1.591 1.016 0.941 0.971 0.986 0.914 0.881 0.984 1.219 1.274 0.856 0.886 0.981 0.971 0.964 0.951 0.954 1.029 0.984 0.954 0.959 0.966 0.941 0.896 0.856 0.814 0.764 0.679 0.666 0.669 0.684 0.664 0.656 0.664 0.694 0.731 0.801 0.799 0.839 0.891 0.874 0.874 0.849 0.836 0.824 0.804 0.786 0.814 0.831 1.054 1.896 2.519 2.404 2.001 2.204 1.646 1.009 2.031 1.184 1.264 1.444 1.344 1.089 0.351 0.179 0.564 0.736 0.756 0.839 0.931 1.001 1.091 1.106 1.114 1.171 1.224 1.239 1.306 1.359 1.374 1.401 1.436 1.426 1.419 1.426 1.369 1.316 1.199 1.151 1.121 1.124 1.076 1.059 1.044 1.049 1.021 1.014 1.036 1.029 1.039 1.034 1.031 1.021 1.031 0.999 0.939 0.876 0.861 0.799 0.754 0.726 0.749 0.754 0.744 0.736 0.756 0.846 1.314 1.624 2.459 3.639 3.934 2.884 3.416 2.556 1.629 2.274 3.011 4.026 1.001 0.539 1.004 1.004 0.589 0.511 0.766 0.594 0.524 0.616 0.581 0.386 0.204 0.161 0.993 2.205 1.8 0.931 0.858 1.561 2.069 2.987 2.412 4.003 2.825 1.547 0.516 0.406 0.703 1.446 1.293 1.391 0.726 0.563 0.639 0.661 1.119 1.284 1.116 1.25 1.158 0.933 0.635 0.935 0.711 0.86 0.679 0.511 0.316 0.394 0.206 0.219 0.184 0.154 0.129 0.264 0.189 0.259 0.346 0.508 0.451 0.894 0.892 0.473 0.494 0.728 0.585 0.696 1.118 2.204 2.739 0.869 0.734
2.206 2.226 2.214 2.261 2.304 2.349 2.301 2.084 1.814 1.999 2.486 1.981 1.346 1.344 1.684 1.814 1.881 2.099 1.699 0.891 1.956 1.826 1.549 1.321 1.239 1.419 1.611 2.086 2.946 3.144 3.154 3.149 3.146 3.139 3.081 2.946 2.899 2.379 1.779 1.871 2.319 2.711 3.124 3.429 3.934 4.026 3.549 3.411 3.304 3.174 3.091 3.226 3.186 2.716 1.904 1.456 1.369 1.411 1.584 2.254 2.221 2.099 2.249 2.496 2.206 1.744 1.329 1.089 1.226 1.176 0.969 0.896 1.031 1.161 1.246 1.106 1.076 1.079 1.046 1.051 1.036 1.019 0.931 0.924 0.896 0.891 0.944 1.066 1.121 1.091 1.069 0.974 0.904 0.901 0.934 0.914 1.006 1.091 1.079 1.064 1.099 1.066 1.121 1.151 1.114 1.116 1.069 1.089 1.091 1.096 1.099 1.056 1.021 1.059 1.104 1.109 1.124 1.091 1.119 1.096 1.044 1.054 0.999 0.901 0.791 0.789 0.821 1.006 1.261 1.429 1.226 1.079 2.099 2.434 2.241 1.404 1.101 1.326 2.081 3.374 2.269 1.421 1.569 3.319 3.929 3.809 2.256 2.266 0.919 0.521 0.464 0.436 1.346 1.601 1.286 1.406 2.136 1.966 2.216 2.231 1.896 2.254 2.086 1.901 1.574 0.499 0.986 0.479 0.691 0.986 1.039 1.169 1.029 1.031 0.981 1.009 1.099 1.091 1.106 1.051 0.881 0.651 0.551 1.544 2.706 2.906 2.409 0.956 0.806 0.954 0.966 0.911 1.126 1.429 1.761 1.384 1.336 1.386 1.504 1.529 1.519 1.504 1.479 1.506 1.519 1.529 1.509 1.454 1.434 1.446 1.479 1.541 1.909 2.229 1.837 1.329 1.084 1.115 1.331 1.174 0.989 0.621 0.308 0.329 0.627 0.817 0.874 0.982 1.006 1.052 0.974 0.917 0.783 0.807 0.79 0.676 0.694 0.651 0.674 0.635 0.695 0.676 0.936 1.065 1.19 2.006 2.054 1.564 1.181 1.084 1.166 0.729 0.386 0.409 0.986 1.536 2.014 2.071 2.106 1.616 1.234 1.054 0.836 0.826 0.709 0.746 0.889 1.074 1.471 1.864 1.139 0.981 0.934 0.986 0.929 0.909 0.964 1.066 1.111 0.886 0.934 1.021 1.006 0.966 0.969 0.986 1.009 0.956 0.914 0.954 0.939 0.904 0.881 0.819 0.779 0.714 0.669 0.656 0.701 0.694 0.686 0.669 0.659 0.666 0.711 0.774 0.831 0.911 0.859 0.886 0.849 0.829 0.834 0.814 0.836 0.816 0.834 1.081 1.841 2.539 2.671 2.429 2.111 1.874 1.204 1.776 4.771 2.556 1.176 1.271 1.359 1.286 0.714 0.179 0.281 0.706 0.736 0.781 0.899 1.016 1.079 1.104 1.156 1.226 1.244 1.276 1.294 1.341 1.371 1.379 1.386 1.384 1.386 1.369 1.344 1.286 1.184 1.129 1.091 1.076 1.046 0.999 0.979 0.984 1.016 1.051 1.071 1.064 1.076 1.094 1.111 1.169 1.196 1.119 0.946 0.796 0.751 0.669 0.664 0.631 0.606 0.584 0.599 0.486 0.481 0.519 1.299 2.056 2.031 2.434 2.584 3.376 4.136 3.044 1.201 2.616 1.534 3.071 1.346 1.844 1.606 2.306 0.584 1.104 0.524 0.411 0.434 0.556 0.529 0.789 1.179 0.419 0.912 1.483 1.291 0.857 1.131 1.309 1.199 1.575 1.338 4.426 2.986 2.162 0.527 0.473 0.493 0.642 1.028 1.796 0.701 0.462 0.73 0.675 1.052 1.106 0.884 0.775 0.941 0.919 0.958 0.915 1.647 0.71 0.944 0.951 1.085 0.484 0.694 0.679 0.441 0.476 0.281 0.329 0.216 0.259 0.294 0.482 0.245 0.632 0.483 0.343 0.424 0.799 0.856 0.612 0.727 0.829 0.895 0.834 0.855
3.041 2.781 3.251 3.216 2.826 2.559 2.389 1.951 1.574 2.136 2.389 2.074 1.486 1.466 1.821 1.881 2.011 1.864 1.131 0.631 2.259 2.771 1.584 1.371 1.319 1.439 1.939 2.841 3.289 3.136 3.131 3.171 3.179 3.161 3.079 2.884 2.751 2.474 1.726 1.761 2.181 2.634 3.074 3.506 3.864 3.554 2.921 2.799 2.691 2.674 2.644 2.814 2.939 2.531 1.881 1.406 1.371 1.336 1.621 2.146 2.386 2.354 2.104 2.064 1.861 1.501 1.241 1.151 1.234 1.076 0.859 0.989 1.089 1.224 1.259 1.119 1.094 1.009 0.881 0.821 0.761 0.779 0.771 0.756 0.726 0.839 0.924 1.026 1.056 0.984 0.934 0.896 0.766 0.739 0.731 0.776 0.809 0.871 0.926 0.989 1.046 1.049 1.179 1.124 1.081 1.101 1.074 1.091 1.066 1.089 1.096 1.101 1.074 1.086 1.141 1.106 1.139 1.129 1.096 1.061 1.006 1.016 1.014 1.009 0.944 1.064 2.384 1.369 1.159 1.159 1.171 1.024 1.114 1.894 2.091 1.849 1.311 0.899 1.031 1.246 1.054 0.966 1.266 2.209 3.009 3.161 3.234 1.659 1.149 1.051 1.084 0.879 0.686 0.504 0.669 0.799 1.084 1.059 1.296 1.111 0.871 0.886 0.646 0.481 0.456 0.754 1.611 0.954 1.171 1.329 1.346 1.141 1.021 1.001 1.054 1.019 1.044 1.019 1.061 1.061 1.039 0.994 0.594 0.349 1.404 2.086 1.331 0.881 0.899 0.864 0.779 0.829 0.984 1.184 1.456 1.716 1.359 1.411 1.501 1.586 1.569 1.596 1.586 1.469 1.506 1.486 1.474 1.429 1.399 1.439 1.521 1.961 2.301 2.191 1.804 1.36 1.046 1.035 0.889 0.776 0.627 0.408 0.386 0.641 0.825 0.93 0.928 0.982 0.896 0.968 0.891 0.801 0.669 0.635 0.649 0.574 0.545 0.544 0.551 0.557 0.703 0.921 1.683 1.745 1.546 1.854 1.871 1.684 1.356 1.124 1.174 1.046 0.576 0.409 0.391 1.916 0.976 1.196 1.226 1.334 1.144 1.061 0.944 0.921 0.724 0.679 0.761 0.934 1.131 1.196 1.129 1.004 0.996 0.984 1.001 0.976 0.941 0.989 0.929 0.864 0.926 1.014 1.011 1.009 0.966 0.979 0.974 0.944 0.904 0.934 0.946 0.879 0.834 0.814 0.761 0.706 0.674 0.699 0.696 0.719 0.669 0.654 0.614 0.611 0.679 0.736 0.919 1.049 0.816 0.879 0.869 0.849 0.824 0.854 0.886 0.889 0.916 1.521 2.676 3.081 2.584 2.211 1.896 1.766 2.041 3.026 3.876 1.849 1.099 1.166 1.254 1.239 1.016 0.266 0.194 0.606 0.721 0.746 0.911 1.024 1.049 1.099 1.151 1.191 1.264 1.344 1.371 1.391 1.361 1.399 1.386 1.384 1.369 1.351 1.289 1.256 1.146 1.069 1.034 1.036 1.024 0.999 1.019 1.046 1.096 1.184 1.279 1.321 1.349 1.269 1.254 1.216 1.189 1.144 0.964 0.784 0.691 0.619 0.619 0.584 0.541 0.536 0.564 0.504 0.409 0.554 2.409 3.064 2.734 2.141 2.634 3.731 2.384 3.374 1.289 2.339 2.101 1.606 3.016 2.104 2.366 1.794 1.106 0.549 0.419 0.414 0.486 0.781 0.504 0.571 0.604 0.621 1.017 1.664 1.313 1.081 1.129 1.16 1.994 2.699 1.238 4.505 3.845 3.248 1.04 0.441 0.559 0.606 0.916 1.702 1.014 0.677 0.651 0.639 0.963 1.912 1.747 1.409 0.831 0.763 0.979 0.539 0.844 0.828 0.988 0.976 0.883 1.146 0.504 0.746 0.289 0.296 0.209 0.324 0.269 0.319 0.189 0.323 0.4 0.485 0.293 0.393 0.635 0.74 1.133 0.732 0.721 0.783 0.866 0.934 0.917
3.034 2.824 3.424 3.841 3.491 2.999 2.541 1.709 1.344 2.299 2.466 2.099 1.949 1.934 2.054 2.131 1.999 1.584 0.719 1.736 2.124 2.641 1.326 1.291 1.381 1.629 2.551 3.219 3.189 3.101 3.131 3.156 3.194 3.159 3.069 2.861 2.689 2.619 1.759 1.649 2.064 2.526 2.961 3.434 3.471 2.776 2.519 2.876 3.114 2.961 2.919 3.089 2.794 2.444 1.781 1.344 1.324 1.679 2.034 2.099 2.254 2.276 2.409 2.221 2.221 1.729 1.326 1.271 1.189 0.951 0.866 1.111 1.129 1.274 1.109 1.026 0.979 0.844 0.756 0.779 1.019 0.889 0.954 0.939 0.889 0.904 1.006 0.931 0.931 0.936 0.804 0.884 0.934 0.899 0.811 0.876 0.851 0.814 0.786 0.831 0.929 0.991 1.099 1.086 1.046 1.086 1.141 1.074 1.071 1.066 1.071 1.084 1.089 1.096 1.111 1.139 1.174 1.119 1.071 1.031 0.969 0.959 0.989 1.001 0.966 1.296 3.246 3.614 0.869 0.854 0.861 0.899 0.939 1.706 1.829 1.634 1.681 0.826 0.746 0.891 0.881 0.826 0.891 1.074 1.071 1.371 1.381 1.129 1.111 1.299 1.251 1.109 1.211 0.884 0.779 0.804 0.744 0.736 0.656 0.701 0.736 0.634 0.791 0.914 1.011 1.151 1.021 1.231 1.159 1.166 1.309 1.044 0.959 1.004 0.984 1.081 1.144 1.141 1.059 1.094 1.106 1.024 0.764 0.399 0.369 1.076 1.124 0.861 0.864 0.779 0.781 0.799 1.006 1.126 1.779 2.026 1.406 1.381 1.474 1.529 1.526 1.639 1.554 1.569 1.544 1.516 1.439 1.379 1.361 1.479 1.861 2.381 2.106 1.96 1.631 1.148 1.277 0.963 0.875 0.676 0.26 0.324 0.668 0.87 0.968 0.96 0.953 0.901 0.813 0.86 0.787 0.74 0.656 0.621 0.617 0.563 0.535 0.55 0.527 0.476 0.649 1.204 1.915 1.962 2.02 1.721 1.664 1.606 1.194 1.034 1.111 1.096 1.121 0.729 0.574 0.386 0.286 0.259 0.324 2.154 1.259 1.009 1.029 1.021 0.851 0.649 0.679 0.821 0.991 1.111 1.121 1.036 0.976 0.981 1.024 1.029 1.001 1.014 1.009 0.931 0.914 0.999 1.034 1.046 0.959 1.004 0.981 0.946 0.924 0.929 0.916 0.839 0.774 0.786 0.734 0.749 0.764 0.749 0.739 0.679 0.694 0.709 0.609 0.641 0.706 0.889 0.829 0.959 0.886 0.901 0.916 0.891 0.899 0.966 0.971 0.949 0.926 1.564 2.314 2.426 1.964 1.939 1.904 1.479 2.759 1.971 1.309 0.964 1.256 2.554 1.351 1.366 1.201 0.451 0.186 0.534 0.704 0.754 0.914 1.034 1.041 1.069 1.144 1.174 1.276 1.389 1.394 1.406 1.389 1.391 1.389 1.389 1.371 1.329 1.271 1.191 1.094 0.994 1.004 1.006 1.011 1.041 1.169 1.241 1.346 1.411 1.429 1.429 1.404 1.294 1.229 1.171 1.141 1.106 0.941 0.771 0.666 0.624 0.609 0.559 0.531 0.564 0.546 0.476 0.401 0.456 2.131 3.221 2.734 2.194 2.486 2.654 0.716 1.949 1.401 2.246 1.621 1.364 1.181 2.394 2.439 1.811 2.569 1.626 0.674 0.524 0.534 0.571 1.594 0.684 1.144 0.776 1.549 0.947 1.73 1.562 1.242 1.235 2.291 3.131 3.034 3.627 4.102 3.943 2.193 0.773 0.619 0.573 0.699 0.926 0.814 0.626 0.566 1.039 3.08 4.872 3.793 3.401 3.066 1.66 1.321 0.657 0.867 0.823 1.363 1.014 0.811 0.551 0.771 0.501 0.381 0.691 0.249 0.404 0.264 0.259 0.358 0.301 0.346 0.607 1.076 0.39 0.968 0.848 0.708 0.856 0.888 1.348 0.906 0.869 0.821
1.931 3.014 3.084 3.321 3.429 2.914 2.659 2.366 2.071 2.444 2.314 2.194 2.174 2.234 2.061 1.911 1.756 0.766 1.244 1.546 1.289 1.529 1.339 1.296 1.481 2.111 2.976 3.156 3.024 3.066 3.091 3.139 3.129 3.116 3.111 2.926 2.789 2.546 1.821 1.599 1.959 2.311 2.784 3.311 3.046 2.436 2.519 3.034 3.041 3.024 3.151 3.001 2.609 2.206 1.639 1.429 1.444 1.491 1.899 2.156 2.164 2.001 1.979 2.084 1.979 1.474 1.301 1.276 1.224 0.849 1.021 1.211 1.159 1.309 1.119 0.939 0.854 0.741 0.714 0.851 0.901 0.921 1.024 0.981 0.824 0.866 0.899 0.811 0.886 0.834 0.759 0.841 0.969 0.921 0.959 0.909 0.914 0.846 0.796 0.674 0.874 0.891 0.966 1.029 1.096 1.134 1.159 1.116 1.091 1.084 1.101 1.081 1.066 1.084 1.096 1.124 1.111 1.081 1.021 0.959 0.931 0.946 0.956 0.984 0.936 0.959 1.864 1.326 0.871 0.774 0.754 0.819 0.744 1.346 1.836 1.641 2.029 0.994 0.914 0.839 0.931 0.941 0.876 0.801 0.729 0.701 0.754 0.896 1.004 1.084 1.324 1.136 1.086 1.214 1.164 0.981 0.856 0.834 0.974 0.949 1.006 1.024 1.361 1.356 1.234 1.306 1.206 1.201 1.151 1.166 1.121 0.964 0.921 0.931 0.951 1.081 1.039 1.201 1.131 1.114 1.154 1.041 0.851 0.671 0.369 0.546 0.716 0.799 0.759 0.799 0.816 0.834 0.929 1.019 1.639 1.884 1.521 1.401 1.436 1.436 1.464 1.561 1.554 1.611 1.611 1.556 1.454 1.389 1.401 1.741 2.364 2.284 2.015 1.758 1.396 1.249 1.248 0.906 0.619 0.324 0.157 0.486 0.915 0.898 0.879 0.873 0.901 0.822 0.84 0.772 0.694 0.696 0.67 0.634 0.637 0.555 0.527 0.524 0.497 0.611 1.049 1.881 2.108 2.132 1.938 1.573 1.637 1.309 1.126 1.276 1.241 1.084 1.116 1.131 1.096 1.001 0.761 0.666 0.391 0.334 0.424 0.791 1.059 1.134 0.876 0.736 0.646 0.709 0.896 1.069 1.206 1.224 1.061 1.001 0.986 0.979 0.984 1.009 1.056 0.981 0.959 0.984 1.069 1.056 1.006 1.109 1.181 1.191 1.121 1.004 0.931 0.804 0.779 0.771 0.776 0.771 0.739 0.739 0.696 0.646 0.821 0.956 0.801 0.754 0.701 0.579 0.704 0.801 0.831 0.954 0.936 0.841 0.921 0.994 1.004 0.926 0.879 0.936 2.099 2.314 2.321 2.076 1.696 1.536 2.164 1.409 0.999 1.476 1.119 1.084 1.194 1.479 1.459 0.881 0.189 0.461 0.706 0.729 0.829 0.984 0.989 1.024 1.134 1.201 1.291 1.346 1.339 1.406 1.374 1.361 1.401 1.354 1.276 1.234 1.186 1.106 1.054 1.016 1.001 0.999 1.036 1.201 1.339 1.399 1.444 1.469 1.454 1.436 1.399 1.259 1.154 1.104 1.086 1.069 0.994 0.806 0.746 0.659 0.599 0.561 0.576 0.551 0.546 0.499 0.501 0.559 0.986 2.206 1.874 2.149 2.384 4.226 3.109 1.311 3.226 3.069 3.764 2.739 2.656 1.974 1.539 1.746 2.676 3.061 2.976 1.734 1.951 2.049 3.374 1.866 1.911 1.356 0.944 1.222 2.205 2.42 1.978 1.418 2.579 3.258 3.969 4.837 4.653 3.74 3.197 1.129 0.523 0.59 0.677 0.773 0.807 0.793 1.657 3.272 5.824 6.172 6.345 5.585 4.107 4.181 4.243 2.517 2.998 1.814 3.44 3.387 2.302 0.994 0.629 0.604 0.606 0.856 0.576 0.436 0.334 0.409 0.424 0.544 0.517 0.335 0.472 0.373 0.755 0.878 0.791 0.706 0.759 1.076 0.941 0.817 0.795
0.949 1.749 2.604 2.739 2.986 2.609 2.919 2.606 2.396 2.399 2.469 2.276 2.186 1.904 1.764 1.816 0.834 0.516 1.444 1.529 1.196 1.299 1.361 1.421 1.604 2.429 3.094 3.016 3.014 3.024 3.079 3.104 3.069 3.044 3.221 3.026 2.861 2.544 1.791 1.516 1.729 2.201 2.774 3.239 2.746 2.424 2.779 2.961 2.781 2.824 2.651 2.221 1.999 1.879 1.464 1.429 1.446 1.451 1.696 1.879 2.354 2.434 2.121 1.809 1.801 1.514 1.289 1.236 1.134 0.999 1.151 1.149 1.171 1.216 0.989 0.776 0.751 0.709 0.771 0.984 1.051 0.996 0.896 0.776 0.649 0.784 0.654 0.731 0.841 0.774 0.701 0.761 0.821 0.774 0.854 0.929 0.916 0.949 0.836 0.701 0.786 0.824 0.871 1.016 1.119 1.116 1.071 1.069 1.079 1.091 1.096 1.101 1.094 1.094 1.121 1.109 1.079 1.024 0.976 0.941 0.961 0.926 0.924 0.994 0.986 0.921 1.031 0.991 0.926 0.816 0.726 0.739 0.771 1.116 1.621 2.134 1.376 1.006 0.894 0.869 1.056 0.944 0.849 0.849 0.826 0.769 0.741 0.766 0.811 0.871 1.054 1.091 1.196 1.304 1.219 1.201 1.071 1.104 1.194 1.129 1.096 1.064 1.314 1.251 1.304 1.436 1.314 1.284 1.129 1.044 1.046 0.934 0.864 0.929 1.034 1.079 1.104 1.219 1.214 1.214 1.201 1.061 0.901 0.786 0.546 0.406 0.599 0.759 0.874 0.801 0.859 0.896 0.796 0.826 0.949 1.186 1.214 1.244 1.359 1.481 1.511 1.551 1.546 1.626 1.609 1.579 1.449 1.424 1.384 1.761 2.164 2.189 1.825 1.665 1.366 1.03 1.006 0.686 0.259 0.167 0.428 0.853 0.982 0.854 0.845 0.876 0.741 0.684 0.631 0.552 0.625 0.662 0.687 0.671 0.634 0.581 0.494 0.51 0.546 0.724 1.412 1.596 1.347 1.223 1.136 1.072 1.158 1.291 1.404 1.749 1.601 1.316 1.124 1.309 1.191 1.059 1.024 0.799 0.759 0.499 0.354 0.329 0.706 0.914 0.961 1.024 0.701 0.621 0.806 0.989 1.441 1.886 1.281 1.031 0.956 0.929 0.901 0.941 1.021 1.011 1.004 1.021 1.081 1.081 1.076 1.631 1.759 1.719 1.534 1.324 1.064 0.886 0.764 0.759 0.769 0.761 0.761 0.751 0.701 0.701 0.746 0.754 0.766 0.676 0.596 0.596 0.894 0.796 0.791 0.929 0.876 0.806 0.886 1.006 1.006 0.936 0.881 0.881 1.499 2.284 2.171 2.056 1.864 1.561 1.896 1.539 1.121 1.104 1.131 1.091 1.374 1.611 1.636 0.951 0.124 0.411 0.674 0.719 0.839 0.949 0.969 1.009 1.114 1.179 1.289 1.291 1.339 1.379 1.394 1.371 1.331 1.244 1.094 1.061 1.001 0.996 0.991 1.011 0.991 1.054 1.159 1.286 1.376 1.416 1.469 1.449 1.409 1.381 1.294 1.161 1.079 1.034 1.019 1.024 0.944 0.846 0.774 0.696 0.626 0.604 0.601 0.506 0.491 0.539 0.519 0.556 0.621 1.171 1.666 2.066 3.739 4.781 3.304 3.586 3.334 3.016 3.564 1.964 2.399 1.799 1.871 3.651 2.939 2.609 2.704 3.419 3.801 3.181 2.379 1.226 3.119 2.279 1.582 2.06 2.32 2.204 2.461 1.414 1.65 3.612 4.073 4.797 4.253 3.276 3.178 0.964 -9999 -9999 0.761 -9999 -9999 -9999 2.976 4.69 6.031 6.491 5.723 4.488 3.905 5.037 4.517 4.287 4.798 3.554 4.523 5.893 5.086 2.284 1.186 0.534 0.644 0.946 0.719 0.881 0.441 0.441 0.248 0.558 0.258 0.211 0.438 1.496 1.177 0.648 0.798 0.974 0.895 1.266 1.167 0.872 1.038
1.244 1.701 1.404 3.084 2.996 2.586 2.409 2.359 2.509 2.414 2.319 2.079 2.079 1.864 1.714 0.934 0.389 0.709 0.994 1.271 1.236 1.226 1.231 1.411 1.844 2.651 2.956 2.926 2.951 2.981 3.011 3.049 2.991 2.966 3.291 3.119 2.776 2.731 1.936 1.501 1.619 2.031 2.599 3.001 2.726 2.459 2.846 2.729 2.706 2.674 2.314 1.606 1.301 1.394 1.446 1.461 1.474 1.444 1.384 1.769 2.036 2.186 1.986 1.874 1.504 1.391 1.271 1.191 0.939 0.981 1.096 1.064 1.104 1.084 0.904 0.809 0.771 0.744 0.784 0.904 0.954 1.016 1.046 0.796 0.654 0.791 0.856 0.836 0.839 0.804 0.761 0.831 1.171 0.714 0.784 0.901 0.896 0.916 0.844 0.881 0.781 0.796 0.911 0.839 0.999 1.066 1.049 1.051 1.071 1.106 1.119 1.101 1.104 1.121 1.111 1.119 1.091 1.009 1.011 0.959 0.991 0.964 0.949 0.954 0.944 0.926 0.906 0.901 0.841 0.821 0.779 0.744 0.796 1.044 1.884 2.231 1.151 0.754 0.914 0.916 0.989 0.891 0.854 0.911 0.931 0.916 0.886 0.789 0.879 1.081 0.834 0.961 1.079 1.216 1.169 1.059 1.066 1.124 1.121 1.134 1.049 1.079 1.259 1.306 1.224 1.151 1.044 1.061 1.021 0.966 0.929 1.004 0.959 0.879 0.879 0.954 0.939 1.161 1.121 1.096 1.096 1.094 1.024 0.944 0.801 0.466 0.329 0.606 0.876 0.759 0.814 0.966 0.916 0.809 0.801 0.914 1.071 1.221 1.306 1.426 1.479 1.591 1.699 1.714 1.639 1.574 1.459 1.409 1.536 1.981 2.106 2.106 1.838 1.602 1.296 0.884 0.887 0.467 0.058 0.349 0.831 0.94 0.945 0.929 0.83 0.735 0.466 0.502 0.48 0.474 0.518 0.531 0.629 0.698 0.631 0.563 0.501 0.518 0.568 0.818 1.272 1.156 1.295 1.57 1.922 1.363 1.128 1.592 2.334 2.604 2.219 1.504 1.256 1.401 1.484 1.396 1.196 1.134 1.024 1.001 0.596 0.216 0.419 0.596 0.926 0.979 0.786 0.636 0.779 0.984 1.891 2.326 1.361 1.054 0.964 0.919 0.904 0.904 0.956 1.021 1.044 1.049 1.171 1.354 1.666 2.044 2.361 2.326 2.141 1.804 1.494 1.209 0.881 0.811 0.789 0.811 0.786 0.749 0.726 0.731 0.759 0.789 0.856 0.639 0.614 0.631 0.701 0.744 0.799 0.889 0.831 0.806 0.869 0.954 0.939 0.914 0.926 0.856 1.444 2.171 2.426 2.214 1.709 1.479 1.614 1.961 1.716 1.744 1.774 1.511 1.449 1.636 1.579 0.496 0.139 0.401 0.639 0.684 0.819 0.931 0.959 0.994 1.076 1.184 1.264 1.289 1.319 1.334 1.349 1.324 1.226 1.069 0.996 1.006 0.974 0.969 0.989 1.034 1.026 1.131 1.241 1.311 1.359 1.366 1.404 1.361 1.319 1.241 1.116 1.006 0.979 0.966 0.969 0.936 0.921 0.874 0.769 0.721 0.669 0.601 0.569 0.491 0.481 0.491 0.534 0.554 0.789 1.354 1.629 1.974 2.394 3.069 2.701 2.611 2.791 2.029 2.546 2.644 2.074 2.431 1.746 2.204 1.954 3.141 2.751 2.894 3.929 3.234 1.969 1.661 1.499 1.219 1.707 2.232 1.809 1.974 2.289 1.753 2.093 2.594 3.06 3.321 3.372 2.861 2.582 2.034 -9999 -9999 -9999 -9999 -9999 2.108 2.661 3.46 5.012 5.27 4.874 2.89 3.784 5.313 5.624 4.23 3.84 4.61 2.477 3.129 3.112 4.129 3.389 1.859 1.101 0.571 1.004 0.741 0.414 0.811 0.195 0.905 0.53 1.314 1.073 2.756 3.216 1.106 0.799 0.811 0.76 1.537 1.34 0.805 0.669
1.759 3.066 2.854 2.704 2.329 2.279 2.236 2.069 2.094 2.299 2.341 2.106 1.869 1.476 0.706 0.354 0.866 1.491 1.306 1.251 1.351 1.286 1.301 1.611 2.066 2.744 2.716 2.764 2.866 2.929 2.921 2.961 2.919 2.969 3.214 2.991 2.726 2.789 2.071 1.521 1.594 1.891 2.396 2.744 2.791 2.606 2.489 2.256 2.324 2.236 1.911 1.394 1.316 1.384 1.476 1.536 1.461 1.441 1.484 1.444 1.711 2.031 2.231 2.004 1.471 1.276 1.251 1.186 0.879 1.234 1.011 1.041 1.174 0.976 0.866 0.984 0.901 0.726 0.796 0.861 0.924 1.061 0.896 0.776 0.729 0.791 0.936 0.976 0.859 0.854 0.886 1.689 2.404 0.991 0.911 0.866 0.886 0.896 0.854 0.781 0.799 0.874 0.911 0.856 0.814 0.944 1.044 1.084 1.076 1.106 1.119 1.086 1.096 1.104 1.159 1.176 1.111 1.101 1.046 0.986 0.959 0.949 0.976 0.951 0.929 0.929 0.869 0.854 0.839 0.801 0.791 0.801 1.009 1.429 1.984 1.231 0.604 0.824 0.859 0.844 0.834 0.891 0.894 0.954 0.956 0.959 0.934 0.859 0.809 0.821 0.734 0.836 0.866 0.984 0.961 0.954 0.964 0.989 0.959 0.971 1.054 0.989 1.041 1.019 0.921 0.884 0.939 0.991 0.909 1.099 1.136 1.226 1.111 1.134 1.079 0.976 0.994 1.159 1.056 1.001 1.059 1.149 1.139 0.991 0.861 0.649 0.374 0.434 0.769 0.916 1.149 1.624 1.466 0.884 0.874 0.829 0.889 1.226 1.416 1.451 1.551 1.674 1.854 1.744 1.669 1.601 1.536 1.546 1.984 2.211 1.986 1.89 2.075 1.722 1.448 0.857 0.622 0.252 0.299 0.569 0.962 0.947 0.931 0.918 0.734 0.603 0.433 0.374 0.301 0.429 0.453 0.485 0.537 0.494 0.473 0.484 0.597 0.615 0.666 0.695 0.93 1.111 1.907 2.371 2.473 2.344 2.173 2.224 2.324 2.371 2.046 1.109 1.116 1.519 1.634 1.756 1.654 1.364 1.124 1.056 0.914 0.511 0.321 0.506 0.654 0.879 1.036 0.791 0.821 1.214 2.134 2.254 1.571 1.106 1.289 0.906 0.874 0.891 0.919 0.954 1.014 1.134 1.409 1.846 2.354 2.699 2.814 2.774 2.596 2.391 2.014 1.604 1.131 0.899 0.799 0.801 0.766 0.771 0.781 0.776 0.761 0.771 0.804 0.641 0.661 0.671 0.666 0.716 0.786 0.881 0.836 0.819 0.901 0.906 0.886 0.864 0.846 0.864 1.316 1.809 1.974 1.674 1.626 1.551 1.789 2.286 1.886 1.811 1.679 1.476 1.459 1.586 1.124 0.166 0.231 0.569 0.661 0.671 0.809 0.931 0.984 1.016 1.084 1.244 1.299 1.266 1.279 1.304 1.296 1.256 1.111 0.989 0.979 0.951 0.941 0.949 1.011 1.051 1.069 1.194 1.246 1.261 1.339 1.321 1.319 1.259 1.236 1.156 1.016 0.946 0.971 0.939 0.936 0.934 0.939 0.874 0.779 0.731 0.669 0.576 0.549 0.514 0.479 0.494 0.584 0.596 1.406 2.376 2.499 2.051 2.134 3.494 3.929 3.929 2.789 3.629 1.689 1.881 2.574 3.089 2.111 1.081 2.369 2.894 3.434 1.856 3.011 2.359 2.601 0.389 0.719 0.929 0.963 1.279 1.157 1.262 1.661 1.986 2.119 2.13 2.407 2.734 2.628 2.644 2.046 1.397 1.441 1.685 1.683 1.229 0.84 1.271 1.687 2.063 4.125 3.803 5.94 4.221 2.764 1.778 3.89 3.326 2.484 1.605 1.421 2.501 2.218 3.649 4.064 2.451 1.469 0.824 1.019 0.921 1.679 1.074 1.285 0.646 1.535 1.453 1.379 2.135 2.452 1.17 0.69 0.735 0.785 0.919 0.885 0.571 0.632
1.526 1.499 0.919 0.859 1.016 1.706 1.751 1.634 2.471 2.329 1.504 1.071 0.619 0.374 0.891 1.054 1.331 1.314 1.221 1.236 1.429 1.426 1.439 1.774 2.246 2.471 2.479 2.626 2.766 2.791 2.821 2.864 2.844 3.071 3.439 3.066 2.626 2.734 2.281 1.606 1.441 1.684 2.084 2.331 2.436 2.301 2.009 1.629 1.611 1.566 1.416 1.221 1.366 1.429 1.449 1.486 1.426 1.459 1.494 1.621 1.721 1.784 1.806 1.839 1.354 1.269 1.189 1.034 0.946 1.159 0.951 1.001 0.996 0.851 0.861 0.954 0.766 0.784 0.779 0.849 0.911 0.916 0.874 0.889 0.901 1.054 1.119 1.131 1.091 1.136 1.119 1.604 1.786 1.076 1.071 1.016 1.021 0.931 0.859 0.761 0.746 0.886 0.864 0.764 0.689 0.796 0.921 1.029 1.049 1.091 1.126 1.086 1.061 1.111 1.161 1.171 1.036 1.086 1.039 1.016 0.956 0.971 0.944 0.911 0.881 0.864 0.816 0.806 0.799 0.821 0.851 1.699 2.286 2.726 2.546 1.494 0.594 0.809 0.791 0.849 0.856 0.916 0.881 0.924 0.969 0.941 0.996 0.954 0.886 0.819 0.764 0.839 0.811 0.821 0.861 1.006 0.926 0.909 0.981 1.029 1.189 1.136 0.974 0.874 0.846 0.949 0.889 0.921 0.831 1.149 1.261 1.264 1.269 1.259 1.146 1.076 1.081 1.026 0.916 1.019 1.094 1.179 1.171 1.044 0.956 0.701 0.454 0.299 0.524 1.406 2.046 2.231 1.931 1.239 1.134 0.984 0.816 1.239 1.591 1.449 1.574 1.704 1.799 1.776 1.721 1.631 1.619 1.754 2.144 2.191 2.026 1.996 1.971 1.704 1.416 0.86 0.266 0.735 1.083 0.759 0.882 0.824 0.799 0.771 0.52 0.379 0.329 -9999 -9999 -9999 0.222 0.45 0.447 0.449 0.488 0.498 0.616 0.738 0.781 0.664 0.776 0.939 1.188 2.09 2.562 2.618 2.449 2.339 2.149 2.079 1.861 1.286 1.064 1.079 1.296 1.816 1.866 1.244 0.781 0.751 1.014 0.966 0.539 0.304 0.539 0.499 0.884 0.939 0.846 0.929 1.434 1.649 1.269 1.211 1.266 0.884 0.866 0.889 0.899 0.894 0.996 1.291 1.751 2.486 2.989 3.384 3.446 3.286 3.106 2.841 2.449 1.884 1.264 0.889 0.871 0.794 0.799 0.786 0.826 0.801 0.779 0.714 0.709 0.674 0.669 0.661 0.659 0.741 0.781 0.849 0.819 0.826 0.874 0.891 0.846 0.831 0.826 0.824 1.291 2.039 2.044 1.739 1.569 2.014 2.611 2.694 1.741 1.574 1.591 1.571 1.424 1.229 0.421 0.119 0.469 0.661 0.659 0.684 0.831 0.999 1.009 0.994 1.109 1.249 1.289 1.304 1.281 1.249 1.219 1.136 0.981 0.921 0.899 0.904 0.971 1.084 1.159 1.196 1.151 1.196 1.254 1.249 1.214 1.236 1.269 1.219 1.204 1.116 1.019 0.981 0.989 0.939 0.949 0.946 0.911 0.854 0.794 0.781 0.629 0.514 0.534 0.534 0.476 0.471 0.614 0.586 1.851 2.626 3.074 2.211 1.981 3.464 4.156 4.219 3.111 2.956 3.249 3.084 1.366 1.679 1.491 1.736 3.134 3.064 2.229 2.021 0.979 1.814 -0.086 0.796 0.929 0.584 0.544 0.374 0.539 0.658 0.845 1.023 1.129 1.473 1.963 2.099 2.529 2.226 1.605 0.901 1.296 2.072 1.824 1.036 0.857 0.797 1.358 2.428 2.493 2.383 2.305 3.409 2.944 2.589 2.368 4.188 3.175 2.499 2.245 1.425 1.65 3.049 2.346 2.966 1.659 1.136 0.866 1.506 2.631 3.666 2.605 1.163 1.496 1.433 1.379 1.628 2.502 2.096 0.809 0.764 0.664 0.59 0.733 0.601 0.625
1.126 1.041 0.929 0.814 0.721 0.716 0.616 0.694 2.074 0.939 0.539 0.579 1.439 1.931 1.321 1.069 1.194 1.426 1.569 1.381 1.336 1.441 1.526 1.804 2.214 2.114 2.291 2.471 2.556 2.614 2.696 2.749 2.784 3.306 3.674 3.161 2.626 2.591 2.529 1.706 1.344 1.491 1.714 1.914 1.921 1.919 1.624 1.346 1.269 1.234 1.234 1.304 1.319 1.364 1.379 1.401 1.411 1.386 1.714 1.779 1.604 1.949 2.154 1.486 1.206 1.189 1.096 0.869 0.834 0.836 1.006 1.026 0.866 0.821 0.881 0.911 0.834 0.831 0.876 0.901 0.999 1.011 0.964 1.021 1.126 1.224 1.199 1.249 1.189 1.231 1.774 1.241 1.149 1.111 1.129 1.129 1.081 1.101 1.026 0.871 0.809 0.881 0.746 0.701 0.681 0.681 0.896 0.909 0.961 1.049 1.096 1.051 0.979 1.006 1.016 0.971 0.924 0.946 0.909 0.879 0.901 0.919 0.871 0.836 0.839 0.769 0.766 0.801 0.804 0.789 0.856 1.404 2.409 2.956 2.601 1.059 0.644 0.761 0.816 0.854 0.889 0.929 0.921 0.939 0.981 1.021 1.029 1.034 0.954 0.904 0.854 0.944 0.849 0.856 0.901 1.254 1.269 1.206 1.326 1.351 1.311 1.281 1.144 1.074 1.046 1.084 1.011 0.859 0.824 1.101 1.296 1.259 1.281 1.154 1.119 0.959 0.994 1.004 1.036 1.081 1.166 1.271 1.264 1.079 0.951 1.214 1.721 0.326 0.449 0.821 1.901 2.271 2.116 1.754 1.309 1.111 0.736 1.204 1.881 1.681 1.496 1.694 1.819 1.829 1.784 1.766 1.701 1.856 2.389 2.226 2.072 1.873 1.834 1.663 1.519 0.757 0.296 1.116 0.813 0.918 0.861 0.787 0.817 0.766 0.338 0.265 0.286 -9999 -9999 -9999 -9999 -9999 0.415 0.428 0.469 0.52 0.785 0.979 0.972 0.725 0.753 0.938 0.992 1.666 1.926 2.126 2.176 2.273 2.284 2.119 1.991 1.661 1.706 1.044 0.999 1.076 1.204 0.844 0.591 0.529 0.849 0.971 0.896 0.641 0.256 0.429 0.669 0.976 0.859 0.881 1.059 1.144 1.391 2.009 1.259 0.904 0.859 0.876 0.876 0.889 1.081 1.626 2.254 3.061 3.751 4.311 4.329 4.061 3.824 3.279 2.639 2.016 1.364 0.949 0.791 0.789 0.789 0.786 0.819 0.821 0.781 0.739 0.714 0.679 0.674 0.684 0.651 0.704 0.769 0.844 0.816 0.784 0.864 0.889 0.844 0.831 0.811 0.781 1.069 2.101 1.816 1.391 1.641 1.874 2.369 2.741 1.939 1.509 1.279 1.341 1.234 1.159 0.166 0.209 0.689 0.701 0.631 0.706 0.866 1.036 1.039 0.959 1.091 1.211 1.271 1.304 1.266 1.194 1.126 0.976 0.896 0.864 0.901 1.031 1.121 1.161 1.179 1.249 1.241 1.216 1.191 1.226 1.149 1.159 1.221 1.209 1.179 1.156 1.094 1.051 1.014 0.979 0.976 0.956 0.869 0.806 0.806 0.751 0.561 0.516 0.501 0.459 0.451 0.496 0.564 0.584 1.629 2.031 2.364 1.444 1.251 2.476 3.361 2.814 2.579 2.869 1.769 3.219 2.399 1.659 1.739 2.331 1.566 0.606 0.529 0.349 -0.039 -0.091 -0.126 0.744 1.229 0.731 0.771 0.644 0.733 0.33 0.466 1.999 1.912 1.322 1.233 1.235 1.463 1.612 1.708 1.017 1.648 3.183 2.183 1.07 1.085 0.848 0.946 2.048 2.347 2.816 2.669 3.21 3.201 3.008 2.768 2.78 3.056 2.985 2.405 1.411 1.151 1.609 1.981 2.101 1.239 1.849 1.786 1.464 3.379 3.816 1.815 2.207 1.841 1.465 1.387 1.491 1.596 1.933 0.934 0.69 0.79 0.643 0.729 0.827 0.695
1.191 1.139 1.126 1.096 0.914 0.901 0.826 0.874 0.826 0.711 0.796 1.056 1.679 1.451 1.184 1.311 1.339 1.436 1.351 1.234 1.316 1.551 1.609 1.874 1.879 1.949 2.111 2.201 2.301 2.416 2.509 2.596 2.706 3.284 3.591 3.389 2.656 2.539 2.596 1.999 1.389 1.399 1.446 1.519 1.579 1.499 1.444 1.326 1.196 1.194 1.244 1.264 1.336 1.364 1.296 1.294 1.444 1.434 1.591 1.621 1.486 1.951 2.186 1.469 1.164 1.069 0.986 0.879 0.904 0.956 0.929 0.896 0.876 0.861 0.884 0.961 0.831 0.806 0.909 0.949 1.079 1.094 1.184 1.319 1.471 1.266 1.211 1.289 1.231 1.151 1.219 1.229 1.259 1.174 1.231 1.231 1.231 1.176 1.121 0.944 0.881 0.851 0.751 0.729 0.699 0.649 0.681 0.681 0.754 0.829 0.921 0.949 0.859 0.871 0.856 0.801 0.816 0.846 0.809 0.856 0.911 0.804 0.804 0.794 0.806 0.794 0.776 0.779 0.799 0.806 0.794 1.391 2.499 2.626 2.431 0.866 0.734 0.776 0.871 0.869 0.926 0.991 1.011 0.956 0.994 1.039 1.041 1.074 1.061 1.039 0.996 0.974 0.949 0.989 1.549 1.806 2.011 1.869 1.764 1.784 1.751 1.744 1.571 1.519 1.636 1.896 1.796 1.161 0.971 1.164 1.259 1.251 1.281 1.169 1.056 1.084 1.189 1.251 1.324 1.344 1.326 1.349 1.344 1.209 1.026 0.914 0.979 0.404 0.274 0.456 1.589 2.166 2.231 2.246 1.894 1.311 0.696 0.949 1.584 1.479 1.414 1.586 1.786 1.874 1.841 1.839 1.959 2.456 2.614 2.434 2.068 1.908 1.721 1.312 1.318 0.483 0.626 1.084 0.84 0.846 0.765 0.787 0.799 0.722 0.46 0.309 -9999 -9999 -9999 -9999 -9999 -9999 -9999 0.381 0.427 0.437 0.847 1.053 1.059 0.755 0.814 0.986 0.929 1.002 1.004 1.032 1.078 1.566 2.164 1.779 1.689 1.631 1.889 1.066 0.979 1.006 1.124 1.116 0.746 0.521 0.639 1.016 1.161 0.906 0.464 0.314 0.519 1.021 0.959 0.951 1.071 1.146 1.741 2.396 2.224 0.916 0.869 0.886 0.901 0.949 1.309 2.129 2.711 3.516 4.374 5.001 5.184 4.859 4.434 3.671 2.886 2.189 1.619 1.046 0.874 0.859 0.831 0.789 0.779 0.781 0.774 0.754 0.701 0.731 0.719 0.664 0.656 0.676 0.699 0.776 0.796 0.794 0.831 0.839 0.821 0.796 0.756 0.736 0.941 1.764 1.849 1.449 1.199 1.536 1.259 1.256 1.221 1.141 1.221 1.266 0.894 0.291 0.226 0.524 0.746 0.724 0.639 0.719 0.881 0.946 0.984 0.986 1.061 1.171 1.254 1.261 1.226 1.129 1.016 0.916 0.914 0.986 1.046 1.121 1.124 1.174 1.149 1.179 1.156 1.121 1.121 1.169 1.119 1.111 1.149 1.166 1.166 1.201 1.136 1.121 1.049 1.044 0.994 0.919 0.881 0.856 0.779 0.639 0.459 0.446 0.454 0.431 0.396 0.461 0.549 0.539 0.681 1.076 0.974 0.686 0.639 1.039 1.796 2.161 3.116 3.226 2.999 2.154 1.314 1.174 0.621 0.549 0.261 0.261 -0.044 0.081 0.266 0.231 0.181 0.061 0.066 0.204 0.186 0.325 0.189 0.359 0.332 1.049 1.481 0.542 0.773 1.695 1.311 1.868 1.967 0.918 1.179 1.868 1.328 1.452 1.381 1.477 1.33 1.83 3.138 3.113 2.445 2.827 2.825 2.064 2.529 2.372 3.513 3.66 3.329 2.642 2.834 2.589 1.941 3.466 2.421 2.926 2.714 2.404 2.786 1.989 0.893 1.486 1.381 2.471 2.358 1.654 2.368 2.672 1.1 0.779 0.742 0.746 0.844 0.871 0.772
