ncols 446
nrows 31
xllcorner    461106
yllcorner    92322
cellsize     2
NODATA_value -9999
-0.01 -0.028 -0.032 -0.029 -0.023 -0.01 0.009 -0.003 -0.013 0.007 -0.012 -0.011 -0.03 -0.052 -0.063 -0.057 -0.064 -0.073 -0.125 -0.114 -0.094 -0.093 -0.151 -0.128 -0.091 -0.054 -0.062 -0.042 -0.003 0.027 -0.022 0.017 0.053 0.086 0.14 0.093 0.162 0.11 0.081 0.142 0.224 0.326 0.363 0.421 0.492 0.433 0.396 0.269 0.195 0.135 0.112 0.036 -0.015 -0.049 -0.068 -0.099 -0.071 -0.118 -0.133 -0.112 -0.14 -0.116 -0.12 -0.135 -0.144 -0.136 -0.124 -0.159 -0.151 -0.207 -0.188 -0.187 -0.173 -0.174 -0.181 -0.187 -0.238 -0.225 -0.214 -0.195 -0.153 -0.225 -0.178 -0.235 -0.285 -0.299 -0.237 -0.281 -0.279 -0.264 -0.29 -0.286 -0.369 -0.328 -0.353 -0.362 -0.354 -0.393 -0.382 -0.368 -0.46 -0.501 -0.474 -0.466 -0.456 -0.537 -0.554 -0.543 -0.5 -0.53 -0.648 -0.603 -0.548 -0.556 -0.576 -0.586 -0.625 -0.544 -0.622 -0.625 -0.619 -0.735 -0.675 -0.618 -0.65 -0.649 -0.706 -0.707 -0.723 -0.698 -0.808 -0.752 -0.702 -0.663 -0.621 -0.558 -0.596 -0.481 -0.431 -0.488 -0.497 -0.523 -0.549 -0.517 -0.545 -0.563 -0.554 -0.581 -0.639 -0.531 -0.645 -0.651 -0.651 -0.676 -0.711 -0.68 -0.636 -0.707 -0.757 -0.742 -0.762 -0.745 -0.773 -0.781 -0.785 -0.768 -0.779 -0.802 -0.832 -0.809 -0.808 -0.828 -0.818 -0.83 -0.791 -0.79 -0.823 -0.823 -0.824 -0.819 -0.841 -0.832 -0.856 -0.867 -0.887 -0.922 -0.92 -0.926 -0.97 -0.932 -0.974 -0.997 -0.953 -0.969 -0.952 -0.977 -0.951 -0.969 -0.953 -0.967 -0.924 -0.961 -0.985 -0.938 -1.12 -1.121 -1.003 -0.97 -0.944 -0.941 -0.956 -0.987 -0.996 -0.995 -0.959 -0.982 -1.021 -1.01 -0.967 -0.959 -0.999 -0.987 -1 -1.007 -1.063 -0.98 -0.981 -0.954 -0.914 -0.942 -0.955 -0.925 -0.926 -0.923 -0.934 -0.884 -0.962 -0.904 -0.94 -0.901 -0.908 -0.919 -0.935 -0.901 -0.931 -0.944 -0.915 -0.871 -0.926 -0.959 -0.898 -0.927 -0.928 -0.966 -0.894 -0.908 -0.96 -0.953 -0.926 -0.936 -0.954 -1 -0.988 -0.95 -0.977 -1.009 -0.983 -1.03 -0.994 -1.029 -1.022 -1.02 -0.987 -1.028 -1.036 -1.08 -1.027 -1.114 -1.112 -1.108 -1.151 -1.11 -1.165 -1.194 -1.238 -1.207 -1.232 -1.228 -1.27 -1.269 -1.294 -1.309 -1.287 -1.29 -1.337 -1.348 -1.342 -1.38 -1.359 -1.337 -1.375 -1.424 -1.431 -1.406 -1.412 -1.481 -1.494 -1.491 -1.494 -1.481 -1.521 -1.561 -1.554 -1.559 -1.593 -1.586 -1.63 -1.663 -1.666 -1.621 -1.587 -1.686 -1.684 -1.686 -1.638 -1.74 -1.755 -1.792 -1.765 -1.829 -1.807 -1.796 -1.81 -1.821 -1.835 -1.833 -1.775 -1.8 -1.788 -1.769 -1.769 -1.771 -1.753 -1.726 -1.678 -1.642 -1.607 -1.631 -1.648 -1.693 -1.719 -1.724 -1.73 -1.723 -1.725 -1.708 -1.68 -1.695 -1.694 -1.696 -1.694 -1.654 -1.644 -1.638 -1.634 -1.643 -1.641 -1.656 -1.681 -1.676 -1.673 -1.686 -1.707 -1.708 -1.706 -1.688 -1.713 -1.741 -1.722 -1.79 -1.78 -1.769 -1.806 -1.798 -1.793 -1.856 -1.832 -1.842 -1.866 -1.899 -1.856 -1.933 -1.951 -2.012 -1.989 -2.025 -1.952 -2.081 -2.048 -2.023 -2.029 -2.063 -2.07 -2.018 -2.029 -2.139 -2.061 -2.044 -2.094 -2.029 -2.019 -2.064 -2.026 -2.034 -2 -2.064 -2.017 -2.007 -2.031 -1.988 -2.017 -2.019 -1.974 -2.011 -2.087 -2.087 -2.011 -2.001 -2.014 -2.045 -2.102 -2.044 -2.013 -2.053 -2.012 -1.998 -2.017 -1.976 -2.01 -2.076 -2.053 -1.996 -2.038 -1.986 -2.087 -2.002
0.008 0.007 -0.008 0.002 0.006 0.047 0.028 -0.004 0.016 0.013 0.008 0.025 -0.008 -0.037 -0.043 -0.057 -0.061 -0.07 -0.079 -0.11 -0.126 -0.148 -0.13 -0.109 -0.07 -0.074 -0.057 -0.035 0.001 0.033 -0.004 0.085 0.056 0.09 0.11 0.108 0.125 0.115 0.168 0.241 0.354 0.463 0.471 0.486 0.369 0.275 0.216 0.153 0.091 0.026 0.025 -0.01 -0.053 -0.089 -0.084 -0.093 -0.113 -0.113 -0.098 -0.115 -0.104 -0.117 -0.137 -0.124 -0.146 -0.175 -0.136 -0.155 -0.141 -0.181 -0.165 -0.19 -0.194 -0.196 -0.192 -0.209 -0.19 -0.211 -0.156 -0.148 -0.204 -0.202 -0.216 -0.238 -0.173 -0.27 -0.288 -0.307 -0.279 -0.246 -0.273 -0.351 -0.432 -0.292 -0.339 -0.351 -0.357 -0.381 -0.368 -0.415 -0.391 -0.461 -0.471 -0.425 -0.508 -0.454 -0.537 -0.55 -0.555 -0.568 -0.537 -0.582 -0.582 -0.557 -0.565 -0.631 -0.538 -0.634 -0.659 -0.565 -0.687 -0.691 -0.633 -0.652 -0.649 -0.687 -0.714 -0.644 -0.72 -0.754 -0.739 -0.781 -0.703 -0.655 -0.583 -0.54 -0.514 -0.491 -0.522 -0.44 -0.499 -0.474 -0.476 -0.512 -0.483 -0.583 -0.566 -0.61 -0.591 -0.599 -0.57 -0.574 -0.629 -0.683 -0.655 -0.653 -0.615 -0.673 -0.743 -0.705 -0.741 -0.725 -0.746 -0.711 -0.789 -0.782 -0.794 -0.763 -0.789 -0.841 -0.816 -0.791 -0.822 -0.8 -0.826 -0.853 -0.809 -0.823 -0.846 -0.846 -0.849 -0.848 -0.848 -0.861 -0.872 -0.92 -0.916 -0.928 -0.948 -0.956 -0.964 -0.977 -0.978 -0.961 -0.972 -0.948 -0.951 -0.976 -0.915 -0.91 -0.967 -0.901 -0.935 -0.933 -1.022 -1.092 -0.974 -0.969 -0.942 -0.936 -0.915 -0.967 -0.932 -0.967 -0.903 -0.948 -0.941 -0.965 -0.944 -0.95 -1.009 -1.011 -0.958 -1.031 -1 -0.979 -1.038 -0.977 -0.935 -0.965 -0.982 -0.963 -0.964 -0.928 -0.896 -0.96 -0.917 -0.851 -0.94 -0.911 -0.887 -0.891 -0.893 -0.895 -0.92 -0.939 -0.905 -0.943 -0.916 -0.93 -0.937 -0.866 -0.983 -0.969 -0.923 -0.984 -0.983 -0.959 -0.97 -1.038 -0.979 -0.997 -1.005 -0.963 -0.998 -0.987 -0.986 -0.982 -1.008 -1.042 -1.024 -1.037 -1.017 -1.022 -1.021 -1.073 -1.03 -1.105 -1.121 -1.169 -1.124 -1.187 -1.209 -1.148 -1.153 -1.234 -1.173 -1.217 -1.272 -1.199 -1.235 -1.317 -1.296 -1.332 -1.327 -1.302 -1.316 -1.346 -1.412 -1.435 -1.419 -1.453 -1.426 -1.425 -1.403 -1.414 -1.421 -1.468 -1.435 -1.499 -1.412 -1.533 -1.552 -1.542 -1.566 -1.601 -1.624 -1.571 -1.61 -1.529 -1.63 -1.589 -1.605 -1.691 -1.69 -1.639 -1.697 -1.797 -1.725 -1.81 -1.813 -1.789 -1.822 -1.852 -1.863 -1.829 -1.822 -1.794 -1.805 -1.768 -1.755 -1.753 -1.74 -1.717 -1.688 -1.633 -1.64 -1.607 -1.636 -1.657 -1.699 -1.69 -1.679 -1.692 -1.666 -1.657 -1.64 -1.647 -1.665 -1.636 -1.643 -1.664 -1.638 -1.597 -1.642 -1.67 -1.669 -1.679 -1.673 -1.639 -1.652 -1.691 -1.691 -1.656 -1.655 -1.66 -1.677 -1.713 -1.749 -1.793 -1.77 -1.743 -1.774 -1.777 -1.771 -1.777 -1.825 -1.844 -1.83 -1.899 -1.903 -1.906 -1.958 -1.974 -2.09 -1.968 -1.986 -1.991 -1.992 -2.093 -2.055 -1.982 -2.02 -2.1 -2.006 -2.057 -2.024 -2.016 -2.062 -2.003 -2.055 -2.013 -2.037 -2.07 -2.018 -2.007 -2.015 -2.019 -2.054 -2.015 -2.136 -2.059 -2.037 -2.091 -2.049 -2.031 -2.049 -2.009 -2.047 -2.035 -2.031 -2.041 -2.063 -2.05 -2.05 -2.047 -2.049 -2.03 -2.035 -2.06 -2.073 -2.021 -2.005 -2.005 -2.01 -1.942
0.021 0.031 0.038 0.021 0.015 0.033 0.056 0.038 0.038 0.036 0.037 0.037 0.03 -0.015 -0.009 -0.037 -0.044 -0.072 -0.081 -0.088 -0.1 -0.13 -0.086 -0.064 -0.069 -0.027 0.002 0.039 0.073 0.053 0.043 0.085 0.159 0.048 0.169 0.157 0.18 0.264 0.312 0.435 0.464 0.532 0.354 0.293 0.228 0.196 0.124 0.103 0.057 0.017 -0.005 -0.01 -0.053 -0.116 -0.102 -0.114 -0.122 -0.112 -0.119 -0.113 -0.11 -0.122 -0.116 -0.123 -0.13 -0.139 -0.161 -0.144 -0.139 -0.115 -0.157 -0.161 -0.219 -0.197 -0.184 -0.228 -0.175 -0.201 -0.244 -0.186 -0.151 -0.197 -0.23 -0.174 -0.192 -0.209 -0.301 -0.3 -0.251 -0.304 -0.338 -0.387 -0.371 -0.35 -0.322 -0.366 -0.391 -0.396 -0.398 -0.367 -0.403 -0.485 -0.497 -0.482 -0.5 -0.501 -0.51 -0.545 -0.516 -0.545 -0.552 -0.606 -0.537 -0.575 -0.63 -0.617 -0.601 -0.626 -0.557 -0.563 -0.738 -0.586 -0.597 -0.618 -0.631 -0.651 -0.677 -0.674 -0.713 -0.628 -0.658 -0.707 -0.682 -0.682 -0.673 -0.585 -0.503 -0.51 -0.461 -0.458 -0.488 -0.457 -0.442 -0.53 -0.45 -0.53 -0.545 -0.581 -0.627 -0.621 -0.597 -0.607 -0.681 -0.66 -0.619 -0.64 -0.681 -0.691 -0.73 -0.679 -0.678 -0.677 -0.698 -0.722 -0.755 -0.771 -0.799 -0.777 -0.78 -0.803 -0.829 -0.796 -0.798 -0.815 -0.793 -0.828 -0.825 -0.832 -0.846 -0.913 -0.872 -0.855 -0.852 -0.858 -0.871 -0.872 -0.913 -0.926 -0.939 -0.941 -0.943 -0.923 -0.972 -0.965 -0.91 -0.943 -0.994 -0.997 -0.961 -0.987 -0.955 -0.947 -0.935 -0.947 -0.944 -1.01 -1.006 -1.001 -0.994 -0.947 -0.922 -1.003 -0.973 -0.958 -0.929 -0.951 -0.94 -0.964 -0.96 -0.945 -0.991 -1.007 -0.952 -0.995 -0.945 -0.95 -0.989 -1.039 -0.993 -0.939 -0.977 -0.968 -0.941 -0.949 -0.933 -0.944 -0.97 -0.864 -0.874 -0.935 -0.94 -0.904 -0.909 -0.879 -0.933 -0.9 -0.915 -0.911 -0.904 -0.869 -0.901 -0.948 -0.874 -0.918 -0.954 -0.941 -0.969 -0.913 -0.915 -0.949 -0.962 -1.055 -0.966 -0.986 -0.957 -0.96 -0.985 -1.009 -1.031 -0.98 -1.006 -1.037 -1.023 -1.024 -1.081 -1.013 -1.019 -1.038 -1.095 -1.045 -1.037 -1.142 -1.16 -1.185 -1.162 -1.143 -1.212 -1.194 -1.265 -1.223 -1.255 -1.279 -1.246 -1.272 -1.295 -1.311 -1.347 -1.342 -1.38 -1.425 -1.414 -1.325 -1.44 -1.46 -1.408 -1.365 -1.425 -1.384 -1.466 -1.513 -1.494 -1.481 -1.536 -1.552 -1.555 -1.584 -1.581 -1.62 -1.599 -1.569 -1.692 -1.691 -1.647 -1.655 -1.681 -1.635 -1.685 -1.744 -1.721 -1.749 -1.774 -1.836 -1.851 -1.808 -1.846 -1.838 -1.819 -1.78 -1.806 -1.773 -1.767 -1.727 -1.729 -1.732 -1.7 -1.648 -1.628 -1.587 -1.628 -1.68 -1.67 -1.683 -1.676 -1.679 -1.658 -1.634 -1.627 -1.619 -1.617 -1.617 -1.656 -1.67 -1.641 -1.635 -1.64 -1.642 -1.664 -1.642 -1.647 -1.599 -1.633 -1.673 -1.695 -1.665 -1.643 -1.658 -1.672 -1.689 -1.743 -1.734 -1.724 -1.739 -1.763 -1.739 -1.757 -1.782 -1.793 -1.793 -1.811 -1.865 -1.917 -1.881 -1.876 -1.892 -1.974 -1.963 -1.938 -1.97 -2.075 -1.981 -2.055 -2.058 -2.059 -1.998 -2.043 -2.077 -2.068 -2.03 -2.066 -2.006 -2.031 -2.056 -2.041 -2.005 -2.053 -2.052 -2.111 -1.951 -2.035 -2.017 -1.999 -1.987 -1.982 -2.021 -2.041 -2.054 -2.027 -1.955 -2.045 -2.053 -2.063 -2.021 -2.012 -2.045 -1.995 -2.029 -1.973 -2.02 -2.005 -2.046 -2.042 -2.008 -2.013 -1.987 -2.01 -2.013
0.029 0.026 0.045 0.031 0.094 0.073 0.059 0.074 0.067 0.039 0.054 0.033 0.041 0.004 0.005 -0.051 -0.029 -0.072 -0.051 -0.049 -0.092 -0.098 -0.093 -0.087 -0.053 0.01 -0.001 0.013 0.172 0.037 0.075 0.093 0.115 0.136 0.123 0.18 0.304 0.35 0.452 0.572 0.466 0.4 0.262 0.168 0.154 0.097 0.056 0.023 0.003 -0.022 -0.041 -0.06 -0.079 -0.107 -0.102 -0.1 -0.109 -0.111 -0.116 -0.103 -0.108 -0.123 -0.122 -0.088 -0.105 -0.101 -0.125 -0.1 -0.163 -0.182 -0.168 -0.187 -0.161 -0.189 -0.203 -0.184 -0.154 -0.251 -0.208 -0.17 -0.18 -0.179 -0.188 -0.255 -0.228 -0.2 -0.238 -0.272 -0.312 -0.308 -0.318 -0.3 -0.293 -0.336 -0.363 -0.38 -0.423 -0.426 -0.383 -0.399 -0.429 -0.445 -0.423 -0.455 -0.506 -0.472 -0.548 -0.548 -0.562 -0.494 -0.553 -0.567 -0.549 -0.598 -0.581 -0.631 -0.597 -0.554 -0.613 -0.655 -0.661 -0.605 -0.604 -0.692 -0.702 -0.615 -0.715 -0.712 -0.673 -0.673 -0.716 -0.72 -0.611 -0.708 -0.679 -0.642 -0.565 -0.555 -0.466 -0.409 -0.478 -0.474 -0.439 -0.518 -0.497 -0.479 -0.524 -0.558 -0.561 -0.557 -0.581 -0.601 -0.62 -0.613 -0.588 -0.614 -0.658 -0.655 -0.721 -0.663 -0.707 -0.679 -0.691 -0.736 -0.713 -0.737 -0.749 -0.768 -0.794 -0.817 -0.827 -0.839 -0.797 -0.823 -0.837 -0.842 -0.835 -0.839 -0.844 -0.869 -0.867 -0.876 -0.94 -0.88 -0.883 -0.884 -0.893 -0.901 -0.933 -0.926 -0.928 -0.913 -0.927 -0.978 -0.957 -0.949 -0.989 -0.952 -0.946 -0.945 -0.942 -0.939 -1 -0.943 -0.931 -0.885 -0.941 -0.942 -0.984 -0.982 -0.948 -0.944 -0.939 -0.909 -0.935 -0.928 -0.933 -0.932 -0.924 -0.968 -0.977 -0.963 -0.956 -1.002 -0.979 -0.953 -0.917 -1.034 -1.024 -1.01 -1.006 -0.98 -0.945 -0.939 -0.964 -0.965 -0.986 -0.915 -0.913 -0.927 -0.908 -0.902 -0.878 -0.865 -0.921 -0.902 -0.889 -0.894 -0.859 -0.889 -0.863 -0.927 -0.875 -0.925 -0.931 -0.931 -0.991 -0.974 -1.006 -0.972 -1.012 -1.01 -0.996 -1.003 -0.93 -0.971 -1.017 -0.982 -1.02 -1.009 -0.989 -1.035 -1.004 -0.985 -1.052 -1.061 -1.092 -1.061 -1.056 -0.988 -1.099 -1.138 -1.124 -1.157 -1.138 -1.136 -1.199 -1.221 -1.23 -1.225 -1.227 -1.254 -1.231 -1.27 -1.218 -1.24 -1.336 -1.343 -1.371 -1.371 -1.393 -1.387 -1.393 -1.423 -1.375 -1.401 -1.383 -1.454 -1.429 -1.465 -1.477 -1.545 -1.453 -1.528 -1.523 -1.556 -1.57 -1.512 -1.578 -1.57 -1.673 -1.696 -1.618 -1.591 -1.672 -1.648 -1.677 -1.68 -1.763 -1.695 -1.81 -1.819 -1.816 -1.813 -1.835 -1.845 -1.812 -1.741 -1.78 -1.813 -1.772 -1.764 -1.75 -1.726 -1.716 -1.675 -1.653 -1.631 -1.647 -1.625 -1.637 -1.645 -1.642 -1.645 -1.622 -1.599 -1.625 -1.639 -1.65 -1.669 -1.619 -1.679 -1.645 -1.632 -1.624 -1.614 -1.648 -1.624 -1.632 -1.621 -1.664 -1.674 -1.661 -1.641 -1.612 -1.65 -1.66 -1.687 -1.733 -1.723 -1.708 -1.683 -1.71 -1.708 -1.732 -1.747 -1.787 -1.801 -1.835 -1.842 -1.873 -1.914 -1.897 -1.899 -1.886 -1.956 -1.92 -1.953 -1.939 -1.974 -1.939 -1.972 -1.99 -2.076 -2.034 -1.985 -2.043 -2.042 -1.975 -2.016 -2.002 -2.071 -2.029 -2.151 -2.047 -2.021 -2.013 -1.984 -2.009 -2.045 -2.032 -1.945 -2.006 -2.031 -2.007 -2.041 -2.021 -2.016 -2.031 -2.023 -2.046 -2.055 -2.031 -2.073 -2.023 -1.964 -2.011 -2.014 -2.042 -2.031 -1.973 -2.123 -2.029 -2.012 -2.055 -2.025
0.033 0.032 0.037 0.042 0.066 0.094 0.079 0.075 0.066 0.061 0.077 0.05 0.037 0.022 -0.01 -0.031 -0.032 -0.037 -0.046 -0.053 -0.09 -0.104 -0.061 -0.019 -0.014 -0.007 0.03 0.103 0.099 0.165 0.116 0.127 0.182 0.195 0.251 0.279 0.414 0.531 0.512 0.388 0.288 0.186 0.127 0.132 0.079 0.018 -0.024 0.021 -0.027 -0.004 -0.029 -0.088 -0.105 -0.094 -0.091 -0.091 -0.097 -0.109 -0.103 -0.086 -0.105 -0.088 -0.111 -0.114 -0.103 -0.111 -0.118 -0.139 -0.159 -0.173 -0.171 -0.163 -0.164 -0.179 -0.2 -0.21 -0.222 -0.164 -0.198 -0.16 -0.181 -0.132 -0.131 -0.247 -0.241 -0.226 -0.234 -0.256 -0.242 -0.349 -0.371 -0.337 -0.31 -0.328 -0.376 -0.394 -0.382 -0.378 -0.381 -0.409 -0.362 -0.473 -0.495 -0.448 -0.375 -0.538 -0.513 -0.518 -0.496 -0.535 -0.542 -0.549 -0.563 -0.569 -0.595 -0.567 -0.578 -0.544 -0.629 -0.625 -0.553 -0.582 -0.619 -0.572 -0.64 -0.634 -0.669 -0.68 -0.709 -0.684 -0.658 -0.719 -0.657 -0.665 -0.648 -0.644 -0.589 -0.492 -0.498 -0.462 -0.447 -0.474 -0.459 -0.497 -0.501 -0.512 -0.554 -0.489 -0.536 -0.474 -0.558 -0.603 -0.576 -0.576 -0.624 -0.655 -0.631 -0.633 -0.71 -0.661 -0.699 -0.696 -0.658 -0.759 -0.67 -0.758 -0.799 -0.767 -0.77 -0.791 -0.802 -0.799 -0.811 -0.829 -0.81 -0.822 -0.855 -0.821 -0.86 -0.855 -0.876 -0.869 -0.918 -0.889 -0.883 -0.884 -0.889 -0.874 -0.872 -0.881 -0.893 -0.873 -0.925 -0.919 -0.96 -0.92 -0.978 -0.936 -0.924 -0.895 -0.925 -0.917 -0.945 -0.989 -0.907 -0.935 -0.908 -0.935 -0.952 -0.959 -0.939 -0.93 -0.938 -0.937 -0.953 -0.932 -0.923 -0.877 -0.907 -0.962 -0.943 -0.962 -0.917 -0.947 -0.96 -0.956 -0.994 -1.031 -1.03 -0.992 -0.978 -0.984 -0.966 -0.935 -0.906 -0.902 -0.929 -0.932 -0.926 -0.9 -0.888 -0.862 -0.875 -0.913 -0.889 -0.904 -0.887 -0.895 -0.914 -0.914 -0.898 -0.877 -0.869 -0.882 -0.902 -0.9 -0.933 -0.979 -0.965 -0.998 -0.906 -0.963 -1.033 -1.09 -0.978 -0.942 -0.978 -0.976 -0.987 -1.068 -1.018 -0.967 -0.983 -1.038 -1.026 -1.059 -1.056 -1.062 -1.056 -1.059 -1.077 -1.077 -1.133 -1.17 -1.181 -1.182 -1.17 -1.129 -1.209 -1.199 -1.219 -1.269 -1.273 -1.302 -1.355 -1.347 -1.307 -1.308 -1.384 -1.333 -1.386 -1.353 -1.389 -1.422 -1.389 -1.419 -1.442 -1.445 -1.488 -1.428 -1.454 -1.499 -1.439 -1.436 -1.471 -1.539 -1.591 -1.541 -1.568 -1.574 -1.691 -1.714 -1.633 -1.644 -1.669 -1.636 -1.705 -1.637 -1.7 -1.697 -1.773 -1.724 -1.788 -1.775 -1.788 -1.836 -1.802 -1.81 -1.816 -1.775 -1.769 -1.76 -1.761 -1.724 -1.713 -1.683 -1.687 -1.662 -1.66 -1.647 -1.607 -1.604 -1.609 -1.607 -1.644 -1.648 -1.642 -1.607 -1.615 -1.607 -1.602 -1.597 -1.636 -1.631 -1.641 -1.632 -1.645 -1.627 -1.65 -1.666 -1.679 -1.697 -1.653 -1.632 -1.642 -1.666 -1.68 -1.698 -1.751 -1.71 -1.678 -1.652 -1.672 -1.695 -1.747 -1.738 -1.767 -1.809 -1.818 -1.859 -1.833 -1.839 -1.843 -1.927 -1.886 -1.905 -1.916 -1.907 -1.895 -1.93 -1.996 -1.98 -2.011 -2.105 -2.033 -1.989 -2.007 -2.024 -2.048 -2.057 -2.013 -2.018 -2.077 -2.071 -2.008 -2.082 -2.068 -1.983 -2.033 -2.052 -2.031 -2 -2.048 -1.994 -2.001 -2.016 -2.051 -2.127 -2.013 -2.027 -2.043 -2.059 -2.062 -2.044 -2.09 -2.062 -2.006 -2.031 -2.068 -1.976 -2.038 -2.083 -2.026 -2.008 -2.042 -2.059
0.064 0.086 0.049 0.079 0.07 0.105 0.072 0.1 0.09 0.091 0.086 0.085 0.039 0.034 0.034 -0.01 -0.042 -0.046 -0.064 -0.073 -0.057 -0.058 -0.062 -0.001 0.013 0.024 0.102 0.072 0.13 0.179 0.179 0.15 0.191 0.218 0.263 0.472 0.558 0.513 0.374 0.235 0.183 0.111 0.056 0.071 -0.011 0.008 -0.025 -0.044 -0.049 -0.064 -0.095 -0.117 -0.103 -0.1 -0.097 -0.078 -0.091 -0.097 -0.084 -0.06 -0.078 -0.073 -0.074 -0.079 -0.075 -0.118 -0.146 -0.12 -0.125 -0.15 -0.193 -0.196 -0.169 -0.195 -0.201 -0.237 -0.207 -0.189 -0.14 -0.132 -0.133 -0.183 -0.163 -0.213 -0.208 -0.259 -0.234 -0.218 -0.3 -0.298 -0.307 -0.325 -0.269 -0.315 -0.345 -0.352 -0.364 -0.401 -0.427 -0.423 -0.418 -0.377 -0.424 -0.499 -0.456 -0.491 -0.481 -0.508 -0.577 -0.499 -0.477 -0.514 -0.537 -0.53 -0.561 -0.586 -0.559 -0.6 -0.608 -0.593 -0.594 -0.629 -0.61 -0.614 -0.555 -0.63 -0.637 -0.608 -0.66 -0.66 -0.641 -0.722 -0.686 -0.64 -0.596 -0.622 -0.556 -0.539 -0.459 -0.46 -0.432 -0.484 -0.451 -0.408 -0.446 -0.51 -0.481 -0.527 -0.549 -0.565 -0.571 -0.601 -0.561 -0.574 -0.663 -0.568 -0.636 -0.647 -0.669 -0.658 -0.649 -0.664 -0.74 -0.743 -0.722 -0.74 -0.782 -0.753 -0.761 -0.786 -0.771 -0.793 -0.772 -0.804 -0.792 -0.822 -0.842 -0.856 -0.854 -0.859 -0.875 -0.883 -0.874 -0.924 -0.937 -0.902 -0.883 -0.867 -0.89 -0.91 -0.9 -0.852 -0.862 -0.886 -0.862 -0.888 -0.939 -0.946 -0.923 -0.868 -0.85 -0.886 -0.911 -0.882 -0.89 -0.884 -0.875 -0.922 -0.882 -0.892 -0.892 -0.952 -0.991 -0.911 -0.972 -0.998 -0.962 -0.855 -0.944 -0.967 -0.952 -0.926 -0.924 -0.908 -1.013 -1.012 -1.004 -1.029 -0.974 -1 -1.027 -0.993 -0.931 -0.938 -0.882 -0.916 -0.937 -0.876 -0.892 -0.906 -0.901 -0.928 -0.897 -0.897 -0.916 -0.908 -0.879 -0.869 -0.918 -0.902 -0.894 -0.897 -0.866 -0.845 -0.923 -0.931 -0.976 -0.96 -0.915 -0.929 -0.91 -0.924 -0.985 -1.002 -0.951 -0.958 -0.941 -0.947 -1.004 -1.057 -0.987 -0.953 -0.974 -1.028 -1.052 -1.008 -1.051 -1.057 -1.02 -1.085 -1.072 -1.116 -1.128 -1.161 -1.131 -1.164 -1.174 -1.161 -1.208 -1.224 -1.233 -1.279 -1.196 -1.259 -1.296 -1.3 -1.352 -1.288 -1.412 -1.355 -1.333 -1.314 -1.393 -1.388 -1.345 -1.504 -1.476 -1.4 -1.48 -1.492 -1.438 -1.391 -1.454 -1.469 -1.483 -1.513 -1.499 -1.526 -1.543 -1.507 -1.619 -1.655 -1.704 -1.665 -1.651 -1.621 -1.645 -1.741 -1.695 -1.704 -1.802 -1.804 -1.789 -1.776 -1.78 -1.782 -1.829 -1.761 -1.79 -1.791 -1.786 -1.766 -1.738 -1.745 -1.755 -1.695 -1.713 -1.716 -1.689 -1.653 -1.602 -1.639 -1.617 -1.648 -1.652 -1.651 -1.631 -1.599 -1.604 -1.614 -1.612 -1.607 -1.602 -1.617 -1.602 -1.629 -1.622 -1.649 -1.638 -1.635 -1.655 -1.693 -1.635 -1.597 -1.651 -1.687 -1.687 -1.726 -1.715 -1.694 -1.667 -1.633 -1.648 -1.672 -1.702 -1.724 -1.791 -1.808 -1.794 -1.866 -1.835 -1.812 -1.815 -1.855 -1.845 -1.846 -1.895 -1.904 -1.946 -1.925 -1.925 -1.927 -1.979 -1.957 -2.011 -2.063 -2.027 -2.11 -2.091 -2.01 -2.01 -1.999 -2.002 -2.054 -2.031 -2.068 -2.103 -2.002 -2.036 -2.016 -2.046 -2.052 -2.021 -2.023 -2.026 -2.048 -1.988 -2.069 -2.006 -2.054 -2.031 -2.036 -2.01 -1.984 -2.06 -2.072 -2.016 -2.024 -2.044 -2.067 -2.019 -2.036 -2.041 -2.037 -2.026 -1.995
0.113 0.076 0.068 0.107 0.119 0.124 0.092 0.085 0.114 0.115 0.094 0.07 0.056 0.055 0.027 0.005 -0.033 -0.028 -0.059 -0.034 -0.026 -0.016 -0.041 0.051 0.082 0.078 0.136 0.222 0.131 0.179 0.157 0.274 0.227 0.312 0.475 0.548 0.427 0.349 0.234 0.204 0.107 0.075 0.018 -0.015 -0.057 0.03 -0.031 -0.072 -0.063 -0.077 -0.075 -0.098 -0.119 -0.1 -0.091 -0.089 -0.082 -0.071 -0.061 -0.065 -0.048 -0.064 -0.067 -0.056 -0.111 -0.12 -0.108 -0.1 -0.148 -0.123 -0.162 -0.184 -0.221 -0.175 -0.215 -0.181 -0.195 -0.196 -0.18 -0.164 -0.154 -0.142 -0.21 -0.158 -0.158 -0.204 -0.223 -0.298 -0.205 -0.224 -0.266 -0.292 -0.34 -0.332 -0.316 -0.365 -0.363 -0.382 -0.377 -0.342 -0.384 -0.407 -0.476 -0.474 -0.461 -0.501 -0.51 -0.479 -0.465 -0.516 -0.501 -0.457 -0.517 -0.506 -0.567 -0.537 -0.531 -0.578 -0.55 -0.549 -0.569 -0.565 -0.547 -0.539 -0.581 -0.583 -0.606 -0.64 -0.663 -0.631 -0.659 -0.633 -0.647 -0.667 -0.658 -0.647 -0.587 -0.579 -0.525 -0.435 -0.506 -0.474 -0.436 -0.505 -0.484 -0.472 -0.542 -0.479 -0.53 -0.542 -0.523 -0.538 -0.573 -0.522 -0.602 -0.6 -0.613 -0.589 -0.661 -0.615 -0.616 -0.626 -0.646 -0.645 -0.729 -0.72 -0.686 -0.707 -0.718 -0.749 -0.718 -0.742 -0.753 -0.793 -0.789 -0.835 -0.837 -0.786 -0.794 -0.81 -0.815 -0.895 -0.88 -0.877 -0.913 -0.919 -0.856 -0.866 -0.878 -0.935 -0.945 -0.903 -0.87 -0.873 -0.863 -0.888 -0.92 -0.932 -0.848 -0.904 -0.879 -0.885 -0.902 -0.904 -0.842 -0.887 -0.861 -0.841 -0.863 -0.842 -0.93 -0.898 -1.015 -0.961 -0.94 -0.926 -0.944 -0.983 -0.97 -0.918 -0.931 -0.891 -0.896 -0.951 -0.968 -0.974 -0.931 -0.958 -0.988 -0.908 -0.961 -0.947 -0.946 -0.947 -0.901 -0.894 -0.905 -0.9 -0.873 -0.868 -0.92 -0.894 -0.894 -0.876 -0.9 -0.901 -0.889 -0.878 -0.891 -0.893 -0.891 -0.843 -0.89 -0.842 -0.858 -0.91 -0.882 -0.854 -0.848 -0.895 -0.915 -0.956 -0.977 -0.992 -0.982 -0.985 -0.951 -1.013 -1.035 -0.975 -1.017 -0.966 -0.958 -1.002 -1.031 -0.975 -1.056 -1.06 -1.075 -1.071 -1.056 -1.094 -1.113 -1.119 -1.131 -1.159 -1.139 -1.189 -1.228 -1.189 -1.233 -1.182 -1.224 -1.23 -1.273 -1.226 -1.345 -1.307 -1.389 -1.388 -1.32 -1.307 -1.329 -1.35 -1.386 -1.442 -1.409 -1.449 -1.445 -1.469 -1.459 -1.441 -1.455 -1.48 -1.501 -1.478 -1.537 -1.476 -1.548 -1.537 -1.598 -1.597 -1.611 -1.628 -1.64 -1.65 -1.73 -1.701 -1.691 -1.756 -1.77 -1.757 -1.761 -1.861 -1.765 -1.777 -1.775 -1.767 -1.74 -1.76 -1.764 -1.776 -1.751 -1.766 -1.797 -1.733 -1.738 -1.707 -1.688 -1.662 -1.656 -1.627 -1.629 -1.626 -1.625 -1.638 -1.604 -1.592 -1.599 -1.599 -1.622 -1.607 -1.589 -1.607 -1.607 -1.622 -1.655 -1.657 -1.644 -1.624 -1.626 -1.663 -1.639 -1.619 -1.644 -1.668 -1.679 -1.727 -1.706 -1.657 -1.642 -1.597 -1.641 -1.667 -1.699 -1.734 -1.756 -1.812 -1.793 -1.775 -1.785 -1.795 -1.788 -1.785 -1.865 -1.903 -1.92 -1.913 -1.915 -1.884 -1.931 -1.923 -1.954 -2.061 -1.966 -1.979 -2.071 -2 -2.098 -2.049 -2.014 -2.061 -1.997 -2.011 -2.029 -2.016 -2.026 -2.022 -2.078 -2.01 -2.059 -2.023 -2.113 -2.008 -2.022 -1.985 -1.985 -2.014 -2.11 -2.007 -2.02 -1.965 -2.037 -1.991 -2.005 -2.104 -2.132 -2.068 -2.032 -2.087 -2.004 -1.993 -2.058 -2.017 -2.033 -2.031
0.125 0.081 0.068 0.071 0.09 0.114 0.132 0.104 0.096 0.095 0.112 0.062 0.065 0.059 0.047 0.034 0.011 -0.012 -0.042 0.012 -0.021 0.009 0.051 0.044 0.08 0.146 0.134 0.21 0.185 0.184 0.225 0.285 0.395 0.403 0.545 0.423 0.246 0.223 0.248 0.152 0.017 -0.006 -0.041 0.01 0.001 -0 -0.063 -0.072 -0.088 -0.123 -0.11 -0.098 -0.1 -0.085 -0.089 -0.094 -0.093 -0.084 -0.056 -0.05 -0.048 -0.064 -0.043 -0.048 -0.034 -0.087 -0.108 -0.108 -0.144 -0.166 -0.159 -0.172 -0.194 -0.174 -0.193 -0.176 -0.193 -0.182 -0.158 -0.123 -0.14 -0.128 -0.198 -0.177 -0.193 -0.175 -0.268 -0.234 -0.293 -0.264 -0.31 -0.296 -0.328 -0.374 -0.325 -0.34 -0.332 -0.383 -0.379 -0.4 -0.385 -0.418 -0.416 -0.49 -0.475 -0.505 -0.532 -0.48 -0.487 -0.41 -0.437 -0.427 -0.494 -0.451 -0.491 -0.511 -0.515 -0.527 -0.547 -0.512 -0.535 -0.477 -0.51 -0.559 -0.579 -0.603 -0.565 -0.539 -0.61 -0.639 -0.648 -0.63 -0.654 -0.648 -0.597 -0.649 -0.565 -0.477 -0.497 -0.421 -0.484 -0.458 -0.38 -0.486 -0.491 -0.487 -0.445 -0.473 -0.44 -0.546 -0.527 -0.527 -0.501 -0.531 -0.581 -0.607 -0.538 -0.619 -0.629 -0.632 -0.591 -0.624 -0.621 -0.676 -0.696 -0.707 -0.708 -0.723 -0.717 -0.68 -0.713 -0.762 -0.774 -0.79 -0.797 -0.807 -0.848 -0.76 -0.793 -0.803 -0.82 -0.832 -0.849 -0.861 -0.858 -0.893 -0.892 -0.866 -0.858 -0.852 -0.866 -0.854 -0.876 -0.866 -0.852 -0.878 -0.841 -0.907 -0.932 -0.911 -0.924 -0.83 -0.901 -0.921 -0.874 -0.885 -0.875 -0.876 -0.891 -0.836 -0.84 -0.905 -0.92 -0.921 -0.914 -0.944 -0.939 -0.929 -0.97 -0.911 -0.864 -0.893 -0.921 -0.893 -0.922 -0.93 -0.958 -0.986 -0.981 -0.961 -0.941 -0.95 -0.943 -0.993 -0.929 -0.894 -0.916 -0.86 -0.868 -0.896 -0.896 -0.871 -0.879 -0.875 -0.873 -0.891 -0.883 -0.878 -0.871 -0.847 -0.871 -0.876 -0.901 -0.907 -0.865 -0.905 -0.927 -0.922 -0.982 -0.936 -0.941 -0.937 -0.891 -0.913 -0.982 -0.98 -0.945 -0.934 -0.944 -1.004 -0.979 -0.967 -0.969 -0.936 -0.967 -0.991 -0.996 -1.046 -1.042 -1.049 -1.051 -1.074 -1.089 -1.087 -1.086 -1.1 -1.08 -1.159 -1.184 -1.163 -1.213 -1.233 -1.24 -1.223 -1.21 -1.285 -1.352 -1.349 -1.354 -1.321 -1.386 -1.278 -1.338 -1.374 -1.368 -1.385 -1.356 -1.36 -1.341 -1.389 -1.339 -1.403 -1.46 -1.449 -1.411 -1.448 -1.45 -1.484 -1.491 -1.546 -1.488 -1.54 -1.579 -1.577 -1.545 -1.625 -1.828 -1.658 -1.629 -1.742 -1.89 -1.737 -1.688 -1.786 -1.781 -1.818 -1.789 -1.784 -1.771 -1.765 -1.794 -1.755 -1.764 -1.767 -1.769 -1.748 -1.714 -1.73 -1.673 -1.632 -1.604 -1.614 -1.639 -1.617 -1.619 -1.64 -1.584 -1.582 -1.597 -1.594 -1.592 -1.587 -1.607 -1.599 -1.646 -1.653 -1.609 -1.634 -1.602 -1.632 -1.612 -1.642 -1.65 -1.636 -1.652 -1.674 -1.701 -1.693 -1.705 -1.682 -1.643 -1.646 -1.652 -1.689 -1.713 -1.733 -1.76 -1.794 -1.734 -1.736 -1.763 -1.763 -1.788 -1.797 -1.802 -1.844 -1.831 -1.835 -1.892 -1.854 -1.864 -1.985 -1.973 -1.976 -1.944 -1.974 -2.018 -2.077 -2.076 -2.085 -2.06 -2 -2.021 -2.004 -2.015 -2.077 -2.076 -2.029 -2.003 -2.037 -2.085 -2.087 -2.004 -2.039 -2.027 -2.051 -2.02 -2.014 -2.056 -2.06 -2.018 -2.036 -2.003 -2.07 -2.032 -1.994 -2.001 -2.063 -2.091 -2.032 -2.028 -2.059 -2.051 -2.036 -2.046 -2.072
0.119 0.14 0.117 0.065 0.146 0.078 0.116 0.085 0.098 0.08 0.096 0.073 0.073 0.075 0.103 0.056 0.04 0.027 0.026 0.023 0.063 0.081 0.063 0.088 0.135 0.113 0.161 0.237 0.182 0.196 0.295 0.371 0.474 0.486 0.331 0.249 0.255 0.165 0.092 0.052 0.008 -0.011 -0.058 -0.025 -0.045 -0.074 -0.083 -0.112 -0.078 -0.113 -0.114 -0.132 -0.103 -0.092 -0.081 -0.071 -0.072 -0.068 -0.064 -0.081 -0.042 -0.052 -0.059 -0.074 -0.073 -0.072 -0.08 -0.094 -0.087 -0.141 -0.142 -0.177 -0.202 -0.189 -0.208 -0.169 -0.197 -0.187 -0.184 -0.179 -0.137 -0.117 -0.201 -0.208 -0.198 -0.236 -0.239 -0.227 -0.22 -0.267 -0.275 -0.248 -0.262 -0.31 -0.264 -0.355 -0.353 -0.38 -0.356 -0.363 -0.367 -0.376 -0.429 -0.468 -0.473 -0.455 -0.472 -0.402 -0.43 -0.409 -0.474 -0.427 -0.445 -0.487 -0.473 -0.477 -0.485 -0.499 -0.523 -0.531 -0.507 -0.532 -0.505 -0.508 -0.481 -0.556 -0.549 -0.558 -0.623 -0.616 -0.568 -0.619 -0.572 -0.591 -0.589 -0.544 -0.516 -0.503 -0.481 -0.468 -0.45 -0.423 -0.472 -0.458 -0.499 -0.472 -0.491 -0.448 -0.472 -0.509 -0.545 -0.537 -0.531 -0.568 -0.504 -0.556 -0.517 -0.552 -0.593 -0.604 -0.565 -0.597 -0.647 -0.616 -0.636 -0.667 -0.673 -0.719 -0.694 -0.678 -0.73 -0.728 -0.736 -0.781 -0.799 -0.785 -0.794 -0.771 -0.761 -0.798 -0.781 -0.792 -0.812 -0.851 -0.861 -0.837 -0.841 -0.868 -0.87 -0.86 -0.778 -0.818 -0.849 -0.9 -0.877 -0.804 -0.849 -0.87 -0.852 -0.89 -0.846 -0.86 -0.794 -0.835 -0.862 -0.795 -0.897 -0.849 -0.819 -0.844 -0.848 -0.855 -0.928 -0.893 -0.894 -0.952 -0.896 -0.875 -0.898 -0.856 -0.915 -0.861 -0.885 -0.942 -0.902 -0.941 -0.968 -0.965 -0.967 -0.921 -0.966 -0.954 -0.899 -0.989 -0.941 -0.899 -0.92 -0.884 -0.889 -0.874 -0.867 -0.856 -0.865 -0.858 -0.884 -0.887 -0.879 -0.874 -0.872 -0.884 -0.875 -0.899 -0.863 -0.9 -0.917 -0.92 -0.927 -0.889 -0.95 -0.927 -0.959 -0.949 -0.948 -0.981 -0.959 -0.921 -0.946 -0.941 -0.905 -0.926 -0.928 -1.02 -0.95 -1.002 -1.02 -1.03 -1.001 -1.052 -1.034 -1.008 -1.057 -1.055 -1.12 -1.068 -1.127 -1.1 -1.136 -1.181 -1.169 -1.205 -1.195 -1.232 -1.185 -1.224 -1.231 -1.242 -1.275 -1.318 -1.326 -1.286 -1.309 -1.355 -1.364 -1.334 -1.355 -1.393 -1.331 -1.373 -1.308 -1.377 -1.45 -1.441 -1.448 -1.488 -1.483 -1.466 -1.486 -1.528 -1.475 -1.511 -1.533 -1.512 -1.51 -1.55 -1.486 -1.588 -1.664 -1.646 -1.556 -1.679 -1.862 -1.735 -1.649 -1.74 -1.705 -1.735 -1.734 -1.77 -1.825 -1.766 -1.79 -1.77 -1.792 -1.768 -1.78 -1.736 -1.719 -1.697 -1.685 -1.649 -1.614 -1.612 -1.659 -1.628 -1.634 -1.612 -1.614 -1.599 -1.602 -1.582 -1.584 -1.599 -1.614 -1.624 -1.604 -1.582 -1.597 -1.622 -1.632 -1.602 -1.612 -1.622 -1.636 -1.647 -1.678 -1.699 -1.681 -1.672 -1.658 -1.682 -1.665 -1.645 -1.638 -1.673 -1.704 -1.715 -1.765 -1.741 -1.715 -1.713 -1.725 -1.739 -1.771 -1.783 -1.797 -1.828 -1.814 -1.864 -1.836 -1.876 -1.914 -1.86 -1.931 -1.941 -2.003 -1.996 -1.988 -2.004 -2.006 -2.023 -2.087 -2.054 -2.042 -2.039 -2.015 -2.03 -2.074 -2.053 -2.02 -2.051 -2.005 -2.039 -2.069 -2.081 -2.023 -2.033 -2.023 -2.031 -2.061 -2.082 -2.046 -2.007 -2.102 -2.009 -2.054 -2.032 -2.002 -1.977 -2.062 -1.992 -2.025 -2.046 -2.029 -2.04 -2.041 -2.079
0.158 0.118 0.125 0.072 0.108 0.133 0.124 0.113 0.146 0.139 0.106 0.109 0.085 0.085 0.098 0.075 0.057 0.046 0.021 0.033 0.035 0.075 0.092 0.084 0.12 0.181 0.177 0.225 0.264 0.293 0.403 0.561 0.532 0.41 0.233 0.139 0.105 0.044 0.089 0.017 -0.001 -0.029 -0.057 -0.042 -0.071 -0.091 -0.123 -0.117 -0.13 -0.14 -0.127 -0.114 -0.084 -0.076 -0.082 -0.082 -0.041 -0.061 -0.048 -0.042 -0.049 -0.036 -0.071 -0.043 -0.076 -0.061 -0.105 -0.062 -0.111 -0.121 -0.15 -0.191 -0.2 -0.183 -0.224 -0.248 -0.221 -0.223 -0.175 -0.18 -0.153 -0.138 -0.192 -0.173 -0.17 -0.218 -0.165 -0.21 -0.279 -0.28 -0.298 -0.322 -0.298 -0.304 -0.368 -0.35 -0.377 -0.364 -0.337 -0.387 -0.405 -0.344 -0.386 -0.411 -0.456 -0.456 -0.481 -0.43 -0.462 -0.461 -0.404 -0.432 -0.484 -0.445 -0.473 -0.516 -0.506 -0.477 -0.496 -0.49 -0.484 -0.493 -0.476 -0.484 -0.542 -0.464 -0.531 -0.555 -0.528 -0.549 -0.539 -0.595 -0.584 -0.524 -0.619 -0.557 -0.573 -0.515 -0.503 -0.464 -0.476 -0.427 -0.48 -0.455 -0.494 -0.467 -0.485 -0.444 -0.501 -0.432 -0.505 -0.477 -0.556 -0.513 -0.566 -0.588 -0.562 -0.534 -0.543 -0.635 -0.58 -0.628 -0.633 -0.612 -0.58 -0.664 -0.676 -0.678 -0.729 -0.717 -0.647 -0.693 -0.696 -0.749 -0.715 -0.743 -0.736 -0.779 -0.749 -0.77 -0.786 -0.756 -0.79 -0.794 -0.809 -0.834 -0.868 -0.89 -0.876 -0.845 -0.833 -0.862 -0.833 -0.826 -0.844 -0.842 -0.817 -0.877 -0.857 -0.84 -0.829 -0.84 -0.823 -0.892 -0.865 -0.836 -0.857 -0.846 -0.86 -0.818 -0.845 -0.866 -0.899 -0.844 -0.873 -0.862 -0.888 -0.882 -0.819 -0.813 -0.87 -0.851 -0.85 -0.861 -0.84 -0.876 -0.875 -0.929 -0.881 -0.885 -0.885 -0.858 -0.846 -0.9 -0.911 -0.888 -0.915 -0.866 -0.869 -0.885 -0.882 -0.89 -0.846 -0.879 -0.884 -0.88 -0.895 -0.88 -0.864 -0.862 -0.887 -0.862 -0.886 -0.903 -0.916 -0.913 -0.926 -0.905 -0.929 -0.894 -0.938 -0.978 -0.958 -0.943 -0.98 -0.945 -1.02 -0.975 -0.968 -0.911 -0.922 -0.978 -0.944 -0.959 -0.97 -0.998 -0.986 -1.003 -0.982 -1.071 -1.089 -1.102 -1.09 -1.083 -1.079 -1.109 -1.071 -1.159 -1.171 -1.163 -1.233 -1.209 -1.183 -1.23 -1.256 -1.271 -1.24 -1.279 -1.313 -1.251 -1.265 -1.295 -1.268 -1.34 -1.343 -1.413 -1.366 -1.351 -1.441 -1.527 -1.361 -1.407 -1.495 -1.479 -1.457 -1.445 -1.475 -1.453 -1.503 -1.505 -1.45 -1.458 -1.532 -1.5 -1.506 -1.532 -1.584 -1.624 -1.569 -1.656 -1.661 -1.718 -1.65 -1.71 -1.785 -1.739 -1.743 -1.75 -1.829 -1.758 -1.768 -1.75 -1.781 -1.75 -1.743 -1.716 -1.704 -1.692 -1.691 -1.652 -1.64 -1.66 -1.67 -1.638 -1.614 -1.614 -1.602 -1.634 -1.609 -1.609 -1.592 -1.604 -1.636 -1.619 -1.607 -1.617 -1.617 -1.624 -1.574 -1.584 -1.594 -1.609 -1.589 -1.642 -1.648 -1.655 -1.654 -1.644 -1.652 -1.636 -1.646 -1.614 -1.648 -1.662 -1.714 -1.734 -1.757 -1.735 -1.704 -1.702 -1.707 -1.721 -1.736 -1.782 -1.782 -1.777 -1.776 -1.826 -1.841 -1.849 -1.882 -1.882 -1.928 -1.916 -1.922 -2 -2.04 -1.984 -1.991 -2.06 -2.034 -2.047 -2.046 -2.02 -2.069 -2.016 -2.001 -2.072 -2.074 -2.076 -2.069 -2.028 -1.994 -2.012 -1.998 -2.036 -1.998 -2.062 -2.038 -2.028 -2.013 -2.021 -2.016 -2.04 -2.017 -1.995 -2.041 -2.066 -2.077 -2.045 -2.07 -2.042 -2.078 -1.987 -2.038 -2.018
0.171 0.121 0.113 0.11 0.114 0.105 0.165 0.161 0.177 0.134 0.187 0.157 0.118 0.138 0.122 0.137 0.118 0.096 0.065 0.043 0.11 0.103 0.153 0.131 0.216 0.207 0.221 0.196 0.23 0.422 0.562 0.483 0.322 0.273 0.129 0.124 0.034 0.011 0.106 0.024 0 -0.085 -0.065 -0.082 -0.067 -0.059 -0.099 -0.098 -0.101 -0.123 -0.124 -0.105 -0.083 -0.083 -0.07 -0.075 -0.046 -0.053 -0.015 -0.058 -0.069 -0.024 -0.076 -0.096 -0.03 -0.064 -0.065 -0.04 -0.08 -0.092 -0.149 -0.174 -0.179 -0.165 -0.192 -0.211 -0.282 -0.191 -0.149 -0.128 -0.133 -0.181 -0.128 -0.155 -0.2 -0.263 -0.165 -0.236 -0.261 -0.268 -0.302 -0.274 -0.297 -0.28 -0.297 -0.32 -0.365 -0.355 -0.351 -0.368 -0.393 -0.379 -0.368 -0.421 -0.41 -0.42 -0.438 -0.407 -0.384 -0.414 -0.423 -0.442 -0.419 -0.441 -0.431 -0.496 -0.52 -0.484 -0.496 -0.475 -0.486 -0.476 -0.487 -0.496 -0.494 -0.472 -0.491 -0.522 -0.484 -0.514 -0.54 -0.542 -0.53 -0.515 -0.535 -0.577 -0.535 -0.495 -0.457 -0.445 -0.457 -0.489 -0.437 -0.454 -0.474 -0.391 -0.487 -0.443 -0.486 -0.436 -0.476 -0.546 -0.492 -0.488 -0.516 -0.548 -0.553 -0.567 -0.546 -0.553 -0.601 -0.606 -0.602 -0.558 -0.626 -0.665 -0.562 -0.653 -0.68 -0.685 -0.735 -0.738 -0.71 -0.687 -0.781 -0.748 -0.734 -0.82 -0.805 -0.761 -0.784 -0.766 -0.776 -0.761 -0.828 -0.851 -0.81 -0.801 -0.824 -0.86 -0.835 -0.775 -0.786 -0.811 -0.876 -0.834 -0.81 -0.8 -0.835 -0.832 -0.753 -0.828 -0.815 -0.85 -0.83 -0.858 -0.836 -0.919 -0.834 -0.863 -0.888 -0.871 -0.822 -0.858 -0.824 -0.925 -0.889 -0.846 -0.813 -0.821 -0.852 -0.892 -0.875 -0.861 -0.864 -0.845 -0.847 -0.833 -0.871 -0.897 -0.939 -0.875 -0.904 -0.872 -0.913 -0.898 -0.953 -0.889 -0.882 -0.874 -0.862 -0.892 -0.91 -0.894 -0.866 -0.881 -0.883 -0.899 -0.873 -0.846 -0.864 -0.864 -0.836 -0.871 -0.881 -0.905 -0.892 -0.846 -0.862 -0.849 -0.91 -0.872 -0.95 -0.935 -0.954 -0.985 -1.022 -0.94 -0.96 -0.959 -0.973 -0.93 -0.895 -0.997 -0.973 -1.002 -1.021 -1.027 -1.028 -1.054 -1.035 -1.086 -1.051 -1.095 -1.076 -1.122 -1.079 -1.135 -1.136 -1.153 -1.206 -1.205 -1.179 -1.231 -1.262 -1.241 -1.246 -1.291 -1.268 -1.222 -1.205 -1.276 -1.286 -1.296 -1.332 -1.399 -1.38 -1.355 -1.378 -1.389 -1.409 -1.398 -1.461 -1.41 -1.386 -1.394 -1.474 -1.477 -1.492 -1.499 -1.482 -1.51 -1.58 -1.538 -1.508 -1.583 -1.61 -1.593 -1.599 -1.628 -1.626 -1.679 -1.75 -1.706 -1.781 -1.769 -1.759 -1.803 -1.763 -1.77 -1.766 -1.718 -1.771 -1.776 -1.747 -1.742 -1.744 -1.713 -1.692 -1.683 -1.667 -1.677 -1.688 -1.651 -1.602 -1.617 -1.612 -1.622 -1.602 -1.592 -1.579 -1.599 -1.604 -1.647 -1.637 -1.639 -1.622 -1.617 -1.582 -1.614 -1.614 -1.647 -1.614 -1.592 -1.594 -1.619 -1.661 -1.617 -1.622 -1.641 -1.609 -1.644 -1.674 -1.677 -1.682 -1.694 -1.698 -1.681 -1.679 -1.689 -1.675 -1.683 -1.731 -1.76 -1.769 -1.778 -1.734 -1.806 -1.768 -1.829 -1.842 -1.871 -1.886 -1.93 -1.911 -1.958 -1.955 -1.95 -1.955 -2.016 -2.006 -2.046 -2.041 -1.991 -1.992 -2.102 -1.99 -2.065 -2.104 -2.074 -2.065 -2.066 -1.996 -2.066 -2.019 -2.077 -2.012 -2.057 -1.997 -2.06 -2.002 -1.996 -2.02 -2.077 -2.035 -2.015 -2.031 -2.049 -2.028 -2.041 -2.105 -2.01 -2.05 -2.03 -2.009 -2.003
0.153 0.149 0.143 0.116 0.16 0.142 0.138 0.192 0.146 0.152 0.157 0.183 0.094 0.129 0.09 0.121 0.087 0.084 0.12 0.09 0.156 0.142 0.199 0.209 0.227 0.206 0.242 0.221 0.217 0.333 0.447 0.309 0.194 0.133 0.121 0.101 0.046 -0.035 -0.004 -0.024 -0.037 -0.12 -0.082 -0.064 -0.059 -0.076 -0.102 -0.1 -0.107 -0.083 -0.119 -0.103 -0.08 -0.081 -0.056 -0.042 -0.031 -0.032 -0.035 -0.026 -0.05 -0.037 -0.039 -0.06 -0.039 -0.039 -0.067 -0.07 -0.055 -0.12 -0.12 -0.168 -0.193 -0.142 -0.2 -0.242 -0.211 -0.206 -0.144 -0.192 -0.147 -0.132 -0.175 -0.198 -0.17 -0.25 -0.258 -0.261 -0.282 -0.205 -0.299 -0.292 -0.299 -0.306 -0.296 -0.381 -0.333 -0.284 -0.32 -0.343 -0.35 -0.352 -0.419 -0.427 -0.389 -0.402 -0.426 -0.444 -0.418 -0.455 -0.381 -0.402 -0.415 -0.465 -0.432 -0.433 -0.464 -0.461 -0.447 -0.453 -0.479 -0.464 -0.461 -0.427 -0.487 -0.463 -0.494 -0.496 -0.483 -0.522 -0.504 -0.54 -0.514 -0.51 -0.548 -0.517 -0.593 -0.525 -0.484 -0.47 -0.487 -0.44 -0.473 -0.412 -0.458 -0.441 -0.387 -0.468 -0.486 -0.54 -0.461 -0.501 -0.485 -0.473 -0.544 -0.554 -0.557 -0.513 -0.511 -0.531 -0.558 -0.563 -0.577 -0.527 -0.614 -0.605 -0.627 -0.627 -0.61 -0.631 -0.641 -0.73 -0.716 -0.818 -0.775 -0.717 -0.74 -0.761 -0.791 -0.76 -0.755 -0.777 -0.733 -0.747 -0.771 -0.846 -0.792 -0.784 -0.854 -0.837 -0.772 -0.87 -0.801 -0.801 -0.817 -0.854 -0.793 -0.825 -0.806 -0.818 -0.798 -0.769 -0.815 -0.763 -0.82 -0.784 -0.739 -0.834 -0.809 -0.901 -0.875 -0.79 -0.798 -0.847 -0.801 -0.871 -0.835 -0.844 -0.815 -0.808 -0.862 -0.913 -0.869 -0.831 -0.845 -0.899 -0.836 -0.835 -0.851 -0.883 -0.893 -0.885 -0.878 -0.898 -0.876 -0.887 -0.905 -0.881 -0.857 -0.858 -0.869 -0.879 -0.894 -0.894 -0.885 -0.865 -0.868 -0.883 -0.846 -0.84 -0.847 -0.847 -0.823 -0.854 -0.837 -0.87 -0.841 -0.921 -0.906 -0.901 -0.921 -0.927 -0.912 -0.94 -0.97 -0.981 -0.982 -0.971 -0.961 -0.95 -0.982 -0.986 -1.014 -0.949 -1.019 -0.98 -1.03 -0.984 -0.973 -1.027 -1.031 -1.022 -1.122 -1.094 -1.078 -1.089 -1.097 -1.145 -1.126 -1.141 -1.155 -1.21 -1.238 -1.186 -1.261 -1.245 -1.206 -1.274 -1.219 -1.229 -1.235 -1.255 -1.238 -1.319 -1.33 -1.282 -1.33 -1.379 -1.346 -1.368 -1.37 -1.328 -1.358 -1.436 -1.412 -1.377 -1.446 -1.476 -1.463 -1.459 -1.525 -1.514 -1.55 -1.527 -1.558 -1.537 -1.624 -1.662 -1.585 -1.626 -1.636 -1.586 -1.684 -1.675 -1.731 -1.803 -1.666 -1.758 -1.78 -1.759 -1.831 -1.764 -1.759 -1.774 -1.741 -1.728 -1.712 -1.723 -1.709 -1.719 -1.716 -1.7 -1.676 -1.667 -1.654 -1.622 -1.609 -1.614 -1.667 -1.587 -1.599 -1.584 -1.589 -1.602 -1.594 -1.612 -1.629 -1.612 -1.604 -1.579 -1.639 -1.652 -1.633 -1.582 -1.597 -1.633 -1.638 -1.634 -1.599 -1.607 -1.604 -1.622 -1.654 -1.648 -1.637 -1.683 -1.679 -1.686 -1.647 -1.643 -1.668 -1.681 -1.702 -1.708 -1.73 -1.718 -1.739 -1.735 -1.785 -1.86 -1.837 -1.817 -1.863 -1.905 -1.906 -1.902 -1.932 -1.963 -1.997 -2.127 -1.983 -2.013 -2.142 -2.046 -1.994 -2.031 -1.989 -2.031 -2.063 -2.006 -2.073 -2.055 -2.064 -2.001 -2.096 -2.024 -2.053 -2.051 -2.017 -2.017 -2.006 -2.032 -2.005 -2.029 -2.056 -2.012 -2.081 -2.029 -2.068 -2.049 -2.04 -2.025 -2.035 -2.001 -2.04 -2.009
0.162 0.16 0.19 0.176 0.206 0.173 0.148 0.126 0.172 0.126 0.137 0.156 0.091 0.081 0.109 0.119 0.127 0.122 0.118 0.158 0.178 0.206 0.233 0.266 0.298 0.268 0.242 0.208 0.206 0.21 0.234 0.192 0.19 0.118 0.112 0.083 0.1 0.006 0.061 -0.069 -0.094 -0.094 -0.093 -0.075 -0.08 -0.125 -0.132 -0.119 -0.093 -0.094 -0.116 -0.093 -0.081 -0.072 -0.063 -0.031 -0.042 -0.03 -0.032 -0.033 -0.046 -0.032 -0.06 -0.032 -0.031 -0.048 -0.049 -0.086 -0.06 -0.097 -0.089 -0.139 -0.154 -0.182 -0.177 -0.223 -0.21 -0.219 -0.211 -0.209 -0.15 -0.138 -0.179 -0.186 -0.134 -0.209 -0.202 -0.221 -0.217 -0.275 -0.265 -0.273 -0.274 -0.302 -0.359 -0.283 -0.293 -0.378 -0.386 -0.385 -0.415 -0.407 -0.457 -0.377 -0.421 -0.385 -0.384 -0.399 -0.403 -0.393 -0.382 -0.369 -0.413 -0.425 -0.431 -0.396 -0.426 -0.411 -0.428 -0.465 -0.438 -0.44 -0.44 -0.441 -0.495 -0.472 -0.509 -0.501 -0.526 -0.499 -0.514 -0.53 -0.519 -0.534 -0.541 -0.488 -0.55 -0.456 -0.505 -0.507 -0.431 -0.443 -0.459 -0.373 -0.395 -0.439 -0.415 -0.493 -0.471 -0.474 -0.475 -0.492 -0.513 -0.477 -0.475 -0.503 -0.463 -0.487 -0.52 -0.489 -0.498 -0.578 -0.529 -0.559 -0.565 -0.614 -0.613 -0.602 -0.619 -0.618 -0.628 -0.671 -0.688 -0.741 -0.683 -0.732 -0.774 -0.743 -0.765 -0.905 -0.799 -0.753 -0.705 -0.746 -0.782 -0.728 -0.764 -0.826 -0.835 -0.839 -0.825 -0.827 -0.806 -0.821 -0.814 -0.806 -0.764 -0.71 -0.774 -0.684 -0.772 -0.778 -0.742 -0.793 -0.77 -0.767 -0.818 -0.839 -0.819 -0.804 -0.842 -0.826 -0.801 -0.882 -0.778 -0.788 -0.821 -0.812 -0.824 -0.861 -0.833 -0.8 -0.862 -0.833 -0.868 -0.869 -0.851 -0.85 -0.856 -0.871 -0.911 -0.868 -0.89 -0.853 -0.896 -0.89 -0.867 -0.871 -0.829 -0.855 -0.861 -0.86 -0.879 -0.889 -0.9 -0.879 -0.843 -0.854 -0.852 -0.85 -0.856 -0.864 -0.846 -0.864 -0.857 -0.897 -0.866 -0.874 -0.912 -0.901 -0.909 -0.9 -0.917 -0.926 -0.89 -0.907 -0.958 -0.946 -0.911 -0.949 -0.949 -0.924 -0.953 -0.995 -0.959 -0.982 -0.984 -1.007 -1.011 -1.008 -1.027 -1.038 -1.05 -1.085 -1.113 -1.087 -1.114 -1.077 -1.122 -1.139 -1.164 -1.18 -1.157 -1.173 -1.192 -1.243 -1.257 -1.247 -1.244 -1.26 -1.246 -1.295 -1.239 -1.332 -1.285 -1.27 -1.365 -1.367 -1.313 -1.351 -1.361 -1.342 -1.308 -1.332 -1.343 -1.422 -1.431 -1.437 -1.408 -1.437 -1.458 -1.444 -1.456 -1.548 -1.533 -1.548 -1.584 -1.64 -1.601 -1.605 -1.604 -1.622 -1.682 -1.702 -1.71 -1.773 -1.776 -1.724 -1.703 -1.713 -1.721 -1.777 -1.743 -1.746 -1.744 -1.722 -1.729 -1.718 -1.698 -1.71 -1.733 -1.708 -1.724 -1.681 -1.649 -1.619 -1.609 -1.649 -1.659 -1.609 -1.612 -1.617 -1.599 -1.569 -1.579 -1.656 -1.609 -1.614 -1.624 -1.627 -1.632 -1.666 -1.651 -1.614 -1.64 -1.638 -1.592 -1.602 -1.577 -1.602 -1.612 -1.604 -1.661 -1.609 -1.621 -1.646 -1.617 -1.639 -1.63 -1.612 -1.652 -1.664 -1.724 -1.718 -1.685 -1.71 -1.723 -1.707 -1.775 -1.773 -1.775 -1.872 -1.893 -1.871 -1.868 -1.888 -1.922 -1.934 -1.934 -1.969 -1.998 -1.983 -1.998 -2.036 -2.093 -2.065 -1.996 -2.032 -2.027 -2.021 -2.05 -2.064 -1.964 -2.036 -2.032 -2.023 -2.074 -1.991 -2.062 -2.046 -2.012 -2.036 -1.991 -2.019 -2.117 -2 -2.074 -2.061 -2.039 -2.044 -2.023 -2.023 -2.061 -2.023 -2.023 -2.017
0.183 0.103 0.145 0.118 0.131 0.145 0.108 0.126 0.125 0.126 0.141 0.104 0.118 0.134 0.133 0.146 0.166 0.138 0.129 0.235 0.208 0.228 0.257 0.282 0.275 0.31 0.302 0.251 0.24 0.21 0.186 0.194 0.131 0.073 0.053 0.151 0.091 -0.014 0.024 -0.085 -0.108 -0.031 -0.11 -0.116 -0.069 -0.095 -0.101 -0.077 -0.063 -0.089 -0.109 -0.109 -0.068 -0.053 -0.064 -0.022 -0.031 -0.051 -0.038 -0.028 -0.019 -0.048 -0.037 -0.043 -0.058 -0.033 -0.052 -0.052 -0.074 -0.082 -0.117 -0.152 -0.183 -0.216 -0.221 -0.205 -0.207 -0.187 -0.18 -0.196 -0.124 -0.146 -0.189 -0.124 -0.139 -0.18 -0.188 -0.218 -0.268 -0.245 -0.262 -0.303 -0.314 -0.339 -0.296 -0.306 -0.335 -0.328 -0.366 -0.39 -0.417 -0.398 -0.426 -0.418 -0.401 -0.392 -0.428 -0.345 -0.365 -0.354 -0.367 -0.342 -0.355 -0.41 -0.409 -0.397 -0.431 -0.42 -0.429 -0.428 -0.413 -0.439 -0.443 -0.444 -0.457 -0.468 -0.465 -0.463 -0.516 -0.495 -0.422 -0.465 -0.47 -0.513 -0.509 -0.476 -0.461 -0.513 -0.479 -0.511 -0.463 -0.457 -0.452 -0.4 -0.454 -0.463 -0.409 -0.41 -0.392 -0.45 -0.39 -0.368 -0.499 -0.5 -0.523 -0.479 -0.461 -0.54 -0.468 -0.5 -0.543 -0.571 -0.556 -0.56 -0.581 -0.631 -0.621 -0.597 -0.575 -0.597 -0.592 -0.614 -0.657 -0.641 -0.714 -0.729 -0.737 -0.747 -0.745 -0.762 -0.694 -0.753 -0.751 -0.742 -0.728 -0.784 -0.786 -0.835 -0.72 -0.762 -0.804 -0.806 -0.805 -0.82 -0.814 -0.837 -0.817 -0.756 -0.8 -0.736 -0.776 -0.722 -0.788 -0.807 -0.779 -0.751 -0.76 -0.806 -0.815 -0.763 -0.791 -0.808 -0.788 -0.785 -0.786 -0.785 -0.82 -0.747 -0.827 -0.861 -0.842 -0.796 -0.785 -0.811 -0.853 -0.846 -0.828 -0.834 -0.83 -0.778 -0.849 -0.916 -0.882 -0.824 -0.848 -0.861 -0.867 -0.836 -0.821 -0.88 -0.88 -0.862 -0.879 -0.873 -0.858 -0.787 -0.788 -0.85 -0.856 -0.864 -0.836 -0.863 -0.868 -0.866 -0.844 -0.85 -0.843 -0.873 -0.871 -0.832 -0.859 -0.897 -0.908 -0.906 -0.91 -0.909 -0.942 -0.911 -0.956 -0.916 -0.975 -0.973 -0.989 -0.956 -0.999 -1.035 -0.978 -0.964 -0.949 -1.013 -1.026 -1.038 -1.084 -1.073 -1.083 -1.031 -1.088 -1.097 -1.075 -1.132 -1.106 -1.18 -1.2 -1.16 -1.106 -1.199 -1.192 -1.24 -1.238 -1.306 -1.285 -1.229 -1.284 -1.276 -1.253 -1.294 -1.337 -1.336 -1.312 -1.326 -1.317 -1.295 -1.346 -1.369 -1.452 -1.401 -1.407 -1.42 -1.401 -1.364 -1.414 -1.441 -1.499 -1.562 -1.558 -1.581 -1.526 -1.577 -1.57 -1.606 -1.578 -1.651 -1.608 -1.632 -1.656 -1.743 -1.713 -1.737 -1.698 -1.756 -1.765 -1.713 -1.77 -1.743 -1.733 -1.725 -1.733 -1.712 -1.738 -1.732 -1.749 -1.712 -1.696 -1.688 -1.645 -1.647 -1.648 -1.656 -1.648 -1.64 -1.609 -1.614 -1.635 -1.624 -1.65 -1.654 -1.602 -1.587 -1.604 -1.661 -1.599 -1.621 -1.646 -1.602 -1.634 -1.635 -1.594 -1.602 -1.657 -1.604 -1.597 -1.636 -1.637 -1.599 -1.669 -1.625 -1.602 -1.635 -1.647 -1.639 -1.645 -1.664 -1.679 -1.687 -1.691 -1.671 -1.7 -1.723 -1.751 -1.773 -1.799 -1.783 -1.797 -1.828 -1.841 -1.884 -1.969 -1.905 -1.943 -2.014 -1.96 -2.026 -1.949 -2.026 -2.083 -2.032 -2.021 -2.053 -2.036 -2.033 -2.001 -2.069 -2.06 -2.039 -2.062 -2.03 -2.066 -2.003 -1.992 -2.048 -2.005 -2.016 -2.039 -2.037 -2.02 -1.972 -2.023 -2.04 -2.043 -2.001 -1.988 -2.063 -2.011 -2.043 -1.998 -1.99
0.162 0.12 0.162 0.15 0.132 0.086 0.125 0.09 0.08 0.123 0.129 0.108 0.138 0.167 0.192 0.173 0.14 0.171 0.136 0.266 0.265 0.337 0.296 0.341 0.282 0.267 0.268 0.291 0.2 0.154 0.116 0.168 0.129 0.085 0.111 0.087 0.021 0.051 -0.003 -0.027 -0.095 -0.047 -0.067 -0.046 -0.068 -0.083 -0.102 -0.121 -0.086 -0.095 -0.092 -0.085 -0.072 -0.055 -0.045 -0.045 -0.014 -0.028 -0.048 -0.028 -0.03 -0.078 -0.049 -0.049 -0.057 -0.062 -0.054 -0.089 -0.079 -0.045 -0.112 -0.161 -0.166 -0.167 -0.2 -0.168 -0.193 -0.164 -0.193 -0.17 -0.165 -0.134 -0.145 -0.148 -0.114 -0.193 -0.176 -0.186 -0.244 -0.264 -0.22 -0.264 -0.236 -0.307 -0.292 -0.252 -0.302 -0.352 -0.35 -0.378 -0.389 -0.384 -0.361 -0.376 -0.364 -0.398 -0.402 -0.355 -0.37 -0.397 -0.353 -0.351 -0.367 -0.375 -0.405 -0.389 -0.427 -0.395 -0.402 -0.411 -0.409 -0.418 -0.435 -0.435 -0.43 -0.435 -0.425 -0.436 -0.453 -0.462 -0.472 -0.447 -0.432 -0.483 -0.484 -0.493 -0.477 -0.488 -0.495 -0.498 -0.483 -0.493 -0.452 -0.451 -0.428 -0.411 -0.396 -0.484 -0.419 -0.451 -0.42 -0.456 -0.457 -0.505 -0.484 -0.516 -0.504 -0.451 -0.466 -0.504 -0.538 -0.539 -0.541 -0.597 -0.512 -0.538 -0.584 -0.55 -0.559 -0.542 -0.595 -0.597 -0.554 -0.647 -0.638 -0.685 -0.674 -0.711 -0.684 -0.735 -0.721 -0.741 -0.752 -0.689 -0.716 -0.735 -0.744 -0.787 -0.774 -0.709 -0.739 -0.796 -0.751 -0.812 -0.792 -0.75 -0.762 -0.777 -0.817 -0.8 -0.789 -0.782 -0.784 -0.764 -0.751 -0.789 -0.724 -0.733 -0.73 -0.765 -0.77 -0.821 -0.761 -0.775 -0.789 -0.796 -0.765 -0.786 -0.785 -0.819 -0.823 -0.824 -0.797 -0.824 -0.756 -0.737 -0.783 -0.854 -0.825 -0.828 -0.816 -0.869 -0.8 -0.846 -0.857 -0.858 -0.822 -0.833 -0.85 -0.868 -0.879 -0.859 -0.868 -0.858 -0.862 -0.849 -0.837 -0.845 -0.873 -0.865 -0.84 -0.856 -0.864 -0.827 -0.871 -0.841 -0.868 -0.856 -0.85 -0.881 -0.898 -0.867 -0.887 -0.898 -0.938 -0.936 -0.961 -0.923 -0.972 -0.967 -1.014 -0.935 -0.946 -0.934 -1.004 -0.983 -1.008 -0.981 -0.995 -0.986 -1.028 -1.01 -1.03 -1.026 -1.06 -1.053 -1.035 -1.035 -1.052 -1.028 -1.143 -1.175 -1.145 -1.127 -1.162 -1.204 -1.166 -1.254 -1.242 -1.217 -1.212 -1.238 -1.231 -1.233 -1.286 -1.233 -1.261 -1.292 -1.318 -1.305 -1.271 -1.291 -1.274 -1.348 -1.396 -1.454 -1.381 -1.421 -1.39 -1.391 -1.368 -1.378 -1.466 -1.526 -1.516 -1.528 -1.501 -1.521 -1.522 -1.51 -1.564 -1.652 -1.67 -1.598 -1.633 -1.668 -1.742 -1.644 -1.701 -1.719 -1.69 -1.681 -1.758 -1.756 -1.719 -1.755 -1.74 -1.744 -1.75 -1.736 -1.734 -1.698 -1.712 -1.695 -1.672 -1.66 -1.67 -1.664 -1.629 -1.592 -1.617 -1.607 -1.645 -1.693 -1.694 -1.66 -1.645 -1.614 -1.622 -1.651 -1.607 -1.649 -1.662 -1.659 -1.67 -1.651 -1.609 -1.604 -1.632 -1.647 -1.631 -1.62 -1.652 -1.642 -1.653 -1.627 -1.597 -1.637 -1.671 -1.673 -1.693 -1.678 -1.663 -1.663 -1.654 -1.654 -1.683 -1.693 -1.711 -1.761 -1.8 -1.778 -1.807 -1.883 -1.832 -1.923 -1.874 -1.936 -1.915 -1.921 -1.971 -1.915 -2.009 -1.959 -1.979 -2.004 -2.014 -2.011 -1.994 -2.015 -2.008 -2.031 -2.001 -2.075 -2.023 -2.028 -2.06 -2.04 -2.087 -2.028 -2.021 -2.01 -2.041 -2.017 -2.016 -2.094 -1.973 -2.063 -2.072 -2.06 -2.045 -2.098 -2.036 -2.014 -2.042 -2.013
0.228 0.194 0.208 0.175 0.145 0.12 0.187 0.137 0.055 0.069 0.035 0.1 0.098 0.174 0.136 0.222 0.208 0.164 0.23 0.291 0.343 0.349 0.347 0.376 0.304 0.311 0.29 0.209 0.157 0.205 0.141 0.162 0.164 0.111 0.135 0.061 0.001 0.016 -0.041 -0.037 -0.064 -0.086 -0.056 -0.08 -0.12 -0.083 -0.088 -0.096 -0.087 -0.096 -0.081 -0.075 -0.082 -0.063 -0.04 -0.066 -0.027 -0.034 -0.036 -0.03 -0.027 -0.035 -0.032 -0.05 -0.061 -0.065 -0.018 -0.055 -0.082 -0.098 -0.05 -0.13 -0.117 -0.155 -0.155 -0.147 -0.186 -0.158 -0.185 -0.21 -0.154 -0.116 -0.131 -0.162 -0.098 -0.185 -0.21 -0.228 -0.257 -0.275 -0.183 -0.216 -0.323 -0.334 -0.293 -0.257 -0.239 -0.328 -0.364 -0.353 -0.4 -0.328 -0.401 -0.41 -0.381 -0.34 -0.365 -0.365 -0.354 -0.347 -0.354 -0.354 -0.351 -0.359 -0.375 -0.366 -0.372 -0.371 -0.384 -0.39 -0.394 -0.383 -0.383 -0.408 -0.429 -0.42 -0.44 -0.41 -0.427 -0.437 -0.472 -0.423 -0.445 -0.483 -0.462 -0.472 -0.461 -0.457 -0.469 -0.423 -0.419 -0.468 -0.458 -0.45 -0.436 -0.442 -0.373 -0.49 -0.408 -0.416 -0.434 -0.399 -0.438 -0.453 -0.452 -0.497 -0.472 -0.473 -0.48 -0.493 -0.521 -0.502 -0.481 -0.51 -0.567 -0.496 -0.517 -0.536 -0.557 -0.565 -0.583 -0.547 -0.568 -0.633 -0.616 -0.632 -0.64 -0.621 -0.628 -0.688 -0.723 -0.684 -0.668 -0.694 -0.702 -0.731 -0.771 -0.717 -0.735 -0.729 -0.76 -0.723 -0.72 -0.757 -0.754 -0.789 -0.791 -0.839 -0.869 -0.77 -0.757 -0.739 -0.743 -0.782 -0.762 -0.772 -0.704 -0.759 -0.759 -0.79 -0.78 -0.835 -0.792 -0.796 -0.782 -0.758 -0.752 -0.825 -0.799 -0.789 -0.779 -0.79 -0.813 -0.746 -0.802 -0.857 -0.837 -0.836 -0.876 -0.848 -0.845 -0.868 -0.834 -0.828 -0.82 -0.85 -0.822 -0.807 -0.809 -0.853 -0.857 -0.831 -0.843 -0.859 -0.855 -0.803 -0.746 -0.852 -0.877 -0.882 -0.836 -0.858 -0.85 -0.847 -0.841 -0.854 -0.866 -0.838 -0.858 -0.902 -0.881 -0.893 -0.904 -0.91 -0.897 -0.927 -0.888 -0.931 -0.911 -0.961 -0.9 -0.957 -0.956 -0.937 -0.959 -0.961 -0.987 -1.001 -0.991 -0.917 -1.036 -1 -1.036 -0.979 -1.039 -1.065 -1.079 -1.052 -1.054 -1.068 -1.116 -1.072 -1.12 -1.12 -1.135 -1.133 -1.127 -1.145 -1.236 -1.281 -1.239 -1.176 -1.27 -1.288 -1.289 -1.215 -1.3 -1.258 -1.25 -1.315 -1.304 -1.32 -1.244 -1.301 -1.353 -1.39 -1.388 -1.408 -1.43 -1.456 -1.412 -1.434 -1.447 -1.521 -1.567 -1.472 -1.502 -1.521 -1.512 -1.507 -1.527 -1.618 -1.565 -1.614 -1.646 -1.693 -1.685 -1.638 -1.638 -1.708 -1.713 -1.691 -1.681 -1.746 -1.725 -1.74 -1.73 -1.74 -1.771 -1.788 -1.742 -1.721 -1.718 -1.708 -1.693 -1.7 -1.687 -1.663 -1.656 -1.643 -1.647 -1.653 -1.675 -1.701 -1.72 -1.704 -1.697 -1.691 -1.628 -1.612 -1.659 -1.657 -1.636 -1.604 -1.632 -1.657 -1.643 -1.625 -1.654 -1.657 -1.614 -1.602 -1.648 -1.694 -1.641 -1.622 -1.632 -1.625 -1.644 -1.641 -1.648 -1.642 -1.621 -1.63 -1.609 -1.657 -1.674 -1.684 -1.735 -1.733 -1.738 -1.76 -1.755 -1.775 -1.824 -1.861 -1.862 -1.89 -1.981 -1.916 -1.896 -1.9 -1.938 -2.001 -1.977 -1.959 -2.074 -2.018 -1.992 -2.035 -2.055 -1.994 -2.03 -2.009 -2.067 -2.051 -2.072 -2.055 -2.015 -2.063 -2.05 -2.058 -2.056 -1.93 -2.027 -2.045 -2.076 -2.013 -2.062 -2.072 -2.043 -2.026 -1.98 -1.985 -2.064 -2.012
0.209 0.192 0.191 0.163 0.161 0.138 0.154 0.149 0.094 0.122 0.121 0.106 0.098 0.184 0.173 0.19 0.215 0.189 0.349 0.347 0.4 0.395 0.393 0.329 0.33 0.281 0.217 0.211 0.204 0.14 0.153 0.135 0.117 0.118 0.06 0.052 0.018 0.006 0.005 -0.067 -0.07 -0.045 -0.056 -0.066 -0.132 -0.1 -0.09 -0.113 -0.118 -0.098 -0.073 -0.07 -0.076 -0.048 -0.053 -0.047 -0.041 -0.01 -0.01 -0.015 -0.019 -0.042 -0.032 -0.039 -0.019 -0.017 -0.041 -0.065 -0.051 -0.068 -0.127 -0.107 -0.134 -0.141 -0.142 -0.142 -0.145 -0.146 -0.161 -0.207 -0.184 -0.156 -0.119 -0.114 -0.132 -0.163 -0.149 -0.188 -0.23 -0.258 -0.256 -0.266 -0.296 -0.282 -0.302 -0.25 -0.304 -0.337 -0.37 -0.314 -0.337 -0.431 -0.392 -0.375 -0.34 -0.333 -0.345 -0.355 -0.329 -0.306 -0.291 -0.325 -0.318 -0.307 -0.312 -0.33 -0.334 -0.353 -0.36 -0.366 -0.355 -0.384 -0.389 -0.396 -0.395 -0.401 -0.408 -0.436 -0.438 -0.419 -0.448 -0.424 -0.465 -0.429 -0.447 -0.466 -0.448 -0.463 -0.454 -0.449 -0.477 -0.415 -0.416 -0.414 -0.402 -0.41 -0.396 -0.441 -0.389 -0.455 -0.374 -0.435 -0.44 -0.447 -0.409 -0.44 -0.417 -0.417 -0.486 -0.464 -0.498 -0.5 -0.482 -0.499 -0.502 -0.454 -0.507 -0.537 -0.542 -0.468 -0.561 -0.534 -0.567 -0.537 -0.584 -0.574 -0.625 -0.689 -0.625 -0.657 -0.71 -0.707 -0.668 -0.61 -0.692 -0.699 -0.72 -0.694 -0.7 -0.676 -0.729 -0.752 -0.724 -0.713 -0.663 -0.777 -0.738 -0.696 -0.759 -0.707 -0.757 -0.761 -0.844 -0.81 -0.763 -0.73 -0.711 -0.71 -0.714 -0.75 -0.721 -0.712 -0.739 -0.735 -0.731 -0.716 -0.778 -0.776 -0.776 -0.766 -0.814 -0.759 -0.819 -0.758 -0.749 -0.814 -0.77 -0.821 -0.832 -0.803 -0.806 -0.801 -0.765 -0.807 -0.852 -0.812 -0.797 -0.832 -0.848 -0.839 -0.834 -0.826 -0.849 -0.842 -0.87 -0.861 -0.813 -0.838 -0.856 -0.862 -0.849 -0.858 -0.853 -0.821 -0.817 -0.836 -0.832 -0.829 -0.828 -0.838 -0.86 -0.896 -0.887 -0.923 -0.91 -0.902 -0.909 -0.952 -0.942 -0.895 -0.962 -0.946 -0.944 -1.02 -0.926 -0.962 -0.963 -0.979 -0.976 -1.004 -1.015 -0.946 -0.998 -1.01 -1.043 -1.059 -1.143 -1.072 -1.037 -1.044 -1.067 -1.03 -1.107 -1.143 -1.14 -1.111 -1.178 -1.202 -1.171 -1.238 -1.202 -1.202 -1.155 -1.266 -1.259 -1.279 -1.216 -1.234 -1.296 -1.288 -1.283 -1.258 -1.29 -1.309 -1.346 -1.406 -1.35 -1.443 -1.501 -1.536 -1.437 -1.405 -1.371 -1.507 -1.555 -1.474 -1.505 -1.525 -1.51 -1.537 -1.526 -1.607 -1.599 -1.565 -1.673 -1.685 -1.656 -1.78 -1.721 -1.674 -1.666 -1.648 -1.739 -1.715 -1.732 -1.735 -1.738 -1.762 -1.788 -1.798 -1.721 -1.738 -1.707 -1.744 -1.714 -1.701 -1.704 -1.679 -1.692 -1.686 -1.675 -1.665 -1.64 -1.705 -1.749 -1.745 -1.725 -1.705 -1.67 -1.616 -1.652 -1.685 -1.648 -1.637 -1.647 -1.68 -1.677 -1.636 -1.609 -1.612 -1.637 -1.597 -1.646 -1.709 -1.655 -1.624 -1.607 -1.584 -1.628 -1.592 -1.599 -1.637 -1.604 -1.635 -1.642 -1.656 -1.677 -1.7 -1.687 -1.714 -1.724 -1.722 -1.744 -1.772 -1.796 -1.843 -1.891 -1.923 -1.886 -1.901 -1.911 -1.894 -1.91 -1.978 -2.089 -1.966 -2.015 -1.959 -2.008 -1.981 -2.051 -1.988 -2.053 -2.051 -2.135 -2.092 -1.977 -2.026 -2.042 -2.095 -2.012 -2.001 -2.08 -2.046 -2.008 -2.041 -2.061 -2.011 -2.059 -2.019 -2.005 -2.001 -2.057 -2.028 -2.062 -2.038
0.284 0.214 0.192 0.197 0.257 0.177 0.18 0.076 0.094 0.104 0.149 0.094 0.121 0.101 0.168 0.184 0.256 0.299 0.328 0.482 0.401 0.425 0.404 0.419 0.343 0.24 0.24 0.2 0.164 0.141 0.142 0.133 0.095 0.074 0.074 0.053 0.039 0.016 -0.021 -0.048 -0.001 -0.102 -0.012 -0.026 -0.047 -0.065 -0.078 -0.097 -0.103 -0.083 -0.069 -0.079 -0.075 -0.05 -0.05 -0.051 -0.044 -0.036 -0.004 -0.013 -0.03 -0.024 -0.035 -0.031 -0.042 -0.027 -0.044 -0.027 -0.053 -0.023 -0.088 -0.119 -0.127 -0.151 -0.168 -0.143 -0.147 -0.132 -0.153 -0.167 -0.17 -0.175 -0.126 -0.156 -0.178 -0.141 -0.136 -0.186 -0.186 -0.26 -0.286 -0.208 -0.201 -0.229 -0.292 -0.315 -0.218 -0.337 -0.311 -0.311 -0.346 -0.354 -0.361 -0.374 -0.312 -0.339 -0.287 -0.346 -0.323 -0.297 -0.279 -0.301 -0.279 -0.285 -0.288 -0.312 -0.297 -0.32 -0.317 -0.347 -0.347 -0.36 -0.376 -0.369 -0.381 -0.366 -0.406 -0.416 -0.411 -0.403 -0.408 -0.402 -0.427 -0.4 -0.471 -0.43 -0.465 -0.426 -0.439 -0.439 -0.441 -0.426 -0.446 -0.43 -0.451 -0.395 -0.389 -0.467 -0.45 -0.414 -0.386 -0.439 -0.401 -0.362 -0.433 -0.402 -0.431 -0.457 -0.435 -0.436 -0.472 -0.436 -0.462 -0.453 -0.492 -0.424 -0.487 -0.463 -0.441 -0.486 -0.516 -0.563 -0.559 -0.479 -0.543 -0.544 -0.604 -0.591 -0.595 -0.665 -0.661 -0.651 -0.621 -0.652 -0.659 -0.653 -0.662 -0.652 -0.712 -0.728 -0.681 -0.72 -0.673 -0.709 -0.719 -0.72 -0.653 -0.674 -0.66 -0.734 -0.773 -0.761 -0.715 -0.668 -0.689 -0.697 -0.731 -0.699 -0.702 -0.755 -0.764 -0.741 -0.775 -0.712 -0.679 -0.721 -0.729 -0.723 -0.745 -0.766 -0.8 -0.767 -0.782 -0.754 -0.774 -0.788 -0.791 -0.757 -0.741 -0.834 -0.834 -0.861 -0.803 -0.772 -0.8 -0.817 -0.836 -0.818 -0.834 -0.843 -0.844 -0.844 -0.852 -0.839 -0.858 -0.857 -0.85 -0.854 -0.879 -0.878 -0.836 -0.848 -0.855 -0.833 -0.828 -0.841 -0.846 -0.821 -0.831 -0.845 -0.847 -0.842 -0.886 -0.866 -0.916 -0.904 -0.874 -0.872 -0.904 -0.907 -0.912 -0.923 -0.919 -0.945 -0.935 -0.984 -0.913 -0.96 -0.946 -0.987 -0.955 -1.003 -0.953 -0.941 -1.03 -1.034 -1.062 -1.052 -1.043 -1.05 -1.092 -1.077 -1.145 -1.153 -1.144 -1.134 -1.154 -1.174 -1.178 -1.215 -1.25 -1.194 -1.138 -1.166 -1.186 -1.221 -1.201 -1.223 -1.277 -1.238 -1.233 -1.27 -1.271 -1.347 -1.379 -1.371 -1.39 -1.373 -1.441 -1.437 -1.4 -1.434 -1.431 -1.442 -1.469 -1.452 -1.421 -1.48 -1.456 -1.491 -1.535 -1.552 -1.498 -1.61 -1.655 -1.711 -1.578 -1.704 -1.733 -1.702 -1.668 -1.732 -1.703 -1.686 -1.721 -1.682 -1.759 -1.755 -1.774 -1.758 -1.75 -1.747 -1.726 -1.732 -1.725 -1.722 -1.695 -1.696 -1.698 -1.71 -1.707 -1.696 -1.697 -1.712 -1.726 -1.739 -1.725 -1.714 -1.677 -1.7 -1.673 -1.69 -1.676 -1.677 -1.698 -1.695 -1.663 -1.642 -1.622 -1.607 -1.612 -1.638 -1.671 -1.662 -1.659 -1.637 -1.629 -1.599 -1.622 -1.633 -1.633 -1.649 -1.65 -1.67 -1.63 -1.644 -1.665 -1.677 -1.66 -1.677 -1.676 -1.708 -1.745 -1.756 -1.812 -1.822 -1.869 -1.881 -1.868 -1.912 -1.864 -1.882 -1.899 -1.923 -1.948 -1.906 -1.913 -1.964 -2.007 -1.98 -2.016 -2.035 -1.99 -2.112 -2.052 -1.98 -2.09 -2.04 -2.01 -2.035 -1.997 -2.014 -2.052 -2.026 -1.99 -1.978 -2.074 -2.05 -2.055 -2.053 -1.978 -2.046 -1.999 -2.027 -1.965 -2.093
0.257 0.25 0.229 0.218 0.226 0.199 0.146 0.102 0.14 0.127 0.157 0.173 0.204 0.246 0.224 0.253 0.329 0.42 0.514 0.51 0.503 0.381 0.393 0.304 0.265 0.276 0.255 0.215 0.224 0.145 0.197 0.09 0.125 0.12 0.107 0.04 0.029 0.067 -0.013 0.004 -0.016 -0.077 -0.056 -0.059 -0.102 -0.086 -0.067 -0.064 -0.084 -0.071 -0.059 -0.069 -0.074 -0.065 -0.072 -0.051 -0.04 -0.037 -0.045 -0.027 -0.035 -0.003 -0.022 -0.039 -0.036 -0.047 -0.044 -0.066 -0.052 -0.05 -0.051 -0.097 -0.146 -0.141 -0.159 -0.17 -0.158 -0.154 -0.12 -0.168 -0.175 -0.133 -0.105 -0.186 -0.191 -0.136 -0.168 -0.161 -0.203 -0.246 -0.233 -0.249 -0.225 -0.257 -0.279 -0.35 -0.264 -0.261 -0.313 -0.323 -0.374 -0.345 -0.352 -0.328 -0.318 -0.31 -0.342 -0.274 -0.262 -0.278 -0.268 -0.285 -0.259 -0.265 -0.267 -0.27 -0.283 -0.3 -0.287 -0.329 -0.331 -0.341 -0.354 -0.359 -0.369 -0.362 -0.384 -0.405 -0.401 -0.413 -0.397 -0.422 -0.429 -0.435 -0.456 -0.467 -0.486 -0.423 -0.416 -0.463 -0.476 -0.437 -0.461 -0.439 -0.463 -0.433 -0.457 -0.448 -0.471 -0.41 -0.405 -0.387 -0.399 -0.34 -0.357 -0.412 -0.435 -0.451 -0.368 -0.425 -0.455 -0.441 -0.437 -0.433 -0.484 -0.483 -0.45 -0.437 -0.455 -0.465 -0.476 -0.497 -0.508 -0.542 -0.54 -0.535 -0.58 -0.58 -0.588 -0.632 -0.586 -0.584 -0.683 -0.597 -0.598 -0.639 -0.621 -0.66 -0.658 -0.665 -0.695 -0.664 -0.689 -0.746 -0.666 -0.696 -0.65 -0.684 -0.646 -0.704 -0.675 -0.739 -0.692 -0.728 -0.722 -0.696 -0.701 -0.685 -0.704 -0.745 -0.731 -0.707 -0.733 -0.716 -0.722 -0.732 -0.701 -0.684 -0.733 -0.759 -0.766 -0.782 -0.796 -0.745 -0.802 -0.771 -0.756 -0.758 -0.782 -0.769 -0.812 -0.848 -0.812 -0.797 -0.807 -0.812 -0.86 -0.828 -0.814 -0.827 -0.84 -0.851 -0.848 -0.819 -0.835 -0.838 -0.837 -0.859 -0.881 -0.892 -0.881 -0.869 -0.854 -0.84 -0.823 -0.828 -0.834 -0.816 -0.822 -0.829 -0.849 -0.846 -0.868 -0.867 -0.852 -0.908 -0.899 -0.885 -0.891 -0.895 -0.878 -0.926 -0.924 -0.945 -0.913 -0.954 -0.979 -0.926 -0.939 -0.986 -0.963 -0.96 -0.953 -1.01 -1.039 -1.046 -0.982 -1.078 -1.048 -1.086 -1.11 -1.109 -1.079 -1.126 -1.135 -1.133 -1.116 -1.17 -1.123 -1.213 -1.203 -1.216 -1.178 -1.21 -1.188 -1.195 -1.221 -1.183 -1.23 -1.229 -1.249 -1.235 -1.258 -1.332 -1.382 -1.343 -1.374 -1.341 -1.359 -1.379 -1.369 -1.422 -1.398 -1.437 -1.407 -1.457 -1.452 -1.493 -1.54 -1.49 -1.537 -1.529 -1.584 -1.562 -1.572 -1.593 -1.528 -1.653 -1.627 -1.645 -1.694 -1.713 -1.732 -1.745 -1.78 -1.702 -1.781 -1.834 -1.8 -1.818 -1.769 -1.746 -1.748 -1.719 -1.74 -1.748 -1.719 -1.72 -1.692 -1.708 -1.727 -1.751 -1.745 -1.741 -1.746 -1.763 -1.749 -1.74 -1.713 -1.708 -1.705 -1.716 -1.713 -1.724 -1.754 -1.7 -1.674 -1.66 -1.647 -1.609 -1.631 -1.599 -1.656 -1.672 -1.614 -1.602 -1.628 -1.614 -1.604 -1.602 -1.612 -1.66 -1.658 -1.635 -1.609 -1.64 -1.688 -1.671 -1.65 -1.643 -1.683 -1.699 -1.789 -1.746 -1.778 -1.806 -1.788 -1.819 -1.865 -1.854 -1.844 -1.877 -1.874 -1.942 -1.941 -1.91 -1.951 -1.917 -1.938 -1.908 -1.928 -2.023 -2.036 -2.054 -2.02 -2 -2.066 -2.053 -2.026 -2.004 -2.039 -1.984 -2.121 -2.059 -2.054 -1.987 -2.02 -2.016 -2.045 -2.036 -1.977 -2.001 -2.102 -2.09 -2.06 -1.968
0.301 0.283 0.302 0.255 0.233 0.228 0.252 0.19 0.174 0.181 0.223 0.264 0.183 0.244 0.225 0.263 0.365 0.44 0.476 0.52 0.488 0.409 0.431 0.313 0.284 0.244 0.221 0.192 0.206 0.149 0.164 0.135 0.149 0.131 0.113 0.124 0.075 0.018 0.034 0.005 0.001 -0.025 -0.031 -0.077 -0.027 -0.06 -0.068 -0.067 -0.062 -0.053 -0.077 -0.056 -0.067 -0.076 -0.084 -0.055 -0.035 -0.045 -0.044 -0.023 -0.024 -0.025 -0.013 -0.038 -0.031 -0.027 -0.054 -0.037 -0.041 -0.059 -0.063 -0.085 -0.107 -0.128 -0.195 -0.15 -0.165 -0.187 -0.168 -0.121 -0.136 -0.123 -0.185 -0.155 -0.123 -0.188 -0.168 -0.19 -0.157 -0.162 -0.248 -0.229 -0.234 -0.224 -0.305 -0.294 -0.286 -0.317 -0.302 -0.316 -0.368 -0.362 -0.336 -0.376 -0.287 -0.272 -0.278 -0.289 -0.264 -0.261 -0.259 -0.263 -0.253 -0.239 -0.237 -0.205 -0.285 -0.288 -0.306 -0.313 -0.295 -0.321 -0.33 -0.351 -0.351 -0.355 -0.379 -0.387 -0.4 -0.414 -0.412 -0.414 -0.427 -0.437 -0.44 -0.447 -0.43 -0.434 -0.442 -0.462 -0.443 -0.463 -0.441 -0.436 -0.441 -0.439 -0.437 -0.448 -0.425 -0.404 -0.401 -0.403 -0.399 -0.369 -0.371 -0.405 -0.371 -0.388 -0.376 -0.432 -0.425 -0.434 -0.47 -0.442 -0.402 -0.448 -0.487 -0.475 -0.475 -0.46 -0.433 -0.505 -0.526 -0.55 -0.497 -0.501 -0.498 -0.582 -0.582 -0.611 -0.592 -0.63 -0.641 -0.62 -0.589 -0.643 -0.642 -0.599 -0.622 -0.616 -0.654 -0.64 -0.633 -0.619 -0.672 -0.704 -0.676 -0.685 -0.66 -0.658 -0.712 -0.724 -0.68 -0.692 -0.678 -0.627 -0.698 -0.744 -0.681 -0.675 -0.705 -0.71 -0.71 -0.677 -0.716 -0.741 -0.71 -0.716 -0.707 -0.677 -0.714 -0.766 -0.742 -0.785 -0.704 -0.769 -0.776 -0.778 -0.742 -0.829 -0.742 -0.743 -0.781 -0.8 -0.83 -0.841 -0.889 -0.856 -0.827 -0.825 -0.823 -0.831 -0.824 -0.834 -0.829 -0.826 -0.843 -0.832 -0.837 -0.856 -0.87 -0.843 -0.866 -0.852 -0.839 -0.821 -0.83 -0.808 -0.857 -0.814 -0.819 -0.793 -0.854 -0.847 -0.8 -0.923 -0.877 -0.928 -0.894 -0.916 -0.889 -0.933 -0.927 -0.962 -0.95 -0.94 -0.998 -0.917 -0.974 -0.99 -0.974 -1.009 -0.946 -0.967 -1.012 -0.989 -1.001 -1.043 -1.063 -1.032 -1.086 -1.108 -1.072 -1.115 -1.122 -1.127 -1.153 -1.089 -1.163 -1.208 -1.187 -1.217 -1.172 -1.235 -1.243 -1.247 -1.237 -1.221 -1.248 -1.239 -1.245 -1.237 -1.266 -1.304 -1.321 -1.327 -1.352 -1.366 -1.379 -1.354 -1.348 -1.364 -1.399 -1.429 -1.41 -1.444 -1.448 -1.503 -1.45 -1.434 -1.476 -1.536 -1.568 -1.563 -1.536 -1.579 -1.592 -1.595 -1.65 -1.61 -1.659 -1.718 -1.68 -1.691 -1.785 -1.741 -1.793 -1.829 -1.769 -1.764 -1.737 -1.75 -1.765 -1.779 -1.759 -1.762 -1.774 -1.75 -1.73 -1.73 -1.729 -1.749 -1.741 -1.757 -1.78 -1.769 -1.754 -1.745 -1.73 -1.719 -1.734 -1.742 -1.746 -1.73 -1.726 -1.711 -1.697 -1.696 -1.668 -1.651 -1.641 -1.646 -1.662 -1.652 -1.644 -1.643 -1.602 -1.599 -1.609 -1.592 -1.602 -1.614 -1.631 -1.645 -1.648 -1.64 -1.703 -1.665 -1.622 -1.638 -1.667 -1.684 -1.726 -1.754 -1.783 -1.773 -1.801 -1.796 -1.826 -1.84 -1.831 -1.899 -1.882 -1.874 -1.87 -1.873 -1.877 -1.9 -1.936 -1.918 -1.939 -2.012 -1.982 -2.075 -2.115 -2.091 -2.057 -2.101 -2.013 -2.055 -2.054 -2 -1.998 -2.036 -2.035 -2.012 -2.069 -2.072 -2.07 -2.075 -1.97 -2.043 -2.04 -2.025 -2.03 -2.005
0.303 0.251 0.321 0.266 0.241 0.251 0.296 0.206 0.219 0.221 0.224 0.249 0.243 0.302 0.307 0.361 0.481 0.499 0.484 0.48 0.479 0.415 0.345 0.286 0.348 0.279 0.23 0.189 0.143 0.175 0.195 0.139 0.164 0.108 0.083 0.11 0.044 0.068 0.022 -0.016 -0.025 -0.002 -0.041 -0.097 -0.079 -0.079 -0.055 -0.064 -0.085 -0.052 -0.065 -0.056 -0.071 -0.072 -0.045 -0.07 -0.068 -0.042 -0.027 -0.016 -0.013 -0.033 -0.022 -0.031 -0.03 -0.016 -0.047 -0.025 -0.06 -0.054 -0.042 -0.09 -0.109 -0.141 -0.146 -0.154 -0.141 -0.169 -0.192 -0.177 -0.167 -0.164 -0.167 -0.189 -0.18 -0.174 -0.164 -0.157 -0.16 -0.21 -0.233 -0.158 -0.241 -0.196 -0.272 -0.288 -0.295 -0.336 -0.361 -0.368 -0.373 -0.332 -0.355 -0.344 -0.316 -0.313 -0.269 -0.25 -0.256 -0.242 -0.228 -0.247 -0.247 -0.208 -0.223 -0.192 -0.247 -0.303 -0.304 -0.291 -0.285 -0.282 -0.292 -0.297 -0.327 -0.375 -0.373 -0.385 -0.398 -0.411 -0.4 -0.418 -0.404 -0.429 -0.425 -0.431 -0.409 -0.426 -0.412 -0.429 -0.465 -0.462 -0.422 -0.429 -0.43 -0.462 -0.469 -0.448 -0.415 -0.454 -0.421 -0.399 -0.366 -0.384 -0.392 -0.384 -0.363 -0.368 -0.373 -0.391 -0.355 -0.353 -0.365 -0.393 -0.417 -0.396 -0.443 -0.449 -0.433 -0.435 -0.485 -0.472 -0.491 -0.498 -0.478 -0.461 -0.542 -0.561 -0.56 -0.598 -0.537 -0.568 -0.601 -0.638 -0.604 -0.656 -0.646 -0.584 -0.592 -0.622 -0.565 -0.639 -0.615 -0.652 -0.656 -0.657 -0.696 -0.69 -0.658 -0.654 -0.689 -0.686 -0.707 -0.668 -0.665 -0.656 -0.695 -0.766 -0.75 -0.687 -0.776 -0.775 -0.784 -0.718 -0.667 -0.669 -0.727 -0.724 -0.683 -0.671 -0.705 -0.713 -0.7 -0.706 -0.748 -0.703 -0.706 -0.753 -0.716 -0.779 -0.696 -0.782 -0.806 -0.823 -0.827 -0.881 -0.862 -0.828 -0.85 -0.85 -0.82 -0.833 -0.809 -0.812 -0.826 -0.817 -0.83 -0.829 -0.828 -0.83 -0.846 -0.851 -0.878 -0.835 -0.832 -0.815 -0.797 -0.817 -0.8 -0.798 -0.817 -0.842 -0.856 -0.868 -0.876 -0.872 -0.917 -0.872 -0.892 -0.899 -0.906 -0.911 -0.955 -0.94 -0.933 -0.939 -0.962 -0.977 -0.945 -0.961 -0.944 -0.972 -0.931 -0.957 -1.001 -1.017 -1.034 -0.968 -1.071 -1.027 -1.059 -1.082 -1.086 -1.088 -1.107 -1.099 -1.176 -1.19 -1.193 -1.19 -1.14 -1.19 -1.149 -1.201 -1.25 -1.246 -1.252 -1.215 -1.169 -1.278 -1.211 -1.285 -1.303 -1.286 -1.325 -1.32 -1.324 -1.358 -1.344 -1.364 -1.344 -1.357 -1.358 -1.42 -1.453 -1.395 -1.431 -1.419 -1.414 -1.487 -1.413 -1.509 -1.497 -1.538 -1.526 -1.528 -1.513 -1.562 -1.607 -1.595 -1.604 -1.631 -1.662 -1.713 -1.745 -1.731 -1.803 -1.772 -1.739 -1.847 -1.719 -1.742 -1.769 -1.761 -1.772 -1.752 -1.758 -1.775 -1.788 -1.75 -1.723 -1.781 -1.792 -1.778 -1.791 -1.779 -1.787 -1.771 -1.757 -1.75 -1.748 -1.761 -1.751 -1.775 -1.771 -1.761 -1.722 -1.727 -1.706 -1.674 -1.691 -1.704 -1.714 -1.69 -1.69 -1.652 -1.609 -1.617 -1.617 -1.64 -1.599 -1.597 -1.633 -1.696 -1.671 -1.643 -1.668 -1.641 -1.609 -1.64 -1.649 -1.712 -1.737 -1.793 -1.766 -1.764 -1.755 -1.768 -1.781 -1.799 -1.862 -1.849 -1.855 -1.822 -1.834 -1.867 -1.858 -1.92 -1.902 -1.885 -1.949 -1.972 -1.957 -1.978 -2.021 -2.064 -2.005 -2.026 -2.031 -2.019 -2.047 -2.008 -2.038 -2.02 -2.064 -2.074 -2.018 -2.036 -2.051 -2.053 -2.01 -1.984 -2.055 -1.991 -2.057 -2.017
0.308 0.337 0.326 0.3 0.306 0.32 0.257 0.27 0.235 0.23 0.279 0.248 0.359 0.321 0.356 0.449 0.481 0.521 0.447 0.477 0.455 0.37 0.295 0.344 0.327 0.217 0.282 0.216 0.182 0.222 0.229 0.152 0.205 0.142 0.118 0.116 0.067 0.026 0.022 0.033 0.011 0.026 -0.026 -0.059 -0.061 -0.035 -0.036 -0.106 -0.079 -0.086 -0.074 -0.045 -0.074 -0.091 -0.08 -0.08 -0.062 -0.061 -0.032 -0.036 -0.027 -0.029 -0.018 0.008 -0.024 -0.028 -0.039 -0.037 -0.057 -0.049 -0.066 -0.101 -0.096 -0.113 -0.163 -0.146 -0.159 -0.181 -0.18 -0.176 -0.15 -0.174 -0.148 -0.166 -0.15 -0.159 -0.18 -0.147 -0.222 -0.175 -0.266 -0.213 -0.245 -0.244 -0.2 -0.282 -0.264 -0.336 -0.274 -0.326 -0.363 -0.318 -0.325 -0.324 -0.301 -0.32 -0.291 -0.267 -0.281 -0.279 -0.236 -0.224 -0.229 -0.209 -0.207 -0.208 -0.235 -0.251 -0.275 -0.265 -0.252 -0.28 -0.307 -0.31 -0.332 -0.36 -0.365 -0.409 -0.376 -0.374 -0.373 -0.405 -0.401 -0.418 -0.415 -0.43 -0.422 -0.409 -0.409 -0.436 -0.418 -0.455 -0.44 -0.465 -0.435 -0.454 -0.485 -0.456 -0.472 -0.466 -0.473 -0.437 -0.422 -0.406 -0.405 -0.373 -0.349 -0.36 -0.355 -0.377 -0.341 -0.406 -0.355 -0.419 -0.387 -0.395 -0.389 -0.4 -0.411 -0.414 -0.415 -0.418 -0.44 -0.454 -0.492 -0.53 -0.479 -0.552 -0.531 -0.492 -0.502 -0.549 -0.528 -0.581 -0.589 -0.594 -0.596 -0.59 -0.607 -0.562 -0.586 -0.568 -0.607 -0.594 -0.599 -0.66 -0.665 -0.666 -0.674 -0.655 -0.666 -0.666 -0.552 -0.664 -0.662 -0.713 -0.644 -0.677 -0.72 -0.739 -0.726 -0.718 -0.704 -0.684 -0.691 -0.679 -0.664 -0.631 -0.715 -0.618 -0.663 -0.688 -0.721 -0.664 -0.713 -0.714 -0.729 -0.717 -0.702 -0.722 -0.733 -0.783 -0.774 -0.786 -0.823 -0.823 -0.857 -0.807 -0.807 -0.811 -0.836 -0.822 -0.829 -0.825 -0.821 -0.813 -0.832 -0.844 -0.825 -0.846 -0.847 -0.846 -0.849 -0.717 -0.724 -0.792 -0.776 -0.784 -0.808 -0.821 -0.821 -0.813 -0.854 -0.891 -0.809 -0.88 -0.9 -0.874 -0.859 -0.904 -0.949 -0.892 -0.851 -0.921 -0.921 -0.941 -0.95 -0.966 -0.937 -0.935 -0.985 -0.935 -0.939 -0.967 -0.984 -0.936 -0.962 -0.973 -1.044 -1.057 -1.034 -1.034 -1.1 -1.125 -1.115 -1.103 -1.202 -1.184 -1.198 -1.163 -1.167 -1.146 -1.226 -1.208 -1.133 -1.195 -1.224 -1.226 -1.264 -1.245 -1.306 -1.317 -1.251 -1.34 -1.274 -1.292 -1.372 -1.312 -1.335 -1.349 -1.372 -1.337 -1.382 -1.448 -1.419 -1.437 -1.38 -1.432 -1.463 -1.463 -1.479 -1.444 -1.437 -1.438 -1.513 -1.544 -1.533 -1.583 -1.549 -1.601 -1.639 -1.655 -1.656 -1.704 -1.719 -1.693 -1.755 -1.803 -1.736 -1.799 -1.771 -1.732 -1.758 -1.853 -1.773 -1.742 -1.744 -1.752 -1.797 -1.755 -1.732 -1.772 -1.792 -1.763 -1.803 -1.758 -1.773 -1.766 -1.782 -1.788 -1.797 -1.786 -1.768 -1.776 -1.762 -1.737 -1.729 -1.753 -1.712 -1.695 -1.712 -1.723 -1.725 -1.748 -1.688 -1.663 -1.657 -1.627 -1.609 -1.647 -1.622 -1.63 -1.641 -1.643 -1.661 -1.632 -1.64 -1.645 -1.626 -1.637 -1.657 -1.716 -1.754 -1.739 -1.736 -1.744 -1.76 -1.743 -1.759 -1.756 -1.788 -1.793 -1.807 -1.846 -1.789 -1.828 -1.841 -1.875 -1.858 -1.947 -1.911 -1.929 -1.933 -1.982 -1.981 -2.057 -2.048 -2.03 -2.012 -2.03 -1.989 -2.063 -2.037 -2.008 -2.03 -2.051 -2.089 -2.033 -2.069 -2.069 -2.029 -2.009 -2.06 -2.03 -2.036 -2.042
0.352 0.322 0.346 0.345 0.379 0.314 0.282 0.331 0.32 0.297 0.304 0.311 0.378 0.423 0.5 0.558 0.538 0.537 0.458 0.501 0.459 0.423 0.368 0.304 0.279 0.321 0.262 0.289 0.199 0.207 0.247 0.159 0.211 0.155 0.157 0.109 0.141 0.059 0.072 -0.019 -0.002 -0.08 -0.027 -0.063 -0.05 -0.086 -0.033 -0.047 -0.116 -0.048 -0.065 -0.075 -0.085 -0.051 -0.068 -0.074 -0.064 -0.053 -0.045 -0.049 -0.031 -0.022 -0.025 0.007 -0.002 -0.016 -0.03 -0.025 -0.043 -0.062 -0.057 -0.062 -0.079 -0.103 -0.143 -0.141 -0.185 -0.168 -0.19 -0.152 -0.133 -0.177 -0.156 -0.149 -0.15 -0.151 -0.156 -0.154 -0.166 -0.191 -0.199 -0.201 -0.231 -0.227 -0.251 -0.293 -0.243 -0.287 -0.271 -0.285 -0.345 -0.335 -0.349 -0.32 -0.331 -0.291 -0.317 -0.306 -0.277 -0.236 -0.216 -0.25 -0.246 -0.238 -0.233 -0.247 -0.253 -0.239 -0.235 -0.262 -0.265 -0.272 -0.3 -0.322 -0.335 -0.342 -0.36 -0.365 -0.385 -0.362 -0.404 -0.392 -0.429 -0.408 -0.425 -0.403 -0.427 -0.393 -0.429 -0.414 -0.452 -0.427 -0.466 -0.467 -0.429 -0.464 -0.503 -0.478 -0.482 -0.465 -0.459 -0.429 -0.445 -0.407 -0.404 -0.387 -0.388 -0.394 -0.392 -0.377 -0.339 -0.381 -0.384 -0.394 -0.395 -0.391 -0.389 -0.365 -0.431 -0.37 -0.425 -0.408 -0.427 -0.451 -0.468 -0.447 -0.483 -0.484 -0.496 -0.537 -0.512 -0.589 -0.548 -0.583 -0.623 -0.544 -0.652 -0.616 -0.571 -0.565 -0.629 -0.606 -0.563 -0.615 -0.568 -0.622 -0.65 -0.626 -0.622 -0.648 -0.619 -0.652 -0.657 -0.639 -0.639 -0.632 -0.734 -0.692 -0.635 -0.631 -0.69 -0.689 -0.634 -0.7 -0.7 -0.634 -0.647 -0.631 -0.647 -0.649 -0.696 -0.702 -0.718 -0.677 -0.711 -0.739 -0.703 -0.712 -0.725 -0.683 -0.712 -0.715 -0.754 -0.81 -0.81 -0.842 -0.837 -0.815 -0.799 -0.844 -0.822 -0.824 -0.821 -0.832 -0.835 -0.802 -0.834 -0.805 -0.831 -0.815 -0.844 -0.846 -0.805 -0.763 -0.656 -0.79 -0.783 -0.765 -0.788 -0.812 -0.802 -0.813 -0.82 -0.861 -0.838 -0.895 -0.85 -0.852 -0.827 -0.867 -0.904 -0.835 -0.857 -0.924 -0.925 -0.908 -0.916 -0.892 -0.929 -0.905 -0.942 -0.946 -0.919 -0.985 -0.993 -0.973 -0.944 -1.01 -1.066 -1.085 -1.077 -1.046 -1.112 -1.077 -1.131 -1.117 -1.119 -1.204 -1.217 -1.151 -1.133 -1.15 -1.225 -1.214 -1.186 -1.15 -1.153 -1.133 -1.259 -1.192 -1.234 -1.285 -1.284 -1.268 -1.27 -1.351 -1.332 -1.385 -1.242 -1.318 -1.291 -1.323 -1.36 -1.385 -1.397 -1.403 -1.439 -1.371 -1.396 -1.446 -1.433 -1.427 -1.471 -1.427 -1.527 -1.539 -1.552 -1.586 -1.532 -1.566 -1.581 -1.595 -1.617 -1.625 -1.678 -1.694 -1.693 -1.76 -1.803 -1.779 -1.76 -1.764 -1.773 -1.823 -1.808 -1.744 -1.742 -1.761 -1.785 -1.778 -1.784 -1.781 -1.79 -1.757 -1.805 -1.808 -1.811 -1.784 -1.796 -1.804 -1.805 -1.808 -1.802 -1.783 -1.776 -1.755 -1.729 -1.75 -1.758 -1.737 -1.761 -1.758 -1.743 -1.762 -1.721 -1.68 -1.639 -1.663 -1.657 -1.668 -1.655 -1.668 -1.652 -1.612 -1.656 -1.614 -1.648 -1.666 -1.669 -1.693 -1.695 -1.763 -1.734 -1.698 -1.703 -1.712 -1.717 -1.746 -1.731 -1.74 -1.751 -1.8 -1.76 -1.786 -1.81 -1.788 -1.815 -1.831 -1.873 -1.897 -1.946 -1.878 -1.904 -1.998 -1.954 -1.988 -1.999 -2.049 -2.041 -2.054 -2.09 -2.019 -1.994 -2.055 -2.011 -2.033 -1.986 -2.045 -2.021 -2.063 -2.085 -2.06 -2.04 -2.006 -2.018 -2.023
0.349 0.366 0.34 0.37 0.371 0.329 0.35 0.354 0.362 0.378 0.388 0.36 0.409 0.461 0.552 0.57 0.521 0.447 0.505 0.509 0.441 0.402 0.386 0.317 0.279 0.323 0.256 0.294 0.232 0.224 0.222 0.171 0.211 0.166 0.137 0.137 0.117 0.065 0.121 0.046 0.015 0.057 -0.047 -0.034 0.004 -0.026 -0.097 -0.073 -0.063 -0.096 -0.046 -0.029 -0.072 -0.074 -0.082 -0.089 -0.095 -0.071 -0.061 -0.045 -0.047 -0.046 -0.039 -0.018 -0.012 -0.037 -0.041 -0.021 -0.052 -0.04 -0.056 -0.063 -0.081 -0.119 -0.124 -0.141 -0.16 -0.162 -0.154 -0.18 -0.131 -0.159 -0.139 -0.163 -0.176 -0.136 -0.18 -0.157 -0.148 -0.171 -0.226 -0.181 -0.242 -0.26 -0.196 -0.239 -0.274 -0.368 -0.302 -0.3 -0.342 -0.3 -0.309 -0.319 -0.316 -0.309 -0.279 -0.303 -0.283 -0.278 -0.261 -0.262 -0.252 -0.258 -0.239 -0.283 -0.265 -0.258 -0.27 -0.281 -0.25 -0.277 -0.292 -0.31 -0.349 -0.33 -0.357 -0.355 -0.385 -0.38 -0.4 -0.38 -0.41 -0.403 -0.411 -0.41 -0.402 -0.387 -0.421 -0.42 -0.43 -0.42 -0.452 -0.464 -0.456 -0.462 -0.464 -0.48 -0.494 -0.484 -0.446 -0.473 -0.469 -0.416 -0.424 -0.405 -0.417 -0.368 -0.386 -0.376 -0.36 -0.353 -0.371 -0.371 -0.402 -0.386 -0.337 -0.393 -0.372 -0.375 -0.406 -0.356 -0.386 -0.399 -0.418 -0.389 -0.464 -0.477 -0.497 -0.534 -0.487 -0.59 -0.533 -0.527 -0.582 -0.623 -0.567 -0.581 -0.636 -0.57 -0.589 -0.6 -0.537 -0.55 -0.566 -0.583 -0.594 -0.576 -0.619 -0.648 -0.628 -0.611 -0.62 -0.604 -0.617 -0.683 -0.654 -0.608 -0.627 -0.631 -0.649 -0.642 -0.65 -0.682 -0.714 -0.691 -0.672 -0.61 -0.634 -0.682 -0.662 -0.693 -0.71 -0.704 -0.722 -0.72 -0.731 -0.717 -0.767 -0.653 -0.703 -0.707 -0.769 -0.768 -0.823 -0.822 -0.795 -0.791 -0.838 -0.843 -0.849 -0.835 -0.818 -0.816 -0.789 -0.792 -0.813 -0.801 -0.801 -0.812 -0.811 -0.819 -0.79 -0.804 -0.816 -0.796 -0.786 -0.798 -0.784 -0.81 -0.811 -0.796 -0.846 -0.809 -0.86 -0.861 -0.879 -0.809 -0.847 -0.808 -0.864 -0.881 -0.88 -0.916 -0.86 -0.895 -0.917 -0.93 -0.901 -0.952 -0.899 -0.968 -0.972 -0.964 -0.959 -0.907 -0.944 -0.99 -1.01 -0.974 -0.987 -1.055 -1.052 -1.065 -1.07 -1.088 -1.104 -1.168 -1.218 -1.195 -1.145 -1.201 -1.184 -1.168 -1.233 -1.294 -1.208 -1.174 -1.232 -1.25 -1.213 -1.262 -1.276 -1.269 -1.268 -1.306 -1.284 -1.256 -1.327 -1.379 -1.338 -1.302 -1.306 -1.345 -1.365 -1.377 -1.384 -1.308 -1.376 -1.416 -1.459 -1.411 -1.458 -1.457 -1.518 -1.52 -1.558 -1.557 -1.551 -1.595 -1.63 -1.599 -1.572 -1.699 -1.673 -1.679 -1.662 -1.668 -1.719 -1.762 -1.754 -1.769 -1.755 -1.792 -1.778 -1.766 -1.74 -1.77 -1.752 -1.777 -1.793 -1.785 -1.793 -1.836 -1.82 -1.802 -1.809 -1.816 -1.785 -1.775 -1.802 -1.858 -1.81 -1.796 -1.819 -1.783 -1.757 -1.767 -1.752 -1.75 -1.794 -1.767 -1.765 -1.751 -1.712 -1.716 -1.702 -1.69 -1.696 -1.688 -1.686 -1.644 -1.621 -1.644 -1.647 -1.664 -1.681 -1.678 -1.693 -1.704 -1.738 -1.709 -1.701 -1.674 -1.659 -1.678 -1.698 -1.697 -1.73 -1.714 -1.741 -1.766 -1.785 -1.759 -1.795 -1.778 -1.806 -1.843 -1.875 -1.857 -1.872 -1.879 -1.911 -1.924 -1.975 -2.005 -2.085 -2.009 -2.083 -2.062 -2.014 -2.073 -2.034 -1.96 -2.029 -2.007 -1.983 -2.056 -2.022 -2.026 -2.027 -2.01 -1.998 -2.073 -2.034 -2.049
0.367 0.366 0.433 0.36 0.397 0.372 0.392 0.352 0.413 0.438 0.421 0.491 0.517 0.538 0.616 0.586 0.569 0.515 0.474 0.514 0.428 0.406 0.345 0.325 0.319 0.327 0.311 0.282 0.224 0.262 0.214 0.204 0.265 0.158 0.147 0.095 0.151 0.164 0.131 0.109 0.04 0.044 -0.017 -0.053 -0.046 -0.051 0.006 -0.071 -0.066 -0.058 -0.06 -0.089 -0.088 -0.049 -0.064 -0.097 -0.079 -0.087 -0.071 -0.083 -0.05 -0.053 -0.042 -0.044 -0.035 -0.03 -0.011 -0.026 -0.045 -0.063 -0.078 -0.064 -0.072 -0.119 -0.138 -0.145 -0.149 -0.158 -0.152 -0.157 -0.137 -0.164 -0.127 -0.107 -0.147 -0.164 -0.122 -0.155 -0.155 -0.132 -0.225 -0.191 -0.177 -0.259 -0.268 -0.235 -0.198 -0.269 -0.249 -0.298 -0.337 -0.343 -0.299 -0.352 -0.339 -0.345 -0.31 -0.323 -0.292 -0.285 -0.285 -0.271 -0.265 -0.259 -0.283 -0.259 -0.283 -0.265 -0.285 -0.247 -0.237 -0.296 -0.295 -0.318 -0.345 -0.335 -0.352 -0.34 -0.352 -0.385 -0.377 -0.365 -0.36 -0.393 -0.392 -0.387 -0.384 -0.4 -0.405 -0.437 -0.403 -0.441 -0.438 -0.425 -0.445 -0.459 -0.473 -0.482 -0.482 -0.487 -0.482 -0.493 -0.481 -0.371 -0.377 -0.373 -0.415 -0.423 -0.421 -0.395 -0.388 -0.356 -0.345 -0.38 -0.365 -0.369 -0.352 -0.381 -0.362 -0.369 -0.376 -0.399 -0.365 -0.415 -0.381 -0.364 -0.379 -0.404 -0.456 -0.48 -0.5 -0.517 -0.487 -0.482 -0.519 -0.548 -0.619 -0.575 -0.564 -0.593 -0.571 -0.611 -0.534 -0.586 -0.511 -0.538 -0.548 -0.573 -0.614 -0.585 -0.598 -0.623 -0.635 -0.594 -0.62 -0.638 -0.625 -0.667 -0.663 -0.652 -0.656 -0.637 -0.673 -0.623 -0.652 -0.654 -0.653 -0.66 -0.652 -0.601 -0.697 -0.66 -0.64 -0.689 -0.721 -0.718 -0.729 -0.781 -0.842 -0.785 -0.73 -0.738 -0.763 -0.753 -0.785 -0.806 -0.784 -0.821 -0.792 -0.824 -0.861 -0.825 -0.804 -0.81 -0.803 -0.799 -0.792 -0.823 -0.804 -0.828 -0.818 -0.81 -0.8 -0.796 -0.804 -0.803 -0.768 -0.793 -0.808 -0.824 -0.806 -0.808 -0.797 -0.844 -0.857 -0.869 -0.838 -0.87 -0.875 -0.89 -0.878 -0.877 -0.866 -0.902 -0.894 -0.889 -0.931 -0.856 -0.851 -0.948 -0.929 -0.935 -0.924 -0.946 -0.975 -0.982 -0.937 -0.995 -1.024 -0.989 -1.03 -1.016 -1.023 -1.083 -1.051 -1.054 -1.133 -1.15 -1.081 -1.178 -1.107 -1.179 -1.184 -1.16 -1.194 -1.213 -1.265 -1.179 -1.187 -1.257 -1.207 -1.273 -1.221 -1.264 -1.224 -1.208 -1.213 -1.282 -1.279 -1.333 -1.325 -1.341 -1.341 -1.321 -1.342 -1.376 -1.395 -1.378 -1.383 -1.438 -1.472 -1.456 -1.484 -1.491 -1.458 -1.537 -1.465 -1.58 -1.58 -1.678 -1.662 -1.648 -1.634 -1.703 -1.659 -1.626 -1.689 -1.683 -1.718 -1.703 -1.751 -1.758 -1.809 -1.789 -1.758 -1.758 -1.809 -1.739 -1.76 -1.756 -1.779 -1.788 -1.825 -1.842 -1.818 -1.814 -1.813 -1.85 -1.799 -1.769 -1.805 -1.867 -1.795 -1.835 -1.796 -1.784 -1.787 -1.789 -1.785 -1.765 -1.772 -1.796 -1.778 -1.784 -1.737 -1.743 -1.713 -1.703 -1.722 -1.72 -1.675 -1.649 -1.619 -1.619 -1.659 -1.679 -1.685 -1.709 -1.724 -1.725 -1.749 -1.729 -1.688 -1.641 -1.625 -1.658 -1.681 -1.652 -1.68 -1.707 -1.691 -1.745 -1.723 -1.732 -1.741 -1.778 -1.796 -1.807 -1.851 -1.843 -1.893 -1.889 -1.874 -1.938 -1.941 -2.02 -2.002 -1.98 -2.05 -2.027 -2.067 -2.073 -2.116 -1.993 -2.082 -2.022 -2.022 -2.067 -2.09 -2.029 -2.06 -2.01 -2.046 -2.059 -2.039 -2.029
0.403 0.482 0.447 0.354 0.433 0.371 0.438 0.401 0.403 0.424 0.537 0.494 0.552 0.576 0.589 0.612 0.541 0.567 0.553 0.498 0.461 0.393 0.354 0.352 0.357 0.32 0.324 0.319 0.241 0.311 0.23 0.293 0.3 0.213 0.172 0.123 0.128 0.124 0.129 0.133 0.076 -0.02 0.001 -0.057 -0.055 -0.044 -0.083 -0.085 -0.052 -0.081 -0.064 -0.099 -0.06 -0.059 -0.071 -0.063 -0.086 -0.066 -0.028 -0.073 -0.086 -0.052 -0.053 -0.033 -0.046 -0.05 -0.021 -0.043 -0.04 -0.067 -0.078 -0.082 -0.103 -0.116 -0.134 -0.131 -0.133 -0.143 -0.139 -0.153 -0.149 -0.179 -0.167 -0.159 -0.124 -0.151 -0.158 -0.188 -0.18 -0.137 -0.18 -0.228 -0.194 -0.248 -0.225 -0.251 -0.25 -0.325 -0.256 -0.251 -0.332 -0.328 -0.345 -0.358 -0.304 -0.327 -0.331 -0.309 -0.321 -0.281 -0.328 -0.28 -0.29 -0.297 -0.313 -0.318 -0.31 -0.298 -0.322 -0.276 -0.271 -0.311 -0.316 -0.317 -0.315 -0.322 -0.337 -0.33 -0.337 -0.382 -0.37 -0.36 -0.352 -0.375 -0.372 -0.396 -0.389 -0.408 -0.405 -0.428 -0.427 -0.44 -0.445 -0.428 -0.446 -0.466 -0.474 -0.483 -0.506 -0.465 -0.455 -0.506 -0.446 -0.386 -0.396 -0.442 -0.355 -0.34 -0.434 -0.396 -0.41 -0.419 -0.413 -0.381 -0.396 -0.405 -0.366 -0.37 -0.409 -0.38 -0.372 -0.366 -0.36 -0.422 -0.414 -0.353 -0.36 -0.395 -0.458 -0.476 -0.504 -0.445 -0.458 -0.471 -0.478 -0.515 -0.496 -0.505 -0.577 -0.586 -0.556 -0.535 -0.574 -0.532 -0.578 -0.579 -0.572 -0.532 -0.577 -0.609 -0.626 -0.605 -0.604 -0.609 -0.617 -0.61 -0.624 -0.568 -0.678 -0.666 -0.678 -0.719 -0.675 -0.655 -0.667 -0.634 -0.669 -0.643 -0.614 -0.6 -0.637 -0.617 -0.708 -0.653 -0.662 -0.703 -0.736 -0.723 -0.801 -0.822 -0.682 -0.751 -0.738 -0.809 -0.766 -0.807 -0.777 -0.76 -0.808 -0.81 -0.812 -0.809 -0.797 -0.774 -0.807 -0.808 -0.803 -0.809 -0.81 -0.83 -0.831 -0.808 -0.793 -0.793 -0.8 -0.795 -0.804 -0.793 -0.813 -0.808 -0.795 -0.779 -0.838 -0.825 -0.846 -0.814 -0.856 -0.868 -0.894 -0.842 -0.901 -0.846 -0.909 -0.897 -0.899 -0.896 -0.861 -0.9 -0.907 -0.929 -0.92 -0.934 -0.914 -0.9 -0.9 -0.937 -0.963 -0.963 -0.965 -1.017 -1.004 -1.031 -1.071 -1.089 -1.083 -1.093 -1.069 -1.131 -1.158 -1.162 -1.172 -1.161 -1.134 -1.112 -1.112 -1.154 -1.191 -1.177 -1.215 -1.227 -1.253 -1.223 -1.249 -1.246 -1.233 -1.272 -1.194 -1.256 -1.273 -1.272 -1.286 -1.264 -1.298 -1.377 -1.302 -1.319 -1.367 -1.405 -1.299 -1.397 -1.354 -1.419 -1.447 -1.493 -1.489 -1.538 -1.509 -1.565 -1.6 -1.683 -1.592 -1.664 -1.606 -1.761 -1.65 -1.57 -1.594 -1.673 -1.695 -1.718 -1.672 -1.719 -1.765 -1.737 -1.733 -1.765 -1.811 -1.749 -1.783 -1.731 -1.804 -1.784 -1.809 -1.863 -1.781 -1.786 -1.829 -1.796 -1.79 -1.803 -1.775 -1.806 -1.839 -1.816 -1.79 -1.783 -1.786 -1.794 -1.766 -1.797 -1.785 -1.823 -1.765 -1.792 -1.785 -1.747 -1.751 -1.736 -1.74 -1.7 -1.679 -1.667 -1.637 -1.658 -1.69 -1.739 -1.723 -1.759 -1.742 -1.752 -1.718 -1.696 -1.665 -1.624 -1.604 -1.648 -1.647 -1.636 -1.658 -1.688 -1.707 -1.705 -1.696 -1.712 -1.734 -1.719 -1.743 -1.782 -1.83 -1.84 -1.903 -1.901 -1.912 -1.935 -1.916 -1.991 -2.044 -1.985 -2.096 -2.054 -2.037 -2.028 -2.081 -2.024 -2.022 -1.996 -2.016 -2.067 -2.068 -2.112 -2.033 -2.069 -1.987 -2.024 -2.049 -1.993
0.493 0.412 0.44 0.441 0.413 0.458 0.378 0.434 0.518 0.514 0.586 0.625 0.548 0.584 0.581 0.606 0.561 0.558 0.57 0.467 0.433 0.376 0.373 0.345 0.424 0.335 0.35 0.341 0.28 0.314 0.35 0.292 0.286 0.184 0.205 0.181 0.17 0.145 0.137 0.113 0.034 0.001 0.025 -0.018 -0.016 -0.062 -0.006 -0.091 -0.046 -0.083 -0.108 -0.062 -0.048 -0.049 -0.079 -0.056 -0.055 -0.074 -0.076 -0.064 -0.081 -0.049 -0.054 -0.054 -0.054 -0.049 -0.061 -0.06 -0.061 -0.07 -0.079 -0.106 -0.103 -0.099 -0.141 -0.134 -0.144 -0.157 -0.145 -0.149 -0.166 -0.169 -0.169 -0.161 -0.167 -0.152 -0.145 -0.167 -0.191 -0.196 -0.213 -0.182 -0.187 -0.241 -0.243 -0.289 -0.241 -0.268 -0.211 -0.276 -0.293 -0.339 -0.347 -0.331 -0.333 -0.343 -0.356 -0.352 -0.342 -0.343 -0.345 -0.339 -0.333 -0.325 -0.315 -0.34 -0.338 -0.327 -0.306 -0.289 -0.301 -0.31 -0.314 -0.321 -0.305 -0.305 -0.325 -0.347 -0.35 -0.372 -0.37 -0.372 -0.365 -0.375 -0.355 -0.377 -0.389 -0.396 -0.407 -0.421 -0.427 -0.44 -0.448 -0.452 -0.455 -0.44 -0.471 -0.479 -0.485 -0.485 -0.516 -0.506 -0.497 -0.445 -0.379 -0.358 -0.428 -0.428 -0.387 -0.453 -0.456 -0.45 -0.433 -0.395 -0.413 -0.404 -0.404 -0.391 -0.365 -0.385 -0.374 -0.349 -0.411 -0.358 -0.389 -0.361 -0.397 -0.383 -0.405 -0.41 -0.487 -0.511 -0.487 -0.497 -0.48 -0.517 -0.528 -0.531 -0.498 -0.531 -0.541 -0.516 -0.579 -0.555 -0.544 -0.575 -0.553 -0.528 -0.538 -0.57 -0.566 -0.531 -0.597 -0.555 -0.578 -0.584 -0.583 -0.651 -0.607 -0.619 -0.611 -0.627 -0.646 -0.646 -0.623 -0.65 -0.696 -0.656 -0.59 -0.602 -0.615 -0.654 -0.657 -0.679 -0.608 -0.681 -0.71 -0.721 -0.749 -0.739 -0.701 -0.691 -0.741 -0.775 -0.771 -0.802 -0.827 -0.795 -0.814 -0.724 -0.738 -0.76 -0.778 -0.766 -0.812 -0.809 -0.78 -0.772 -0.798 -0.811 -0.808 -0.796 -0.806 -0.803 -0.801 -0.803 -0.801 -0.795 -0.82 -0.8 -0.804 -0.818 -0.817 -0.762 -0.832 -0.855 -0.827 -0.828 -0.86 -0.811 -0.883 -0.87 -0.855 -0.901 -0.879 -0.866 -0.891 -0.893 -0.93 -0.941 -0.916 -0.87 -0.905 -0.877 -0.915 -0.889 -0.967 -0.998 -0.941 -1.031 -1.024 -1.037 -1.065 -1.07 -1.102 -1.105 -1.113 -1.092 -1.124 -1.134 -1.156 -1.159 -1.144 -1.136 -1.109 -1.19 -1.152 -1.186 -1.187 -1.211 -1.202 -1.226 -1.22 -1.244 -1.258 -1.25 -1.254 -1.259 -1.256 -1.264 -1.262 -1.278 -1.314 -1.404 -1.328 -1.318 -1.332 -1.343 -1.355 -1.371 -1.394 -1.405 -1.443 -1.381 -1.409 -1.397 -1.44 -1.501 -1.503 -1.533 -1.526 -1.537 -1.587 -1.627 -1.764 -1.661 -1.661 -1.735 -1.768 -1.756 -1.637 -1.669 -1.727 -1.714 -1.702 -1.763 -1.76 -1.768 -1.788 -1.765 -1.755 -1.781 -1.803 -1.872 -1.817 -1.776 -1.828 -1.801 -1.796 -1.8 -1.775 -1.827 -1.823 -1.81 -1.871 -1.775 -1.788 -1.798 -1.788 -1.798 -1.827 -1.811 -1.782 -1.793 -1.784 -1.775 -1.78 -1.769 -1.75 -1.7 -1.689 -1.672 -1.667 -1.695 -1.705 -1.712 -1.743 -1.749 -1.759 -1.776 -1.715 -1.705 -1.677 -1.662 -1.629 -1.647 -1.648 -1.617 -1.641 -1.666 -1.721 -1.683 -1.634 -1.677 -1.685 -1.715 -1.726 -1.783 -1.817 -1.815 -1.849 -1.884 -1.927 -1.93 -1.915 -1.987 -2.03 -2.028 -2.006 -2.041 -2.025 -2.042 -2.048 -2.032 -2.067 -2.018 -2.052 -1.985 -2.017 -2.068 -2.07 -2.013 -2.047 -2.097 -2.047 -2.074
0.485 0.429 0.453 0.474 0.47 0.469 0.453 0.558 0.591 0.592 0.589 0.554 0.607 0.564 0.603 0.594 0.564 0.568 0.513 0.487 0.374 0.399 0.415 0.405 0.348 0.357 0.286 0.341 0.277 0.284 0.273 0.257 0.22 0.212 0.199 0.167 0.199 0.157 0.096 0.095 0.092 0.102 0.013 -0.002 -0.009 0.023 -0.07 -0.039 -0.059 -0.101 -0.091 -0.12 -0.093 -0.081 -0.075 -0.075 -0.059 -0.036 -0.061 -0.033 -0.069 -0.07 -0.087 -0.073 -0.066 -0.056 -0.09 -0.085 -0.087 -0.105 -0.118 -0.092 -0.093 -0.106 -0.117 -0.134 -0.145 -0.153 -0.15 -0.139 -0.164 -0.171 -0.18 -0.175 -0.156 -0.151 -0.175 -0.18 -0.159 -0.18 -0.191 -0.207 -0.19 -0.2 -0.222 -0.252 -0.25 -0.28 -0.278 -0.28 -0.312 -0.361 -0.323 -0.357 -0.374 -0.39 -0.331 -0.394 -0.36 -0.33 -0.314 -0.351 -0.351 -0.345 -0.35 -0.354 -0.35 -0.348 -0.342 -0.308 -0.328 -0.333 -0.345 -0.352 -0.332 -0.275 -0.315 -0.352 -0.36 -0.357 -0.38 -0.357 -0.387 -0.39 -0.39 -0.372 -0.392 -0.38 -0.395 -0.398 -0.412 -0.428 -0.446 -0.458 -0.449 -0.448 -0.487 -0.444 -0.49 -0.484 -0.533 -0.511 -0.569 -0.533 -0.415 -0.425 -0.52 -0.377 -0.44 -0.501 -0.496 -0.445 -0.46 -0.43 -0.427 -0.439 -0.4 -0.388 -0.384 -0.382 -0.371 -0.425 -0.383 -0.392 -0.397 -0.388 -0.349 -0.36 -0.451 -0.449 -0.414 -0.486 -0.481 -0.504 -0.472 -0.489 -0.476 -0.503 -0.493 -0.491 -0.516 -0.555 -0.529 -0.545 -0.54 -0.555 -0.58 -0.556 -0.553 -0.545 -0.559 -0.547 -0.539 -0.567 -0.576 -0.564 -0.577 -0.649 -0.564 -0.582 -0.596 -0.677 -0.599 -0.603 -0.65 -0.566 -0.584 -0.622 -0.618 -0.635 -0.627 -0.605 -0.605 -0.608 -0.621 -0.655 -0.741 -0.733 -0.746 -0.711 -0.723 -0.67 -0.716 -0.748 -0.691 -0.768 -0.761 -0.843 -0.804 -0.822 -0.757 -0.778 -0.792 -0.763 -0.774 -0.763 -0.797 -0.76 -0.783 -0.802 -0.79 -0.811 -0.803 -0.822 -0.811 -0.793 -0.773 -0.775 -0.789 -0.776 -0.803 -0.796 -0.822 -0.776 -0.818 -0.833 -0.834 -0.813 -0.802 -0.863 -0.86 -0.848 -0.844 -0.829 -0.881 -0.909 -0.926 -0.915 -0.915 -0.919 -0.87 -0.879 -0.918 -0.927 -0.922 -0.909 -1.015 -0.983 -0.953 -1.038 -1.006 -1.004 -1.042 -1.044 -0.995 -1.096 -1.08 -1.076 -1.085 -1.143 -1.152 -1.141 -1.121 -1.101 -1.122 -1.143 -1.169 -1.167 -1.185 -1.199 -1.229 -1.174 -1.213 -1.228 -1.214 -1.208 -1.217 -1.257 -1.295 -1.222 -1.237 -1.267 -1.341 -1.322 -1.334 -1.319 -1.314 -1.361 -1.309 -1.336 -1.362 -1.383 -1.357 -1.398 -1.394 -1.437 -1.488 -1.493 -1.483 -1.485 -1.453 -1.494 -1.562 -1.572 -1.655 -1.623 -1.618 -1.668 -1.63 -1.654 -1.658 -1.668 -1.663 -1.72 -1.687 -1.749 -1.738 -1.703 -1.769 -1.791 -1.744 -1.813 -1.748 -1.861 -1.812 -1.768 -1.786 -1.79 -1.821 -1.842 -1.813 -1.751 -1.775 -1.738 -1.804 -1.82 -1.765 -1.769 -1.75 -1.807 -1.831 -1.823 -1.799 -1.791 -1.803 -1.783 -1.797 -1.79 -1.765 -1.717 -1.706 -1.726 -1.709 -1.71 -1.744 -1.742 -1.759 -1.77 -1.791 -1.796 -1.729 -1.737 -1.713 -1.668 -1.665 -1.678 -1.644 -1.646 -1.646 -1.678 -1.684 -1.638 -1.641 -1.647 -1.667 -1.704 -1.76 -1.771 -1.769 -1.811 -1.851 -1.879 -1.891 -1.982 -1.926 -1.944 -2.004 -2.088 -2.028 -2.079 -2.07 -2.024 -1.997 -2.061 -1.998 -2.046 -2.002 -2.038 -2.046 -2.038 -2.087 -2.09 -2.094 -2.091 -2.041 -2.013
0.441 0.468 0.454 0.487 0.522 0.495 0.552 0.558 0.578 0.616 0.636 0.604 0.555 0.558 0.608 0.574 0.532 0.539 0.487 0.456 0.437 0.4 0.391 0.437 0.369 0.377 0.394 0.313 0.292 0.337 0.351 0.264 0.28 0.253 0.2 0.205 0.117 0.13 0.17 0.136 0.103 0.08 0.014 0.04 0.023 -0.036 -0.022 -0.093 -0.116 -0.082 -0.039 -0.122 -0.111 -0.115 -0.055 -0.047 -0.062 -0.053 -0.027 -0.065 -0.077 -0.11 -0.089 -0.083 -0.085 -0.068 -0.089 -0.099 -0.113 -0.104 -0.104 -0.12 -0.098 -0.092 -0.112 -0.107 -0.157 -0.153 -0.137 -0.178 -0.181 -0.174 -0.171 -0.183 -0.132 -0.161 -0.155 -0.158 -0.16 -0.152 -0.208 -0.215 -0.196 -0.192 -0.27 -0.265 -0.288 -0.27 -0.29 -0.305 -0.307 -0.303 -0.313 -0.322 -0.387 -0.37 -0.361 -0.388 -0.387 -0.376 -0.397 -0.34 -0.388 -0.347 -0.368 -0.374 -0.388 -0.381 -0.383 -0.349 -0.358 -0.348 -0.388 -0.374 -0.374 -0.335 -0.369 -0.366 -0.376 -0.37 -0.38 -0.36 -0.387 -0.382 -0.407 -0.375 -0.412 -0.38 -0.401 -0.411 -0.419 -0.437 -0.448 -0.431 -0.462 -0.444 -0.482 -0.463 -0.487 -0.488 -0.516 -0.509 -0.52 -0.503 -0.504 -0.492 -0.493 -0.475 -0.509 -0.507 -0.513 -0.482 -0.469 -0.462 -0.462 -0.449 -0.434 -0.442 -0.428 -0.407 -0.401 -0.385 -0.414 -0.397 -0.394 -0.356 -0.386 -0.413 -0.405 -0.449 -0.432 -0.447 -0.46 -0.441 -0.47 -0.433 -0.476 -0.434 -0.472 -0.528 -0.508 -0.448 -0.574 -0.482 -0.505 -0.516 -0.552 -0.586 -0.557 -0.555 -0.548 -0.485 -0.559 -0.588 -0.527 -0.574 -0.567 -0.561 -0.513 -0.602 -0.583 -0.532 -0.598 -0.605 -0.609 -0.624 -0.629 -0.653 -0.618 -0.633 -0.607 -0.582 -0.65 -0.635 -0.625 -0.68 -0.712 -0.687 -0.738 -0.761 -0.703 -0.609 -0.682 -0.755 -0.668 -0.693 -0.785 -0.822 -0.837 -0.819 -0.818 -0.824 -0.78 -0.757 -0.769 -0.756 -0.756 -0.763 -0.807 -0.773 -0.782 -0.796 -0.802 -0.806 -0.809 -0.817 -0.78 -0.823 -0.813 -0.799 -0.753 -0.793 -0.801 -0.826 -0.817 -0.834 -0.853 -0.846 -0.863 -0.839 -0.84 -0.815 -0.814 -0.827 -0.885 -0.82 -0.884 -0.894 -0.883 -0.89 -0.89 -0.919 -0.884 -0.891 -0.912 -0.961 -0.906 -0.945 -0.978 -0.952 -0.984 -0.937 -0.981 -1.034 -0.974 -0.991 -1.068 -1.098 -1.123 -1.118 -1.076 -1.106 -1.103 -1.074 -1.141 -1.11 -1.188 -1.142 -1.189 -1.235 -1.197 -1.201 -1.22 -1.195 -1.21 -1.278 -1.185 -1.23 -1.271 -1.256 -1.241 -1.227 -1.276 -1.3 -1.283 -1.281 -1.219 -1.297 -1.261 -1.362 -1.379 -1.423 -1.399 -1.412 -1.422 -1.449 -1.426 -1.454 -1.492 -1.443 -1.419 -1.501 -1.544 -1.564 -1.568 -1.613 -1.603 -1.632 -1.625 -1.657 -1.593 -1.643 -1.66 -1.744 -1.762 -1.675 -1.767 -1.657 -1.725 -1.716 -1.789 -1.768 -1.826 -1.849 -1.85 -1.741 -1.739 -1.739 -1.735 -1.804 -1.868 -1.786 -1.794 -1.772 -1.781 -1.817 -1.847 -1.811 -1.795 -1.814 -1.783 -1.783 -1.795 -1.805 -1.81 -1.807 -1.813 -1.784 -1.761 -1.737 -1.728 -1.727 -1.722 -1.712 -1.753 -1.774 -1.767 -1.81 -1.817 -1.827 -1.76 -1.747 -1.727 -1.724 -1.696 -1.676 -1.663 -1.681 -1.669 -1.689 -1.681 -1.635 -1.597 -1.622 -1.646 -1.717 -1.726 -1.739 -1.812 -1.837 -1.845 -1.824 -1.934 -1.936 -1.99 -1.937 -2.06 -2.025 -2.13 -2.056 -2.026 -2.025 -2.019 -2.047 -2.044 -2.115 -2.06 -1.979 -1.999 -2.079 -2.094 -2.103 -2.078 -2.055 -2.095 -2.014
0.477 0.526 0.469 0.541 0.537 0.58 0.566 0.612 0.595 0.648 0.588 0.592 0.554 0.576 0.609 0.586 0.549 0.553 0.491 0.486 0.443 0.446 0.452 0.424 0.41 0.398 0.462 0.437 0.337 0.346 0.348 0.322 0.261 0.298 0.242 0.186 0.152 0.155 0.13 0.179 0.106 0.035 0.058 0.04 0.03 0.036 0.031 -0.033 -0.081 -0.075 0.003 -0.046 -0.071 -0.068 -0.094 -0.112 -0.072 -0.076 -0.069 -0.106 -0.077 -0.105 -0.093 -0.096 -0.11 -0.115 -0.09 -0.11 -0.096 -0.087 -0.096 -0.099 -0.092 -0.088 -0.084 -0.125 -0.147 -0.123 -0.132 -0.175 -0.159 -0.154 -0.15 -0.165 -0.138 -0.144 -0.132 -0.157 -0.178 -0.161 -0.193 -0.2 -0.206 -0.229 -0.215 -0.199 -0.208 -0.313 -0.276 -0.262 -0.292 -0.305 -0.276 -0.353 -0.37 -0.358 -0.377 -0.335 -0.387 -0.391 -0.353 -0.397 -0.365 -0.367 -0.375 -0.404 -0.42 -0.415 -0.37 -0.354 -0.386 -0.395 -0.401 -0.413 -0.395 -0.398 -0.397 -0.379 -0.382 -0.402 -0.396 -0.387 -0.402 -0.39 -0.402 -0.407 -0.412 -0.39 -0.4 -0.417 -0.441 -0.441 -0.446 -0.457 -0.471 -0.473 -0.482 -0.479 -0.452 -0.475 -0.487 -0.495 -0.488 -0.5 -0.5 -0.522 -0.503 -0.477 -0.504 -0.492 -0.478 -0.486 -0.504 -0.507 -0.486 -0.484 -0.451 -0.471 -0.426 -0.424 -0.459 -0.423 -0.412 -0.441 -0.411 -0.382 -0.406 -0.343 -0.434 -0.44 -0.38 -0.448 -0.406 -0.391 -0.435 -0.446 -0.465 -0.519 -0.502 -0.46 -0.505 -0.56 -0.555 -0.531 -0.504 -0.53 -0.546 -0.54 -0.529 -0.498 -0.526 -0.503 -0.506 -0.558 -0.59 -0.578 -0.532 -0.556 -0.558 -0.641 -0.541 -0.584 -0.547 -0.572 -0.57 -0.573 -0.582 -0.613 -0.606 -0.614 -0.636 -0.596 -0.641 -0.655 -0.623 -0.621 -0.629 -0.635 -0.691 -0.813 -0.662 -0.717 -0.682 -0.734 -0.723 -0.672 -0.782 -0.776 -0.797 -0.798 -0.721 -0.788 -0.756 -0.756 -0.774 -0.758 -0.759 -0.771 -0.789 -0.769 -0.812 -0.793 -0.786 -0.808 -0.794 -0.799 -0.762 -0.815 -0.757 -0.815 -0.796 -0.812 -0.753 -0.831 -0.833 -0.845 -0.839 -0.832 -0.895 -0.798 -0.849 -0.789 -0.849 -0.87 -0.861 -0.9 -0.822 -0.901 -0.877 -0.903 -0.947 -0.919 -0.929 -0.93 -0.935 -0.973 -0.945 -0.945 -0.967 -0.978 -0.932 -0.995 -0.955 -0.992 -1.037 -1.028 -1.08 -1.066 -1.089 -1.069 -1.165 -1.093 -1.128 -1.085 -1.097 -1.094 -1.144 -1.125 -1.156 -1.094 -1.126 -1.171 -1.194 -1.169 -1.22 -1.254 -1.226 -1.231 -1.255 -1.256 -1.253 -1.272 -1.274 -1.299 -1.292 -1.33 -1.272 -1.249 -1.271 -1.326 -1.328 -1.394 -1.399 -1.43 -1.413 -1.386 -1.486 -1.522 -1.424 -1.434 -1.452 -1.481 -1.5 -1.588 -1.589 -1.482 -1.551 -1.563 -1.583 -1.627 -1.606 -1.606 -1.605 -1.605 -1.686 -1.685 -1.684 -1.674 -1.724 -1.723 -1.74 -1.739 -1.783 -1.792 -1.833 -1.754 -1.71 -1.777 -1.732 -1.751 -1.853 -1.862 -1.789 -1.773 -1.786 -1.788 -1.781 -1.871 -1.8 -1.82 -1.771 -1.806 -1.822 -1.798 -1.817 -1.793 -1.774 -1.762 -1.747 -1.758 -1.722 -1.75 -1.753 -1.744 -1.759 -1.774 -1.802 -1.812 -1.834 -1.825 -1.788 -1.77 -1.74 -1.746 -1.735 -1.706 -1.678 -1.683 -1.661 -1.69 -1.674 -1.651 -1.629 -1.639 -1.67 -1.706 -1.716 -1.729 -1.746 -1.831 -1.841 -1.87 -1.933 -1.98 -2.002 -2.009 -1.971 -2.032 -2.017 -2.036 -2.061 -2.029 -2.107 -2.089 -2.026 -2.074 -2.058 -2.094 -2.099 -2.072 -2.035 -2.071 -2.021 -2.017 -2.048 -2.055
0.514 0.511 0.53 0.512 0.533 0.6 0.619 0.64 0.658 0.647 0.612 0.59 0.611 0.589 0.587 0.563 0.532 0.539 0.523 0.464 0.54 0.468 0.426 0.458 0.439 0.387 0.4 0.421 0.387 0.324 0.348 0.356 0.333 0.303 0.247 0.257 0.165 0.202 0.148 0.121 0.128 0.076 0.079 0.054 -0.002 0.016 -0.017 -0.047 -0.067 0.031 -0.017 -0.098 -0.074 -0.104 -0.041 -0.101 -0.096 -0.06 -0.057 -0.089 -0.075 -0.092 -0.091 -0.12 -0.126 -0.161 -0.122 -0.116 -0.093 -0.078 -0.076 -0.072 -0.071 -0.068 -0.056 -0.117 -0.098 -0.109 -0.143 -0.136 -0.14 -0.165 -0.142 -0.143 -0.122 -0.136 -0.153 -0.149 -0.178 -0.149 -0.189 -0.18 -0.201 -0.211 -0.217 -0.215 -0.252 -0.256 -0.328 -0.292 -0.323 -0.329 -0.35 -0.37 -0.343 -0.349 -0.371 -0.377 -0.349 -0.333 -0.393 -0.357 -0.357 -0.348 -0.35 -0.378 -0.416 -0.392 -0.402 -0.408 -0.395 -0.422 -0.414 -0.419 -0.42 -0.428 -0.428 -0.419 -0.422 -0.413 -0.437 -0.422 -0.42 -0.407 -0.4 -0.427 -0.43 -0.415 -0.42 -0.442 -0.447 -0.454 -0.471 -0.462 -0.458 -0.495 -0.48 -0.493 -0.462 -0.492 -0.482 -0.472 -0.475 -0.49 -0.49 -0.51 -0.517 -0.522 -0.469 -0.497 -0.489 -0.482 -0.486 -0.488 -0.463 -0.446 -0.465 -0.466 -0.439 -0.463 -0.444 -0.417 -0.426 -0.413 -0.393 -0.388 -0.396 -0.408 -0.399 -0.411 -0.36 -0.378 -0.44 -0.435 -0.427 -0.443 -0.468 -0.479 -0.455 -0.473 -0.472 -0.481 -0.547 -0.499 -0.519 -0.457 -0.522 -0.509 -0.547 -0.507 -0.567 -0.546 -0.506 -0.521 -0.499 -0.518 -0.556 -0.527 -0.535 -0.573 -0.523 -0.527 -0.561 -0.581 -0.578 -0.558 -0.552 -0.609 -0.591 -0.662 -0.701 -0.7 -0.585 -0.587 -0.635 -0.628 -0.639 -0.623 -0.695 -0.675 -0.674 -0.739 -0.692 -0.704 -0.706 -0.631 -0.729 -0.774 -0.803 -0.795 -0.763 -0.835 -0.812 -0.757 -0.824 -0.797 -0.785 -0.805 -0.778 -0.783 -0.777 -0.786 -0.787 -0.778 -0.79 -0.79 -0.772 -0.789 -0.782 -0.804 -0.822 -0.807 -0.81 -0.785 -0.825 -0.813 -0.8 -0.769 -0.793 -0.822 -0.809 -0.784 -0.812 -0.889 -0.867 -0.841 -0.921 -0.82 -0.88 -0.888 -0.903 -0.902 -0.946 -0.896 -0.914 -0.927 -0.935 -0.887 -0.901 -0.992 -0.983 -1.017 -1.019 -1.037 -0.988 -1.032 -1.077 -1.096 -1.054 -1.046 -1.045 -1.049 -1.083 -1.109 -1.097 -1.129 -1.075 -1.135 -1.19 -1.15 -1.146 -1.183 -1.141 -1.207 -1.209 -1.24 -1.261 -1.267 -1.22 -1.246 -1.244 -1.283 -1.289 -1.255 -1.262 -1.268 -1.285 -1.275 -1.286 -1.334 -1.326 -1.37 -1.345 -1.374 -1.339 -1.392 -1.364 -1.443 -1.429 -1.424 -1.47 -1.384 -1.467 -1.499 -1.553 -1.473 -1.484 -1.532 -1.554 -1.547 -1.58 -1.581 -1.621 -1.673 -1.629 -1.697 -1.634 -1.693 -1.713 -1.71 -1.699 -1.738 -1.814 -1.822 -1.723 -1.765 -1.794 -1.746 -1.765 -1.78 -1.808 -1.765 -1.8 -1.762 -1.787 -1.728 -1.768 -1.824 -1.767 -1.816 -1.768 -1.807 -1.808 -1.809 -1.825 -1.833 -1.776 -1.742 -1.773 -1.773 -1.757 -1.773 -1.779 -1.755 -1.784 -1.786 -1.803 -1.828 -1.864 -1.821 -1.813 -1.793 -1.761 -1.791 -1.742 -1.725 -1.679 -1.647 -1.632 -1.639 -1.65 -1.647 -1.645 -1.647 -1.678 -1.691 -1.729 -1.728 -1.74 -1.799 -1.866 -1.871 -1.89 -1.94 -1.896 -1.924 -2.004 -2.004 -2.03 -2.045 -2.063 -2.068 -2.035 -2.013 -2.01 -2.003 -2.067 -2.043 -2.045 -2.02 -2.06 -2.037 -1.989 -2.012 -1.979 -2.022
