ncols 448
nrows 30
xllcorner    461082
yllcorner    85376
cellsize     2
NODATA_value -9999
13.334 11.574 11.676 11.789 11.921 11.986 11.906 11.889 11.894 11.999 12.164 12.369 12.599 12.744 12.816 12.996 12.999 13.046 13.186 13.346 13.429 13.486 13.709 13.874 14.006 14.186 14.349 14.731 14.949 15.044 15.734 16.984 15.756 15.259 17.049 20.789 21.324 21.546 21.159 20.544 19.929 19.344 18.799 18.536 18.489 18.481 17.509 17.294 17.414 17.564 17.699 17.819 17.991 18.166 18.179 18.226 18.379 19.114 21.391 19.948 19.316 19.231 19.186 19.191 19.216 19.248 19.221 19.233 19.586 19.733 19.923 20.021 19.938 19.853 19.798 19.678 19.706 19.691 19.738 19.751 19.746 19.741 19.758 19.781 19.841 19.841 19.818 19.833 19.828 19.798 19.786 19.713 19.661 19.621 19.653 19.643 19.593 19.563 19.543 19.513 19.481 19.481 19.448 19.411 19.316 19.258 19.288 19.338 19.173 19.048 18.971 18.943 18.871 18.851 18.786 18.756 18.693 18.623 18.496 18.436 18.361 18.321 18.248 18.196 18.118 18.011 17.986 17.893 17.803 18.541 18.743 17.918 17.888 17.713 17.338 17.391 17.436 17.498 17.573 17.671 18.153 17.228 17.076 17.246 17.203 17.896 19.833 19.546 17.978 17.046 17.426 18.133 18.548 20.488 18.991 19.228 19.288 17.421 17.386 17.368 18.433 18.643 18.901 19.123 18.493 18.731 18.731 20.333 21.503 20.111 19.031 18.983 19.068 19.068 19.048 19.123 19.138 19.203 19.318 19.238 19.313 19.486 19.573 19.586 19.626 19.613 19.583 19.608 19.703 19.788 19.806 19.841 19.813 19.841 19.848 19.886 19.968 19.983 20.051 20.121 20.168 20.266 20.481 20.571 20.588 20.286 20.063 20.208 22.218 21.173 20.631 20.286 20.456 20.671 20.721 20.763 20.883 20.806 20.596 20.333 20.221 20.081 20.116 20.148 20.171 20.303 20.453 20.386 20.688 20.391 20.438 20.313 20.301 20.201 20.231 20.071 20.148 19.691 19.106 19.181 19.986 21.641 21.761 22.238 22.498 22.206 20.421 19.873 19.906 20.058 20.198 20.316 20.808 21.083 22.488 23.173 23.993 24.043 24.071 24.021 23.136 21.683 21.743 21.953 22.086 22.266 22.458 22.601 22.668 22.778 22.933 23.096 23.286 23.463 24.468 23.918 25.313 26.901 27.303 27.338 27.366 27.373 26.303 24.971 25.021 25.083 25.171 25.266 25.423 25.548 25.703 25.928 26.208 26.711 28.863 29.213 29.253 28.341 26.763 26.713 26.873 26.973 27.068 27.186 27.246 27.301 27.366 27.441 27.501 27.593 27.653 27.743 27.793 27.851 27.918 27.993 28.033 28.063 28.096 28.163 30.598 35.991 36.223 33.301 30.941 28.481 28.616 28.761 28.873 28.941 28.963 28.936 28.911 28.926 28.966 28.993 29.003 28.986 29.038 29.081 29.076 29.088 29.128 29.173 29.171 29.156 29.216 29.346 29.396 29.486 29.603 29.628 29.533 29.468 29.688 29.441 29.376 29.473 29.496 29.518 29.545 29.523 29.538 29.578 29.54 29.588 29.6 29.618 29.635 29.643 29.688 29.705 29.713 29.723 29.793 29.808 29.87 29.87 29.88 29.865 29.9 29.91 29.958 29.978 29.98 29.98 29.985 30.035 30.053 30.103 30.085 30.128 30.18 30.19 30.193 30.238 30.283 30.318 30.315 30.378 30.398 30.445 30.505 30.54 30.545 30.548 30.56 30.535 30.543 30.605 30.59 30.645 30.758 30.838 30.875 30.933 30.998 31.055 31.133 31.228 31.26 31.313 31.365 31.415 31.48 31.503 31.53 31.613 31.663 31.733 31.833 31.895 32.003 32.073 32.153 32.218 32.28 32.353 32.448 32.493 32.573 32.628 32.74 32.8 32.858 32.978 33.103 33.188
14.016 12.679 11.666 11.669 11.799 11.934 11.896 11.794 11.806 11.864 11.986 12.221 12.451 12.619 12.719 12.784 12.859 12.999 13.089 13.171 13.274 13.359 13.721 13.826 13.929 14.086 14.339 14.824 14.551 14.801 14.686 14.976 15.251 15.789 17.804 19.414 20.101 20.736 21.274 21.514 21.219 20.621 20.026 19.439 17.366 16.841 17.144 17.274 17.359 17.411 17.459 17.706 18.159 18.279 18.219 18.469 18.661 19.561 21.126 19.778 19.176 19.186 19.191 19.243 19.181 19.218 19.228 19.551 19.583 19.651 19.743 19.851 20.008 20.196 20.288 20.223 20.078 20.053 20.018 19.913 19.896 19.873 19.883 19.921 19.946 19.936 19.968 20.006 19.998 20.001 19.968 19.943 19.886 19.856 19.851 19.851 19.778 19.738 19.716 19.681 19.691 19.676 19.668 19.583 19.528 19.791 19.853 19.961 20.003 19.896 19.288 19.126 19.066 19.023 19.016 18.958 18.926 18.833 18.726 18.673 18.596 18.556 18.498 18.421 18.341 18.276 18.193 18.113 18.183 19.203 19.043 18.883 18.353 19.038 18.398 17.593 17.548 17.543 17.566 17.561 17.466 17.478 17.928 17.348 17.766 20.343 20.523 20.098 19.761 18.833 18.528 17.368 17.151 18.528 19.596 20.903 21.018 17.436 17.428 18.608 18.861 18.993 18.708 18.626 18.476 18.591 18.808 21.371 22.676 20.771 19.511 19.171 19.113 19.146 19.218 19.241 19.263 19.366 19.361 19.436 19.468 19.483 19.561 19.661 19.671 19.776 19.753 19.801 19.838 19.963 19.966 19.906 19.911 19.953 19.991 20.068 20.068 20.073 20.121 20.223 20.573 20.786 20.703 20.811 20.646 20.393 20.846 21.303 22.038 21.161 20.668 20.343 20.411 20.791 20.833 20.976 20.961 20.608 20.351 20.286 20.518 20.396 20.256 20.233 20.246 20.283 20.388 20.513 20.703 20.621 20.516 20.476 20.321 20.373 20.386 20.431 20.233 20.221 19.958 19.483 19.121 19.456 21.533 22.413 22.466 22.456 22.488 21.093 19.913 19.906 20.063 20.983 22.538 23.166 23.156 23.158 23.276 23.866 22.968 21.906 21.536 21.681 21.836 21.923 22.071 22.281 22.463 22.518 22.591 22.753 22.973 23.153 23.341 23.503 23.776 25.553 26.271 26.888 27.246 27.378 26.366 25.673 24.853 24.873 24.968 25.048 25.138 25.256 25.366 25.478 25.608 25.831 26.068 26.246 26.801 29.226 29.268 29.241 27.198 26.651 26.776 26.903 26.981 27.081 27.156 27.263 27.336 27.406 27.453 27.543 27.626 27.696 27.743 27.783 27.866 27.906 27.933 28.001 28.051 28.148 28.221 28.411 30.888 29.101 28.523 28.481 28.553 28.666 28.763 28.823 28.816 28.808 28.786 28.803 28.881 28.946 28.958 28.931 28.943 28.981 29.016 29.013 29.046 29.051 29.061 29.073 29.126 29.213 29.258 29.356 29.433 29.401 29.368 29.411 29.611 29.211 29.248 29.356 29.386 29.42 29.435 29.425 29.46 29.448 29.473 29.518 29.488 29.495 29.518 29.535 29.55 29.583 29.593 29.628 29.653 29.688 29.73 29.753 29.76 29.72 29.748 29.755 29.798 29.828 29.825 29.858 29.863 29.888 29.958 29.938 29.958 29.995 30.023 30.075 30.103 30.085 30.163 30.185 30.233 30.248 30.28 30.328 30.338 30.39 30.38 30.385 30.398 30.398 30.41 30.43 30.45 30.515 30.588 30.688 30.713 30.765 30.83 30.958 31.02 31.053 31.073 31.15 31.175 31.225 31.305 31.345 31.413 31.458 31.503 31.568 31.633 31.733 31.838 31.898 31.98 32.04 32.113 32.138 32.223 32.295 32.365 32.428 32.508 32.593 32.705 32.833 32.918 33.058
15.256 14.631 11.969 11.544 11.701 11.831 11.874 11.786 11.744 11.774 11.834 11.991 12.269 12.469 12.579 12.684 12.766 12.871 12.984 13.036 13.124 13.526 13.474 13.654 13.779 14.089 14.234 14.926 14.534 14.484 14.569 14.859 15.101 15.504 16.184 16.724 18.544 19.641 20.901 20.851 21.226 21.516 21.316 19.516 15.969 16.806 16.969 17.234 17.309 18.281 17.459 17.441 18.076 18.176 18.431 18.774 18.931 20.984 20.754 19.923 19.113 19.158 19.228 19.208 19.223 19.203 19.288 19.481 19.556 19.623 19.698 19.756 19.826 19.936 20.118 20.328 20.483 20.716 21.048 20.408 20.118 20.058 20.058 20.056 20.068 20.076 20.083 20.118 20.131 20.143 20.128 20.116 20.091 20.086 20.073 20.038 20.001 19.988 19.923 19.881 19.846 19.861 19.853 19.871 20.178 20.533 19.816 19.823 20.136 20.153 19.761 19.806 19.641 19.256 19.158 19.138 19.131 19.046 18.971 18.878 18.833 18.781 18.686 18.656 18.588 18.531 18.431 18.358 18.568 19.526 18.991 18.881 18.958 20.441 18.423 18.131 17.858 17.663 17.678 17.663 17.813 17.791 17.731 18.131 18.806 22.408 21.153 21.106 20.188 20.526 20.113 17.801 17.208 17.273 18.481 21.696 18.718 17.561 17.868 18.926 18.893 19.146 18.773 18.618 18.651 18.748 18.806 18.963 19.116 19.301 19.243 19.133 19.186 19.248 19.291 19.308 19.368 19.523 19.618 19.743 19.776 19.666 19.636 19.678 19.808 19.808 19.841 19.941 19.978 20.028 20.013 20.081 20.013 20.116 20.188 20.213 20.253 20.203 20.256 20.433 20.831 20.913 21.003 20.966 20.736 20.731 21.271 22.258 22.068 21.746 21.053 20.613 20.668 20.991 20.923 20.876 20.736 20.621 20.486 20.348 20.598 20.513 20.426 20.333 20.356 20.346 20.383 20.433 20.613 20.571 20.578 20.606 20.438 20.566 20.606 20.558 20.561 20.491 20.331 20.111 19.808 19.338 19.506 21.051 22.436 22.446 22.456 22.453 21.666 20.078 21.291 23.206 23.166 23.148 23.131 23.128 22.373 21.238 21.171 21.336 21.633 21.781 21.841 21.913 22.111 22.303 22.438 22.443 22.591 22.768 23.011 23.183 23.408 24.593 26.171 26.386 26.391 26.406 26.768 25.298 24.458 24.603 24.706 24.846 24.903 24.988 25.118 25.226 25.313 25.411 25.536 25.713 25.898 26.128 26.326 28.843 29.293 29.258 28.948 27.306 26.736 26.856 26.931 27.023 27.113 27.198 27.276 27.366 27.433 27.518 27.593 27.633 27.693 27.766 27.836 27.853 27.866 27.933 28.018 28.081 28.133 28.188 28.233 28.288 28.363 28.388 28.441 28.541 28.658 28.691 28.668 28.681 28.701 28.751 28.816 28.871 28.896 28.853 28.901 28.883 28.898 28.963 28.986 29.011 29.003 29.021 29.083 29.081 29.103 29.183 29.228 29.238 29.196 29.881 29.708 29.098 29.153 29.231 29.273 29.305 29.325 29.31 29.315 29.348 29.373 29.395 29.383 29.38 29.383 29.373 29.425 29.433 29.503 29.488 29.523 29.54 29.568 29.588 29.618 29.593 29.598 29.658 29.688 29.678 29.713 29.705 29.72 29.733 29.748 29.818 29.823 29.845 29.873 29.935 29.963 29.935 29.998 30.038 30.095 30.123 30.153 30.203 30.205 30.23 30.225 30.24 30.238 30.228 30.268 30.328 30.31 30.38 30.415 30.478 30.543 30.608 30.693 30.75 30.845 30.875 30.92 30.973 31.008 31.098 31.1 31.155 31.218 31.225 31.313 31.378 31.458 31.535 31.655 31.695 31.773 31.793 31.865 31.948 32.033 32.133 32.188 32.268 32.333 32.408 32.503 32.698 32.795 32.895
16.171 15.249 13.989 11.571 11.604 11.694 11.761 11.809 11.709 11.701 11.721 11.821 12.059 12.314 12.469 12.561 12.666 12.781 12.869 12.894 12.984 13.311 13.364 13.544 13.696 13.886 14.116 14.264 14.281 14.374 14.504 14.704 15.169 15.546 15.734 15.781 15.889 16.884 18.819 19.356 19.976 20.584 21.141 17.454 16.299 18.676 17.909 17.071 17.506 19.034 18.476 18.404 17.219 17.651 18.181 18.781 19.679 21.154 21.076 20.088 19.013 19.128 19.183 19.296 19.363 19.273 19.378 19.596 19.551 19.618 19.708 19.768 19.836 19.916 20.001 20.103 20.266 20.511 20.763 20.953 21.211 21.321 20.196 20.221 20.213 20.201 20.203 20.216 20.173 20.206 20.248 20.243 20.273 20.291 20.251 20.236 20.196 20.183 20.101 20.058 20.068 20.081 20.076 20.268 20.656 20.218 19.911 19.973 19.866 19.891 19.901 20.168 20.148 19.958 19.686 19.398 19.313 19.236 19.173 19.121 19.073 18.981 18.888 18.893 18.831 18.756 18.648 18.601 19.076 19.383 18.898 18.928 18.896 20.621 19.598 18.958 18.788 19.118 18.363 17.751 17.738 17.743 17.656 17.391 20.036 21.536 22.306 22.333 23.181 22.866 19.678 17.686 17.501 17.553 17.648 19.011 17.661 17.601 18.356 18.903 19.396 19.428 19.333 18.761 18.766 18.843 19.118 18.856 18.938 19.026 19.176 19.228 19.268 19.346 19.341 19.376 19.421 19.518 19.641 19.873 19.943 19.821 19.771 19.783 19.906 19.988 19.978 20.046 20.116 20.098 20.173 20.148 20.156 20.186 20.263 20.338 20.318 20.406 20.443 20.693 20.933 21.191 21.246 21.243 21.108 21.053 22.276 22.723 22.201 21.863 21.011 20.763 20.951 20.946 20.876 20.791 20.863 20.726 20.638 20.493 20.511 20.668 20.663 20.601 20.556 20.593 20.506 20.548 20.608 20.581 20.553 20.518 20.533 20.696 20.751 20.691 20.553 20.563 20.511 20.528 20.431 20.031 19.643 19.658 19.813 22.333 22.421 22.443 21.891 19.993 21.533 23.151 23.156 23.111 22.773 21.096 20.976 20.988 21.231 21.463 21.663 21.801 21.861 21.991 22.156 22.298 22.376 22.448 22.593 22.833 23.058 23.418 25.726 26.381 26.373 26.438 26.426 25.836 24.313 24.123 24.323 24.466 24.631 24.768 24.881 24.983 25.078 25.176 25.296 25.393 25.501 25.621 25.768 25.951 26.206 28.283 29.301 29.263 29.271 28.508 26.678 26.811 26.888 26.966 27.081 27.171 27.246 27.316 27.401 27.461 27.538 27.588 27.641 27.723 27.778 27.793 27.833 29.026 28.581 28.011 28.068 28.131 28.206 28.243 28.331 28.393 28.376 28.466 28.558 28.588 28.541 28.568 28.608 28.638 28.693 28.803 28.771 28.776 28.803 28.781 28.811 28.848 28.871 28.931 28.951 28.958 28.998 29.026 29.033 29.056 29.078 29.041 29.178 29.783 29.041 28.986 29.091 29.168 29.188 29.203 29.2 29.228 29.225 29.253 29.273 29.263 29.258 29.265 29.295 29.26 29.303 29.308 29.333 29.37 29.435 29.46 29.455 29.415 29.435 29.433 29.45 29.498 29.523 29.543 29.57 29.543 29.568 29.61 29.603 29.648 29.663 29.688 29.72 29.765 29.768 29.818 29.863 29.89 29.91 29.97 30.018 30.08 30.065 30.07 30.075 30.09 30.105 30.12 30.115 30.145 30.165 30.22 30.28 30.37 30.423 30.468 30.518 30.595 30.67 30.69 30.743 30.803 30.835 30.913 30.95 30.978 31 31.06 31.17 31.21 31.263 31.33 31.42 31.49 31.57 31.65 31.708 31.775 31.843 31.955 32.058 32.135 32.23 32.338 32.45 32.528 32.548 32.713
16.179 15.866 14.894 12.924 11.531 11.614 11.661 11.756 11.691 11.641 11.651 11.694 11.816 12.106 12.321 12.446 12.539 12.656 12.669 12.749 12.874 13.136 13.276 13.441 13.576 13.731 13.819 14.211 14.176 14.264 14.416 15.356 16.311 15.296 15.569 15.676 15.729 15.754 15.771 16.834 17.814 19.139 19.396 15.994 17.501 21.709 21.449 20.424 19.991 20.256 19.804 18.476 17.181 17.199 18.589 21.036 20.134 19.859 20.184 19.561 19.023 19.103 19.181 19.243 19.318 19.356 19.426 19.463 19.521 19.581 19.678 19.776 19.871 19.966 20.021 20.098 20.213 20.421 20.523 20.633 20.828 21.348 21.873 20.526 20.403 20.421 20.358 20.311 20.326 20.311 20.353 20.366 20.403 20.436 20.441 20.411 20.371 20.341 20.288 20.283 20.326 20.328 21.496 21.233 20.451 20.216 20.123 20.216 20.351 20.063 19.911 19.963 20.058 20.481 20.631 20.271 19.928 19.673 19.386 19.346 19.273 19.228 19.156 19.088 19.061 18.968 18.861 19.011 19.571 19.026 18.941 18.978 19.013 19.033 19.066 19.241 19.226 18.953 19.113 18.903 17.958 17.833 17.528 17.326 19.166 19.808 21.171 22.548 24.191 23.613 20.176 17.991 17.921 17.756 17.766 17.748 17.728 17.678 18.178 18.798 19.423 19.266 19.208 18.898 18.958 19.008 19.088 18.926 19.001 19.101 19.296 19.448 19.391 19.416 19.443 19.456 19.463 19.701 19.683 19.973 20.023 19.943 19.888 19.931 20.061 20.221 20.211 20.226 20.196 20.211 20.216 20.323 20.338 20.311 20.356 20.453 20.518 20.586 20.691 20.848 21.006 21.146 21.233 21.381 21.183 22.153 23.253 22.611 22.378 21.548 21.056 21.126 21.128 21.228 21.043 21.026 21.076 20.791 20.713 20.673 20.618 20.768 20.798 20.791 20.781 20.838 20.706 20.606 20.666 20.551 20.638 20.678 20.703 20.638 20.746 20.678 20.638 20.603 20.698 20.583 20.536 20.558 20.468 19.956 19.591 19.956 21.548 22.436 21.256 20.193 21.088 23.061 22.398 21.786 20.826 20.741 20.936 21.071 21.263 21.538 21.718 21.866 21.908 22.011 22.181 22.278 22.318 22.453 22.681 22.871 23.026 23.086 25.801 26.368 26.413 26.126 25.196 23.851 24.003 24.181 24.313 24.413 24.526 24.633 24.808 24.928 25.036 25.158 25.261 25.363 25.453 25.558 25.681 25.848 26.038 26.531 27.746 29.298 29.273 28.998 27.626 26.773 26.861 26.958 27.063 27.131 27.208 27.243 27.346 27.408 27.496 27.541 27.588 27.658 27.703 27.726 27.808 30.656 31.546 29.188 28.003 28.061 28.163 28.248 28.323 28.383 28.371 28.391 28.453 28.483 28.471 28.511 28.518 28.556 28.608 28.656 28.678 28.706 28.736 28.676 28.678 28.741 28.766 28.796 28.856 28.921 28.958 28.978 29.013 28.971 28.926 28.886 30.158 29.408 28.938 28.926 28.976 29.046 29.096 29.105 29.08 29.1 29.105 29.135 29.138 29.158 29.115 29.118 29.165 29.178 29.21 29.22 29.245 29.273 29.303 29.32 29.355 29.335 29.333 29.3 29.328 29.365 29.395 29.383 29.435 29.415 29.41 29.445 29.453 29.488 29.503 29.525 29.545 29.575 29.585 29.605 29.66 29.698 29.768 29.818 29.833 29.88 29.888 29.908 29.955 29.935 30.018 29.998 29.983 30.015 30.038 30.07 30.153 30.225 30.313 30.36 30.405 30.475 30.538 30.55 30.595 30.663 30.728 30.73 30.74 30.83 30.908 30.923 30.923 31.045 31.083 31.153 31.228 31.318 31.423 31.473 31.553 31.625 31.735 31.788 31.86 31.968 32.063 32.145 32.195 32.353 32.61 33.158
15.606 16.224 15.516 14.336 11.854 11.506 11.879 12.444 11.771 11.596 11.601 11.616 11.679 11.851 12.136 12.311 12.429 12.524 12.519 12.579 12.856 13.031 13.279 13.319 13.484 13.671 13.804 13.969 14.081 14.141 14.336 16.156 15.926 15.136 15.329 15.519 15.714 15.911 15.884 15.796 16.084 16.526 16.829 15.969 19.174 22.691 22.819 22.739 22.296 21.806 20.491 19.991 19.054 19.276 20.516 20.841 18.931 18.561 18.711 18.866 18.976 19.086 19.186 19.243 19.273 19.353 19.401 19.436 19.506 19.608 19.668 19.773 19.861 19.961 20.036 20.133 20.296 20.491 20.528 20.553 20.658 20.886 22.093 21.321 20.783 20.888 20.468 21.671 20.438 20.396 20.441 20.471 20.511 20.568 20.553 20.558 20.503 20.493 20.503 20.533 20.578 20.621 21.503 21.913 20.551 20.318 20.283 20.278 20.216 20.168 20.073 20.016 20.253 20.233 20.338 20.543 20.691 20.848 20.023 19.668 19.511 19.441 19.398 19.336 19.283 19.208 19.126 19.383 19.648 19.023 19.043 19.053 19.091 19.113 19.131 19.173 19.303 19.753 19.581 19.206 18.928 18.493 18.151 18.576 19.296 20.336 21.856 23.608 24.283 21.918 18.491 18.431 17.888 17.903 17.858 17.836 17.766 17.768 17.888 18.166 18.851 18.563 18.823 18.918 19.356 19.361 19.398 19.421 19.256 19.211 19.453 19.438 19.491 19.561 19.568 19.578 19.653 19.786 19.918 20.146 20.013 19.938 19.953 19.991 20.198 20.293 20.333 20.371 20.286 20.331 20.286 20.376 20.396 20.483 20.718 20.623 20.788 21.103 21.366 21.061 21.138 21.336 21.428 21.481 21.408 21.633 22.418 22.341 21.811 21.536 21.458 21.286 21.508 21.568 21.428 21.363 21.033 20.928 20.758 20.761 20.766 20.773 20.728 20.766 20.788 20.853 20.781 20.853 20.901 20.731 20.721 20.756 20.813 20.806 20.758 20.841 20.826 20.708 20.676 20.628 20.668 20.816 20.846 20.653 20.123 19.723 19.756 20.768 20.701 20.248 20.593 20.848 20.481 20.638 20.753 20.888 21.043 21.208 21.383 21.586 21.778 21.881 21.976 22.076 22.163 22.278 22.293 22.401 22.631 22.806 22.996 23.061 23.531 25.783 25.168 24.118 23.823 23.871 24.038 24.181 24.331 24.403 24.488 24.583 24.708 24.858 24.981 25.096 25.223 25.331 25.431 25.506 25.626 25.796 25.938 26.253 26.773 28.191 29.403 29.461 29.176 27.271 26.816 26.926 27.016 27.086 27.161 27.256 27.306 27.358 27.418 27.478 27.556 27.616 27.628 27.721 28.996 32.508 31.601 28.796 27.961 28.046 28.111 28.191 28.271 28.311 28.303 28.333 28.368 28.386 28.388 28.428 28.446 28.463 28.536 28.556 28.573 28.636 28.668 28.616 28.643 28.698 28.698 28.706 28.793 28.883 28.928 28.913 28.901 28.878 28.831 28.803 30.213 29.348 28.883 28.818 28.908 28.968 28.988 28.978 28.98 29.008 29.008 28.995 29 29.033 29.015 29.018 29.02 29.028 29.035 29.103 29.138 29.183 29.175 29.19 29.203 29.208 29.208 29.2 29.218 29.243 29.25 29.228 29.283 29.278 29.253 29.265 29.305 29.328 29.35 29.368 29.383 29.413 29.428 29.478 29.51 29.538 29.6 29.64 29.7 29.71 29.7 29.743 29.75 29.768 29.805 29.853 29.813 29.825 29.868 29.903 30.058 30.105 30.133 30.188 30.26 30.33 30.35 30.423 30.45 30.493 30.518 30.543 30.595 30.638 30.7 30.773 30.818 30.893 30.955 31.04 31.09 31.193 31.283 31.388 31.463 31.518 31.608 31.655 31.723 31.758 31.85 32.088 32.523 32.743 33.025 32.693
14.996 15.906 16.129 15.184 13.666 11.494 12.666 12.074 11.574 11.591 11.536 11.546 11.564 11.669 11.891 12.156 12.316 12.336 12.374 12.471 12.731 12.941 13.676 13.179 13.361 13.541 13.716 13.854 13.939 14.156 14.621 16.409 15.184 15.079 15.189 15.299 15.584 15.539 15.851 15.966 15.814 15.846 15.774 16.224 18.691 20.809 22.481 22.806 22.819 22.764 22.231 21.136 20.551 20.306 21.081 19.911 18.456 18.409 18.529 18.711 18.868 19.023 19.121 19.213 19.261 19.296 19.383 19.423 19.478 19.553 19.668 19.771 19.841 19.951 20.056 20.168 20.376 20.531 20.541 20.543 20.676 20.903 21.201 21.441 21.496 22.113 21.246 21.003 20.703 20.736 20.556 20.558 20.533 20.601 20.658 20.676 20.668 20.681 20.706 20.781 20.856 20.866 20.866 21.181 20.601 20.551 20.516 20.508 20.396 20.333 20.291 20.291 20.148 20.186 20.348 20.271 20.423 20.673 22.118 20.818 20.343 19.738 19.701 19.563 19.483 19.431 19.376 19.536 19.866 19.086 19.761 20.281 19.143 19.161 19.203 19.248 19.271 19.408 20.123 19.463 19.618 19.708 19.521 19.448 19.411 21.076 22.926 24.473 23.298 19.553 18.356 18.033 17.986 17.993 17.941 17.871 17.848 17.896 18.006 18.118 18.216 18.288 19.856 19.808 19.556 19.348 19.866 19.956 19.903 19.751 19.531 19.488 19.511 19.608 19.688 19.791 19.886 19.876 20.106 20.196 20.078 20.046 20.083 20.123 20.308 20.316 20.366 20.483 20.483 20.398 20.436 20.483 20.568 20.628 20.968 20.841 20.843 21.133 21.301 21.183 21.366 21.461 21.578 21.466 21.601 21.701 22.218 22.271 21.876 21.791 22.123 22.143 21.721 21.778 21.653 21.511 21.231 21.176 20.921 20.908 20.886 20.901 20.911 20.916 20.921 20.941 20.971 21.001 21.091 20.903 20.856 20.898 20.883 20.871 20.826 20.893 20.916 20.791 20.786 20.778 20.848 20.956 21.138 20.911 20.711 20.368 19.961 19.878 20.011 20.231 20.381 20.523 20.593 20.701 20.831 20.978 21.178 21.331 21.471 21.648 21.803 21.896 21.983 22.078 22.158 22.278 22.296 22.346 22.578 22.828 22.971 23.051 23.156 23.416 23.741 23.686 23.781 23.898 24.011 24.133 24.251 24.371 24.483 24.553 24.656 24.771 24.911 25.038 25.158 25.266 25.373 25.473 25.586 25.753 25.891 26.103 26.396 27.021 29.346 29.478 29.428 27.808 26.778 26.911 26.978 27.071 27.176 27.278 27.321 27.351 27.388 27.431 27.503 27.573 29.566 34.146 35.878 36.873 35.561 31.626 28.443 28.021 28.066 28.141 28.186 28.188 28.208 28.233 28.273 28.281 28.308 28.326 28.343 28.388 28.433 28.473 28.461 28.471 28.536 28.558 28.598 28.606 28.628 28.651 28.721 28.776 28.851 28.843 28.806 28.721 28.711 28.731 29.023 28.836 28.718 28.756 28.816 28.868 28.856 28.848 28.83 28.883 28.895 28.878 28.865 28.88 28.903 28.873 28.873 28.918 28.898 28.958 28.993 29.005 29.03 29.053 29.053 29.083 29.113 29.113 29.16 29.143 29.133 29.15 29.158 29.163 29.138 29.168 29.165 29.178 29.223 29.265 29.255 29.29 29.328 29.32 29.375 29.398 29.453 29.51 29.525 29.555 29.568 29.573 29.59 29.64 29.685 29.7 29.65 29.693 29.73 29.8 29.855 29.928 29.963 30.04 30.09 30.178 30.248 30.253 30.313 30.365 30.433 30.445 30.495 30.51 30.53 30.595 30.668 30.73 30.843 30.935 31.025 31.09 31.14 31.223 31.295 31.348 31.443 31.508 31.648 32.28 32.943 33.093 32.793 32.608 32.455 32.47
13.409 15.304 15.889 14.709 14.031 11.831 11.269 11.766 12.214 11.556 11.534 11.481 11.516 11.586 11.681 12.011 12.139 12.151 12.219 13.044 12.799 12.739 12.911 13.054 13.226 13.406 13.609 13.734 13.851 14.086 15.046 15.789 14.874 15.074 15.181 15.251 15.211 15.256 15.379 15.559 15.636 15.664 15.686 18.321 17.384 17.786 18.206 21.259 22.449 22.366 22.836 22.534 21.536 19.866 20.816 18.839 18.824 18.606 18.154 18.301 18.511 18.743 18.996 19.133 19.198 19.253 19.331 19.413 19.473 19.573 19.666 19.753 19.841 19.941 20.036 20.206 20.428 20.536 20.543 20.553 20.648 20.938 21.313 21.478 21.558 21.861 21.801 22.088 22.208 21.183 21.918 20.748 20.653 20.593 20.626 20.788 20.818 21.026 21.298 21.366 21.491 21.468 21.836 22.103 21.526 21.233 21.186 20.831 20.711 20.531 20.473 20.603 20.598 20.593 20.358 20.303 20.266 20.211 20.336 20.796 20.491 20.521 20.768 20.353 19.801 19.653 19.606 19.871 20.206 20.308 19.583 19.936 19.461 19.366 19.316 19.326 19.328 19.341 19.331 19.496 19.596 19.773 19.543 19.888 19.171 18.791 22.246 24.071 21.808 18.418 18.453 18.073 18.091 18.068 18.033 17.913 17.953 18.508 19.246 18.216 18.338 18.331 18.691 19.688 19.191 18.728 19.443 20.366 19.973 20.206 20.003 19.688 19.703 19.738 19.776 19.903 19.993 20.041 20.113 20.231 20.258 20.271 20.223 20.296 20.363 20.766 20.558 20.553 20.666 20.491 20.528 20.666 20.763 20.876 21.091 20.973 20.976 20.938 21.311 21.423 21.426 21.576 21.778 21.798 22.536 22.456 22.766 22.428 21.938 22.148 23.338 22.728 22.091 21.858 21.703 21.503 21.443 21.308 21.101 21.081 21.118 21.063 21.116 21.103 21.151 21.211 21.196 21.131 21.046 21.011 21.006 21.026 21.023 21.018 20.978 20.973 20.988 20.868 20.861 21.001 21.018 21.116 21.033 21.158 21.311 21.083 20.733 20.253 20.161 20.258 20.411 20.551 20.708 20.831 20.943 21.091 21.278 21.443 21.573 21.726 21.873 21.973 21.981 22.136 22.191 22.266 22.336 22.383 22.543 22.783 22.923 23.038 23.676 24.678 23.428 23.541 23.733 23.888 23.958 24.076 24.166 24.303 24.431 24.523 24.608 24.716 24.881 25.028 25.098 25.168 25.328 25.451 25.563 25.733 25.848 26.023 26.256 26.476 27.823 29.491 29.451 29.423 28.236 26.846 26.961 27.076 27.148 27.203 27.271 27.286 27.431 27.393 27.486 27.536 31.928 36.893 35.698 35.751 37.048 33.676 28.348 28.006 28.061 28.118 28.103 28.086 28.126 28.193 28.223 28.223 28.233 28.266 28.308 28.318 28.331 28.361 28.361 28.371 28.408 28.443 28.498 28.518 28.558 28.571 28.658 28.718 28.758 28.756 28.741 28.598 28.513 28.611 29.361 28.671 28.583 28.666 28.713 28.758 28.756 28.753 28.74 28.723 28.738 28.755 28.758 28.758 28.765 28.77 28.745 28.795 28.785 28.813 28.82 28.853 28.893 28.923 28.938 28.955 28.995 29.015 29.008 29.04 29.04 29.023 29.025 28.995 28.995 29.023 29.04 29.063 29.098 29.125 29.135 29.158 29.188 29.198 29.243 29.263 29.288 29.323 29.37 29.383 29.398 29.428 29.435 29.488 29.47 29.503 29.463 29.528 29.58 29.663 29.733 29.76 29.833 29.908 29.968 30.013 30.083 30.12 30.183 30.248 30.255 30.27 30.318 30.338 30.385 30.453 30.53 30.645 30.72 30.773 30.853 30.95 31.015 31.038 31.098 31.173 31.488 32.13 32.618 32.955 32.833 32.538 32.493 32.453 32.22 32.015
11.891 13.554 13.881 13.951 13.791 13.089 11.194 11.431 11.639 11.899 11.736 11.484 11.459 11.479 11.564 11.709 12.216 11.974 12.291 14.141 12.754 12.591 12.766 12.926 13.096 13.276 13.476 13.569 13.796 13.984 16.029 14.789 14.801 15.046 15.149 15.174 15.154 15.219 15.229 15.301 15.429 15.534 16.281 17.114 17.286 16.279 17.436 19.771 20.399 21.419 22.794 22.684 21.239 17.414 17.629 18.069 19.319 18.366 17.961 17.966 18.168 18.238 18.536 18.803 19.078 19.213 19.313 19.383 19.461 19.563 19.663 19.748 19.836 19.923 20.033 20.243 20.483 20.573 20.548 20.566 20.626 21.153 21.896 21.506 21.578 21.701 21.778 22.278 23.228 23.138 23.696 23.098 22.233 21.051 20.711 20.736 21.148 21.836 21.938 22.136 22.133 21.733 21.696 21.521 21.748 21.916 22.218 21.403 20.861 20.898 20.966 20.671 20.663 20.751 20.861 20.671 20.423 20.408 20.383 20.411 20.328 20.368 20.726 21.353 21.178 20.413 20.138 20.386 20.256 20.178 20.143 19.918 19.908 19.598 19.493 19.438 19.398 19.381 19.443 19.568 19.786 20.446 19.916 19.961 19.146 18.016 18.323 19.681 18.846 18.393 18.181 18.206 18.213 18.141 18.046 18.346 18.166 21.648 23.598 20.398 18.968 18.918 18.453 18.838 18.661 18.648 20.151 20.741 20.491 20.116 20.163 19.943 19.868 19.978 19.851 19.928 19.958 20.203 20.281 20.243 20.351 20.333 20.306 20.376 20.463 20.826 20.831 20.693 20.636 20.606 20.646 20.731 20.801 21.008 21.348 21.378 21.453 21.121 21.331 21.303 21.648 21.996 21.988 21.886 22.221 22.656 22.038 22.093 22.046 22.368 22.896 22.516 22.028 21.923 21.606 21.566 21.598 21.446 21.336 21.213 21.291 21.348 21.336 21.358 21.288 21.351 21.263 21.298 21.316 21.176 21.178 21.161 21.151 21.151 21.123 21.071 21.028 21.013 20.993 21.043 21.201 21.208 21.238 21.221 21.083 21.248 21.383 21.001 20.743 20.791 20.503 20.611 20.763 20.973 21.091 21.166 21.276 21.486 21.636 21.776 21.946 21.961 22.018 22.116 22.203 22.308 22.348 22.421 22.513 22.681 23.021 24.516 25.786 25.871 24.833 23.638 23.588 23.776 23.898 24.051 24.143 24.296 24.388 24.471 24.578 24.713 24.821 24.913 25.023 25.146 25.321 25.468 25.603 25.731 25.866 26.051 26.191 26.363 26.591 28.866 29.483 29.408 28.801 26.968 26.938 27.041 27.096 27.116 27.298 28.881 28.291 27.346 27.438 27.456 31.641 34.766 34.176 35.423 36.923 34.038 29.893 27.978 28.051 28.056 28.041 28.038 28.116 28.158 28.143 28.153 28.178 28.171 28.191 28.208 28.261 28.286 28.313 28.323 28.353 28.371 28.388 28.411 28.458 28.498 28.598 28.671 28.718 28.703 28.658 28.546 28.426 28.513 28.683 28.501 28.486 28.578 28.631 28.618 28.623 28.605 28.598 28.598 28.633 28.63 28.613 28.613 28.63 28.585 28.623 28.62 28.623 28.675 28.693 28.743 28.735 28.798 28.795 28.788 28.828 28.843 28.83 28.87 28.878 28.895 28.87 28.885 28.853 28.88 28.905 28.9 28.968 28.985 29.015 29.045 29.043 29.07 29.083 29.128 29.13 29.175 29.203 29.223 29.215 29.25 29.285 29.305 29.318 29.343 29.315 29.363 29.428 29.473 29.573 29.605 29.66 29.74 29.778 29.833 29.923 29.99 30.06 30.09 30.115 30.165 30.195 30.225 30.318 30.443 30.455 30.54 30.628 30.66 30.74 30.765 30.795 30.86 31.813 32.725 31.56 32.358 32.625 33.24 32.74 32.443 32.47 32.155 31.845 31.868
11.754 11.604 12.724 12.856 13.556 13.859 12.866 11.084 11.191 11.334 11.506 11.561 11.416 11.411 11.434 11.609 12.316 11.766 12.006 13.296 12.311 12.469 12.641 12.801 12.981 13.166 13.286 13.426 13.771 14.571 15.306 14.341 14.526 14.844 15.041 15.094 15.141 15.139 15.184 15.234 15.294 15.489 16.399 16.096 16.066 16.159 16.681 18.106 20.149 21.644 23.029 22.579 19.161 17.096 17.699 18.106 17.976 17.859 17.931 19.258 18.821 18.041 18.033 18.198 18.546 18.953 19.188 19.336 19.441 19.518 19.616 19.726 19.801 19.926 20.056 20.313 20.506 20.541 20.551 20.546 20.613 21.293 21.496 21.521 21.578 21.623 21.856 22.928 23.676 23.496 22.766 22.751 23.046 23.423 21.828 21.146 21.131 21.373 21.546 22.076 22.281 21.878 21.566 21.401 21.846 21.963 21.701 21.218 22.073 22.613 22.343 21.221 20.921 20.846 20.766 20.723 20.671 20.641 20.588 20.641 20.641 20.646 20.631 20.596 21.108 20.701 20.418 21.608 20.541 20.238 20.121 20.033 20.053 20.093 19.906 19.698 19.511 19.448 19.516 19.788 19.798 20.358 19.666 19.598 19.628 19.238 18.596 18.186 18.273 18.258 18.318 18.261 18.221 18.166 18.173 18.901 20.378 22.951 24.778 23.253 20.723 19.333 19.263 18.811 19.276 19.641 20.528 20.498 20.613 20.846 20.556 20.378 20.111 20.076 20.066 20.016 20.178 20.178 20.388 20.388 20.468 20.491 20.518 20.433 20.578 20.866 20.796 20.871 20.806 20.718 20.961 20.968 20.948 21.236 21.508 21.851 21.868 21.528 21.416 21.438 21.886 22.201 22.098 21.856 22.611 21.813 22.083 22.168 22.261 22.471 22.571 22.173 21.983 21.871 21.681 21.646 21.568 21.613 21.343 21.348 21.403 21.516 21.513 21.516 21.491 21.583 21.603 21.491 21.458 21.478 21.351 21.348 21.363 21.303 21.228 21.186 21.128 21.118 21.136 21.176 21.256 21.213 21.236 21.248 21.356 21.453 21.463 21.146 21.156 20.846 21.258 20.723 20.793 21.006 21.138 21.258 21.358 21.528 21.688 21.846 21.973 21.998 22.058 22.166 22.251 22.331 22.398 22.468 22.556 22.598 22.966 24.041 25.868 25.898 25.936 25.021 23.378 23.643 23.838 24.008 24.146 24.293 24.368 24.438 24.561 24.668 24.771 24.911 25.011 25.143 25.338 25.491 25.626 25.766 25.898 26.041 26.161 26.286 26.476 27.511 29.116 29.466 29.441 28.406 27.096 26.946 27.006 27.838 29.473 29.956 29.453 27.558 27.341 27.833 28.501 29.068 32.998 33.416 33.768 29.501 28.328 27.943 27.973 28.006 27.981 28.008 28.198 28.221 28.163 28.103 28.141 28.106 28.131 28.131 28.151 28.198 28.261 28.273 28.301 28.333 28.363 28.336 28.383 28.423 28.503 28.581 28.596 28.646 28.538 28.441 28.378 28.658 28.501 28.353 28.406 28.451 28.506 28.511 28.511 28.478 28.48 28.485 28.473 28.525 28.503 28.465 28.48 28.485 28.508 28.498 28.485 28.5 28.553 28.603 28.59 28.638 28.643 28.645 28.648 28.67 28.703 28.705 28.7 28.743 28.73 28.765 28.773 28.76 28.758 28.803 28.848 28.873 28.883 28.908 28.925 28.913 28.925 28.978 29.028 29.043 29.075 29.08 29.08 29.09 29.108 29.138 29.128 29.153 29.158 29.243 29.298 29.335 29.413 29.465 29.493 29.558 29.595 29.683 29.753 29.865 29.943 29.928 30.008 30.025 30.065 30.17 30.18 30.258 30.325 30.388 30.453 30.503 30.508 30.675 30.88 31.433 32.34 32.953 32.478 33.463 32.563 33.325 32.935 32.455 32.168 31.68 31.635 31.768
10.891 11.634 11.234 11.851 14.446 15.319 14.331 12.564 11.341 11.216 11.391 11.581 11.411 11.346 11.374 11.409 11.509 11.629 11.904 12.056 12.949 12.351 12.519 12.714 12.846 13.021 13.121 13.359 13.631 15.619 14.389 14.246 14.396 14.544 14.719 14.866 15.046 15.109 15.124 15.094 15.161 16.014 16.106 16.061 15.929 16.111 16.734 16.904 16.954 19.319 19.979 21.146 17.946 17.206 17.761 18.119 18.954 17.909 18.226 20.528 22.071 20.838 18.113 18.018 18.068 18.206 18.461 18.796 19.216 19.391 19.546 19.661 19.786 19.931 20.108 20.371 20.491 20.516 20.536 20.548 20.641 21.401 21.468 21.563 21.623 21.621 22.126 22.648 22.623 23.416 23.486 22.328 22.141 22.573 23.318 23.586 23.013 22.243 21.803 21.391 21.648 21.976 22.251 21.781 21.531 21.961 21.503 21.613 22.758 22.183 22.101 22.283 21.378 21.038 20.933 20.856 20.848 20.871 20.853 20.903 20.908 20.841 20.758 20.658 20.881 20.898 21.153 21.588 20.996 20.331 20.238 20.478 20.063 20.071 20.113 20.208 19.936 20.151 20.358 19.728 19.936 22.221 21.481 19.926 19.418 19.456 20.206 20.256 18.401 18.416 18.446 18.333 18.283 18.416 19.031 19.093 21.968 25.281 24.158 22.238 21.676 21.073 18.731 20.046 20.258 20.231 21.198 21.513 21.338 20.566 20.453 20.363 20.281 20.308 20.351 20.183 20.186 20.291 20.558 20.601 20.671 20.718 20.646 20.601 20.598 20.791 20.881 21.011 20.918 21.241 21.373 21.163 21.386 21.356 21.588 21.838 22.063 21.846 21.851 21.978 22.251 22.438 22.481 23.403 22.806 22.536 22.301 22.323 22.738 22.298 22.263 22.331 22.048 21.748 21.693 21.688 21.573 21.513 21.433 21.436 21.411 21.448 21.596 21.701 21.806 21.783 21.721 21.673 21.651 21.583 21.536 21.478 21.518 21.613 21.506 21.363 21.368 21.366 21.301 21.336 21.356 21.273 21.288 21.506 21.773 21.616 21.418 21.236 21.178 21.173 21.088 20.711 20.863 21.043 21.151 21.301 21.466 21.626 21.728 21.881 22.013 21.996 22.091 22.156 22.253 22.328 22.438 22.518 22.588 22.643 22.723 22.896 25.516 25.883 25.926 25.958 23.918 23.476 23.761 23.961 24.111 24.266 24.341 24.418 24.518 24.606 24.741 24.886 24.998 25.151 25.296 25.476 25.626 25.758 25.861 25.981 26.103 26.233 26.381 26.566 27.288 29.381 28.318 27.216 26.778 26.916 28.621 29.773 29.968 29.971 29.966 29.473 27.281 28.388 32.291 32.078 31.748 31.641 29.443 27.803 27.753 27.868 27.911 27.973 28.091 28.208 28.778 28.633 28.411 28.071 28.093 28.071 28.103 28.103 28.088 28.106 28.143 28.178 28.211 28.233 28.248 28.268 28.316 28.338 28.411 28.453 28.463 28.496 28.388 28.271 28.331 28.691 28.433 28.238 28.313 28.343 28.388 28.378 28.391 28.325 28.365 28.368 28.373 28.388 28.365 28.34 28.335 28.353 28.338 28.335 28.363 28.39 28.418 28.45 28.45 28.488 28.495 28.485 28.52 28.525 28.53 28.518 28.498 28.523 28.523 28.573 28.603 28.625 28.64 28.658 28.69 28.705 28.718 28.743 28.758 28.765 28.843 28.89 28.905 28.923 28.95 28.963 28.938 28.945 28.968 28.968 28.995 29 29.005 29.085 29.118 29.188 29.253 29.305 29.348 29.4 29.438 29.56 29.638 29.69 29.778 29.855 29.898 29.943 29.955 30.005 30.04 30.083 30.158 30.213 30.283 31.21 30.623 31.468 30.828 32.018 30.733 31.39 31.183 32.613 32.703 33.323 32.405 31.523 31.373 31.44 31.34 31.278
10.486 10.886 11.156 13.709 15.199 15.731 14.976 13.901 11.306 11.169 11.294 11.274 11.374 11.334 11.306 11.344 11.359 11.519 11.731 11.914 12.151 12.254 12.414 12.636 12.736 12.874 12.961 13.294 14.314 14.939 13.949 14.151 14.289 14.411 14.521 14.609 14.746 14.946 14.956 14.934 15.011 15.659 16.221 15.969 15.801 15.954 17.169 17.124 16.809 16.869 17.544 17.144 16.849 17.311 17.841 19.466 21.781 20.564 20.356 21.963 22.141 20.823 18.536 18.046 18.066 17.998 18.011 18.156 18.491 18.943 19.311 19.586 19.771 19.976 20.151 20.363 20.466 20.478 20.501 20.523 20.696 21.451 21.461 21.646 22.078 21.608 22.596 22.243 21.828 21.993 21.866 22.131 23.068 22.468 22.206 22.783 23.133 23.623 24.501 23.833 21.563 21.423 21.593 21.941 22.081 22.011 21.598 22.243 22.541 22.261 22.428 22.748 22.531 21.688 21.506 21.096 21.076 21.131 21.186 21.253 22.716 21.966 23.276 21.923 21.153 21.261 22.348 22.776 22.528 20.671 20.348 20.441 20.233 20.161 20.088 20.031 20.081 21.786 22.318 20.226 21.666 22.293 22.371 19.541 19.483 19.263 18.931 19.046 18.566 18.533 18.493 18.406 19.031 19.003 18.808 20.818 24.181 24.656 22.983 21.741 21.443 19.956 18.543 20.351 21.118 21.091 20.586 22.028 21.411 21.208 20.871 20.733 21.138 20.503 20.368 20.303 20.338 20.393 20.476 20.668 20.778 20.718 20.838 20.768 20.768 20.943 21.106 21.001 21.013 21.338 21.531 21.813 21.801 22.093 22.173 22.258 22.071 22.038 22.263 22.248 22.243 22.456 23.033 23.901 22.901 22.476 22.266 22.073 21.948 21.913 22.061 22.186 22.038 21.806 21.791 21.748 21.586 21.586 21.633 21.593 21.563 21.613 21.798 21.903 21.878 21.883 21.748 21.841 21.816 21.731 21.676 21.606 21.611 21.698 21.676 21.558 21.503 21.481 21.441 21.421 21.433 21.441 21.393 21.421 21.536 21.618 21.733 21.426 21.473 21.606 21.558 21.178 21.128 21.281 21.201 21.251 21.453 21.646 21.818 21.983 22.043 22.076 22.121 22.188 22.263 22.361 22.448 22.538 22.638 22.693 22.748 22.901 23.443 25.208 25.873 25.926 25.383 23.406 23.663 23.926 24.096 24.236 24.308 24.381 24.463 24.541 24.688 24.831 24.973 25.133 25.268 25.453 25.603 25.711 25.803 25.918 26.076 26.231 26.376 26.493 26.588 27.006 26.671 26.693 27.541 29.248 29.733 29.766 29.836 29.731 28.151 27.203 27.226 30.803 37.311 37.506 34.636 33.743 29.376 27.843 27.673 27.788 28.108 28.566 28.616 28.853 29.523 29.401 28.751 28.123 27.931 27.926 27.996 28.063 28.053 28.071 28.101 28.133 28.151 28.156 28.153 28.178 28.206 28.261 28.311 28.336 28.366 28.361 28.261 28.153 28.291 28.791 28.438 28.121 28.228 28.233 28.288 28.283 28.231 28.208 28.178 28.195 28.243 28.235 28.253 28.223 28.188 28.203 28.19 28.215 28.233 28.255 28.293 28.305 28.35 28.383 28.358 28.378 28.415 28.375 28.36 28.385 28.358 28.388 28.415 28.42 28.448 28.528 28.518 28.523 28.545 28.563 28.57 28.578 28.573 28.64 28.685 28.71 28.715 28.783 28.813 28.818 28.755 28.805 28.858 28.845 28.825 28.868 28.91 28.978 29.03 29.053 29.108 29.133 29.255 29.27 29.318 29.393 29.488 29.57 29.655 29.715 29.715 29.773 29.833 29.87 29.91 29.943 30.213 30.198 30.818 32.015 30.558 31.158 30.738 30.875 30.553 30.51 30.748 32.05 32.628 32.003 31.613 31.058 31.023 31.003 31.04 31.228
9.876 10.921 10.911 12.174 14.581 15.576 15.624 14.656 13.201 11.584 10.999 11.169 11.371 11.354 11.251 11.269 11.291 11.401 11.554 11.769 11.971 12.171 12.299 12.641 12.639 12.684 12.889 13.189 15.051 13.924 13.849 14.031 14.161 14.294 14.396 14.469 14.564 14.656 14.874 14.756 15.131 15.781 16.536 16.566 15.769 15.861 16.336 16.569 16.241 16.701 17.279 16.996 16.959 17.579 17.771 22.379 23.234 22.786 23.704 23.791 23.116 22.446 21.751 20.363 19.766 18.046 18.031 18.023 18.046 18.193 18.878 19.538 19.811 20.016 20.201 20.323 20.408 20.458 20.493 20.543 20.628 21.361 21.553 21.428 21.486 21.813 23.613 22.256 22.018 21.786 21.788 22.753 24.221 22.981 22.531 23.753 22.368 24.246 25.376 25.608 22.843 21.763 21.551 21.526 21.751 21.846 22.091 22.556 22.913 22.951 22.738 23.001 23.051 22.778 21.698 21.411 21.303 21.366 21.403 21.698 23.063 23.561 24.911 22.806 21.663 22.038 22.196 22.393 22.838 22.671 21.111 20.471 20.368 20.301 20.206 20.121 20.183 21.516 21.636 21.578 22.423 23.146 24.778 23.256 21.353 20.003 18.856 18.708 18.661 18.658 18.598 18.526 18.988 19.146 19.766 23.681 24.756 23.506 21.556 21.548 20.738 18.783 18.616 18.908 19.058 19.906 19.941 20.906 20.656 20.853 21.883 22.413 22.613 21.226 20.448 20.391 20.483 20.511 20.578 20.666 20.683 20.798 20.838 20.916 21.048 21.068 20.996 21.031 21.193 21.618 22.016 22.183 22.218 22.421 22.588 22.683 22.413 22.313 22.463 22.188 22.061 22.076 22.081 22.661 22.663 22.126 22.028 21.921 21.898 21.898 21.993 22.033 22.076 21.958 22.061 21.861 21.728 21.761 21.733 21.753 21.773 21.828 21.953 21.988 21.848 21.801 21.823 21.788 21.893 21.896 21.836 21.778 21.748 21.721 21.658 21.686 21.638 21.571 21.703 21.618 21.581 21.546 21.528 21.508 21.571 21.636 21.876 21.881 21.853 21.888 21.771 21.628 21.356 21.503 21.423 21.393 21.386 21.623 21.841 22.016 22.081 22.091 22.168 22.218 22.303 22.406 22.478 22.573 22.671 22.793 22.833 22.871 23.051 24.136 25.731 25.916 26.068 25.663 24.116 23.853 24.078 24.216 24.296 24.368 24.443 24.543 24.708 24.856 24.993 25.101 25.251 25.423 25.571 25.681 25.761 25.861 25.998 26.161 26.331 26.433 26.693 27.708 27.286 28.351 29.298 29.466 29.736 29.796 29.158 27.628 27.088 27.113 29.448 33.053 36.263 38.766 38.183 35.636 31.626 27.928 27.571 27.753 28.406 28.838 28.698 29.206 29.778 29.808 29.041 28.163 27.841 27.843 27.873 27.898 27.933 27.978 28.033 28.081 28.123 28.096 28.088 28.123 28.143 28.183 28.198 28.188 28.233 28.206 28.086 28.046 28.228 28.691 28.426 28.051 28.143 28.156 28.181 28.168 28.118 28.085 28.068 28.093 28.113 28.11 28.103 28.068 28.05 28.03 28.053 28.068 28.173 28.165 28.15 28.158 28.165 28.183 28.19 28.195 28.228 28.233 28.23 28.215 28.198 28.213 28.25 28.243 28.29 28.313 28.305 28.338 28.365 28.373 28.393 28.405 28.428 28.465 28.475 28.548 28.57 28.618 28.645 28.615 28.62 28.645 28.673 28.69 28.678 28.693 28.775 28.83 28.873 28.923 28.975 29.005 29.065 29.153 29.193 29.338 29.41 29.443 29.508 29.555 29.595 29.595 29.66 29.97 29.98 29.943 31.538 31.223 31.683 30.92 30.265 30.9 30.78 30.883 31.788 30.573 30.72 30.77 30.68 30.64 30.59 30.763 30.938 31.518 32.448 32.888
9.779 10.016 10.796 11.546 13.371 14.936 15.696 15.286 14.311 11.774 11.046 11.101 11.271 11.294 11.254 11.201 11.204 11.256 11.394 11.594 11.799 12.014 12.179 12.319 12.404 12.519 12.819 13.736 14.526 13.504 13.756 13.911 14.006 14.121 14.246 14.329 14.401 14.534 14.564 14.584 15.519 15.936 16.164 15.676 15.731 15.779 15.859 15.929 16.116 17.159 17.964 16.764 16.939 17.709 18.149 21.626 22.276 22.954 23.709 24.168 24.293 23.923 22.616 22.618 21.871 20.916 19.613 18.351 18.093 18.008 18.796 19.568 19.873 20.018 20.163 20.251 20.306 20.388 20.476 20.563 20.603 20.896 21.403 21.233 21.261 22.566 22.136 21.646 21.676 21.678 22.016 22.353 23.123 22.113 22.333 23.606 22.953 25.901 25.878 25.438 23.988 23.166 24.493 24.708 21.868 22.368 21.751 22.168 23.006 23.323 23.211 23.123 23.008 23.081 23.216 22.928 22.918 22.836 24.518 21.828 22.218 24.623 24.591 21.918 21.911 22.406 22.311 22.293 22.303 22.543 21.851 20.908 20.721 20.536 20.428 20.286 20.146 20.103 20.741 24.858 24.251 24.823 25.973 26.046 24.676 20.251 18.986 18.791 18.763 18.713 18.806 19.033 19.113 19.433 22.756 24.613 24.211 22.626 20.746 19.936 18.891 19.296 19.251 19.198 19.008 19.536 19.921 20.261 20.506 20.903 21.251 23.061 23.948 21.388 20.788 20.728 20.781 20.833 20.821 20.796 20.818 20.916 20.961 21.106 21.128 21.218 21.083 21.081 21.446 21.888 22.273 22.493 22.551 22.606 22.716 22.693 22.621 22.411 22.508 22.313 22.206 21.956 21.888 21.941 22.276 22.063 21.961 22.041 22.078 21.988 22.076 22.061 22.033 22.153 22.438 21.976 21.831 21.828 21.861 21.838 21.926 21.916 21.963 21.956 22.173 21.983 21.933 21.926 22.016 22.076 22.096 22.073 21.911 21.853 21.823 21.778 21.781 21.831 21.791 21.818 21.768 21.736 21.736 21.698 21.698 21.678 21.858 21.798 22.003 22.281 21.898 21.936 21.901 21.851 21.783 21.521 21.493 21.586 21.801 21.981 23.358 23.196 22.236 22.296 22.341 22.448 22.508 22.601 22.693 22.821 22.898 22.941 23.033 23.246 24.278 26.186 26.351 26.383 24.393 24.106 23.993 24.188 24.276 24.333 24.431 24.568 24.731 24.848 24.986 25.118 25.266 25.423 25.521 25.593 25.713 25.793 25.871 25.986 26.151 27.453 28.738 29.166 29.231 29.308 29.316 29.393 29.523 28.083 27.121 27.083 27.046 27.066 34.611 36.381 37.581 38.781 38.618 36.096 30.868 27.573 27.796 28.263 28.533 28.893 28.781 29.106 29.601 29.623 28.878 28.043 27.841 27.786 27.778 27.796 27.823 27.843 27.881 27.908 27.963 27.998 28.008 27.993 28.008 28.046 28.076 28.046 28.093 28.038 27.966 28.028 29.231 29.878 28.153 28.006 28.013 28.056 28.078 28.048 27.998 27.965 27.98 27.97 27.973 27.99 27.99 27.973 27.945 27.91 27.935 27.965 27.993 27.985 28.013 28.015 28.028 28.015 28.03 28.083 28.065 28.068 28.095 28.108 28.088 28.09 28.118 28.115 28.118 28.14 28.16 28.173 28.21 28.218 28.223 28.263 28.3 28.328 28.355 28.363 28.418 28.448 28.463 28.47 28.508 28.478 28.518 28.528 28.545 28.583 28.64 28.698 28.723 28.798 28.83 28.878 28.943 29.08 29.115 29.183 29.288 29.328 29.383 29.37 29.668 30.118 31.235 31.923 31.188 30.513 30.355 31.42 30.815 30.435 30.603 31.44 31.128 31.068 32.493 31.673 30.358 30.365 30.34 30.415 30.83 31.92 32.89 33.33 33.048 32.71
9.644 9.774 10.269 10.079 10.081 14.139 15.269 15.769 14.929 13.269 10.836 11.654 12.126 11.171 11.256 11.191 11.161 11.161 11.211 11.389 11.581 11.811 12.041 12.179 12.271 12.386 12.779 13.939 13.384 13.414 13.604 13.729 13.854 13.979 14.059 14.164 14.254 14.324 14.389 14.496 15.046 15.209 15.151 15.584 15.679 15.701 15.731 15.886 16.021 16.204 16.351 16.536 17.149 17.686 17.799 18.236 19.824 21.424 22.204 22.948 23.738 24.206 24.666 24.036 23.376 22.663 21.983 20.481 18.033 18.271 18.996 19.678 19.873 20.098 20.166 20.146 20.218 20.323 20.438 20.508 20.578 20.623 20.733 20.858 21.361 22.401 21.523 21.503 21.606 21.731 21.831 21.931 21.981 21.991 22.483 22.928 22.806 24.888 25.771 26.313 27.358 26.443 26.468 23.891 24.298 25.428 23.573 21.838 21.808 22.336 23.243 23.458 23.421 23.331 23.206 23.476 23.711 23.568 25.046 22.068 22.293 23.708 23.591 21.623 22.181 22.503 22.313 22.316 22.208 22.121 22.131 21.958 21.071 20.826 20.728 20.538 20.341 19.863 23.678 25.986 25.908 25.701 26.916 25.291 23.063 19.583 20.166 18.926 18.903 19.071 21.161 20.536 19.463 19.641 23.671 24.641 23.158 22.086 21.383 19.526 18.913 19.498 19.713 19.646 18.971 19.438 20.001 20.141 21.176 21.183 21.496 23.888 23.081 20.886 21.033 21.016 20.758 20.906 20.903 21.003 21.126 21.083 21.103 21.158 21.253 21.223 21.186 21.396 21.741 22.133 22.458 22.648 22.671 22.648 22.836 22.798 22.736 22.413 22.216 22.251 22.228 22.178 22.163 22.066 22.121 22.328 22.271 22.191 22.231 22.023 22.081 22.091 22.153 22.268 22.456 22.061 21.998 21.988 22.021 22.016 21.991 22.006 21.956 22.021 22.143 22.036 22.028 22.153 22.156 22.141 22.183 22.091 22.016 21.978 22.083 22.116 22.068 22.061 22.081 21.906 21.861 21.823 22.278 22.041 21.916 21.823 21.818 21.791 21.956 22.053 22.001 22.191 22.281 22.231 22.038 21.586 21.496 21.761 21.843 21.886 23.621 23.523 22.306 22.326 22.416 22.466 22.553 22.673 22.748 22.823 22.918 23.011 23.086 23.233 23.418 25.811 26.343 26.351 26.013 25.451 23.853 24.103 24.228 24.296 24.401 24.551 24.716 24.801 24.971 25.111 25.241 25.373 25.483 25.533 25.656 25.723 25.781 26.191 27.496 28.998 29.158 29.151 29.153 29.286 29.343 28.683 27.656 26.953 26.928 26.961 27.028 29.913 37.281 38.503 39.023 39.038 36.856 34.506 29.858 27.608 27.566 27.758 28.466 28.968 28.878 29.056 29.028 28.888 28.338 27.871 27.758 27.713 27.691 27.693 27.731 27.763 27.798 27.811 27.833 27.853 27.846 27.856 27.878 27.931 27.926 27.943 27.953 27.923 27.871 28.843 30.438 29.246 27.813 27.933 27.918 27.988 27.948 27.918 27.881 27.865 27.873 27.885 27.873 27.908 27.868 27.845 27.805 27.825 27.84 27.83 27.84 27.87 27.875 27.888 27.898 27.913 27.92 27.933 27.95 27.953 27.985 27.968 27.943 27.953 27.965 27.978 27.995 27.98 28.033 28.055 28.108 28.083 28.09 28.13 28.118 28.143 28.168 28.255 28.283 28.3 28.285 28.29 28.325 28.355 28.385 28.375 28.403 28.43 28.515 28.555 28.618 28.673 28.698 28.758 28.818 28.913 29.015 29.105 29.138 29.108 29.155 29.445 30.985 31.218 30.953 31.358 30.788 31.178 30.863 30.77 31.393 29.91 31.995 30.998 30.195 30.233 30.155 30.518 30.045 30.548 31.02 31.195 32.32 32.88 32.888 32.808 31.983 32.51
9.291 9.466 9.606 9.651 9.756 12.696 14.634 15.476 15.274 14.376 12.291 11.731 11.721 10.961 11.136 11.199 11.099 11.079 11.126 11.224 11.419 11.644 11.849 11.991 12.071 12.371 13.209 14.384 13.026 13.266 13.471 13.549 13.704 13.819 13.891 13.989 14.086 14.149 14.231 14.411 14.654 14.811 14.969 15.216 15.439 15.634 15.634 15.759 15.911 16.074 16.196 16.486 17.339 17.634 17.729 17.834 17.916 18.136 19.801 22.441 23.071 22.906 23.451 24.121 24.406 24.138 23.508 20.051 18.051 18.533 19.313 19.726 19.893 20.241 20.186 20.156 20.221 20.358 20.378 20.456 20.533 20.618 20.678 20.866 21.828 21.566 21.363 21.501 21.658 21.796 21.836 21.888 21.928 21.941 22.643 23.538 22.596 22.531 25.186 26.696 27.641 26.901 25.563 23.078 23.331 25.828 26.238 22.638 22.146 21.971 22.086 22.113 22.478 22.973 23.786 23.993 23.468 22.708 22.176 21.918 22.183 22.283 21.771 21.658 23.793 25.433 24.071 22.308 22.343 23.868 23.213 22.086 22.341 22.078 20.998 20.813 21.043 20.531 23.163 24.916 25.973 26.511 25.726 23.151 20.438 20.708 20.096 19.058 19.391 23.153 21.511 20.633 21.316 20.133 21.241 22.163 22.363 21.758 20.308 18.811 19.306 19.443 19.453 19.416 19.163 19.286 20.063 19.981 20.216 20.978 21.663 24.673 23.408 21.006 21.566 21.143 20.936 21.301 21.188 21.193 21.196 21.161 21.358 21.398 21.348 21.406 21.376 21.913 22.136 22.178 22.243 22.636 22.823 22.806 22.826 22.673 22.416 22.348 22.266 22.163 22.691 22.321 22.166 22.006 22.328 23.006 22.273 22.256 22.488 22.156 21.986 22.091 22.106 22.338 22.208 22.126 22.108 22.143 22.208 22.223 22.208 22.171 22.223 22.168 22.146 22.113 22.198 22.278 22.271 22.118 22.166 22.141 22.168 22.168 22.091 22.088 22.311 22.368 22.163 21.993 21.998 22.098 22.708 22.268 21.963 21.801 21.848 21.843 21.796 21.841 21.983 22.151 22.231 22.161 22.246 21.958 21.713 21.846 21.996 21.918 22.091 22.171 22.301 22.423 22.438 22.508 22.598 22.698 22.786 22.868 22.948 23.023 23.131 23.216 23.386 23.533 25.678 26.363 26.346 25.926 24.003 23.913 24.121 24.248 24.356 24.516 24.683 24.786 24.951 25.113 25.268 25.383 25.466 25.528 25.641 25.691 26.451 28.298 28.721 28.773 29.088 29.091 27.618 27.606 27.501 26.748 26.681 26.763 26.856 26.888 26.968 33.026 36.403 38.926 38.923 38.641 36.861 34.948 31.468 27.386 27.408 27.408 28.176 28.558 28.721 28.511 28.303 28.016 27.761 27.753 27.651 27.618 27.623 27.618 27.666 27.701 27.718 27.741 27.756 27.758 27.761 27.771 27.808 27.818 27.778 27.808 27.883 27.833 27.788 28.548 30.671 28.378 27.761 27.823 27.873 27.886 27.878 27.868 27.823 27.803 27.805 27.773 27.788 27.803 27.81 27.775 27.723 27.715 27.723 27.773 27.755 27.763 27.745 27.783 27.78 27.77 27.805 27.838 27.818 27.83 27.853 27.838 27.838 27.815 27.823 27.823 27.825 27.813 27.848 27.895 27.938 27.945 27.955 27.968 27.97 27.98 28.018 28.095 28.105 28.113 28.158 28.14 28.17 28.19 28.195 28.185 28.24 28.318 28.395 28.395 28.468 28.5 28.588 28.65 28.708 28.803 28.878 28.913 29.11 29.545 29.98 30.28 30.805 31.01 30.805 30.908 31.22 31.228 31.35 31.76 31.035 30.435 30.013 30.485 29.935 29.815 29.978 30.62 31.378 31.87 30.59 31.59 32.305 31.508 31.23 31.943 32.77 32.325
9.164 9.289 9.416 9.904 9.656 10.251 12.534 14.746 15.524 14.964 11.904 11.274 11.166 10.801 10.964 11.099 11.046 11.019 11.021 11.114 11.264 11.451 11.656 11.771 11.939 12.401 13.939 13.204 12.881 13.096 13.261 13.416 13.544 13.614 13.709 13.794 13.876 13.941 14.076 14.389 14.531 14.684 14.849 14.976 15.139 15.304 15.454 15.609 15.749 15.906 16.066 16.694 17.426 17.549 17.629 18.286 17.844 17.944 18.026 20.058 20.646 20.716 21.943 22.651 23.321 24.011 24.101 18.661 18.136 18.803 19.471 19.723 20.008 20.128 20.191 20.233 20.241 20.276 20.403 20.458 20.501 20.543 20.683 21.153 22.033 21.236 21.361 21.563 21.711 21.801 21.866 21.878 21.913 22.013 22.921 23.271 22.443 22.763 26.041 27.263 27.513 26.328 24.346 22.826 24.281 24.571 24.161 23.988 24.803 25.021 23.176 22.598 22.096 22.551 23.061 22.458 22.208 22.208 22.843 22.103 22.481 21.971 21.796 22.213 25.968 27.458 26.188 23.611 23.978 27.991 27.401 25.533 23.631 22.928 22.101 22.198 22.271 21.048 20.536 20.318 25.151 25.923 24.763 20.713 19.491 20.141 19.208 19.148 19.838 26.178 22.116 20.183 20.113 19.173 19.046 20.566 22.048 21.898 21.348 19.568 20.041 19.808 19.503 19.491 19.568 19.651 19.778 19.846 19.908 21.051 21.943 24.981 22.316 20.881 21.358 21.056 21.048 22.806 23.238 23.213 22.738 22.471 21.793 21.513 21.468 21.476 21.728 22.018 21.856 21.728 21.893 22.388 22.413 22.151 22.431 22.218 21.971 22.028 21.891 21.851 23.988 24.833 23.008 22.168 23.221 22.878 22.488 22.631 22.588 22.391 22.198 22.221 22.171 22.273 22.173 22.186 22.253 22.273 22.298 22.343 22.346 22.468 22.466 22.533 22.341 22.353 22.418 22.441 22.493 22.418 22.423 22.318 22.223 22.206 22.216 22.151 22.288 22.318 22.283 22.173 22.261 22.241 22.353 22.261 21.938 21.883 21.906 21.903 21.918 21.953 21.896 22.223 22.408 22.428 22.463 22.141 22.043 22.243 21.963 22.078 22.093 22.103 22.221 22.401 22.536 22.581 22.678 22.768 22.821 22.868 22.963 23.046 23.178 23.298 23.428 23.518 24.528 26.313 26.353 26.378 26.023 24.186 24.076 24.246 24.366 24.511 24.641 24.786 24.963 25.118 25.241 25.348 25.418 25.533 26.236 26.618 28.348 28.703 28.701 28.686 28.306 26.963 26.223 26.328 26.466 26.583 26.646 26.686 26.776 26.823 26.881 29.633 32.753 36.481 37.576 38.341 36.976 35.363 30.976 27.413 27.583 27.543 27.563 27.756 27.898 28.091 27.923 27.636 27.611 27.618 27.571 27.553 27.543 27.531 27.548 27.601 27.628 27.668 27.681 27.666 27.676 27.696 27.741 27.718 27.778 27.951 28.056 27.933 28.166 29.411 29.303 28.056 27.673 27.748 27.771 27.788 27.766 27.713 27.693 27.723 27.695 27.695 27.72 27.693 27.7 27.655 27.653 27.623 27.65 27.685 27.673 27.66 27.65 27.683 27.668 27.67 27.653 27.708 27.693 27.68 27.673 27.693 27.685 27.688 27.708 27.71 27.693 27.713 27.725 27.75 27.783 27.8 27.8 27.803 27.838 27.868 27.898 27.918 27.978 27.958 27.98 27.983 28.013 28.035 28.033 28.07 28.1 28.185 28.258 28.253 28.295 28.38 28.483 28.543 28.543 28.608 28.905 29.438 29.848 29.768 29.683 29.915 29.938 29.9 30.518 30.203 31.265 30.483 31.173 29.96 30.638 29.863 29.548 29.498 29.688 30.81 31.655 32.015 32.08 32.2 30.49 31.635 31.58 30.925 31.505 31.963 32.415 32.163
9.086 9.184 9.306 9.464 9.489 9.606 10.751 13.556 14.249 12.239 10.974 11.466 10.559 10.626 10.824 10.979 11.041 11.009 10.976 10.989 11.054 11.241 11.446 11.564 11.744 12.139 13.319 12.524 12.679 12.906 13.099 13.216 13.329 13.431 13.519 13.614 13.694 13.811 14.024 14.261 14.426 14.564 14.746 14.886 15.014 15.209 15.331 15.449 15.586 15.776 16.189 16.846 17.244 17.536 18.386 18.444 18.279 17.749 17.841 17.916 18.023 18.113 19.378 20.983 21.986 22.576 21.831 17.991 18.306 19.113 19.518 19.708 20.041 20.043 20.156 20.193 20.191 20.283 20.363 20.458 20.731 20.533 20.841 21.941 21.573 21.221 21.433 21.673 21.756 21.781 21.801 21.826 21.883 22.276 23.248 22.478 22.348 24.806 26.598 27.646 26.958 25.638 24.043 24.466 26.041 26.458 25.341 23.593 24.233 25.431 27.633 26.111 24.723 23.141 22.241 22.271 22.283 22.501 22.868 22.463 22.796 22.068 22.428 23.258 25.608 27.513 25.756 23.738 25.416 28.738 28.788 28.468 27.723 26.321 24.843 23.156 22.678 21.923 20.301 19.883 21.066 24.423 22.526 19.646 19.358 19.333 19.288 19.343 24.366 27.418 24.821 20.181 20.143 20.073 19.528 19.476 20.703 21.601 20.566 19.943 21.966 20.833 20.223 19.751 19.613 19.768 19.823 19.868 21.011 21.688 23.971 24.263 23.401 21.611 21.153 21.248 21.203 23.063 23.393 23.346 23.533 23.573 21.868 21.553 21.551 21.583 21.751 21.756 21.676 21.666 21.766 21.806 21.841 21.873 22.028 21.926 21.961 21.913 21.928 22.031 23.788 25.123 22.638 22.451 22.788 22.318 22.696 22.813 22.578 22.578 22.496 22.388 22.373 22.226 22.213 22.368 22.478 22.483 22.696 22.628 22.681 22.771 22.773 22.701 22.603 22.608 22.593 22.646 22.663 22.728 22.656 22.488 22.338 22.353 22.361 22.326 22.298 22.361 22.513 22.278 22.246 22.231 22.193 22.116 22.101 22.096 22.031 21.986 22.031 22.033 22.011 22.196 22.413 22.526 22.441 22.261 22.068 22.106 22.106 22.076 22.038 22.156 22.231 22.333 22.511 22.666 22.693 22.763 22.848 22.963 23.001 23.116 23.243 23.388 23.443 23.528 23.761 24.323 26.326 26.476 27.011 25.263 24.126 24.293 24.401 24.523 24.638 24.803 24.988 25.128 25.251 25.298 25.496 26.516 28.488 28.488 28.461 28.516 28.628 27.428 26.326 26.121 26.643 26.788 26.251 26.431 26.551 26.586 26.651 26.738 26.828 27.023 29.201 36.781 37.571 37.128 36.606 34.168 27.711 27.476 27.548 27.626 27.453 27.576 27.631 27.818 27.891 27.588 27.551 27.523 27.493 27.491 27.483 27.466 27.458 27.511 27.533 27.543 27.561 27.568 27.593 27.626 27.673 27.813 28.373 28.831 28.853 28.651 29.453 30.368 29.848 27.861 27.586 27.651 27.688 27.701 27.696 27.633 27.623 27.623 27.603 27.605 27.62 27.61 27.598 27.595 27.563 27.545 27.583 27.588 27.57 27.568 27.56 27.55 27.553 27.543 27.558 27.578 27.548 27.575 27.58 27.593 27.583 27.583 27.585 27.553 27.56 27.58 27.605 27.618 27.643 27.663 27.66 27.683 27.71 27.758 27.765 27.805 27.81 27.833 27.833 27.868 27.855 27.878 27.91 27.983 27.99 28.038 28.085 28.14 28.198 28.288 28.315 28.455 28.888 29.415 29.488 29.543 29.455 29.465 29.365 29.44 29.408 29.375 29.318 29.253 29.718 29.39 29.95 29.423 29.27 29.308 29.378 29.66 31.253 31.38 31.615 31.153 31.57 31.92 31.118 32.215 31.405 31.785 31.075 32 32.215 31.833
9.526 9.194 9.129 9.216 9.344 9.424 9.551 9.734 9.859 10.019 10.796 11.391 10.284 10.496 10.666 10.869 10.931 10.964 10.921 10.926 10.956 11.071 11.209 11.386 11.621 11.846 12.104 12.361 12.571 12.786 12.979 13.106 13.179 13.284 13.361 13.449 13.544 13.631 13.984 14.141 14.286 14.486 14.634 14.779 14.936 15.574 15.206 15.314 15.459 16.094 16.401 16.906 17.094 17.269 17.784 17.666 17.569 17.576 17.654 17.763 17.883 18.036 18.198 20.278 22.136 21.761 18.563 18.048 18.683 19.223 19.543 19.768 19.876 19.996 20.043 20.106 20.171 20.366 20.451 20.376 20.443 20.781 21.263 21.841 21.126 21.231 21.536 21.751 21.816 21.811 21.813 21.801 22.003 22.761 22.516 22.323 23.283 25.941 27.168 27.518 26.383 24.543 24.708 25.296 26.591 26.601 25.356 23.606 23.558 23.763 25.666 26.123 25.978 24.233 23.178 22.408 22.376 22.386 22.418 22.536 22.421 22.911 22.961 22.708 23.106 24.606 23.231 25.121 26.361 28.046 28.473 28.781 28.758 28.361 27.766 26.318 22.948 22.378 21.776 20.748 20.221 20.451 19.688 19.523 19.448 19.436 19.543 21.003 25.986 25.621 22.056 20.158 20.131 20.101 20.191 21.823 19.891 19.541 19.621 21.186 22.346 22.303 21.891 20.828 21.363 20.166 20.041 20.333 23.061 23.586 24.023 24.656 23.716 21.301 21.253 21.346 21.358 21.548 21.546 21.793 22.001 21.668 21.661 21.748 21.826 21.741 21.708 21.773 21.753 21.803 21.846 21.886 21.913 21.878 21.953 22.036 22.008 21.951 22.051 22.468 24.061 23.163 22.596 22.863 23.203 22.818 22.571 22.683 22.626 22.641 22.591 22.453 22.366 22.258 22.618 22.693 22.731 22.658 22.886 22.706 22.623 22.818 23.038 23.038 23.028 22.973 22.913 22.723 22.666 22.643 22.528 22.571 22.533 22.516 22.491 22.436 22.406 22.423 22.441 22.436 22.381 22.323 22.323 22.326 22.241 22.191 22.151 22.226 22.093 22.166 22.203 22.218 22.191 22.176 22.198 22.046 21.961 22.088 22.198 22.218 22.286 22.371 22.461 22.403 22.473 22.653 22.781 22.851 23.503 23.251 23.041 23.116 23.238 23.408 23.523 23.566 23.678 23.836 25.898 26.988 27.068 27.016 25.426 24.303 24.446 24.583 24.698 24.871 25.018 25.138 25.241 25.338 26.636 28.091 28.343 28.446 28.446 27.848 27.043 26.048 26.181 27.476 28.631 27.781 26.448 26.306 26.436 26.483 26.548 26.653 26.733 26.801 27.566 30.896 32.836 33.646 32.411 28.926 27.351 27.396 27.573 27.463 27.366 27.441 27.446 27.433 27.553 27.481 27.503 27.466 27.436 27.446 27.413 27.368 27.391 27.418 27.443 27.471 27.468 27.481 27.503 27.543 27.856 28.528 28.983 29.243 28.928 28.876 29.273 29.268 28.616 27.413 27.538 27.598 27.628 27.643 27.621 27.563 27.556 27.563 27.518 27.523 27.518 27.545 27.508 27.483 27.485 27.475 27.46 27.463 27.493 27.483 27.458 27.443 27.453 27.453 27.438 27.463 27.46 27.473 27.498 27.463 27.465 27.48 27.473 27.458 27.45 27.468 27.498 27.525 27.503 27.515 27.543 27.56 27.568 27.633 27.638 27.655 27.705 27.695 27.735 27.733 27.72 27.75 27.845 27.85 27.913 27.958 27.995 28.035 28.07 28.133 28.365 28.888 29.333 29.293 29.013 29.395 29.278 29.135 28.883 28.89 28.873 28.925 29.035 29.028 28.913 28.9 28.95 29.133 29.335 30.658 31.158 32.14 31.838 31.458 31.055 31.14 31.12 31.67 31.723 30.795 31.69 31.46 31.743 31.86 31.533 30.81
9.804 10.044 10.084 9.654 10.204 9.669 9.356 9.516 9.706 9.914 11.151 10.891 10.144 10.376 10.589 10.776 10.829 10.859 10.851 10.824 10.859 10.901 11.011 11.201 11.466 11.669 11.844 12.174 12.439 12.636 12.821 12.949 13.046 13.131 13.234 13.291 13.401 13.569 13.851 14.006 14.169 14.316 14.434 14.586 14.769 14.906 15.036 15.191 15.394 15.719 16.484 16.816 16.986 17.151 17.251 17.309 17.414 17.441 17.529 17.616 17.726 17.786 17.931 20.881 22.081 20.191 18.018 18.203 19.033 19.321 19.546 19.818 19.856 20.013 20.036 20.026 20.126 20.231 20.311 20.423 20.491 21.996 21.821 21.416 21.061 21.286 21.513 21.703 21.806 21.846 21.761 21.816 22.331 22.976 22.318 22.251 23.628 25.401 27.516 27.033 25.733 23.143 23.438 26.051 26.613 26.606 25.106 23.511 23.363 23.471 24.703 24.451 25.531 27.186 25.831 25.301 24.321 23.861 22.618 22.506 22.738 23.478 22.896 23.493 23.703 22.913 23.041 24.478 25.301 26.338 27.681 28.183 28.698 28.728 28.121 25.643 24.373 22.556 22.516 23.176 21.856 20.408 19.918 19.581 19.598 19.563 22.483 27.333 27.108 21.228 20.851 20.671 21.808 20.368 20.271 21.831 21.513 20.626 20.993 22.273 22.648 21.906 21.378 20.638 20.798 20.588 20.516 20.471 20.786 22.008 23.688 23.506 22.191 21.426 21.441 21.543 21.611 21.631 21.708 21.838 21.953 21.891 21.968 21.948 21.931 21.886 21.896 21.833 21.856 21.893 21.981 22.018 22.056 22.033 22.073 22.113 22.076 22.103 22.396 23.581 25.556 22.888 22.473 22.788 22.611 22.643 22.688 22.688 22.603 22.671 22.658 22.568 22.656 22.796 22.861 22.771 22.726 22.743 22.663 22.648 22.576 22.693 22.856 22.923 23.006 23.078 22.828 22.771 22.753 22.843 22.673 22.651 22.613 22.656 22.638 22.596 22.528 22.526 22.468 22.518 22.536 22.421 22.426 22.401 22.313 22.271 22.278 22.256 22.226 22.186 22.293 22.246 22.123 22.086 22.081 22.066 22.198 22.373 22.451 22.403 22.423 22.476 22.451 22.458 22.541 22.641 22.711 22.888 23.118 23.028 23.098 23.163 23.311 23.471 23.578 23.636 23.696 23.858 24.158 25.986 27.021 27.116 27.096 25.273 24.448 24.616 24.761 24.891 25.038 25.316 26.568 27.176 28.276 28.286 28.291 28.386 27.326 26.111 25.908 25.966 26.903 28.743 28.723 28.746 28.276 26.598 26.348 26.428 26.506 26.593 26.638 26.698 27.006 27.586 26.928 28.203 27.788 27.088 27.118 27.328 27.386 27.331 27.326 27.343 27.351 27.423 27.451 27.448 27.463 27.441 27.423 27.416 27.378 27.328 27.348 27.343 27.346 27.388 27.373 27.393 27.463 27.523 28.213 29.073 29.556 29.498 29.263 28.913 28.748 28.618 28.413 27.361 27.458 27.483 27.543 27.573 27.518 27.486 27.448 27.453 27.458 27.445 27.453 27.493 27.49 27.44 27.41 27.385 27.395 27.393 27.41 27.4 27.395 27.35 27.375 27.375 27.35 27.35 27.378 27.4 27.4 27.37 27.393 27.423 27.445 27.393 27.373 27.373 27.378 27.393 27.388 27.388 27.408 27.448 27.445 27.513 27.533 27.528 27.59 27.605 27.67 27.658 27.625 27.67 27.733 27.773 27.803 27.805 27.905 27.975 28.44 29.108 29.32 28.7 28.818 28.903 28.835 28.825 28.725 28.678 28.713 28.718 28.715 28.715 28.615 28.598 28.638 29.228 30.02 30.565 30.488 31.215 31.08 31.36 31.213 31.283 31.25 31.148 31.175 31.338 31.71 30.918 31.63 30.533 30.95 31.178 30.368 29.863
9.241 9.524 8.886 9.891 9.991 10.099 10.544 10.136 10.501 10.594 11.246 10.544 10.014 10.261 10.464 10.654 10.696 10.756 10.791 10.759 10.764 10.804 10.859 11.001 11.256 11.489 11.671 11.856 12.246 12.476 12.609 12.721 12.819 12.954 13.051 13.151 13.234 13.494 13.711 13.826 13.969 14.019 14.154 14.319 14.511 14.711 14.889 15.089 15.339 15.696 16.409 16.664 16.871 17.006 17.111 17.201 17.289 17.314 17.419 17.496 17.621 17.696 17.753 17.843 19.351 18.941 18.356 19.516 19.978 19.376 19.703 19.548 19.748 19.976 19.963 19.973 20.131 20.168 20.208 20.293 20.568 22.076 23.276 20.881 21.058 21.236 21.426 21.583 21.723 21.788 21.726 21.806 23.243 23.543 22.281 23.846 22.361 23.303 24.728 26.463 24.461 22.721 24.171 26.221 26.608 25.828 23.711 23.506 23.323 23.373 23.576 24.413 23.953 23.806 24.076 25.143 25.748 25.723 24.691 22.876 23.081 24.143 22.938 23.033 23.061 23.106 24.088 23.116 22.468 24.796 25.933 28.173 28.843 28.426 26.021 24.293 23.663 22.353 23.791 24.638 23.936 22.163 19.931 19.718 19.683 19.818 24.168 28.938 25.443 20.998 20.981 21.008 23.608 21.138 20.936 21.988 22.021 21.573 21.631 21.898 22.006 22.128 21.496 20.891 20.693 20.671 20.781 21.278 22.016 24.751 25.006 24.483 24.776 22.261 21.748 22.146 21.746 21.741 21.901 21.818 21.988 21.956 21.973 22.063 22.061 21.953 22.021 21.983 21.963 22.101 22.046 22.086 22.111 22.163 22.228 22.286 22.266 22.321 22.606 22.891 25.091 22.753 22.551 23.551 23.908 23.228 23.066 22.951 22.766 22.951 23.141 23.103 23.088 22.968 22.841 22.831 22.816 22.758 22.721 22.691 22.831 22.808 22.808 22.806 22.761 22.876 22.948 22.908 22.893 22.673 22.783 22.756 22.656 22.673 22.713 22.751 22.683 22.691 22.641 22.606 22.688 22.723 22.506 22.388 22.371 22.408 22.413 22.373 22.363 22.376 22.366 22.368 22.286 22.246 22.288 22.311 22.361 22.501 22.536 22.513 22.601 22.536 22.551 22.523 22.476 22.588 22.756 22.838 22.998 23.043 23.111 23.193 23.338 23.506 23.668 23.748 23.781 23.836 24.066 25.131 26.753 27.046 27.031 26.813 24.778 24.636 24.816 24.951 25.623 27.538 28.038 28.073 28.156 28.223 27.983 26.288 25.678 25.736 26.223 26.778 26.023 27.281 28.691 28.716 28.598 26.946 26.298 26.371 26.448 26.528 26.586 27.458 29.661 29.686 27.808 26.941 27.066 26.988 27.023 27.088 27.156 27.206 27.253 27.291 27.308 27.383 27.398 27.426 27.426 27.396 27.381 27.361 27.311 27.271 27.271 27.268 27.281 27.291 27.303 27.313 27.293 27.298 27.553 27.963 28.931 29.866 29.323 28.848 28.751 28.886 28.051 27.301 27.421 27.413 27.423 27.436 27.416 27.368 27.351 27.343 27.368 27.385 27.353 27.363 27.358 27.325 27.32 27.318 27.32 27.323 27.34 27.318 27.303 27.318 27.313 27.31 27.263 27.268 27.273 27.3 27.295 27.315 27.328 27.323 27.303 27.27 27.258 27.243 27.275 27.278 27.3 27.298 27.308 27.338 27.36 27.375 27.428 27.463 27.52 27.53 27.603 27.615 27.585 27.59 27.628 27.62 27.735 28.24 28.828 28.58 28.563 28.48 29.698 28.755 28.573 28.468 28.443 28.485 28.573 28.52 28.515 28.525 28.4 28.35 28.4 28.575 29.105 30.415 30.64 30.685 30.83 30.975 30.778 31 31.003 31.173 31.088 31.178 31.02 30.905 31.313 30.718 31.3 31.49 31.08 30.12 29.655 29.79
8.694 8.721 8.731 8.816 9.439 9.859 9.044 9.301 9.844 10.349 12.214 10.729 9.921 10.146 10.339 10.524 10.569 10.659 10.719 10.666 10.686 10.714 10.754 10.846 11.034 11.266 11.484 11.706 11.974 12.284 12.429 12.539 12.639 12.789 12.889 12.999 13.156 13.399 13.526 13.631 13.694 13.839 14.029 14.199 14.394 14.579 14.784 15.026 15.231 15.744 16.326 16.501 16.689 16.826 16.931 17.071 17.109 17.184 17.279 17.376 17.483 17.586 18.088 18.323 18.058 18.121 20.766 22.126 20.486 20.588 21.293 20.658 19.528 19.663 19.803 20.006 20.043 20.108 20.161 20.323 20.728 21.973 21.701 20.723 21.011 21.101 21.223 21.431 21.588 21.661 21.636 21.821 24.033 27.476 22.156 26.671 22.681 22.871 24.553 25.508 22.978 23.148 23.991 26.598 26.616 25.033 23.421 23.343 23.328 23.356 23.391 23.473 23.578 23.701 23.708 24.083 24.973 25.878 25.053 23.196 22.956 23.296 23.256 25.478 24.556 24.776 24.026 23.288 22.981 22.478 24.363 28.393 28.708 27.726 23.163 23.753 22.796 22.281 22.366 22.791 23.751 21.781 19.828 19.838 19.838 21.733 27.376 28.218 21.478 21.066 21.066 21.291 21.821 21.933 21.793 22.196 22.478 21.913 22.116 23.198 23.553 23.111 21.978 21.583 21.351 21.166 21.298 21.906 22.473 32.668 31.108 33.476 33.561 24.393 22.798 23.778 22.358 21.963 21.943 22.143 22.351 22.326 22.251 22.173 22.111 22.253 22.123 22.073 22.081 23.366 22.913 22.213 22.223 22.281 22.398 22.386 22.503 22.546 22.663 23.226 23.226 22.773 23.956 25.208 24.058 23.696 23.391 23.346 23.203 23.308 23.361 23.413 23.461 23.368 23.218 23.148 23.173 22.988 23.048 23.101 23.053 22.971 23.021 23.096 23.086 23.033 23.028 23.048 23.081 22.948 23.918 23.048 22.951 22.998 22.943 22.948 22.838 22.856 22.926 22.896 22.861 22.771 22.641 22.633 22.616 22.588 22.518 22.476 22.481 22.543 22.523 22.526 22.541 22.526 22.431 22.416 22.451 22.526 22.588 22.713 22.753 22.806 22.848 22.831 22.891 22.716 22.768 22.908 22.991 23.101 23.241 23.218 23.378 23.568 23.723 23.758 23.871 23.948 24.048 24.223 24.891 26.998 27.016 27.051 25.883 24.623 25.041 25.841 27.691 27.968 28.006 28.001 27.976 26.718 25.846 25.641 25.623 25.696 26.081 25.956 26.233 26.508 28.256 28.691 28.718 28.306 26.573 26.336 26.386 26.406 26.461 27.101 30.188 30.266 28.083 27.453 27.008 26.843 26.916 26.963 27.003 27.086 27.128 27.151 27.206 27.296 27.333 27.381 27.373 27.366 27.346 27.296 27.253 27.211 27.181 27.181 27.193 27.221 27.241 27.213 27.183 27.246 27.398 27.448 28.041 29.876 29.223 28.661 28.988 28.638 27.413 27.271 27.293 27.316 27.353 27.336 27.306 27.261 27.248 27.243 27.278 27.28 27.228 27.243 27.223 27.198 27.203 27.203 27.208 27.24 27.223 27.23 27.203 27.243 27.21 27.215 27.19 27.193 27.225 27.215 27.225 27.23 27.253 27.235 27.198 27.208 27.168 27.175 27.158 27.185 27.215 27.19 27.21 27.253 27.258 27.268 27.328 27.383 27.405 27.438 27.498 27.505 27.448 27.44 27.603 27.795 27.96 29.203 28.775 29.24 29.303 28.853 28.913 28.065 28.12 28.215 28.358 28.353 28.258 28.188 28.145 28.18 28.27 28.378 28.523 28.665 29.98 30.548 30.63 30.615 30.658 30.753 30.888 31.07 30.83 31.04 30.825 30.91 31.03 30.74 30.685 30.278 30.748 30.553 29.74 29.413 29.56 29.665
8.609 8.654 8.706 8.739 9.109 8.954 8.909 10.416 10.444 10.506 12.136 10.094 9.811 10.029 10.251 10.421 10.446 10.559 10.644 10.614 10.604 10.629 10.691 10.774 10.921 11.101 11.274 11.501 11.716 11.944 12.254 12.386 12.514 12.659 12.729 12.844 13.071 13.249 13.309 13.426 13.569 13.734 13.934 14.141 14.319 14.496 14.674 14.889 15.186 15.844 16.161 16.361 16.531 16.654 16.774 16.906 16.964 17.061 17.151 17.283 17.388 17.466 18.181 18.086 17.803 17.996 21.161 20.631 20.218 20.126 18.836 20.243 20.608 20.246 19.741 19.708 19.876 20.068 20.436 21.061 20.598 22.101 20.638 23.023 24.126 21.076 21.121 21.243 21.418 21.533 21.606 22.243 26.498 29.963 26.491 25.638 23.736 22.308 22.336 22.931 22.436 23.258 24.803 26.073 26.636 26.071 23.508 23.331 23.336 23.431 23.798 23.723 23.933 23.621 23.746 23.691 23.671 24.903 28.056 24.323 23.153 23.068 23.023 25.681 26.396 26.786 24.926 23.441 23.386 23.248 23.958 24.796 26.446 25.376 22.523 23.316 22.343 22.366 22.313 22.691 24.193 20.376 19.933 19.888 20.486 21.973 27.393 24.246 21.298 21.186 21.168 23.486 25.466 23.826 22.556 23.746 23.726 22.306 23.243 24.298 24.468 22.796 22.028 21.888 21.731 21.606 21.948 22.211 29.006 37.383 36.303 38.071 37.446 31.376 24.153 24.268 23.136 22.596 22.591 22.448 22.623 22.618 22.451 23.048 22.556 22.666 22.511 22.351 23.218 23.948 22.581 22.736 22.718 22.693 22.581 22.581 22.618 24.018 22.931 23.013 22.901 23.053 23.326 23.568 23.823 23.696 23.518 23.491 23.386 23.393 23.566 23.491 23.393 23.261 23.348 23.238 23.231 23.203 23.208 23.213 23.226 23.181 23.158 23.176 23.156 23.151 23.128 23.203 23.176 23.203 23.221 23.153 23.111 23.113 23.106 23.058 22.966 22.918 22.996 23.008 22.893 22.878 22.768 22.701 22.693 22.656 22.603 22.603 22.576 22.596 22.616 22.616 22.603 22.478 22.441 22.483 22.483 22.523 22.571 22.663 22.736 22.808 22.881 23.026 23.026 22.926 22.936 22.966 23.038 23.131 23.236 23.311 23.418 23.553 23.656 23.746 23.881 24.006 24.096 24.178 24.376 26.136 26.863 26.451 24.958 24.728 26.181 27.821 27.798 27.801 27.961 27.071 26.173 25.333 25.431 25.518 25.578 25.656 25.723 26.113 26.601 26.003 26.976 28.536 28.723 28.723 27.451 26.188 26.281 26.318 26.721 28.453 28.998 26.923 26.626 26.691 26.693 26.718 26.763 26.823 26.883 26.936 26.973 27.008 27.083 27.171 27.223 27.271 27.303 27.301 27.296 27.206 27.168 27.136 27.108 27.131 27.148 27.133 27.148 27.161 27.193 27.781 27.916 27.703 28.186 29.496 28.848 28.913 30.493 27.911 27.191 27.156 27.168 27.236 27.211 27.203 27.146 27.156 27.128 27.125 27.163 27.173 27.138 27.108 27.105 27.12 27.13 27.113 27.115 27.145 27.15 27.153 27.113 27.113 27.095 27.088 27.153 27.118 27.155 27.115 27.143 27.198 27.138 27.093 27.105 27.093 27.093 27.055 27.03 27.068 27.088 27.103 27.12 27.145 27.17 27.198 27.253 27.268 27.31 27.345 27.335 27.325 27.42 27.868 28.325 28.238 29.763 30.64 28.8 28.95 28.915 28.003 27.85 28.01 28.02 28.153 28.073 27.96 27.945 28.005 28.06 28.125 28.198 28.223 28.295 28.99 29.94 30.198 30.44 30.49 30.518 30.553 30.788 30.865 30.795 30.648 30.265 30.01 30.193 30.228 29.803 30.13 29.768 29.233 29.14 29.378 29.483 29.453
8.476 8.544 8.611 8.639 9.256 9.044 8.854 9.134 9.206 11.126 11.401 9.539 10.069 10.039 10.146 10.259 10.316 10.444 10.504 10.479 10.504 10.549 10.631 10.686 10.809 10.989 11.129 11.319 11.539 11.776 12.071 12.226 12.346 12.459 12.571 12.721 12.999 13.074 13.169 13.271 13.476 13.659 13.859 14.004 14.181 14.364 14.519 14.746 15.179 15.826 16.086 16.249 16.436 16.579 16.676 16.766 16.814 16.919 17.019 17.158 17.296 17.398 17.833 17.913 17.753 18.103 20.273 19.641 21.193 20.618 18.676 19.276 18.918 19.321 22.798 20.811 20.138 19.946 20.611 22.343 22.573 23.038 20.503 23.091 22.333 22.116 21.256 21.271 21.898 21.448 21.673 23.878 27.153 31.333 25.586 23.853 23.223 22.271 22.326 22.353 22.756 23.863 26.841 26.288 26.598 26.353 23.961 23.373 23.361 23.478 23.456 23.516 24.058 23.653 24.416 24.058 24.191 25.811 30.223 24.321 24.233 23.921 23.103 23.033 26.311 28.406 28.131 24.943 23.936 23.438 23.446 23.203 23.686 22.823 23.136 22.473 22.363 22.318 22.941 24.013 20.613 20.026 20.021 20.198 22.573 22.193 23.653 21.551 21.888 21.926 23.356 31.163 31.741 28.721 22.971 22.703 22.856 23.096 24.056 24.486 23.526 22.106 22.146 22.081 22.086 22.506 22.311 23.463 30.873 37.153 37.078 37.478 38.176 37.966 29.691 26.338 23.621 23.141 22.766 22.673 22.578 22.548 24.001 23.708 23.336 23.043 23.633 23.888 24.253 22.983 22.646 22.838 23.246 23.098 23.076 23.396 22.693 23.268 23.116 22.898 22.968 23.043 23.141 23.158 23.251 23.353 23.398 23.601 23.618 23.608 23.443 23.291 23.358 23.303 23.293 23.298 23.291 23.306 23.431 23.323 23.321 23.328 23.371 23.348 23.246 23.208 23.226 23.286 23.356 23.551 23.611 23.541 23.318 23.411 23.333 23.198 23.158 23.091 23.101 23.098 23.058 22.991 22.948 22.878 22.861 22.846 22.816 22.796 22.788 22.733 22.741 22.728 22.643 22.606 22.608 22.591 22.583 22.568 22.558 22.613 22.641 22.688 22.711 22.793 22.948 22.961 22.998 23.058 23.101 23.113 23.196 23.301 23.483 23.546 23.636 23.763 23.901 24.023 24.151 24.263 24.333 24.536 25.748 25.221 24.623 24.763 25.636 27.813 27.773 27.738 26.973 25.608 25.348 25.306 25.398 25.508 25.581 25.628 25.713 25.778 26.126 26.646 26.261 27.653 28.701 28.723 28.701 27.103 26.158 26.703 28.295 30.923 31.028 30.046 27.458 26.501 26.561 26.601 26.618 26.678 26.728 26.791 26.848 26.883 26.926 26.978 27.041 27.131 27.178 27.161 27.163 27.123 27.113 27.076 27.081 27.081 27.066 27.061 27.073 27.118 27.271 28.133 28.231 28.118 28.658 28.818 28.596 29.198 28.983 28.013 26.966 27.071 27.098 27.108 27.126 27.071 27.026 27.048 27.036 27.043 27.04 27.068 27.04 27.015 27.003 26.985 26.988 27.018 27.025 27.013 27.02 26.998 26.998 26.99 26.973 26.95 26.995 27.028 27.03 27.038 27.035 27.055 27.025 27 26.983 26.98 26.958 26.95 26.94 26.98 26.99 27.025 27.038 27.06 27.078 27.133 27.165 27.2 27.175 27.253 27.343 27.495 27.748 27.958 27.955 27.76 28.683 29.51 28.145 28.115 27.898 27.798 27.76 27.768 27.75 27.698 27.733 27.8 27.883 27.898 27.875 27.925 28.028 28.108 28.185 28.215 28.778 29.258 29.67 29.913 30.085 29.908 30.288 30.273 30.108 29.663 29.058 28.968 28.865 28.9 28.975 28.875 28.85 29.013 29.183 29.27 29.243 29.213
8.396 8.426 8.514 8.584 8.619 8.691 8.959 8.981 9.484 11.336 11.244 9.801 11.656 10.066 10.044 10.226 10.199 10.291 10.416 10.386 10.411 10.491 10.539 10.621 10.701 10.869 11.014 11.186 11.369 11.579 11.781 12.006 12.169 12.296 12.386 12.619 12.826 12.894 13.021 13.231 13.396 13.589 13.736 13.874 14.041 14.216 14.381 14.659 15.276 15.766 16.029 16.141 16.339 16.489 16.574 16.661 16.699 16.801 16.949 17.158 17.283 17.456 18.443 18.356 17.763 18.928 19.681 19.408 20.328 19.413 18.488 18.623 19.261 19.451 21.163 21.063 21.608 21.426 21.226 22.651 22.916 20.511 20.503 20.556 20.673 21.096 21.743 24.573 24.063 21.693 22.866 24.703 25.713 26.468 23.241 22.058 22.153 22.221 22.266 22.338 22.606 23.896 27.756 27.606 27.163 26.633 25.183 23.436 23.951 23.431 23.426 23.458 23.918 24.423 24.293 23.971 23.763 24.756 24.663 23.936 23.573 23.376 23.093 22.841 22.688 25.671 28.293 28.851 27.643 25.523 24.623 23.496 23.423 23.443 23.066 22.596 22.386 22.353 23.243 23.158 20.158 20.136 22.196 23.786 22.748 22.071 22.081 21.728 22.971 23.248 30.346 34.636 35.406 31.353 24.341 23.298 22.718 23.653 23.668 23.608 23.408 22.298 22.301 22.283 22.221 24.011 23.033 24.236 26.386 29.678 32.443 34.396 35.383 34.928 30.501 29.126 24.758 23.261 22.961 22.868 22.786 23.048 24.476 22.963 22.981 23.076 24.411 24.798 24.946 23.608 22.866 22.863 22.631 23.036 24.028 23.323 22.993 23.011 22.983 22.978 23.056 23.143 23.188 23.238 23.343 23.428 23.428 25.878 26.001 25.901 25.453 25.263 25.471 25.348 24.558 25.151 25.283 25.266 25.468 25.306 25.221 25.328 25.488 25.426 25.296 25.001 25.143 23.751 23.966 25.816 25.871 25.803 25.456 25.688 25.596 25.501 24.721 24.703 24.356 24.531 24.481 23.673 23.868 23.906 23.738 23.796 23.478 23.661 24.021 23.081 22.866 22.868 22.816 22.758 22.763 22.711 22.661 22.651 22.706 22.746 22.771 22.788 22.848 22.878 22.988 23.098 23.146 23.173 23.181 23.191 23.248 23.313 23.391 23.543 23.733 23.846 23.941 24.061 24.206 24.311 24.341 24.413 24.541 24.611 24.708 24.776 24.926 26.468 27.131 25.701 25.123 25.241 25.308 25.326 25.408 25.498 25.536 25.608 25.678 25.738 26.113 26.441 25.943 26.058 28.111 28.688 28.696 28.211 26.296 27.316 32.563 33.883 33.881 31.858 29.586 26.428 26.428 26.503 26.536 26.598 26.596 26.633 26.696 26.758 26.791 26.831 26.886 26.931 26.986 27.006 27.006 26.998 26.998 26.998 27.023 27.023 27.018 27.023 27.011 27.038 27.186 27.748 28.453 28.816 28.648 28.473 28.243 28.391 28.751 27.898 26.921 26.986 27.031 27.053 27.088 27.023 26.951 26.958 26.921 26.96 26.958 26.943 26.935 26.905 26.88 26.883 26.885 26.91 26.91 26.92 26.903 26.875 26.87 26.868 26.838 26.84 26.868 26.895 26.925 26.888 26.913 26.933 26.903 26.898 26.848 26.858 26.858 26.89 26.893 26.915 26.898 26.918 26.93 26.998 27.02 26.988 26.968 27.178 27.715 27.853 27.663 27.46 27.705 27.65 27.845 28.388 28.82 28.295 28.923 27.61 27.555 27.47 27.443 27.455 27.525 27.625 27.66 27.76 27.778 27.77 27.82 27.875 27.848 27.908 27.965 28.033 28.123 28.158 28.245 28.74 28.785 28.778 29.233 28.668 28.453 28.378 28.448 28.52 28.56 28.58 28.595 28.66 28.788 29 29.075 29.123 29.095 29.153
8.286 8.331 8.404 8.481 8.601 8.654 8.809 9.026 10.014 11.191 10.479 9.349 9.554 9.739 9.964 10.106 10.081 10.179 10.259 10.291 10.319 10.399 10.461 10.544 10.621 10.731 10.899 11.049 11.236 11.434 11.656 11.894 12.089 12.119 12.256 12.531 12.604 12.726 12.949 13.151 13.319 13.469 13.596 13.756 13.909 14.084 14.304 14.649 15.426 15.774 15.984 16.104 16.246 16.364 16.456 16.429 16.484 16.654 16.861 17.206 17.383 17.468 17.616 17.936 18.048 19.898 19.276 18.693 18.846 18.683 18.448 18.528 18.646 18.793 20.288 21.951 21.516 20.393 21.918 22.296 21.521 20.253 20.831 20.521 20.573 20.588 21.446 24.071 23.826 22.343 24.406 23.228 21.656 21.888 21.876 22.003 22.091 22.183 22.228 22.351 23.046 26.771 27.906 27.851 27.683 25.601 24.231 23.438 24.041 23.948 23.456 23.466 23.598 23.693 23.763 23.986 23.783 23.803 23.716 23.566 23.391 23.241 23.073 22.878 22.698 22.511 22.503 24.928 27.596 27.906 27.551 24.771 23.731 23.561 23.428 23.236 23.358 23.036 23.596 21.003 20.226 23.161 28.908 30.613 25.853 22.078 22.221 22.443 22.846 22.628 31.808 35.031 35.751 32.623 24.416 22.728 22.938 23.478 23.463 23.316 23.033 22.718 22.648 22.556 22.551 23.311 24.141 24.238 23.708 24.143 25.518 28.651 31.048 32.516 29.398 27.156 25.546 23.263 23.168 23.061 22.908 23.161 23.448 23.196 22.938 22.958 23.396 24.016 23.593 22.891 22.756 22.813 22.783 22.906 23.301 23.151 22.916 22.971 23.066 23.106 23.183 23.256 23.296 23.353 23.398 23.451 23.791 26.306 26.318 26.241 25.891 25.896 25.898 25.868 25.868 25.886 25.886 25.883 25.921 25.936 25.933 25.933 25.918 25.911 25.903 25.873 25.893 24.351 24.651 26.091 26.063 26.071 26.083 26.081 26.188 26.221 26.233 26.253 26.238 26.241 26.261 26.223 26.263 26.261 26.203 26.276 26.133 26.183 25.926 23.273 23.023 22.971 23.966 24.676 23.573 23.051 22.783 22.828 22.891 22.896 22.901 22.933 22.996 23.026 23.063 23.141 23.168 23.213 23.241 23.236 23.286 23.361 23.403 23.513 23.628 23.803 23.963 24.063 24.186 24.286 24.381 24.418 24.508 24.653 24.758 24.838 24.946 24.971 25.016 25.011 25.091 25.203 25.288 25.361 25.423 25.493 25.528 25.628 25.683 25.711 25.773 25.841 25.873 25.938 26.591 28.661 28.671 28.331 26.778 29.503 32.223 33.191 33.623 32.518 29.536 27.006 26.848 26.711 26.461 26.516 26.543 26.543 26.568 26.666 26.693 26.741 26.771 26.808 26.841 26.846 26.861 26.868 26.916 26.918 26.933 26.946 26.943 26.978 26.971 26.976 27.026 27.293 27.851 28.008 28.073 27.851 27.633 27.841 27.796 26.921 26.841 26.888 26.923 26.968 26.988 26.948 26.908 26.886 26.863 26.855 26.858 26.825 26.833 26.813 26.775 26.79 26.775 26.788 26.825 26.808 26.765 26.733 26.733 26.733 26.713 26.728 26.718 26.733 26.773 26.773 26.78 26.823 26.793 26.79 26.765 26.743 26.798 26.78 26.798 26.8 26.843 26.878 26.86 26.84 26.818 26.89 27.525 27.885 27.893 27.583 27.608 27.53 27.428 27.473 27.42 27.535 27.393 27.288 27.305 27.235 27.183 27.23 27.395 27.425 27.47 27.513 27.543 27.628 27.655 27.663 27.703 27.753 27.778 27.868 27.845 27.928 27.978 28.143 28.1 28.09 28.113 28.158 28.183 28.223 28.238 28.243 28.305 28.325 28.398 28.44 28.52 28.545 28.668 28.808 28.873 28.898 28.883 29.008
8.379 8.181 8.281 8.341 8.664 8.594 8.751 8.899 9.406 10.521 9.956 9.269 9.469 9.654 9.824 9.894 9.986 10.069 10.126 10.134 10.241 10.301 10.344 10.476 10.549 10.644 10.734 10.936 11.101 11.324 11.491 11.786 11.896 11.931 12.201 12.371 12.434 12.574 12.884 13.056 13.204 13.361 13.499 13.624 13.781 13.976 14.204 14.869 15.456 15.706 15.936 16.016 16.109 16.209 16.229 16.181 16.329 16.516 16.886 17.188 17.348 17.428 17.511 17.548 18.621 19.313 18.166 18.328 18.498 18.428 18.433 18.476 18.578 18.756 19.078 19.298 19.791 21.053 20.913 21.173 21.003 21.891 20.851 20.481 20.516 20.583 20.578 20.921 21.263 22.693 23.988 22.273 21.483 21.631 21.786 21.918 21.996 22.106 22.186 22.688 23.736 28.081 28.031 27.951 27.906 27.796 27.031 22.593 25.516 27.633 26.206 24.253 23.476 23.526 23.608 23.721 23.793 23.808 23.713 23.566 23.401 23.243 23.326 23.453 24.488 23.301 22.826 22.408 22.056 23.088 27.083 27.573 26.326 24.108 23.478 23.493 23.566 24.468 21.391 20.276 20.271 25.771 27.001 30.886 27.408 22.086 22.106 22.461 22.733 23.128 29.396 30.776 33.446 30.088 23.531 22.928 23.063 23.576 23.198 23.213 23.101 22.978 22.918 22.926 22.883 23.406 23.828 23.556 23.776 24.141 23.766 24.503 26.843 25.591 25.421 24.903 24.336 23.593 23.306 23.196 23.168 23.218 24.683 24.206 23.351 23.041 22.988 22.986 23.166 23.393 23.598 23.231 22.893 22.906 22.948 23.001 23.061 23.133 23.198 23.263 23.343 23.533 23.751 23.913 24.131 23.531 24.223 26.326 26.331 26.333 25.951 25.901 25.913 25.903 25.923 25.896 25.891 25.888 25.948 25.968 25.986 25.958 25.956 25.943 25.943 25.928 25.921 24.656 24.213 26.121 26.086 26.071 26.083 26.091 26.238 26.296 26.238 26.246 26.253 26.261 26.273 26.283 26.268 26.253 26.271 26.306 26.308 26.291 25.766 23.428 23.186 23.121 25.271 26.043 25.993 25.628 25.076 24.338 23.401 23.036 23.043 23.093 23.051 23.101 23.163 23.208 23.201 23.266 23.288 23.271 23.278 23.356 23.456 23.538 23.616 23.726 23.851 24.003 24.176 24.291 24.346 24.443 24.526 24.621 24.748 24.821 24.921 24.993 25.051 25.138 25.163 25.241 25.306 25.373 25.448 25.516 25.573 25.606 25.666 25.691 25.766 25.803 25.863 25.911 26.036 27.811 27.326 26.041 26.006 30.561 31.501 32.006 32.281 31.961 27.808 26.873 27.228 27.661 27.478 27.421 27.243 26.658 26.473 26.546 26.601 26.621 26.643 26.673 26.733 26.768 26.773 26.786 26.768 26.771 26.798 26.818 26.821 26.836 26.881 26.868 26.893 26.921 26.968 27.038 27.026 27.031 27.231 27.723 27.711 26.738 26.773 26.806 26.853 26.898 26.828 26.828 26.806 26.798 26.786 26.768 26.758 26.733 26.728 26.733 26.685 26.683 26.705 26.693 26.688 26.668 26.64 26.645 26.603 26.593 26.568 26.58 26.603 26.593 26.568 26.635 26.61 26.678 26.68 26.673 26.663 26.66 26.688 26.683 26.713 26.718 26.718 26.71 26.705 27.1 27.913 27.33 28.463 27.475 27.495 27.685 27.478 27.413 27.185 27.153 27.185 27.09 27.005 26.963 27.008 27.123 27.25 27.293 27.298 27.27 27.353 27.408 27.45 27.488 27.545 27.523 27.525 27.548 27.59 27.63 27.718 27.76 27.805 27.828 27.858 27.888 27.953 27.988 27.953 28.005 28.025 28.078 28.143 28.228 28.26 28.335 28.53 28.468 28.55 28.63 28.728 28.695 28.82 28.783
9.466 8.741 7.994 8.101 8.254 8.691 8.656 8.889 9.314 10.656 9.334 9.181 9.381 9.586 9.731 9.776 9.861 9.944 9.959 9.994 10.114 10.219 10.286 10.389 10.501 10.589 10.676 10.821 10.979 11.119 11.369 11.721 11.669 11.829 12.121 12.204 12.259 12.471 12.776 12.961 13.114 13.256 13.429 13.531 13.684 13.889 14.214 15.019 15.406 15.654 15.821 15.911 15.991 16.024 15.946 15.966 16.121 16.381 16.924 17.178 17.303 17.378 17.418 17.853 19.391 18.791 17.638 17.923 19.161 18.681 18.551 18.498 18.616 18.663 18.958 19.441 19.471 20.718 20.586 20.491 20.603 20.651 20.328 20.416 20.368 20.451 20.506 20.791 21.656 23.476 22.351 21.271 21.406 21.536 21.663 21.801 21.881 22.046 22.623 24.208 26.788 28.233 28.163 28.143 28.033 27.961 24.691 23.413 27.388 28.891 28.868 27.128 23.666 23.546 23.643 23.756 23.818 23.833 23.773 23.736 23.808 23.888 24.401 24.808 24.948 25.031 24.661 24.118 23.548 22.218 23.493 25.761 26.996 25.298 24.071 24.011 23.476 22.906 20.353 20.333 20.631 28.316 27.741 29.716 25.203 22.366 22.713 22.773 23.171 23.303 24.128 25.496 30.286 30.771 26.461 25.163 24.683 23.988 23.271 23.231 23.166 23.098 23.113 23.261 23.393 24.266 23.571 23.663 23.791 23.793 23.981 25.056 26.078 23.761 23.591 23.606 23.586 23.496 23.438 23.431 23.423 23.488 25.538 24.476 23.513 23.281 23.183 23.153 23.243 23.316 23.873 23.583 23.116 23.081 23.123 23.186 23.266 23.273 23.316 23.433 23.526 25.053 26.146 26.288 25.581 23.661 23.841 25.318 24.471 23.993 24.338 24.251 25.786 24.766 24.408 24.498 24.298 24.673 25.368 24.521 24.736 24.273 24.593 24.228 25.066 24.123 24.626 23.521 23.728 24.151 23.978 25.338 24.521 24.243 24.756 25.253 25.216 26.196 25.206 25.723 25.828 26.083 26.268 26.271 26.308 26.001 26.321 26.213 26.063 23.881 23.401 23.366 25.026 26.046 26.083 26.076 26.066 26.056 25.828 25.143 24.081 24.346 23.431 23.198 23.203 23.238 23.263 23.308 23.316 23.266 23.326 23.418 23.526 23.623 23.693 23.766 23.861 23.976 24.108 24.218 24.343 24.468 24.558 24.628 24.733 24.821 24.923 25.006 25.098 25.193 25.216 25.288 25.343 25.391 25.488 25.566 25.601 25.623 25.678 25.663 25.731 25.803 25.838 25.881 25.888 26.116 26.056 25.988 25.988 28.528 30.521 31.376 30.786 30.006 27.383 28.443 28.928 27.833 26.471 26.563 27.301 27.526 27.208 26.436 26.503 26.513 26.526 26.546 26.598 26.638 26.656 26.668 26.643 26.648 26.636 26.653 26.661 26.708 26.731 26.743 26.791 26.823 26.791 26.733 26.768 26.951 27.731 28.181 27.308 26.661 26.711 26.716 26.798 26.806 26.768 26.721 26.713 26.706 26.691 26.673 26.68 26.683 26.635 26.648 26.618 26.59 26.603 26.588 26.598 26.58 26.54 26.515 26.483 26.465 26.465 26.455 26.48 26.475 26.465 26.53 26.533 26.56 26.54 26.58 26.565 26.593 26.58 26.61 26.558 26.543 26.635 26.748 26.905 27.265 28.385 27.508 28.928 27.883 27.48 27.988 27.153 26.995 26.983 26.913 26.81 26.873 26.958 27.04 27.195 27.233 27.193 27.153 27.153 27.23 27.2 27.273 27.26 27.32 27.33 27.348 27.34 27.483 27.51 27.518 27.588 27.655 27.69 27.705 27.808 27.825 27.855 27.853 27.858 27.84 27.875 27.978 28.078 28.098 28.128 28.18 28.325 28.295 28.453 28.53 28.588 28.623 28.638 28.615
10.846 10.514 9.201 8.724 8.384 8.269 8.499 8.846 10.364 11.376 9.596 9.059 9.281 9.494 9.624 9.661 9.759 9.774 9.799 9.894 10.044 10.151 10.226 10.359 10.439 10.534 10.636 10.739 10.866 11.009 11.229 11.549 11.511 11.789 11.921 11.984 12.134 12.409 12.686 12.851 13.019 13.146 13.301 13.441 13.591 13.789 14.399 15.086 15.369 15.626 15.719 15.794 15.819 15.724 15.679 15.774 15.969 16.409 16.961 17.151 17.286 17.333 17.403 18.233 19.228 17.311 17.428 18.158 21.446 20.153 18.748 18.416 18.478 18.936 18.848 18.876 19.193 19.243 20.036 19.983 19.981 19.846 19.618 20.066 20.271 20.361 20.378 20.646 23.773 22.673 21.011 21.171 21.303 21.461 21.573 21.678 21.761 22.033 22.701 22.548 24.938 26.476 27.453 28.343 28.156 27.746 22.816 24.781 28.888 28.855 28.825 25.919 23.503 23.596 23.675 23.851 23.906 24.324 25.072 25.36 25.558 25.505 26.023 26.331 26.421 24.641 24.328 24.463 25.088 24.093 22.276 21.403 22.196 23.511 23.588 22.111 20.831 20.426 20.436 20.921 23.943 28.756 28.866 23.273 23.943 22.843 23.723 23.361 23.616 23.606 23.603 26.303 32.008 31.978 29.568 30.006 25.588 24.206 23.353 23.331 23.266 23.241 23.371 23.456 23.563 24.176 23.688 23.786 23.866 23.868 23.933 25.203 25.816 24.041 23.676 23.626 23.658 23.613 23.623 23.621 23.618 23.628 26.068 24.731 24.216 23.413 23.336 23.253 23.256 23.203 23.193 23.541 23.281 23.243 23.288 23.353 23.473 23.573 23.556 23.623 23.663 24.591 26.348 26.323 25.908 23.793 23.573 23.583 23.563 23.536 23.406 23.346 23.348 23.356 23.353 23.351 23.343 23.361 23.381 23.383 23.353 23.413 23.426 23.386 23.358 23.381 23.353 23.381 23.481 23.493 23.521 23.548 23.581 23.593 23.628 23.603 23.696 23.613 23.561 23.588 23.793 23.801 23.681 24.448 23.616 23.681 23.691 23.783 24.616 23.738 23.566 23.496 24.916 25.726 25.906 26.088 26.081 26.063 26.091 26.076 26.101 25.893 25.896 25.468 24.691 23.868 23.901 23.363 23.366 23.338 23.408 23.518 23.606 23.676 23.751 23.808 23.893 23.986 24.101 24.183 24.273 24.358 24.483 24.641 24.756 24.848 24.938 25.271 25.178 25.258 25.283 25.311 25.343 25.378 25.448 25.543 25.596 25.616 25.628 25.636 25.726 25.786 25.826 25.866 25.886 25.881 25.926 25.973 26.568 26.643 27.071 28.738 27.848 26.686 26.203 28.231 28.916 27.991 26.296 26.431 26.561 27.121 27.666 26.353 26.403 26.406 26.416 26.441 26.491 26.513 26.541 26.516 26.483 26.506 26.511 26.516 26.538 26.528 26.566 26.626 26.736 26.748 26.698 26.633 26.671 27.156 28.023 29.588 27.371 26.531 26.583 26.631 26.676 26.696 26.633 26.658 26.636 26.611 26.603 26.6 26.608 26.6 26.57 26.585 26.553 26.55 26.515 26.503 26.49 26.473 26.445 26.42 26.413 26.385 26.365 26.355 26.375 26.365 26.36 26.425 26.4 26.418 26.45 26.475 26.473 26.458 26.423 26.453 26.563 26.983 27.758 28.628 27.155 26.738 27.66 28.798 28.765 27.425 27.053 27.028 26.93 26.765 26.675 26.7 26.87 27.373 27.98 27 27.045 27.088 26.968 27.01 27.05 27.083 27.083 27.123 27.155 27.143 27.165 27.213 27.348 28.078 27.685 27.418 27.515 27.525 27.57 27.56 27.583 27.65 27.703 27.685 27.705 27.755 27.798 27.89 27.913 28.005 28.015 28.033 28.05 28.125 28.19 28.345 28.468 28.413 28.455 28.413
11.971 11.729 11.491 11.274 8.811 8.281 8.506 8.576 10.826 11.161 8.841 9.016 9.221 9.366 9.486 9.546 9.636 9.629 9.711 9.824 9.956 10.071 10.186 10.279 10.394 10.489 10.609 10.704 10.849 10.936 11.076 11.229 11.391 11.614 11.699 11.811 12.031 12.351 12.596 12.836 13.026 13.051 13.181 13.274 13.409 13.766 14.569 15.021 15.316 15.471 15.544 15.561 15.469 15.369 15.449 15.589 15.911 16.519 16.959 17.133 17.246 17.276 17.753 18.968 17.816 17.148 17.541 21.821 22.483 22.191 21.706 20.908 19.958 20.416 20.406 18.641 18.886 19.303 19.183 19.746 21.606 20.281 19.456 19.538 19.683 19.956 20.866 20.773 23.341 23.113 20.888 21.083 21.228 21.328 21.438 21.551 21.661 22.608 23.423 23.086 22.248 23.788 24.861 26.256 26.983 26.466 22.7 26.638 29.113 29.099 28.682 25.869 23.917 23.627 23.775 23.969 23.976 24.729 26.8 26.868 27.296 27.413 27.59 27.894 28.223 27.481 26.201 24.136 24.218 24.948 25.166 24.441 21.076 20.781 20.636 20.508 20.503 20.488 22.476 26.856 29.376 26.603 27.236 25.088 23.638 23.163 23.488 24.936 24.963 23.896 24.796 29.746 31.908 31.893 31.073 27.126 27.588 26.616 27.493 23.576 23.383 23.408 23.616 24.201 24.706 23.658 23.831 23.948 23.998 24.031 24.011 24.866 24.978 24.126 23.901 23.813 23.816 23.783 23.793 23.778 23.796 24.076 25.741 25.471 24.483 23.596 23.558 23.486 23.408 23.328 23.566 23.571 23.398 23.398 23.421 23.571 23.676 23.716 23.758 23.838 23.846 24.278 26.541 26.538 26.296 24.101 23.696 23.643 23.576 23.483 23.371 23.321 23.321 23.321 23.316 23.338 23.306 23.336 23.406 23.373 23.381 23.388 23.318 23.438 23.566 23.563 23.358 23.398 23.468 23.538 23.538 23.551 23.556 24.358 24.813 24.086 23.708 23.611 23.601 23.553 23.586 23.601 23.568 23.561 23.548 23.573 23.548 23.538 23.491 23.488 23.473 23.473 23.471 23.508 24.073 24.751 24.693 25.611 26.101 26.081 26.098 26.101 26.091 26.091 26.096 26.093 25.498 23.416 23.433 23.691 23.526 23.583 23.661 23.738 23.811 23.858 23.931 23.986 24.038 24.171 24.288 24.376 24.443 24.528 24.638 24.796 25.246 25.708 25.753 25.546 25.916 25.543 25.681 25.371 25.388 25.433 25.488 25.558 25.586 25.623 25.698 25.783 25.826 25.841 25.848 25.846 25.893 26.243 27.231 27.233 27.611 26.226 26.108 26.191 26.211 26.385 26.361 26.328 26.248 26.323 26.426 26.908 27.096 26.281 26.333 26.316 26.341 26.336 26.381 26.418 26.446 26.401 26.383 26.396 26.393 26.401 26.386 26.431 26.421 26.543 26.643 26.646 26.598 26.536 26.668 26.993 27.121 27.603 26.713 26.436 26.513 26.551 26.583 26.573 26.521 26.531 26.536 26.511 26.513 26.515 26.505 26.518 26.5 26.493 26.455 26.463 26.448 26.443 26.415 26.385 26.358 26.295 26.303 26.285 26.273 26.283 26.305 26.315 26.34 26.348 26.325 26.328 26.308 26.325 26.31 26.585 27.265 26.873 27.433 27.15 27.943 28.528 27.895 26.663 26.845 27.518 26.978 26.678 26.715 26.615 26.54 26.513 26.658 26.828 26.858 27.148 27.685 26.818 26.913 26.928 26.843 26.878 26.92 26.925 26.968 27.008 27.023 27.003 27.015 27.05 27.268 27.438 27.428 27.29 27.383 27.393 27.425 27.41 27.45 27.493 27.483 27.475 27.593 27.633 27.723 27.765 27.82 27.875 27.843 27.99 28.01 28.023 28.075 28.12 28.195 28.233 28.19 28.288
