ncols 431
nrows 31
xllcorner    462028
yllcorner    90318
cellsize     2
NODATA_value -9999
13.123 13.318 12.368 13.108 12.696 12.301 13.003 12.493 12.321 12.418 12.521 12.848 12.666 13.153 13.301 13.493 13.543 13.678 13.696 13.796 13.883 14.126 14.386 14.646 14.936 15.171 15.406 15.641 15.826 16.013 16.088 16.201 16.276 16.416 16.603 16.626 16.651 16.718 16.766 16.841 16.873 16.983 17.011 17.018 16.961 17.136 17.276 17.413 17.558 17.663 17.811 17.908 17.976 18.043 18.176 18.278 18.483 18.598 18.706 18.781 18.776 18.836 18.893 18.981 19.173 19.351 19.553 19.703 19.776 19.863 19.986 20.111 20.258 20.366 20.533 20.663 20.773 20.991 21.128 21.503 21.768 21.833 21.878 21.973 22.041 22.126 22.223 22.291 22.443 22.476 22.548 22.891 22.888 22.766 22.866 23.028 23.151 23.203 23.203 23.261 23.358 23.418 23.488 23.563 23.593 23.683 23.776 23.858 23.846 23.931 24.078 24.293 24.443 24.593 24.686 24.756 24.931 25.153 25.458 25.648 25.796 25.928 26.076 26.316 26.841 27.453 27.446 27.301 27.588 27.728 27.486 27.623 27.763 27.888 28.053 29.201 30.166 29.213 29.456 29.921 30.401 29.553 29.813 29.838 30.078 30.303 30.523 30.748 30.903 31.068 31.253 31.426 31.621 31.786 31.973 32.311 32.708 32.941 33.086 33.196 33.328 33.493 34.176 34.726 33.823 33.906 35.498 37.411 35.691 34.928 35.093 35.021 35.191 35.398 35.636 35.863 36.031 36.146 36.341 36.566 36.763 37.101 37.491 37.726 39.631 39.391 42.666 44.426 44.428 42.751 40.356 39.901 39.388 39.083 39.198 39.091 39.623 39.786 39.866 40.578 39.733 39.768 39.761 39.821 40.221 40.458 40.523 40.628 40.736 40.818 40.931 41.076 41.221 41.278 41.963 46.958 48.173 48.398 48.271 47.826 45.716 44.816 42.741 42.041 42.158 42.191 42.273 42.301 42.321 42.368 42.446 43.013 43.408 44.261 45.793 45.188 44.741 42.989 42.724 42.749 42.714 42.644 42.594 45.094 42.644 42.609 42.629 42.664 42.864 43.231 43.809 43.239 42.759 42.634 42.569 46.021 49.471 47.794 43.521 42.406 42.404 42.381 42.341 42.334 42.406 43.266 43.269 42.299 42.161 42.099 43.149 43.234 43.026 42.614 42.479 43.739 44.594 43.569 41.961 41.811 41.851 41.649 41.701 41.584 41.346 42.669 42.094 41.321 41.279 41.056 41.151 41.171 40.984 40.649 40.669 42.864 43.256 40.501 40.934 41.939 42.456 43.139 41.251 40.351 42.491 43.291 44.119 43.434 41.606 39.124 44.281 43.921 42.971 40.396 38.569 38.329 38.141 38.236 37.941 37.444 37.274 37.114 36.946 36.839 36.856 36.526 36.444 35.901 36.281 36.069 35.384 35.046 34.854 34.671 34.901 35.094 35.881 36.899 36.659 36.169 34.556 33.894 33.796 33.371 33.304 33.221 33.166 33.114 33.074 33.199 32.989 32.864 33.041 32.946 32.551 32.366 34.301 33.454 32.164 31.251 31.176 31.291 32.874 32.949 31.324 32.031 32.411 32.374 31.841 31.856 30.896 31.446 31.549 34.261 35.074 35.816 36.644 36.541 35.841 34.576 34.136 33.011 32.064 32.149 32.056 32.189 32.909 33.201 38.369 37.871 34.521 33.576 38.276 39.274 37.649 34.856 35.701 34.619 34.151 34.206 34.459 35.544 37.196 36.064 36.099 36.946 36.769 37.866 38.899 38.994 38.271 37.024 37.416 37.289 35.796 37.036 38.554 36.761 37.896 38.409 37.599 36.881 37.021 37.094 37.236 37.406 37.601 37.926 38.101 38.264 38.399
13.981 14.028 12.446 12.748 12.503 13.808 14.403 12.713 12.401 12.611 12.661 12.763 13.036 13.453 13.518 13.581 13.696 13.743 13.833 13.973 14.143 14.303 14.576 14.848 15.148 15.386 15.673 15.876 16.068 16.201 16.266 16.363 16.471 16.653 16.803 16.778 16.833 16.946 17.006 17.073 17.096 17.176 17.203 17.261 17.301 17.413 17.506 17.616 17.751 17.868 17.893 18.018 18.131 18.233 18.341 18.408 18.523 18.676 18.801 18.911 18.956 18.968 19.091 19.201 19.381 19.526 19.671 19.776 19.898 19.973 20.068 20.178 20.361 20.503 20.676 20.843 20.963 21.158 21.301 21.546 21.783 21.873 21.901 22.011 22.113 22.226 22.333 22.411 22.498 22.578 22.653 22.751 22.863 22.826 22.878 23.021 23.101 23.191 23.251 23.311 23.393 23.436 23.473 23.601 23.733 23.811 23.863 23.938 23.956 24.001 24.078 24.151 24.243 24.328 24.346 24.396 24.596 24.756 25.028 25.628 25.876 25.953 26.111 26.306 26.606 27.398 27.341 27.291 27.663 27.506 27.476 27.603 27.748 27.898 28.933 30.206 31.583 33.048 29.966 29.506 30.261 29.386 29.576 29.833 30.086 30.328 30.551 30.726 30.868 31.011 31.183 31.333 31.518 31.671 31.848 32.163 32.616 32.858 32.996 33.131 33.298 33.443 35.301 33.691 33.686 34.103 34.466 35.913 34.918 34.723 34.838 35.006 35.156 35.353 35.633 35.876 36.051 36.373 36.751 36.656 36.666 36.841 36.978 37.321 37.648 38.223 39.776 43.281 41.516 41.688 43.431 45.098 40.963 39.461 39.138 39.866 40.353 39.341 39.911 40.161 39.791 39.828 39.878 39.901 40.063 40.618 40.721 40.601 40.773 41.216 42.293 42.063 41.566 41.313 41.983 43.708 43.638 45.251 44.811 45.558 43.976 43.581 42.646 42.081 42.141 42.178 42.268 42.338 42.356 42.373 42.403 42.513 42.498 44.351 45.986 45.441 45.166 43.014 42.704 42.731 42.701 42.634 42.581 44.506 42.579 42.589 42.624 42.686 42.709 42.931 43.371 42.774 42.734 42.659 42.626 42.871 43.826 42.589 42.921 43.119 42.411 42.339 42.309 42.519 43.639 42.511 42.301 42.406 42.494 43.259 42.951 43.111 42.806 42.566 43.726 42.301 42.546 43.329 42.476 41.761 41.739 41.666 42.306 42.164 41.421 41.334 41.316 41.309 41.184 41.171 41.069 40.984 40.829 40.686 41.149 43.611 41.329 40.546 40.269 39.926 41.134 41.244 39.951 40.331 41.864 43.786 44.131 42.919 40.336 41.044 44.024 44.524 44.491 44.054 42.764 38.629 38.129 37.859 37.571 37.394 37.236 37.036 36.856 36.744 36.606 36.594 36.611 36.416 36.539 38.269 37.231 35.436 34.791 34.589 34.479 34.326 34.311 34.519 36.341 36.596 35.951 35.151 35.051 33.984 33.444 33.184 33.101 33.036 33.251 33.634 33.021 32.844 32.684 32.611 32.584 32.511 34.424 33.821 31.569 31.294 31.196 31.364 31.779 31.334 32.039 34.046 33.981 32.586 30.724 30.861 30.771 31.344 31.356 33.601 34.174 33.951 35.701 35.396 35.109 34.296 34.079 31.931 31.781 32.074 32.049 32.219 32.726 33.459 39.326 38.649 35.981 33.664 35.371 34.291 34.706 35.406 34.666 34.259 34.339 34.634 34.594 34.521 35.496 36.586 36.339 37.336 38.049 38.721 39.064 38.524 37.314 36.711 36.404 36.384 38.654 40.616 40.639 36.346 36.736 38.086 38.434 37.129 37.231 37.344 37.481 37.626 37.834 38.046 38.274 38.419 38.504
13.926 14.283 14.601 14.348 13.458 15.176 15.308 12.578 12.598 12.753 12.893 13.096 13.341 13.511 13.581 13.606 13.751 13.913 14.053 14.228 14.423 14.581 14.773 15.076 15.338 15.551 15.791 16.031 16.181 16.256 16.381 16.533 16.703 16.878 16.948 17.021 17.068 17.208 17.273 17.331 17.383 17.431 17.503 17.581 17.666 17.753 17.821 17.933 18.001 18.106 18.156 18.231 18.333 18.443 18.528 18.566 18.671 18.818 18.923 19.078 19.181 19.218 19.313 19.458 19.578 19.656 19.773 19.873 19.993 20.096 20.196 20.348 20.521 20.743 20.883 20.981 21.103 21.263 21.423 21.586 21.783 21.916 22.008 22.163 22.258 22.388 22.456 22.593 22.691 22.733 22.826 22.863 22.933 22.936 23.008 23.103 23.301 23.333 23.383 23.436 23.518 23.593 23.661 23.786 23.891 23.991 24.026 24.041 24.086 24.108 24.143 24.203 24.331 24.321 24.313 24.358 24.496 24.608 24.851 25.298 25.868 25.998 26.128 26.313 26.611 26.958 27.081 27.091 27.181 27.331 27.413 27.578 27.726 27.871 28.016 28.356 29.161 31.008 29.401 28.986 29.116 29.363 29.608 29.856 30.091 30.293 30.501 30.656 30.793 30.933 31.091 31.283 31.478 32.428 31.826 32.068 32.501 32.773 32.921 33.076 33.246 33.423 34.151 33.431 33.658 35.286 34.601 34.946 34.711 34.576 34.753 35.038 36.318 35.368 35.621 35.981 36.568 36.693 36.526 36.501 36.641 36.831 36.961 37.078 37.501 38.038 38.453 39.231 40.633 45.118 46.151 46.198 44.258 40.061 39.356 39.373 39.911 39.418 40.396 39.976 39.796 39.878 39.948 39.998 40.016 40.123 41.033 40.638 40.803 40.916 41.381 41.558 41.563 41.288 42.178 43.548 43.456 41.898 41.776 42.096 41.921 41.883 42.121 42.053 42.103 42.166 42.228 42.378 42.323 42.348 42.406 42.408 42.463 44.068 45.806 45.416 44.609 42.871 42.699 42.696 42.716 42.649 42.586 44.104 42.546 42.614 42.636 42.664 42.684 43.546 44.166 42.799 42.746 42.689 42.771 43.906 44.296 42.584 42.689 42.654 42.394 42.329 42.264 42.329 43.499 42.551 42.279 43.429 44.314 42.096 42.436 44.524 44.259 43.604 45.649 42.901 42.506 42.609 42.801 42.249 41.831 43.576 42.566 42.159 41.294 41.236 41.249 41.251 41.144 41.141 42.074 40.934 40.839 40.751 41.254 42.724 40.671 43.154 43.994 40.116 39.719 39.766 39.796 41.334 42.459 43.411 43.426 42.141 40.076 40.521 42.354 43.264 43.971 44.501 42.309 38.321 38.461 38.566 38.649 37.491 37.269 37.004 36.896 36.719 36.624 37.936 36.709 35.904 35.849 37.294 39.759 38.749 37.459 35.256 34.376 34.224 34.106 33.984 34.464 35.684 34.486 33.856 33.626 34.321 33.871 33.654 33.479 33.044 32.956 33.036 32.864 32.806 32.829 32.949 32.674 33.386 32.631 31.699 31.376 31.349 32.816 33.829 30.979 30.881 31.889 31.649 32.616 33.231 33.511 32.076 31.649 31.469 32.014 31.279 31.434 31.104 32.414 33.716 34.154 34.174 33.099 31.706 31.971 32.021 32.136 32.231 32.386 32.574 36.159 35.876 33.314 33.831 34.134 34.704 35.069 35.636 34.239 34.351 34.496 34.566 34.644 34.674 35.021 35.104 35.269 36.856 38.764 39.044 38.756 37.709 35.714 36.174 37.059 36.249 40.024 40.434 40.089 38.124 37.261 39.549 38.841 37.399 37.456 37.554 37.694 37.864 38.141 39.771 38.381 38.504 38.826
13.698 14.671 14.973 14.138 14.346 13.766 13.136 12.803 12.908 12.936 13.066 13.233 13.506 13.678 13.813 13.833 14.006 14.161 14.318 14.513 14.696 14.886 15.073 15.306 15.546 15.756 15.971 16.163 16.318 16.511 16.696 16.913 17.066 17.211 17.266 17.326 17.363 17.458 17.551 17.648 17.723 17.831 17.853 17.976 18.038 18.116 18.201 18.288 18.366 18.451 18.523 18.558 18.686 18.726 18.766 18.773 18.853 18.996 19.108 19.221 19.388 19.443 19.481 19.628 19.733 19.828 19.908 20.036 20.151 20.273 20.401 20.603 20.721 20.898 21.063 21.176 21.321 21.503 21.611 21.721 21.926 22.071 22.223 22.348 22.481 22.543 22.658 22.733 22.818 22.886 22.933 23.038 23.086 23.116 23.171 23.256 23.311 23.403 23.483 23.568 23.628 23.708 23.828 23.918 23.981 24.126 24.138 24.168 24.193 24.238 24.291 24.296 24.438 24.451 24.633 24.418 24.443 24.576 24.833 25.101 25.663 26.118 26.153 26.296 26.536 26.826 26.821 26.861 26.783 27.541 27.363 27.503 27.631 27.803 27.993 28.146 29.431 28.538 28.761 28.971 29.171 29.388 29.626 29.816 30.063 30.246 30.413 30.561 30.708 30.901 31.076 32.658 33.943 32.258 31.783 32.011 32.408 32.743 32.858 32.986 33.261 33.831 33.223 33.361 34.178 34.641 34.298 34.668 34.521 34.506 34.848 34.908 35.258 36.748 35.588 36.286 37.658 38.003 36.511 36.478 36.626 36.796 36.923 37.111 38.011 38.151 38.066 40.158 42.166 44.596 46.298 46.426 45.206 42.688 39.803 40.121 39.758 39.521 39.498 39.946 39.968 39.891 39.971 40.056 40.073 40.096 41.218 42.933 40.753 40.978 41.266 42.196 42.608 42.213 41.391 41.646 41.666 41.686 41.801 42.493 42.003 41.878 41.898 41.996 42.103 42.223 42.191 42.243 42.258 42.328 42.381 42.418 42.466 42.486 43.073 44.908 44.099 42.771 42.689 42.714 42.716 42.629 42.504 43.759 42.636 42.646 42.646 42.651 42.659 43.096 43.811 42.739 42.734 42.679 42.736 43.899 44.311 42.624 42.541 42.491 42.429 42.369 42.511 42.334 42.821 42.556 42.271 42.541 46.051 42.109 43.291 43.406 42.776 42.344 43.741 44.826 43.289 43.761 44.674 43.671 42.956 44.779 43.049 43.544 42.279 41.166 41.181 41.184 41.179 42.194 43.344 40.891 40.804 40.784 41.621 40.949 40.759 43.279 42.644 40.239 41.081 41.299 39.821 40.029 40.729 40.819 42.216 40.764 40.221 39.276 41.769 42.099 42.216 43.081 39.581 38.306 38.356 40.041 40.564 39.641 38.071 37.554 36.854 36.756 36.891 37.211 35.911 35.894 35.719 35.571 36.036 38.284 40.201 36.471 35.321 34.606 34.121 33.894 33.786 33.719 34.459 33.821 33.694 34.166 36.279 35.164 33.841 33.516 34.454 32.801 32.714 33.089 33.086 34.311 33.894 34.714 33.161 31.534 31.381 31.344 32.941 35.514 32.716 30.949 31.039 31.019 31.034 31.111 32.124 31.876 31.931 32.151 32.331 31.836 31.326 31.571 33.106 33.064 33.134 31.909 31.514 31.609 32.036 32.139 32.286 32.399 32.551 32.859 33.399 33.254 33.184 34.034 34.999 34.301 34.924 34.491 34.339 34.441 34.594 34.716 34.769 34.974 34.931 34.899 35.036 36.611 38.356 38.919 38.299 36.416 37.134 38.814 40.269 41.639 37.479 37.269 38.049 37.284 38.489 39.596 37.621 37.631 37.684 37.799 37.959 38.076 38.326 39.714 39.054 38.606 39.099
12.643 14.063 15.023 14.278 13.086 12.948 12.971 13.068 13.153 13.133 13.268 13.386 13.668 13.893 13.928 14.108 14.308 14.471 14.626 14.813 14.981 15.226 15.413 15.606 15.803 15.996 16.186 16.398 16.621 16.858 17.113 17.246 17.363 17.468 17.558 17.638 17.723 17.736 17.821 17.838 17.966 18.081 18.201 18.273 18.313 18.353 18.483 18.546 18.618 18.736 18.816 18.926 18.986 19.006 18.998 19.003 19.083 19.211 19.308 19.391 19.528 19.606 19.688 19.818 19.896 19.978 20.133 20.256 20.338 20.443 20.581 20.778 20.913 21.083 21.236 21.346 21.546 21.686 21.778 21.906 22.121 22.273 22.436 22.481 22.588 22.668 22.786 22.866 22.968 23.061 23.101 23.138 23.218 23.288 23.361 23.403 23.446 23.511 23.681 23.821 23.758 23.841 23.873 23.956 24.078 24.156 24.258 24.293 24.336 24.376 24.396 24.483 24.553 24.686 24.661 24.583 24.883 25.146 24.778 25.006 25.478 26.063 26.208 26.293 26.551 26.806 26.808 26.806 26.911 27.711 27.303 27.418 27.613 27.748 27.936 28.116 28.286 28.483 28.723 28.903 29.101 29.376 29.608 29.766 29.973 30.113 30.296 30.453 30.666 30.873 31.026 34.266 33.163 31.451 31.728 32.016 32.446 32.676 32.811 32.988 34.918 33.071 33.056 33.568 34.561 33.966 34.143 34.071 34.218 36.263 35.551 35.343 35.083 36.193 35.711 36.456 37.338 38.013 36.596 36.606 36.886 36.763 36.906 37.651 38.096 37.771 37.986 39.006 41.578 43.311 45.381 46.568 45.916 42.726 39.306 39.491 39.648 39.928 40.006 39.866 39.913 39.976 40.013 40.111 40.168 40.143 40.356 40.896 40.828 41.001 41.386 42.323 42.386 41.936 41.488 41.486 41.583 41.661 41.888 42.598 42.346 41.878 41.931 42.006 42.091 42.228 42.213 42.251 42.233 42.323 42.386 42.438 42.481 42.658 42.676 43.028 44.414 43.054 42.736 42.691 42.661 42.594 42.554 43.266 42.756 42.651 42.646 42.666 42.699 43.874 45.539 42.766 42.736 42.689 42.751 43.389 43.249 42.621 42.539 42.544 42.514 42.346 42.329 42.349 42.496 43.011 42.261 42.581 42.254 42.554 43.776 44.079 43.256 42.826 43.244 43.189 44.241 44.326 43.866 43.486 46.899 49.461 47.521 43.349 44.641 44.081 42.139 41.364 41.334 42.536 41.834 41.036 40.779 40.831 41.656 40.649 41.496 41.204 40.196 40.364 45.119 42.759 39.689 39.644 40.129 39.849 40.156 39.881 38.971 39.576 41.894 40.061 39.249 40.311 40.679 40.551 39.136 41.469 41.009 40.799 41.466 40.486 38.346 37.319 40.109 36.816 35.944 35.814 35.709 35.541 35.351 35.734 36.164 34.839 35.474 36.534 35.409 34.721 33.734 33.611 33.449 33.411 33.491 33.336 33.171 36.184 38.644 36.374 34.369 33.071 33.091 34.261 34.429 32.944 33.584 34.476 34.334 31.574 31.416 31.379 31.551 31.826 31.069 32.711 32.396 31.026 31.069 31.069 31.976 32.431 32.019 32.549 33.549 32.381 32.149 33.121 34.141 34.229 33.521 32.869 31.861 32.094 32.169 32.281 32.399 32.559 32.711 33.231 33.834 33.284 33.211 34.549 35.159 35.171 34.496 34.384 34.429 34.539 34.701 34.779 34.874 35.214 34.966 34.934 35.074 36.631 37.746 37.996 37.259 37.119 38.591 39.819 41.459 42.159 40.786 37.156 37.284 38.046 37.991 37.596 37.694 37.861 37.971 37.984 38.156 38.316 38.476 39.159 40.239 38.896 38.831
12.521 13.083 13.571 12.683 12.711 13.033 13.241 13.346 13.386 13.506 13.568 13.678 13.898 14.051 14.223 14.433 14.618 14.801 14.961 15.141 15.323 15.508 15.691 15.888 16.056 16.283 16.486 16.691 16.951 17.196 17.363 17.528 17.643 17.751 17.808 17.928 17.986 18.041 18.093 18.121 18.233 18.331 18.423 18.531 18.583 18.626 18.716 18.781 18.891 18.983 19.141 19.156 19.178 19.206 19.211 19.266 19.358 19.476 19.546 19.606 19.703 19.811 19.886 19.993 20.103 20.228 20.346 20.476 20.576 20.658 20.753 20.913 21.058 21.231 21.378 21.531 21.678 21.816 21.908 22.081 22.261 22.476 22.566 22.578 22.653 22.788 22.881 22.993 23.098 23.186 23.248 23.346 23.378 23.498 23.561 23.603 23.616 23.663 23.763 23.976 23.976 23.941 23.971 24.058 24.138 24.251 24.311 24.406 24.453 24.511 24.541 24.596 24.751 24.813 24.771 24.711 24.763 24.596 24.763 25.718 25.391 25.971 26.271 26.328 26.473 26.758 26.803 26.761 27.141 27.063 27.246 27.446 27.568 27.691 27.863 28.026 28.238 28.458 28.648 28.823 29.068 29.381 29.588 29.728 29.843 29.986 30.221 30.416 30.573 30.803 30.938 31.356 32.588 31.513 31.746 32.118 32.521 32.601 34.421 37.563 39.416 38.153 33.161 33.903 33.721 37.018 35.733 33.968 34.158 37.973 35.446 37.313 36.893 36.628 40.686 37.201 36.063 37.228 38.833 37.463 36.636 36.791 37.323 37.483 37.306 37.388 37.636 38.226 40.176 40.138 43.518 45.961 46.571 45.278 42.273 39.123 39.816 39.911 39.601 39.878 39.691 40.261 40.076 40.098 40.218 40.238 40.286 40.486 41.253 41.008 41.108 41.173 41.243 41.431 41.451 41.501 41.611 41.701 41.733 41.803 41.876 41.873 41.936 41.978 42.076 42.123 42.183 42.301 42.296 42.348 42.406 42.468 42.541 42.588 42.656 42.968 44.819 43.499 42.749 42.704 42.661 42.599 42.611 42.674 42.616 42.614 42.626 42.666 42.926 43.494 43.504 42.749 42.754 42.706 42.651 42.911 42.826 42.606 42.631 42.784 42.661 42.431 42.349 42.729 43.701 42.206 42.174 42.176 42.941 43.866 43.886 45.184 43.624 43.119 42.589 42.824 43.824 44.161 43.881 42.781 47.704 51.704 50.361 46.739 43.629 42.811 43.366 42.201 43.224 42.621 42.151 40.891 41.331 43.226 41.636 40.841 40.536 40.296 40.224 40.316 41.399 39.934 39.656 39.504 39.424 39.571 40.466 40.119 38.844 38.731 38.881 38.494 38.424 38.741 40.436 39.426 40.204 42.151 41.989 41.569 41.374 38.749 37.554 37.719 40.284 37.001 35.906 35.751 35.646 35.491 35.311 35.101 34.891 34.699 35.209 35.064 35.931 34.901 33.679 33.566 33.409 33.316 33.196 33.219 33.216 33.449 35.804 34.581 33.561 33.251 32.679 32.931 32.779 33.266 33.316 33.319 31.876 31.511 31.469 31.416 31.311 31.241 31.171 33.379 32.309 31.059 31.149 31.154 31.179 31.701 31.994 34.209 36.004 35.576 34.779 34.166 33.241 32.899 33.994 32.851 32.739 32.266 32.361 32.474 32.581 32.696 33.004 33.016 34.534 34.009 34.076 37.589 38.489 37.054 35.366 34.681 34.781 34.646 34.779 34.884 35.134 35.429 35.164 35.134 35.191 35.286 35.889 36.411 37.019 37.621 39.161 40.924 42.271 41.371 39.716 36.971 37.786 38.059 37.749 37.734 37.906 39.946 38.844 38.191 38.341 38.521 38.704 38.906 40.676 40.171 39.231
13.263 12.863 13.381 12.938 12.946 13.291 13.333 13.511 13.931 14.023 13.908 14.043 14.166 14.316 14.541 14.741 14.981 15.168 15.261 15.443 15.608 15.841 16.023 16.193 16.348 16.543 16.751 16.983 17.198 17.428 17.638 17.793 17.943 18.046 18.136 18.218 18.273 18.336 18.338 18.408 18.548 18.631 18.696 18.773 18.861 18.918 18.926 19.056 19.158 19.271 19.328 19.373 19.418 19.451 19.436 19.473 19.531 19.701 19.773 19.826 19.901 20.021 20.118 20.198 20.286 20.416 20.541 20.653 20.718 20.776 20.908 21.086 21.196 21.336 21.528 21.661 21.803 21.906 22.001 22.168 22.378 22.561 22.691 22.761 22.823 22.878 22.981 23.113 23.243 23.338 23.418 23.476 23.593 23.666 23.731 23.756 23.786 23.916 23.943 24.098 24.213 24.168 24.141 24.196 24.238 24.328 24.393 24.471 24.528 24.566 24.568 24.668 24.886 24.988 24.943 24.903 24.743 24.706 24.751 24.951 25.393 25.983 26.343 26.368 26.536 26.711 26.793 26.643 27.328 27.031 27.216 27.406 27.543 27.711 27.848 28.061 28.211 28.451 28.628 28.808 29.026 29.263 29.463 29.571 29.736 29.956 30.146 30.378 30.503 30.703 30.908 31.073 31.261 31.451 31.723 32.106 32.453 33.538 40.896 43.393 43.601 34.176 34.278 36.026 33.448 38.456 33.721 33.861 34.006 34.226 34.393 34.646 36.086 35.373 36.563 35.696 35.786 38.053 39.963 37.423 36.888 36.798 36.863 37.026 37.193 37.358 37.658 38.146 39.143 41.171 42.678 45.043 46.323 46.226 44.451 40.803 39.316 39.433 39.818 39.681 39.688 39.836 40.233 40.146 40.206 40.303 40.348 40.346 40.601 40.968 41.163 41.211 41.291 42.693 42.721 41.863 41.576 41.653 41.703 41.758 41.826 41.853 41.908 41.956 42.041 42.118 42.201 42.271 42.326 42.358 42.416 42.448 42.531 42.626 42.703 42.853 43.661 43.476 42.799 42.741 42.706 42.631 42.619 42.634 42.591 42.596 42.621 42.639 42.686 42.676 42.826 42.924 42.704 42.684 42.671 42.624 42.671 42.591 42.556 42.549 42.476 42.394 42.389 42.971 43.704 42.826 42.651 42.519 42.536 42.996 44.281 44.489 43.494 43.319 42.986 43.054 42.826 43.619 43.736 44.759 49.884 50.664 50.786 48.936 48.244 46.781 42.696 42.079 43.954 43.694 41.321 41.051 41.816 42.246 40.761 40.694 40.326 40.274 40.186 40.204 40.456 39.809 39.624 39.506 39.371 39.454 39.731 38.931 38.786 38.681 38.506 38.391 38.361 39.634 40.634 39.484 40.921 41.336 41.846 42.139 42.116 38.736 37.501 37.876 37.621 36.579 37.201 36.046 35.559 35.416 35.231 35.034 34.831 34.699 36.264 34.184 34.191 33.964 33.631 33.499 33.471 34.854 33.994 33.089 33.079 33.614 35.396 35.586 34.169 34.024 33.319 33.414 35.136 34.214 33.859 32.624 31.614 31.584 31.589 31.729 31.486 31.334 31.304 31.309 31.296 31.171 31.231 31.256 31.304 31.619 33.091 35.686 36.861 37.071 36.664 36.241 35.631 33.611 34.186 33.874 34.314 34.701 34.329 34.034 34.779 33.161 32.966 34.824 35.404 36.069 36.771 40.831 41.186 41.034 40.676 38.466 37.311 36.384 35.476 35.359 35.589 35.624 35.339 35.386 35.409 35.391 35.566 36.556 37.934 36.424 38.661 40.171 41.514 40.246 38.836 38.009 38.479 37.991 37.714 38.036 38.089 39.271 39.694 38.929 38.549 38.691 38.869 39.029 39.671 41.211 39.516
13.231 13.456 13.226 12.986 13.173 13.386 13.571 13.551 13.986 14.921 13.998 14.161 14.421 14.623 14.853 15.066 15.278 15.476 15.591 15.761 15.931 16.128 16.353 16.471 16.623 16.791 16.926 17.158 17.378 17.653 17.823 17.986 18.198 18.328 18.421 18.513 18.556 18.593 18.616 18.646 18.788 18.898 18.953 19.031 19.138 19.171 19.201 19.281 19.393 19.521 19.606 19.636 19.641 19.656 19.698 19.706 19.793 19.903 19.971 20.028 20.093 20.246 20.338 20.378 20.438 20.556 20.716 20.836 20.871 20.933 21.103 21.261 21.373 21.516 21.693 21.818 21.923 22.026 22.133 22.248 22.448 22.683 22.811 22.906 22.986 23.083 23.181 23.261 23.373 23.401 23.413 23.556 23.648 23.701 23.828 23.901 23.891 24.021 24.021 24.148 24.293 24.366 24.281 24.323 24.373 24.426 24.491 24.538 24.616 24.761 24.736 24.756 24.906 25.006 24.991 24.988 24.836 24.723 24.798 24.958 25.383 25.951 26.393 26.356 26.511 26.731 26.676 26.616 27.103 27.131 27.238 27.416 27.576 27.703 27.836 28.066 28.196 28.398 28.541 28.736 28.946 29.158 29.283 29.493 29.711 29.906 30.093 30.301 30.451 30.641 30.823 31.001 31.206 31.408 31.691 32.168 32.411 34.138 37.733 40.381 44.276 33.198 34.391 34.508 33.436 33.801 33.663 35.313 34.001 34.153 34.413 34.678 35.248 35.118 35.561 35.841 35.666 36.066 37.833 36.981 36.603 36.598 36.786 36.941 37.226 38.233 37.808 37.696 38.321 39.951 41.826 43.813 45.651 46.691 45.641 43.358 39.126 39.443 39.376 39.436 39.568 39.701 40.138 40.383 40.216 40.311 40.443 40.453 40.458 41.831 44.583 41.636 41.733 42.636 42.891 42.771 41.518 42.071 41.638 41.716 41.786 41.836 41.886 41.986 42.136 42.131 42.223 42.293 42.331 42.376 42.393 42.453 42.563 42.648 42.713 42.791 42.816 44.119 42.779 42.701 42.641 42.681 42.601 42.631 42.611 42.621 42.631 42.661 42.666 42.709 42.974 43.051 42.644 42.674 42.671 42.614 42.596 42.589 42.594 42.564 42.451 42.394 42.376 44.011 45.261 43.671 42.251 44.409 42.679 43.431 43.141 44.829 42.904 42.801 43.076 42.924 42.156 42.484 43.169 43.526 48.301 47.899 48.856 50.451 50.421 50.209 47.069 42.456 42.129 43.056 42.406 42.991 42.801 41.114 40.809 40.484 40.364 40.359 40.176 40.414 40.174 39.764 39.616 39.506 39.504 39.574 40.056 38.904 38.771 38.606 38.476 38.351 38.281 38.644 39.289 39.461 40.644 40.659 40.861 41.214 41.451 39.489 39.051 38.116 37.324 38.511 39.366 39.071 37.314 36.064 35.704 35.024 34.834 35.221 37.546 36.256 34.169 33.871 33.659 33.791 33.729 35.176 33.469 33.076 32.981 32.959 34.719 35.421 35.886 34.641 34.001 37.921 41.171 35.009 33.459 31.766 31.716 31.704 32.891 34.729 33.471 32.254 31.736 31.351 31.406 31.436 31.796 31.974 31.691 32.069 34.979 36.151 36.831 37.274 37.464 36.841 35.499 32.829 32.824 33.949 33.656 32.901 33.039 33.289 34.001 34.236 34.539 35.831 35.196 33.984 34.821 38.776 41.619 41.439 41.111 41.101 40.534 39.309 39.141 37.281 35.691 35.671 35.481 35.531 35.616 35.669 36.026 37.891 37.709 36.439 37.534 37.086 37.974 38.086 38.559 38.441 38.389 37.719 37.731 38.221 39.361 38.561 39.966 39.821 38.734 38.846 39.016 39.201 39.399 40.026 41.286
14.051 13.191 13.076 13.173 13.398 13.651 13.681 13.661 13.926 14.696 14.206 14.411 14.686 14.891 15.141 15.313 15.528 15.703 15.833 16.008 16.136 16.348 16.553 16.723 16.876 17.018 17.103 17.321 17.593 17.831 18.056 18.233 18.428 18.543 18.611 18.706 18.803 18.876 18.891 18.898 19.016 19.103 19.151 19.266 19.383 19.473 19.523 19.523 19.631 19.738 19.823 19.811 19.821 19.866 19.878 19.946 20.068 20.173 20.258 20.281 20.293 20.453 20.563 20.621 20.668 20.796 20.941 21.008 21.076 21.173 21.291 21.471 21.561 21.676 21.881 22.018 22.096 22.246 22.316 22.438 22.616 22.811 22.978 23.061 23.191 23.258 23.288 23.396 23.421 23.473 23.496 23.611 23.738 23.841 23.926 24.076 24.058 24.131 24.106 24.183 24.291 24.316 24.308 24.483 24.476 24.513 24.576 24.638 24.698 24.851 25.003 24.848 25.023 25.116 25.113 25.141 25.106 24.858 24.853 25.053 25.361 25.986 26.468 26.413 26.498 27.146 29.053 28.273 28.046 27.076 27.273 27.448 27.581 27.693 27.841 28.046 28.196 28.393 28.548 28.661 28.836 28.991 29.191 29.433 29.638 29.823 30.026 30.233 30.396 30.563 30.738 30.986 31.188 31.368 31.728 32.156 32.351 32.466 34.813 34.201 35.356 33.173 33.313 35.176 33.423 35.081 39.286 34.188 34.061 34.911 35.566 37.093 35.578 35.053 35.368 35.866 35.831 36.376 36.673 36.986 37.168 36.601 37.058 37.728 37.288 37.678 37.408 37.591 38.258 38.658 40.488 42.126 44.666 46.521 46.453 45.061 39.286 39.181 39.323 39.426 39.563 39.706 39.821 40.211 40.296 40.356 40.468 40.526 40.533 40.568 41.648 41.136 41.271 41.148 41.193 41.673 41.456 42.208 41.861 42.531 44.536 41.806 42.611 41.946 42.018 42.131 42.201 42.376 42.303 42.368 42.438 42.498 42.568 42.643 42.691 42.731 42.759 44.201 43.704 42.664 42.591 42.599 42.644 42.689 42.624 42.601 42.624 42.674 42.659 42.674 42.706 42.974 42.636 42.659 42.634 42.619 42.614 42.596 42.636 42.624 42.511 42.421 42.366 43.234 43.324 42.366 42.131 43.111 44.489 42.814 42.549 43.324 42.339 42.141 42.446 42.286 41.951 41.801 42.486 43.471 45.404 45.514 46.714 49.659 50.784 50.461 47.556 42.386 41.851 41.526 42.814 42.381 44.234 43.949 47.104 40.844 40.331 40.331 40.169 40.816 40.004 39.769 39.749 39.769 39.746 40.341 39.149 39.301 38.774 38.574 38.454 38.526 38.636 38.539 38.584 39.979 40.606 40.614 40.634 40.646 39.864 39.379 37.711 38.974 39.051 38.741 40.281 41.081 40.124 39.361 37.036 35.189 34.879 35.941 38.516 34.764 34.121 33.804 33.724 33.909 34.136 33.729 33.596 33.439 32.986 32.891 35.111 35.669 36.144 36.139 34.081 37.316 40.281 34.684 31.904 31.791 31.806 31.924 33.866 35.254 32.071 35.141 33.514 32.081 31.486 31.524 33.601 33.039 31.766 32.404 33.981 34.849 35.439 35.859 36.654 36.206 34.656 32.314 32.504 32.856 32.604 33.081 32.894 34.231 35.869 34.491 35.726 34.899 33.844 33.936 34.046 35.199 37.769 37.676 39.141 39.659 40.606 40.121 40.491 37.434 35.894 36.291 36.309 36.191 35.766 36.646 37.094 37.519 36.606 36.524 36.411 36.356 36.534 39.319 39.644 38.044 37.741 37.861 37.949 37.836 38.794 38.926 38.946 38.981 38.946 38.991 39.149 39.341 39.459 39.671 40.334
13.391 12.811 13.338 13.288 13.621 13.871 14.021 14.066 14.303 14.406 14.503 14.731 14.858 15.126 15.371 15.573 15.783 15.973 16.131 16.286 16.446 16.613 16.851 17.013 17.181 17.313 17.408 17.581 17.816 18.088 18.251 18.446 18.633 18.766 18.856 18.926 19.038 19.096 19.076 19.136 19.238 19.288 19.386 19.488 19.621 19.736 19.761 19.756 19.858 19.946 20.051 20.056 20.113 20.143 20.118 20.171 20.263 20.396 20.441 20.453 20.516 20.621 20.731 20.788 20.848 20.946 21.106 21.181 21.213 21.286 21.458 21.611 21.721 21.838 22.008 22.171 22.281 22.413 22.536 22.698 22.843 22.991 23.141 23.231 23.301 23.303 23.353 23.468 23.501 23.596 23.636 23.758 23.873 23.938 24.081 24.238 24.241 24.246 24.263 24.323 24.388 24.411 24.396 24.418 24.546 24.616 24.666 24.763 24.756 24.918 25.018 24.961 25.103 25.206 25.263 25.311 25.321 25.076 24.951 25.136 25.373 26.068 26.456 26.411 26.506 29.613 32.263 28.811 26.861 27.088 27.233 27.391 27.548 27.648 27.853 28.016 28.191 28.388 28.526 28.673 28.783 28.973 29.183 29.366 29.566 29.768 29.961 30.151 30.421 30.568 30.748 30.986 31.206 31.491 31.841 32.163 32.281 32.401 32.358 32.351 33.056 33.316 33.093 34.733 33.366 34.643 41.576 35.831 36.338 40.673 36.343 36.768 35.166 35.211 35.368 36.291 35.931 36.111 36.358 37.436 37.963 37.423 38.988 37.396 37.108 37.331 37.428 37.706 38.478 39.521 40.578 40.028 41.221 45.296 46.658 45.958 43.308 39.686 39.301 39.438 39.543 39.693 39.883 40.351 40.378 40.416 40.453 40.596 40.611 40.631 40.743 42.596 43.696 41.508 42.028 41.326 41.458 41.543 41.631 41.718 41.878 41.898 42.076 42.108 42.368 42.336 42.378 42.303 42.278 42.398 42.488 42.603 42.571 42.601 42.598 42.631 42.679 43.439 44.399 42.676 42.646 43.099 42.794 43.786 43.341 42.591 42.629 42.664 42.606 42.621 42.651 42.624 42.591 42.619 42.611 42.591 42.556 42.571 42.681 42.619 42.506 42.546 42.979 42.554 42.359 42.234 42.134 42.926 43.796 43.559 43.461 42.966 42.131 42.291 42.164 42.039 41.819 41.844 42.169 42.596 42.699 43.286 44.589 48.101 49.296 48.431 45.859 42.069 41.946 43.031 41.411 41.294 47.899 50.511 50.091 45.529 41.666 40.254 40.209 40.359 40.039 39.856 40.239 41.214 40.101 39.634 39.014 38.929 38.769 38.551 38.384 38.431 38.401 39.669 40.009 38.429 39.496 40.501 40.604 40.066 38.331 38.366 38.271 38.891 38.666 38.961 40.806 41.601 41.626 41.284 40.224 39.266 37.984 37.301 38.459 35.091 33.936 33.816 33.734 33.679 33.709 34.074 33.364 33.891 34.841 33.144 32.816 35.451 36.761 33.369 32.974 36.611 37.369 33.586 31.971 31.939 31.904 32.084 34.726 34.521 31.941 33.976 34.429 32.604 33.409 35.264 37.171 35.079 31.774 31.731 31.789 32.289 33.096 33.639 34.619 34.864 34.039 32.301 32.376 32.496 32.614 32.831 33.069 34.804 35.546 34.589 36.431 35.236 34.044 34.044 34.179 34.269 34.324 34.954 37.036 37.124 36.536 35.821 37.216 36.544 35.926 36.354 37.031 39.074 36.204 36.374 37.666 38.081 38.056 36.924 36.516 36.756 38.094 39.356 39.156 37.884 37.791 38.701 38.326 38.041 38.476 39.136 39.249 39.096 39.136 39.189 39.279 39.431 39.586 39.704 39.879
15.083 13.078 13.718 13.428 13.773 14.006 14.358 14.471 14.581 14.646 14.816 14.983 15.163 15.438 15.668 15.898 16.096 16.263 16.406 16.631 16.781 16.936 17.133 17.303 17.471 17.621 17.746 17.886 18.118 18.321 18.486 18.673 18.813 18.968 19.081 19.158 19.228 19.296 19.291 19.326 19.451 19.548 19.648 19.748 19.831 19.918 19.973 20.001 20.086 20.176 20.288 20.313 20.371 20.386 20.346 20.413 20.521 20.641 20.691 20.713 20.686 20.803 20.931 20.988 21.073 21.261 21.313 21.373 21.431 21.528 21.678 21.801 21.908 22.046 22.226 22.401 22.566 22.701 22.803 22.933 23.101 23.238 23.373 23.438 23.476 23.496 23.503 23.576 23.666 23.748 23.863 23.881 23.953 24.063 24.166 24.293 24.311 24.388 24.413 24.471 24.488 24.521 24.531 24.583 24.648 24.696 24.793 24.841 24.888 24.916 24.976 25.026 25.263 25.556 25.483 25.453 25.496 25.308 25.103 25.188 25.571 26.218 26.456 26.393 26.588 28.023 26.926 26.723 26.843 27.326 27.216 27.328 27.453 27.578 27.768 27.953 28.181 28.363 28.488 28.591 28.738 29.011 29.123 29.303 29.488 29.706 29.868 30.081 30.391 30.598 30.793 30.961 31.186 31.443 31.878 32.066 32.186 32.333 32.271 32.341 33.618 32.948 33.028 33.126 33.311 33.383 34.016 34.596 34.558 35.486 37.031 35.946 35.461 36.263 37.191 38.796 35.898 36.013 36.186 36.931 37.728 37.313 36.916 36.873 37.046 38.946 38.498 38.648 38.228 39.341 38.263 38.508 39.648 43.561 45.826 45.593 44.083 39.913 39.296 39.431 39.636 39.758 39.923 40.053 40.378 40.543 40.501 40.556 40.701 40.703 40.723 42.748 46.108 42.753 44.396 41.813 41.476 41.536 42.376 45.306 44.576 44.116 43.513 43.301 42.661 42.173 42.273 42.391 42.383 42.383 42.431 42.543 42.773 42.671 43.741 43.606 43.441 44.076 43.959 42.921 42.694 42.779 43.366 44.826 43.461 42.614 42.671 42.654 42.616 42.601 42.699 42.616 42.556 42.561 42.541 42.496 42.469 42.501 42.534 42.534 42.454 42.414 42.654 42.656 42.456 42.474 42.171 42.109 42.259 42.969 43.404 43.506 42.064 42.079 42.111 42.006 41.844 41.866 41.809 41.891 41.704 41.974 41.949 43.251 45.564 44.826 41.929 41.686 42.294 43.049 42.379 41.576 48.316 50.266 49.954 49.124 43.371 42.099 40.594 42.274 41.779 40.294 40.154 41.134 40.751 39.369 38.936 38.786 38.666 38.476 38.319 38.184 38.206 39.529 39.139 38.234 37.749 38.234 38.671 37.669 37.549 38.354 38.854 38.796 38.616 38.976 39.966 39.971 40.794 41.369 41.619 41.126 40.274 38.071 38.364 35.661 33.901 34.031 33.789 33.691 33.629 34.146 33.706 33.596 33.489 33.374 33.514 33.381 34.461 32.581 32.484 32.776 32.419 32.144 32.104 32.054 32.036 31.961 32.599 32.899 31.949 31.846 31.931 31.806 31.819 32.196 34.159 34.291 33.476 32.676 32.136 32.051 32.621 32.086 33.041 33.284 33.341 32.326 32.474 32.589 32.771 32.949 33.279 33.426 33.769 34.809 35.831 35.466 34.344 34.499 34.296 34.386 34.494 36.331 35.544 35.146 35.276 35.331 36.041 36.879 35.866 36.066 36.366 36.471 36.116 37.321 37.304 37.931 38.396 38.804 38.294 39.596 39.064 39.131 39.746 38.244 37.971 38.346 38.409 38.489 38.884 39.256 39.199 39.266 39.346 39.396 39.454 39.501 39.629 39.816 39.976
14.928 13.781 13.548 13.946 14.023 14.958 16.328 14.878 14.818 15.048 15.113 15.328 15.511 15.753 15.978 16.161 16.358 16.546 16.708 16.918 17.083 17.261 17.483 17.621 17.746 17.906 18.051 18.203 18.376 18.586 18.761 18.906 19.036 19.156 19.321 19.368 19.461 19.468 19.503 19.568 19.616 19.703 19.801 19.903 19.998 20.063 20.101 20.171 20.296 20.408 20.516 20.548 20.588 20.546 20.526 20.581 20.703 20.833 20.913 20.968 20.938 21.003 21.166 21.206 21.263 21.463 21.571 21.641 21.663 21.691 21.828 21.951 22.086 22.286 22.433 22.566 22.706 22.888 23.033 23.121 23.288 23.428 23.551 23.618 23.656 23.696 23.716 23.791 23.876 23.943 24.046 24.111 24.143 24.201 24.236 24.338 24.411 24.526 24.588 24.581 24.656 24.671 24.683 24.713 24.756 24.796 24.846 24.908 24.976 24.981 25.021 25.088 25.521 25.743 25.493 25.528 25.656 25.638 25.501 25.666 26.158 26.403 26.478 26.426 26.613 26.923 26.688 26.723 26.846 27.043 27.173 27.298 27.443 27.523 27.738 27.921 28.088 28.253 28.461 28.506 28.723 28.913 29.073 29.293 29.488 29.673 29.858 30.061 30.288 30.466 30.673 30.926 31.208 31.591 31.851 31.983 32.098 32.181 32.263 32.463 34.441 32.981 33.841 33.466 33.418 33.471 33.776 34.181 34.398 34.303 34.698 35.318 38.956 42.043 38.798 37.783 35.963 36.048 36.308 36.391 37.321 37.848 37.093 36.861 37.621 41.928 44.793 40.391 37.733 37.913 38.123 38.356 38.661 40.116 44.208 42.863 41.471 39.996 39.383 39.533 39.656 39.838 39.978 40.036 40.153 40.521 40.728 40.568 40.678 40.723 40.793 41.353 45.276 45.073 43.148 41.403 41.463 41.528 42.988 45.478 45.661 46.121 45.956 45.818 45.633 45.446 45.321 44.971 43.033 42.376 42.416 42.466 42.506 42.528 43.831 45.033 45.081 45.359 45.439 44.321 42.821 42.654 43.506 44.876 42.924 42.566 42.776 43.156 42.784 42.659 42.581 42.574 42.521 42.529 42.484 42.461 42.424 42.416 42.416 42.421 42.381 42.301 42.459 42.766 42.861 42.516 42.234 42.164 42.131 42.414 42.944 42.289 42.099 42.431 42.041 42.131 41.959 42.064 42.211 41.729 41.931 42.601 42.361 41.751 41.696 41.476 41.449 42.024 42.494 43.324 43.529 43.086 47.551 49.281 49.461 48.544 41.659 42.044 41.051 42.266 42.116 41.466 40.361 39.791 39.624 39.074 38.866 38.691 38.564 38.419 38.259 38.239 38.206 38.426 37.734 37.731 37.636 37.824 37.806 37.136 37.699 38.601 38.941 38.254 37.846 39.169 39.509 38.706 39.071 39.969 41.299 41.679 39.294 36.611 37.081 34.739 34.241 34.784 33.874 33.661 35.221 35.701 34.364 33.756 33.346 33.191 32.959 33.036 32.741 32.626 32.549 32.431 32.351 32.304 32.209 32.111 32.024 31.951 31.861 31.851 32.189 32.084 31.889 31.919 31.959 31.994 32.164 32.839 33.261 32.484 33.554 33.919 33.254 32.709 33.496 34.291 34.281 33.971 32.881 32.824 32.941 33.119 33.309 33.361 34.734 36.119 35.384 37.894 38.296 35.734 34.484 34.489 34.911 35.151 37.339 36.749 35.599 35.419 35.546 35.821 35.889 36.046 35.969 36.131 36.196 36.741 36.604 36.644 37.806 38.279 39.414 39.604 39.261 41.011 40.836 39.099 38.476 38.294 38.399 39.016 39.309 39.279 39.491 39.414 39.454 39.494 39.581 39.661 39.764 39.904 40.059
13.616 14.848 15.516 14.518 14.521 16.306 15.651 14.963 15.118 15.223 15.406 15.638 15.848 16.061 16.258 16.418 16.591 16.788 16.933 17.126 17.316 17.563 17.803 17.913 18.011 18.168 18.308 18.433 18.593 18.756 18.926 19.123 19.261 19.396 19.508 19.586 19.636 19.663 19.683 19.721 19.801 19.871 19.968 20.083 20.178 20.243 20.308 20.371 20.493 20.633 20.763 20.828 20.871 20.791 20.771 20.823 20.888 20.993 21.043 21.158 21.203 21.241 21.353 21.426 21.486 21.611 21.768 21.861 21.886 21.916 22.021 22.143 22.296 22.463 22.598 22.748 22.871 23.006 23.153 23.263 23.413 23.523 23.696 23.761 23.811 23.916 23.983 24.008 24.036 24.071 24.173 24.288 24.363 24.386 24.411 24.428 24.523 24.608 24.676 24.693 24.786 24.826 24.826 24.866 24.838 24.918 24.973 25.006 25.083 25.081 25.128 25.191 25.378 25.731 25.903 25.683 25.786 25.916 26.056 26.193 26.418 26.533 26.436 26.471 26.628 26.776 26.898 26.841 26.916 27.211 27.266 27.241 27.386 27.541 27.681 27.871 28.003 28.181 28.333 28.488 28.711 28.853 29.046 29.276 29.486 29.661 29.826 30.036 30.268 30.441 30.626 30.831 31.131 31.613 31.783 32.436 32.403 32.093 32.203 33.063 32.961 32.756 33.026 33.273 33.448 33.486 33.691 33.948 34.066 34.301 34.603 35.983 41.846 41.516 36.818 35.608 36.016 36.618 36.633 36.463 36.581 37.758 38.373 36.923 37.601 42.276 43.523 38.651 37.728 37.946 38.213 38.331 38.563 38.938 40.031 40.701 40.386 39.683 41.701 40.853 39.691 39.876 40.031 40.013 40.186 40.378 40.486 40.591 40.658 40.791 40.868 40.916 41.946 42.183 41.486 41.423 41.473 41.553 42.138 42.376 43.731 46.923 46.958 46.873 46.758 46.593 46.121 45.913 43.428 42.378 42.483 42.508 42.531 42.571 43.503 44.821 44.631 45.169 44.141 45.331 43.226 42.741 43.339 43.549 42.601 42.586 42.766 42.929 42.761 42.674 42.606 42.561 42.504 42.499 42.486 42.431 42.411 42.424 42.404 42.414 42.391 42.339 42.871 44.726 43.929 42.509 42.291 42.199 42.159 42.376 42.886 42.316 42.464 42.751 42.126 41.899 43.016 43.599 43.369 42.314 42.026 41.836 41.761 41.776 41.794 41.556 41.806 41.879 42.746 43.544 43.371 42.706 42.771 43.169 45.316 42.499 41.086 41.391 42.794 42.576 41.649 40.231 39.829 40.531 40.471 40.691 38.836 38.671 38.784 38.434 38.206 38.244 38.586 37.856 37.674 37.484 37.356 37.411 37.449 36.944 38.291 38.146 38.109 36.556 35.871 36.799 37.591 38.276 38.534 40.094 41.679 41.141 38.781 37.401 35.709 34.231 34.284 34.309 33.801 33.734 35.039 34.801 33.776 33.644 34.259 36.316 33.956 34.929 33.574 32.774 32.591 32.494 32.439 32.351 32.291 32.206 32.026 31.916 31.871 31.859 31.886 31.894 31.944 31.966 32.066 32.109 32.131 32.176 32.361 33.314 36.304 36.199 35.456 34.784 34.434 33.309 33.936 34.279 32.999 33.011 33.181 33.259 33.321 33.509 35.711 35.211 37.564 38.519 38.854 37.946 35.279 34.596 35.104 36.719 39.234 39.799 39.986 37.551 35.619 35.729 35.931 36.079 36.169 36.346 36.401 36.454 36.511 36.781 38.354 39.521 39.571 38.831 41.234 42.696 43.861 44.014 40.841 39.321 39.286 39.334 39.331 39.584 39.669 39.501 39.564 39.614 39.669 39.886 41.151 40.054 40.139
15.053 17.356 15.748 16.151 16.051 15.973 15.223 15.151 15.323 15.488 15.683 15.891 16.096 16.336 16.461 16.641 16.841 16.981 17.138 17.316 17.563 17.826 18.023 18.193 18.301 18.438 18.598 18.701 18.818 18.981 19.113 19.291 19.423 19.563 19.676 19.731 19.758 19.793 19.878 19.923 19.966 20.013 20.136 20.221 20.341 20.426 20.496 20.588 20.691 20.841 21.003 21.051 21.081 21.038 21.006 21.041 21.096 21.183 21.268 21.346 21.426 21.533 21.591 21.578 21.663 21.788 21.901 22.043 22.058 22.153 22.263 22.356 22.526 22.688 22.803 22.903 22.983 23.128 23.251 23.351 23.503 23.598 23.751 23.873 23.931 24.033 24.116 24.168 24.163 24.208 24.346 24.448 24.533 24.611 24.613 24.626 24.616 24.696 24.768 24.823 24.911 24.911 24.938 24.978 24.988 25.023 25.083 25.106 25.158 25.216 25.236 25.236 25.346 25.631 25.853 25.798 25.881 26.051 26.158 26.313 26.448 26.496 26.426 26.516 26.666 26.761 26.803 26.786 26.953 27.091 27.133 27.188 27.341 27.471 27.606 27.778 27.946 28.146 28.403 28.676 28.756 28.868 29.003 29.218 29.441 29.631 29.813 30.291 30.163 30.348 30.578 30.768 31.036 31.526 31.683 31.941 31.946 31.973 32.148 33.891 34.426 32.733 32.986 33.046 33.208 33.523 33.826 34.111 34.028 34.251 34.393 37.121 42.853 39.796 35.361 35.643 36.093 36.883 37.508 37.841 36.541 36.833 37.646 37.186 37.058 37.783 38.046 37.563 37.716 37.931 38.146 38.308 39.216 39.323 38.996 39.821 40.996 42.956 43.613 43.081 40.561 39.833 39.926 40.033 40.176 40.296 40.493 40.826 40.716 40.776 40.913 40.976 40.996 41.373 41.683 41.501 41.473 41.613 41.681 41.733 42.658 46.066 46.346 46.526 46.683 46.816 44.753 44.596 42.888 42.371 43.431 42.933 42.976 42.823 44.761 44.321 44.364 43.466 43.546 45.606 43.556 42.721 43.211 43.689 42.544 42.591 42.609 42.636 42.671 42.626 42.571 42.509 42.504 42.496 42.454 42.799 42.571 42.456 42.451 42.421 42.409 42.361 42.666 44.084 43.119 42.374 42.314 42.249 42.176 42.599 43.344 42.644 43.639 44.739 42.346 42.324 43.329 43.576 43.439 43.126 42.451 42.304 41.806 41.881 42.329 41.974 42.361 42.221 43.074 43.631 43.279 42.754 41.481 40.974 41.296 41.419 41.299 41.596 42.664 41.956 41.861 40.731 41.094 41.239 43.746 39.441 38.801 38.649 38.506 38.306 38.166 38.046 38.351 37.774 37.609 37.426 37.294 37.104 36.916 37.769 37.981 36.999 37.006 36.149 35.759 35.831 36.769 37.364 38.401 40.726 41.734 40.091 36.839 35.766 34.584 34.179 34.139 33.946 33.764 34.094 35.021 33.781 33.449 33.474 33.449 33.846 33.344 33.951 34.004 33.019 32.629 32.541 32.496 32.469 32.796 34.596 34.261 32.304 31.936 31.941 31.906 31.936 32.019 32.059 32.174 33.339 32.776 32.421 33.611 36.266 37.464 37.414 37.136 36.696 36.389 34.856 33.211 33.774 33.696 33.949 35.476 34.179 33.826 35.259 35.924 36.536 38.146 38.921 38.331 36.936 34.606 34.701 35.714 38.686 39.999 40.891 40.026 38.579 36.111 35.809 36.091 36.186 36.529 36.566 36.531 36.614 36.676 36.811 37.724 39.509 38.574 40.051 41.864 43.921 44.334 44.301 42.671 41.129 40.611 39.329 39.389 39.584 39.546 39.589 39.664 39.714 39.726 40.499 40.354 40.264 40.336
14.846 16.463 16.813 16.878 16.343 15.613 15.261 15.411 15.586 15.766 15.996 16.228 16.386 16.571 16.721 16.903 17.033 17.183 17.351 17.541 17.748 17.991 18.213 18.371 18.523 18.676 18.846 18.946 19.078 19.211 19.331 19.471 19.546 19.646 19.756 19.836 19.871 19.938 20.006 20.068 20.166 20.211 20.293 20.358 20.453 20.601 20.668 20.776 20.906 21.048 21.168 21.233 21.326 21.303 21.228 21.238 21.311 21.351 21.423 21.508 21.588 21.718 21.773 21.741 21.791 21.936 22.046 22.148 22.191 22.328 22.463 22.596 22.741 22.896 23.008 23.066 23.116 23.236 23.361 23.428 23.583 23.721 23.853 23.956 24.028 24.151 24.246 24.298 24.283 24.351 24.461 24.578 24.653 24.758 24.753 24.808 24.823 24.841 24.888 24.923 25.011 25.051 25.073 25.091 25.126 25.128 25.201 25.226 25.256 25.328 25.363 25.358 25.438 25.618 25.748 25.833 25.996 26.123 26.238 26.421 26.601 26.463 26.498 26.581 26.768 26.868 26.851 26.843 27.003 27.103 27.136 27.198 27.358 27.468 27.603 27.758 27.978 28.258 28.693 29.023 29.058 29.033 29.088 29.228 29.386 29.556 29.761 30.003 30.198 30.338 30.446 30.683 31.068 31.436 31.538 31.838 31.951 32.531 33.588 32.383 32.576 32.751 33.458 35.708 33.821 33.573 33.628 33.928 33.996 34.278 34.488 36.613 38.416 34.956 35.146 35.628 35.623 36.521 39.051 41.218 36.413 36.723 37.561 37.011 37.083 37.236 37.488 37.631 37.711 37.966 38.158 38.821 40.436 40.053 41.113 42.603 43.508 44.138 44.443 43.706 41.728 39.753 39.916 40.031 40.133 40.368 40.663 40.753 40.793 40.803 40.891 41.011 41.038 41.101 41.338 41.468 41.448 41.563 41.673 41.748 42.343 44.568 45.216 45.368 45.548 45.703 43.683 42.476 42.378 42.663 42.536 42.773 42.796 43.056 45.033 45.483 45.566 42.976 43.154 44.931 44.996 43.084 43.084 43.629 42.659 42.621 42.629 42.651 42.636 42.636 42.599 42.524 42.871 44.199 42.469 44.809 45.976 42.434 42.431 42.416 42.401 42.356 42.426 43.031 42.994 42.679 42.349 42.286 42.251 43.011 43.094 43.376 43.519 43.071 42.669 43.021 42.254 43.554 43.251 43.376 43.241 42.634 42.831 42.779 42.581 42.339 42.881 42.789 43.559 43.489 43.216 42.594 41.556 41.141 41.434 41.821 41.756 42.824 42.811 42.594 42.356 43.524 42.664 46.444 43.964 39.489 40.816 38.671 38.436 38.289 38.164 38.281 37.849 37.689 37.549 37.389 37.234 37.036 36.994 38.081 37.296 36.299 36.251 35.969 35.759 36.064 36.631 36.246 35.826 37.001 39.149 37.154 36.491 35.304 34.661 34.206 34.769 33.886 33.794 34.116 34.171 33.544 33.364 33.324 33.219 33.281 33.989 35.141 34.329 33.736 32.866 32.721 32.584 32.509 32.761 35.256 33.964 32.061 32.006 31.986 31.969 32.029 32.021 32.119 32.286 32.996 32.924 32.489 36.966 38.016 38.654 38.626 38.299 37.986 37.626 35.701 32.994 33.071 33.154 33.719 33.979 34.431 35.106 35.541 35.521 37.796 38.734 38.656 37.681 35.264 34.794 35.344 37.424 39.564 40.681 40.481 39.301 37.629 35.711 36.321 37.221 40.251 40.741 37.744 36.916 36.834 37.761 38.266 38.719 39.684 37.886 39.021 41.246 43.994 44.556 43.106 41.736 41.276 39.709 39.469 39.624 39.544 39.614 39.694 39.769 39.829 40.709 40.559 40.419 40.449 40.711
15.418 14.406 15.691 15.993 15.543 15.386 15.526 15.681 15.878 16.046 16.268 16.523 16.711 16.838 16.958 17.118 17.253 17.393 17.573 17.761 17.943 18.131 18.343 18.531 18.728 18.873 19.021 19.121 19.233 19.346 19.503 19.583 19.666 19.736 19.843 19.956 19.971 20.038 20.153 20.258 20.363 20.381 20.476 20.516 20.626 20.753 20.841 20.936 21.113 21.256 21.351 21.408 21.476 21.516 21.471 21.493 21.531 21.616 21.623 21.676 21.761 21.868 21.911 21.933 21.976 22.083 22.218 22.303 22.363 22.458 22.631 22.811 22.963 23.068 23.126 23.208 23.303 23.386 23.451 23.518 23.638 23.781 23.943 24.071 24.171 24.266 24.378 24.386 24.418 24.501 24.633 24.706 24.791 24.863 24.876 24.943 25.016 25.046 25.078 25.083 25.163 25.178 25.196 25.226 25.311 25.356 25.358 25.391 25.398 25.423 25.478 25.498 25.566 25.691 25.853 25.963 26.106 26.196 26.568 27.476 27.196 26.606 26.568 26.661 26.883 26.926 27.436 26.818 27.021 27.133 27.161 27.246 27.363 27.466 27.646 27.798 28.068 28.496 28.956 29.056 29.198 29.246 29.226 29.248 29.376 29.548 29.741 29.888 30.081 30.233 30.373 30.626 31.108 31.361 31.566 31.791 31.778 32.043 34.556 32.318 32.528 32.691 36.018 34.698 33.933 33.291 33.428 33.643 33.913 34.251 34.863 34.921 35.963 38.146 35.096 35.246 35.843 36.743 38.061 40.276 36.811 36.661 37.166 37.053 37.161 37.311 38.091 37.696 37.793 37.983 38.216 38.476 39.133 38.993 40.096 42.968 44.093 44.883 44.761 44.008 43.143 40.963 39.891 40.043 40.308 40.503 40.541 40.653 40.911 40.943 40.951 41.001 41.093 41.158 41.201 41.463 41.501 41.581 41.691 41.811 41.818 42.068 42.651 42.731 43.326 44.051 43.268 42.401 43.101 42.556 42.633 42.691 42.793 42.748 43.278 43.278 43.279 42.886 42.836 43.856 45.334 43.569 44.216 46.169 43.201 42.624 44.276 42.586 42.606 42.641 42.851 42.609 43.584 48.794 44.084 46.661 43.749 42.361 42.401 42.366 42.356 42.331 43.074 44.284 43.096 42.409 42.391 42.351 42.281 43.001 43.336 43.081 42.751 42.691 42.381 43.724 43.601 43.734 43.181 43.439 43.501 42.561 43.506 43.909 43.844 43.086 42.634 42.901 43.586 43.361 43.146 41.554 41.591 41.334 41.071 42.021 42.241 42.849 42.744 42.806 42.784 43.186 43.764 45.706 46.341 44.379 44.844 39.976 38.461 38.331 38.281 38.319 37.771 37.646 37.484 37.366 37.196 37.001 37.506 37.789 36.481 37.149 39.286 37.511 36.414 35.844 35.476 35.489 35.329 35.331 35.319 36.316 36.301 35.136 34.306 34.094 33.966 33.816 33.756 33.794 33.639 33.516 33.396 33.324 33.206 33.119 33.309 34.134 35.049 35.056 34.899 33.011 32.784 32.564 32.524 32.759 33.524 32.816 32.524 32.144 32.099 32.151 32.161 32.214 32.444 32.979 32.941 33.921 37.139 37.419 37.849 38.399 38.656 38.684 38.109 33.486 33.146 33.209 33.321 33.494 33.641 33.884 34.496 35.136 37.109 38.441 38.976 38.079 36.706 35.146 35.399 36.666 38.956 40.246 40.814 39.756 38.826 38.554 36.831 37.036 39.629 41.521 43.049 42.169 38.999 38.394 38.811 38.491 38.489 37.854 38.034 39.174 41.714 43.206 43.489 42.021 41.401 40.446 41.174 41.239 43.261 40.824 39.826 39.859 39.944 40.424 41.016 40.796 40.696 40.636 40.721
14.378 15.308 15.511 15.206 15.223 15.463 15.653 15.866 16.091 16.303 16.491 16.701 16.873 17.058 17.168 17.306 17.413 17.601 17.791 17.963 18.128 18.301 18.523 18.701 18.871 19.008 19.138 19.248 19.363 19.471 19.581 19.683 19.771 19.856 19.943 20.028 20.061 20.133 20.258 20.393 20.486 20.523 20.576 20.646 20.796 20.956 21.018 21.108 21.258 21.413 21.513 21.486 21.563 21.736 21.738 21.788 21.786 21.828 21.851 21.926 21.958 22.038 22.111 22.151 22.238 22.336 22.438 22.511 22.598 22.686 22.836 22.986 23.073 23.198 23.286 23.408 23.441 23.513 23.598 23.656 23.758 23.888 24.003 24.133 24.286 24.373 24.463 24.536 24.581 24.661 24.698 24.841 24.943 24.968 25.003 25.096 25.226 25.206 25.226 25.261 25.323 25.338 25.336 25.338 25.393 25.456 25.511 25.571 25.556 25.588 25.636 25.671 25.733 25.833 25.943 26.081 26.218 26.398 27.143 27.838 27.118 26.546 26.598 26.763 27.031 27.256 27.561 26.876 27.078 27.131 27.176 27.288 27.403 27.508 27.701 27.906 28.353 28.831 29.031 29.133 29.221 29.301 29.391 29.291 29.381 29.523 29.728 29.898 30.083 30.246 30.438 31.006 31.121 31.236 32.163 31.791 31.768 32.176 32.291 32.468 32.951 32.626 32.763 32.841 33.131 33.918 33.388 34.538 34.123 39.078 34.968 34.571 36.906 38.526 36.638 36.346 36.013 35.786 36.471 39.311 36.581 36.661 37.016 37.261 37.283 37.411 37.566 37.873 37.938 38.221 38.646 38.676 39.506 38.983 40.481 42.751 43.843 44.206 43.716 43.103 41.828 40.051 40.073 40.216 40.308 40.431 40.586 40.648 40.816 41.073 41.106 41.011 41.126 41.178 41.248 41.271 41.413 41.586 41.681 41.838 41.858 41.966 42.026 42.081 42.168 42.571 42.801 42.348 42.383 43.038 43.301 43.336 43.748 42.983 42.748 42.763 42.801 42.876 42.879 42.861 43.991 44.469 43.001 44.189 42.871 42.694 44.121 42.651 42.631 42.724 43.009 42.631 42.564 42.506 46.779 48.121 44.256 46.171 42.971 42.359 42.336 42.324 43.769 44.364 42.984 42.409 42.456 42.399 42.289 42.424 42.571 42.786 43.204 42.691 42.369 43.004 45.224 43.344 42.244 42.461 42.964 42.831 44.056 43.996 43.984 42.169 42.016 43.731 43.446 43.216 42.629 41.071 41.484 41.709 42.014 41.144 41.664 42.211 41.854 41.476 42.421 41.036 40.854 46.894 49.501 48.371 45.964 42.291 40.586 38.536 38.281 37.951 37.731 37.634 37.499 37.321 37.139 36.936 37.724 37.479 36.329 40.619 44.776 43.349 39.259 35.579 35.976 37.321 39.711 36.411 35.511 34.851 34.926 34.419 34.189 34.081 33.924 33.781 33.941 34.201 33.639 33.466 33.401 33.259 33.276 33.136 33.004 33.614 34.881 35.019 34.881 34.474 33.609 32.604 32.554 32.574 32.561 32.834 33.426 33.589 32.969 35.599 32.934 32.606 32.534 32.476 32.496 33.526 35.934 36.269 36.181 37.739 37.974 38.209 37.176 32.836 33.304 33.391 33.501 33.584 33.739 34.084 35.546 37.151 36.216 38.921 38.444 37.499 37.119 35.951 36.124 38.281 39.804 40.764 40.216 39.049 38.641 38.666 37.406 38.019 40.724 42.561 43.269 41.491 40.084 39.911 39.676 39.146 38.646 37.914 38.324 39.116 40.021 41.616 40.331 40.504 40.274 41.591 42.751 44.339 45.891 45.281 41.261 40.101 40.416 40.964 40.844 41.061 41.864 40.826 40.919
14.478 14.853 15.028 15.213 15.343 15.693 15.798 16.016 16.268 16.471 16.653 16.846 17.066 17.226 17.338 17.468 17.588 17.793 17.958 18.101 18.298 18.468 18.678 18.873 19.001 19.131 19.248 19.366 19.488 19.571 19.673 19.751 19.811 19.891 20.026 20.121 20.176 20.261 20.358 20.536 20.656 20.698 20.723 20.773 21.011 21.171 21.231 21.311 21.436 21.591 21.673 21.701 21.748 21.893 21.986 22.001 22.023 22.063 22.098 22.166 22.213 22.266 22.366 22.406 22.518 22.596 22.648 22.693 22.831 22.923 23.008 23.111 23.186 23.346 23.431 23.506 23.571 23.648 23.756 23.851 23.888 23.981 24.101 24.263 24.421 24.508 24.628 24.691 24.768 24.828 24.868 24.926 25.028 25.128 25.156 25.271 25.308 25.361 25.418 25.448 25.431 25.471 25.483 25.496 25.528 25.573 25.628 25.701 25.716 25.718 25.738 25.786 25.871 25.946 26.081 26.211 26.368 27.121 27.721 27.691 26.931 26.576 26.671 26.818 26.983 27.106 26.921 26.976 27.108 27.168 27.208 27.333 27.446 27.563 27.761 28.193 28.718 29.018 29.066 29.166 29.238 29.346 29.416 29.448 29.508 29.601 29.796 29.976 30.156 30.348 30.771 31.006 31.063 31.218 31.796 31.556 31.961 32.761 33.631 32.403 32.481 33.558 32.598 33.426 33.131 33.283 33.481 34.643 34.533 34.756 37.123 34.576 34.878 35.291 35.146 37.426 35.871 35.766 37.581 37.833 37.748 36.671 36.778 37.341 37.493 37.811 37.811 38.261 38.206 37.966 38.106 38.361 38.841 39.091 42.013 42.523 42.966 43.213 41.833 40.523 39.796 40.026 41.143 42.531 40.451 40.471 40.606 40.658 40.838 42.916 43.223 41.131 41.131 41.211 41.288 41.308 41.383 41.508 41.956 42.653 41.888 42.013 42.078 42.116 42.193 43.508 44.578 43.293 43.731 44.963 44.911 44.956 45.078 44.166 43.896 43.771 43.911 43.289 43.106 42.999 42.749 44.529 44.726 43.314 43.479 43.564 42.849 42.841 42.909 43.004 42.946 42.691 42.664 42.689 45.831 44.136 42.489 45.849 42.661 42.344 42.316 42.386 43.621 43.914 42.396 42.394 42.401 42.366 42.281 42.631 42.436 42.736 42.751 42.806 42.484 42.884 43.946 43.029 42.529 41.966 42.714 43.904 44.616 44.531 43.976 41.821 42.446 43.609 43.321 43.129 42.021 41.046 41.051 41.686 42.739 41.136 41.686 41.514 41.764 40.704 41.316 41.379 41.389 47.911 50.019 48.876 43.201 44.019 43.251 44.274 41.709 37.901 37.839 37.744 37.464 37.269 37.076 37.326 38.241 38.324 38.541 41.981 44.874 42.844 37.089 35.521 40.094 43.779 43.541 43.156 36.379 35.236 35.436 34.281 34.164 34.036 33.881 33.761 34.196 33.706 33.529 33.446 33.429 33.246 33.506 33.271 32.949 33.266 33.959 34.149 34.276 33.819 33.136 32.979 32.611 32.609 32.629 32.569 32.611 32.951 37.529 37.676 35.134 34.259 34.251 34.321 35.814 32.976 33.136 33.496 32.844 33.529 35.514 35.849 36.549 33.146 33.481 33.561 33.691 33.766 33.896 34.569 34.611 34.551 34.764 35.071 36.924 37.184 36.364 37.544 37.231 37.749 39.896 40.691 39.509 38.539 38.379 38.004 37.171 39.926 41.916 43.149 42.041 40.346 39.166 39.929 39.626 38.576 38.146 38.089 38.306 38.681 38.771 39.429 39.384 39.371 40.066 41.611 43.819 45.476 46.389 45.109 43.184 41.089 41.164 41.016 40.986 41.081 41.171 41.016 41.254
14.826 14.968 15.136 15.351 15.533 15.748 15.946 16.171 16.391 16.608 16.838 17.008 17.213 17.376 17.506 17.676 17.848 17.998 18.133 18.286 18.453 18.591 18.766 18.966 19.078 19.233 19.363 19.458 19.571 19.666 19.768 19.851 19.916 19.961 20.096 20.218 20.343 20.453 20.528 20.648 20.786 20.831 20.836 20.948 21.143 21.336 21.401 21.503 21.618 21.716 21.836 21.908 21.981 22.083 22.186 22.168 22.246 22.291 22.311 22.341 22.391 22.481 22.543 22.608 22.726 22.803 22.863 22.906 23.018 23.126 23.163 23.261 23.328 23.471 23.566 23.616 23.683 23.788 23.893 23.943 24.043 24.153 24.291 24.403 24.508 24.631 24.753 24.846 24.931 25.011 25.053 25.093 25.176 25.281 25.301 25.371 25.446 25.503 25.601 25.638 25.586 25.581 25.578 25.618 25.696 25.696 25.753 25.833 25.886 25.861 25.853 25.893 25.973 26.056 26.206 26.411 26.531 27.301 27.491 27.271 26.793 26.633 26.743 26.948 27.393 27.266 27.001 27.053 27.178 27.213 27.266 27.373 27.488 27.616 27.913 28.566 29.028 28.993 29.103 29.193 29.258 29.368 29.468 29.528 29.636 29.776 29.901 29.998 30.198 30.423 30.728 30.931 31.073 31.898 31.503 31.573 35.726 32.873 33.468 32.421 32.506 33.126 32.581 32.718 32.966 33.191 33.411 33.716 33.806 34.158 35.603 34.503 35.321 35.551 35.286 36.161 37.603 37.903 38.091 41.128 39.208 36.858 36.756 37.023 37.478 38.423 37.966 37.773 37.828 38.021 38.191 38.378 38.796 39.133 40.876 42.088 41.698 40.571 39.546 39.823 40.341 42.896 44.601 44.291 41.808 40.486 40.601 40.678 40.846 41.513 42.898 41.423 41.138 41.191 41.331 41.403 41.421 41.528 41.648 42.018 41.903 41.946 42.013 42.086 43.226 42.926 43.098 43.788 46.488 47.801 46.988 45.688 45.246 43.431 43.693 44.443 44.276 44.016 44.614 44.446 43.846 44.104 44.524 43.046 42.874 44.781 47.394 44.556 43.989 43.291 43.834 43.194 43.766 42.801 43.326 42.969 43.279 44.434 42.659 42.374 42.404 42.899 43.331 42.946 42.936 42.404 42.334 42.279 42.251 42.909 42.614 42.644 42.791 42.571 42.136 41.999 42.016 41.849 41.869 42.646 42.779 44.136 44.724 44.341 43.586 42.814 43.389 43.541 43.219 42.759 41.314 41.079 41.321 42.106 41.746 41.981 42.009 41.599 40.931 40.311 40.381 40.669 41.289 45.994 47.761 42.914 40.806 42.701 44.221 45.259 43.161 40.324 38.131 37.549 37.416 37.224 37.044 37.829 37.899 38.636 38.174 37.159 39.816 36.489 35.689 36.294 43.006 44.099 45.729 43.856 36.476 35.589 34.594 34.244 34.126 34.126 34.089 33.821 33.716 33.614 33.529 33.436 33.331 33.199 33.059 32.994 32.959 32.866 33.006 33.431 33.969 34.039 33.694 33.034 33.304 33.159 32.714 32.684 32.609 32.696 33.399 34.591 34.196 33.576 33.499 37.109 38.429 37.451 34.516 33.581 32.944 32.721 32.634 32.659 33.004 33.576 33.634 33.771 33.819 33.931 34.359 34.511 34.521 34.901 34.704 34.721 34.811 35.474 35.979 38.146 38.559 35.609 35.984 39.811 38.779 38.384 38.354 37.886 38.101 40.676 42.934 42.636 40.941 38.639 37.579 38.189 38.901 38.161 38.204 38.109 38.161 38.306 38.756 39.079 39.329 39.749 39.551 40.379 44.484 46.211 45.554 43.921 43.011 41.591 41.276 41.431 42.261 42.189 43.584 41.279 41.564
14.876 15.133 15.318 15.488 15.708 15.943 16.121 16.311 16.571 16.786 16.978 17.186 17.401 17.571 17.763 17.916 18.098 18.208 18.298 18.428 18.583 18.688 18.866 19.016 19.171 19.333 19.486 19.581 19.703 19.781 19.828 19.921 20.051 20.123 20.228 20.311 20.468 20.606 20.698 20.763 20.896 20.996 21.023 21.108 21.221 21.401 21.536 21.611 21.753 21.913 21.991 22.071 22.093 22.198 22.358 22.378 22.393 22.423 22.466 22.508 22.541 22.616 22.663 22.773 22.903 22.961 23.023 23.091 23.166 23.281 23.331 23.403 23.456 23.568 23.651 23.713 23.773 23.886 24.003 24.098 24.186 24.263 24.388 24.551 24.671 24.761 24.861 24.983 25.066 25.111 25.168 25.251 25.283 25.336 25.448 25.533 25.578 25.621 25.691 25.763 25.756 25.751 25.731 25.733 25.796 25.801 25.858 25.938 25.981 25.963 26.016 26.011 26.073 26.156 26.331 26.441 26.523 26.898 27.221 27.096 26.763 26.698 26.823 27.183 27.206 27.406 27.203 27.156 27.156 27.241 27.351 27.433 27.518 27.626 27.953 28.593 29.056 29.081 29.153 29.253 29.348 29.431 29.498 29.576 29.631 29.956 30.916 30.538 30.463 31.058 30.753 30.921 31.256 31.701 31.406 31.733 32.091 31.988 32.593 32.286 32.273 33.133 32.771 32.913 33.133 33.156 33.396 33.608 33.891 35.176 35.168 34.391 35.103 35.198 35.356 36.566 36.188 37.018 36.531 39.321 38.148 36.856 36.823 36.986 37.036 37.506 37.646 37.743 37.856 38.068 38.268 38.558 38.948 38.871 38.943 39.263 39.238 39.431 39.611 40.383 44.161 45.796 46.178 45.808 43.971 40.971 40.583 41.038 41.106 42.223 41.378 41.376 41.218 41.203 41.318 41.463 41.513 41.548 41.658 42.403 41.983 41.983 42.058 42.131 42.248 42.466 42.328 43.778 47.421 48.526 48.071 46.678 44.546 43.006 42.621 42.683 42.749 42.716 42.724 42.719 42.804 43.024 42.919 42.956 42.784 42.724 46.246 47.151 43.609 42.786 42.731 42.676 44.181 43.044 42.894 42.599 48.224 48.636 43.434 42.829 42.609 43.166 44.779 45.039 44.494 43.259 42.549 42.244 42.731 44.146 42.576 42.526 42.816 42.379 42.309 41.939 41.909 41.894 42.284 42.539 43.041 43.904 44.331 43.214 43.054 43.221 43.389 43.434 42.631 42.089 41.036 41.179 42.044 42.696 42.359 41.981 41.741 41.759 40.754 40.374 40.431 40.981 40.766 41.276 42.349 40.296 39.684 39.984 42.271 44.469 45.149 41.921 38.834 38.224 37.451 37.306 37.089 39.211 39.559 41.536 41.806 36.546 35.941 35.739 35.594 36.901 42.524 44.394 46.089 44.724 40.584 36.409 34.409 34.206 34.081 34.094 34.414 34.414 34.286 33.686 33.494 33.434 33.341 33.219 33.054 32.966 32.904 32.834 32.766 32.824 33.804 33.891 33.306 33.519 33.184 34.951 35.031 33.936 33.999 33.294 33.404 32.736 32.896 32.949 33.094 33.664 36.094 34.679 34.204 34.284 34.296 34.354 34.099 33.894 33.591 33.931 33.949 33.901 34.019 34.326 34.711 34.549 34.601 34.666 34.724 34.911 35.951 34.981 37.001 36.304 37.304 35.639 35.786 35.891 37.199 38.324 37.154 37.729 37.924 38.189 41.439 41.609 39.729 37.269 37.229 38.246 39.026 38.246 38.069 38.141 38.186 38.589 39.041 40.081 39.759 39.654 39.984 40.339 42.451 45.149 44.344 43.124 42.691 41.639 41.224 42.241 44.199 45.769 47.174 44.889 42.231
14.943 15.211 15.396 15.618 15.813 16.088 16.281 16.471 16.703 16.938 17.158 17.343 17.513 17.726 17.946 18.108 18.241 18.336 18.446 18.578 18.718 18.786 18.918 19.063 19.231 19.406 19.541 19.696 19.818 19.871 19.903 19.973 20.123 20.251 20.336 20.398 20.543 20.678 20.778 20.871 21.008 21.081 21.148 21.211 21.333 21.491 21.616 21.706 21.846 21.996 22.091 22.133 22.183 22.301 22.423 22.496 22.548 22.543 22.591 22.646 22.711 22.796 22.851 22.918 23.013 23.086 23.141 23.263 23.293 23.361 23.456 23.556 23.613 23.666 23.788 23.773 23.906 24.038 24.116 24.238 24.326 24.401 24.516 24.666 24.806 24.881 24.966 25.078 25.136 25.246 25.303 25.373 25.416 25.438 25.546 25.611 25.698 25.721 25.803 25.913 25.913 25.906 25.896 25.921 25.933 25.908 25.913 26.021 26.043 26.046 26.113 26.118 26.163 26.443 26.396 26.418 26.586 27.496 27.206 27.231 26.721 26.793 26.993 27.011 27.398 27.823 27.173 27.148 27.246 27.293 27.376 27.478 27.571 27.663 27.881 29.143 30.503 30.041 30.061 29.343 29.456 29.511 29.583 29.633 29.698 32.028 33.976 31.556 30.548 30.546 30.718 30.866 31.358 33.068 31.356 32.943 32.191 31.986 32.348 32.323 32.358 32.496 32.691 33.673 33.146 33.471 33.448 33.776 33.766 34.008 34.148 34.581 38.661 35.088 35.143 35.298 35.423 35.981 37.053 38.593 39.741 38.061 37.238 37.298 37.091 37.416 37.878 37.898 38.021 38.436 38.781 40.053 40.121 39.083 39.013 39.436 39.238 39.466 41.986 43.461 44.763 45.678 46.371 45.961 44.551 41.846 40.536 40.826 40.868 40.956 41.046 41.108 41.641 41.278 41.273 41.446 41.541 41.571 41.883 43.868 42.441 41.971 42.041 42.108 42.176 42.241 42.238 43.728 47.128 48.741 47.936 45.943 43.008 42.651 42.626 42.653 42.714 42.744 42.734 42.741 42.869 43.166 43.074 43.231 42.846 42.754 43.329 43.256 42.661 42.656 42.616 42.649 42.881 42.691 44.836 46.979 46.551 43.806 42.469 42.481 42.426 43.024 44.564 43.046 42.829 42.486 42.436 42.406 43.889 43.386 42.544 42.436 42.696 42.719 42.911 42.631 42.386 42.076 42.344 42.091 42.779 42.484 42.381 42.789 42.734 42.784 43.084 42.701 41.774 41.484 41.236 41.304 42.314 43.039 42.694 41.776 41.664 41.609 40.909 40.436 40.749 40.726 40.529 40.546 40.496 40.459 39.944 39.514 40.704 41.154 41.916 39.009 38.179 37.991 37.611 38.766 37.804 39.249 41.126 45.074 44.136 37.271 35.926 35.766 35.626 41.194 42.914 45.164 45.744 43.909 39.129 35.559 34.346 34.186 34.049 33.921 33.941 34.201 34.524 33.716 33.486 33.396 33.321 33.229 33.109 32.986 32.924 32.846 32.714 32.699 33.344 33.876 33.984 34.209 34.076 34.004 33.999 33.764 33.849 33.914 35.714 33.689 37.094 34.349 33.056 33.071 33.196 33.236 33.324 33.414 33.504 33.636 33.934 34.414 34.941 35.139 34.961 35.091 36.046 34.986 34.814 34.846 34.956 35.684 34.769 34.976 35.036 36.651 35.851 36.594 38.326 35.829 35.946 35.944 36.461 36.724 36.569 36.971 37.774 37.209 37.254 38.321 37.959 37.284 37.479 38.246 39.264 38.576 38.591 38.229 38.559 39.881 40.906 40.014 39.626 39.764 40.349 40.379 40.801 42.794 42.774 42.289 42.409 41.481 41.551 44.111 45.544 47.219 48.544 47.734 45.614
15.163 15.321 15.541 15.713 15.916 16.166 16.396 16.588 16.803 17.073 17.308 17.466 17.668 17.868 18.071 18.198 18.338 18.471 18.581 18.738 18.838 18.913 19.001 19.161 19.298 19.483 19.646 19.776 19.868 19.921 19.973 20.063 20.203 20.338 20.448 20.543 20.641 20.766 20.881 21.028 21.131 21.181 21.288 21.358 21.448 21.601 21.741 21.848 21.963 22.076 22.201 22.236 22.266 22.401 22.518 22.598 22.698 22.666 22.683 22.771 22.831 22.933 22.996 23.111 23.161 23.228 23.308 23.356 23.441 23.511 23.608 23.693 23.763 23.841 23.933 23.926 24.036 24.166 24.228 24.353 24.443 24.481 24.621 24.748 24.863 24.973 25.088 25.178 25.261 25.358 25.446 25.458 25.503 25.581 25.656 25.746 25.828 25.881 25.966 26.068 26.098 26.078 26.046 26.123 26.118 26.058 26.046 26.078 26.126 26.143 26.213 26.233 26.278 26.376 26.406 26.421 26.921 27.673 26.871 26.738 26.741 26.876 27.133 27.031 27.408 27.486 27.223 27.231 27.303 27.376 27.431 27.553 27.643 27.738 27.851 30.698 33.056 30.001 29.723 29.481 29.486 29.583 29.631 29.708 31.333 33.763 34.338 34.013 32.073 30.531 30.676 30.956 31.263 31.268 31.603 33.811 32.566 33.476 32.238 32.416 32.438 33.103 32.668 33.498 33.391 33.308 33.756 34.481 33.841 34.598 34.196 34.388 35.871 34.816 34.998 35.243 35.396 35.638 36.433 37.046 37.533 37.886 37.846 37.871 37.313 37.278 37.653 38.788 39.948 39.606 41.116 41.231 41.253 39.503 38.936 39.051 39.181 40.531 43.283 43.446 45.183 45.671 45.843 46.198 44.896 41.943 40.736 40.736 40.781 40.943 41.078 41.061 41.591 41.291 41.416 41.411 41.548 41.603 41.628 42.423 43.836 42.281 42.033 42.098 42.168 42.258 42.333 43.781 47.738 48.848 47.933 44.673 42.683 42.671 42.648 42.671 42.704 42.714 42.749 42.714 42.859 42.816 43.234 43.521 43.004 42.746 42.724 42.694 42.659 42.631 42.639 42.619 42.629 42.901 43.029 48.144 42.591 42.524 42.489 42.449 42.374 42.341 42.396 42.369 42.324 44.076 42.624 42.489 42.416 42.306 42.549 42.529 42.311 42.479 42.521 42.824 42.476 42.461 42.326 42.256 42.464 42.441 42.514 42.751 42.554 42.521 42.946 42.541 41.649 41.589 41.471 41.136 41.576 42.454 42.209 41.771 41.724 41.506 41.191 40.756 41.149 40.926 40.634 40.404 40.086 40.241 40.059 39.436 39.856 39.211 39.319 38.506 38.409 38.086 38.159 37.621 38.076 37.649 38.839 42.421 39.891 36.414 35.866 35.729 35.586 38.501 43.866 43.441 44.704 41.301 38.566 35.386 34.314 34.184 34.041 33.889 33.809 33.934 33.946 33.681 33.501 33.434 33.259 33.166 33.109 33.036 32.931 32.864 32.721 32.689 33.239 33.996 34.839 35.384 34.331 33.764 34.026 34.636 34.079 34.084 36.434 34.239 37.726 36.094 34.454 33.469 33.161 33.414 33.421 34.166 34.071 33.514 33.661 33.769 33.941 34.034 34.286 34.431 34.631 34.979 35.291 35.506 35.664 35.211 34.866 34.954 35.401 35.971 35.946 38.434 38.404 36.786 36.154 36.396 37.359 37.216 36.976 36.941 37.084 37.094 37.824 37.886 37.569 38.111 38.204 38.474 38.704 38.676 39.189 38.541 38.966 40.634 40.116 39.536 39.714 39.846 40.009 40.391 40.656 40.784 40.901 41.556 43.644 42.966 41.301 42.844 46.344 48.409 48.146 46.519 44.419
15.283 15.458 15.568 15.766 15.988 16.281 16.511 16.713 16.913 17.158 17.398 17.583 17.768 17.946 18.111 18.246 18.433 18.553 18.673 18.843 18.968 19.033 19.131 19.271 19.433 19.626 19.748 19.843 19.936 20.001 20.078 20.171 20.306 20.423 20.531 20.658 20.783 20.903 21.061 21.191 21.263 21.296 21.378 21.451 21.538 21.683 21.826 21.951 22.083 22.178 22.238 22.303 22.406 22.506 22.626 22.698 22.806 22.811 22.813 22.878 22.961 23.041 23.106 23.208 23.283 23.363 23.396 23.488 23.548 23.638 23.746 23.861 23.918 23.978 24.048 24.096 24.188 24.286 24.341 24.396 24.528 24.621 24.703 24.801 24.936 25.073 25.198 25.258 25.313 25.456 25.561 25.596 25.626 25.663 25.766 25.886 25.968 26.021 26.118 26.158 26.181 26.168 26.126 26.231 26.271 26.236 26.223 26.253 26.266 26.286 26.348 26.368 26.411 26.483 26.523 26.508 26.578 26.688 26.746 26.788 26.876 26.981 27.453 28.261 27.156 27.108 27.366 27.363 27.371 27.438 27.526 27.673 27.768 27.833 27.976 30.243 34.018 32.003 31.458 30.668 29.673 29.646 29.708 30.876 33.623 34.238 34.148 32.963 31.123 30.581 31.358 31.566 31.266 31.446 31.691 31.853 32.208 32.061 32.178 32.408 32.653 33.998 32.633 32.923 33.126 33.431 33.848 33.531 33.728 34.131 34.458 34.393 34.613 34.763 35.061 35.248 36.213 35.683 35.913 36.341 37.081 39.348 37.991 37.948 37.981 38.788 37.583 38.628 41.051 40.661 41.183 41.301 41.266 40.858 39.143 39.031 39.498 41.266 42.606 42.818 43.513 44.026 44.448 44.686 41.491 41.283 41.038 40.648 40.836 42.403 43.251 43.441 45.863 43.268 41.581 41.476 41.531 41.628 41.678 41.711 43.258 43.286 42.068 42.148 42.171 42.693 42.326 45.331 47.778 48.803 47.863 44.143 42.586 44.203 42.638 42.703 42.736 42.711 42.744 42.801 42.769 42.786 43.501 43.101 42.966 42.784 42.741 42.711 42.649 42.649 42.624 42.636 43.564 45.279 43.839 45.386 42.566 42.576 42.544 42.501 42.431 42.339 42.414 42.454 42.851 44.101 44.241 43.209 42.504 42.479 42.634 42.331 42.151 42.186 42.354 42.884 42.469 42.611 42.396 42.504 41.949 41.856 42.111 42.336 42.444 42.581 42.564 42.601 41.856 41.459 41.456 41.129 40.991 41.319 41.771 41.834 41.726 41.531 41.569 41.266 41.369 41.136 40.799 40.709 40.351 40.244 40.421 40.494 39.906 39.921 39.474 38.719 38.949 39.271 41.991 40.196 37.509 38.109 37.164 36.301 36.236 36.011 35.869 35.719 35.999 39.771 44.004 42.826 44.641 41.379 34.919 34.424 34.289 34.149 34.144 34.239 33.776 33.789 33.794 33.659 33.529 33.419 33.304 33.149 33.091 32.994 32.921 32.829 32.746 32.819 32.864 33.819 33.891 34.091 33.779 32.919 33.566 34.136 33.931 34.346 35.196 35.436 34.866 34.866 34.029 33.436 33.326 34.064 36.486 35.149 36.456 35.869 35.651 34.359 33.911 33.969 34.119 34.224 34.341 34.476 34.616 34.691 34.841 34.959 35.071 35.289 35.391 35.824 35.871 36.451 37.146 37.036 36.424 36.214 36.744 37.074 36.876 36.946 37.111 37.321 37.216 37.434 37.399 38.226 39.189 39.924 38.266 38.254 38.551 38.864 39.624 39.729 39.494 39.644 39.809 39.926 40.029 40.206 40.506 40.601 40.901 41.666 42.164 41.471 41.696 42.076 44.046 46.906 46.976 45.624 45.066
15.393 15.531 15.673 15.891 16.091 16.403 16.621 16.826 17.021 17.246 17.478 17.673 17.853 18.051 18.191 18.311 18.516 18.636 18.743 18.926 19.063 19.183 19.303 19.408 19.561 19.753 19.856 19.918 20.036 20.166 20.261 20.313 20.416 20.553 20.656 20.753 20.891 21.016 21.148 21.298 21.381 21.411 21.498 21.576 21.651 21.768 21.923 22.031 22.171 22.236 22.293 22.421 22.521 22.648 22.756 22.846 22.933 22.911 22.943 22.998 23.041 23.113 23.186 23.301 23.403 23.476 23.536 23.628 23.696 23.771 23.866 23.973 24.016 24.081 24.113 24.181 24.288 24.393 24.453 24.526 24.666 24.738 24.846 24.881 25.021 25.156 25.258 25.371 25.448 25.571 25.663 25.731 25.728 25.758 25.881 25.983 26.088 26.111 26.196 26.228 26.238 26.296 26.238 26.308 26.398 26.396 26.353 26.381 26.448 26.466 26.491 26.488 26.546 26.596 26.571 26.666 27.128 27.338 27.026 26.846 26.966 27.131 27.576 27.886 27.041 27.168 27.243 27.363 27.453 27.541 27.608 27.751 27.856 27.936 28.013 30.671 32.551 31.633 30.653 29.348 29.676 29.733 30.071 32.978 34.141 34.296 33.661 31.471 30.586 30.593 31.111 31.328 31.206 31.608 31.811 31.971 34.438 32.873 32.258 33.001 32.423 32.561 32.703 32.808 33.213 33.516 33.571 33.616 33.721 33.986 34.228 34.411 34.948 35.223 35.061 35.131 35.398 35.591 35.803 36.113 36.313 36.656 39.728 39.841 38.443 40.353 37.788 38.023 40.148 41.078 40.993 41.221 41.213 41.171 39.713 39.033 39.138 39.828 40.638 41.528 42.796 42.136 41.351 42.671 40.888 41.253 40.928 41.233 43.151 44.911 46.883 47.543 47.648 46.148 41.483 41.736 41.558 41.623 41.676 41.718 41.801 44.016 44.731 42.518 43.033 44.251 42.963 43.221 44.603 45.518 44.498 42.766 43.531 44.341 42.601 42.773 43.046 44.604 44.106 43.969 43.196 42.706 43.034 42.841 42.801 42.806 42.794 42.801 42.811 42.639 42.639 42.686 46.184 50.206 45.454 47.079 42.554 42.561 42.566 42.569 42.466 42.381 42.664 43.829 42.354 42.776 44.404 43.656 43.111 42.314 42.284 42.209 42.146 42.151 42.001 42.446 42.391 42.456 42.599 42.176 41.594 41.651 41.611 41.846 41.709 41.839 42.239 42.716 42.204 42.081 41.834 41.216 40.876 41.494 42.034 41.926 41.804 41.741 41.601 41.599 41.366 41.044 40.736 40.651 40.231 40.244 40.631 40.834 40.656 40.254 39.936 39.246 39.539 40.329 43.426 44.421 42.751 39.996 37.046 36.289 36.141 35.986 35.921 36.524 38.394 44.076 46.854 46.781 47.511 42.951 38.546 34.426 34.244 34.116 34.219 34.676 34.269 34.021 33.764 33.604 33.524 33.439 33.284 33.124 33.059 32.984 32.891 32.816 32.721 32.649 32.636 33.091 32.741 32.489 32.471 32.469 32.649 32.781 32.916 33.301 33.646 34.199 34.534 34.546 34.326 33.699 33.411 34.529 34.734 36.951 35.011 34.129 34.896 35.051 35.386 35.009 34.881 34.761 34.784 34.871 34.944 34.759 35.491 35.021 35.646 35.336 35.634 35.526 35.634 35.921 36.366 36.054 36.146 36.234 36.611 36.816 36.861 36.964 37.661 38.306 38.614 39.381 39.269 39.349 39.719 39.184 38.254 38.276 38.411 39.201 40.394 39.661 39.661 39.779 39.901 39.984 40.126 40.299 40.451 41.431 41.859 41.651 41.559 41.581 42.036 42.429 44.389 45.126 45.071 45.384 44.766
15.446 15.606 15.781 16.016 16.218 16.483 16.718 16.908 17.118 17.363 17.618 17.781 17.936 18.138 18.311 18.451 18.598 18.696 18.811 18.958 19.161 19.328 19.436 19.526 19.663 19.856 19.986 20.078 20.171 20.271 20.316 20.408 20.536 20.658 20.746 20.873 21.011 21.136 21.266 21.368 21.473 21.526 21.613 21.723 21.786 21.881 22.003 22.151 22.278 22.333 22.406 22.506 22.623 22.733 22.863 22.976 23.048 23.021 23.103 23.146 23.186 23.233 23.303 23.396 23.511 23.586 23.678 23.748 23.801 23.891 23.991 24.078 24.143 24.183 24.233 24.246 24.323 24.498 24.563 24.673 24.776 24.873 24.983 25.041 25.108 25.188 25.343 25.483 25.591 25.691 25.728 25.833 25.898 25.898 25.953 26.073 26.191 26.246 26.276 26.343 26.378 26.463 26.436 26.476 26.531 26.548 26.498 26.498 26.621 26.631 26.618 26.653 26.703 26.753 26.768 27.361 27.896 27.896 27.333 26.953 27.053 27.123 27.138 27.038 27.101 27.201 27.313 27.401 27.546 27.631 27.703 27.811 27.913 28.023 28.256 28.763 29.516 28.996 29.406 29.471 29.571 29.678 30.643 33.226 34.351 33.833 31.646 30.448 30.481 30.933 31.343 31.083 31.433 31.606 31.911 32.383 33.203 32.473 32.236 32.293 32.413 32.961 33.158 32.781 33.301 33.523 33.478 33.898 33.798 33.893 34.088 35.173 36.986 34.908 35.421 35.308 35.521 35.703 35.771 36.021 36.396 37.056 37.856 39.048 37.916 38.943 38.793 37.793 38.378 39.826 38.971 40.586 40.826 39.486 38.951 39.416 39.233 40.953 40.851 40.636 40.331 40.336 40.431 41.131 40.506 40.506 40.586 42.818 46.393 47.273 47.701 47.506 47.191 46.973 43.303 41.923 41.623 41.623 41.718 41.803 41.811 44.028 46.018 44.628 45.021 44.838 44.656 44.633 44.393 44.306 43.931 43.658 43.043 43.463 43.158 43.721 44.889 45.244 43.779 43.576 42.991 42.746 42.711 42.726 42.986 43.339 43.029 42.854 43.109 43.044 42.871 42.739 42.774 45.229 43.461 44.024 43.841 43.164 42.616 42.614 42.721 42.474 43.079 43.144 43.359 42.631 43.441 42.844 42.949 42.399 42.184 42.531 42.516 42.896 42.091 42.049 42.131 42.099 42.191 41.716 42.589 41.609 41.701 41.624 41.489 42.839 43.194 42.539 42.316 42.364 42.231 41.859 41.281 41.409 41.866 41.739 41.896 41.714 41.694 41.546 41.251 40.819 40.599 40.574 40.286 40.296 40.424 40.526 40.494 40.356 39.321 38.924 41.329 40.014 44.041 46.114 38.331 38.121 36.424 36.251 36.141 35.951 35.876 38.486 43.726 45.704 48.361 48.439 48.211 47.319 39.101 34.416 34.239 34.109 34.981 35.379 34.471 34.059 33.811 33.626 33.521 33.439 33.291 33.151 33.049 32.969 32.931 32.841 32.739 32.586 32.446 32.524 32.439 32.456 32.516 32.594 32.674 32.709 32.776 32.781 32.834 32.936 33.094 33.369 33.794 33.681 33.606 35.286 34.411 34.134 34.164 34.251 34.439 35.041 34.854 34.691 36.126 35.046 35.821 36.916 36.529 37.981 38.496 37.926 37.311 37.281 36.641 35.529 35.686 35.774 35.896 36.094 36.236 36.384 36.519 36.699 36.886 36.999 37.116 37.331 37.529 38.476 38.509 39.551 39.956 38.901 38.301 39.074 40.139 40.881 40.379 41.319 40.734 39.966 39.979 40.106 40.221 40.404 40.916 42.351 41.694 41.829 41.566 41.991 42.176 43.631 44.726 44.699 42.886 44.551 43.979
15.516 15.738 15.931 16.118 16.341 16.591 16.843 17.061 17.243 17.481 17.753 17.911 18.076 18.228 18.423 18.566 18.713 18.851 18.913 19.091 19.246 19.438 19.538 19.663 19.746 19.923 20.068 20.171 20.258 20.346 20.426 20.476 20.581 20.753 20.883 21.008 21.156 21.283 21.413 21.533 21.636 21.673 21.743 21.828 21.868 21.963 22.051 22.206 22.301 22.376 22.471 22.611 22.751 22.856 22.996 23.038 23.141 23.166 23.276 23.291 23.296 23.341 23.406 23.521 23.601 23.711 23.803 23.881 23.913 23.983 24.111 24.221 24.238 24.288 24.361 24.421 24.491 24.623 24.683 24.721 24.848 24.968 25.056 25.158 25.231 25.306 25.416 25.533 25.638 25.768 25.841 25.961 26.018 26.001 26.028 26.138 26.236 26.336 26.341 26.438 26.546 26.573 26.583 26.576 26.598 26.693 26.716 26.676 26.706 26.728 26.738 26.776 26.848 26.886 26.831 27.346 27.643 27.633 27.156 27.128 27.191 27.243 27.206 27.033 27.143 27.296 27.388 27.461 27.613 27.723 27.811 27.913 28.038 28.141 28.423 28.393 28.546 28.678 29.293 29.563 29.618 29.718 31.608 31.988 32.483 32.383 30.298 30.406 30.748 31.436 31.128 31.473 32.186 32.898 34.186 32.921 32.028 31.926 32.081 32.596 33.511 32.893 33.473 32.938 33.088 33.316 33.443 33.738 34.038 34.301 34.228 34.666 34.446 34.741 35.053 35.553 35.481 35.541 35.696 36.386 36.326 37.383 37.516 37.526 37.528 39.636 39.146 38.366 38.166 38.713 38.466 38.668 38.758 38.728 38.896 39.678 40.251 42.038 40.158 39.758 40.456 40.241 40.136 40.293 40.383 40.508 42.476 44.196 46.058 47.338 47.128 46.778 46.788 46.926 45.746 42.261 41.851 41.688 41.691 41.778 41.876 42.278 43.236 43.883 43.298 44.581 42.781 42.846 43.031 42.983 43.841 43.701 44.451 44.578 44.388 44.408 44.596 44.961 43.964 44.026 43.381 43.166 42.931 42.741 42.759 42.989 43.151 43.521 43.856 42.964 42.794 42.734 42.724 42.949 42.786 42.534 42.614 42.606 42.601 42.614 42.646 42.494 42.369 42.696 43.009 42.399 42.176 42.209 42.309 42.199 42.196 42.319 42.051 42.071 41.901 43.559 47.246 46.671 46.416 44.651 49.936 44.784 46.021 43.024 42.174 45.141 47.324 44.591 43.209 42.129 41.904 42.536 42.039 42.321 42.116 41.729 41.681 41.749 41.401 41.211 40.956 40.749 40.541 40.599 40.354 40.171 40.111 40.341 40.076 39.804 39.166 39.061 41.614 38.881 43.644 41.051 41.046 37.374 36.446 36.254 36.104 35.956 35.876 36.771 42.561 46.859 47.709 47.856 47.786 46.481 41.159 34.421 34.251 34.169 36.314 36.601 35.494 34.126 33.909 33.664 33.536 33.444 33.306 33.169 33.026 32.939 32.926 32.809 32.724 32.509 32.466 32.466 32.529 32.581 32.624 32.716 32.776 32.806 32.849 32.901 32.951 33.036 33.179 33.301 33.436 33.541 33.661 34.159 35.206 34.686 35.256 35.044 35.266 34.936 35.246 35.349 35.914 36.704 35.496 36.344 35.626 36.341 36.101 36.601 37.656 36.491 39.671 40.621 39.159 36.594 37.341 36.346 37.341 36.681 36.494 36.709 36.864 37.039 37.161 39.389 37.489 37.679 37.801 38.044 38.169 38.311 38.431 39.161 40.331 40.936 40.584 41.141 41.689 40.449 40.164 40.359 40.351 40.464 41.851 42.954 42.814 41.909 42.036 42.499 42.454 42.651 43.074 42.846 44.024 44.781 45.096
15.651 15.818 15.988 16.226 16.468 16.693 16.973 17.173 17.388 17.611 17.856 18.046 18.213 18.336 18.513 18.671 18.831 18.956 19.046 19.191 19.366 19.536 19.703 19.801 19.913 20.068 20.196 20.263 20.348 20.436 20.498 20.573 20.683 20.861 20.928 21.058 21.213 21.368 21.543 21.646 21.756 21.833 21.903 21.958 22.016 22.063 22.133 22.223 22.331 22.461 22.581 22.691 22.853 22.956 23.061 23.158 23.236 23.276 23.353 23.386 23.428 23.481 23.526 23.646 23.708 23.838 23.923 24.011 24.043 24.103 24.221 24.308 24.348 24.413 24.508 24.561 24.636 24.731 24.803 24.863 24.928 25.046 25.136 25.248 25.306 25.333 25.431 25.556 25.708 25.858 25.933 25.996 26.051 26.131 26.163 26.218 26.278 26.378 26.433 26.538 26.631 26.636 26.653 26.673 26.733 26.838 26.883 26.846 26.838 26.838 26.868 26.921 27.011 27.018 27.251 28.131 28.221 27.506 27.176 27.203 27.333 27.541 27.296 27.181 27.273 27.401 27.506 27.596 27.708 27.838 27.946 28.068 28.158 28.283 28.411 28.551 28.668 28.866 29.443 29.626 29.673 29.776 31.096 32.303 31.913 30.286 30.318 30.651 31.741 31.273 31.183 32.298 33.593 34.018 33.033 33.956 32.196 32.496 32.148 32.608 33.253 32.666 34.248 33.078 33.276 34.008 33.423 33.543 33.756 34.028 34.158 34.423 34.518 34.726 35.061 35.301 35.551 35.656 35.956 38.576 36.233 36.918 37.263 37.026 37.266 37.738 38.283 39.463 38.168 38.341 38.458 38.946 38.781 38.733 38.891 39.198 39.428 39.736 39.518 39.706 40.011 40.078 40.106 40.273 40.371 40.806 43.553 44.093 44.738 46.256 45.396 45.393 45.971 43.823 41.713 41.813 42.181 41.841 41.723 41.783 41.903 41.996 43.111 43.976 42.083 42.251 42.178 42.253 42.341 42.396 42.433 42.453 42.563 42.668 42.636 42.701 43.216 43.569 44.156 44.281 44.176 44.759 43.516 43.261 42.896 43.429 43.441 42.901 42.699 42.754 42.734 42.749 42.774 42.699 42.714 42.909 42.606 42.611 42.584 43.004 42.549 42.439 42.324 42.266 42.311 42.401 42.301 42.126 42.366 42.279 42.156 41.934 41.929 41.946 42.416 47.281 51.244 52.021 49.666 51.546 51.946 51.809 51.389 49.981 50.131 51.796 54.274 51.066 45.891 42.699 41.619 42.826 42.601 42.874 42.449 41.886 41.849 41.804 41.494 41.616 40.889 41.056 40.781 40.491 40.384 40.086 39.864 39.844 39.579 39.559 38.901 38.956 40.421 37.946 40.819 40.286 41.524 36.666 36.484 36.294 36.114 35.984 35.889 36.594 40.991 46.464 46.456 47.129 45.084 41.494 40.604 34.354 34.256 35.129 36.511 38.214 36.051 34.951 33.899 33.679 33.541 33.486 33.324 33.189 33.041 32.949 32.906 32.816 32.624 32.544 32.484 32.394 32.656 32.746 32.774 32.846 32.879 32.901 32.964 32.981 33.066 33.164 33.326 33.696 33.589 33.704 33.821 33.901 34.001 34.116 34.634 35.466 35.914 35.756 36.546 37.524 36.794 36.924 36.756 36.919 38.031 36.994 36.924 35.981 35.866 35.984 35.981 38.506 37.424 36.589 36.856 37.549 38.581 38.001 37.851 38.094 38.279 37.404 37.649 39.446 41.044 40.534 39.249 38.156 38.184 38.441 38.551 38.679 38.874 39.256 39.371 39.764 40.029 39.949 40.374 40.661 41.336 42.084 41.569 42.939 43.376 43.989 44.029 43.699 43.001 43.151 42.819 43.216 44.364 44.801 44.316
15.746 15.938 16.106 16.323 16.578 16.818 17.053 17.256 17.488 17.678 17.951 18.148 18.298 18.448 18.583 18.711 18.866 19.016 19.128 19.273 19.436 19.573 19.776 19.913 20.018 20.178 20.343 20.433 20.493 20.566 20.633 20.753 21.081 21.078 21.031 21.128 21.253 21.411 21.566 21.666 21.803 21.913 22.006 22.063 22.118 22.181 22.228 22.316 22.418 22.578 22.666 22.801 22.958 23.083 23.178 23.238 23.353 23.368 23.428 23.463 23.551 23.606 23.681 23.793 23.873 23.983 24.076 24.126 24.181 24.258 24.341 24.401 24.466 24.518 24.593 24.651 24.761 24.856 24.941 25.026 25.121 25.193 25.293 25.368 25.431 25.488 25.558 25.668 25.791 25.938 25.996 26.073 26.183 26.258 26.273 26.318 26.388 26.466 26.533 26.593 26.721 26.716 26.751 26.796 26.831 26.926 26.986 27.008 26.981 27.011 27.013 27.071 27.151 27.136 27.548 28.798 28.356 27.376 27.293 27.336 27.496 27.713 27.448 27.311 27.496 27.533 27.698 27.748 27.858 27.913 28.018 28.171 28.288 28.396 28.513 28.653 28.766 28.928 29.541 29.736 29.891 29.873 30.348 30.881 31.031 30.303 30.346 31.438 31.698 31.126 31.823 33.553 33.936 34.871 35.121 33.693 32.531 32.201 32.378 33.043 32.476 32.636 33.226 33.801 33.401 33.893 33.596 33.763 34.111 34.703 34.213 34.631 35.308 34.873 36.011 35.583 35.551 36.476 36.526 36.761 36.426 37.233 37.803 37.096 37.443 37.413 37.931 38.283 38.123 38.228 38.781 38.883 39.303 39.078 39.683 39.986 39.208 39.636 39.641 40.233 39.808 39.966 40.118 40.248 40.346 40.863 41.983 43.883 42.936 42.656 43.511 42.693 41.818 41.768 41.696 42.373 42.156 42.291 41.941 41.793 41.908 41.966 41.966 42.138 42.193 42.161 42.203 42.281 42.333 42.353 42.433 42.486 42.543 42.588 42.603 42.648 42.679 42.704 42.729 42.701 42.666 42.859 42.776 42.699 42.674 42.894 42.806 42.774 42.771 42.744 42.724 42.711 42.744 42.699 42.639 42.721 42.554 42.811 43.389 44.201 42.659 42.364 42.246 42.331 42.251 42.881 42.826 42.551 42.276 42.141 41.944 41.984 41.894 41.831 41.691 45.036 50.806 51.219 51.306 51.314 51.041 50.996 51.204 51.139 50.359 52.849 54.129 55.599 50.081 45.456 41.299 43.396 41.311 42.761 42.574 42.379 42.091 41.826 41.491 41.461 41.319 41.381 41.171 40.774 40.279 39.904 39.884 39.981 39.886 39.879 39.891 39.629 39.009 37.834 41.539 39.666 43.049 38.121 36.484 36.289 36.154 36.009 35.829 36.429 40.891 41.536 43.421 44.431 43.366 41.714 36.669 34.446 34.296 35.759 36.646 37.209 35.979 35.034 33.861 33.666 33.526 33.469 33.334 33.221 33.126 33.029 32.916 32.791 32.616 32.664 32.574 32.621 32.761 32.821 32.889 32.934 32.981 33.041 33.089 33.114 33.214 33.314 33.466 33.629 33.739 33.864 33.994 34.086 34.164 34.284 34.379 34.914 35.446 35.686 36.029 36.356 36.106 36.409 36.489 36.621 37.281 37.291 36.714 35.969 36.441 37.964 38.491 36.609 36.609 37.669 38.314 37.924 37.751 37.494 37.184 37.849 38.244 37.874 38.601 39.561 41.644 43.826 41.604 41.976 40.511 38.996 39.429 39.166 39.116 39.369 39.384 39.609 40.194 39.874 40.104 40.381 40.686 41.761 41.689 42.274 43.049 42.606 43.629 44.214 44.544 44.906 44.704 44.831 44.049 45.991 44.251
15.821 16.041 16.246 16.446 16.668 16.931 17.176 17.386 17.566 17.741 17.956 18.171 18.358 18.516 18.701 18.831 18.958 19.101 19.233 19.368 19.516 19.621 19.783 19.921 20.058 20.188 20.346 20.443 20.548 20.643 20.728 20.846 20.978 21.036 21.151 21.296 21.403 21.516 21.646 21.723 21.866 21.976 22.061 22.116 22.181 22.266 22.331 22.426 22.508 22.621 22.736 22.876 23.021 23.213 23.321 23.418 23.451 23.456 23.528 23.576 23.698 23.753 23.836 23.933 24.061 24.136 24.168 24.233 24.316 24.416 24.486 24.541 24.611 24.628 24.693 24.776 24.858 24.971 25.068 25.176 25.251 25.336 25.408 25.471 25.536 25.591 25.636 25.751 25.881 26.016 26.081 26.161 26.266 26.376 26.451 26.466 26.526 26.631 26.671 26.698 26.763 26.798 26.863 26.916 26.973 27.048 27.138 27.156 27.133 27.131 27.148 27.178 27.266 27.186 27.306 28.173 27.886 27.358 27.408 27.468 27.626 27.611 27.643 27.533 27.528 27.658 27.726 27.836 27.966 28.081 28.196 28.283 28.391 28.506 28.633 28.766 28.908 29.071 29.676 30.151 30.431 29.973 30.058 30.121 30.231 30.341 31.056 32.346 31.596 31.498 33.441 35.491 34.301 35.136 36.508 34.121 33.221 35.153 32.563 32.431 32.446 33.683 32.831 33.493 34.173 33.861 33.661 33.901 36.166 34.748 34.411 34.916 34.553 35.056 34.951 35.171 35.408 35.691 36.028 37.373 36.301 37.291 37.586 37.241 37.991 41.586 38.293 38.831 39.356 38.188 38.381 39.318 40.033 39.896 41.013 40.591 39.216 41.393 41.976 41.978 40.711 39.958 40.068 40.176 40.296 40.481 40.993 41.733 41.483 41.503 41.558 41.543 42.168 42.821 43.218 42.191 42.451 42.436 41.996 41.816 41.838 41.968 42.211 42.583 42.168 42.238 42.166 42.218 42.303 42.368 42.443 42.498 42.551 42.553 42.578 42.628 42.651 42.659 42.684 42.691 42.636 42.801 42.966 42.706 42.634 42.656 42.684 42.746 42.746 42.759 42.759 42.739 42.736 42.694 42.616 42.891 45.026 46.924 48.529 42.581 42.479 42.329 42.821 47.421 46.761 47.424 46.994 46.674 44.326 45.024 46.104 46.714 45.286 42.421 42.026 42.189 47.094 45.734 48.126 49.034 51.139 50.574 50.451 49.576 51.334 53.761 53.331 55.014 55.156 47.514 42.416 44.516 43.851 43.061 42.086 41.889 41.771 41.546 41.391 41.136 41.124 41.746 40.954 40.664 40.454 40.726 41.369 41.086 39.964 39.786 40.986 40.289 38.696 38.256 39.499 41.326 39.224 38.631 37.206 36.946 36.174 35.951 35.746 35.706 36.914 37.334 39.204 40.706 37.914 36.209 35.821 34.571 34.554 35.834 36.716 36.034 35.056 34.536 33.901 33.719 33.576 33.499 33.339 33.236 33.189 33.014 32.924 32.699 32.759 32.741 32.771 32.791 32.864 32.924 32.969 33.031 33.109 33.156 33.231 33.254 33.394 33.529 33.621 33.744 33.876 34.016 34.151 34.271 34.391 34.494 34.571 34.666 34.851 34.974 35.111 35.196 35.289 35.381 35.521 35.499 35.781 35.914 35.831 36.826 38.186 38.581 39.511 37.211 37.546 39.164 38.554 38.344 38.351 38.226 38.819 39.411 38.251 38.714 37.984 38.996 40.579 40.274 39.471 39.971 39.739 41.079 40.904 40.849 40.871 40.721 40.829 44.441 41.319 40.779 40.684 40.329 40.541 40.711 40.906 41.139 41.424 42.121 41.866 42.406 42.479 42.979 43.601 45.036 44.904 46.156 45.976
15.926 16.143 16.326 16.523 16.771 17.046 17.306 17.476 17.641 17.831 18.026 18.243 18.408 18.586 18.778 18.943 19.066 19.213 19.353 19.476 19.548 19.693 19.823 19.943 20.071 20.216 20.321 20.413 20.523 20.668 20.793 20.903 21.026 21.136 21.248 21.378 21.536 21.691 21.781 21.896 21.976 22.081 22.153 22.218 22.251 22.351 22.431 22.558 22.616 22.698 22.818 22.968 23.131 23.343 23.466 23.523 23.576 23.561 23.638 23.728 23.811 23.886 23.953 24.058 24.178 24.241 24.281 24.343 24.476 24.538 24.613 24.663 24.723 24.778 24.813 24.876 24.973 25.088 25.168 25.253 25.348 25.436 25.496 25.571 25.658 25.721 25.766 25.791 25.936 26.038 26.166 26.236 26.346 26.431 26.523 26.568 26.676 26.741 26.781 26.818 26.898 26.933 26.981 27.056 27.123 27.211 27.248 27.286 27.248 27.211 27.251 27.261 27.306 27.218 27.218 27.513 27.916 27.393 27.508 27.648 27.953 29.431 28.983 28.011 27.656 27.766 27.826 27.983 28.116 28.213 28.308 28.433 28.556 28.673 28.748 28.886 29.018 29.271 29.808 30.308 30.588 30.081 30.123 30.188 30.298 31.358 32.121 31.966 31.263 32.636 34.308 36.538 34.108 34.431 34.768 32.418 32.391 34.603 32.826 34.056 33.278 32.623 32.873 33.308 33.626 33.758 33.616 34.108 34.051 34.588 34.616 34.673 36.283 36.548 35.136 36.391 35.883 35.671 35.763 36.051 36.393 36.531 36.703 38.668 37.731 38.236 37.881 43.276 39.263 38.158 38.248 38.833 39.986 41.211 41.461 41.188 39.336 39.783 41.036 43.748 41.943 40.036 40.066 40.156 40.318 40.491 40.696 41.376 41.868 41.553 41.411 41.906 43.573 43.838 44.873 43.098 42.056 42.201 42.048 41.958 41.866 41.983 42.106 42.748 42.156 42.223 42.181 42.201 42.313 42.396 42.448 42.518 42.556 42.568 42.588 42.613 42.666 42.716 42.736 42.674 42.646 42.584 42.666 42.666 42.661 42.681 42.716 43.859 42.769 42.816 42.771 42.759 42.981 42.624 42.586 43.986 48.779 49.681 50.164 43.481 42.784 42.679 44.511 49.381 49.399 49.366 49.381 49.421 44.269 46.566 49.091 49.121 46.839 41.896 41.811 41.566 41.799 43.109 44.724 42.814 45.971 46.369 49.516 49.561 49.534 50.111 52.669 52.879 51.279 46.291 40.859 41.836 42.134 41.554 41.176 41.249 41.046 41.074 40.991 40.591 41.364 41.866 41.376 40.221 41.204 41.669 42.191 40.479 38.909 39.366 39.824 39.469 37.676 37.264 37.104 37.149 36.716 37.371 39.601 38.509 36.109 36.106 36.014 35.766 35.559 35.886 38.234 38.764 37.749 37.491 37.086 35.706 34.801 34.801 35.596 35.429 35.256 34.814 34.044 33.739 33.631 33.516 33.384 33.276 33.141 33.049 32.929 32.811 32.839 32.834 32.876 32.944 33.016 33.069 33.109 33.139 33.209 33.266 33.334 33.409 33.564 33.691 33.819 33.936 34.039 34.179 34.291 34.424 34.534 34.681 34.791 34.904 35.014 35.126 35.216 35.296 35.354 35.436 35.526 35.656 35.776 35.896 35.961 36.016 36.131 36.959 36.326 36.476 36.586 36.661 36.764 37.624 38.304 39.294 39.226 40.034 39.641 39.479 38.269 38.921 38.776 39.854 39.401 39.791 41.509 39.859 39.836 39.779 39.939 40.046 40.916 41.896 41.034 42.274 42.361 43.519 41.234 40.919 41.566 42.824 43.639 45.226 43.606 42.234 42.709 42.534 42.749 43.044 43.161 43.591 43.866
16.048 16.246 16.381 16.593 16.893 17.158 17.416 17.581 17.743 17.956 18.173 18.336 18.503 18.658 18.843 19.028 19.163 19.313 19.458 19.556 19.693 19.786 19.873 19.991 20.128 20.246 20.353 20.463 20.571 20.728 20.856 20.973 21.088 21.181 21.296 21.411 21.586 21.741 21.866 21.996 22.098 22.183 22.228 22.281 22.316 22.428 22.526 22.673 22.763 22.821 22.936 23.083 23.261 23.463 23.603 23.698 23.776 23.721 23.766 23.873 23.931 24.006 24.093 24.196 24.288 24.338 24.401 24.441 24.548 24.611 24.701 24.768 24.833 24.896 24.918 25.016 25.076 25.198 25.258 25.361 25.413 25.503 25.611 25.686 25.771 25.843 25.893 25.898 25.958 26.121 26.251 26.351 26.448 26.533 26.596 26.706 26.828 26.893 26.923 26.976 27.028 27.076 27.126 27.166 27.251 27.296 27.386 27.403 27.348 27.313 27.361 27.413 27.413 27.503 27.593 27.583 27.963 27.481 27.591 27.706 27.931 28.961 29.246 28.026 27.751 27.878 27.948 28.081 28.216 28.331 28.536 28.563 28.706 28.828 28.926 29.043 29.138 29.466 29.916 30.013 30.116 30.226 30.248 30.418 31.121 32.161 32.208 31.118 31.611 33.901 34.583 34.631 34.153 34.558 34.746 34.283 34.766 36.216 35.021 38.303 36.928 33.333 33.273 33.086 33.273 34.038 33.808 37.006 35.483 34.241 34.396 34.571 37.391 36.498 35.896 35.323 35.638 35.896 37.568 36.093 36.156 37.856 36.918 37.396 37.411 37.558 37.793 39.058 39.591 39.816 38.333 38.358 39.348 41.378 41.463 41.278 40.436 39.761 40.256 41.361 41.536 39.958 40.046 40.156 40.293 40.443 40.571 40.778 41.816 41.508 42.696 44.226 45.808 47.293 48.043 46.726 43.471 42.313 42.673 41.956 41.916 41.958 42.061 42.106 42.118 42.173 42.258 42.208 42.328 42.498 42.471 42.508 42.546 42.596 42.613 42.611 42.669 42.691 42.676 42.676 42.626 42.626 42.676 42.651 42.671 42.644 42.661 42.726 42.759 42.829 42.799 42.731 42.716 42.629 46.431 47.514 49.626 50.661 50.474 46.571 42.826 42.821 43.174 50.234 50.204 50.294 50.174 50.229 44.331 47.579 50.001 50.046 44.559 41.934 41.804 41.571 41.524 41.441 41.459 41.379 41.499 42.946 44.736 46.251 44.314 43.226 43.179 46.114 46.669 41.841 40.471 40.334 40.294 40.244 40.184 40.144 40.046 40.081 39.901 39.819 40.526 40.289 40.089 40.319 41.206 41.094 40.956 40.194 38.724 40.164 38.444 37.756 37.436 37.204 37.046 36.876 36.691 39.181 42.246 39.729 38.776 38.181 38.494 36.406 36.709 35.846 36.271 38.291 36.434 37.559 37.229 36.909 36.464 36.889 36.019 35.519 35.194 34.471 33.926 33.804 33.664 33.509 33.396 33.301 33.211 33.116 32.906 32.911 32.871 32.921 32.949 33.006 33.086 33.174 33.231 33.284 33.376 33.421 33.496 33.549 33.686 33.846 33.979 34.131 34.231 34.341 34.436 34.519 34.666 34.834 34.979 35.079 35.166 35.259 35.359 35.419 35.481 35.596 35.659 35.806 35.964 36.086 36.141 36.214 36.339 36.456 36.534 36.684 36.849 36.934 37.034 37.131 37.226 37.444 37.691 38.456 38.654 39.076 38.349 38.829 39.974 39.501 39.844 40.194 40.461 40.236 39.399 39.544 39.749 39.896 40.136 40.294 40.451 40.479 40.824 41.336 40.929 42.009 42.801 43.544 44.921 45.989 46.251 45.751 45.234 45.211 44.834 44.761 44.394 43.196 43.314
