ncols 480
nrows 32
xllcorner    462032
yllcorner    87364
cellsize     2
NODATA_value -9999
0.382 0.373 0.369 0.487 0.361 0.265 0.176 0.191 0.524 0.426 0.568 0.478 0.341 0.359 0.409 0.396 0.304 0.324 0.319 0.279 0.211 0.101 0.051 0.026 0.019 -0.029 -0.041 -0.106 -0.111 -0.054 -0.049 0.046 -0.039 0.041 -0.026 0.114 0.402 0.499 0.572 0.547 0.474 0.479 0.442 0.414 0.409 0.419 0.359 0.284 0.284 0.274 0.322 0.399 0.477 0.504 0.547 0.569 0.574 0.559 0.584 0.564 0.524 0.509 0.472 0.419 0.427 0.427 0.489 0.457 0.449 0.464 0.479 0.482 0.494 0.474 0.464 0.474 0.474 0.439 0.429 0.437 0.442 0.469 0.447 0.437 0.437 0.462 0.464 0.469 0.474 0.469 0.462 0.432 0.404 0.394 0.409 0.414 0.389 0.332 0.344 0.422 0.414 0.414 0.397 0.344 0.324 0.324 0.347 0.377 0.379 0.367 0.372 0.374 0.389 0.392 0.369 0.387 0.397 0.399 0.399 0.397 0.399 0.422 0.442 0.422 0.487 0.494 0.504 0.487 0.517 0.542 0.547 0.524 0.567 0.542 0.519 0.512 0.549 0.562 0.609 0.612 0.597 0.609 0.589 0.589 0.607 0.627 0.614 0.582 0.579 0.557 0.602 0.617 0.624 0.627 0.644 0.677 0.689 0.629 0.639 0.687 0.674 0.674 0.639 0.604 0.602 0.642 0.649 0.652 0.642 0.657 0.654 0.649 0.642 0.634 0.612 0.639 0.634 0.622 0.612 0.612 0.612 0.612 0.637 0.644 0.647 0.697 0.692 0.727 0.702 0.719 0.727 0.687 0.694 0.689 0.672 0.682 0.679 0.657 0.672 0.709 0.687 0.692 0.707 0.717 0.712 0.729 0.694 0.724 0.714 0.707 0.707 0.719 0.702 0.707 0.702 0.704 0.707 0.714 0.727 0.742 0.749 0.744 0.752 0.719 0.749 0.752 0.722 0.744 0.752 0.744 0.747 0.757 0.744 0.737 0.757 0.767 0.762 0.754 0.737 0.757 0.737 0.734 0.737 0.744 0.742 0.722 0.749 0.779 0.744 0.737 0.744 0.722 0.709 0.712 0.687 0.694 0.714 0.689 0.719 0.717 0.717 0.722 0.707 0.667 0.644 0.639 0.647 0.654 0.642 0.612 0.604 0.594 0.614 0.647 0.629 0.637 0.627 0.629 0.647 0.654 0.659 0.654 0.614 0.599 0.637 0.617 0.602 0.627 0.642 0.659 0.687 0.707 0.734 0.742 0.744 0.777 0.782 0.799 0.812 0.789 0.792 0.827 0.814 0.802 0.817 0.832 0.834 0.824 0.809 0.842 0.829 0.829 0.827 0.834 0.822 0.832 0.814 0.839 0.849 0.814 0.844 0.819 0.832 0.812 0.837 0.849 0.847 0.834 0.804 0.772 0.757 0.799 0.807 0.817 0.807 0.832 0.829 0.824 0.827 0.839 0.844 0.822 0.822 0.837 0.837 0.842 0.847 0.829 0.819 0.824 0.837 0.842 0.834 0.837 0.859 0.854 0.877 0.892 0.909 0.902 0.862 0.842 0.852 0.892 0.939 0.939 0.937 0.937 0.949 0.939 0.959 0.954 0.949 0.959 0.969 0.972 0.957 0.969 0.944 0.979 0.967 1.012 1.019 1.032 1.044 1.054 1.082 1.117 1.149 1.207 1.214 1.257 1.277 1.294 1.299 1.312 1.307 1.334 1.317 1.329 1.334 1.309 1.292 1.284 1.254 1.232 1.202 1.217 1.239 1.217 1.217 1.209 1.227 1.217 1.229 1.237 1.224 1.209 1.189 1.204 1.177 1.157 1.187 1.209 1.159 1.184 1.204 1.207 1.147 1.147 1.129 1.154 1.132 1.132 1.144 1.137 1.132 1.107 1.124 1.127 1.084 1.084 1.072 1.064 1.059 1.054 1.067 1.072 1.054 1.042 0.984 0.974 0.977 0.989 0.984 0.914 0.887 0.914 0.987 0.964 0.972 0.959 0.954 0.954 0.942 0.934 0.934 0.944 0.939 0.907 0.887 0.907 0.914 0.852 0.814 0.884 0.879 0.879 0.852 0.797
0.389 0.699 0.411 0.408 0.386 0.345 0.261 0.597 0.596 0.614 0.478 0.406 0.331 0.309 0.286 0.249 0.286 0.291 0.246 0.171 0.136 0.059 -0.031 -0.059 -0.084 -0.091 -0.074 0.019 -0.041 -0.084 0.004 0.009 -0.166 -0.016 -0.108 0.282 0.457 0.552 0.574 0.537 0.497 0.544 0.487 0.457 0.472 0.519 0.512 0.512 0.517 0.487 0.514 0.539 0.532 0.532 0.574 0.592 0.592 0.592 0.594 0.557 0.502 0.494 0.512 0.452 0.372 0.354 0.404 0.397 0.402 0.409 0.444 0.442 0.434 0.439 0.444 0.427 0.447 0.407 0.412 0.422 0.437 0.469 0.432 0.434 0.459 0.459 0.464 0.439 0.472 0.492 0.469 0.427 0.394 0.369 0.352 0.379 0.362 0.339 0.342 0.372 0.369 0.377 0.394 0.384 0.347 0.314 0.354 0.392 0.384 0.392 0.397 0.394 0.417 0.397 0.379 0.387 0.387 0.397 0.399 0.427 0.417 0.399 0.432 0.457 0.477 0.487 0.489 0.494 0.534 0.567 0.567 0.557 0.557 0.549 0.549 0.507 0.539 0.559 0.589 0.607 0.627 0.622 0.622 0.599 0.612 0.624 0.607 0.607 0.574 0.564 0.592 0.609 0.619 0.649 0.664 0.687 0.689 0.679 0.647 0.692 0.694 0.684 0.652 0.634 0.604 0.612 0.629 0.652 0.652 0.672 0.647 0.634 0.639 0.632 0.634 0.649 0.639 0.639 0.622 0.617 0.609 0.632 0.667 0.662 0.667 0.667 0.714 0.709 0.692 0.719 0.767 0.724 0.709 0.717 0.699 0.677 0.684 0.682 0.694 0.697 0.712 0.732 0.707 0.704 0.704 0.727 0.699 0.747 0.719 0.732 0.719 0.717 0.707 0.704 0.687 0.707 0.697 0.709 0.722 0.747 0.754 0.739 0.744 0.754 0.749 0.739 0.739 0.739 0.744 0.757 0.762 0.777 0.762 0.757 0.769 0.777 0.767 0.764 0.782 0.757 0.749 0.749 0.754 0.744 0.762 0.772 0.769 0.769 0.747 0.734 0.739 0.734 0.739 0.717 0.714 0.709 0.724 0.712 0.712 0.714 0.737 0.727 0.702 0.669 0.667 0.647 0.659 0.654 0.654 0.624 0.607 0.594 0.624 0.657 0.649 0.677 0.664 0.674 0.679 0.679 0.669 0.654 0.607 0.624 0.659 0.664 0.627 0.659 0.657 0.667 0.709 0.722 0.759 0.782 0.764 0.784 0.799 0.827 0.834 0.832 0.847 0.842 0.834 0.827 0.847 0.824 0.854 0.829 0.807 0.844 0.857 0.837 0.834 0.847 0.844 0.852 0.849 0.847 0.847 0.839 0.844 0.832 0.834 0.842 0.864 0.854 0.852 0.839 0.827 0.802 0.799 0.814 0.822 0.844 0.819 0.829 0.879 0.859 0.857 0.857 0.864 0.847 0.862 0.839 0.824 0.842 0.849 0.844 0.857 0.857 0.837 0.872 0.867 0.859 0.867 0.867 0.899 0.902 0.907 0.899 0.897 0.862 0.899 0.922 0.952 0.947 0.927 0.942 0.962 0.964 0.964 0.962 0.967 0.994 0.984 0.964 0.982 0.977 0.964 0.989 0.984 1.024 1.057 1.074 1.082 1.119 1.144 1.184 1.217 1.257 1.259 1.284 1.292 1.264 1.299 1.342 1.367 1.354 1.349 1.362 1.362 1.374 1.344 1.309 1.299 1.294 1.289 1.272 1.289 1.259 1.279 1.289 1.277 1.264 1.277 1.277 1.269 1.242 1.224 1.222 1.217 1.247 1.239 1.244 1.242 1.277 1.234 1.227 1.194 1.207 1.192 1.167 1.189 1.187 1.207 1.169 1.164 1.162 1.149 1.154 1.132 1.119 1.112 1.087 1.069 1.092 1.074 1.084 1.082 1.057 1.047 1.042 1.052 1.027 1.032 0.979 0.957 0.969 0.994 0.987 0.952 0.964 0.997 0.984 0.977 0.987 0.952 0.959 0.964 0.919 0.902 0.907 0.949 0.857 0.849 0.917 0.879 0.877 0.872 0.849
1.833 2.434 1.525 2.205 1.36 0.317 0.334 0.868 0.813 0.455 0.339 0.349 0.264 0.266 0.196 0.126 0.124 0.096 0.041 0.019 0.034 -0.011 -0.056 -0.039 0.061 0.004 -0.004 -0.016 -0.026 -0.059 0.119 0.051 -0.069 -0.026 -0.038 0.412 0.472 0.507 0.532 0.459 0.437 0.482 0.492 0.494 0.497 0.502 0.509 0.524 0.542 0.567 0.549 0.549 0.579 0.594 0.577 0.582 0.594 0.584 0.564 0.537 0.479 0.509 0.517 0.482 0.342 0.347 0.322 0.327 0.314 0.332 0.387 0.384 0.359 0.387 0.424 0.444 0.434 0.404 0.444 0.454 0.464 0.457 0.489 0.484 0.479 0.494 0.469 0.414 0.479 0.502 0.504 0.467 0.447 0.424 0.397 0.352 0.352 0.349 0.344 0.359 0.392 0.397 0.417 0.404 0.364 0.354 0.357 0.387 0.402 0.374 0.389 0.382 0.392 0.394 0.382 0.389 0.367 0.404 0.412 0.427 0.424 0.412 0.424 0.447 0.462 0.482 0.477 0.512 0.557 0.594 0.614 0.592 0.564 0.569 0.554 0.557 0.569 0.577 0.617 0.637 0.627 0.622 0.617 0.647 0.659 0.657 0.677 0.617 0.579 0.614 0.607 0.627 0.642 0.627 0.657 0.677 0.664 0.667 0.694 0.694 0.692 0.659 0.659 0.627 0.604 0.589 0.637 0.657 0.637 0.654 0.664 0.639 0.629 0.637 0.617 0.637 0.639 0.627 0.652 0.634 0.622 0.654 0.684 0.677 0.697 0.684 0.694 0.699 0.699 0.717 0.724 0.729 0.702 0.729 0.707 0.679 0.697 0.704 0.709 0.684 0.694 0.709 0.732 0.742 0.727 0.714 0.714 0.739 0.754 0.749 0.734 0.719 0.719 0.717 0.699 0.707 0.702 0.727 0.742 0.722 0.724 0.739 0.754 0.769 0.757 0.774 0.762 0.767 0.744 0.752 0.769 0.777 0.792 0.777 0.767 0.757 0.772 0.782 0.787 0.799 0.782 0.757 0.779 0.769 0.764 0.749 0.777 0.764 0.742 0.744 0.774 0.777 0.754 0.734 0.714 0.734 0.737 0.727 0.737 0.742 0.727 0.699 0.697 0.682 0.682 0.667 0.647 0.647 0.644 0.644 0.657 0.619 0.647 0.659 0.679 0.687 0.674 0.702 0.722 0.704 0.692 0.672 0.654 0.644 0.679 0.699 0.679 0.679 0.694 0.682 0.692 0.724 0.744 0.792 0.794 0.792 0.794 0.824 0.844 0.859 0.847 0.844 0.844 0.862 0.852 0.852 0.837 0.862 0.857 0.864 0.889 0.867 0.844 0.857 0.859 0.847 0.849 0.834 0.864 0.877 0.867 0.864 0.879 0.872 0.859 0.872 0.842 0.847 0.847 0.847 0.824 0.842 0.857 0.844 0.857 0.857 0.872 0.839 0.854 0.869 0.859 0.854 0.852 0.879 0.882 0.889 0.922 0.914 0.889 0.867 0.872 0.882 0.884 0.889 0.874 0.884 0.889 0.919 0.922 0.927 0.914 0.914 0.912 0.932 0.952 0.959 0.972 0.959 0.962 1.009 1.012 0.999 0.979 0.989 1.009 1.012 1.012 1.012 1.004 1.024 1.037 1.052 1.089 1.097 1.114 1.162 1.214 1.244 1.259 1.282 1.272 1.284 1.279 1.307 1.337 1.384 1.364 1.337 1.367 1.392 1.442 1.422 1.422 1.367 1.367 1.359 1.364 1.349 1.347 1.304 1.329 1.314 1.312 1.314 1.419 1.309 1.287 1.369 1.377 1.354 1.284 1.234 1.259 1.327 1.314 1.292 1.299 1.267 1.254 1.244 1.242 1.244 1.257 1.227 1.202 1.187 1.179 1.162 1.189 1.202 1.184 1.162 1.134 1.132 1.117 1.117 1.114 1.142 1.112 1.094 1.092 1.067 1.037 1.067 1.039 0.992 0.979 1.012 1.024 1.017 0.989 0.984 0.987 0.994 0.997 1.007 0.992 1.009 0.977 0.972 0.959 0.947 0.934 0.877 0.872 0.902 0.912 0.914 0.912 0.904
2.468 3.325 2.972 2.587 1.265 0.267 0.418 0.717 0.621 0.221 0.291 0.256 0.204 0.174 0.039 -0.024 -0.039 -0.101 -0.154 -0.154 -0.149 -0.054 -0.074 -0.064 -0.094 -0.131 -0.006 -0.026 -0.101 0.041 0.136 0.059 0.196 0.014 0.009 0.364 0.454 0.489 0.512 0.487 0.477 0.477 0.497 0.512 0.504 0.494 0.519 0.527 0.514 0.529 0.567 0.549 0.552 0.567 0.562 0.552 0.562 0.579 0.572 0.517 0.517 0.497 0.472 0.442 0.354 0.317 0.284 0.337 0.317 0.342 0.362 0.364 0.362 0.369 0.402 0.427 0.444 0.419 0.454 0.487 0.492 0.507 0.532 0.527 0.522 0.507 0.484 0.457 0.467 0.502 0.519 0.522 0.452 0.427 0.412 0.387 0.359 0.377 0.367 0.357 0.354 0.384 0.394 0.412 0.349 0.382 0.377 0.362 0.402 0.387 0.402 0.389 0.382 0.389 0.367 0.394 0.392 0.394 0.442 0.427 0.434 0.434 0.447 0.459 0.482 0.459 0.472 0.519 0.539 0.597 0.609 0.609 0.594 0.597 0.579 0.549 0.597 0.619 0.629 0.622 0.652 0.609 0.627 0.662 0.689 0.682 0.634 0.622 0.572 0.604 0.577 0.629 0.632 0.637 0.647 0.702 0.709 0.702 0.714 0.704 0.682 0.674 0.664 0.614 0.619 0.599 0.634 0.657 0.642 0.652 0.659 0.654 0.647 0.642 0.632 0.629 0.649 0.654 0.639 0.629 0.647 0.659 0.682 0.709 0.694 0.717 0.702 0.712 0.712 0.737 0.742 0.727 0.727 0.744 0.734 0.734 0.714 0.739 0.734 0.717 0.704 0.744 0.757 0.762 0.764 0.742 0.732 0.732 0.717 0.752 0.757 0.732 0.727 0.712 0.704 0.694 0.709 0.727 0.719 0.727 0.727 0.744 0.754 0.772 0.772 0.794 0.777 0.767 0.777 0.749 0.779 0.784 0.797 0.779 0.789 0.787 0.772 0.762 0.737 0.789 0.777 0.774 0.784 0.779 0.792 0.784 0.779 0.752 0.737 0.734 0.782 0.769 0.744 0.737 0.729 0.737 0.744 0.747 0.732 0.764 0.737 0.714 0.704 0.687 0.679 0.654 0.652 0.642 0.642 0.654 0.664 0.639 0.639 0.667 0.662 0.672 0.677 0.694 0.702 0.697 0.702 0.674 0.667 0.689 0.739 0.754 0.764 0.709 0.714 0.719 0.739 0.759 0.784 0.792 0.789 0.809 0.824 0.857 0.857 0.867 0.869 0.864 0.887 0.889 0.879 0.884 0.869 0.852 0.859 0.882 0.879 0.884 0.877 0.869 0.857 0.859 0.867 0.882 0.882 0.849 0.847 0.874 0.884 0.874 0.892 0.889 0.867 0.884 0.894 0.887 0.859 0.869 0.869 0.874 0.864 0.859 0.867 0.892 0.894 0.909 0.877 0.877 0.859 0.877 0.897 0.892 0.889 0.872 0.899 0.887 0.887 0.907 0.917 0.909 0.897 0.929 0.942 0.959 0.957 0.944 0.934 0.934 0.939 0.939 0.952 0.969 1.024 0.984 0.992 1.007 0.994 1.019 1.027 1.024 1.029 1.047 1.042 1.027 1.044 1.092 1.097 1.092 1.129 1.139 1.152 1.182 1.189 1.232 1.259 1.259 1.299 1.317 1.364 1.392 1.452 1.442 1.434 1.379 1.394 1.457 1.522 1.529 1.529 1.469 1.457 1.479 1.464 1.482 1.529 1.602 1.657 1.727 1.739 1.677 1.774 1.887 1.782 1.797 2.022 1.902 2.697 1.979 2.117 1.682 1.539 1.522 1.469 1.474 1.354 1.334 1.322 1.332 1.249 1.224 1.242 1.282 1.264 1.262 1.239 1.224 1.177 1.182 1.169 1.174 1.154 1.177 1.132 1.129 1.132 1.127 1.127 1.092 1.077 1.059 1.024 0.959 1.014 1.019 1.084 1.042 1.032 1.004 0.984 1.009 1.027 1.019 1.007 1.007 1.002 0.979 0.984 0.962 0.974 0.884 0.907 0.919 0.957 0.912 0.894 0.919
2.491 2.74 2.39 2.172 0.757 0.292 0.275 0.526 0.321 0.251 0.221 0.186 0.161 0.091 -0.009 -0.091 -0.129 -0.154 -0.226 -0.194 -0.234 -0.199 -0.181 -0.119 0.024 0.076 -0.039 0.016 0.104 0.204 0.159 0.044 0.159 0.091 0.127 0.374 0.477 0.517 0.519 0.492 0.487 0.517 0.549 0.542 0.554 0.549 0.567 0.549 0.537 0.537 0.552 0.544 0.544 0.559 0.567 0.549 0.572 0.537 0.549 0.549 0.514 0.437 0.444 0.404 0.349 0.264 0.227 0.294 0.352 0.399 0.427 0.417 0.412 0.437 0.427 0.479 0.467 0.437 0.462 0.472 0.487 0.492 0.532 0.537 0.542 0.524 0.524 0.489 0.499 0.477 0.447 0.474 0.442 0.439 0.442 0.409 0.359 0.332 0.322 0.329 0.342 0.364 0.392 0.349 0.342 0.364 0.374 0.379 0.357 0.362 0.379 0.372 0.374 0.382 0.407 0.407 0.407 0.402 0.434 0.434 0.457 0.454 0.454 0.502 0.502 0.517 0.529 0.557 0.549 0.589 0.622 0.622 0.622 0.622 0.604 0.552 0.582 0.602 0.604 0.614 0.642 0.614 0.612 0.662 0.702 0.669 0.714 0.699 0.627 0.617 0.609 0.634 0.692 0.679 0.677 0.692 0.719 0.732 0.752 0.754 0.694 0.682 0.662 0.647 0.637 0.627 0.599 0.629 0.654 0.654 0.667 0.662 0.687 0.667 0.637 0.657 0.659 0.687 0.664 0.659 0.692 0.692 0.717 0.727 0.707 0.749 0.717 0.749 0.754 0.754 0.752 0.727 0.747 0.762 0.764 0.742 0.757 0.752 0.747 0.729 0.727 0.749 0.769 0.787 0.757 0.762 0.754 0.749 0.752 0.749 0.739 0.724 0.737 0.714 0.709 0.729 0.732 0.747 0.734 0.739 0.724 0.727 0.752 0.762 0.782 0.779 0.779 0.779 0.782 0.769 0.767 0.782 0.769 0.774 0.779 0.779 0.737 0.722 0.752 0.749 0.772 0.757 0.764 0.789 0.779 0.782 0.752 0.752 0.752 0.762 0.767 0.737 0.732 0.742 0.747 0.744 0.759 0.757 0.747 0.762 0.747 0.709 0.699 0.682 0.689 0.689 0.657 0.652 0.664 0.679 0.664 0.664 0.669 0.689 0.682 0.692 0.707 0.717 0.709 0.719 0.694 0.707 0.689 0.704 0.737 0.749 0.739 0.742 0.769 0.752 0.727 0.777 0.814 0.812 0.794 0.812 0.829 0.869 0.894 0.904 0.897 0.894 0.944 0.924 0.899 0.879 0.884 0.857 0.864 0.882 0.904 0.894 0.884 0.887 0.877 0.879 0.884 0.879 0.889 0.882 0.897 0.909 0.897 0.912 0.904 0.899 0.912 0.892 0.919 0.884 0.889 0.897 0.909 0.904 0.879 0.889 0.907 0.912 0.897 0.914 0.897 0.882 0.899 0.887 0.904 0.917 0.932 0.914 0.897 0.904 0.919 0.929 0.929 0.932 0.924 0.932 0.972 0.964 0.922 0.969 0.974 0.974 0.969 0.962 0.969 1.004 1.007 1.009 1.009 1.017 1.024 1.037 1.057 1.067 1.079 1.092 1.092 1.087 1.084 1.094 1.129 1.164 1.189 1.197 1.187 1.199 1.252 1.284 1.307 1.327 1.364 1.364 1.417 1.454 1.449 1.494 1.549 1.672 1.754 1.819 2.117 3.009 2.107 1.942 1.994 1.977 2.127 1.899 2.559 1.999 2.127 1.977 3.634 2.597 2.094 2.019 1.812 1.837 1.952 2.342 2.819 1.944 5.242 5.427 1.852 2.727 1.909 2.099 1.807 1.752 1.837 1.762 1.519 1.419 1.339 1.352 1.324 1.307 1.299 1.292 1.257 1.204 1.187 1.207 1.199 1.162 1.187 1.182 1.167 1.149 1.117 1.119 1.104 1.019 0.914 1.054 0.924 1.052 1.109 1.094 1.044 1.049 1.034 1.042 1.047 1.017 1.017 1.009 0.999 1.007 1.012 1.024 0.964 0.902 0.914 0.924 0.949 0.939 0.919 0.947
1.959 2.496 2.059 1.455 0.688 0.218 0.248 0.281 0.289 0.289 0.201 0.166 0.149 0.051 -0.034 0.016 -0.059 -0.091 -0.156 -0.071 -0.166 -0.116 -0.161 -0.096 -0.109 -0.101 -0.064 0.049 0.131 0.239 0.216 0.071 0.046 -0.116 0.082 0.329 0.452 0.534 0.549 0.572 0.537 0.539 0.589 0.597 0.574 0.552 0.557 0.569 0.569 0.564 0.562 0.587 0.584 0.579 0.582 0.577 0.564 0.554 0.554 0.497 0.482 0.447 0.427 0.399 0.344 0.259 0.209 0.279 0.354 0.439 0.459 0.469 0.489 0.512 0.507 0.507 0.492 0.457 0.442 0.489 0.522 0.522 0.527 0.544 0.544 0.532 0.517 0.499 0.492 0.434 0.459 0.432 0.417 0.442 0.427 0.399 0.362 0.344 0.339 0.332 0.327 0.337 0.369 0.364 0.332 0.354 0.359 0.334 0.339 0.364 0.379 0.382 0.384 0.389 0.439 0.404 0.404 0.404 0.434 0.459 0.462 0.469 0.492 0.509 0.512 0.539 0.539 0.569 0.564 0.602 0.714 0.697 0.654 0.667 0.642 0.577 0.572 0.612 0.617 0.617 0.614 0.637 0.659 0.662 0.689 0.667 0.709 0.699 0.684 0.682 0.672 0.652 0.679 0.702 0.717 0.699 0.722 0.762 0.764 0.727 0.687 0.669 0.674 0.662 0.657 0.647 0.629 0.624 0.654 0.669 0.692 0.674 0.704 0.702 0.707 0.679 0.664 0.674 0.707 0.677 0.709 0.727 0.727 0.742 0.722 0.724 0.737 0.749 0.752 0.739 0.754 0.749 0.762 0.759 0.749 0.754 0.742 0.759 0.764 0.764 0.767 0.759 0.787 0.794 0.787 0.789 0.764 0.769 0.762 0.739 0.739 0.732 0.742 0.729 0.734 0.749 0.749 0.739 0.747 0.734 0.737 0.762 0.767 0.762 0.782 0.777 0.809 0.777 0.764 0.774 0.752 0.764 0.784 0.769 0.767 0.764 0.754 0.749 0.762 0.794 0.772 0.789 0.779 0.757 0.769 0.769 0.747 0.747 0.754 0.749 0.737 0.727 0.749 0.754 0.764 0.767 0.727 0.767 0.754 0.759 0.744 0.727 0.707 0.712 0.682 0.662 0.674 0.687 0.674 0.674 0.669 0.672 0.684 0.697 0.697 0.724 0.729 0.727 0.707 0.714 0.694 0.717 0.727 0.744 0.737 0.749 0.764 0.772 0.792 0.779 0.749 0.742 0.819 0.827 0.819 0.829 0.847 0.897 0.932 0.964 0.929 0.917 0.934 0.924 0.902 0.887 0.897 0.877 0.884 0.897 0.892 0.904 0.879 0.904 0.902 0.897 0.897 0.907 0.907 0.914 0.922 0.902 0.914 0.929 0.934 0.929 0.947 0.939 0.939 0.919 0.927 0.902 0.932 0.917 0.907 0.909 0.932 0.934 0.927 0.937 0.942 0.912 0.932 0.917 0.939 0.922 0.914 0.902 0.882 0.919 0.924 0.934 0.937 0.954 0.932 0.942 0.962 0.974 0.984 0.999 0.987 0.977 1.002 0.984 0.999 1.007 1.022 1.029 1.024 1.034 1.064 1.074 1.109 1.092 1.107 1.079 1.122 1.112 1.129 1.177 1.184 1.204 1.249 1.252 1.257 1.302 1.309 1.374 1.407 1.492 1.472 1.462 2.229 2.597 1.684 1.904 2.357 2.752 2.852 2.702 3.019 2.582 2.897 2.112 2.174 1.994 2.009 1.902 1.919 1.762 1.842 3.772 2.557 1.817 1.824 1.849 2.009 2.177 1.847 1.802 1.782 1.777 1.767 2.299 1.807 1.692 1.687 1.652 1.687 1.777 1.987 2.517 1.784 2.104 2.887 4.724 1.517 1.402 1.612 2.302 1.759 1.302 1.284 1.237 1.209 1.177 1.169 1.174 1.172 1.142 1.142 1.139 1.169 1.012 0.852 1.069 0.917 1.062 1.127 1.109 1.092 1.084 1.067 1.089 1.079 1.064 1.032 1.004 1.002 1.014 1.017 1.024 0.984 0.917 0.924 0.922 0.919 0.924 0.954 0.954
0.628 1.384 1.25 0.56 0.257 0.217 0.224 0.224 0.254 0.226 0.196 0.194 0.154 0.094 0.074 -0.131 -0.094 0.026 0.014 0.034 0.139 0.136 0.136 -0.031 -0.101 -0.064 -0.009 0.064 0.241 0.334 0.419 0.169 -0.069 -0.099 0.114 0.282 0.437 0.524 0.514 0.549 0.604 0.607 0.589 0.587 0.559 0.542 0.539 0.577 0.559 0.557 0.549 0.549 0.594 0.579 0.562 0.557 0.519 0.529 0.509 0.494 0.477 0.399 0.379 0.369 0.297 0.202 0.237 0.314 0.404 0.507 0.499 0.549 0.534 0.547 0.519 0.509 0.497 0.444 0.459 0.489 0.504 0.524 0.539 0.534 0.522 0.524 0.489 0.489 0.482 0.452 0.502 0.417 0.407 0.414 0.414 0.379 0.364 0.372 0.357 0.369 0.354 0.342 0.339 0.349 0.324 0.342 0.344 0.337 0.354 0.382 0.389 0.377 0.399 0.392 0.407 0.427 0.452 0.459 0.457 0.497 0.497 0.522 0.577 0.562 0.569 0.569 0.609 0.587 0.547 0.587 0.977 0.899 0.649 0.602 0.664 0.612 0.572 0.579 0.602 0.624 0.647 0.669 0.679 0.687 0.714 0.737 0.689 0.669 0.639 0.677 0.634 0.662 0.692 0.677 0.654 0.674 0.699 0.734 0.752 0.732 0.737 0.692 0.709 0.684 0.662 0.629 0.657 0.649 0.659 0.682 0.702 0.679 0.702 0.697 0.704 0.682 0.679 0.669 0.709 0.727 0.734 0.767 0.757 0.747 0.752 0.754 0.752 0.757 0.757 0.774 0.774 0.749 0.754 0.792 0.794 0.782 0.797 0.792 0.822 0.799 0.767 0.762 0.797 0.817 0.794 0.782 0.762 0.797 0.789 0.764 0.759 0.754 0.759 0.742 0.742 0.752 0.737 0.749 0.744 0.754 0.747 0.754 0.787 0.784 0.769 0.799 0.822 0.829 0.804 0.792 0.804 0.802 0.794 0.779 0.759 0.782 0.772 0.782 0.799 0.779 0.784 0.777 0.777 0.769 0.762 0.759 0.739 0.757 0.759 0.757 0.754 0.724 0.742 0.769 0.764 0.749 0.757 0.759 0.764 0.777 0.777 0.742 0.717 0.704 0.689 0.672 0.664 0.664 0.677 0.667 0.702 0.697 0.702 0.707 0.719 0.732 0.744 0.742 0.724 0.727 0.719 0.739 0.764 0.757 0.784 0.767 0.799 0.807 0.812 0.799 0.787 0.752 0.782 0.824 0.854 0.884 0.894 0.912 0.944 0.989 0.942 0.924 0.949 0.929 0.899 0.892 0.909 0.904 0.912 0.907 0.887 0.904 0.904 0.932 0.924 0.947 0.919 0.929 0.949 0.937 0.927 0.942 0.949 0.957 0.952 0.962 0.952 0.934 0.939 0.904 0.917 0.942 0.947 0.914 0.929 0.929 0.947 0.929 0.972 0.979 0.949 0.964 0.967 0.949 0.929 0.937 0.947 0.934 0.919 0.942 0.932 0.932 0.969 0.972 0.989 0.972 1.004 0.984 0.989 0.982 0.997 0.994 0.974 0.982 1.002 1.027 1.084 1.079 1.044 1.062 1.107 1.114 1.124 1.109 1.137 1.162 1.184 1.172 1.197 1.224 1.217 1.239 1.254 1.304 1.392 1.489 1.534 1.572 1.934 2.087 2.072 2.879 5.614 3.629 3.092 2.909 2.864 2.819 2.082 2.999 3.649 3.712 2.162 1.949 2.029 2.159 2.634 2.092 2.059 2.229 4.109 2.864 2.304 3.029 3.832 3.327 3.252 3.129 2.237 2.127 2.159 2.099 2.122 2.587 2.747 2.379 2.062 1.892 1.799 1.899 1.842 1.714 1.722 2.272 3.629 3.579 2.424 3.149 3.504 3.582 4.242 1.397 2.394 2.229 1.314 1.287 1.234 1.217 1.212 1.174 1.174 1.237 1.242 1.024 0.902 0.877 0.959 1.044 1.139 1.134 1.122 1.117 1.102 1.112 1.104 1.087 1.049 1.039 1.032 1.027 1.022 1.052 0.989 0.942 0.959 0.937 0.959 0.947 0.962 0.982
0.224 0.437 0.375 0.276 0.242 0.229 0.191 0.179 0.179 0.209 0.206 0.206 0.176 0.221 0.094 -0.174 0.009 0.184 0.184 0.289 0.286 0.161 0.104 0.049 0.019 0.049 0.046 0.206 0.316 0.386 0.481 0.224 -0.141 -0.159 0.089 0.242 0.404 0.507 0.487 0.507 0.537 0.582 0.574 0.557 0.539 0.542 0.539 0.539 0.564 0.569 0.572 0.559 0.549 0.559 0.549 0.547 0.514 0.474 0.417 0.377 0.342 0.314 0.272 0.267 0.224 0.214 0.269 0.309 0.462 0.559 0.564 0.587 0.604 0.614 0.527 0.522 0.489 0.449 0.467 0.487 0.532 0.544 0.549 0.522 0.492 0.524 0.514 0.494 0.479 0.479 0.469 0.442 0.434 0.444 0.449 0.412 0.379 0.392 0.382 0.372 0.384 0.367 0.349 0.372 0.314 0.364 0.327 0.324 0.364 0.379 0.407 0.394 0.429 0.452 0.449 0.467 0.482 0.484 0.484 0.524 0.567 0.567 0.614 0.597 0.584 0.589 0.604 0.592 0.574 0.579 0.857 0.922 0.859 0.787 0.697 0.577 0.592 0.602 0.627 0.672 0.667 0.677 0.672 0.694 0.699 0.702 0.672 0.669 0.664 0.662 0.712 0.714 0.732 0.709 0.719 0.694 0.679 0.694 0.702 0.704 0.724 0.714 0.687 0.757 0.707 0.657 0.662 0.672 0.674 0.707 0.704 0.732 0.697 0.684 0.694 0.687 0.697 0.714 0.742 0.767 0.772 0.762 0.757 0.757 0.754 0.764 0.774 0.772 0.782 0.772 0.782 0.764 0.784 0.809 0.834 0.797 0.772 0.794 0.799 0.797 0.777 0.759 0.794 0.797 0.792 0.784 0.779 0.782 0.767 0.769 0.772 0.737 0.754 0.747 0.734 0.754 0.759 0.757 0.754 0.754 0.749 0.744 0.792 0.787 0.802 0.819 0.819 0.839 0.854 0.847 0.834 0.849 0.839 0.839 0.819 0.817 0.812 0.812 0.797 0.817 0.804 0.789 0.807 0.789 0.777 0.787 0.789 0.792 0.774 0.767 0.777 0.759 0.774 0.782 0.777 0.767 0.772 0.779 0.764 0.787 0.759 0.737 0.702 0.699 0.709 0.682 0.699 0.699 0.704 0.689 0.719 0.722 0.744 0.739 0.737 0.747 0.767 0.762 0.774 0.772 0.759 0.774 0.794 0.779 0.799 0.784 0.789 0.814 0.834 0.839 0.817 0.804 0.784 0.842 0.867 0.909 0.929 0.964 0.992 1.017 0.967 0.939 0.967 0.947 0.924 0.919 0.942 0.929 0.949 0.942 0.939 0.942 0.927 0.937 0.939 0.962 0.977 0.957 0.964 0.969 0.967 0.972 0.952 0.962 0.984 0.954 0.947 0.972 0.969 0.939 0.929 0.949 0.949 0.964 0.974 0.964 0.972 0.967 0.974 0.999 0.982 0.979 0.992 0.972 0.962 0.969 0.972 0.967 0.954 0.972 1.004 0.977 0.979 0.964 0.969 0.994 0.999 1.002 1.012 1.007 1.019 1.004 1.002 1.017 1.004 1.037 1.072 1.089 1.099 1.129 1.139 1.159 1.174 1.177 1.199 1.229 1.244 1.242 1.249 1.269 1.259 1.307 1.279 1.322 2.382 2.132 3.022 3.097 3.079 2.649 2.219 1.882 1.804 1.824 3.679 2.462 2.299 2.402 2.397 2.467 3.169 4.364 5.649 3.267 3.342 2.772 2.902 2.824 2.779 2.869 2.864 2.942 2.919 2.949 2.997 3.479 4.102 4.322 3.099 2.944 2.812 2.739 3.152 2.777 3.839 2.912 2.712 2.774 3.267 5.594 2.872 2.192 2.092 2.334 1.947 1.822 2.369 3.877 3.892 2.689 2.872 1.792 2.762 2.239 1.437 1.357 1.357 1.322 1.309 1.269 1.254 1.249 1.282 1.114 1.224 1.182 1.279 1.124 1.122 1.149 1.127 1.124 1.134 1.144 1.167 1.132 1.124 1.092 1.079 1.064 1.044 1.034 1.032 0.969 0.987 0.977 0.974 0.964 0.977 1.012
0.222 0.212 0.273 0.31 0.234 0.181 0.164 0.161 0.144 0.159 0.126 0.091 0.176 0.249 -0.011 -0.111 0.099 0.354 0.296 0.159 0.186 0.321 0.216 0.111 0.064 0.086 0.091 0.231 0.466 0.646 0.534 0.004 -0.191 -0.154 0.012 0.119 0.294 0.419 0.464 0.494 0.527 0.534 0.574 0.577 0.574 0.549 0.529 0.552 0.544 0.587 0.552 0.529 0.542 0.522 0.519 0.497 0.492 0.409 0.289 0.229 0.207 0.179 0.164 0.202 0.227 0.244 0.282 0.319 0.487 0.542 0.554 0.549 0.627 0.644 0.579 0.537 0.512 0.482 0.459 0.484 0.519 0.542 0.532 0.497 0.497 0.519 0.507 0.474 0.482 0.464 0.447 0.444 0.449 0.437 0.432 0.392 0.407 0.429 0.394 0.392 0.384 0.359 0.349 0.362 0.352 0.362 0.342 0.337 0.362 0.394 0.397 0.382 0.447 0.462 0.454 0.464 0.512 0.517 0.557 0.572 0.582 0.582 0.619 0.632 0.592 0.567 0.574 0.604 0.617 0.609 0.662 0.782 0.937 0.782 0.624 0.622 0.619 0.634 0.664 0.684 0.682 0.689 0.709 0.712 0.699 0.654 0.694 0.699 0.679 0.687 0.729 0.774 0.779 0.772 0.757 0.769 0.749 0.714 0.774 0.759 0.737 0.742 0.724 0.739 0.727 0.722 0.732 0.717 0.709 0.697 0.729 0.739 0.719 0.699 0.704 0.712 0.752 0.749 0.744 0.747 0.757 0.772 0.747 0.769 0.779 0.772 0.782 0.779 0.774 0.782 0.779 0.789 0.797 0.809 0.809 0.804 0.787 0.787 0.784 0.792 0.787 0.777 0.759 0.802 0.787 0.794 0.787 0.764 0.772 0.779 0.762 0.744 0.719 0.724 0.732 0.722 0.754 0.737 0.744 0.724 0.772 0.779 0.779 0.784 0.782 0.809 0.824 0.814 0.869 0.849 0.847 0.849 0.842 0.844 0.819 0.819 0.824 0.824 0.812 0.822 0.827 0.817 0.812 0.827 0.817 0.834 0.829 0.827 0.792 0.789 0.782 0.797 0.774 0.782 0.802 0.784 0.792 0.789 0.797 0.797 0.764 0.767 0.734 0.729 0.712 0.734 0.699 0.727 0.737 0.727 0.729 0.742 0.747 0.767 0.779 0.774 0.757 0.782 0.802 0.802 0.789 0.782 0.794 0.802 0.814 0.809 0.807 0.799 0.824 0.864 0.849 0.834 0.839 0.844 0.852 0.932 0.964 0.992 1.039 1.014 0.999 0.964 0.957 0.972 0.944 0.959 0.964 0.962 0.959 0.944 0.969 0.967 0.967 0.959 0.957 0.972 0.952 0.954 0.979 0.972 0.997 0.979 0.989 0.999 0.994 0.992 0.987 0.974 0.962 0.972 0.967 0.977 0.984 0.987 0.989 0.962 0.974 0.969 0.987 0.977 1.004 1.007 0.992 0.997 0.972 0.967 0.982 0.982 0.982 0.969 1.022 0.984 0.979 0.982 0.989 1.004 1.019 1.012 1.027 1.022 1.029 1.019 1.039 1.052 1.052 1.077 1.119 1.164 1.147 1.194 1.197 1.177 1.212 1.242 1.244 1.234 1.239 1.277 1.304 1.309 1.399 1.589 1.974 3.057 4.234 3.834 1.612 1.659 1.782 1.844 1.829 1.942 2.294 2.427 2.339 2.494 2.827 2.889 2.649 3.344 3.162 3.424 3.917 6.059 4.302 4.817 3.844 3.597 3.734 3.877 3.549 3.377 3.332 3.324 3.337 3.469 3.734 3.884 3.727 4.369 3.612 3.507 3.494 3.334 4.107 3.512 3.429 4.342 3.274 2.962 2.889 2.729 3.322 3.209 2.424 2.232 3.864 3.512 4.929 4.147 3.024 2.509 3.287 3.509 3.299 4.127 3.229 2.292 1.372 1.337 1.292 1.269 1.232 1.177 1.407 1.347 1.394 1.299 1.179 1.162 1.114 1.132 1.162 1.152 1.162 1.179 1.147 1.129 1.117 1.102 1.087 1.084 1.062 1.027 1.032 1.019 1.004 0.984 1.022 1.057
0.254 0.276 0.251 0.236 0.184 0.134 0.099 0.081 0.061 0.041 0.011 -0.049 0.026 0.091 0.024 0.104 0.221 0.296 0.196 0.166 0.156 0.371 0.361 0.189 0.179 0.166 0.186 0.416 0.661 0.954 0.489 0.071 -0.069 -0.121 0.029 0.032 0.267 0.364 0.442 0.504 0.567 0.559 0.569 0.574 0.567 0.554 0.557 0.587 0.594 0.579 0.544 0.532 0.512 0.497 0.497 0.444 0.407 0.272 0.182 0.152 0.177 0.132 0.109 0.207 0.237 0.269 0.299 0.324 0.462 0.504 0.564 0.577 0.602 0.644 0.584 0.542 0.524 0.489 0.492 0.509 0.487 0.502 0.519 0.492 0.512 0.544 0.507 0.462 0.457 0.462 0.437 0.424 0.442 0.437 0.439 0.407 0.429 0.427 0.412 0.384 0.389 0.389 0.362 0.334 0.364 0.379 0.364 0.342 0.344 0.399 0.409 0.422 0.447 0.472 0.457 0.472 0.512 0.529 0.564 0.567 0.582 0.609 0.629 0.604 0.584 0.589 0.597 0.609 0.642 0.642 0.622 0.644 0.667 0.622 0.622 0.612 0.627 0.644 0.667 0.689 0.707 0.707 0.732 0.732 0.722 0.682 0.707 0.724 0.714 0.737 0.762 0.819 0.814 0.814 0.782 0.787 0.772 0.779 0.772 0.779 0.777 0.774 0.749 0.759 0.762 0.744 0.747 0.742 0.734 0.747 0.762 0.739 0.724 0.709 0.697 0.707 0.754 0.762 0.764 0.782 0.769 0.772 0.794 0.772 0.774 0.797 0.797 0.779 0.764 0.797 0.802 0.814 0.804 0.822 0.829 0.822 0.792 0.777 0.767 0.774 0.769 0.724 0.742 0.742 0.762 0.784 0.777 0.759 0.774 0.759 0.744 0.759 0.732 0.734 0.734 0.722 0.749 0.734 0.727 0.744 0.739 0.767 0.757 0.759 0.764 0.789 0.792 0.787 0.822 0.832 0.859 0.842 0.854 0.849 0.824 0.824 0.822 0.827 0.819 0.807 0.827 0.809 0.799 0.792 0.789 0.807 0.812 0.824 0.799 0.799 0.804 0.784 0.784 0.777 0.807 0.814 0.807 0.804 0.814 0.799 0.782 0.799 0.757 0.747 0.754 0.764 0.759 0.759 0.742 0.742 0.772 0.757 0.779 0.779 0.792 0.797 0.799 0.792 0.807 0.822 0.839 0.802 0.797 0.829 0.834 0.834 0.852 0.869 0.864 0.882 0.879 0.887 0.879 0.877 0.892 0.932 0.974 0.992 1.027 1.012 1.009 0.982 0.987 0.989 0.967 0.969 0.974 0.969 0.972 0.994 0.994 0.994 0.982 0.967 0.967 0.979 0.992 1.004 0.999 1.024 1.024 1.002 1.014 1.022 0.984 0.987 0.969 0.982 0.962 0.989 0.999 1.007 0.989 1.009 1.009 1.002 1.009 1.012 1.007 0.999 0.989 0.994 0.997 1.014 1.014 1.014 1.002 1.009 1.009 0.992 1.014 0.989 1.012 1.039 1.029 1.037 1.049 1.067 1.062 1.059 1.092 1.084 1.104 1.112 1.107 1.082 1.124 1.167 1.222 1.214 1.197 1.222 1.237 1.279 1.252 1.224 1.262 1.307 1.432 1.587 3.702 2.477 4.634 5.564 9.839 5.769 2.237 6.892 3.947 2.227 2.397 2.702 2.782 3.019 3.344 3.292 3.939 3.789 3.379 3.544 3.849 4.072 4.587 5.282 4.669 4.819 4.792 4.539 7.584 5.302 4.147 4.067 4.487 4.227 5.752 8.327 8.917 4.182 4.269 4.219 4.169 4.049 3.999 3.942 3.977 3.834 3.994 3.967 4.177 3.602 3.754 4.677 4.832 5.822 4.732 3.079 4.897 3.892 3.777 3.504 3.112 2.499 2.662 3.672 5.657 6.294 4.404 4.892 1.972 1.892 1.707 1.507 1.229 1.159 1.159 1.329 1.474 1.469 1.299 1.292 1.207 1.202 1.172 1.149 1.124 1.119 1.129 1.114 1.114 1.124 1.129 1.099 1.119 1.097 1.084 1.042 1.044 1.049 1.067 1.087
0.275 0.251 0.239 0.161 0.076 -0.006 -0.009 -0.041 -0.021 0.091 0.166 -0.006 0.049 0.179 0.174 0.126 0.194 0.251 0.176 0.189 0.216 0.251 0.264 0.274 0.284 0.241 0.274 0.629 0.904 0.854 0.334 0.056 -0.101 -0.016 0.072 0.064 0.209 0.362 0.442 0.532 0.607 0.589 0.592 0.579 0.567 0.572 0.549 0.569 0.579 0.579 0.524 0.517 0.482 0.437 0.354 0.257 0.187 0.144 0.117 0.169 0.197 0.187 0.127 0.144 0.194 0.249 0.289 0.384 0.444 0.517 0.567 0.559 0.559 0.574 0.567 0.537 0.444 0.452 0.482 0.509 0.497 0.512 0.509 0.524 0.517 0.534 0.519 0.412 0.407 0.404 0.379 0.402 0.409 0.419 0.429 0.412 0.472 0.447 0.399 0.402 0.369 0.332 0.362 0.362 0.369 0.372 0.372 0.357 0.372 0.399 0.407 0.439 0.462 0.499 0.522 0.524 0.554 0.569 0.594 0.614 0.624 0.652 0.609 0.609 0.624 0.642 0.587 0.617 0.647 0.657 0.644 0.594 0.604 0.624 0.634 0.664 0.682 0.677 0.692 0.732 0.694 0.729 0.729 0.734 0.722 0.722 0.747 0.749 0.769 0.787 0.832 0.817 0.829 0.809 0.809 0.802 0.792 0.794 0.847 0.837 0.797 0.814 0.787 0.784 0.804 0.789 0.777 0.767 0.762 0.779 0.744 0.762 0.727 0.729 0.754 0.769 0.734 0.739 0.782 0.794 0.784 0.794 0.797 0.784 0.799 0.822 0.809 0.817 0.797 0.802 0.812 0.809 0.792 0.807 0.809 0.797 0.789 0.757 0.767 0.799 0.782 0.754 0.747 0.767 0.799 0.802 0.794 0.787 0.789 0.779 0.757 0.764 0.774 0.754 0.767 0.739 0.754 0.752 0.772 0.777 0.762 0.752 0.734 0.737 0.734 0.747 0.767 0.759 0.747 0.769 0.792 0.799 0.829 0.832 0.837 0.837 0.824 0.832 0.829 0.822 0.834 0.804 0.787 0.784 0.767 0.807 0.809 0.787 0.799 0.784 0.777 0.782 0.777 0.804 0.794 0.824 0.812 0.814 0.797 0.782 0.787 0.754 0.752 0.749 0.774 0.787 0.804 0.784 0.804 0.797 0.812 0.802 0.792 0.799 0.824 0.834 0.819 0.827 0.842 0.852 0.862 0.839 0.839 0.864 0.872 0.872 0.874 0.862 0.859 0.902 0.897 0.897 0.894 0.932 0.922 0.932 0.967 1.024 1.029 1.019 1.022 1.012 0.999 0.989 1.014 1.004 1.019 1.012 0.997 1.004 0.999 0.997 0.989 0.989 0.997 0.999 1.014 1.027 1.009 1.012 1.004 1.002 1.017 0.999 1.022 1.009 1.004 1.004 1.004 1.014 1.017 1.007 1.014 1.009 1.029 1.009 0.999 1.022 1.009 1.019 1.014 1.007 1.022 1.004 1.024 1.014 0.989 1.027 1.029 1.047 1.054 1.044 1.042 1.057 1.054 1.089 1.077 1.089 1.117 1.117 1.132 1.117 1.122 1.144 1.137 1.102 1.084 1.167 1.227 1.192 1.209 1.227 1.227 1.262 1.302 1.264 1.494 2.422 2.187 2.249 2.077 1.737 1.924 5.767 3.224 2.464 2.752 5.044 3.294 3.069 4.477 3.167 3.192 3.592 4.227 4.184 4.149 5.182 3.877 3.959 4.739 4.924 4.699 4.502 4.764 4.797 5.304 5.492 7.042 4.892 4.357 4.372 4.297 4.357 5.444 4.317 4.382 4.434 4.427 4.392 4.362 4.359 4.309 4.279 4.277 4.237 4.234 4.204 4.137 4.094 4.019 4.077 4.049 5.309 4.372 5.897 6.067 4.794 4.144 4.172 5.277 3.239 2.422 3.202 5.822 4.577 2.552 3.719 2.727 3.922 3.247 3.292 1.687 1.252 1.122 1.129 1.337 1.357 1.274 1.292 1.319 1.267 1.222 1.204 1.192 1.159 1.132 1.112 1.132 1.109 1.084 1.104 1.139 1.147 1.097 1.054 1.069 1.079 1.087 1.079
0.206 0.144 0.074 -0.004 -0.001 0.094 0.084 0.086 0.079 0.131 0.174 0.176 0.276 0.304 0.321 0.264 0.241 0.254 0.229 0.274 0.279 0.299 0.269 0.321 0.286 0.279 0.339 0.409 0.549 0.701 0.171 -0.091 -0.181 -0.001 0.069 0.114 0.267 0.357 0.459 0.517 0.634 0.654 0.612 0.599 0.559 0.574 0.537 0.547 0.582 0.547 0.517 0.477 0.424 0.267 0.162 0.109 0.062 0.042 0.057 0.102 0.164 0.204 0.227 0.167 0.167 0.194 0.227 0.307 0.374 0.492 0.534 0.557 0.527 0.554 0.524 0.462 0.354 0.364 0.414 0.457 0.502 0.512 0.492 0.499 0.519 0.544 0.474 0.384 0.379 0.379 0.359 0.397 0.402 0.379 0.407 0.427 0.439 0.459 0.404 0.379 0.364 0.337 0.364 0.374 0.379 0.392 0.399 0.372 0.349 0.379 0.434 0.487 0.492 0.547 0.562 0.544 0.572 0.589 0.622 0.629 0.627 0.597 0.599 0.647 0.644 0.672 0.657 0.629 0.619 0.644 0.654 0.597 0.614 0.649 0.674 0.649 0.692 0.747 0.757 0.734 0.737 0.757 0.742 0.739 0.777 0.747 0.784 0.809 0.832 0.822 0.852 0.844 0.824 0.827 0.829 0.839 0.854 0.872 0.872 0.889 0.857 0.829 0.814 0.847 0.814 0.797 0.787 0.769 0.742 0.754 0.769 0.752 0.737 0.734 0.757 0.759 0.757 0.764 0.794 0.809 0.814 0.799 0.817 0.789 0.787 0.812 0.819 0.829 0.807 0.812 0.789 0.799 0.792 0.807 0.817 0.819 0.832 0.814 0.824 0.817 0.797 0.799 0.792 0.777 0.797 0.809 0.824 0.824 0.817 0.817 0.799 0.777 0.764 0.779 0.762 0.754 0.764 0.769 0.767 0.772 0.772 0.772 0.784 0.782 0.762 0.772 0.792 0.777 0.767 0.762 0.759 0.764 0.754 0.757 0.782 0.792 0.784 0.799 0.787 0.782 0.799 0.784 0.754 0.779 0.779 0.784 0.789 0.804 0.789 0.779 0.767 0.752 0.749 0.757 0.794 0.799 0.787 0.792 0.779 0.784 0.784 0.769 0.762 0.757 0.797 0.799 0.807 0.799 0.827 0.817 0.812 0.822 0.799 0.817 0.837 0.834 0.824 0.819 0.839 0.872 0.864 0.857 0.874 0.879 0.894 0.907 0.879 0.857 0.849 0.894 0.909 0.899 0.914 0.964 0.967 0.974 0.987 1.004 1.024 1.034 1.037 1.019 1.039 1.034 1.022 1.047 1.052 1.019 1.042 1.057 1.019 1.004 1.019 0.994 1.022 1.027 1.042 1.012 1.024 1.022 1.024 1.047 1.042 1.029 1.029 1.027 1.007 1.019 1.039 1.039 1.024 1.019 1.047 1.034 1.029 1.034 1.029 1.034 1.024 1.037 1.042 1.029 1.019 1.009 1.067 1.019 1.049 1.089 1.089 1.087 1.077 1.089 1.112 1.087 1.119 1.129 1.129 1.129 1.142 1.164 1.157 1.162 1.172 1.169 1.142 1.069 1.032 1.127 1.179 1.149 1.207 1.264 1.372 1.434 1.547 1.669 1.687 2.022 2.427 2.089 1.774 1.887 2.114 2.897 4.257 2.952 3.934 4.747 3.192 5.322 4.702 3.544 4.604 5.487 4.297 4.487 4.442 4.272 4.154 4.592 5.137 4.897 4.674 4.659 4.942 4.917 5.149 4.869 4.544 4.559 4.557 4.534 4.504 4.489 4.462 4.449 4.439 4.437 4.422 4.444 4.407 4.392 4.417 4.429 4.427 4.409 4.409 4.397 4.344 4.297 4.282 4.237 4.189 4.159 4.122 4.329 4.409 4.369 4.204 4.334 4.787 4.807 5.407 4.849 5.417 5.959 2.877 3.739 4.154 2.897 3.219 4.574 4.162 2.274 1.552 1.634 1.604 1.272 1.347 1.377 1.339 1.314 1.282 1.294 1.264 1.222 1.222 1.194 1.182 1.144 1.109 1.089 1.094 1.102 1.087 1.089 1.089 1.087 1.124 1.099
0.141 0.151 0.149 0.181 0.224 0.266 0.279 0.309 0.331 0.356 0.314 0.384 0.414 0.419 0.424 0.416 0.394 0.394 0.369 0.331 0.296 0.294 0.299 0.334 0.324 0.289 0.336 0.304 0.361 0.346 0.046 -0.144 -0.039 0.044 0.089 0.189 0.284 0.399 0.477 0.519 0.562 0.642 0.622 0.554 0.544 0.567 0.562 0.512 0.524 0.509 0.482 0.427 0.314 0.109 0.054 0.057 0.059 0.054 0.072 0.049 0.109 0.189 0.269 0.234 0.219 0.197 0.142 0.189 0.282 0.419 0.527 0.522 0.507 0.492 0.499 0.387 0.299 0.292 0.367 0.382 0.424 0.459 0.469 0.484 0.537 0.537 0.467 0.399 0.392 0.399 0.404 0.414 0.414 0.384 0.402 0.397 0.412 0.404 0.372 0.352 0.364 0.354 0.372 0.387 0.387 0.379 0.377 0.357 0.364 0.404 0.459 0.497 0.529 0.562 0.574 0.579 0.607 0.629 0.632 0.627 0.612 0.619 0.639 0.644 0.667 0.664 0.664 0.669 0.649 0.639 0.629 0.604 0.614 0.659 0.639 0.657 0.667 0.707 0.732 0.734 0.737 0.802 0.799 0.777 0.814 0.824 0.799 0.822 0.844 0.884 0.902 0.919 0.877 0.882 0.869 0.854 0.899 0.887 0.912 0.912 0.892 0.894 0.887 0.877 0.877 0.832 0.824 0.787 0.794 0.757 0.752 0.744 0.752 0.759 0.752 0.739 0.752 0.779 0.794 0.804 0.787 0.797 0.809 0.782 0.812 0.817 0.812 0.852 0.814 0.844 0.807 0.827 0.837 0.834 0.837 0.847 0.854 0.822 0.829 0.814 0.817 0.807 0.812 0.797 0.782 0.792 0.802 0.832 0.817 0.819 0.812 0.797 0.809 0.767 0.774 0.787 0.777 0.789 0.777 0.772 0.772 0.789 0.779 0.794 0.812 0.802 0.812 0.809 0.809 0.809 0.817 0.802 0.787 0.812 0.809 0.824 0.819 0.817 0.832 0.822 0.819 0.802 0.759 0.784 0.769 0.784 0.784 0.762 0.784 0.789 0.792 0.759 0.737 0.744 0.769 0.787 0.789 0.742 0.777 0.749 0.764 0.769 0.739 0.729 0.782 0.809 0.822 0.802 0.809 0.812 0.819 0.819 0.837 0.844 0.852 0.832 0.819 0.842 0.874 0.884 0.887 0.874 0.892 0.909 0.897 0.912 0.879 0.864 0.869 0.904 0.889 0.889 0.939 0.964 0.977 0.992 1.017 1.044 1.067 1.069 1.074 1.044 1.067 1.054 1.047 1.074 1.074 1.057 1.059 1.042 1.042 1.024 1.037 1.042 1.042 1.024 1.039 1.027 1.054 1.062 1.027 1.052 1.022 1.037 1.044 1.029 1.019 1.029 1.047 1.049 1.039 1.017 1.014 1.029 1.029 1.067 1.059 1.059 1.062 1.047 1.067 1.087 1.082 1.049 1.089 1.084 1.072 1.089 1.119 1.124 1.124 1.152 1.137 1.169 1.149 1.149 1.159 1.139 1.154 1.187 1.219 1.222 1.187 1.162 1.144 1.044 1.029 1.072 1.139 1.212 1.424 1.784 1.734 1.782 1.814 2.149 1.992 1.582 1.732 1.894 2.089 3.712 2.669 3.002 3.132 3.492 8.684 7.499 4.427 4.112 6.757 4.434 4.402 4.447 4.439 4.557 4.662 4.584 4.884 5.477 5.417 5.004 4.779 4.814 5.257 5.344 5.039 4.704 4.684 4.704 4.654 4.639 4.612 4.617 4.624 4.574 4.577 4.557 4.544 4.567 4.549 4.564 4.572 4.577 4.607 4.599 4.597 4.559 4.549 4.502 4.454 4.404 4.394 4.312 4.304 4.247 4.252 4.229 4.162 4.072 4.149 4.024 4.984 4.989 4.719 5.469 4.869 4.574 4.029 3.859 4.969 5.232 4.749 6.127 3.312 2.129 3.064 1.732 1.787 1.632 1.454 1.399 1.337 1.359 1.304 1.277 1.272 1.287 1.254 1.257 1.204 1.199 1.152 1.134 1.127 1.117 1.104 1.104 1.134 1.109
0.176 0.239 0.291 0.331 0.341 0.394 0.401 0.419 0.466 0.484 0.454 0.464 0.484 0.459 0.474 0.476 0.516 0.496 0.441 0.401 0.361 0.359 0.376 0.381 0.364 0.346 0.376 0.334 0.344 0.339 0.126 -0.116 -0.089 0.124 0.192 0.269 0.344 0.414 0.462 0.542 0.562 0.582 0.577 0.547 0.544 0.564 0.549 0.504 0.477 0.447 0.359 0.262 0.122 0.059 0.062 0.107 0.134 0.177 0.139 0.069 0.102 0.192 0.299 0.352 0.377 0.287 0.197 0.204 0.227 0.307 0.359 0.422 0.444 0.489 0.484 0.369 0.309 0.324 0.334 0.352 0.374 0.424 0.419 0.487 0.517 0.532 0.509 0.432 0.412 0.404 0.454 0.417 0.377 0.384 0.384 0.357 0.377 0.362 0.374 0.329 0.354 0.387 0.377 0.437 0.424 0.414 0.389 0.372 0.374 0.417 0.462 0.512 0.547 0.584 0.592 0.614 0.624 0.639 0.597 0.634 0.637 0.632 0.642 0.659 0.654 0.617 0.637 0.644 0.649 0.624 0.652 0.647 0.627 0.654 0.652 0.634 0.614 0.702 0.739 0.769 0.787 0.827 0.822 0.819 0.819 0.827 0.839 0.849 0.864 0.859 0.894 0.897 0.909 0.899 0.877 0.864 0.894 0.904 0.924 0.954 0.959 0.949 0.902 0.864 0.822 0.804 0.814 0.804 0.799 0.772 0.792 0.769 0.794 0.772 0.737 0.764 0.764 0.752 0.759 0.769 0.767 0.797 0.804 0.812 0.824 0.834 0.819 0.844 0.849 0.842 0.859 0.839 0.824 0.847 0.849 0.849 0.829 0.847 0.844 0.824 0.812 0.817 0.834 0.814 0.794 0.769 0.782 0.807 0.799 0.794 0.822 0.799 0.799 0.814 0.824 0.814 0.809 0.804 0.794 0.797 0.812 0.812 0.797 0.819 0.814 0.809 0.804 0.822 0.827 0.834 0.839 0.837 0.832 0.832 0.829 0.844 0.842 0.854 0.839 0.837 0.844 0.832 0.817 0.797 0.812 0.822 0.829 0.817 0.832 0.849 0.837 0.802 0.779 0.812 0.787 0.809 0.819 0.814 0.792 0.784 0.777 0.779 0.762 0.762 0.784 0.822 0.854 0.827 0.824 0.817 0.819 0.849 0.834 0.854 0.869 0.844 0.852 0.839 0.889 0.877 0.874 0.884 0.889 0.894 0.892 0.862 0.847 0.832 0.834 0.882 0.889 0.927 0.944 0.977 1.007 1.017 1.042 1.064 1.082 1.097 1.097 1.082 1.074 1.079 1.089 1.079 1.089 1.087 1.074 1.072 1.064 1.067 1.069 1.084 1.069 1.057 1.052 1.059 1.082 1.072 1.059 1.089 1.072 1.072 1.054 1.064 1.092 1.067 1.047 1.077 1.074 1.084 1.089 1.084 1.092 1.099 1.119 1.112 1.099 1.114 1.119 1.114 1.117 1.119 1.117 1.139 1.097 1.129 1.129 1.107 1.139 1.142 1.184 1.199 1.167 1.197 1.177 1.162 1.192 1.214 1.237 1.234 1.274 1.239 1.209 1.074 1.197 1.472 1.344 1.419 1.657 1.904 1.769 1.719 1.549 1.589 1.749 1.857 2.029 2.212 2.652 3.484 3.587 3.964 5.079 7.147 6.674 7.029 5.367 4.514 4.684 4.364 4.417 4.524 4.517 4.519 4.657 4.734 4.819 5.894 5.202 5.034 4.897 4.932 4.947 4.879 4.829 4.844 4.807 4.809 4.794 4.787 4.779 4.762 4.754 4.729 4.699 4.689 4.667 4.674 4.674 4.682 4.729 4.719 4.714 4.729 4.724 4.719 4.697 4.627 4.607 4.594 4.547 4.529 4.472 4.467 4.439 4.384 4.334 4.259 4.209 4.129 3.987 3.847 4.412 3.604 3.967 3.662 3.669 6.437 6.582 4.802 4.912 6.362 3.224 2.834 2.157 3.039 5.847 4.514 2.952 1.827 1.522 2.129 1.369 1.574 1.367 1.307 1.297 1.264 1.229 1.239 1.237 1.214 1.162 1.164 1.167 1.149 1.114 1.132
0.214 0.289 0.359 0.364 0.384 0.409 0.456 0.471 0.481 0.519 0.514 0.519 0.499 0.491 0.511 0.539 0.526 0.509 0.491 0.449 0.414 0.414 0.389 0.376 0.376 0.391 0.371 0.304 0.266 0.209 0.144 0.034 -0.024 0.121 0.209 0.354 0.437 0.467 0.469 0.534 0.559 0.572 0.552 0.552 0.537 0.552 0.517 0.527 0.447 0.307 0.164 0.067 0.032 0.077 0.117 0.177 0.199 0.194 0.192 0.119 0.097 0.182 0.299 0.437 0.502 0.439 0.357 0.329 0.284 0.284 0.319 0.344 0.374 0.399 0.432 0.399 0.349 0.312 0.332 0.329 0.317 0.374 0.394 0.417 0.474 0.489 0.482 0.432 0.424 0.399 0.432 0.392 0.387 0.429 0.392 0.362 0.377 0.387 0.364 0.334 0.362 0.349 0.389 0.389 0.419 0.402 0.382 0.394 0.387 0.422 0.492 0.544 0.607 0.612 0.597 0.667 0.637 0.597 0.614 0.644 0.639 0.617 0.642 0.649 0.652 0.662 0.632 0.629 0.654 0.677 0.667 0.642 0.667 0.677 0.699 0.684 0.667 0.677 0.769 0.844 0.842 0.862 0.887 0.884 0.844 0.852 0.852 0.834 0.832 0.869 0.907 0.917 0.917 0.909 0.919 0.927 0.947 0.939 0.924 0.947 0.952 0.944 0.922 0.867 0.824 0.892 0.907 0.872 0.892 0.827 0.824 0.842 0.824 0.829 0.822 0.832 0.834 0.829 0.817 0.804 0.829 0.824 0.847 0.809 0.809 0.819 0.877 0.877 0.889 0.877 0.882 0.874 0.864 0.859 0.852 0.877 0.859 0.862 0.834 0.832 0.844 0.839 0.837 0.864 0.829 0.797 0.774 0.767 0.784 0.799 0.802 0.807 0.824 0.804 0.814 0.799 0.814 0.822 0.822 0.834 0.837 0.832 0.837 0.837 0.829 0.842 0.829 0.844 0.844 0.842 0.832 0.827 0.832 0.817 0.819 0.852 0.837 0.847 0.839 0.837 0.822 0.834 0.829 0.814 0.819 0.829 0.847 0.832 0.864 0.877 0.854 0.829 0.819 0.802 0.807 0.844 0.864 0.842 0.814 0.819 0.809 0.819 0.804 0.802 0.837 0.852 0.892 0.862 0.859 0.884 0.872 0.854 0.847 0.847 0.887 0.892 0.864 0.859 0.834 0.862 0.874 0.874 0.844 0.864 0.862 0.819 0.814 0.764 0.792 0.794 0.872 0.929 0.909 0.957 0.979 1.024 1.059 1.097 1.114 1.107 1.104 1.114 1.107 1.109 1.097 1.104 1.104 1.084 1.087 1.069 1.074 1.094 1.082 1.082 1.097 1.092 1.092 1.119 1.117 1.099 1.109 1.079 1.089 1.069 1.057 1.089 1.099 1.109 1.099 1.084 1.089 1.102 1.119 1.114 1.132 1.154 1.179 1.144 1.154 1.142 1.147 1.124 1.142 1.162 1.182 1.164 1.167 1.154 1.144 1.169 1.202 1.229 1.254 1.242 1.227 1.219 1.242 1.277 1.257 1.292 1.352 1.369 1.429 1.344 1.212 1.287 2.337 4.379 6.987 2.359 1.692 1.629 1.507 1.672 1.937 2.117 2.172 6.074 5.349 3.804 4.084 6.042 6.484 5.162 6.882 7.012 5.802 4.994 4.489 4.532 4.589 4.577 4.632 4.607 4.632 4.642 4.624 5.347 5.387 5.757 5.047 4.972 5.022 5.027 5.022 5.004 4.944 4.917 4.949 4.947 4.904 4.934 4.912 4.907 4.879 4.877 4.857 4.844 4.857 4.852 4.822 4.832 4.892 4.887 4.854 4.847 4.869 4.847 4.812 4.749 4.714 4.697 4.664 4.657 4.619 4.597 4.592 4.567 4.509 4.447 4.347 4.282 4.177 4.039 3.932 3.839 3.702 3.622 3.602 4.324 4.294 5.674 5.332 3.799 3.599 2.564 2.084 1.994 4.129 4.259 3.439 4.764 3.249 3.354 1.579 2.247 2.602 1.472 1.324 1.329 1.324 1.299 1.274 1.279 1.284 1.272 1.282 1.264 1.202 1.209
0.286 0.354 0.409 0.426 0.436 0.444 0.471 0.476 0.504 0.511 0.491 0.516 0.514 0.544 0.526 0.554 0.551 0.559 0.514 0.466 0.424 0.429 0.414 0.394 0.401 0.426 0.421 0.309 0.281 0.096 0.001 -0.046 -0.031 0.144 0.279 0.407 0.497 0.507 0.519 0.532 0.527 0.549 0.524 0.544 0.542 0.544 0.527 0.507 0.367 0.129 0.014 0.029 0.067 0.154 0.182 0.207 0.199 0.219 0.194 0.202 0.144 0.164 0.272 0.407 0.532 0.554 0.509 0.557 0.477 0.327 0.289 0.327 0.317 0.344 0.379 0.354 0.292 0.274 0.334 0.314 0.327 0.367 0.357 0.367 0.402 0.402 0.449 0.434 0.427 0.377 0.389 0.384 0.447 0.459 0.449 0.407 0.422 0.419 0.367 0.352 0.417 0.394 0.389 0.419 0.417 0.402 0.384 0.374 0.397 0.437 0.509 0.589 0.609 0.617 0.617 0.639 0.599 0.607 0.637 0.647 0.629 0.624 0.634 0.657 0.642 0.642 0.614 0.637 0.664 0.689 0.694 0.644 0.692 0.757 0.752 0.722 0.719 0.767 0.842 0.879 0.882 0.892 0.889 0.902 0.877 0.874 0.857 0.872 0.864 0.919 0.924 0.917 0.942 0.909 0.924 0.949 0.964 0.944 0.934 0.959 0.949 0.917 0.917 0.914 0.919 0.987 0.952 0.924 0.934 0.894 0.884 0.839 0.852 0.874 0.859 0.874 0.894 0.907 0.877 0.869 0.864 0.829 0.869 0.857 0.869 0.877 0.884 0.879 0.899 0.882 0.879 0.882 0.879 0.857 0.877 0.882 0.859 0.857 0.852 0.842 0.857 0.862 0.879 0.879 0.832 0.847 0.812 0.787 0.809 0.789 0.812 0.779 0.787 0.799 0.809 0.814 0.809 0.814 0.782 0.817 0.819 0.817 0.804 0.839 0.842 0.842 0.842 0.864 0.887 0.867 0.857 0.864 0.832 0.834 0.854 0.849 0.864 0.879 0.864 0.857 0.842 0.847 0.827 0.847 0.839 0.847 0.864 0.854 0.872 0.874 0.894 0.859 0.812 0.804 0.827 0.847 0.867 0.859 0.824 0.829 0.812 0.849 0.812 0.839 0.849 0.864 0.882 0.869 0.867 0.869 0.877 0.884 0.872 0.877 0.904 0.922 0.922 0.952 0.937 0.924 0.912 0.927 0.929 0.904 0.914 0.892 0.857 0.862 0.882 0.914 0.937 0.942 0.942 0.974 0.974 1.022 1.092 1.107 1.137 1.159 1.139 1.137 1.157 1.174 1.144 1.132 1.142 1.154 1.132 1.119 1.119 1.129 1.127 1.109 1.089 1.092 1.124 1.127 1.119 1.102 1.122 1.124 1.144 1.144 1.132 1.124 1.117 1.117 1.172 1.127 1.129 1.147 1.149 1.157 1.139 1.164 1.172 1.197 1.199 1.179 1.209 1.179 1.184 1.192 1.224 1.229 1.199 1.207 1.184 1.219 1.269 1.402 1.272 1.352 1.439 1.464 1.472 1.482 1.504 1.464 1.497 1.644 1.639 1.729 1.737 1.902 1.862 8.404 5.209 1.857 2.729 2.099 1.897 2.224 2.909 2.729 2.759 4.682 5.537 5.047 4.872 5.847 6.847 4.802 5.574 4.554 4.584 4.667 4.687 4.689 4.697 4.742 4.699 4.744 4.757 4.727 4.749 5.299 6.164 6.587 5.212 5.099 5.082 5.122 5.109 5.109 5.124 5.099 5.069 5.074 5.064 5.092 5.047 5.034 5.022 5.024 4.997 4.992 4.982 4.992 4.947 4.982 5.012 4.999 4.974 4.962 4.972 4.947 4.939 4.849 4.844 4.802 4.752 4.727 4.709 4.677 4.659 4.662 4.604 4.544 4.517 4.454 4.377 4.247 4.142 4.082 4.014 3.934 3.857 3.774 3.654 3.734 3.674 3.597 4.484 3.982 4.219 9.367 4.599 2.349 2.064 2.827 2.672 3.244 2.584 3.959 1.972 2.267 1.417 1.407 1.409 1.402 1.357 1.339 1.384 1.419 1.404 1.404 1.357 1.309
0.389 0.409 0.426 0.459 0.459 0.479 0.514 0.484 0.509 0.511 0.516 0.491 0.499 0.541 0.544 0.546 0.554 0.551 0.509 0.479 0.431 0.441 0.396 0.386 0.416 0.436 0.424 0.319 0.281 0.211 -0.086 -0.189 0.121 0.164 0.274 0.452 0.582 0.522 0.522 0.529 0.532 0.552 0.547 0.522 0.529 0.529 0.512 0.449 0.239 0.044 0.032 0.094 0.164 0.204 0.212 0.212 0.217 0.224 0.214 0.269 0.204 0.144 0.247 0.419 0.557 0.567 0.567 0.607 0.542 0.489 0.397 0.379 0.314 0.334 0.334 0.309 0.292 0.307 0.289 0.289 0.307 0.322 0.322 0.319 0.337 0.372 0.424 0.412 0.397 0.357 0.369 0.387 0.454 0.482 0.487 0.479 0.444 0.394 0.367 0.407 0.424 0.424 0.414 0.419 0.409 0.397 0.372 0.387 0.422 0.497 0.547 0.587 0.584 0.609 0.617 0.637 0.649 0.627 0.642 0.654 0.624 0.622 0.619 0.604 0.632 0.632 0.627 0.657 0.672 0.677 0.659 0.664 0.709 0.782 0.787 0.772 0.742 0.794 0.844 0.832 0.862 0.877 0.904 0.909 0.917 0.902 0.889 0.919 0.892 0.919 0.934 0.927 0.922 0.937 0.954 0.919 0.974 0.989 0.969 0.937 0.929 0.912 0.969 1.002 1.027 1.017 0.979 0.942 0.924 0.922 0.912 0.864 0.914 0.912 0.884 0.902 0.927 0.912 0.922 0.914 0.889 0.892 0.902 0.892 0.894 0.897 0.894 0.889 0.892 0.882 0.904 0.887 0.884 0.889 0.864 0.887 0.847 0.849 0.857 0.864 0.857 0.867 0.882 0.889 0.872 0.887 0.874 0.819 0.847 0.804 0.817 0.797 0.827 0.839 0.819 0.844 0.819 0.842 0.827 0.824 0.839 0.852 0.842 0.829 0.859 0.864 0.857 0.854 0.874 0.859 0.874 0.882 0.864 0.852 0.857 0.849 0.849 0.877 0.859 0.869 0.872 0.867 0.847 0.854 0.849 0.882 0.887 0.879 0.902 0.902 0.869 0.844 0.827 0.837 0.869 0.879 0.894 0.862 0.842 0.844 0.829 0.817 0.832 0.854 0.884 0.889 0.872 0.892 0.889 0.882 0.867 0.919 0.882 0.927 0.919 0.899 0.914 0.924 0.922 0.902 0.929 0.932 0.922 0.919 0.884 0.899 0.917 0.942 0.952 0.982 0.987 1.004 1.019 1.034 1.034 1.059 1.094 1.089 1.142 1.167 1.164 1.202 1.197 1.204 1.202 1.197 1.177 1.172 1.162 1.164 1.162 1.137 1.147 1.149 1.147 1.114 1.117 1.164 1.164 1.172 1.167 1.154 1.152 1.149 1.157 1.149 1.112 1.149 1.202 1.182 1.149 1.207 1.182 1.189 1.212 1.189 1.229 1.257 1.194 1.204 1.224 1.207 1.227 1.222 1.244 1.232 1.282 1.347 1.307 1.334 2.752 1.587 2.797 2.042 1.554 1.619 1.672 1.797 1.782 1.807 1.744 1.889 1.724 1.907 3.212 1.569 1.714 3.747 2.152 2.369 2.297 2.209 2.617 2.989 3.157 5.697 5.369 4.349 5.869 6.037 4.962 4.992 4.867 4.837 4.792 4.789 4.812 4.837 4.834 4.827 4.814 4.837 4.854 4.877 4.884 4.864 4.902 5.299 5.809 6.167 5.214 5.202 5.194 5.202 5.214 5.247 5.257 5.207 5.209 5.192 5.207 5.202 5.192 5.174 5.159 5.134 5.142 5.117 5.097 5.097 5.069 5.104 5.102 5.124 5.094 5.062 5.067 5.067 5.017 4.969 4.957 4.904 4.927 4.872 4.842 4.792 4.749 4.757 4.717 4.667 4.602 4.579 4.512 4.434 4.367 4.304 4.239 4.179 4.104 4.037 3.947 3.852 3.717 3.612 3.919 5.059 4.694 8.244 4.159 2.847 2.682 3.497 3.129 3.199 2.257 2.349 1.939 1.969 2.754 2.402 1.607 1.472 1.487 1.412 1.439 1.477 1.492 1.592 1.469 1.439
0.456 0.436 0.454 0.456 0.484 0.504 0.506 0.499 0.504 0.511 0.514 0.496 0.501 0.539 0.581 0.589 0.541 0.529 0.471 0.486 0.486 0.544 0.486 0.396 0.401 0.396 0.384 0.269 0.211 0.059 -0.094 -0.186 -0.031 0.156 0.277 0.522 0.599 0.567 0.532 0.559 0.577 0.689 0.622 0.562 0.544 0.514 0.512 0.429 0.187 0.029 0.049 0.169 0.209 0.222 0.212 0.229 0.222 0.222 0.262 0.224 0.182 0.132 0.267 0.462 0.547 0.569 0.574 0.584 0.582 0.567 0.579 0.524 0.387 0.354 0.334 0.347 0.369 0.334 0.337 0.322 0.302 0.299 0.299 0.309 0.344 0.374 0.389 0.394 0.379 0.357 0.372 0.392 0.432 0.444 0.427 0.432 0.379 0.352 0.369 0.397 0.402 0.432 0.417 0.404 0.407 0.402 0.384 0.397 0.437 0.507 0.562 0.569 0.572 0.587 0.624 0.644 0.672 0.652 0.637 0.607 0.612 0.617 0.634 0.629 0.652 0.657 0.672 0.672 0.677 0.629 0.657 0.712 0.734 0.777 0.762 0.789 0.767 0.767 0.852 0.877 0.874 0.899 0.889 0.924 0.912 0.932 0.949 0.932 0.944 0.954 0.944 0.939 0.957 0.979 0.994 0.992 0.979 0.964 0.959 0.949 0.984 1.014 1.044 1.067 1.062 1.049 1.024 1.039 0.962 0.974 0.919 0.949 0.939 0.939 0.894 0.914 0.927 0.952 0.939 0.929 0.927 0.909 0.914 0.889 0.902 0.874 0.889 0.884 0.907 0.884 0.914 0.909 0.904 0.892 0.897 0.874 0.869 0.879 0.884 0.904 0.874 0.877 0.897 0.897 0.897 0.879 0.884 0.869 0.889 0.859 0.844 0.847 0.872 0.859 0.872 0.867 0.872 0.882 0.869 0.832 0.854 0.859 0.879 0.869 0.874 0.884 0.889 0.882 0.869 0.854 0.862 0.847 0.867 0.864 0.862 0.847 0.857 0.857 0.869 0.864 0.852 0.869 0.872 0.854 0.859 0.894 0.904 0.924 0.937 0.884 0.859 0.844 0.867 0.857 0.854 0.859 0.877 0.862 0.839 0.864 0.859 0.864 0.874 0.864 0.872 0.912 0.877 0.879 0.907 0.879 0.887 0.904 0.882 0.914 0.939 0.937 0.934 0.937 0.954 0.929 0.932 0.922 0.917 0.927 0.894 0.932 0.954 0.934 0.964 0.999 1.017 1.034 1.069 1.089 1.109 1.122 1.139 1.142 1.134 1.142 1.162 1.192 1.204 1.209 1.209 1.212 1.207 1.232 1.197 1.187 1.164 1.177 1.142 1.184 1.172 1.189 1.229 1.192 1.199 1.194 1.172 1.154 1.167 1.167 1.184 1.199 1.179 1.167 1.194 1.217 1.234 1.259 1.132 1.239 1.292 1.307 1.457 1.544 1.459 1.549 1.577 1.417 1.419 1.472 1.487 1.387 1.487 1.464 1.712 1.642 2.229 1.874 4.319 2.319 1.904 1.872 1.929 1.744 1.629 1.514 1.442 1.449 1.477 1.667 1.659 1.872 2.254 2.532 2.792 2.867 3.102 3.429 5.434 4.139 4.112 8.124 8.837 4.899 5.299 5.009 5.037 5.027 5.009 5.022 5.014 4.997 4.982 4.997 4.999 4.969 4.954 4.987 4.977 5.022 4.994 4.987 5.202 6.549 5.584 6.447 5.357 5.272 5.317 5.374 5.339 5.359 5.364 5.327 5.359 5.349 5.352 5.342 5.334 5.302 5.304 5.257 5.282 5.269 5.257 5.242 5.229 5.242 5.252 5.282 5.244 5.202 5.212 5.187 5.127 5.079 5.039 5.007 4.982 4.972 4.934 4.909 4.894 4.837 4.799 4.739 4.689 4.664 4.574 4.539 4.502 4.474 4.429 4.359 4.307 4.252 4.149 4.064 3.962 3.819 3.717 3.622 3.517 3.389 3.229 3.102 3.144 3.389 3.462 2.847 2.357 2.332 2.489 2.439 2.189 2.107 2.052 2.207 2.602 1.669 1.599 1.569 1.579 1.567 1.484 1.509
0.481 0.441 0.416 0.444 0.471 0.494 0.479 0.486 0.491 0.506 0.509 0.524 0.491 0.529 0.556 0.536 0.541 0.551 0.594 0.566 0.564 0.516 0.531 0.426 0.381 0.341 0.279 0.194 0.109 0.009 -0.069 -0.179 -0.081 0.079 0.309 0.492 0.507 0.529 0.532 0.549 0.677 0.792 0.702 0.569 0.532 0.504 0.512 0.417 0.182 0.042 0.024 0.134 0.184 0.237 0.294 0.299 0.292 0.254 0.284 0.254 0.222 0.159 0.349 0.507 0.534 0.572 0.567 0.572 0.577 0.569 0.594 0.549 0.449 0.424 0.452 0.487 0.487 0.429 0.432 0.424 0.359 0.309 0.277 0.307 0.379 0.359 0.392 0.432 0.372 0.339 0.367 0.334 0.377 0.387 0.382 0.387 0.382 0.347 0.372 0.427 0.432 0.424 0.424 0.432 0.419 0.444 0.412 0.409 0.464 0.519 0.569 0.579 0.564 0.582 0.612 0.639 0.634 0.634 0.602 0.607 0.609 0.657 0.652 0.649 0.667 0.734 0.684 0.654 0.659 0.672 0.714 0.729 0.762 0.754 0.812 0.832 0.777 0.754 0.857 0.879 0.877 0.904 0.919 0.942 0.954 0.964 0.957 0.972 0.992 1.007 1.039 1.012 1.014 1.009 1.004 0.999 0.997 1.002 1.054 1.047 1.037 1.104 1.074 1.069 1.079 1.064 1.027 1.059 1.007 1.029 1.047 0.972 0.974 0.969 0.949 0.939 0.947 0.957 0.932 0.962 0.942 0.934 0.937 0.929 0.939 0.917 0.892 0.894 0.907 0.917 0.914 0.902 0.892 0.942 0.924 0.909 0.884 0.874 0.879 0.902 0.902 0.899 0.922 0.934 0.904 0.914 0.912 0.909 0.912 0.914 0.912 0.909 0.904 0.909 0.894 0.897 0.882 0.882 0.889 0.864 0.882 0.887 0.899 0.884 0.887 0.872 0.887 0.892 0.922 0.897 0.874 0.864 0.859 0.864 0.899 0.849 0.834 0.847 0.867 0.864 0.872 0.879 0.854 0.844 0.872 0.887 0.892 0.902 0.877 0.889 0.867 0.882 0.882 0.869 0.899 0.869 0.892 0.894 0.879 0.887 0.892 0.879 0.904 0.907 0.919 0.919 0.902 0.917 0.939 0.917 0.919 0.932 0.919 0.942 0.964 0.967 0.942 0.952 0.974 0.937 0.947 0.932 0.922 0.944 0.957 0.969 0.989 0.997 1.007 1.027 1.037 1.067 1.104 1.119 1.124 1.149 1.159 1.187 1.202 1.184 1.179 1.172 1.179 1.194 1.217 1.232 1.239 1.229 1.212 1.204 1.177 1.222 1.197 1.204 1.182 1.204 1.212 1.219 1.204 1.219 1.189 1.182 1.174 1.207 1.247 1.299 1.232 1.284 1.297 1.307 1.412 1.817 2.522 1.472 1.462 1.492 1.922 2.319 2.054 2.369 2.029 1.574 1.639 2.314 2.019 3.352 1.749 1.759 2.059 1.987 1.627 1.769 2.674 1.517 1.484 1.507 1.624 1.444 1.522 1.684 1.757 1.922 1.819 1.882 1.974 2.289 2.827 3.192 3.489 3.594 3.892 4.597 5.554 4.972 7.127 6.142 5.264 5.127 5.132 5.172 5.194 5.194 5.187 5.169 5.169 5.157 5.154 5.134 5.139 5.117 5.109 5.107 5.117 5.124 5.117 5.124 5.247 5.524 5.677 6.197 5.394 5.384 5.437 5.464 5.449 5.489 5.487 5.497 5.522 5.514 5.497 5.489 5.467 5.439 5.417 5.389 5.424 5.419 5.399 5.367 5.377 5.392 5.404 5.412 5.379 5.357 5.337 5.312 5.267 5.222 5.189 5.137 5.089 5.049 5.022 4.997 4.972 4.952 4.909 4.859 4.764 4.747 4.644 4.644 4.574 4.582 4.567 4.504 4.454 4.379 4.312 4.239 4.134 4.039 3.912 3.829 3.709 3.604 3.507 3.397 3.327 3.307 3.214 3.072 2.802 3.387 4.769 7.512 1.994 2.147 2.057 2.284 2.012 2.287 3.722 2.904 1.744 1.612 1.547 1.542
0.479 0.436 0.426 0.444 0.471 0.529 0.501 0.484 0.499 0.474 0.501 0.514 0.521 0.519 0.531 0.546 0.531 0.599 0.636 0.596 0.566 0.494 0.516 0.446 0.351 0.241 0.164 0.089 0.094 0.024 -0.106 -0.111 -0.106 0.064 0.234 0.384 0.479 0.507 0.504 0.494 0.672 0.784 0.682 0.567 0.542 0.547 0.547 0.427 0.229 0.057 -0.003 0.064 0.184 0.304 0.409 0.394 0.329 0.252 0.294 0.297 0.254 0.209 0.362 0.482 0.552 0.552 0.562 0.544 0.562 0.534 0.554 0.512 0.474 0.462 0.482 0.522 0.522 0.497 0.499 0.487 0.467 0.404 0.342 0.299 0.319 0.339 0.369 0.367 0.359 0.347 0.334 0.362 0.394 0.369 0.364 0.387 0.374 0.362 0.389 0.434 0.444 0.439 0.449 0.449 0.472 0.437 0.399 0.422 0.479 0.549 0.569 0.562 0.594 0.597 0.617 0.622 0.614 0.614 0.639 0.652 0.652 0.629 0.679 0.674 0.712 0.727 0.707 0.687 0.659 0.704 0.727 0.752 0.819 0.844 0.822 0.829 0.764 0.779 0.859 0.899 0.909 0.927 0.949 0.937 0.967 0.977 1.012 1.012 1.052 1.069 1.079 1.062 1.032 1.034 0.994 0.999 1.034 1.084 1.107 1.077 1.089 1.127 1.102 1.064 1.077 1.054 1.079 1.057 1.004 1.037 1.012 0.997 0.989 1.004 1.002 1.012 1.012 0.999 0.979 0.984 0.984 0.974 0.972 0.952 0.954 0.944 0.949 0.942 0.929 0.944 0.942 0.902 0.912 0.932 0.937 0.917 0.889 0.907 0.914 0.937 0.942 0.942 0.967 0.954 0.929 0.937 0.924 0.917 0.929 0.947 0.929 0.892 0.892 0.899 0.902 0.902 0.924 0.907 0.904 0.897 0.872 0.882 0.874 0.872 0.882 0.899 0.912 0.904 0.894 0.902 0.904 0.897 0.902 0.897 0.907 0.884 0.877 0.869 0.867 0.887 0.872 0.869 0.879 0.892 0.899 0.892 0.894 0.919 0.907 0.864 0.874 0.907 0.892 0.849 0.904 0.897 0.897 0.902 0.879 0.889 0.904 0.899 0.904 0.914 0.929 0.942 0.944 0.962 0.962 0.949 0.969 0.949 0.954 0.964 0.964 0.982 0.999 1.004 0.972 0.952 0.957 0.969 0.954 0.967 0.994 1.007 1.019 1.034 1.029 1.057 1.067 1.097 1.114 1.122 1.172 1.182 1.194 1.209 1.227 1.282 1.257 1.232 1.182 1.167 1.187 1.239 1.272 1.267 1.239 1.237 1.224 1.217 1.214 1.234 1.209 1.209 1.189 1.199 1.209 1.239 1.212 1.424 1.319 1.414 1.597 1.984 1.602 1.392 2.912 3.209 2.259 4.277 1.549 2.579 1.719 1.984 1.969 2.062 2.597 2.787 2.112 1.837 1.944 2.152 3.832 5.289 1.552 1.569 1.489 1.414 1.452 1.434 1.544 1.437 1.437 1.492 1.774 1.662 1.794 2.092 2.372 2.512 2.462 2.664 2.907 3.419 3.459 3.757 3.974 4.062 4.274 6.407 5.464 5.252 5.272 5.194 5.252 5.307 5.299 5.324 5.319 5.334 5.334 5.322 5.292 5.307 5.302 5.292 5.297 5.237 5.259 5.262 5.262 5.269 5.274 5.304 5.502 6.024 6.319 7.634 5.529 5.519 5.582 5.584 5.567 5.579 5.572 5.602 5.639 5.629 5.644 5.594 5.599 5.574 5.562 5.549 5.539 5.524 5.534 5.502 5.537 5.529 5.534 5.524 5.499 5.492 5.444 5.442 5.399 5.342 5.302 5.267 5.217 5.182 5.129 5.104 5.067 5.034 4.982 4.934 4.872 4.852 4.779 4.739 4.684 4.669 4.647 4.592 4.537 4.489 4.404 4.359 4.274 4.182 4.092 3.999 3.902 3.807 3.732 3.652 3.587 3.539 3.464 3.394 3.184 3.082 4.629 3.174 2.932 3.352 2.672 2.132 3.437 4.349 4.124 5.312 3.572 2.234 1.734 1.674
0.529 0.476 0.474 0.474 0.539 0.499 0.509 0.511 0.489 0.499 0.519 0.519 0.521 0.536 0.566 0.546 0.526 0.581 0.601 0.579 0.549 0.471 0.441 0.326 0.229 0.106 0.069 0.091 0.119 0.101 0.026 -0.126 -0.189 0.036 0.162 0.399 0.467 0.472 0.484 0.449 0.567 0.647 0.607 0.519 0.544 0.552 0.459 0.314 0.202 0.059 0.014 0.069 0.234 0.387 0.464 0.484 0.412 0.299 0.307 0.284 0.274 0.232 0.287 0.447 0.519 0.554 0.532 0.537 0.524 0.522 0.517 0.507 0.487 0.449 0.464 0.504 0.514 0.509 0.494 0.522 0.519 0.479 0.424 0.372 0.322 0.339 0.352 0.342 0.339 0.329 0.342 0.347 0.389 0.382 0.377 0.384 0.372 0.369 0.377 0.437 0.444 0.464 0.469 0.454 0.449 0.432 0.437 0.459 0.517 0.539 0.562 0.569 0.614 0.609 0.592 0.604 0.597 0.612 0.629 0.637 0.632 0.654 0.674 0.742 0.772 0.709 0.707 0.727 0.702 0.737 0.732 0.792 0.809 0.844 0.839 0.814 0.799 0.739 0.849 0.909 0.919 0.959 0.974 0.987 1.017 1.039 1.087 1.064 1.094 1.102 1.067 1.067 1.054 1.074 1.074 1.114 1.109 1.144 1.144 1.134 1.137 1.149 1.157 1.134 1.089 1.052 1.032 1.064 1.042 1.049 1.022 1.012 0.992 1.022 1.039 1.024 1.019 1.019 1.024 1.012 1.007 1.019 1.002 0.979 1.014 0.984 0.977 0.974 0.947 0.944 0.932 0.909 0.917 0.944 0.937 0.954 0.937 0.924 0.934 0.952 0.947 0.962 0.954 0.974 0.949 0.967 0.974 0.974 0.984 0.979 0.937 0.924 0.924 0.924 0.934 0.939 0.922 0.922 0.914 0.927 0.889 0.914 0.922 0.914 0.914 0.914 0.914 0.947 0.929 0.929 0.924 0.902 0.907 0.909 0.877 0.884 0.884 0.879 0.889 0.887 0.884 0.897 0.907 0.927 0.927 0.942 0.927 0.929 0.927 0.917 0.912 0.904 0.912 0.882 0.892 0.887 0.887 0.924 0.919 0.899 0.909 0.942 0.902 0.937 0.947 0.967 0.959 0.957 0.954 0.967 0.979 0.967 0.987 0.997 1.014 1.019 1.004 0.984 0.972 0.954 0.962 0.989 1.007 0.982 1.004 1.049 1.027 1.047 1.087 1.079 1.094 1.127 1.154 1.177 1.204 1.214 1.247 1.257 1.267 1.304 1.322 1.312 1.294 1.292 1.267 1.239 1.239 1.227 1.169 1.177 1.139 1.169 1.184 1.174 1.189 1.162 1.164 1.232 1.302 1.269 1.364 1.599 1.994 2.184 1.634 2.817 3.467 8.682 7.647 4.994 6.449 5.814 4.464 5.587 1.879 1.817 1.857 1.682 1.639 1.839 2.624 2.127 1.717 3.754 10.092 2.484 1.982 1.909 2.017 2.092 4.244 8.212 2.109 1.877 1.779 1.802 2.234 2.079 2.487 2.619 2.874 2.932 3.107 3.499 4.492 4.282 4.399 4.269 4.612 4.434 4.799 5.099 5.244 5.269 5.314 5.334 5.397 5.477 5.462 5.477 5.459 5.452 5.442 5.447 5.454 5.449 5.422 5.422 5.414 5.387 5.387 5.427 5.422 5.437 5.429 5.452 6.087 6.252 6.374 6.622 5.622 5.664 5.717 5.724 5.707 5.699 5.707 5.719 5.739 5.749 5.762 5.724 5.709 5.712 5.689 5.699 5.654 5.634 5.629 5.657 5.642 5.639 5.624 5.642 5.617 5.592 5.567 5.552 5.512 5.464 5.419 5.367 5.329 5.299 5.242 5.194 5.157 5.137 5.079 5.034 4.972 4.939 4.879 4.849 4.804 4.794 4.719 4.682 4.614 4.557 4.504 4.419 4.349 4.292 4.219 4.142 4.057 3.967 3.889 3.814 3.774 3.669 3.634 3.542 3.449 3.332 3.249 3.179 3.169 3.097 3.447 3.007 3.712 4.659 4.682 4.299 4.184 3.302 2.347 1.834
0.514 0.481 0.464 0.481 0.501 0.469 0.476 0.489 0.501 0.519 0.529 0.511 0.506 0.489 0.516 0.556 0.576 0.576 0.599 0.549 0.489 0.346 0.251 0.106 0.044 0.024 0.079 0.189 0.231 0.196 0.109 0.024 -0.209 -0.059 0.164 0.377 0.484 0.469 0.469 0.489 0.487 0.554 0.557 0.547 0.547 0.457 0.317 0.209 0.172 0.032 0.014 0.082 0.307 0.454 0.519 0.497 0.467 0.354 0.304 0.274 0.262 0.229 0.227 0.404 0.517 0.537 0.547 0.519 0.539 0.542 0.537 0.522 0.502 0.432 0.459 0.494 0.519 0.522 0.487 0.504 0.554 0.554 0.509 0.452 0.399 0.384 0.379 0.359 0.374 0.354 0.359 0.344 0.347 0.357 0.389 0.367 0.372 0.362 0.382 0.404 0.427 0.447 0.447 0.459 0.454 0.429 0.432 0.464 0.522 0.552 0.582 0.594 0.619 0.617 0.597 0.612 0.602 0.617 0.642 0.627 0.639 0.634 0.692 0.722 0.722 0.717 0.737 0.704 0.729 0.732 0.789 0.822 0.802 0.822 0.857 0.852 0.842 0.762 0.879 0.902 0.942 0.974 1.027 1.062 1.097 1.124 1.114 1.112 1.119 1.097 1.104 1.094 1.139 1.179 1.164 1.172 1.167 1.154 1.177 1.172 1.179 1.154 1.172 1.134 1.114 1.087 1.062 1.034 1.062 1.039 1.037 1.034 1.032 1.047 1.042 1.014 1.022 1.042 1.027 1.029 1.039 1.022 1.029 1.014 1.009 0.999 0.994 0.992 0.977 0.949 0.972 0.972 0.932 0.969 0.972 0.959 0.952 0.954 0.972 0.964 1.009 0.999 0.972 1.007 0.999 0.984 0.982 0.989 0.997 0.982 0.967 0.949 0.932 0.937 0.934 0.934 0.942 0.929 0.939 0.924 0.934 0.942 0.944 0.947 0.919 0.937 0.924 0.957 0.939 0.954 0.957 0.944 0.944 0.917 0.919 0.879 0.917 0.897 0.887 0.892 0.914 0.904 0.907 0.922 0.907 0.914 0.927 0.949 0.952 0.939 0.942 0.952 0.937 0.919 0.927 0.934 0.934 0.917 0.922 0.922 0.934 0.947 0.939 0.989 0.982 0.974 0.989 0.959 0.957 0.984 0.982 0.992 1.014 1.012 1.017 1.002 0.997 0.994 0.994 1.012 0.979 1.022 1.032 1.042 1.029 1.032 1.049 1.067 1.094 1.109 1.147 1.159 1.157 1.202 1.244 1.237 1.267 1.287 1.299 1.337 1.352 1.349 1.352 1.362 1.364 1.329 1.334 1.314 1.309 1.292 1.257 1.252 1.252 1.262 1.237 1.267 1.382 1.462 1.439 1.514 1.617 1.644 2.557 2.114 1.859 1.797 2.199 4.717 3.862 4.782 8.092 2.654 1.777 2.004 1.699 1.824 1.902 1.979 2.134 2.609 2.552 2.382 2.434 2.662 2.787 2.814 2.784 2.789 3.257 3.487 6.337 4.622 2.599 2.357 2.124 2.169 4.319 2.522 4.367 3.237 3.562 3.712 3.979 4.362 4.552 4.809 4.917 5.234 5.732 5.267 5.584 5.354 5.382 5.454 5.489 5.492 5.532 5.549 5.564 5.539 5.582 5.584 5.587 5.594 5.607 5.584 5.582 5.549 5.529 5.547 5.539 5.569 5.574 5.579 5.589 5.587 6.229 6.392 7.579 5.834 5.727 5.799 5.849 5.802 5.807 5.807 5.812 5.832 5.814 5.854 5.844 5.862 5.809 5.799 5.807 5.799 5.752 5.764 5.737 5.734 5.737 5.739 5.727 5.724 5.727 5.714 5.682 5.667 5.594 5.557 5.517 5.467 5.424 5.399 5.342 5.297 5.277 5.232 5.169 5.137 5.074 5.014 4.957 4.917 4.884 4.839 4.817 4.769 4.709 4.654 4.609 4.522 4.457 4.357 4.322 4.232 4.159 4.089 4.019 3.944 3.874 3.787 3.724 3.659 3.552 3.472 3.397 3.347 3.304 3.264 3.214 3.087 3.472 4.752 3.919 3.722 4.899 4.514 2.809 2.129
0.541 0.506 0.489 0.464 0.464 0.494 0.476 0.501 0.506 0.516 0.546 0.504 0.506 0.441 0.466 0.539 0.586 0.599 0.606 0.541 0.399 0.176 0.096 -0.011 -0.026 -0.004 0.149 0.291 0.329 0.309 0.259 0.099 -0.154 -0.201 0.227 0.324 0.444 0.432 0.362 0.414 0.464 0.509 0.527 0.539 0.467 0.359 0.234 0.204 0.134 0.037 0.007 0.129 0.349 0.464 0.524 0.524 0.489 0.392 0.309 0.247 0.239 0.214 0.254 0.409 0.524 0.542 0.547 0.532 0.539 0.527 0.539 0.552 0.532 0.452 0.469 0.502 0.532 0.517 0.487 0.497 0.499 0.524 0.537 0.534 0.489 0.452 0.434 0.434 0.419 0.367 0.372 0.374 0.344 0.342 0.357 0.352 0.379 0.382 0.374 0.414 0.429 0.434 0.472 0.474 0.444 0.439 0.454 0.484 0.534 0.577 0.597 0.604 0.609 0.614 0.602 0.617 0.619 0.637 0.634 0.649 0.664 0.662 0.689 0.707 0.704 0.717 0.712 0.712 0.737 0.759 0.767 0.832 0.809 0.817 0.834 0.844 0.844 0.797 0.897 0.932 0.994 1.022 1.074 1.109 1.162 1.154 1.137 1.124 1.169 1.172 1.184 1.199 1.254 1.259 1.274 1.262 1.237 1.237 1.229 1.227 1.199 1.189 1.167 1.172 1.137 1.109 1.077 1.059 1.052 1.062 1.072 1.072 1.067 1.062 1.057 1.029 1.037 1.019 1.007 1.027 1.022 1.029 1.027 1.019 1.002 1.012 1.014 0.994 0.992 0.972 0.994 0.967 0.959 0.984 0.984 0.997 0.997 0.972 0.977 0.977 0.989 0.989 1.017 1.032 1.022 1.017 1.014 0.982 1.014 0.972 0.989 0.982 0.979 0.964 0.954 0.967 0.964 0.942 0.952 0.937 0.937 0.944 0.967 0.984 0.982 0.974 0.944 0.984 0.957 0.942 0.947 0.959 0.949 0.947 0.952 0.927 0.922 0.917 0.919 0.904 0.897 0.909 0.942 0.904 0.822 0.854 0.942 0.934 1.049 0.944 0.957 0.949 0.947 0.929 0.927 0.969 0.939 0.974 0.937 0.979 0.974 0.997 1.017 1.039 1.032 0.969 0.917 0.889 0.924 0.984 1.029 1.044 1.002 0.999 0.982 1.007 1.024 1.017 1.047 1.007 0.972 1.027 1.062 1.039 1.057 1.057 1.072 1.082 1.094 1.127 1.129 1.199 1.202 1.224 1.254 1.262 1.289 1.337 1.347 1.314 1.332 1.362 1.369 1.422 1.407 1.427 1.449 1.444 1.422 1.412 1.352 1.367 1.407 1.417 1.559 1.589 1.624 1.574 1.497 3.057 3.242 2.029 2.082 1.734 1.619 2.284 2.172 1.787 6.209 3.922 2.969 2.219 2.272 2.254 2.622 3.042 2.559 2.577 2.714 3.089 2.869 2.842 2.947 3.087 3.224 3.094 3.139 3.172 3.179 3.167 3.197 3.084 3.052 2.984 2.837 2.774 3.034 3.954 6.962 4.069 4.172 4.322 4.592 4.967 5.094 5.487 5.459 5.379 5.384 5.452 5.494 5.569 5.567 5.614 5.614 5.624 5.654 5.654 5.644 5.672 5.717 5.729 5.702 5.734 5.722 5.717 5.694 5.689 5.642 5.657 5.697 5.687 5.704 5.727 5.769 5.789 6.182 7.909 7.114 5.864 5.852 5.909 5.924 5.899 5.887 5.897 5.902 5.907 5.927 5.952 5.954 5.974 5.932 5.927 5.927 5.907 5.899 5.877 5.849 5.834 5.847 5.834 5.822 5.824 5.807 5.789 5.767 5.729 5.709 5.677 5.612 5.564 5.527 5.479 5.449 5.402 5.352 5.307 5.272 5.217 5.172 5.094 5.069 5.027 4.979 4.944 4.917 4.822 4.807 4.737 4.719 4.624 4.524 4.427 4.414 4.324 4.249 4.157 4.107 4.024 3.947 3.847 3.759 3.722 3.624 3.552 3.499 3.464 3.434 3.384 3.362 3.242 3.102 3.187 3.599 3.479 3.182 4.319 3.269 2.272
0.519 0.489 0.496 0.476 0.461 0.491 0.491 0.499 0.501 0.556 0.539 0.539 0.501 0.471 0.484 0.494 0.554 0.611 0.571 0.481 0.356 0.124 0.014 0.014 -0.006 0.059 0.194 0.286 0.334 0.359 0.246 0.146 -0.076 -0.201 0.087 0.269 0.339 0.307 0.234 0.284 0.382 0.429 0.457 0.407 0.349 0.262 0.192 0.182 0.144 0.069 0.009 0.174 0.422 0.509 0.527 0.517 0.489 0.459 0.379 0.282 0.207 0.187 0.294 0.452 0.514 0.539 0.509 0.512 0.532 0.549 0.559 0.562 0.512 0.482 0.504 0.464 0.519 0.512 0.474 0.467 0.507 0.499 0.519 0.534 0.517 0.492 0.497 0.502 0.472 0.427 0.409 0.384 0.382 0.352 0.339 0.359 0.404 0.402 0.407 0.419 0.434 0.442 0.492 0.452 0.432 0.444 0.454 0.494 0.532 0.562 0.579 0.614 0.619 0.609 0.599 0.634 0.647 0.654 0.667 0.672 0.694 0.712 0.722 0.722 0.707 0.734 0.759 0.789 0.794 0.794 0.784 0.794 0.809 0.832 0.864 0.894 0.904 0.902 0.972 1.032 1.077 1.102 1.124 1.159 1.214 1.209 1.167 1.152 1.209 1.227 1.257 1.277 1.307 1.329 1.314 1.289 1.317 1.292 1.294 1.274 1.262 1.239 1.212 1.217 1.199 1.167 1.152 1.107 1.107 1.109 1.079 1.097 1.119 1.099 1.079 1.089 1.089 1.074 1.062 1.022 1.024 1.039 1.042 1.042 1.049 1.039 1.054 1.019 1.029 1.017 1.004 0.999 1.002 0.997 1.014 1.012 1.004 1.012 1.012 1.009 1.039 1.027 1.009 1.042 1.049 1.037 1.044 1.019 1.019 0.987 0.982 1.014 1.022 1.002 0.999 1.007 0.999 1.009 1.012 0.979 1.004 0.969 0.972 0.954 0.942 0.974 0.969 0.984 0.954 0.982 0.972 0.962 0.969 0.959 0.967 0.949 0.942 0.947 0.944 0.944 0.937 0.952 0.964 0.954 0.867 0.882 0.972 1.042 2.167 1.244 0.969 0.962 0.987 1.009 0.994 0.989 1.007 0.994 0.997 0.992 1.012 1.002 1.022 0.984 0.999 0.999 0.924 0.884 0.939 1.027 1.064 1.037 1.024 1.019 1.029 1.044 1.047 1.064 1.072 1.097 1.214 1.097 1.062 1.074 1.092 1.109 1.127 1.122 1.147 1.162 1.174 1.239 1.264 1.297 1.317 1.329 1.332 1.357 1.377 1.359 1.387 1.409 1.447 1.509 1.492 1.509 1.512 1.484 1.494 1.499 1.859 2.109 1.647 1.959 2.172 1.924 2.269 2.729 1.784 2.564 2.369 1.787 1.492 1.594 1.719 3.432 2.364 3.172 2.837 2.567 2.542 2.654 2.717 2.769 3.247 3.104 2.929 3.342 3.069 3.204 4.119 3.547 3.554 3.589 3.654 3.689 3.694 3.667 3.624 3.762 3.794 3.694 3.644 3.792 3.927 5.032 6.377 7.127 7.637 4.597 4.587 4.867 5.062 5.682 5.784 6.094 5.589 5.602 5.609 5.679 5.707 5.727 5.717 5.727 5.734 5.749 5.754 5.779 5.777 5.777 5.777 5.817 5.809 5.862 5.837 5.832 5.784 5.807 5.757 5.797 5.827 5.827 5.834 5.854 5.824 6.474 6.507 6.407 6.309 5.987 5.952 6.014 6.037 5.967 5.987 5.992 6.014 6.012 6.009 6.052 6.067 6.062 6.054 6.037 6.004 5.982 5.962 5.984 5.944 5.924 5.914 5.934 5.919 5.947 5.912 5.877 5.852 5.799 5.779 5.754 5.704 5.652 5.622 5.572 5.544 5.512 5.479 5.447 5.389 5.334 5.249 5.229 5.184 5.147 5.062 5.054 4.994 4.944 4.889 4.814 4.782 4.699 4.629 4.539 4.489 4.397 4.334 4.227 4.169 4.077 4.012 3.894 3.797 3.729 3.657 3.582 3.532 3.512 3.504 3.499 3.449 3.342 3.179 3.002 3.064 3.202 3.367 3.707 3.319 3.599
0.511 0.531 0.511 0.499 0.499 0.501 0.499 0.511 0.534 0.544 0.564 0.571 0.516 0.494 0.471 0.481 0.526 0.596 0.581 0.496 0.381 0.114 0.039 0.061 0.076 0.124 0.224 0.376 0.359 0.366 0.316 0.124 -0.104 -0.134 0.027 0.224 0.277 0.212 0.164 0.194 0.234 0.239 0.272 0.272 0.264 0.212 0.179 0.177 0.119 0.039 0.022 0.204 0.467 0.582 0.554 0.529 0.517 0.522 0.412 0.277 0.169 0.177 0.322 0.479 0.529 0.497 0.467 0.487 0.494 0.527 0.577 0.572 0.567 0.514 0.487 0.479 0.494 0.492 0.482 0.484 0.492 0.489 0.514 0.532 0.527 0.529 0.487 0.494 0.472 0.467 0.452 0.419 0.437 0.399 0.344 0.364 0.394 0.412 0.432 0.464 0.472 0.467 0.482 0.462 0.434 0.474 0.474 0.524 0.554 0.584 0.544 0.584 0.607 0.604 0.594 0.684 0.662 0.657 0.674 0.652 0.677 0.714 0.734 0.699 0.742 0.774 0.774 0.822 0.849 0.824 0.809 0.842 0.862 0.869 0.912 0.934 0.982 1.019 1.077 1.099 1.139 1.154 1.177 1.184 1.189 1.217 1.197 1.237 1.267 1.324 1.332 1.362 1.362 1.387 1.362 1.359 1.354 1.347 1.324 1.317 1.304 1.287 1.259 1.279 1.237 1.177 1.142 1.114 1.127 1.132 1.109 1.084 1.089 1.117 1.112 1.104 1.079 1.092 1.067 1.044 1.014 1.009 1.039 1.067 1.059 1.044 1.047 1.024 1.027 1.027 1.009 1.017 1.012 1.014 1.042 1.027 1.009 1.004 1.024 1.027 1.067 1.037 1.024 1.052 1.064 1.049 1.052 1.034 1.014 1.002 1.012 0.997 1.004 0.997 1.007 1.019 0.997 1.009 1.017 1.029 1.019 1.032 1.002 0.974 0.997 1.022 0.977 0.984 0.999 1.014 0.984 0.987 0.984 0.994 0.987 0.987 0.964 0.952 0.974 0.949 0.949 0.974 0.987 0.987 0.897 0.949 1.047 1.239 1.924 1.212 1.022 0.997 1.024 1.042 1.029 1.017 1.014 1.024 1.019 1.014 1.002 1.027 1.034 1.029 1.017 1.032 1.039 1.024 0.999 1.004 1.029 1.037 1.044 1.034 1.059 1.042 1.062 1.122 1.762 1.424 1.424 1.154 1.104 1.132 1.132 1.152 1.169 1.154 1.182 1.202 1.214 1.282 1.302 1.337 1.347 1.362 1.399 1.417 1.394 1.419 1.407 1.482 1.559 1.609 1.614 1.644 1.819 1.612 1.724 2.782 1.739 2.142 1.774 2.044 2.087 1.919 1.664 1.787 1.577 1.547 1.582 1.809 1.784 1.929 2.127 2.502 2.574 2.857 3.312 2.844 2.884 2.944 3.037 3.112 3.099 3.194 3.869 3.289 3.374 3.509 3.592 3.869 4.054 4.044 4.077 4.212 4.269 4.192 4.167 4.202 4.207 4.097 4.114 4.384 4.512 4.794 7.272 6.759 5.192 5.259 5.339 6.319 5.532 5.632 5.672 5.712 5.769 5.814 5.832 5.834 5.837 5.862 5.877 5.857 5.862 5.844 5.872 5.887 5.879 5.887 5.912 5.929 5.964 5.979 5.972 5.947 5.929 5.922 5.892 5.912 5.944 5.929 5.922 5.934 5.977 7.867 6.592 6.362 6.232 6.057 6.062 6.119 6.097 6.059 6.074 6.072 6.082 6.089 6.097 6.124 6.134 6.139 6.117 6.127 6.092 6.064 6.047 6.052 6.009 6.027 6.022 6.034 5.994 6.009 5.957 5.979 5.939 5.897 5.854 5.824 5.804 5.762 5.709 5.674 5.624 5.599 5.577 5.519 5.479 5.417 5.367 5.304 5.247 5.222 5.174 5.139 5.082 5.042 4.954 4.907 4.864 4.782 4.699 4.657 4.567 4.487 4.404 4.322 4.227 4.159 4.067 3.959 3.859 3.782 3.692 3.607 3.554 3.532 3.529 3.529 3.454 3.332 3.164 3.004 3.089 3.229 3.112 3.284 3.194 2.522
0.534 0.521 0.524 0.514 0.509 0.484 0.506 0.521 0.536 0.541 0.564 0.576 0.556 0.536 0.491 0.494 0.489 0.549 0.569 0.529 0.389 0.136 0.066 0.104 0.126 0.146 0.239 0.359 0.376 0.346 0.334 0.196 0.039 -0.236 -0.008 0.099 0.212 0.204 0.122 0.144 0.189 0.184 0.179 0.197 0.227 0.209 0.199 0.174 0.109 0.014 0.009 0.222 0.507 0.554 0.534 0.504 0.502 0.504 0.442 0.267 0.197 0.229 0.377 0.499 0.517 0.462 0.452 0.467 0.499 0.542 0.609 0.592 0.577 0.517 0.492 0.507 0.532 0.502 0.487 0.469 0.484 0.492 0.517 0.517 0.554 0.557 0.462 0.467 0.452 0.439 0.439 0.447 0.459 0.464 0.417 0.377 0.412 0.457 0.457 0.467 0.459 0.472 0.504 0.472 0.459 0.474 0.479 0.532 0.549 0.572 0.549 0.562 0.589 0.592 0.624 0.664 0.682 0.659 0.682 0.699 0.734 0.757 0.767 0.777 0.784 0.829 0.809 0.859 0.817 0.832 0.864 0.889 0.887 0.944 0.972 1.054 1.097 1.124 1.142 1.147 1.172 1.194 1.184 1.214 1.229 1.252 1.257 1.329 1.392 1.402 1.404 1.422 1.404 1.432 1.432 1.407 1.429 1.379 1.382 1.384 1.384 1.362 1.362 1.374 1.344 1.272 1.209 1.207 1.204 1.197 1.157 1.139 1.094 1.104 1.117 1.104 1.099 1.099 1.082 1.059 1.004 0.982 1.022 1.064 1.077 1.047 1.044 1.064 1.042 1.007 1.017 1.014 1.019 1.027 1.029 1.034 1.042 1.047 1.037 1.047 1.064 1.052 1.054 1.087 1.087 1.044 1.052 1.049 1.027 1.017 1.019 1.004 1.017 1.004 1.027 1.054 1.047 1.027 1.012 1.032 1.054 1.052 1.019 1.034 0.989 0.999 1.004 1.022 1.007 1.017 1.007 1.014 0.999 0.999 1.007 0.979 0.974 0.962 0.982 0.992 0.974 0.987 0.997 0.992 0.992 1.009 1.047 1.134 1.437 1.227 1.009 0.979 1.039 1.074 1.054 1.042 1.067 1.047 1.062 1.032 1.037 1.027 1.039 1.039 1.069 1.064 1.037 1.042 1.032 1.002 1.027 1.059 1.089 1.079 1.089 1.079 1.107 1.879 1.879 1.627 1.217 1.299 1.139 1.149 1.169 1.159 1.179 1.194 1.227 1.244 1.272 1.324 1.347 1.372 1.392 1.419 1.427 1.507 1.479 1.454 1.474 1.522 2.197 1.699 1.777 1.957 2.904 2.109 2.047 3.062 1.984 1.842 1.764 1.642 1.519 1.509 1.559 1.744 2.577 2.927 2.219 2.372 3.782 9.544 4.439 6.777 3.259 3.079 3.149 3.194 3.209 3.299 6.022 3.632 3.489 3.597 3.567 3.679 3.819 3.882 4.082 4.149 4.197 4.289 4.392 4.492 4.574 4.507 4.524 4.592 4.754 4.462 4.612 5.329 5.057 5.409 5.712 6.792 9.917 7.274 5.649 5.667 5.737 5.802 5.857 5.902 5.952 5.962 5.952 5.952 5.944 5.974 5.969 5.967 5.972 5.974 5.984 6.002 5.977 5.992 6.019 6.039 6.052 6.072 6.089 6.064 6.019 6.032 6.009 6.022 6.057 6.032 6.009 6.014 6.089 6.332 6.439 6.457 6.189 6.122 6.207 6.177 6.149 6.122 6.132 6.122 6.129 6.149 6.174 6.242 6.199 6.214 6.182 6.202 6.184 6.167 6.147 6.132 6.087 6.094 6.102 6.104 6.102 6.084 6.057 6.032 6.019 5.974 5.932 5.914 5.874 5.852 5.809 5.749 5.727 5.692 5.659 5.607 5.549 5.489 5.454 5.389 5.362 5.297 5.277 5.234 5.187 5.137 5.079 4.999 4.937 4.857 4.774 4.724 4.612 4.539 4.459 4.384 4.294 4.254 4.112 4.034 3.939 3.844 3.724 3.649 3.589 3.549 3.507 3.492 3.419 3.324 3.147 3.097 3.197 3.007 3.159 3.599 3.387 2.934
0.536 0.566 0.569 0.544 0.526 0.496 0.479 0.511 0.516 0.531 0.526 0.536 0.541 0.534 0.526 0.509 0.504 0.576 0.564 0.544 0.426 0.204 0.066 0.106 0.119 0.121 0.146 0.314 0.384 0.291 0.341 0.326 0.144 -0.164 -0.061 0.062 0.164 0.137 0.114 0.152 0.152 0.144 0.172 0.182 0.192 0.177 0.167 0.177 0.124 0.012 0.024 0.189 0.467 0.524 0.522 0.499 0.502 0.469 0.447 0.314 0.194 0.239 0.387 0.484 0.479 0.464 0.474 0.447 0.464 0.542 0.584 0.574 0.569 0.527 0.512 0.542 0.594 0.567 0.509 0.457 0.487 0.509 0.484 0.507 0.549 0.547 0.477 0.482 0.454 0.422 0.417 0.442 0.457 0.492 0.497 0.427 0.442 0.474 0.494 0.494 0.474 0.474 0.479 0.449 0.429 0.447 0.459 0.499 0.519 0.534 0.537 0.567 0.587 0.602 0.637 0.677 0.672 0.674 0.692 0.739 0.742 0.779 0.792 0.787 0.807 0.807 0.852 0.844 0.872 0.887 0.887 0.919 0.959 1.027 1.092 1.154 1.149 1.172 1.147 1.172 1.164 1.212 1.232 1.264 1.309 1.337 1.357 1.409 1.444 1.467 1.512 2.259 1.604 2.067 1.724 1.607 1.554 1.512 1.507 1.499 1.504 1.459 1.522 1.519 1.437 1.407 1.307 1.312 1.262 1.229 1.189 1.217 1.179 1.154 1.169 1.139 1.134 1.139 1.124 1.102 1.052 1.024 1.037 1.097 1.084 1.087 1.067 1.074 1.049 1.042 1.034 1.032 1.054 1.064 1.042 1.057 1.074 1.074 1.064 1.064 1.067 1.072 1.094 1.097 1.099 1.084 1.067 1.057 1.064 1.039 1.039 1.039 1.024 1.027 1.032 1.044 1.009 1.014 1.027 1.029 1.054 1.062 1.047 1.042 1.019 1.029 1.032 1.039 1.034 1.027 1.032 1.047 1.027 1.027 1.027 0.979 0.984 0.969 0.977 0.999 0.989 0.984 0.989 0.974 0.972 0.972 0.987 1.012 1.027 0.984 1.027 1.032 1.064 1.074 1.074 1.067 1.064 1.057 1.072 1.067 1.047 1.047 1.019 1.009 1.029 1.044 1.069 1.042 1.047 1.052 1.082 1.202 1.167 1.119 1.097 1.094 1.284 2.897 1.904 2.109 1.917 1.609 1.194 1.192 1.169 1.199 1.209 1.239 1.232 1.244 1.279 1.327 1.412 1.434 1.459 1.484 2.409 1.922 1.527 1.587 1.672 1.702 2.224 2.084 2.052 2.182 2.804 1.944 1.869 1.952 1.677 1.622 1.809 3.067 3.254 1.897 2.354 2.144 2.259 2.547 3.042 3.402 4.164 6.662 3.884 3.967 3.639 3.664 3.649 3.694 3.697 3.732 5.917 4.029 3.929 3.899 3.907 4.227 4.054 4.132 4.259 4.359 4.454 4.554 4.649 4.677 4.689 4.727 4.742 4.722 4.699 4.732 5.367 6.069 5.634 5.722 5.892 5.834 5.842 5.834 5.844 5.892 5.952 6.017 6.057 6.064 6.077 6.052 6.052 6.074 6.052 6.077 6.064 6.064 6.039 6.064 6.069 6.099 6.099 6.114 6.162 6.174 6.179 6.174 6.184 6.159 6.147 6.132 6.127 6.107 6.124 6.132 6.089 6.107 6.177 6.967 6.569 6.647 6.239 6.214 6.304 6.322 6.217 6.194 6.192 6.209 6.224 6.232 6.242 6.284 6.284 6.257 6.247 6.264 6.247 6.224 6.227 6.187 6.194 6.192 6.177 6.167 6.177 6.157 6.119 6.087 6.067 6.039 5.984 5.977 5.937 5.907 5.884 5.829 5.812 5.767 5.732 5.672 5.629 5.532 5.539 5.472 5.452 5.387 5.369 5.339 5.269 5.199 5.144 5.122 5.049 4.929 4.867 4.777 4.694 4.619 4.542 4.447 4.364 4.262 4.149 4.089 3.979 3.909 3.789 3.754 3.664 3.604 3.522 3.517 3.419 3.337 3.159 3.104 2.942 2.929 3.114 3.349 3.077 2.989
0.529 0.561 0.551 0.531 0.506 0.494 0.491 0.489 0.501 0.511 0.526 0.524 0.511 0.494 0.489 0.494 0.491 0.559 0.551 0.486 0.396 0.234 0.071 0.044 0.094 0.096 0.096 0.246 0.389 0.356 0.376 0.459 0.131 0.011 -0.033 0.087 0.164 0.159 0.082 0.124 0.124 0.147 0.154 0.164 0.159 0.179 0.154 0.174 0.102 0.024 0.067 0.222 0.462 0.539 0.562 0.482 0.497 0.482 0.432 0.324 0.229 0.254 0.362 0.437 0.452 0.479 0.474 0.449 0.474 0.579 0.582 0.547 0.552 0.539 0.547 0.567 0.579 0.597 0.522 0.494 0.487 0.499 0.489 0.474 0.547 0.559 0.497 0.474 0.449 0.447 0.449 0.459 0.479 0.489 0.494 0.462 0.432 0.457 0.487 0.492 0.494 0.449 0.414 0.452 0.452 0.452 0.487 0.542 0.542 0.552 0.572 0.569 0.577 0.597 0.612 0.684 0.687 0.712 0.699 0.787 0.784 0.774 0.789 0.817 0.787 0.777 0.859 0.902 0.927 0.924 0.942 0.977 1.037 1.097 1.129 1.157 1.179 1.214 1.152 1.204 1.214 1.254 1.279 1.562 1.357 1.424 1.512 1.539 3.367 2.822 3.892 6.397 3.299 5.039 2.497 2.254 2.272 2.607 2.957 2.849 2.474 1.659 4.894 3.394 1.564 1.599 1.509 1.457 1.377 1.372 1.372 1.347 1.292 1.234 1.229 1.197 1.197 1.204 1.177 1.159 1.129 1.094 1.097 1.139 1.154 1.107 1.112 1.104 1.084 1.099 1.117 1.094 1.102 1.094 1.104 1.062 1.109 1.124 1.119 1.132 1.089 1.099 1.124 1.114 1.107 1.102 1.084 1.092 1.107 1.077 1.077 1.074 1.064 1.069 1.057 1.079 1.069 1.082 1.069 1.089 1.092 1.049 1.049 1.027 1.037 1.049 1.067 1.067 1.059 1.039 1.067 1.047 1.052 1.072 1.067 1.029 1.012 0.984 1.012 1.032 1.032 1.024 0.999 0.979 0.967 0.954 0.992 1.024 1.034 1.009 1.029 1.037 1.052 1.067 1.079 1.097 1.082 1.097 1.077 1.057 1.054 1.047 1.057 1.069 1.072 1.064 1.099 1.092 1.149 1.127 1.154 1.434 1.279 1.124 1.154 1.222 1.512 2.307 1.777 1.782 1.732 1.657 1.199 1.189 1.217 1.224 1.247 1.259 1.262 1.277 1.312 1.362 1.417 1.477 1.537 1.534 1.834 1.982 1.649 1.772 2.012 2.119 2.474 2.459 2.012 1.947 1.944 1.924 1.892 1.899 1.944 1.977 2.072 4.187 5.082 2.492 2.767 2.944 3.142 3.397 3.762 4.119 4.299 4.422 4.367 4.274 4.099 4.032 4.037 4.084 4.014 4.099 4.177 4.269 4.224 4.224 4.484 5.749 4.404 4.422 4.442 4.607 4.739 4.942 5.114 5.017 5.019 5.002 5.114 5.052 5.099 5.304 5.629 5.974 5.792 5.904 5.957 5.949 5.984 5.982 6.042 6.084 6.112 6.157 6.159 6.164 6.139 6.167 6.149 6.142 6.159 6.172 6.169 6.147 6.157 6.159 6.189 6.204 6.207 6.249 6.262 6.254 6.247 6.259 6.267 6.224 6.219 6.212 6.204 6.197 6.222 6.222 6.189 6.209 6.299 6.614 6.612 7.112 6.387 6.264 6.279 6.299 6.239 6.244 6.262 6.254 6.262 6.269 6.302 6.332 6.344 6.332 6.329 6.322 6.284 6.274 6.304 6.264 6.264 6.254 6.232 6.224 6.212 6.187 6.187 6.159 6.119 6.102 6.059 6.037 6.012 5.972 5.947 5.912 5.884 5.842 5.827 5.764 5.702 5.652 5.602 5.537 5.519 5.472 5.427 5.404 5.344 5.282 5.257 5.192 5.099 5.034 4.959 4.877 4.782 4.714 4.604 4.502 4.429 4.362 4.262 4.184 4.087 3.982 3.902 3.784 3.722 3.667 3.607 3.549 3.479 3.364 3.247 3.162 2.979 3.087 3.149 3.162 3.082 3.029
0.511 0.506 0.526 0.521 0.509 0.511 0.481 0.489 0.521 0.534 0.509 0.504 0.469 0.471 0.446 0.481 0.459 0.441 0.466 0.404 0.324 0.184 0.079 -0.004 0.036 0.114 0.121 0.231 0.306 0.301 0.321 0.301 0.024 0.009 -0.103 0.144 0.134 0.177 0.079 0.102 0.109 0.119 0.134 0.132 0.152 0.157 0.192 0.134 0.029 0.012 0.104 0.302 0.492 0.542 0.532 0.519 0.494 0.482 0.447 0.329 0.247 0.262 0.344 0.447 0.472 0.479 0.462 0.464 0.499 0.579 0.587 0.587 0.597 0.587 0.539 0.534 0.552 0.544 0.497 0.479 0.499 0.484 0.489 0.507 0.557 0.592 0.547 0.482 0.464 0.459 0.467 0.442 0.452 0.479 0.507 0.472 0.469 0.474 0.477 0.464 0.419 0.434 0.432 0.459 0.452 0.442 0.537 0.564 0.574 0.599 0.614 0.589 0.574 0.594 0.632 0.679 0.722 0.747 0.749 0.774 0.784 0.809 0.774 0.774 0.759 0.787 0.879 0.947 0.959 0.994 1.039 1.032 1.082 1.132 1.174 1.232 1.239 1.212 1.339 1.329 1.367 1.414 6.087 4.214 1.572 1.692 2.034 2.199 4.304 2.639 4.944 6.882 3.749 2.429 4.074 3.447 2.627 2.984 4.599 4.977 2.524 2.519 5.499 6.127 2.227 1.969 1.987 1.727 4.322 3.509 1.624 1.567 1.582 1.409 1.332 1.282 1.249 1.249 1.257 1.227 1.209 1.159 1.162 1.204 1.199 1.207 1.177 1.142 1.119 1.169 1.157 1.157 1.137 1.147 1.144 1.114 1.157 1.164 1.174 1.162 1.182 1.169 1.162 1.147 1.122 1.137 1.114 1.099 1.134 1.114 1.122 1.089 1.084 1.069 1.084 1.082 1.097 1.077 1.079 1.097 1.084 1.069 1.067 1.057 1.049 1.054 1.077 1.059 1.069 1.062 1.057 1.049 1.052 1.042 1.024 1.044 1.019 1.019 1.019 1.017 1.032 1.014 1.012 1.002 0.972 0.972 0.987 0.987 1.014 1.004 1.027 1.047 1.049 1.089 1.082 1.117 1.097 1.117 1.104 1.097 1.092 1.097 1.079 1.074 1.092 1.099 1.112 1.394 1.239 1.227 1.302 1.754 1.589 1.639 1.689 2.409 2.024 2.039 1.792 1.632 1.662 1.782 1.494 2.667 1.557 1.457 1.357 1.342 1.349 1.337 1.374 1.444 1.517 1.549 1.754 1.689 1.917 2.224 2.099 1.852 1.767 1.784 1.842 1.964 2.179 2.859 2.929 2.859 2.577 2.864 3.177 2.572 2.834 3.107 3.309 3.502 3.569 3.964 4.659 4.057 4.274 4.457 4.584 4.639 4.594 4.539 4.442 4.402 4.287 4.314 7.462 4.682 4.574 4.579 4.504 4.522 5.154 4.782 4.729 4.734 4.694 4.817 6.082 5.417 5.549 5.639 5.214 5.717 6.374 6.099 5.647 5.674 5.719 5.857 5.987 6.037 6.054 6.102 6.122 6.154 6.197 6.214 6.234 6.262 6.254 6.242 6.254 6.279 6.242 6.229 6.234 6.242 6.264 6.269 6.287 6.272 6.304 6.334 6.339 6.372 6.372 6.352 6.327 6.364 6.334 6.322 6.309 6.277 6.277 6.324 6.317 6.289 6.269 6.317 6.462 6.712 6.789 7.272 6.757 6.352 6.362 6.397 6.317 6.329 6.334 6.332 6.359 6.349 6.369 6.384 6.407 6.379 6.374 6.369 6.362 6.347 6.362 6.344 6.317 6.304 6.297 6.279 6.272 6.262 6.242 6.214 6.169 6.144 6.114 6.094 6.059 6.042 6.034 5.992 5.957 5.914 5.852 5.814 5.757 5.722 5.672 5.629 5.592 5.574 5.547 5.484 5.419 5.372 5.307 5.254 5.169 5.089 5.034 4.974 4.879 4.787 4.722 4.624 4.554 4.444 4.377 4.277 4.174 4.094 4.017 3.899 3.812 3.752 3.682 3.584 3.504 3.517 4.372 3.544 3.017 3.039 3.114 3.247 3.212 3.112
0.509 0.521 0.531 0.499 0.511 0.474 0.496 0.489 0.519 0.529 0.529 0.509 0.449 0.419 0.411 0.391 0.379 0.346 0.346 0.236 0.174 0.144 0.076 -0.014 0.026 0.056 0.091 0.169 0.221 0.199 0.231 0.164 0.069 0.029 -0.058 0.107 0.107 0.099 0.039 0.054 0.094 0.112 0.134 0.127 0.159 0.159 0.149 0.099 0.029 0.069 0.244 0.434 0.567 0.534 0.512 0.524 0.509 0.479 0.434 0.314 0.259 0.284 0.367 0.457 0.482 0.477 0.504 0.517 0.517 0.577 0.584 0.604 0.614 0.607 0.524 0.507 0.484 0.462 0.434 0.474 0.479 0.484 0.477 0.509 0.564 0.582 0.562 0.477 0.482 0.464 0.449 0.459 0.462 0.472 0.497 0.519 0.507 0.494 0.497 0.437 0.447 0.419 0.427 0.464 0.447 0.527 0.572 0.602 0.602 0.597 0.614 0.627 0.609 0.617 0.637 0.682 0.729 0.739 0.754 0.764 0.789 0.762 0.782 0.774 0.834 0.907 0.942 0.944 1.007 1.064 1.107 1.119 1.124 1.182 1.254 1.257 1.264 1.287 1.399 1.442 1.879 1.654 5.542 7.692 2.529 2.389 2.722 2.359 3.887 4.432 5.782 4.014 1.962 1.972 2.349 2.877 2.729 2.869 2.832 2.207 2.744 2.959 5.429 5.377 3.327 4.674 3.979 4.102 6.452 3.212 2.464 2.774 4.214 1.619 1.522 1.419 1.377 1.362 1.357 1.329 1.317 1.264 1.277 1.307 1.357 1.307 1.292 1.214 1.267 1.274 1.229 1.232 1.272 1.292 1.274 1.197 1.209 1.219 1.209 1.224 1.294 1.214 1.229 1.172 1.214 1.212 1.187 1.167 1.147 1.172 1.187 1.152 1.147 1.147 1.142 1.137 1.117 1.139 1.154 1.159 1.159 1.152 1.124 1.084 1.089 1.082 1.112 1.109 1.082 1.072 1.097 1.109 1.057 1.069 1.077 1.064 1.067 1.067 1.032 1.024 1.024 1.024 1.049 1.027 0.994 0.999 1.002 0.999 0.989 1.039 1.112 1.079 1.089 1.117 1.132 1.169 1.187 1.184 1.174 1.167 1.157 1.107 1.099 1.134 1.134 1.144 1.122 1.347 1.549 1.557 2.279 1.964 2.039 2.177 1.877 2.444 1.807 1.982 2.602 2.637 1.949 1.574 6.569 4.862 2.132 1.589 1.429 1.469 1.459 1.452 1.569 1.674 1.769 1.687 2.002 2.064 1.792 1.847 2.054 1.712 1.884 1.894 2.082 2.344 2.744 3.112 3.264 3.377 3.349 3.664 3.422 3.559 3.897 3.929 4.984 4.067 5.237 4.844 8.227 4.662 4.809 5.104 5.119 5.467 4.962 5.162 5.082 4.979 4.987 5.367 5.222 5.077 5.149 5.619 5.837 5.379 5.804 5.957 5.099 5.139 5.704 6.272 5.302 6.382 5.552 5.552 5.947 6.134 6.759 6.334 5.894 5.949 5.999 6.084 6.144 6.184 6.232 6.224 6.247 6.244 6.304 6.299 6.342 6.397 6.369 6.384 6.377 6.402 6.382 6.369 6.387 6.399 6.387 6.407 6.432 6.429 6.444 6.447 6.467 6.454 6.449 6.444 6.459 6.439 6.394 6.387 6.404 6.397 6.377 6.407 6.384 6.372 6.384 6.407 6.622 7.017 6.914 7.374 6.517 6.402 6.449 6.434 6.409 6.434 6.442 6.412 6.432 6.452 6.454 6.479 6.477 6.469 6.474 6.434 6.432 6.417 6.437 6.374 6.369 6.352 6.339 6.314 6.329 6.294 6.274 6.262 6.224 6.189 6.174 6.119 6.102 6.094 6.069 6.054 6.039 5.967 5.912 5.877 5.847 5.792 5.747 5.699 5.662 5.644 5.602 5.552 5.502 5.437 5.354 5.324 5.247 5.184 5.119 5.022 4.932 4.887 4.834 4.704 4.657 4.532 4.474 4.389 4.294 4.239 4.139 4.024 3.922 3.849 3.764 3.649 3.542 4.674 6.564 3.019 3.052 3.107 3.142 3.194 3.179 3.087
0.529 0.526 0.551 0.539 0.521 0.476 0.456 0.494 0.519 0.476 0.399 0.381 0.359 0.321 0.286 0.244 0.196 0.196 0.151 0.081 0.074 0.069 0.036 0.009 -0.051 -0.039 -0.009 0.024 0.059 0.166 0.184 0.164 0.044 -0.051 -0.046 -0.051 -0.033 0.014 -0.026 -0.023 0.039 0.089 0.109 0.129 0.144 0.129 0.094 0.067 0.102 0.144 0.304 0.464 0.577 0.532 0.559 0.517 0.509 0.477 0.402 0.289 0.269 0.317 0.384 0.482 0.492 0.474 0.494 0.524 0.564 0.562 0.559 0.594 0.622 0.584 0.532 0.489 0.464 0.437 0.462 0.479 0.464 0.439 0.454 0.499 0.554 0.582 0.534 0.499 0.504 0.469 0.444 0.464 0.454 0.459 0.474 0.589 0.582 0.542 0.509 0.479 0.447 0.444 0.462 0.512 0.489 0.554 0.607 0.654 0.632 0.632 0.639 0.657 0.642 0.649 0.649 0.694 0.687 0.709 0.734 0.732 0.762 0.804 0.832 0.842 0.889 0.919 0.987 0.987 1.034 1.082 1.134 1.184 1.242 1.232 1.297 1.342 1.417 1.544 2.119 2.274 3.767 2.942 4.482 6.717 4.327 3.087 2.977 2.884 2.392 2.562 3.182 2.537 2.599 2.424 2.289 4.877 3.849 3.384 2.612 2.162 3.409 3.959 3.079 4.444 4.822 4.697 3.837 4.232 4.927 3.502 4.964 3.832 3.412 2.812 1.677 1.594 1.562 1.567 1.517 1.474 1.472 1.497 1.487 1.529 1.569 1.369 1.374 1.372 1.362 1.394 1.409 1.364 1.332 1.369 1.314 1.289 1.267 1.274 1.302 1.347 1.349 1.387 1.399 1.384 1.472 1.352 1.347 1.337 1.309 1.342 1.249 1.317 1.212 1.172 1.154 1.124 1.144 1.147 1.159 1.174 1.182 1.187 1.172 1.167 1.162 2.022 1.804 2.469 1.539 1.092 1.144 1.092 1.127 1.132 1.124 1.114 1.117 1.107 1.109 1.062 1.057 1.039 1.049 1.072 1.047 1.042 1.054 1.064 1.147 1.159 1.174 1.259 1.202 1.182 1.192 1.187 1.284 1.272 1.239 1.212 1.182 1.179 1.207 1.247 1.214 1.194 1.212 1.167 1.427 1.777 2.122 1.929 1.834 1.919 1.764 1.494 1.979 1.894 1.844 2.079 1.622 1.604 2.379 2.649 1.632 1.564 1.879 1.669 1.722 2.129 1.812 1.719 1.724 1.692 1.779 1.732 1.842 1.819 2.587 1.872 2.057 2.304 2.504 2.884 3.182 3.502 3.734 3.752 4.122 6.302 4.547 4.134 4.227 4.942 4.917 4.487 4.637 4.702 4.837 4.889 4.947 4.979 5.057 5.117 5.182 5.267 5.382 5.387 5.587 5.619 5.517 5.554 5.614 5.614 5.577 6.082 5.627 6.119 5.709 5.694 5.769 6.157 5.727 5.839 5.899 5.872 5.899 5.984 6.017 6.064 6.137 6.197 6.234 6.264 6.314 6.332 6.339 6.329 6.337 6.384 6.427 6.452 6.469 6.477 6.497 6.519 6.554 6.552 6.537 6.502 6.534 6.542 6.539 6.532 6.527 6.527 6.542 6.552 6.549 6.557 6.559 6.544 6.552 6.532 6.502 6.487 6.484 6.477 6.467 6.502 6.467 6.442 6.459 6.497 6.707 7.494 6.874 8.294 6.537 6.494 6.502 6.509 6.472 6.489 6.484 6.502 6.494 6.527 6.552 6.572 6.562 6.529 6.552 6.509 6.517 6.519 6.504 6.467 6.442 6.392 6.419 6.387 6.369 6.357 6.319 6.294 6.269 6.234 6.214 6.174 6.169 6.149 6.144 6.084 6.094 6.039 5.994 5.927 5.887 5.854 5.807 5.754 5.734 5.692 5.669 5.622 5.589 5.507 5.449 5.394 5.312 5.272 5.199 5.109 5.037 4.967 4.897 4.809 4.717 4.632 4.542 4.494 4.414 4.329 4.257 4.134 4.022 3.937 3.834 3.719 3.592 3.472 4.067 3.132 3.264 3.217 3.242 3.222 3.177 3.179
0.484 0.516 0.529 0.526 0.499 0.474 0.474 0.469 0.461 0.321 0.166 0.149 0.166 0.146 0.114 0.064 0.079 0.064 0.074 0.029 0.029 0.029 0.061 0.074 0.061 0.009 0.006 0.039 0.154 0.271 0.284 0.261 0.196 -0.031 0.007 -0.046 -0.083 -0.031 -0.066 -0.108 -0.048 -0.018 0.047 0.059 0.069 0.072 0.047 0.147 0.162 0.229 0.299 0.429 0.542 0.562 0.539 0.504 0.504 0.487 0.389 0.292 0.282 0.322 0.409 0.472 0.524 0.472 0.462 0.522 0.557 0.567 0.557 0.569 0.557 0.524 0.529 0.472 0.457 0.452 0.452 0.462 0.449 0.429 0.467 0.519 0.547 0.549 0.519 0.519 0.487 0.484 0.467 0.462 0.449 0.427 0.467 0.562 0.612 0.569 0.532 0.504 0.464 0.457 0.444 0.482 0.542 0.612 0.634 0.647 0.662 0.657 0.644 0.674 0.669 0.672 0.669 0.687 0.702 0.714 0.749 0.779 0.809 0.847 0.862 0.887 0.934 0.999 1.024 1.054 1.079 1.074 1.179 1.274 1.307 1.332 1.369 2.479 1.834 2.754 2.772 3.139 4.339 5.369 2.229 2.277 2.767 2.537 2.122 2.369 3.154 3.717 2.754 2.537 2.539 2.564 2.659 3.217 3.044 2.827 2.452 2.362 2.564 3.292 4.277 4.269 4.119 4.124 3.944 2.889 3.997 5.152 2.609 5.722 4.732 2.842 2.537 2.904 2.162 2.284 1.734 1.614 1.634 1.624 1.609 1.589 1.582 1.457 1.482 1.504 1.447 1.454 1.454 1.417 1.402 1.447 1.414 1.407 1.409 1.594 1.629 1.554 1.697 1.949 2.022 1.622 1.594 1.509 1.687 1.614 1.617 1.402 1.394 1.442 1.474 1.314 1.249 1.224 1.169 1.187 1.197 1.187 1.272 1.269 1.232 1.294 1.539 3.367 5.719 2.527 1.642 1.139 1.159 1.152 1.562 1.279 1.162 1.159 1.159 1.132 1.124 1.109 1.104 1.149 1.134 1.137 1.119 1.142 1.159 1.219 1.349 1.972 4.204 3.759 1.294 2.499 1.334 1.367 1.422 1.382 1.292 1.249 1.239 1.229 1.229 1.187 1.304 1.367 1.334 1.252 1.172 1.279 1.662 1.837 1.509 1.392 1.469 1.407 3.017 1.384 1.402 1.484 2.134 1.532 1.589 1.637 1.939 1.939 1.989 2.092 1.972 1.909 1.727 1.599 1.597 1.764 1.814 1.739 1.922 1.947 2.049 2.154 2.412 2.844 3.139 3.394 3.554 3.809 4.849 5.312 5.472 4.934 4.382 4.397 4.467 4.532 4.582 4.712 4.834 4.884 4.952 5.024 5.097 5.157 5.207 5.284 5.347 5.412 5.469 5.507 5.559 5.589 5.617 5.692 5.699 5.727 5.769 5.754 5.747 5.779 5.787 5.792 5.847 5.912 5.979 6.037 6.097 6.102 6.162 6.219 6.244 6.284 6.357 6.369 6.402 6.419 6.424 6.432 6.482 6.497 6.482 6.522 6.544 6.589 6.592 6.572 6.637 6.679 6.672 6.679 6.632 6.637 6.674 6.669 6.652 6.632 6.639 6.634 6.664 6.679 6.654 6.669 6.677 6.647 6.659 6.634 6.582 6.584 6.597 6.554 6.554 6.594 6.559 6.552 6.567 6.609 6.937 7.344 7.107 8.614 6.704 6.567 6.589 6.577 6.567 6.584 6.574 6.587 6.572 6.619 6.652 6.662 6.632 6.632 6.617 6.612 6.617 6.582 6.564 6.539 6.522 6.477 6.497 6.452 6.424 6.427 6.374 6.342 6.322 6.269 6.267 6.244 6.222 6.192 6.179 6.147 6.142 6.094 6.047 5.994 5.934 5.897 5.837 5.804 5.784 5.754 5.739 5.689 5.649 5.602 5.517 5.462 5.412 5.339 5.259 5.184 5.089 5.042 4.964 4.902 4.829 4.739 4.649 4.604 4.497 4.422 4.344 4.232 4.119 4.002 3.879 3.769 3.602 3.622 3.504 3.262 3.604 3.607 3.409 3.427 3.307 3.234
