ncols 431
nrows 31
xllcorner    462128
yllcorner    86426
cellsize     2
NODATA_value -9999
35.556 35.468 35.433 35.421 35.388 35.403 35.348 35.326 35.376 35.351 35.281 35.286 35.288 35.248 35.236 35.176 35.171 35.176 35.243 35.241 36.401 35.061 35.061 35.331 35.256 34.916 34.413 33.368 33.761 33.403 32.253 34.378 34.231 31.933 31.691 31.588 31.506 31.454 31.404 31.366 31.334 31.254 31.194 31.131 31.074 31.021 30.926 30.851 30.771 30.679 30.609 30.496 30.411 30.329 30.234 30.131 30.054 29.966 29.886 29.816 29.724 29.636 29.541 29.506 29.396 29.276 29.134 29.014 28.859 28.764 28.671 28.519 28.411 28.256 28.126 27.996 27.906 27.696 27.589 27.494 27.344 27.201 27.094 27.024 26.951 26.961 26.864 26.776 26.686 26.639 26.566 26.531 26.474 26.439 26.429 26.374 26.396 26.419 26.419 26.469 26.519 26.591 26.649 26.759 26.836 26.944 27.089 27.251 27.416 27.551 27.731 27.914 28.079 28.259 28.456 28.664 28.864 29.064 29.269 29.454 29.641 29.806 29.986 30.154 30.331 30.476 30.624 30.766 30.899 30.999 31.111 31.186 31.274 31.331 31.391 31.446 31.454 31.489 31.519 31.544 31.589 31.604 31.606 31.626 31.591 31.586 31.566 31.494 31.411 31.321 31.204 31.034 30.891 30.714 30.571 30.411 30.194 29.999 29.794 29.574 29.326 29.101 28.856 28.636 28.394 28.206 27.996 27.766 27.559 27.361 27.189 26.986 26.821 26.601 26.434 26.329 26.279 26.274 26.564 27.379 26.409 26.419 26.351 26.269 26.184 26.116 26.156 26.154 26.204 26.279 26.461 26.551 26.741 26.924 27.089 27.386 27.704 27.869 28.076 28.269 28.531 28.794 29.126 29.439 29.746 30.029 30.184 30.386 30.641 30.859 31.076 31.406 31.694 31.961 32.266 32.554 32.884 33.169 33.476 33.749 34.014 34.279 34.541 34.836 35.104 35.391 35.656 35.886 36.109 36.311 36.539 36.706 36.821 36.984 37.144 37.316 37.476 37.629 37.749 37.861 37.959 38.056 38.134 38.184 38.176 38.154 38.146 38.094 38.069 38.039 37.994 37.926 37.809 37.736 37.636 37.554 37.444 37.346 37.244 37.164 37.101 37.009 36.964 36.881 36.801 36.709 36.649 36.619 36.549 36.511 36.434 36.346 36.294 36.241 36.199 36.201 36.174 36.164 36.129 36.086 36.119 36.131 36.141 36.134 36.176 36.199 36.231 36.249 36.296 36.329 36.359 36.396 36.479 36.534 36.581 36.614 36.659 36.731 36.794 36.801 36.801 36.816 36.839 36.859 36.869 36.896 36.921 36.899 36.909 36.914 36.884 36.851 36.806 36.699 36.589 36.526 36.411 36.234 36.099 35.891 35.701 35.469 35.214 34.971 34.726 34.506 34.239 33.966 33.671 33.414 33.169 32.886 32.599 32.349 32.084 31.811 31.614 31.316 31.079 30.784 30.551 30.301 30.036 29.779 29.536 29.326 29.171 29.059 28.911 28.794 28.696 28.634 28.514 28.296 28.291 28.581 28.649 27.386 27.159 27.146 27.149 27.106 27.061 27.009 26.969 26.936 26.876 26.814 26.771 26.736 26.694 26.704 26.699 26.691 26.699 26.744 26.739 26.711 26.721 26.704 26.706 26.714 26.731 26.746 26.754 26.739 26.781 26.829 26.859 26.936 27.014 27.071 27.099 27.126 27.169 27.239 27.276 27.304 27.331 27.339 27.361 27.371 27.361 27.381 27.391 27.404 27.381 27.381 27.409 27.419 27.386 27.359 27.311 27.274 27.266 27.219 27.179 27.169 27.146 27.109 27.079 27.051 27.019 26.984 26.949 26.924 26.919 26.889 26.884 26.879 26.886
36.338 36.291 35.846 35.713 35.618 35.491 35.443 35.361 35.326 35.236 35.271 35.213 35.228 35.203 35.218 35.233 35.158 35.143 35.148 35.091 35.123 35.073 35.138 35.653 35.851 35.863 35.846 35.388 35.313 35.678 33.771 34.366 34.828 34.016 32.366 32.026 31.746 31.634 31.531 31.484 31.446 31.391 31.339 31.296 31.246 31.194 31.134 31.074 30.994 30.889 30.796 30.674 30.601 30.509 30.406 30.331 30.244 30.164 30.059 29.964 29.886 29.809 29.731 29.661 29.554 29.439 29.299 29.171 29.054 28.941 28.819 28.729 28.611 28.464 28.319 28.204 28.081 27.944 27.824 27.684 27.571 27.441 27.336 27.271 27.226 27.229 27.096 26.994 26.939 26.856 26.806 26.776 26.716 26.699 26.681 26.646 26.644 26.656 26.689 26.726 26.766 26.811 26.906 27.004 27.081 27.196 27.326 27.469 27.626 27.751 27.939 28.111 28.269 28.471 28.641 28.856 29.066 29.251 29.444 29.649 29.836 30.006 30.181 30.339 30.491 30.639 30.794 30.936 31.039 31.156 31.234 31.314 31.384 31.456 31.499 31.554 31.551 31.576 31.619 31.624 31.631 31.671 31.699 31.684 31.676 31.659 31.626 31.579 31.516 31.414 31.289 31.119 30.979 30.816 30.674 30.496 30.294 30.124 29.904 29.681 29.474 29.249 29.006 28.789 28.551 28.379 28.159 27.956 27.724 27.536 27.331 27.181 26.984 26.804 26.609 26.494 26.424 26.441 27.239 27.291 26.551 26.544 26.501 26.361 26.334 26.301 26.276 26.301 26.316 26.396 26.581 26.674 26.896 27.121 27.241 27.449 27.736 27.921 28.164 28.394 28.681 28.949 29.214 29.594 29.984 30.239 30.364 30.559 30.841 31.044 31.271 31.564 31.886 32.086 32.391 32.824 33.179 33.614 33.844 34.094 34.306 34.584 34.854 35.064 35.331 35.591 35.856 36.044 36.259 36.461 36.679 36.874 37.001 37.174 37.334 37.486 37.651 37.794 37.901 38.009 38.121 38.199 38.291 38.306 38.321 38.301 38.299 38.244 38.196 38.151 38.131 38.066 37.926 37.819 37.756 37.654 37.556 37.451 37.371 37.324 37.199 37.116 37.079 37.029 36.961 36.871 36.824 36.766 36.721 36.671 36.606 36.541 36.496 36.439 36.386 36.339 36.331 36.304 36.284 36.281 36.339 36.346 36.354 36.351 36.406 36.434 36.451 36.461 36.471 36.539 36.559 36.611 36.694 36.759 36.806 36.884 36.924 36.974 36.989 37.024 37.039 37.079 37.091 37.069 37.074 37.106 37.121 37.139 37.134 37.119 37.079 37.034 36.964 36.906 36.821 36.701 36.579 36.421 36.224 36.041 35.839 35.606 35.366 35.096 34.861 34.616 34.336 34.051 33.789 33.481 33.244 32.986 32.704 32.404 32.134 31.886 31.619 31.369 31.116 30.889 30.619 30.319 30.079 29.814 29.606 29.399 29.216 29.099 28.966 28.856 28.809 28.799 28.524 28.396 28.369 28.729 28.411 27.319 27.254 27.269 27.259 27.209 27.166 27.129 27.081 27.039 26.979 26.944 26.914 26.879 26.824 26.791 26.794 26.786 26.806 26.839 26.861 26.874 26.876 26.861 26.866 26.876 26.874 26.891 26.909 26.909 26.934 26.959 26.999 27.074 27.121 27.194 27.246 27.301 27.326 27.379 27.429 27.479 27.491 27.519 27.544 27.539 27.554 27.586 27.594 27.586 27.569 27.561 27.584 27.574 27.531 27.519 27.496 27.496 27.439 27.404 27.396 27.351 27.331 27.279 27.269 27.201 27.174 27.126 27.111 27.116 27.076 27.029 27.021 27.036 27.046
37.553 37.511 37.173 37.113 37.648 37.138 36.731 36.033 35.768 35.601 35.468 35.308 35.221 35.188 35.156 35.101 35.113 35.098 35.041 35.023 35.001 35.021 34.988 34.958 35.003 35.118 35.351 35.496 35.671 35.701 35.546 35.826 35.288 34.756 33.056 32.861 32.564 32.199 31.886 31.801 31.676 31.589 31.509 31.429 31.379 31.329 31.299 31.256 31.189 31.079 30.991 30.904 30.816 30.711 30.601 30.499 30.434 30.341 30.259 30.146 30.041 29.969 29.891 29.829 29.726 29.606 29.484 29.359 29.219 29.139 29.024 28.939 28.801 28.666 28.539 28.426 28.324 28.179 28.074 27.904 27.829 27.706 27.596 27.539 27.524 27.436 27.346 27.249 27.199 27.106 27.041 27.016 26.989 26.946 26.931 26.921 26.911 26.914 26.934 26.966 27.054 27.061 27.154 27.254 27.326 27.454 27.574 27.711 27.854 27.994 28.179 28.311 28.474 28.656 28.829 29.029 29.251 29.441 29.654 29.849 29.999 30.201 30.341 30.509 30.681 30.836 30.969 31.086 31.181 31.259 31.351 31.441 31.516 31.586 31.624 31.644 31.661 31.679 31.686 31.711 31.736 31.736 31.744 31.751 31.746 31.746 31.704 31.634 31.566 31.486 31.351 31.194 31.086 30.896 30.746 30.596 30.411 30.219 30.039 29.824 29.591 29.376 29.131 28.926 28.706 28.539 28.299 28.084 27.891 27.724 27.509 27.346 27.134 26.944 26.749 26.651 26.596 26.629 27.571 28.079 26.699 26.669 27.639 27.441 27.011 26.641 26.466 26.439 26.459 26.549 26.681 26.811 27.064 27.281 27.484 27.554 27.756 28.014 28.271 28.481 28.866 29.084 29.376 29.821 30.161 30.381 30.591 30.791 31.029 31.189 31.529 31.939 32.146 32.179 32.436 32.831 33.221 33.681 34.076 34.471 34.716 34.989 35.259 35.446 35.659 35.864 36.094 36.291 36.469 36.661 36.824 37.014 37.144 37.319 37.509 37.696 37.796 37.941 38.051 38.166 38.256 38.361 38.426 38.446 38.479 38.474 38.436 38.416 38.331 38.296 38.254 38.169 38.054 37.941 37.859 37.759 37.691 37.601 37.509 37.454 37.391 37.286 37.206 37.159 37.079 36.976 36.924 36.894 36.876 36.814 36.739 36.721 36.659 36.604 36.539 36.529 36.496 36.489 36.464 36.436 36.444 36.519 36.536 36.556 36.591 36.619 36.659 36.681 36.691 36.744 36.786 36.826 36.869 36.929 37.006 37.061 37.129 37.169 37.184 37.234 37.261 37.271 37.304 37.341 37.271 37.319 37.346 37.369 37.326 37.321 37.276 37.241 37.161 37.086 36.999 36.879 36.751 36.556 36.376 36.181 35.999 35.749 35.486 35.224 34.961 34.721 34.461 34.181 33.899 33.606 33.354 33.086 32.846 32.521 32.284 31.961 31.729 31.426 31.176 30.934 30.641 30.394 30.116 29.879 29.644 29.426 29.276 29.151 28.991 28.886 28.756 28.776 28.614 28.434 28.664 29.006 27.951 27.384 27.386 27.414 27.361 27.321 27.271 27.216 27.176 27.139 27.074 27.059 27.026 27.006 26.956 26.926 26.941 26.919 26.934 26.944 26.956 26.966 26.984 27.024 27.029 27.019 27.026 27.041 27.069 27.101 27.119 27.134 27.176 27.236 27.266 27.311 27.361 27.451 27.499 27.556 27.594 27.631 27.649 27.711 27.739 27.731 27.744 27.751 27.779 27.779 27.764 27.756 27.744 27.701 27.681 27.664 27.679 27.659 27.641 27.626 27.599 27.536 27.519 27.449 27.421 27.366 27.336 27.301 27.259 27.231 27.231 27.216 27.199 27.186 27.186
37.783 37.758 37.826 38.953 38.931 39.078 39.738 39.693 38.841 37.196 36.421 36.146 35.931 35.773 35.568 35.323 35.211 35.083 35.006 34.986 34.948 34.943 34.926 34.873 34.896 34.871 34.868 34.848 34.861 35.026 35.348 35.853 36.006 35.876 34.841 34.346 33.656 33.366 32.934 33.859 34.266 32.631 31.784 31.641 31.531 31.476 31.394 31.354 31.289 31.236 31.161 31.116 31.001 30.916 30.809 30.731 30.646 30.549 30.459 30.344 30.251 30.151 30.091 30.006 29.889 29.766 29.629 29.536 29.419 29.309 29.214 29.111 28.981 28.839 28.711 28.644 28.541 28.416 28.291 28.139 28.061 27.931 27.846 27.774 28.144 27.776 27.576 27.489 27.424 27.346 27.314 27.249 27.244 27.219 27.194 27.176 27.156 27.189 27.176 27.234 27.274 27.294 27.399 27.474 27.571 27.694 27.779 27.911 28.056 28.191 28.336 28.509 28.666 28.856 29.021 29.221 29.396 29.624 29.806 30.011 30.181 30.356 30.529 30.691 30.871 31.006 31.141 31.236 31.326 31.426 31.514 31.579 31.619 31.671 31.731 31.771 31.754 31.766 31.791 31.811 31.819 31.816 31.816 31.811 31.786 31.796 31.766 31.706 31.616 31.519 31.404 31.284 31.129 30.966 30.831 30.671 30.494 30.304 30.119 29.921 29.726 29.494 29.291 29.054 28.846 28.671 28.431 28.236 28.056 27.869 27.696 27.519 27.289 27.084 26.896 26.811 26.756 26.841 27.519 26.959 26.834 26.824 28.211 27.221 27.621 27.464 27.129 26.884 26.626 26.696 26.841 26.909 27.174 27.434 27.684 27.781 27.919 28.141 28.351 28.599 28.909 29.304 29.631 29.929 30.231 30.531 30.786 30.939 31.171 31.396 31.621 32.029 32.174 32.221 32.369 32.504 32.674 33.149 34.001 34.784 35.246 35.499 35.669 35.864 36.046 36.184 36.401 36.579 36.744 36.911 37.069 37.201 37.329 37.479 37.634 37.839 37.969 38.064 38.176 38.299 38.404 38.501 38.551 38.624 38.626 38.614 38.596 38.516 38.459 38.439 38.411 38.326 38.214 38.094 37.959 37.866 37.796 37.731 37.649 37.579 37.489 37.424 37.371 37.294 37.244 37.181 37.094 37.026 36.974 36.934 36.879 36.866 36.829 36.789 36.746 36.694 36.691 36.669 36.666 36.661 36.654 36.676 36.701 36.739 36.781 36.824 36.856 36.901 36.906 36.926 36.971 37.051 37.089 37.136 37.224 37.276 37.334 37.351 37.414 37.446 37.489 37.516 37.496 37.501 37.501 37.546 37.574 37.586 37.574 37.521 37.464 37.409 37.344 37.244 37.164 37.031 36.876 36.736 36.506 36.336 36.126 35.864 35.611 35.346 35.076 34.819 34.556 34.261 33.951 33.676 33.401 33.141 32.879 32.619 32.321 32.086 31.769 31.489 31.276 31.019 30.701 30.439 30.161 29.936 29.676 29.486 29.341 29.176 29.054 29.009 28.849 28.754 28.854 28.599 29.129 29.036 27.814 27.491 27.496 27.501 27.466 27.421 27.381 27.341 27.284 27.231 27.194 27.161 27.126 27.121 27.071 27.081 27.074 27.069 27.031 27.034 27.031 27.036 27.084 27.131 27.149 27.161 27.174 27.196 27.216 27.244 27.271 27.304 27.369 27.416 27.454 27.466 27.496 27.569 27.664 27.719 27.769 27.799 27.824 27.854 27.899 27.916 27.931 27.936 27.964 27.939 27.961 27.949 27.936 27.891 27.849 27.831 27.836 27.824 27.819 27.804 27.794 27.761 27.706 27.631 27.604 27.539 27.491 27.461 27.424 27.391 27.309 27.311 27.286 27.309 27.336
38.906 38.468 38.233 38.133 38.128 38.136 38.291 38.258 38.616 38.511 38.578 38.416 38.488 38.431 38.316 38.156 38.473 36.373 35.518 35.271 35.028 34.963 34.853 34.823 34.776 34.776 34.761 34.751 34.781 34.751 34.743 34.778 35.058 35.318 35.476 35.666 35.444 35.236 36.299 34.739 35.551 33.371 32.346 32.319 31.999 31.826 31.534 31.479 31.424 31.351 31.281 31.229 31.164 31.099 31.019 30.899 30.824 30.754 30.661 30.559 30.464 30.346 30.254 30.156 30.054 29.926 29.816 29.711 29.601 29.496 29.399 29.301 29.174 29.031 28.924 28.846 28.754 28.634 28.496 28.371 28.256 28.179 28.074 28.014 28.006 27.881 27.809 27.736 27.674 27.576 27.551 27.509 27.496 27.459 27.429 27.431 27.409 27.446 27.429 27.479 27.496 27.584 27.654 27.709 27.806 27.921 28.004 28.144 28.259 28.424 28.521 28.699 28.854 29.019 29.204 29.414 29.599 29.791 29.971 30.189 30.354 30.536 30.699 30.886 31.034 31.181 31.279 31.394 31.504 31.546 31.646 31.719 31.759 31.799 31.844 31.871 31.869 31.874 31.951 31.896 31.881 31.899 31.884 31.861 31.844 31.844 31.814 31.769 31.701 31.584 31.461 31.324 31.176 31.066 30.926 30.754 30.556 30.379 30.209 30.011 29.809 29.596 29.394 29.171 28.999 28.786 28.574 28.364 28.191 28.019 27.819 27.651 27.454 27.266 27.079 26.976 26.951 27.076 27.529 26.946 26.961 26.981 27.661 27.356 27.711 27.881 27.904 27.491 27.166 26.846 26.931 27.054 27.301 27.556 27.756 28.041 28.149 28.244 28.464 28.686 29.024 29.414 29.789 29.961 30.304 30.629 30.886 31.046 31.271 31.544 31.661 31.844 32.079 32.254 32.354 32.296 32.441 32.721 33.424 34.351 35.226 35.791 36.014 36.154 36.229 36.354 36.516 36.759 36.954 37.199 37.336 37.481 37.554 37.679 37.814 37.946 38.076 38.169 38.294 38.394 38.524 38.626 38.706 38.766 38.764 38.784 38.729 38.664 38.614 38.581 38.514 38.409 38.316 38.204 38.091 37.999 37.919 37.851 37.751 37.699 37.641 37.576 37.494 37.434 37.374 37.296 37.246 37.234 37.171 37.091 37.061 37.011 36.984 36.949 36.884 36.854 36.849 36.849 36.854 36.849 36.859 36.921 36.954 36.984 37.011 37.004 37.021 37.079 37.136 37.136 37.161 37.264 37.314 37.389 37.454 37.469 37.514 37.574 37.631 37.651 37.686 37.706 37.704 37.704 37.731 37.734 37.759 37.781 37.761 37.701 37.649 37.604 37.556 37.439 37.319 37.206 37.036 36.884 36.671 36.449 36.236 35.981 35.694 35.451 35.191 34.911 34.639 34.354 34.074 33.769 33.509 33.206 32.904 32.641 32.389 32.124 31.829 31.579 31.356 31.089 30.749 30.506 30.219 29.989 29.751 29.569 29.454 29.299 29.146 29.049 28.876 28.814 28.824 28.831 29.491 28.726 27.616 27.619 27.626 27.594 27.544 27.509 27.469 27.451 27.394 27.349 27.306 27.246 27.231 27.226 27.189 27.204 27.214 27.201 27.206 27.179 27.159 27.171 27.176 27.216 27.239 27.269 27.301 27.334 27.389 27.414 27.451 27.491 27.541 27.589 27.611 27.641 27.676 27.716 27.774 27.856 27.921 27.989 28.021 28.039 28.051 28.114 28.119 28.129 28.141 28.129 28.151 28.119 28.121 28.074 28.049 28.011 28.004 27.981 27.991 27.979 27.969 27.936 27.884 27.844 27.779 27.714 27.656 27.616 27.574 27.526 27.456 27.436 27.391 27.416 27.481
39.581 38.953 38.838 38.783 39.173 39.148 38.508 38.388 38.266 38.093 38.053 38.098 38.271 38.238 38.463 38.938 39.276 38.541 37.488 36.876 36.476 37.381 35.411 35.156 34.998 34.781 34.726 34.683 34.676 34.713 34.718 34.636 34.693 34.711 34.791 34.978 35.399 35.996 36.639 36.131 34.486 33.424 32.819 32.524 32.521 32.236 32.054 31.824 31.666 31.481 31.386 31.284 31.231 31.174 31.121 31.039 30.969 30.901 30.866 30.741 30.684 30.574 30.441 30.309 30.214 30.081 29.979 29.876 29.774 29.669 29.584 29.481 29.354 29.221 29.114 29.021 28.926 28.824 28.689 28.574 28.469 28.381 28.296 28.249 28.184 28.094 28.014 27.946 27.881 27.806 27.776 27.754 27.724 27.699 27.666 27.656 27.649 27.656 27.691 27.734 27.736 27.801 27.879 27.949 28.051 28.154 28.236 28.354 28.476 28.594 28.734 28.884 29.041 29.206 29.394 29.569 29.771 29.949 30.134 30.326 30.526 30.714 30.866 31.019 31.194 31.321 31.454 31.549 31.611 31.694 31.779 31.844 31.894 31.939 31.971 31.986 31.984 32.006 32.009 32.021 31.996 31.986 31.956 31.911 31.924 31.909 31.869 31.826 31.721 31.644 31.516 31.394 31.236 31.116 30.959 30.809 30.634 30.469 30.279 30.089 29.881 29.694 29.494 29.309 29.099 28.899 28.709 28.519 28.349 28.161 27.959 27.764 27.589 27.359 27.204 27.146 27.144 27.271 27.479 27.144 27.119 27.366 27.951 27.219 27.244 27.591 27.859 27.916 27.419 26.999 27.084 27.199 27.406 27.686 27.896 28.116 28.419 28.544 28.626 28.826 29.136 29.499 29.889 30.169 30.539 30.841 31.159 31.306 31.496 31.711 31.864 32.019 32.226 32.334 32.331 32.306 32.481 32.999 33.826 34.591 34.906 35.344 35.821 36.146 36.279 36.429 36.686 36.831 37.056 37.221 37.481 37.669 37.786 37.909 38.044 38.131 38.196 38.276 38.391 38.476 38.564 38.679 38.799 38.871 38.869 38.884 38.859 38.801 38.749 38.724 38.656 38.519 38.426 38.326 38.229 38.131 38.036 38.004 37.896 37.826 37.761 37.709 37.674 37.599 37.521 37.466 37.434 37.381 37.344 37.269 37.219 37.176 37.149 37.116 37.061 37.021 37.036 37.061 37.044 37.069 37.084 37.111 37.161 37.169 37.229 37.239 37.254 37.291 37.334 37.324 37.371 37.481 37.551 37.606 37.644 37.674 37.749 37.829 37.826 37.891 37.911 37.914 37.921 37.909 37.904 37.929 37.946 37.911 37.921 37.886 37.839 37.776 37.719 37.649 37.544 37.379 37.216 37.026 36.814 36.579 36.344 36.109 35.821 35.569 35.279 35.006 34.739 34.444 34.136 33.866 33.626 33.314 33.001 32.709 32.444 32.151 31.831 31.586 31.411 31.101 30.754 30.514 30.259 30.041 29.794 29.709 29.531 29.324 29.246 29.041 28.919 28.836 28.806 29.014 29.499 28.451 27.691 27.724 27.746 27.709 27.664 27.624 27.599 27.546 27.491 27.446 27.421 27.404 27.391 27.324 27.299 27.304 27.316 27.351 27.344 27.311 27.324 27.334 27.309 27.331 27.351 27.356 27.404 27.451 27.511 27.579 27.649 27.684 27.729 27.751 27.784 27.819 27.866 27.914 27.944 27.994 28.059 28.136 28.201 28.204 28.209 28.244 28.294 28.336 28.334 28.324 28.326 28.316 28.264 28.239 28.229 28.224 28.189 28.171 28.136 28.141 28.124 28.089 28.069 28.016 27.966 27.914 27.809 27.766 27.726 27.659 27.604 27.539 27.521 27.529 27.571
39.658 39.556 39.473 39.461 39.366 39.903 39.206 39.031 38.843 38.688 38.583 38.503 38.598 38.358 38.246 37.968 37.873 37.896 38.033 37.781 38.736 40.671 40.408 37.976 36.966 35.698 35.213 34.916 34.721 34.628 34.651 34.608 34.643 34.616 34.621 34.646 34.669 34.859 35.451 35.381 35.241 34.951 34.534 33.711 33.131 33.026 33.994 33.274 32.274 32.404 31.816 31.761 31.479 31.321 31.249 31.186 31.124 31.029 30.971 30.894 30.834 30.746 30.641 30.531 30.434 30.271 30.161 30.081 29.934 29.856 29.784 29.651 29.529 29.401 29.306 29.201 29.116 29.011 28.874 28.766 28.676 28.599 28.526 28.504 28.384 28.316 28.239 28.174 28.104 28.059 27.991 27.996 27.986 27.934 27.914 27.891 27.914 27.916 27.929 27.969 27.999 28.061 28.124 28.171 28.281 28.384 28.489 28.546 28.684 28.799 28.921 29.066 29.216 29.371 29.571 29.751 29.924 30.119 30.321 30.499 30.681 30.869 31.014 31.184 31.339 31.464 31.594 31.669 31.746 31.851 31.939 31.961 32.021 32.061 32.089 32.166 32.444 32.766 32.474 32.281 32.129 32.056 32.054 32.011 32.021 32.009 31.949 31.884 31.786 31.711 31.569 31.416 31.286 31.141 31.004 30.841 30.699 30.534 30.346 30.169 29.979 29.801 29.599 29.411 29.216 29.039 28.831 28.644 28.464 28.266 28.094 27.906 27.721 27.501 27.386 27.349 27.321 27.774 27.506 27.291 27.259 27.984 27.776 26.959 27.036 27.366 27.366 27.544 27.674 27.251 27.209 27.351 27.541 27.789 28.031 28.296 28.591 28.804 28.871 29.011 29.294 29.594 30.041 30.431 30.689 31.014 31.284 31.529 31.696 32.039 32.311 32.136 32.239 32.381 32.381 32.361 32.591 33.384 34.689 35.451 35.659 35.771 36.086 36.149 36.326 36.126 36.689 37.049 37.161 37.224 37.491 37.694 37.924 38.109 38.236 38.349 38.409 38.494 38.556 38.614 38.686 38.771 38.826 38.936 38.976 39.004 38.959 38.914 38.881 38.834 38.769 38.689 38.566 38.449 38.346 38.264 38.189 38.096 38.029 37.984 37.909 37.874 37.839 37.751 37.681 37.636 37.636 37.541 37.524 37.441 37.416 37.366 37.324 37.314 37.266 37.239 37.254 37.219 37.246 37.261 37.306 37.351 37.369 37.379 37.444 37.459 37.481 37.501 37.539 37.574 37.631 37.704 37.754 37.784 37.811 37.891 37.956 38.006 38.056 38.106 38.119 38.126 38.121 38.121 38.104 38.139 38.154 38.121 38.089 38.066 38.026 37.966 37.861 37.764 37.686 37.531 37.389 37.171 36.934 36.709 36.459 36.206 35.926 35.679 35.406 35.096 34.809 34.544 34.214 33.976 33.686 33.421 33.144 32.811 32.509 32.229 31.894 31.639 31.396 31.116 30.794 30.526 30.291 30.114 29.846 29.701 29.564 29.391 29.286 29.099 28.951 28.864 28.891 29.466 29.476 28.059 27.814 27.831 27.846 27.829 27.754 27.711 27.661 27.606 27.581 27.539 27.534 27.511 27.494 27.439 27.424 27.424 27.431 27.456 27.446 27.441 27.454 27.476 27.479 27.469 27.491 27.479 27.519 27.579 27.644 27.701 27.776 27.851 27.919 27.954 27.971 28.014 28.069 28.114 28.146 28.214 28.234 28.301 28.304 28.356 28.386 28.424 28.456 28.486 28.516 28.519 28.509 28.466 28.454 28.436 28.424 28.404 28.386 28.369 28.349 28.319 28.299 28.271 28.234 28.186 28.136 28.069 27.996 27.911 27.836 27.789 27.741 27.679 27.671 27.646 27.651
40.271 40.196 40.073 39.996 39.958 40.143 41.293 40.216 39.586 39.441 39.273 39.203 39.373 39.308 39.008 38.653 38.381 38.111 38.056 37.883 38.173 39.446 39.273 39.483 40.063 39.168 37.066 36.661 35.723 35.281 34.911 34.688 34.558 34.581 34.538 34.561 34.596 34.601 34.599 34.604 34.679 34.899 35.304 35.594 36.006 35.379 35.401 35.151 32.934 33.096 33.104 33.411 32.844 31.961 31.584 31.319 31.244 31.171 31.081 30.971 30.936 30.879 30.819 30.734 30.631 30.479 30.404 30.236 30.126 30.051 29.924 29.819 29.711 29.594 29.484 29.426 29.311 29.184 29.076 28.984 28.884 28.824 28.766 28.694 28.591 28.526 28.436 28.396 28.334 28.284 28.231 28.241 28.226 28.151 28.164 28.136 28.164 28.156 28.171 28.214 28.219 28.289 28.339 28.429 28.514 28.624 28.721 28.794 28.929 29.004 29.119 29.256 29.416 29.581 29.749 29.939 30.119 30.286 30.491 30.684 30.874 31.046 31.171 31.351 31.476 31.601 31.731 31.831 31.919 31.981 32.059 32.126 32.166 32.191 32.216 32.271 32.814 33.274 33.016 33.011 32.341 32.176 32.129 32.101 32.111 32.076 32.031 31.949 31.844 31.739 31.629 31.486 31.344 31.216 31.064 30.886 30.761 30.589 30.424 30.244 30.071 29.894 29.679 29.501 29.326 29.146 28.949 28.771 28.599 28.416 28.214 28.024 27.849 27.631 27.554 27.509 27.476 27.924 27.501 27.399 27.361 27.736 27.694 27.076 26.961 27.026 27.081 27.514 27.686 27.416 27.279 27.474 27.641 27.904 28.149 28.414 28.676 28.979 29.124 29.294 29.531 29.731 30.084 30.501 30.819 31.114 31.419 31.724 31.984 32.279 32.846 32.634 32.151 32.234 32.326 32.404 32.674 33.761 35.144 35.549 36.336 36.569 36.391 36.251 36.431 36.464 36.776 37.031 37.556 37.456 37.631 37.919 37.956 38.129 38.271 38.481 38.609 38.679 38.716 38.779 38.814 38.879 38.911 38.929 39.026 39.121 39.116 39.021 38.981 38.954 38.894 38.796 38.699 38.576 38.494 38.401 38.326 38.239 38.166 38.106 38.049 38.011 37.959 37.939 37.861 37.806 37.766 37.706 37.689 37.634 37.591 37.544 37.516 37.496 37.461 37.436 37.444 37.459 37.476 37.476 37.501 37.534 37.556 37.609 37.686 37.686 37.704 37.706 37.769 37.816 37.869 37.949 37.966 38.026 38.059 38.091 38.164 38.239 38.281 38.291 38.311 38.304 38.299 38.311 38.319 38.339 38.349 38.341 38.269 38.239 38.164 38.116 38.039 37.916 37.819 37.679 37.511 37.279 37.031 36.821 36.566 36.309 36.051 35.759 35.479 35.186 34.886 34.616 34.316 34.026 33.751 33.496 33.161 32.871 32.569 32.279 31.996 31.726 31.494 31.161 30.869 30.601 30.371 30.131 29.881 29.749 29.589 29.469 29.336 29.191 29.059 28.986 28.989 29.614 29.119 27.969 27.946 27.961 27.976 27.929 27.854 27.821 27.764 27.716 27.681 27.624 27.634 27.599 27.584 27.574 27.559 27.564 27.566 27.576 27.606 27.579 27.581 27.606 27.609 27.634 27.636 27.629 27.654 27.704 27.761 27.836 27.921 27.999 28.066 28.134 28.164 28.216 28.239 28.289 28.329 28.396 28.434 28.461 28.479 28.486 28.529 28.591 28.619 28.604 28.676 28.699 28.709 28.679 28.614 28.616 28.616 28.584 28.561 28.559 28.536 28.496 28.454 28.429 28.394 28.329 28.266 28.216 28.176 28.094 28.019 27.961 27.886 27.829 27.791 27.746 27.739
40.648 40.611 40.508 40.396 40.343 40.358 40.511 40.321 40.161 40.041 39.963 39.823 39.711 39.558 39.441 39.238 39.013 38.916 38.791 38.646 38.433 38.308 38.043 38.041 38.361 38.013 37.766 37.728 37.316 36.903 36.321 36.441 35.148 34.766 34.566 34.493 34.534 34.536 34.606 34.614 34.581 34.594 34.654 35.174 35.826 35.839 35.526 34.724 35.144 35.841 34.079 33.501 33.446 33.269 33.379 31.944 31.629 31.351 31.279 31.189 31.086 31.001 30.931 30.879 30.809 30.661 30.549 30.421 30.356 30.246 30.131 30.021 29.966 29.791 29.681 29.601 29.509 29.394 29.269 29.196 29.099 29.284 29.039 28.889 28.819 28.714 28.661 28.634 28.556 28.494 28.446 28.451 28.429 28.396 28.384 28.369 28.421 28.386 28.414 28.451 28.469 28.546 28.569 28.679 28.754 28.851 28.946 29.004 29.109 29.219 29.321 29.444 29.601 29.739 29.911 30.096 30.296 30.464 30.666 30.839 31.011 31.191 31.356 31.504 31.624 31.771 31.909 32.006 32.056 32.131 32.214 32.249 32.294 32.331 32.364 32.361 32.346 32.699 32.711 32.556 32.336 32.261 32.226 32.196 32.194 32.154 32.119 32.029 31.919 31.816 31.699 31.541 31.436 31.259 31.124 30.966 30.844 30.664 30.481 30.316 30.154 29.984 29.774 29.596 29.431 29.254 29.046 28.881 28.686 28.526 28.334 28.159 27.956 27.789 27.699 27.671 27.684 27.884 27.511 27.564 27.674 28.399 27.651 27.264 27.121 27.149 27.179 27.241 27.329 27.394 27.411 27.659 27.816 27.976 28.264 28.541 28.824 29.079 29.431 29.476 29.661 29.891 30.149 30.554 30.874 31.219 31.551 31.914 32.156 32.364 32.744 33.021 32.869 32.656 32.506 32.534 32.791 33.884 35.126 35.676 36.409 36.621 36.411 36.611 36.806 36.831 37.334 37.404 37.584 37.894 37.996 38.086 38.331 38.276 38.441 38.599 38.676 38.851 38.924 38.994 39.001 39.019 39.066 39.071 39.034 39.069 39.141 39.141 39.099 39.069 39.006 38.906 38.804 38.681 38.586 38.531 38.454 38.341 38.316 38.269 38.181 38.136 38.121 38.071 38.009 37.964 37.941 37.879 37.859 37.796 37.721 37.709 37.709 37.691 37.654 37.631 37.626 37.644 37.674 37.714 37.724 37.764 37.811 37.826 37.894 37.916 37.894 37.951 38.014 38.056 38.124 38.194 38.276 38.289 38.301 38.329 38.426 38.464 38.481 38.529 38.539 38.526 38.524 38.544 38.549 38.566 38.549 38.524 38.474 38.426 38.391 38.301 38.189 38.081 37.936 37.801 37.621 37.411 37.161 36.946 36.661 36.389 36.121 35.829 35.594 35.269 34.994 34.691 34.381 34.074 33.816 33.496 33.209 32.931 32.629 32.334 32.036 31.746 31.504 31.194 30.901 30.661 30.431 30.211 29.956 29.809 29.634 29.504 29.334 29.236 29.126 29.044 29.334 30.006 28.664 28.114 28.064 28.074 28.056 27.999 27.934 27.906 27.849 27.811 27.784 27.751 27.711 27.711 27.701 27.671 27.674 27.691 27.701 27.721 27.696 27.706 27.686 27.714 27.786 27.781 27.796 27.801 27.814 27.864 27.906 27.986 28.051 28.159 28.204 28.276 28.334 28.401 28.449 28.501 28.534 28.586 28.626 28.659 28.661 28.674 28.699 28.719 28.734 28.771 28.814 28.849 28.871 28.871 28.814 28.789 28.776 28.776 28.774 28.739 28.711 28.671 28.616 28.609 28.571 28.521 28.431 28.396 28.321 28.251 28.189 28.106 28.019 27.956 27.894 27.881 27.864
40.898 40.903 40.788 40.638 40.486 40.401 40.333 40.258 40.156 40.083 40.021 39.923 39.778 39.711 39.843 39.831 39.661 39.536 39.321 39.178 39.031 38.886 38.791 38.658 38.531 38.323 38.178 37.973 37.883 37.661 37.876 39.501 37.963 37.088 35.818 34.866 34.601 34.484 34.481 34.506 34.576 34.609 34.604 34.579 34.666 34.969 35.464 35.666 35.924 35.801 34.496 33.871 33.866 33.834 34.286 33.046 32.291 31.889 31.609 31.424 31.256 31.171 31.084 30.999 30.951 30.866 30.731 30.634 30.546 30.439 30.346 30.211 30.199 29.991 29.884 29.819 29.704 29.594 29.471 29.376 29.296 29.216 29.211 29.089 29.029 28.931 28.866 28.836 28.764 28.739 28.709 28.679 28.649 28.629 28.606 28.619 28.641 28.611 28.646 28.674 28.696 28.766 28.794 28.866 28.949 29.061 29.114 29.241 29.324 29.419 29.534 29.649 29.769 29.939 30.099 30.281 30.446 30.644 30.821 31.021 31.179 31.336 31.514 31.644 31.781 31.916 32.021 32.109 32.181 32.261 32.339 32.374 32.411 32.461 32.474 32.494 32.471 32.466 32.459 32.426 32.371 32.376 32.324 32.291 32.296 32.241 32.194 32.094 32.004 31.904 31.784 31.631 31.481 31.326 31.181 31.046 30.904 30.754 30.584 30.416 30.261 30.061 29.876 29.709 29.536 29.329 29.166 28.986 28.816 28.641 28.454 28.281 28.084 27.946 27.879 27.841 27.931 27.979 27.701 27.694 27.944 29.684 28.161 27.399 27.356 27.444 27.244 27.234 27.311 27.401 27.576 27.739 27.926 28.161 28.394 28.661 28.964 29.281 29.504 29.844 29.889 30.134 30.381 30.644 31.031 31.394 31.684 32.091 32.396 32.596 32.861 33.214 33.456 33.519 33.354 33.044 32.939 34.161 35.444 35.939 36.446 36.469 36.949 37.096 37.234 37.294 37.429 37.401 37.676 37.859 38.111 38.176 38.449 38.356 38.284 38.471 38.781 38.856 39.034 39.156 39.214 39.231 39.219 39.199 39.169 39.141 39.179 39.239 39.241 39.201 39.126 39.001 38.921 38.801 38.739 38.646 38.556 38.499 38.476 38.426 38.356 38.299 38.241 38.229 38.141 38.111 38.096 38.049 38.019 37.971 37.949 37.921 37.891 37.874 37.869 37.844 37.841 37.849 37.891 37.939 37.954 38.009 38.066 38.119 38.126 38.131 38.181 38.226 38.269 38.281 38.381 38.476 38.521 38.531 38.551 38.604 38.654 38.676 38.716 38.741 38.776 38.794 38.794 38.776 38.754 38.761 38.721 38.724 38.671 38.616 38.531 38.449 38.376 38.271 38.114 37.921 37.736 37.544 37.301 37.031 36.791 36.509 36.196 35.924 35.656 35.364 35.084 34.741 34.486 34.174 33.851 33.554 33.266 32.971 32.636 32.349 32.104 31.814 31.541 31.244 30.954 30.709 30.489 30.256 30.031 29.851 29.719 29.571 29.434 29.319 29.189 29.159 29.709 29.646 28.386 28.176 28.159 28.169 28.124 28.046 28.019 27.986 27.964 27.901 27.889 27.871 27.821 27.806 27.814 27.799 27.796 27.789 27.839 27.859 27.839 27.849 27.836 27.864 27.881 27.904 27.931 27.976 28.009 28.051 28.104 28.144 28.214 28.279 28.329 28.414 28.506 28.569 28.649 28.714 28.776 28.789 28.809 28.829 28.861 28.884 28.879 28.896 28.884 28.939 28.966 28.961 28.991 28.996 28.996 28.981 28.961 28.939 28.894 28.891 28.884 28.829 28.796 28.739 28.701 28.686 28.601 28.549 28.454 28.409 28.341 28.269 28.181 28.116 28.034 27.979 27.916
41.246 41.196 41.133 40.953 40.753 40.603 40.443 40.303 40.163 40.053 39.948 39.873 39.821 39.806 39.916 40.118 41.466 41.341 39.908 39.661 39.521 39.403 39.288 39.156 39.031 38.893 38.641 38.451 38.178 37.931 37.723 38.626 38.203 39.183 39.203 37.678 35.714 35.131 34.774 34.559 34.526 34.556 34.584 34.566 34.599 34.579 34.594 34.921 35.454 35.589 35.176 34.856 34.816 35.936 34.719 34.171 33.134 32.971 32.946 32.386 31.851 31.454 31.261 31.181 31.099 30.991 30.926 30.854 30.784 30.664 30.539 30.424 30.311 30.214 30.089 30.011 29.901 29.784 29.674 29.571 29.626 29.846 29.409 29.316 29.236 29.129 29.096 29.044 29.021 28.956 28.924 28.921 28.871 28.871 28.846 28.839 28.839 28.841 28.841 28.879 28.891 28.954 29.039 29.111 29.186 29.266 29.324 29.416 29.511 29.626 29.739 29.836 29.979 30.136 30.304 30.466 30.629 30.799 31.006 31.169 31.321 31.496 31.649 31.764 31.939 32.049 32.151 32.236 32.304 32.371 32.436 32.506 32.546 32.596 32.606 32.606 32.609 32.571 32.551 32.531 32.494 32.479 32.419 32.399 32.369 32.326 32.286 32.209 32.099 31.999 31.861 31.724 31.576 31.411 31.271 31.154 30.986 30.841 30.661 30.506 30.331 30.149 29.974 29.824 29.666 29.456 29.276 29.091 28.931 28.756 28.561 28.406 28.191 28.081 28.046 28.004 28.159 28.056 27.869 27.866 28.534 28.891 27.496 27.381 27.541 27.469 27.494 27.379 27.491 27.689 27.784 28.009 28.159 28.314 28.519 28.774 29.081 29.346 29.621 29.941 30.151 30.414 30.631 30.881 31.326 31.689 32.004 32.309 32.561 32.789 33.064 33.331 33.534 33.751 33.934 33.864 33.631 34.234 35.619 36.334 36.679 36.629 37.139 37.086 37.196 37.271 37.321 37.404 37.491 37.679 37.876 38.131 38.354 38.379 38.391 38.559 38.471 38.661 38.914 39.141 39.319 39.381 39.411 39.386 39.331 39.299 39.271 39.234 39.221 39.251 39.209 39.114 39.006 38.916 38.851 38.794 38.699 38.654 38.601 38.554 38.496 38.456 38.404 38.376 38.316 38.291 38.249 38.239 38.201 38.154 38.159 38.124 38.086 38.066 38.069 38.051 38.036 38.041 38.116 38.154 38.206 38.219 38.279 38.314 38.336 38.394 38.429 38.466 38.499 38.529 38.624 38.689 38.756 38.796 38.814 38.884 38.911 38.926 38.984 38.961 38.984 38.989 38.979 39.001 39.011 38.969 38.966 38.924 38.864 38.801 38.716 38.629 38.539 38.416 38.304 38.086 37.944 37.676 37.489 37.151 36.876 36.581 36.284 36.014 35.719 35.426 35.159 34.809 34.536 34.259 33.924 33.616 33.301 33.094 32.754 32.424 32.144 31.874 31.571 31.294 31.009 30.761 30.526 30.299 30.091 29.926 29.771 29.656 29.556 29.479 29.326 29.266 29.986 29.521 28.339 28.281 28.266 28.269 28.204 28.139 28.109 28.069 28.021 27.981 27.976 27.969 27.971 27.936 27.906 27.921 27.919 27.926 27.956 27.959 27.984 27.976 27.994 28.019 28.041 28.041 28.096 28.124 28.196 28.246 28.309 28.356 28.431 28.449 28.499 28.561 28.631 28.736 28.806 28.869 28.929 28.974 29.009 29.046 29.051 29.056 29.049 29.066 29.091 29.106 29.134 29.141 29.124 29.131 29.121 29.144 29.154 29.121 29.071 29.039 29.036 28.984 28.941 28.894 28.849 28.821 28.766 28.689 28.611 28.564 28.451 28.384 28.321 28.264 28.204 28.104 27.999
41.693 41.506 41.378 41.261 41.138 41.021 40.873 40.691 40.528 40.501 40.518 40.206 40.076 40.028 40.056 40.136 41.243 40.951 40.261 40.063 39.846 39.726 39.711 39.633 39.436 39.176 39.003 38.743 38.406 39.116 39.081 38.216 37.416 37.598 38.788 37.721 37.249 37.314 36.824 35.964 35.046 34.734 34.589 34.581 34.549 34.549 34.534 34.636 34.619 34.629 34.864 35.264 35.709 36.034 36.124 35.884 34.171 33.891 33.874 33.536 32.731 32.614 32.241 31.589 31.301 31.126 31.001 30.961 30.906 30.871 30.824 30.661 30.526 30.454 30.336 30.239 30.416 30.146 29.894 29.804 29.734 29.769 29.591 29.509 29.414 29.344 29.279 29.274 29.204 29.181 29.144 29.116 29.089 29.071 29.066 29.061 29.054 29.061 29.066 29.091 29.156 29.201 29.259 29.349 29.394 29.461 29.539 29.636 29.721 29.834 29.931 30.021 30.189 30.324 30.491 30.656 30.809 30.974 31.154 31.329 31.459 31.616 31.774 31.919 32.076 32.139 32.249 32.341 32.424 32.504 32.584 32.626 32.674 32.701 32.734 32.729 32.726 32.701 32.676 32.641 32.609 32.589 32.549 32.526 32.484 32.434 32.384 32.289 32.166 32.054 31.936 31.816 31.649 31.519 31.376 31.239 31.084 30.939 30.756 30.586 30.424 30.256 30.084 29.949 29.754 29.551 29.389 29.226 29.061 28.879 28.704 28.506 28.344 28.251 28.184 28.194 28.434 28.089 28.066 28.046 28.509 28.516 27.586 27.616 27.731 27.656 27.511 27.481 27.656 27.914 27.981 28.146 28.284 28.429 28.689 28.909 29.174 29.469 29.756 30.021 30.211 30.524 30.806 31.089 31.449 31.959 32.329 32.541 32.771 32.974 33.191 33.504 33.774 33.841 33.914 34.166 34.076 34.396 35.464 36.396 36.829 36.891 36.984 36.936 36.939 37.266 37.214 37.264 37.686 37.591 37.974 38.091 38.421 38.581 38.591 38.816 38.744 38.866 38.824 39.136 39.379 39.536 39.664 39.606 39.514 39.454 39.376 39.331 39.279 39.216 39.251 39.244 39.159 39.076 39.011 38.916 38.841 38.816 38.769 38.764 38.659 38.596 38.546 38.519 38.521 38.474 38.414 38.381 38.351 38.304 38.311 38.301 38.296 38.249 38.241 38.259 38.249 38.254 38.291 38.341 38.411 38.469 38.494 38.546 38.561 38.611 38.664 38.729 38.736 38.799 38.851 38.941 39.011 39.066 39.106 39.139 39.184 39.176 39.201 39.206 39.221 39.204 39.216 39.181 39.199 39.189 39.194 39.144 39.079 39.016 38.906 38.834 38.701 38.556 38.381 38.216 38.036 37.779 37.644 37.264 36.991 36.714 36.369 36.089 35.806 35.524 35.204 34.906 34.676 34.276 33.981 33.691 33.386 33.136 32.819 32.539 32.249 31.914 31.614 31.334 31.059 30.806 30.574 30.331 30.156 29.974 29.829 29.751 29.581 29.521 29.469 29.604 30.161 29.121 28.364 28.376 28.371 28.341 28.304 28.284 28.219 28.176 28.119 28.096 28.079 28.034 28.036 28.029 28.049 28.049 28.036 28.051 28.041 28.049 28.076 28.089 28.126 28.149 28.204 28.229 28.244 28.254 28.349 28.426 28.491 28.574 28.621 28.676 28.709 28.731 28.781 28.879 28.946 29.001 29.109 29.149 29.204 29.231 29.266 29.256 29.251 29.276 29.306 29.299 29.279 29.294 29.281 29.279 29.234 29.261 29.296 29.296 29.259 29.226 29.181 29.116 29.089 29.056 29.024 28.964 28.894 28.836 28.776 28.699 28.614 28.551 28.444 28.366 28.331 28.221 28.106
43.001 41.858 41.806 41.718 41.621 41.508 41.413 41.273 41.193 42.273 44.268 41.303 40.641 40.978 40.598 40.526 40.533 40.533 40.491 40.311 40.121 39.958 39.896 39.806 39.553 39.251 39.038 38.768 38.513 39.518 40.998 40.296 39.231 37.816 37.463 37.193 37.411 37.609 37.836 38.066 37.604 37.149 35.701 34.849 34.609 34.574 34.586 34.566 34.559 34.609 34.564 34.586 34.911 35.351 35.581 36.066 35.004 36.586 34.336 33.894 33.196 33.321 32.719 31.971 31.771 31.399 31.329 31.079 30.989 30.991 30.964 30.911 30.769 30.686 30.544 30.466 30.421 30.241 30.059 30.026 29.951 29.884 29.779 29.711 29.626 29.556 29.471 29.451 29.419 29.386 29.379 29.321 29.316 29.276 29.284 29.264 29.291 29.276 29.276 29.334 29.364 29.404 29.479 29.561 29.611 29.676 29.741 29.836 29.906 30.039 30.131 30.241 30.374 30.534 30.669 30.826 30.976 31.129 31.326 31.499 31.634 31.794 31.936 32.079 32.186 32.289 32.371 32.484 32.536 32.619 32.701 32.736 32.786 32.821 32.839 32.844 32.829 32.801 32.784 32.771 32.754 32.714 32.679 32.631 32.604 32.569 32.504 32.381 32.291 32.151 32.021 31.911 31.781 31.621 31.476 31.356 31.181 31.044 30.871 30.701 30.516 30.359 30.224 30.096 29.884 29.671 29.501 29.334 29.159 28.986 28.804 28.589 28.471 28.404 28.396 28.384 28.816 28.269 28.251 28.174 28.289 27.969 27.689 27.801 27.811 27.704 27.646 27.616 27.814 27.956 28.079 28.259 28.434 28.576 28.794 29.089 29.296 29.549 29.871 30.166 30.409 30.669 30.979 31.351 31.629 32.029 32.431 32.784 32.984 33.161 33.326 33.556 33.781 33.951 34.099 34.516 34.484 35.041 35.836 36.474 36.709 36.949 36.986 36.879 37.144 37.419 37.559 37.464 37.794 37.991 38.221 38.316 38.284 38.306 38.519 38.671 38.681 39.106 39.011 39.174 39.521 39.644 39.751 39.781 39.734 39.619 39.544 39.469 39.384 39.341 39.246 39.166 39.209 39.194 39.114 39.044 38.976 38.934 38.901 38.846 38.789 38.764 38.696 38.666 38.661 38.629 38.579 38.541 38.531 38.491 38.454 38.466 38.461 38.469 38.429 38.424 38.464 38.514 38.549 38.594 38.649 38.686 38.736 38.774 38.806 38.881 38.909 38.924 38.951 39.069 39.156 39.226 39.276 39.301 39.319 39.399 39.449 39.454 39.434 39.419 39.426 39.436 39.431 39.424 39.439 39.436 39.389 39.356 39.276 39.211 39.114 39.009 38.844 38.699 38.504 38.334 38.201 37.991 37.619 37.294 37.136 36.759 36.559 36.229 35.896 35.576 35.291 35.046 34.669 34.346 34.024 33.744 33.424 33.109 32.811 32.521 32.261 31.989 31.641 31.361 31.109 30.826 30.614 30.441 30.254 30.089 29.896 29.809 29.681 29.579 29.484 29.969 30.076 28.964 28.486 28.499 28.504 28.476 28.391 28.376 28.324 28.306 28.251 28.194 28.169 28.141 28.129 28.129 28.126 28.141 28.169 28.186 28.191 28.169 28.186 28.231 28.254 28.271 28.339 28.381 28.431 28.466 28.521 28.594 28.691 28.751 28.821 28.884 28.924 28.976 29.009 29.041 29.101 29.149 29.234 29.334 29.364 29.399 29.436 29.439 29.449 29.446 29.459 29.449 29.451 29.426 29.424 29.384 29.424 29.381 29.391 29.439 29.429 29.391 29.356 29.291 29.229 29.196 29.166 29.106 29.056 28.939 28.899 28.846 28.769 28.679 28.584 28.491 28.426 28.361 28.259
42.381 42.293 42.336 42.351 42.121 41.991 41.948 41.968 41.983 42.088 42.676 41.798 41.431 44.403 41.486 40.911 40.913 40.868 40.793 40.663 40.543 40.328 40.151 39.963 39.686 39.428 39.226 39.033 38.833 38.696 38.788 39.061 38.623 38.636 38.431 38.151 37.444 37.204 37.366 37.439 37.631 37.674 38.524 38.571 36.251 35.039 34.644 34.539 34.544 34.571 34.591 34.544 34.559 34.561 34.801 35.144 35.294 35.951 34.844 35.431 33.859 33.014 32.714 32.201 32.064 32.064 31.949 31.484 31.271 31.144 31.064 31.021 31.001 30.959 30.839 30.701 30.556 30.436 30.359 30.256 30.181 30.086 30.019 29.911 29.839 29.756 29.689 29.651 29.604 29.586 29.581 29.531 29.504 29.464 29.464 29.476 29.476 29.466 29.494 29.534 29.556 29.634 29.704 29.781 29.821 29.894 29.939 30.044 30.139 30.244 30.314 30.429 30.574 30.731 30.881 31.011 31.174 31.309 31.509 31.641 31.786 31.929 32.066 32.231 32.309 32.391 32.511 32.564 32.641 32.739 32.806 32.854 32.896 32.936 32.956 32.981 32.941 32.921 32.926 32.911 32.871 32.824 32.824 32.751 32.721 32.671 32.589 32.496 32.399 32.261 32.146 31.991 31.859 31.701 31.586 31.441 31.306 31.151 30.984 30.859 30.666 30.499 30.349 30.191 29.986 29.801 29.654 29.459 29.284 29.109 28.919 28.706 28.609 28.544 28.541 28.654 28.639 28.394 28.386 28.349 28.356 28.024 27.886 27.909 27.961 27.886 27.719 27.851 27.994 28.106 28.164 28.311 28.509 28.731 28.996 29.191 29.404 29.706 29.971 30.264 30.541 30.844 31.144 31.449 31.781 32.101 32.439 32.821 33.156 33.294 33.441 33.641 33.816 33.976 34.116 34.606 34.656 35.406 36.291 36.529 36.716 36.781 36.994 37.026 37.251 37.434 37.376 37.639 37.771 38.246 38.359 38.486 38.661 38.546 38.374 38.744 39.011 39.239 39.191 39.419 39.499 39.761 39.896 39.904 39.881 39.794 39.679 39.606 39.556 39.456 39.381 39.266 39.199 39.191 39.219 39.171 39.121 39.069 38.999 38.981 38.956 38.899 38.856 38.799 38.791 38.771 38.761 38.706 38.694 38.699 38.659 38.646 38.641 38.636 38.619 38.639 38.686 38.701 38.739 38.829 38.866 38.919 38.966 39.014 39.049 39.091 39.124 39.186 39.246 39.341 39.411 39.464 39.481 39.549 39.569 39.661 39.704 39.756 39.729 39.696 39.661 39.634 39.641 39.639 39.654 39.601 39.554 39.544 39.486 39.389 39.284 39.136 39.011 38.864 38.656 38.444 38.261 38.111 37.806 37.489 37.189 36.851 36.576 36.339 35.984 35.701 35.364 35.219 34.859 34.484 34.116 33.811 33.531 33.141 32.874 32.599 32.314 32.006 31.686 31.416 31.154 30.886 30.689 30.531 30.376 30.174 29.986 29.866 29.809 29.681 29.721 30.419 29.754 28.626 28.616 28.656 28.631 28.564 28.509 28.464 28.416 28.369 28.354 28.334 28.304 28.239 28.214 28.214 28.239 28.276 28.279 28.296 28.319 28.321 28.324 28.354 28.369 28.419 28.471 28.521 28.581 28.679 28.736 28.801 28.861 28.941 28.981 29.061 29.124 29.189 29.251 29.294 29.306 29.331 29.394 29.489 29.529 29.556 29.594 29.626 29.626 29.661 29.661 29.626 29.609 29.564 29.559 29.546 29.524 29.529 29.534 29.509 29.504 29.534 29.509 29.454 29.399 29.326 29.279 29.236 29.179 29.104 29.021 28.941 28.889 28.796 28.706 28.649 28.546 28.494 28.419
42.713 42.711 42.746 42.693 42.638 42.603 42.653 42.668 42.653 42.573 42.543 42.266 42.146 42.701 42.298 41.608 41.581 41.403 41.238 41.133 40.966 40.813 40.646 40.446 40.206 39.991 39.788 39.663 39.503 39.288 39.171 41.016 40.103 39.918 39.981 39.611 38.241 39.349 38.596 37.659 37.579 37.771 37.686 37.381 39.829 38.774 36.649 35.411 34.686 34.556 34.536 34.569 34.541 34.516 34.506 34.586 34.721 35.254 35.136 34.729 34.059 33.976 33.081 32.794 32.606 32.164 32.099 31.816 31.586 31.416 31.276 31.366 32.034 31.121 31.041 30.956 30.821 30.686 30.581 30.504 30.421 30.286 30.204 30.116 30.054 29.939 29.889 29.841 29.819 29.796 29.749 29.746 29.699 29.696 29.664 29.689 29.689 29.684 29.699 29.754 29.771 29.829 29.899 29.971 30.061 30.096 30.159 30.254 30.336 30.459 30.539 30.656 30.794 30.934 31.066 31.204 31.351 31.519 31.694 31.844 31.964 32.111 32.204 32.329 32.429 32.539 32.619 32.679 32.744 32.841 32.886 32.961 32.991 33.041 33.066 33.091 33.061 33.046 33.049 33.041 33.001 32.974 32.939 32.896 32.844 32.779 32.701 32.606 32.509 32.366 32.256 32.104 31.989 31.834 31.694 31.529 31.424 31.286 31.146 30.964 30.791 30.626 30.489 30.336 30.136 29.964 29.796 29.616 29.414 29.244 29.049 28.839 28.741 28.689 28.711 28.884 28.896 28.589 28.574 28.524 28.639 28.136 28.074 28.129 28.071 27.944 27.829 27.976 28.206 28.179 28.324 28.416 28.606 28.851 29.179 29.429 29.656 29.804 30.116 30.381 30.669 30.944 31.234 31.504 31.786 32.071 32.411 32.881 33.269 33.474 33.559 33.714 33.856 34.061 34.236 34.456 34.649 35.111 35.766 36.014 36.264 36.279 36.611 36.976 37.311 37.449 37.709 37.806 37.986 38.294 38.404 38.509 38.444 38.724 38.471 38.646 39.071 39.189 39.451 39.391 39.481 39.606 39.891 40.081 40.114 40.026 39.911 39.769 39.659 39.609 39.519 39.454 39.346 39.301 39.336 39.334 39.344 39.294 39.211 39.144 39.116 39.076 39.011 38.964 38.961 38.954 38.924 38.869 38.851 38.849 38.834 38.849 38.814 38.841 38.846 38.849 38.906 38.946 38.996 39.019 39.066 39.109 39.184 39.216 39.276 39.306 39.371 39.436 39.494 39.591 39.641 39.691 39.731 39.811 39.856 39.881 39.916 39.931 39.959 39.936 39.891 39.869 39.894 39.909 39.894 39.794 39.749 39.699 39.639 39.546 39.409 39.294 39.169 39.014 38.814 38.574 38.384 38.136 37.864 37.616 37.311 36.964 36.661 36.371 36.076 35.789 35.491 35.226 34.936 34.584 34.259 33.844 33.609 33.251 32.951 32.666 32.359 32.014 31.724 31.469 31.221 30.956 30.746 30.586 30.411 30.206 30.061 30.016 29.919 29.789 30.136 30.644 29.506 28.704 28.744 28.791 28.751 28.714 28.629 28.569 28.524 28.491 28.451 28.431 28.416 28.371 28.344 28.371 28.386 28.389 28.411 28.409 28.421 28.454 28.466 28.499 28.536 28.554 28.621 28.669 28.741 28.839 28.926 29.014 29.099 29.141 29.196 29.266 29.309 29.401 29.464 29.506 29.569 29.576 29.611 29.646 29.674 29.731 29.769 29.814 29.861 29.836 29.836 29.826 29.806 29.759 29.726 29.736 29.709 29.686 29.664 29.646 29.614 29.619 29.601 29.584 29.534 29.484 29.434 29.381 29.289 29.211 29.151 29.059 29.001 28.909 28.846 28.766 28.664 28.586 28.534
43.086 42.981 42.941 42.918 43.048 43.173 43.181 43.243 43.111 43.723 45.011 42.986 45.033 43.086 42.721 43.408 42.286 41.991 41.733 41.698 41.786 41.531 41.468 41.288 41.018 40.761 40.718 40.558 41.056 40.203 39.838 43.428 42.593 40.753 40.141 42.471 40.396 40.491 40.486 39.241 38.271 38.031 37.811 37.834 38.084 38.709 39.516 38.549 36.489 34.969 34.666 34.556 34.566 34.591 34.529 34.569 34.546 34.514 34.491 34.706 34.526 34.486 33.809 33.334 33.086 32.921 32.479 33.009 32.021 31.709 31.546 33.754 33.886 31.246 31.111 31.109 32.311 30.929 30.849 30.751 30.651 30.511 30.421 30.316 30.219 30.274 30.121 30.064 30.009 29.989 29.949 29.961 29.929 29.879 29.909 29.884 29.901 29.889 29.901 29.949 29.979 30.039 30.106 30.186 30.259 30.294 30.361 30.441 30.546 30.651 30.731 30.861 30.996 31.121 31.266 31.411 31.541 31.694 31.864 31.999 32.131 32.251 32.379 32.486 32.549 32.646 32.696 32.786 32.846 32.924 32.996 33.056 33.111 33.154 33.179 33.184 33.176 33.174 33.166 33.124 33.111 33.089 33.044 33.009 32.959 32.906 32.814 32.721 32.621 32.496 32.374 32.239 32.081 31.951 31.809 31.654 31.521 31.371 31.244 31.094 30.931 30.761 30.674 30.476 30.299 30.089 29.914 29.741 29.569 29.371 29.176 28.974 28.891 28.859 28.839 29.409 28.954 28.756 28.671 28.749 28.531 28.219 28.314 28.236 28.219 28.154 28.036 28.146 28.254 28.351 28.469 28.571 28.759 28.991 29.226 29.506 29.749 29.984 30.211 30.446 30.759 31.066 31.361 31.611 31.886 32.201 32.519 32.894 33.301 33.596 33.826 34.034 34.061 34.236 34.376 34.559 34.856 35.169 35.421 35.671 35.946 36.164 36.396 36.749 37.099 37.366 37.469 37.859 37.979 38.141 38.209 38.151 38.159 38.366 38.341 38.476 38.669 38.764 38.974 39.086 39.186 39.541 39.551 39.989 40.251 40.281 40.134 39.899 39.806 39.684 39.624 39.579 39.494 39.444 39.386 39.351 39.436 39.439 39.431 39.376 39.316 39.256 39.196 39.139 39.106 39.096 39.049 39.024 39.014 39.034 39.014 39.029 39.044 39.039 39.034 39.074 39.091 39.151 39.206 39.246 39.291 39.331 39.369 39.426 39.471 39.514 39.611 39.681 39.744 39.801 39.874 39.956 39.986 40.051 40.086 40.101 40.124 40.141 40.116 40.119 40.116 40.111 40.116 40.116 40.079 40.009 39.949 39.894 39.816 39.711 39.624 39.464 39.284 39.101 38.914 38.694 38.446 38.179 37.934 37.679 37.389 37.071 36.756 36.466 36.196 35.876 35.591 35.291 34.926 34.636 34.376 33.951 33.601 33.336 33.049 32.731 32.401 32.061 31.776 31.509 31.254 31.039 30.849 30.636 30.451 30.361 30.134 30.034 29.939 29.866 30.611 30.501 29.174 28.816 28.864 28.901 28.879 28.829 28.766 28.691 28.636 28.604 28.574 28.561 28.544 28.501 28.491 28.519 28.516 28.506 28.549 28.546 28.546 28.561 28.589 28.646 28.684 28.736 28.814 28.834 28.911 29.014 29.106 29.219 29.291 29.344 29.416 29.469 29.536 29.591 29.654 29.716 29.764 29.809 29.866 29.881 29.879 29.866 29.906 29.966 29.999 29.999 30.021 29.996 29.976 29.931 29.906 29.879 29.879 29.854 29.831 29.799 29.754 29.709 29.684 29.659 29.619 29.601 29.546 29.504 29.424 29.319 29.246 29.186 29.126 29.001 28.936 28.866 28.781 28.731 28.684
43.633 43.598 43.511 43.458 43.521 43.698 43.646 43.641 43.576 43.766 44.991 45.006 45.083 43.931 45.301 45.186 43.011 42.626 42.333 42.248 42.208 42.226 42.168 42.766 42.233 41.691 41.548 41.346 43.518 41.091 42.996 42.561 42.963 41.178 40.611 41.443 40.819 40.334 40.049 39.234 38.811 39.609 41.219 38.429 37.819 37.711 39.706 39.271 39.141 38.889 37.021 35.244 34.669 34.524 34.519 34.581 34.559 34.549 34.504 34.491 34.496 34.736 34.936 34.516 33.741 33.301 33.116 32.934 32.411 32.516 33.686 33.521 31.656 31.396 31.526 31.231 37.261 31.279 31.086 30.954 30.871 30.841 30.791 30.739 30.531 30.524 30.326 30.241 30.226 30.201 30.149 30.121 30.114 30.089 30.109 30.096 30.089 30.101 30.121 30.136 30.184 30.291 30.309 30.379 30.466 30.494 30.564 30.626 30.759 30.824 30.936 31.056 31.191 31.319 31.454 31.591 31.744 31.889 32.046 32.174 32.314 32.421 32.529 32.649 32.704 32.781 32.834 32.901 32.969 33.016 33.089 33.141 33.201 33.239 33.259 33.299 33.299 33.316 33.296 33.264 33.231 33.214 33.174 33.151 33.101 33.024 32.931 32.856 32.739 32.601 32.494 32.374 32.209 32.079 31.946 31.796 31.661 31.521 31.374 31.224 31.069 30.926 30.806 30.619 30.446 30.251 30.089 29.891 29.731 29.496 29.314 29.101 29.081 29.056 29.129 29.769 28.984 28.861 28.841 28.919 28.516 28.446 28.521 28.381 28.316 28.249 28.246 28.256 28.459 28.519 28.564 28.669 28.819 29.094 29.364 29.606 29.846 30.089 30.409 30.719 30.811 31.191 31.486 31.729 31.991 32.334 32.676 33.039 33.389 33.701 34.044 34.351 34.546 34.549 34.606 34.771 35.014 35.294 35.604 35.881 36.081 36.324 36.516 36.704 36.866 37.119 37.331 37.434 37.626 37.814 37.989 38.084 38.241 38.334 38.516 38.564 38.571 38.646 38.796 38.911 39.029 39.281 39.476 39.529 39.754 40.019 40.114 39.961 39.811 39.796 39.754 39.721 39.641 39.576 39.509 39.496 39.454 39.474 39.509 39.566 39.506 39.434 39.384 39.359 39.336 39.269 39.251 39.264 39.244 39.234 39.206 39.216 39.226 39.224 39.256 39.314 39.311 39.359 39.396 39.461 39.526 39.556 39.629 39.631 39.689 39.741 39.824 39.916 39.989 40.034 40.141 40.204 40.206 40.246 40.306 40.354 40.371 40.379 40.354 40.331 40.311 40.336 40.329 40.289 40.269 40.214 40.164 40.096 39.981 39.866 39.764 39.606 39.439 39.246 39.044 38.796 38.561 38.316 38.039 37.786 37.476 37.176 36.866 36.546 36.249 35.984 35.754 35.434 34.984 34.666 34.366 33.971 33.639 33.371 33.096 32.776 32.414 32.101 31.794 31.541 31.314 31.079 30.901 30.696 30.574 30.429 30.189 30.169 30.049 30.091 31.044 30.336 29.171 28.974 29.009 29.016 28.994 28.944 28.859 28.826 28.779 28.751 28.714 28.686 28.644 28.631 28.634 28.659 28.691 28.696 28.684 28.686 28.681 28.706 28.739 28.781 28.839 28.884 28.959 29.039 29.094 29.189 29.296 29.374 29.461 29.551 29.619 29.709 29.791 29.836 29.869 29.924 30.006 30.029 30.064 30.096 30.086 30.104 30.109 30.114 30.154 30.169 30.161 30.134 30.154 30.099 30.076 30.084 30.049 29.991 29.954 29.944 29.891 29.854 29.809 29.744 29.701 29.696 29.649 29.619 29.561 29.456 29.361 29.289 29.186 29.111 29.044 28.961 28.884 28.836 28.766
44.086 44.088 44.083 44.063 44.071 44.141 44.116 44.076 44.016 43.996 44.343 44.003 43.803 43.696 45.158 43.971 43.411 43.253 42.946 42.801 42.661 42.621 42.751 44.383 44.273 43.476 42.141 41.951 42.106 43.843 43.996 41.906 41.381 41.018 41.083 40.706 40.316 40.254 39.776 40.469 41.791 40.731 42.031 40.849 39.436 38.656 38.059 38.246 38.954 38.261 37.539 37.439 37.046 35.499 34.724 34.591 34.561 34.561 34.579 34.521 34.499 34.526 35.156 35.679 34.969 34.224 33.939 33.399 33.049 32.654 32.419 32.296 32.049 31.784 31.704 35.689 37.016 31.426 31.261 31.116 31.026 30.969 30.979 30.771 30.694 30.586 30.534 30.486 30.444 30.399 30.391 30.354 30.339 30.326 30.309 30.304 30.281 30.291 30.321 30.339 30.386 30.449 30.519 30.579 30.679 30.689 30.776 30.861 30.979 31.049 31.164 31.271 31.409 31.526 31.669 31.814 31.959 32.091 32.226 32.344 32.474 32.566 32.679 32.746 32.836 32.909 32.976 33.044 33.091 33.151 33.214 33.251 33.296 33.316 33.354 33.374 33.401 33.436 33.419 33.379 33.346 33.334 33.281 33.264 33.211 33.146 33.076 32.986 32.866 32.769 32.606 32.484 32.364 32.219 32.051 31.941 31.791 31.651 31.506 31.369 31.191 31.089 30.954 30.764 30.571 30.424 30.239 30.046 29.859 29.664 29.444 29.264 29.246 29.229 29.514 30.551 29.144 29.059 29.056 29.009 28.599 28.576 28.546 28.476 28.479 28.406 28.361 28.446 28.511 28.624 28.684 28.789 28.956 29.186 29.404 29.699 29.951 30.166 30.491 30.839 30.996 31.201 31.504 31.846 32.129 32.421 32.744 33.111 33.514 33.826 34.189 34.581 34.911 35.181 35.074 35.004 35.219 35.471 35.744 35.976 36.214 36.421 36.619 36.834 36.966 37.139 37.274 37.389 37.576 37.796 37.991 38.159 38.289 38.454 38.466 38.561 38.561 38.704 38.809 38.909 39.056 39.134 39.226 39.276 39.379 39.589 39.726 39.709 39.711 39.751 39.834 39.844 39.809 39.761 39.671 39.616 39.584 39.556 39.501 39.601 39.669 39.659 39.594 39.554 39.504 39.466 39.474 39.411 39.399 39.424 39.414 39.439 39.419 39.426 39.464 39.509 39.539 39.599 39.646 39.671 39.774 39.819 39.816 39.879 39.914 39.966 40.049 40.129 40.229 40.291 40.356 40.429 40.456 40.496 40.539 40.574 40.611 40.609 40.579 40.561 40.564 40.561 40.534 40.506 40.461 40.426 40.356 40.256 40.176 40.036 39.919 39.746 39.571 39.376 39.201 38.994 38.684 38.434 38.196 37.871 37.549 37.244 36.941 36.626 36.369 36.124 35.756 35.564 35.111 34.776 34.419 34.096 33.741 33.434 33.114 32.811 32.444 32.141 31.839 31.571 31.339 31.141 30.934 30.771 30.669 30.534 30.409 30.201 30.089 30.441 31.069 29.941 29.071 29.106 29.144 29.146 29.084 29.044 28.969 28.946 28.939 28.876 28.846 28.819 28.799 28.764 28.776 28.806 28.829 28.839 28.841 28.841 28.834 28.864 28.919 28.956 29.001 29.026 29.116 29.204 29.286 29.374 29.491 29.579 29.676 29.766 29.834 29.931 30.009 30.096 30.129 30.149 30.214 30.256 30.284 30.304 30.319 30.339 30.336 30.344 30.304 30.309 30.329 30.314 30.286 30.274 30.254 30.221 30.201 30.156 30.114 30.066 30.034 29.951 29.916 29.871 29.829 29.771 29.734 29.714 29.656 29.534 29.494 29.406 29.334 29.234 29.111 29.034 29.001 28.929 28.859
44.406 44.386 44.378 44.391 44.396 44.361 44.361 44.321 44.286 44.251 44.193 44.123 44.046 43.978 43.948 43.876 43.793 43.688 43.538 43.351 43.178 43.048 43.181 43.793 44.543 43.216 42.708 42.543 42.393 42.536 42.128 42.213 42.811 41.376 41.726 41.046 40.681 41.831 42.734 42.364 41.124 40.791 41.411 41.801 41.249 40.239 39.424 38.546 37.779 37.596 37.564 37.799 37.206 36.574 36.239 35.441 34.786 34.594 34.616 34.596 34.571 34.559 34.611 34.719 34.849 35.139 35.086 34.239 33.669 33.354 33.031 32.824 32.789 32.524 34.709 34.131 32.874 31.474 31.626 31.599 31.159 31.096 31.029 30.976 30.934 30.871 30.811 30.754 30.674 30.621 30.566 30.539 30.526 30.526 30.516 30.506 30.466 30.466 30.516 30.554 30.601 30.624 30.714 30.789 30.836 30.911 30.969 31.066 31.144 31.236 31.369 31.469 31.611 31.731 31.864 32.034 32.136 32.306 32.419 32.551 32.661 32.766 32.864 32.921 33.006 33.069 33.129 33.184 33.219 33.279 33.309 33.374 33.421 33.441 33.464 33.484 33.524 33.524 33.534 33.496 33.466 33.439 33.396 33.396 33.331 33.251 33.196 33.124 33.016 32.901 32.761 32.639 32.486 32.331 32.199 32.074 31.921 31.801 31.674 31.516 31.371 31.256 31.111 30.924 30.734 30.576 30.389 30.194 30.006 29.804 29.569 29.446 29.436 29.409 29.854 29.719 29.309 29.226 29.304 29.314 28.781 28.731 28.724 28.624 28.609 28.531 28.506 28.521 28.666 28.786 28.846 29.006 29.119 29.436 29.596 29.786 30.109 30.284 30.576 30.834 31.091 31.354 31.641 31.891 32.231 32.559 32.846 33.184 33.564 33.936 34.281 34.649 35.064 35.526 35.794 35.676 35.539 35.659 35.934 36.109 36.269 36.521 36.716 36.901 37.081 37.239 37.374 37.536 37.639 37.746 37.931 38.156 38.381 38.474 38.576 38.659 38.649 38.731 38.854 38.956 39.046 39.129 39.236 39.296 39.346 39.464 39.659 39.704 39.649 39.676 39.806 39.899 39.941 39.909 39.814 39.769 39.724 39.686 39.689 39.661 39.689 39.789 39.786 39.799 39.709 39.661 39.646 39.636 39.631 39.621 39.614 39.624 39.641 39.641 39.671 39.726 39.751 39.814 39.846 39.911 39.951 39.994 40.056 40.091 40.141 40.214 40.299 40.374 40.469 40.549 40.629 40.641 40.699 40.729 40.751 40.821 40.839 40.809 40.809 40.789 40.799 40.786 40.756 40.736 40.679 40.619 40.539 40.439 40.344 40.226 40.071 39.911 39.706 39.494 39.341 39.126 38.866 38.549 38.256 37.931 37.659 37.326 37.049 36.706 36.436 36.069 35.761 35.509 35.156 34.821 34.444 34.131 33.859 33.506 33.176 32.844 32.499 32.181 31.891 31.629 31.444 31.194 31.019 30.856 30.719 30.556 30.414 30.306 30.236 30.796 30.796 29.844 29.201 29.269 29.261 29.259 29.214 29.144 29.099 29.076 29.049 29.016 28.989 28.956 28.959 28.944 28.934 28.939 28.971 28.969 28.984 28.984 29.029 29.051 29.084 29.119 29.149 29.221 29.294 29.411 29.494 29.589 29.704 29.799 29.884 29.954 30.046 30.159 30.231 30.286 30.364 30.416 30.456 30.461 30.474 30.491 30.536 30.539 30.546 30.551 30.531 30.496 30.459 30.449 30.441 30.401 30.396 30.389 30.326 30.299 30.279 30.226 30.141 30.076 30.036 29.991 29.944 29.901 29.819 29.761 29.721 29.641 29.566 29.494 29.424 29.321 29.231 29.146 29.079 28.979 28.911
44.713 44.691 44.691 44.683 44.666 44.658 44.641 44.616 44.546 44.491 44.463 44.398 44.326 44.263 44.223 44.168 44.098 44.026 43.926 43.833 43.743 43.641 43.581 43.546 43.473 43.331 43.216 43.081 42.968 42.796 42.593 42.546 42.283 44.026 42.868 41.828 41.619 42.999 43.999 43.789 41.326 41.094 41.916 41.874 41.681 41.294 40.859 40.006 39.581 38.926 37.781 37.674 37.494 37.261 36.964 37.014 36.496 35.624 34.876 34.624 34.604 34.581 34.604 34.584 34.566 34.706 34.831 35.054 34.344 34.134 33.881 33.249 33.101 33.504 33.286 33.691 33.526 32.026 31.814 31.519 31.311 31.239 31.151 31.109 31.076 31.054 31.006 30.934 30.879 30.836 30.781 30.771 30.719 30.706 30.709 30.701 30.684 30.679 30.706 30.749 30.801 30.844 30.921 30.996 31.036 31.131 31.191 31.259 31.351 31.451 31.566 31.684 31.824 31.944 32.066 32.231 32.376 32.501 32.606 32.739 32.834 32.944 33.026 33.069 33.159 33.211 33.269 33.309 33.371 33.409 33.446 33.529 33.541 33.564 33.576 33.601 33.639 33.624 33.611 33.619 33.571 33.554 33.554 33.519 33.454 33.391 33.324 33.211 33.149 33.034 32.914 32.781 32.641 32.486 32.351 32.224 32.101 31.949 31.811 31.671 31.529 31.429 31.239 31.076 30.901 30.749 30.534 30.359 30.149 29.944 29.741 29.631 29.609 29.594 31.076 29.894 29.476 29.386 29.604 29.434 28.911 28.924 28.934 28.741 28.676 28.611 28.651 28.669 28.831 28.841 28.936 29.134 29.241 29.536 29.681 29.939 30.166 30.376 30.709 30.936 31.224 31.484 31.721 32.001 32.286 32.629 32.981 33.294 33.604 34.009 34.389 34.746 35.119 35.514 35.954 36.221 36.334 36.209 36.059 36.201 36.386 36.609 36.769 36.954 37.151 37.309 37.449 37.609 37.789 37.839 37.969 38.111 38.341 38.484 38.554 38.649 38.689 38.789 38.856 38.966 39.086 39.156 39.244 39.371 39.446 39.506 39.586 39.739 39.734 39.864 39.889 39.976 40.049 40.046 39.979 39.956 39.896 39.864 39.839 39.861 39.839 39.829 39.931 39.974 39.951 39.899 39.854 39.851 39.834 39.834 39.839 39.856 39.861 39.874 39.901 39.931 39.981 40.046 40.079 40.109 40.179 40.231 40.271 40.324 40.374 40.444 40.546 40.654 40.694 40.731 40.819 40.864 40.911 40.951 40.989 41.001 41.001 40.974 41.016 41.009 41.009 41.011 40.981 40.934 40.896 40.826 40.736 40.629 40.506 40.374 40.216 40.034 39.856 39.626 39.409 39.194 38.964 38.649 38.334 38.011 37.729 37.464 37.164 36.809 36.476 36.151 35.851 35.536 35.249 34.941 34.581 34.219 33.911 33.591 33.296 32.886 32.531 32.229 31.971 31.721 31.479 31.289 31.094 31.004 30.801 30.576 30.511 30.416 30.376 30.949 30.694 29.516 29.349 29.406 29.419 29.361 29.296 29.251 29.236 29.201 29.154 29.134 29.141 29.114 29.094 29.096 29.096 29.101 29.114 29.104 29.111 29.171 29.186 29.259 29.284 29.311 29.346 29.416 29.494 29.611 29.691 29.801 29.911 29.999 30.096 30.179 30.264 30.376 30.451 30.509 30.569 30.661 30.711 30.701 30.716 30.721 30.726 30.739 30.721 30.751 30.744 30.704 30.666 30.614 30.581 30.574 30.534 30.519 30.494 30.454 30.434 30.364 30.289 30.214 30.159 30.109 30.051 29.989 29.926 29.824 29.751 29.679 29.624 29.559 29.494 29.409 29.319 29.259 29.161 29.081 29.009
45.016 45.006 45.018 45.018 45.008 44.981 44.943 44.918 44.846 44.788 44.718 44.668 44.598 44.538 44.468 44.418 44.371 44.313 44.216 44.143 44.086 43.993 43.943 43.838 43.713 43.636 43.553 43.321 43.291 43.243 43.156 43.006 42.976 44.853 43.078 43.063 42.591 42.176 41.994 44.814 44.369 43.084 43.046 41.799 41.566 41.139 40.506 39.956 41.641 41.141 38.726 38.321 40.056 37.949 37.554 38.041 36.829 38.386 37.254 35.556 34.874 34.671 34.621 34.594 34.576 34.584 34.631 34.571 34.724 34.854 34.596 34.064 33.804 33.416 33.034 32.946 33.701 33.181 33.109 33.179 32.196 31.519 31.309 31.264 31.246 31.219 31.214 31.149 31.101 31.071 31.029 30.959 30.924 30.896 30.896 30.921 30.896 30.896 30.934 30.964 30.999 31.039 31.101 31.184 31.231 31.324 31.381 31.461 31.544 31.666 31.789 31.924 32.014 32.154 32.294 32.431 32.599 32.691 32.801 32.941 33.024 33.129 33.186 33.256 33.301 33.371 33.421 33.464 33.479 33.526 33.564 33.619 33.646 33.689 33.684 33.724 33.729 33.741 33.714 33.691 33.686 33.694 33.671 33.639 33.579 33.506 33.414 33.344 33.276 33.154 33.026 32.909 32.779 32.626 32.509 32.354 32.259 32.121 31.986 31.816 31.694 31.581 31.411 31.219 31.079 30.899 30.706 30.501 30.311 30.096 29.916 29.821 29.819 30.059 30.604 29.689 29.651 29.614 29.924 29.734 29.094 29.061 29.039 28.954 28.826 28.781 28.759 28.831 28.921 29.004 29.054 29.171 29.439 29.634 29.846 30.081 30.266 30.424 30.834 31.039 31.266 31.624 31.819 32.104 32.396 32.699 33.026 33.389 33.739 34.076 34.454 34.859 35.231 35.561 35.961 36.331 36.616 36.811 36.726 36.446 36.536 36.729 36.891 37.036 37.264 37.461 37.599 37.736 37.899 37.976 38.021 38.174 38.439 38.599 38.639 38.671 38.711 38.801 38.894 38.991 39.114 39.219 39.341 39.436 39.499 39.591 39.681 39.761 39.844 39.974 40.046 40.144 40.241 40.309 40.481 40.359 40.121 40.039 39.969 40.029 40.024 39.991 39.974 40.086 40.114 40.131 40.059 40.046 40.059 40.061 40.064 40.074 40.069 40.079 40.124 40.146 40.221 40.279 40.321 40.351 40.419 40.461 40.509 40.541 40.596 40.679 40.766 40.839 40.944 41.011 41.041 41.096 41.116 41.154 41.216 41.229 41.206 41.201 41.209 41.231 41.221 41.204 41.184 41.156 41.094 40.981 40.894 40.809 40.701 40.554 40.369 40.184 39.981 39.766 39.511 39.279 39.054 38.726 38.426 38.096 37.819 37.511 37.239 36.911 36.579 36.231 35.921 35.631 35.266 34.916 34.571 34.216 33.924 33.654 33.359 32.901 32.589 32.309 32.034 31.796 31.531 31.346 31.259 31.151 30.989 30.771 30.671 30.471 30.564 30.919 30.419 29.459 29.494 29.541 29.554 29.461 29.404 29.351 29.346 29.326 29.281 29.236 29.216 29.234 29.221 29.234 29.289 29.299 29.299 29.286 29.254 29.281 29.326 29.391 29.456 29.514 29.554 29.641 29.729 29.826 29.916 30.016 30.136 30.221 30.321 30.426 30.509 30.601 30.679 30.729 30.794 30.849 30.909 30.946 30.981 31.006 30.984 30.941 30.956 30.936 30.914 30.881 30.856 30.801 30.784 30.719 30.679 30.639 30.616 30.581 30.544 30.479 30.416 30.349 30.296 30.236 30.151 30.061 29.976 29.909 29.826 29.756 29.691 29.619 29.551 29.479 29.411 29.336 29.256 29.161 29.089
45.283 45.308 45.336 45.348 45.338 45.321 45.286 45.211 45.158 45.093 45.041 44.996 44.941 44.883 44.781 44.731 44.668 44.598 44.503 44.451 44.378 44.283 44.191 44.118 44.018 43.923 43.836 43.746 43.638 43.566 43.468 43.371 43.268 43.331 43.351 43.501 42.659 42.864 44.176 45.421 44.054 44.281 44.416 42.279 42.254 42.369 41.901 42.391 42.754 39.756 39.441 39.134 39.131 38.411 37.971 37.796 37.661 37.541 39.041 38.646 36.936 35.531 34.876 34.686 34.619 34.614 34.616 34.641 34.556 34.574 34.754 34.806 34.646 34.061 33.676 33.449 33.131 32.971 32.929 34.319 34.169 32.179 32.494 32.086 31.369 31.651 31.319 31.566 31.296 31.261 31.231 31.194 31.181 31.129 31.134 31.104 31.071 31.236 31.114 31.146 31.176 31.256 31.291 31.361 31.426 31.516 31.571 31.661 31.734 31.859 31.996 32.104 32.211 32.329 32.491 32.641 32.766 32.881 32.996 33.111 33.196 33.291 33.359 33.441 33.489 33.526 33.556 33.576 33.621 33.681 33.736 33.776 33.784 33.809 33.816 33.831 33.829 33.866 33.851 33.836 33.806 33.819 33.784 33.754 33.684 33.629 33.574 33.509 33.399 33.301 33.181 33.059 32.899 32.769 32.646 32.539 32.409 32.259 32.119 31.966 31.884 31.749 31.571 31.404 31.241 31.029 30.879 30.656 30.464 30.264 30.111 30.049 29.989 30.854 30.714 29.906 29.804 29.844 30.121 29.454 29.269 29.206 29.129 29.019 29.016 28.876 28.951 29.001 29.079 29.081 29.164 29.244 29.509 29.774 29.941 30.151 30.354 30.576 30.894 31.076 31.324 31.636 31.941 32.291 32.486 32.774 33.101 33.459 33.819 34.216 34.561 34.914 35.321 35.666 36.051 36.396 36.734 37.156 37.276 37.084 36.896 36.964 37.034 37.149 37.379 37.596 37.774 37.916 38.079 38.149 38.254 38.466 38.744 38.889 38.926 38.911 38.839 38.841 38.934 39.044 39.134 39.249 39.374 39.461 39.601 39.669 39.761 39.856 39.919 40.044 40.211 40.251 40.309 40.691 41.609 41.226 40.419 40.234 40.191 40.134 40.164 40.181 40.179 40.176 40.219 40.329 40.279 40.264 40.266 40.271 40.281 40.299 40.294 40.289 40.334 40.394 40.449 40.506 40.534 40.616 40.661 40.686 40.764 40.796 40.851 40.974 41.031 41.101 41.174 41.236 41.256 41.316 41.341 41.366 41.421 41.471 41.441 41.444 41.449 41.431 41.446 41.416 41.394 41.349 41.259 41.179 41.091 40.984 40.849 40.699 40.524 40.334 40.129 39.906 39.639 39.381 39.144 38.871 38.509 38.219 37.906 37.594 37.269 36.964 36.629 36.311 35.991 35.681 35.374 35.086 34.701 34.309 33.949 33.636 33.296 32.949 32.649 32.391 32.126 31.919 31.611 31.489 31.326 31.139 30.956 30.874 30.744 30.661 31.009 31.171 30.269 29.569 29.614 29.669 29.619 29.539 29.506 29.484 29.454 29.431 29.389 29.364 29.366 29.354 29.366 29.384 29.431 29.486 29.456 29.461 29.459 29.469 29.499 29.546 29.599 29.676 29.751 29.851 29.961 30.041 30.134 30.231 30.354 30.456 30.536 30.636 30.754 30.839 30.901 30.961 31.041 31.079 31.106 31.134 31.174 31.231 31.226 31.211 31.161 31.149 31.119 31.074 31.021 30.986 30.974 30.914 30.881 30.809 30.749 30.711 30.636 30.589 30.516 30.464 30.406 30.334 30.234 30.131 30.051 29.986 29.944 29.849 29.744 29.644 29.599 29.531 29.459 29.399 29.316 29.251 29.164
45.611 45.628 45.636 45.631 45.616 45.611 45.576 45.531 45.431 45.386 45.323 45.273 45.221 45.168 45.113 45.063 44.993 44.936 44.896 44.803 44.761 44.643 44.551 44.466 44.366 44.256 44.156 44.058 43.948 43.843 43.728 43.651 43.596 43.468 43.368 43.278 43.214 43.134 43.646 43.024 42.919 43.694 44.111 42.821 42.191 43.989 44.356 42.396 44.224 43.234 40.966 42.094 39.661 40.916 39.266 38.564 38.079 37.839 37.821 38.074 37.711 37.376 36.629 35.566 34.879 34.681 34.664 34.641 34.596 34.581 34.576 34.641 34.714 34.631 34.329 34.109 33.824 33.506 33.241 34.761 33.911 36.281 33.729 33.026 33.126 31.724 31.521 31.431 31.446 31.449 31.421 31.406 31.404 31.391 31.364 31.326 31.294 31.299 31.324 31.344 31.396 31.459 31.471 31.559 31.619 31.694 31.784 31.859 31.954 32.069 32.204 32.326 32.431 32.546 32.711 32.819 32.964 33.081 33.196 33.291 33.404 33.481 33.559 33.599 33.654 33.684 33.734 33.744 33.791 33.819 33.876 33.886 33.919 33.959 33.954 33.976 33.971 33.976 33.969 33.954 33.936 33.929 33.914 33.871 33.804 33.759 33.671 33.619 33.509 33.399 33.314 33.179 33.044 32.934 32.791 32.679 32.551 32.434 32.279 32.159 32.071 31.914 31.736 31.551 31.411 31.219 31.044 30.814 30.629 30.421 30.301 30.269 30.301 31.411 30.404 30.094 30.034 30.159 30.191 29.454 29.431 29.381 29.251 29.134 29.071 29.076 29.069 29.096 29.209 29.261 29.281 29.441 29.666 29.796 30.014 30.229 30.474 30.744 31.036 31.166 31.391 31.689 32.014 32.331 32.569 32.821 33.149 33.514 33.914 34.294 34.676 34.994 35.336 35.709 36.081 36.454 36.779 37.171 37.469 37.669 37.749 37.891 37.701 37.646 37.564 37.856 37.901 38.051 38.226 38.409 38.679 38.831 38.996 39.096 39.169 39.266 39.269 39.056 39.109 39.086 39.159 39.286 39.434 39.551 39.639 39.776 39.839 39.936 40.004 40.084 40.194 40.356 40.371 40.956 41.964 41.491 40.644 40.399 40.376 40.336 40.314 40.349 40.391 40.419 40.384 40.461 40.476 40.506 40.494 40.491 40.456 40.484 40.489 40.524 40.586 40.619 40.686 40.739 40.754 40.814 40.869 40.931 40.974 41.034 41.101 41.171 41.301 41.371 41.389 41.449 41.491 41.536 41.589 41.594 41.674 41.684 41.659 41.639 41.639 41.641 41.631 41.639 41.609 41.531 41.471 41.381 41.291 41.164 41.024 40.851 40.664 40.486 40.271 40.006 39.796 39.534 39.246 38.954 38.639 38.319 38.029 37.724 37.374 37.026 36.716 36.386 36.054 35.724 35.376 35.049 34.744 34.394 34.036 33.721 33.386 33.011 32.729 32.441 32.161 31.931 31.794 31.589 31.361 31.204 31.099 30.911 30.761 30.876 31.619 31.134 29.891 29.694 29.754 29.781 29.711 29.624 29.591 29.574 29.596 29.559 29.519 29.491 29.504 29.511 29.494 29.539 29.574 29.586 29.611 29.616 29.649 29.679 29.709 29.771 29.816 29.881 29.954 30.061 30.164 30.274 30.371 30.479 30.586 30.681 30.769 30.869 30.979 31.066 31.101 31.194 31.261 31.294 31.344 31.369 31.361 31.384 31.429 31.436 31.401 31.369 31.304 31.266 31.236 31.186 31.139 31.071 31.039 30.994 30.914 30.839 30.756 30.689 30.619 30.571 30.514 30.446 30.374 30.231 30.131 30.051 29.989 29.941 29.829 29.721 29.659 29.619 29.511 29.444 29.359 29.306 29.231
45.946 45.961 45.973 45.961 45.913 45.901 45.881 45.816 45.751 45.721 45.661 45.593 45.531 45.473 45.416 45.366 45.306 45.268 45.206 45.118 45.048 44.988 44.918 44.818 44.728 44.638 44.516 44.416 44.336 44.228 44.123 44.023 43.931 43.821 43.696 43.596 43.544 43.441 43.354 43.279 43.139 43.186 42.824 42.576 42.439 43.801 43.911 42.864 43.256 43.554 41.554 40.526 40.454 41.844 43.561 40.884 39.041 38.744 38.111 37.996 37.711 38.026 37.859 37.369 36.139 35.361 34.771 34.714 34.626 34.604 34.656 34.576 34.599 34.589 34.586 34.604 34.704 34.131 33.831 33.681 33.659 34.746 33.526 33.006 33.869 34.359 32.676 32.096 31.546 31.549 31.566 31.556 31.574 31.589 31.811 31.544 31.561 31.566 31.551 31.564 31.636 31.621 31.681 31.774 31.799 31.916 32.001 32.059 32.154 32.316 32.414 32.519 32.626 32.776 32.936 33.046 33.154 33.271 33.394 33.476 33.579 33.654 33.726 33.766 33.794 33.854 33.901 33.924 33.954 33.964 34.001 34.059 34.081 34.089 34.111 34.104 34.126 34.106 34.099 34.066 34.061 34.061 34.059 33.994 33.951 33.866 33.824 33.754 33.651 33.561 33.466 33.324 33.186 33.074 32.941 32.819 32.709 32.574 32.416 32.341 32.234 32.071 31.884 31.731 31.589 31.386 31.211 30.971 30.801 30.611 30.524 30.471 30.829 31.836 30.356 30.289 30.231 30.466 30.384 29.694 29.531 29.486 29.361 29.259 29.244 29.164 29.194 29.224 29.319 29.469 29.451 29.561 29.666 29.851 30.079 30.279 30.556 30.821 31.126 31.356 31.531 31.771 31.964 32.309 32.611 32.956 33.224 33.566 33.944 34.356 34.724 35.124 35.444 35.731 36.114 36.486 36.834 37.169 37.461 37.771 38.081 38.324 38.469 38.501 38.329 38.266 38.201 38.319 38.469 38.764 38.979 39.104 39.184 39.259 39.284 39.379 39.476 39.466 39.464 39.319 39.241 39.344 39.479 39.544 39.641 39.786 39.901 40.009 40.006 40.094 40.209 40.361 40.519 40.786 41.144 41.081 40.716 40.644 40.536 40.561 40.506 40.529 40.551 40.591 40.609 40.599 40.639 40.696 40.706 40.671 40.676 40.686 40.731 40.754 40.779 40.829 40.846 40.924 40.989 41.059 41.114 41.154 41.214 41.251 41.326 41.414 41.534 41.581 41.611 41.659 41.729 41.751 41.841 41.891 41.894 41.874 41.866 41.864 41.866 41.874 41.854 41.826 41.794 41.714 41.659 41.579 41.446 41.334 41.179 41.029 40.821 40.634 40.381 40.136 39.901 39.629 39.349 39.066 38.766 38.461 38.169 37.826 37.534 37.194 36.826 36.489 36.186 35.806 35.444 35.206 34.741 34.371 34.136 33.786 33.369 33.071 32.776 32.501 32.226 31.996 31.826 31.629 31.409 31.294 31.191 30.986 30.894 31.321 31.629 31.021 29.959 29.846 29.889 29.884 29.779 29.734 29.701 29.696 29.686 29.644 29.631 29.649 29.651 29.654 29.656 29.674 29.716 29.731 29.754 29.774 29.811 29.866 29.924 29.974 30.039 30.119 30.181 30.274 30.394 30.506 30.601 30.719 30.821 30.921 30.999 31.081 31.166 31.249 31.331 31.424 31.489 31.546 31.566 31.584 31.606 31.634 31.629 31.636 31.616 31.591 31.546 31.479 31.411 31.371 31.309 31.261 31.196 31.139 31.061 30.984 30.886 30.781 30.699 30.654 30.594 30.544 30.451 30.324 30.249 30.156 30.049 30.014 29.914 29.841 29.749 29.661 29.561 29.489 29.409 29.311 29.226
46.333 46.323 46.306 46.308 46.263 46.231 46.166 46.126 46.078 46.026 45.976 45.903 45.856 45.801 45.741 45.678 45.636 45.583 45.523 45.461 45.381 45.316 45.241 45.151 45.053 44.956 44.881 44.783 44.703 44.641 44.548 44.431 44.318 44.226 44.096 43.978 43.884 43.809 43.724 43.664 43.616 43.484 43.329 43.094 42.801 42.714 42.551 42.751 42.824 42.906 42.259 41.989 40.891 40.751 41.884 40.444 39.831 40.384 39.069 39.001 38.686 38.411 38.241 38.181 37.779 36.971 35.721 35.174 34.769 34.679 34.646 34.644 34.611 34.601 34.589 34.589 34.706 34.749 34.584 34.464 34.211 33.914 33.756 33.616 33.211 34.011 34.039 33.489 32.006 31.749 31.684 31.691 31.739 31.769 31.751 31.741 31.759 31.756 31.814 31.811 31.854 31.841 31.906 31.959 32.014 32.104 32.171 32.281 32.396 32.514 32.596 32.749 32.846 32.979 33.089 33.241 33.336 33.471 33.571 33.661 33.751 33.821 33.869 33.934 33.959 34.026 34.031 34.064 34.089 34.136 34.176 34.174 34.234 34.241 34.249 34.279 34.264 34.249 34.234 34.221 34.226 34.176 34.179 34.129 34.064 33.991 33.936 33.859 33.794 33.684 33.591 33.466 33.334 33.201 33.101 32.974 32.854 32.736 32.604 32.504 32.396 32.264 32.049 31.916 31.744 31.569 31.364 31.174 30.949 30.799 30.726 30.704 31.561 32.004 30.554 30.474 30.589 31.626 30.381 29.904 29.729 29.584 29.416 29.526 29.359 29.366 29.296 29.371 29.449 29.449 29.486 29.624 29.756 29.934 30.069 30.296 30.621 30.799 31.099 31.371 31.606 31.904 32.091 32.381 32.684 33.076 33.309 33.644 34.019 34.336 34.726 35.106 35.469 35.849 36.169 36.509 36.849 37.181 37.536 37.826 38.106 38.426 38.739 38.931 39.111 39.204 39.219 38.999 38.804 38.946 39.176 39.324 39.394 39.411 39.421 39.506 39.534 39.549 39.609 39.579 39.456 39.409 39.509 39.596 39.681 39.864 39.971 40.021 40.069 40.256 40.384 40.559 40.681 40.874 40.876 40.984 40.946 40.806 40.771 40.759 40.751 40.759 40.719 40.769 40.794 40.804 40.769 40.854 40.884 40.879 40.891 40.906 40.941 40.944 40.961 40.996 41.071 41.131 41.196 41.274 41.351 41.399 41.466 41.531 41.571 41.686 41.784 41.819 41.851 41.906 41.921 42.006 42.056 42.079 42.101 42.086 42.106 42.106 42.064 42.066 42.051 42.049 41.989 41.901 41.834 41.756 41.634 41.506 41.341 41.179 40.999 40.781 40.514 40.259 40.001 39.726 39.441 39.156 38.856 38.556 38.251 37.956 37.684 37.429 36.964 36.596 36.206 35.829 35.506 35.279 34.856 34.464 34.169 33.869 33.459 33.114 32.826 32.579 32.284 32.106 31.914 31.721 31.536 31.384 31.234 31.066 31.159 31.874 31.539 30.656 29.976 30.011 30.029 29.981 29.911 29.881 29.831 29.826 29.809 29.769 29.729 29.759 29.774 29.801 29.826 29.844 29.864 29.889 29.926 29.931 30.011 30.029 30.104 30.184 30.256 30.349 30.434 30.521 30.604 30.719 30.849 30.969 31.056 31.166 31.249 31.339 31.406 31.464 31.544 31.629 31.689 31.716 31.759 31.799 31.834 31.844 31.849 31.821 31.784 31.786 31.751 31.689 31.641 31.556 31.494 31.414 31.394 31.306 31.209 31.119 31.069 30.969 30.831 30.759 30.681 30.596 30.496 30.406 30.304 30.236 30.139 30.056 29.946 29.884 29.796 29.761 29.624 29.531 29.441 29.346 29.256
46.731 46.726 46.708 46.676 46.626 46.578 46.526 46.466 46.406 46.376 46.303 46.256 46.191 46.138 46.068 46.026 45.948 45.928 45.851 45.791 45.723 45.653 45.586 45.508 45.398 45.321 45.216 45.141 45.088 45.016 44.921 44.831 44.708 44.633 44.513 44.376 44.276 44.221 44.146 44.079 43.984 43.954 43.769 43.556 43.409 43.176 43.024 43.184 44.314 43.439 42.976 43.849 42.379 44.566 43.266 41.461 40.514 40.106 39.856 39.596 39.466 39.734 40.159 38.999 37.869 37.821 37.239 36.794 35.664 35.039 34.746 34.666 34.624 34.616 34.654 34.611 34.574 34.564 34.651 34.909 35.196 35.174 34.636 34.361 33.794 33.839 34.271 34.001 32.716 32.444 31.956 31.859 31.801 31.864 31.879 31.884 31.894 31.916 31.991 32.066 32.081 32.191 32.104 32.176 32.246 32.299 32.381 32.489 32.599 32.694 32.811 32.939 33.034 33.194 33.271 33.394 33.539 33.679 33.759 33.856 33.931 33.999 34.041 34.114 34.146 34.199 34.211 34.244 34.256 34.286 34.324 34.346 34.401 34.389 34.406 34.424 34.411 34.389 34.379 34.371 34.371 34.339 34.301 34.269 34.231 34.154 34.079 34.001 33.949 33.849 33.726 33.579 33.471 33.336 33.236 33.116 33.001 32.901 32.769 32.691 32.561 32.404 32.234 32.096 31.904 31.744 31.534 31.336 31.134 31.024 30.969 30.976 32.691 31.216 30.744 30.656 31.669 32.541 30.576 30.021 29.836 29.729 29.721 29.556 29.449 29.426 29.464 29.511 29.556 29.581 29.559 29.661 29.814 30.044 30.224 30.446 30.676 30.869 31.161 31.461 31.681 31.906 32.181 32.459 32.746 32.991 33.316 33.699 34.054 34.426 34.806 35.174 35.529 35.889 36.234 36.586 36.901 37.224 37.549 37.881 38.189 38.479 38.724 39.029 39.349 39.614 39.764 39.774 39.739 39.464 39.329 39.349 39.431 39.516 39.516 39.591 39.641 39.661 39.681 39.731 39.769 39.664 39.571 39.649 39.784 39.951 40.046 40.096 40.206 40.396 40.606 40.726 40.784 40.909 40.989 41.136 41.029 41.044 41.016 41.011 40.934 40.921 40.901 40.969 41.004 41.016 41.014 41.004 41.061 41.106 41.091 41.116 41.134 41.136 41.199 41.219 41.296 41.384 41.424 41.486 41.564 41.621 41.694 41.766 41.874 41.961 42.009 42.024 42.069 42.121 42.181 42.254 42.286 42.266 42.301 42.319 42.334 42.304 42.294 42.291 42.281 42.264 42.176 42.154 42.051 41.936 41.804 41.666 41.546 41.376 41.189 40.946 40.659 40.384 40.099 39.834 39.564 39.269 38.941 38.639 38.336 38.024 37.651 37.314 37.074 36.644 36.271 35.934 35.626 35.246 34.934 34.554 34.241 33.819 33.481 33.136 32.861 32.654 32.351 32.141 32.111 31.826 31.591 31.439 31.339 31.159 31.581 32.034 31.484 30.546 30.121 30.144 30.154 30.084 30.044 30.011 29.976 29.954 29.929 29.919 29.876 29.891 29.916 29.951 29.991 30.014 30.039 30.049 30.099 30.131 30.154 30.251 30.286 30.386 30.466 30.569 30.691 30.769 30.869 30.991 31.064 31.186 31.289 31.381 31.494 31.576 31.654 31.711 31.764 31.829 31.889 31.914 31.951 31.994 32.031 32.069 32.054 32.041 32.006 31.939 31.921 31.884 31.836 31.759 31.684 31.606 31.516 31.444 31.371 31.274 31.204 31.086 31.004 30.906 30.779 30.654 30.566 30.479 30.371 30.289 30.194 30.109 30.021 29.926 29.849 29.809 29.716 29.606 29.491 29.374 29.291
47.176 47.138 47.116 47.066 46.996 46.968 46.873 46.816 46.766 46.713 46.643 46.611 46.558 46.481 46.441 46.381 46.343 46.266 46.208 46.133 46.053 45.988 45.933 45.858 45.768 45.681 45.598 45.523 45.453 45.408 45.331 45.211 45.111 45.013 44.903 44.763 44.654 44.581 44.504 44.476 44.386 44.314 44.206 44.051 43.909 43.786 43.569 43.931 45.169 45.266 43.871 44.069 43.834 43.791 43.481 42.749 41.299 40.781 40.489 41.996 42.661 39.716 40.646 40.084 41.161 38.639 37.686 37.634 37.111 36.329 35.559 35.004 34.766 34.649 34.636 34.679 34.646 34.659 34.674 34.614 34.889 35.319 35.476 35.169 34.444 35.146 34.516 33.956 33.574 33.886 33.509 32.261 32.446 32.149 31.986 32.009 32.069 32.091 32.131 32.481 32.246 32.424 32.359 32.394 32.481 32.516 32.599 32.671 32.801 32.896 33.019 33.136 33.251 33.381 33.486 33.616 33.706 33.829 33.939 34.036 34.111 34.171 34.221 34.281 34.301 34.344 34.359 34.409 34.426 34.456 34.466 34.514 34.541 34.551 34.566 34.596 34.561 34.571 34.564 34.546 34.509 34.496 34.446 34.426 34.344 34.281 34.219 34.136 34.079 33.976 33.874 33.754 33.644 33.519 33.389 33.274 33.171 33.061 32.966 32.876 32.749 32.554 32.429 32.261 32.096 31.911 31.739 31.496 31.339 31.254 31.206 31.686 32.861 31.319 30.961 30.859 32.524 31.966 30.156 30.114 29.956 29.866 29.891 29.679 29.546 29.549 29.559 29.631 29.751 29.701 29.691 29.809 30.029 30.169 30.356 30.529 30.801 30.984 31.261 31.549 31.711 32.011 32.164 32.474 32.734 33.021 33.369 33.701 34.064 34.424 34.824 35.241 35.544 35.934 36.321 36.629 36.984 37.284 37.586 37.889 38.216 38.526 38.781 39.024 39.261 39.514 39.721 39.871 40.064 39.971 39.836 39.644 39.501 39.464 39.456 39.574 39.666 39.744 39.781 39.819 39.826 39.791 39.764 39.701 39.811 40.016 40.121 40.169 40.349 40.514 40.754 40.856 40.944 41.011 41.051 41.094 41.166 41.209 41.184 41.194 41.176 41.134 41.094 41.129 41.164 41.196 41.196 41.231 41.279 41.309 41.299 41.309 41.296 41.321 41.374 41.426 41.484 41.584 41.624 41.714 41.781 41.839 41.934 41.966 42.129 42.209 42.244 42.286 42.301 42.364 42.369 42.396 42.484 42.481 42.504 42.511 42.519 42.491 42.496 42.516 42.471 42.454 42.381 42.346 42.231 42.121 42.014 41.879 41.691 41.489 41.306 41.064 40.799 40.526 40.236 39.964 39.679 39.366 39.059 38.729 38.376 38.046 37.724 37.349 37.021 36.696 36.291 35.959 35.581 35.236 34.886 34.596 34.304 33.884 33.541 33.184 32.891 32.656 32.501 32.274 32.151 31.891 31.766 31.586 31.491 31.311 31.821 32.209 31.341 30.326 30.234 30.256 30.241 30.191 30.154 30.114 30.114 30.086 30.096 30.056 30.041 30.044 30.061 30.056 30.126 30.174 30.186 30.221 30.249 30.319 30.396 30.451 30.511 30.594 30.704 30.814 30.914 31.006 31.126 31.246 31.329 31.424 31.499 31.619 31.714 31.801 31.881 31.944 32.009 32.059 32.099 32.119 32.166 32.209 32.226 32.219 32.266 32.276 32.214 32.149 32.099 32.051 32.001 31.929 31.884 31.779 31.696 31.604 31.511 31.394 31.301 31.236 31.141 31.056 30.921 30.774 30.659 30.551 30.441 30.341 30.246 30.156 30.074 29.971 29.886 29.836 29.754 29.644 29.546 29.436 29.334
47.593 47.561 47.503 47.451 47.398 47.341 47.271 47.201 47.131 47.091 47.021 46.988 46.936 46.866 46.828 46.786 46.698 46.656 46.578 46.521 46.446 46.358 46.286 46.241 46.136 46.053 45.988 45.923 45.846 45.781 45.698 45.616 45.541 45.431 45.306 45.178 45.046 44.961 44.896 44.854 44.741 44.676 44.596 44.416 44.394 44.119 43.976 44.409 43.774 44.216 43.856 44.124 44.229 43.106 42.294 42.111 41.676 41.394 41.451 42.119 41.439 40.321 41.156 41.904 41.176 39.639 38.441 38.086 38.721 37.479 39.326 37.969 35.664 34.991 34.726 34.689 34.669 34.694 34.681 34.646 34.631 34.741 34.991 35.349 35.364 36.036 35.341 34.691 34.131 34.254 33.894 33.206 33.101 32.969 32.469 32.239 32.191 32.164 32.206 32.286 32.361 32.429 32.531 32.581 32.661 32.769 32.816 32.889 33.001 33.119 33.239 33.339 33.456 33.541 33.681 33.794 33.909 34.016 34.114 34.194 34.274 34.334 34.394 34.429 34.484 34.506 34.556 34.586 34.611 34.644 34.674 34.699 34.726 34.736 34.749 34.761 34.741 34.729 34.724 34.701 34.669 34.654 34.594 34.576 34.494 34.446 34.364 34.294 34.214 34.136 34.014 33.894 33.779 33.661 33.549 33.451 33.359 33.231 33.139 33.064 32.919 32.744 32.621 32.456 32.281 32.094 31.906 31.681 31.536 31.474 31.431 32.386 32.819 31.249 31.149 31.201 33.241 31.964 30.374 30.369 30.226 30.121 30.034 29.791 29.714 29.759 29.756 29.771 29.876 29.879 29.809 29.931 30.149 30.279 30.521 30.664 30.846 31.064 31.294 31.534 31.739 32.036 32.224 32.466 32.786 33.126 33.426 33.731 34.076 34.466 34.846 35.209 35.566 35.926 36.324 36.694 37.021 37.331 37.679 37.959 38.226 38.514 38.784 39.056 39.256 39.449 39.571 39.769 39.959 40.121 40.104 39.994 39.791 39.616 39.574 39.596 39.656 39.721 39.791 39.849 39.909 39.926 39.956 39.924 39.906 39.991 40.131 40.296 40.526 40.666 40.901 41.056 41.146 41.194 41.161 41.226 41.306 41.419 41.384 41.359 41.339 41.311 41.284 41.311 41.326 41.411 41.441 41.451 41.486 41.456 41.471 41.491 41.506 41.526 41.601 41.639 41.699 41.749 41.829 41.939 41.996 42.074 42.151 42.229 42.316 42.409 42.449 42.481 42.524 42.596 42.601 42.654 42.706 42.701 42.706 42.739 42.731 42.716 42.694 42.716 42.711 42.624 42.586 42.529 42.431 42.289 42.161 42.029 41.846 41.671 41.411 41.179 40.904 40.621 40.341 40.056 39.791 39.476 39.159 38.846 38.521 38.194 37.786 37.436 37.081 36.756 36.479 36.016 35.661 35.276 34.891 34.596 34.251 33.899 33.566 33.254 32.969 32.741 32.486 32.291 32.086 31.919 31.731 31.659 31.534 31.489 32.084 32.094 31.191 30.371 30.379 30.389 30.341 30.306 30.279 30.249 30.241 30.209 30.174 30.189 30.186 30.209 30.206 30.249 30.289 30.329 30.349 30.406 30.451 30.509 30.579 30.626 30.739 30.826 30.934 31.024 31.129 31.266 31.401 31.499 31.599 31.681 31.769 31.871 31.929 32.011 32.094 32.176 32.249 32.306 32.326 32.374 32.386 32.414 32.424 32.401 32.421 32.436 32.426 32.364 32.309 32.259 32.151 32.089 32.041 31.964 31.881 31.794 31.656 31.546 31.459 31.346 31.274 31.139 31.016 30.906 30.784 30.649 30.514 30.369 30.269 30.189 30.104 30.011 29.941 29.884 29.764 29.659 29.576 29.449 29.361
48.041 47.983 47.916 47.876 47.818 47.741 47.663 47.583 47.516 47.466 47.416 47.376 47.346 47.288 47.228 47.203 47.131 47.058 46.983 46.921 46.826 46.756 46.691 46.586 46.521 46.451 46.386 46.328 46.248 46.146 46.078 46.011 45.911 45.821 45.723 45.583 45.441 45.349 45.259 45.229 45.139 45.061 44.981 44.826 44.629 44.476 44.284 44.196 43.874 43.741 43.781 43.901 43.684 43.029 42.609 42.399 42.144 41.891 42.351 41.866 42.641 41.794 43.119 41.496 40.326 39.654 41.419 40.411 39.539 37.826 37.554 37.399 36.921 36.494 35.564 35.436 34.876 34.656 34.724 34.691 34.664 34.701 34.731 34.729 34.781 35.104 35.489 35.474 34.774 34.731 34.631 34.999 33.506 33.196 32.764 32.814 34.509 33.501 32.451 32.366 32.431 32.526 32.614 32.706 32.826 32.944 33.036 33.159 33.256 33.351 33.424 33.541 33.656 33.764 33.886 33.981 34.099 34.156 34.289 34.364 34.434 34.504 34.576 34.581 34.651 34.686 34.739 34.769 34.769 34.814 34.834 34.896 34.889 34.911 34.909 34.914 34.926 34.879 34.884 34.866 34.846 34.824 34.764 34.741 34.654 34.589 34.541 34.466 34.349 34.299 34.176 34.059 33.931 33.854 33.721 33.621 33.526 33.401 33.319 33.266 33.096 32.951 32.819 32.646 32.479 32.306 32.096 31.874 31.764 31.714 31.784 32.791 31.699 31.394 31.371 31.759 32.961 31.416 30.584 30.489 30.419 30.269 30.139 30.014 29.964 29.949 29.924 29.981 30.014 29.981 30.079 30.124 30.344 30.539 30.566 30.689 30.944 31.189 31.361 31.526 31.781 32.016 32.269 32.551 32.876 33.161 33.471 33.774 34.126 34.479 34.864 35.236 35.589 35.946 36.326 36.726 37.081 37.421 37.699 38.019 38.294 38.541 38.794 39.019 39.246 39.434 39.584 39.706 39.806 39.951 40.034 40.176 40.216 40.076 39.764 39.736 39.764 39.834 39.904 39.949 40.059 40.304 40.396 40.314 40.266 40.289 40.324 40.491 40.671 40.821 41.091 41.336 41.454 41.469 41.416 41.431 41.419 41.504 41.581 41.511 41.486 41.459 41.446 41.491 41.516 41.584 41.614 41.644 41.666 41.669 41.651 41.664 41.701 41.744 41.826 41.899 41.926 41.981 42.046 42.174 42.239 42.316 42.396 42.456 42.526 42.586 42.659 42.704 42.779 42.809 42.824 42.884 42.884 42.901 42.916 42.944 42.954 42.936 42.924 42.896 42.876 42.806 42.751 42.671 42.584 42.474 42.339 42.159 41.976 41.779 41.544 41.311 41.056 40.744 40.461 40.164 39.879 39.544 39.254 38.914 38.559 38.274 37.899 37.539 37.201 36.826 36.406 36.121 35.744 35.346 34.991 34.694 34.291 33.976 33.671 33.326 33.056 32.781 32.511 32.311 32.114 32.014 31.794 31.674 31.539 31.714 32.404 31.856 30.719 30.506 30.506 30.496 30.434 30.394 30.384 30.379 30.361 30.344 30.314 30.291 30.331 30.364 30.401 30.436 30.471 30.501 30.509 30.554 30.624 30.716 30.794 30.861 30.931 31.044 31.169 31.286 31.384 31.514 31.651 31.784 31.874 31.941 32.039 32.114 32.201 32.266 32.301 32.379 32.446 32.501 32.556 32.571 32.616 32.616 32.604 32.606 32.616 32.584 32.561 32.556 32.514 32.451 32.364 32.281 32.171 32.106 32.031 31.929 31.814 31.714 31.594 31.476 31.374 31.246 31.144 31.009 30.861 30.761 30.599 30.459 30.339 30.226 30.121 30.034 29.981 29.881 29.794 29.679 29.581 29.464 29.376
48.503 48.423 48.343 48.288 48.211 48.143 48.086 48.031 47.961 47.903 47.853 47.836 47.768 47.726 47.653 47.626 47.563 47.481 47.388 47.341 47.268 47.186 47.101 47.026 46.941 46.851 46.788 46.738 46.671 46.573 46.476 46.376 46.296 46.226 46.118 46.008 45.889 45.756 45.664 45.604 45.551 45.474 45.421 45.251 45.114 44.876 44.741 44.474 44.286 44.171 44.109 43.771 43.561 43.284 43.061 42.811 42.584 42.341 42.106 41.899 42.179 43.619 43.264 41.111 41.176 40.564 40.631 41.471 40.704 39.061 38.214 37.676 37.529 37.504 36.751 36.139 36.009 35.241 34.824 34.714 34.711 34.706 34.711 34.741 34.746 34.754 34.746 35.049 35.031 35.709 34.616 34.926 34.486 33.759 33.329 33.794 33.926 32.991 33.001 32.751 32.614 32.666 32.734 32.814 32.936 33.061 33.221 33.334 33.466 33.564 33.654 33.744 33.859 33.964 34.034 34.189 34.254 34.356 34.451 34.519 34.604 34.659 34.719 34.776 34.799 34.854 34.886 34.934 34.966 35.001 35.034 35.046 35.069 35.089 35.094 35.089 35.089 35.076 35.086 35.041 35.044 34.986 34.936 34.906 34.854 34.754 34.691 34.614 34.539 34.454 34.326 34.216 34.109 34.014 33.909 33.789 33.691 33.621 33.499 33.439 33.264 33.139 33.004 32.831 32.674 32.489 32.291 32.114 32.031 31.959 32.236 32.886 31.626 31.649 31.619 32.366 33.434 31.226 30.791 30.644 30.624 30.551 30.309 30.234 30.149 30.131 30.126 30.226 30.154 30.186 30.406 30.316 30.399 30.656 30.711 30.819 31.049 31.281 31.439 31.614 31.864 32.044 32.314 32.561 32.861 33.171 33.489 33.821 34.156 34.464 34.861 35.251 35.606 35.959 36.326 36.699 37.074 37.451 37.776 38.071 38.364 38.616 38.824 39.046 39.196 39.386 39.556 39.669 39.794 39.894 39.979 40.149 40.309 40.374 40.281 40.149 40.046 40.026 40.104 40.194 40.484 40.804 41.159 41.259 41.011 40.799 40.719 40.839 40.971 41.064 41.261 41.499 41.601 41.661 41.684 41.666 41.669 41.749 41.734 41.649 41.619 41.604 41.604 41.641 41.684 41.751 41.739 41.786 41.894 41.909 41.856 41.859 41.894 41.939 42.026 42.071 42.149 42.221 42.294 42.369 42.429 42.496 42.574 42.659 42.724 42.794 42.831 42.874 42.924 43.009 43.071 43.111 43.096 43.094 43.091 43.119 43.134 43.116 43.106 43.101 43.059 43.011 42.939 42.834 42.751 42.614 42.441 42.289 42.111 41.889 41.666 41.399 41.131 40.849 40.564 40.254 39.971 39.661 39.311 38.999 38.646 38.334 37.961 37.594 37.246 36.889 36.544 36.169 35.851 35.431 35.074 34.716 34.326 34.044 33.701 33.394 33.116 32.816 32.621 32.376 32.189 32.021 31.859 31.721 31.681 31.984 32.449 31.846 30.819 30.624 30.646 30.624 30.556 30.534 30.484 30.491 30.491 30.481 30.456 30.466 30.499 30.529 30.569 30.636 30.654 30.686 30.691 30.734 30.809 30.884 30.991 31.071 31.171 31.281 31.401 31.504 31.659 31.791 31.884 32.011 32.124 32.204 32.299 32.384 32.439 32.521 32.576 32.616 32.664 32.699 32.744 32.791 32.826 32.856 32.839 32.796 32.769 32.766 32.719 32.669 32.649 32.619 32.559 32.479 32.374 32.274 32.174 32.069 31.969 31.836 31.741 31.629 31.499 31.384 31.226 31.101 30.981 30.846 30.706 30.589 30.429 30.316 30.184 30.094 29.999 29.906 29.836 29.699 29.596 29.481 29.386
48.963 48.863 48.793 48.733 48.671 48.576 48.503 48.446 48.408 48.356 48.293 48.263 48.208 48.158 48.121 48.046 47.991 47.941 47.866 47.778 47.716 47.621 47.536 47.456 47.368 47.281 47.191 47.123 47.051 46.988 46.891 46.811 46.698 46.628 46.531 46.423 46.296 46.191 46.079 45.984 45.959 45.901 45.849 45.719 45.584 46.229 45.139 45.651 44.984 44.566 44.499 44.214 44.044 43.821 43.601 43.366 43.149 42.916 42.686 42.406 42.169 42.499 43.139 43.004 41.716 41.494 41.994 42.729 41.449 40.304 39.331 38.701 37.974 37.511 37.426 37.074 36.674 36.176 35.716 35.521 34.844 34.741 34.776 34.779 34.766 34.786 34.826 34.856 34.801 34.826 35.044 35.044 34.931 34.486 35.361 33.924 34.796 33.591 33.669 33.144 32.979 32.959 32.901 32.904 32.989 33.179 33.359 33.471 33.604 33.771 33.926 33.999 34.076 34.141 34.236 34.351 34.421 34.526 34.571 34.671 34.774 34.831 34.891 34.924 34.976 35.026 35.041 35.119 35.104 35.146 35.201 35.234 35.234 35.264 35.284 35.306 35.266 35.264 35.274 35.239 35.221 35.156 35.116 35.039 35.011 34.929 34.854 34.786 34.691 34.611 34.501 34.406 34.304 34.174 34.084 33.979 33.854 33.811 33.714 33.629 33.469 33.349 33.219 33.036 32.871 32.704 32.469 32.349 32.266 32.249 32.701 32.904 31.886 31.861 31.894 33.304 33.581 31.511 30.999 30.856 30.869 30.684 30.491 30.409 30.351 30.324 30.341 30.449 30.294 30.209 30.371 30.419 30.536 30.671 30.811 30.956 31.174 31.349 31.501 31.709 31.916 32.111 32.414 32.596 32.869 33.194 33.506 33.836 34.169 34.501 34.871 35.279 35.594 35.936 36.326 36.709 37.066 37.434 37.774 38.136 38.411 38.644 38.881 39.116 39.279 39.424 39.549 39.654 39.766 39.876 39.961 40.081 40.186 40.321 40.494 40.614 40.704 40.684 40.616 40.541 40.861 41.306 41.549 41.696 41.684 41.611 41.491 41.446 41.626 41.494 41.551 41.736 41.766 41.819 41.886 41.904 41.916 41.996 41.894 41.886 41.794 41.774 41.789 41.806 41.886 41.904 41.926 41.991 42.071 42.034 42.029 42.034 42.084 42.139 42.199 42.259 42.326 42.396 42.484 42.574 42.601 42.676 42.794 42.849 42.929 42.974 43.024 43.086 43.129 43.184 43.244 43.279 43.294 43.304 43.301 43.286 43.316 43.299 43.291 43.256 43.231 43.171 43.099 42.996 42.906 42.771 42.604 42.426 42.241 42.006 41.759 41.531 41.224 40.951 40.629 40.336 40.039 39.709 39.399 39.069 38.721 38.374 38.014 37.659 37.311 36.899 36.529 36.154 35.841 35.549 35.111 34.754 34.431 34.169 33.781 33.429 33.156 32.871 32.674 32.491 32.296 32.141 31.964 31.831 31.791 32.256 32.406 31.436 30.754 30.771 30.801 30.756 30.706 30.649 30.639 30.624 30.594 30.596 30.596 30.611 30.676 30.676 30.736 30.796 30.834 30.879 30.904 30.934 30.994 31.074 31.164 31.269 31.411 31.534 31.656 31.771 31.901 32.054 32.169 32.269 32.354 32.451 32.536 32.634 32.679 32.766 32.821 32.871 32.931 32.939 32.944 32.996 33.029 33.061 33.031 33.009 33.004 32.951 32.904 32.829 32.801 32.751 32.716 32.659 32.589 32.459 32.331 32.186 32.114 31.986 31.866 31.759 31.646 31.486 31.331 31.201 31.064 30.916 30.759 30.634 30.539 30.419 30.259 30.116 30.019 29.931 29.814 29.699 29.566 29.474 29.384
