ncols 481
nrows 31
xllcorner    462016
yllcorner    91362
cellsize     2
NODATA_value -9999
12.323 12.145 12.013 11.838 11.69 11.54 11.358 11.205 11.058 10.928 10.74 10.543 10.34 10.19 10.018 9.838 9.665 9.453 9.235 9.058 8.88 8.67 8.503 8.353 8.198 8.035 7.803 7.608 7.403 7.248 7.073 6.88 6.753 6.618 6.465 6.285 6.143 5.965 5.753 5.633 5.468 5.323 5.183 5.045 4.883 4.758 4.66 4.563 4.42 4.345 4.21 4.08 3.953 3.85 3.75 3.64 3.555 3.468 3.378 3.28 3.19 3.123 3.045 2.973 2.91 2.835 2.733 2.66 2.635 2.57 2.475 2.44 2.4 2.468 2.528 2.38 2.308 2.55 2.665 2.668 2.7 2.605 2.65 2.885 2.415 2.568 2.838 2.045 1.943 1.93 1.92 1.9 1.913 1.938 1.918 1.908 1.893 1.9 1.89 1.89 1.888 1.918 1.865 1.86 1.87 1.78 1.678 1.6 1.538 1.503 1.505 1.503 1.493 1.465 1.435 1.43 1.42 1.413 1.43 1.42 1.413 1.433 1.41 1.43 1.438 1.425 1.423 1.425 1.293 1.25 1.088 1.203 1.445 1.418 1.223 1.21 1.235 1.203 1.215 1.225 1.228 1.238 1.253 1.23 1.245 1.225 1.203 1.19 1.19 1.14 1.115 1.093 1.083 1.105 1.103 1.133 1.158 1.188 1.18 1.188 1.17 1.228 1.275 1.345 1.458 1.57 1.698 1.793 1.925 1.998 2.065 2.055 2.14 3.57 5.88 6.735 5.395 2.345 2.288 2.26 2.248 2.278 2.328 2.375 2.41 2.498 5.115 6.675 6.14 3.458 2.555 2.565 3.075 2.918 2.948 3.693 3.723 4.03 3.468 3.495 3.618 3.588 3.703 3.733 5.698 10.613 12.11 12.04 6.008 4.875 5.36 4.748 4.843 6.428 5.558 5.18 5.345 5.555 5.698 5.818 5.975 6.178 6.375 6.54 7.173 6.883 6.978 7.533 8.88 9.948 10.598 9.893 8.563 8.698 8.788 8.938 9.05 9.198 9.31 9.47 9.6 13.515 15.018 16.07 17.18 17.285 17.41 17.538 17.59 17.835 19.295 19.54 19.458 19.303 19.203 18.758 13.558 13.14 13.28 13.433 13.678 13.928 14.055 14.288 14.558 16.048 17.115 17.128 17.17 17.218 16.063 15.098 15.003 15.758 16.093 16.543 18.913 30.638 33.083 34.108 33.735 30.115 25.298 18.755 17.078 17.213 17.365 17.335 17.438 17.525 17.828 18.603 18.05 17.963 18.038 18.123 18.28 18.228 18.3 18.423 18.448 18.578 18.615 18.538 18.543 18.705 18.613 18.603 18.738 18.715 18.823 18.89 19.013 19.005 19.03 19.075 19.123 19.115 19.47 20.265 20.955 19.355 19.425 19.52 22.215 28.493 22.213 19.693 21.138 21.305 20.643 20.305 19.433 19.523 19.953 19.3 19.815 20.248 20.008 18.858 19.79 20.183 20.598 21.07 21.635 21.81 21.923 20.79 21.173 21.79 21.628 23.253 26.76 28.008 23.035 21.543 21.29 21.255 21.108 21.058 21.123 21.118 21.053 22.245 24.903 22.718 22.815 22.86 22.893 23.168 23.145 23.2 27.738 29.68 29.833 29.943 29.858 29.485 28.895 28.245 26.318 25.585 24.718 24.458 24.15 24.065 23.973 23.898 23.835 23.87 23.993 25.465 27.295 25.54 25.285 25.583 25.365 25.84 26.883 26.563 26.938 25.778 25.935 30.743 32.133 31.573 31.383 31.7 29.17 26.668 25.445 26.208 26.065 25.03 24.89 24.89 24.755 24.598 24.418 24.24 24.09 23.963 23.805 23.73 23.53 23.545 23.705 23.708 23.435 23.54 23.975 24.185 23.418 23.218 23.148 23.093 23.693 28.033 29.708 29.113 26.198 23.175 22.598 22.588 22.43 22.33 22.265 22.408 22.62 22.795 23.363 23.02 21.363 20.89 20.778 21.333 20.52 19.978 19.813 19.703 19.585 19.463 19.365 19.23 19.145 19.058 18.953 18.845 18.758 18.688 18.623 18.565 19.945 20.318 19.568 18.06 17.82 17.695 17.565 17.458 17.493
12.285 12.133 12.035 11.853 11.695 11.543 11.368 11.203 11.07 10.925 10.735 10.543 10.365 10.183 10.013 9.848 9.665 9.468 9.258 9.08 8.895 8.708 8.533 8.363 8.18 8.003 7.803 7.618 7.438 7.255 7.05 6.905 6.773 6.613 6.445 6.275 6.133 5.975 5.793 5.67 5.495 5.358 5.18 5.033 4.878 4.758 4.658 4.56 4.443 4.338 4.22 4.088 3.963 3.885 3.778 3.673 3.58 3.52 3.448 3.348 3.238 3.15 3.065 2.99 2.905 2.838 2.765 2.693 2.655 2.59 2.49 2.425 2.4 2.493 2.495 2.425 2.335 2.485 2.828 2.76 2.675 2.615 2.708 2.975 2.61 2.803 2.673 2.005 1.885 1.895 1.918 1.92 1.91 1.915 1.938 1.915 1.905 1.91 1.9 1.895 1.883 1.9 1.878 1.823 1.825 1.73 1.645 1.568 1.54 1.54 1.543 1.535 1.465 1.473 1.47 1.435 1.428 1.44 1.45 1.433 1.448 1.42 1.42 1.458 1.395 1.378 1.443 1.348 1.17 1.183 1.028 1.41 1.61 1.303 1.24 1.228 1.215 1.223 1.213 1.245 1.225 1.225 1.233 1.22 1.225 1.19 1.175 1.213 1.2 1.185 1.143 1.115 1.128 1.123 1.115 1.13 1.143 1.175 1.18 1.198 1.19 1.208 1.28 1.36 1.43 1.57 1.703 1.82 1.918 2.03 2.123 2.09 2.14 3.55 5.895 6.765 5.348 2.315 2.27 2.19 2.185 2.253 2.335 2.38 2.408 2.518 5.285 6.683 6.15 3.553 2.553 2.568 2.783 3.035 2.923 3.35 3.698 3.238 3.12 3.155 3.215 3.26 3.418 3.483 3.563 5.65 6.39 12.093 5.923 5.705 6.338 5.28 10.495 11.998 9.155 5.185 5.38 5.548 5.715 5.895 6.043 6.18 6.363 6.543 7.123 6.92 6.928 9.243 9.768 9.375 9.163 8.555 8.52 8.688 8.78 8.908 9.048 9.163 9.265 9.373 9.483 9.638 10.628 11.515 14.068 15.985 16.79 16.893 16.985 18.033 19.575 19.658 19.75 19.743 19.753 19.393 13.643 13.128 13.265 13.458 13.705 13.978 14.055 14.173 16.183 16.795 17.07 17.065 17.088 16.988 15.365 14.785 14.805 16.558 17.173 17.273 19.63 30.698 33.54 34.028 32.31 30.083 26.143 19.565 17.148 17.248 17.265 17.335 17.533 17.593 17.643 17.733 17.915 18.02 18.078 18.275 18.79 18.61 18.768 18.555 18.578 18.485 18.463 18.658 18.728 18.72 18.62 18.723 18.81 18.793 18.91 19.033 19.133 19.11 19.158 19.168 19.248 19.255 19.828 20.953 21.018 19.478 19.533 19.635 19.755 21.05 23.685 20.538 22.345 21.895 22.105 21.995 21.383 20.458 19.863 19.7 19.825 20.21 20.195 20.68 21.128 21.345 21.733 22.225 22.138 21.068 20.683 21.34 22.423 22.035 21.433 21.56 25.368 26.068 22.488 23.13 21.873 21.498 21.295 21.318 21.385 21.388 21.348 23.235 24.578 22.875 23 23.03 23.05 25.443 25.32 25.18 25.86 28.01 29.878 30.158 30.168 29.94 29.905 29.768 29.388 28.793 27.413 25.013 24.33 24.918 24.563 24.423 24.6 24.628 25.095 26.948 28.57 25.828 26.108 27.865 26.89 25.72 25.865 27.56 28.303 26.54 29.428 31.543 31.768 32.058 32.045 32.028 29.663 26.263 26.123 26.945 26.91 25.2 25.148 25.09 24.93 24.723 24.528 24.393 24.275 24.15 23.99 23.74 23.678 23.695 23.75 23.863 23.875 24.713 25.968 24.143 23.583 23.493 23.31 23.47 26.393 29.215 29.868 29.62 28.93 27.053 22.693 22.81 22.583 22.385 22.28 22.175 22.148 22.388 22.01 22.183 21.498 21.145 21.115 20.763 20.283 20.08 19.945 19.83 19.685 19.595 19.468 19.363 19.27 19.168 19.055 18.983 18.883 18.828 18.745 20.228 21.53 20.078 18.47 18.075 17.88 17.75 17.683 17.708 17.848
12.25 12.118 12 11.853 11.725 11.548 11.37 11.225 11.085 10.935 10.765 10.58 10.375 10.208 10.023 9.833 9.65 9.448 9.263 9.058 8.89 8.713 8.538 8.393 8.213 8.043 7.818 7.633 7.438 7.245 7.05 6.888 6.77 6.588 6.443 6.285 6.115 5.955 5.788 5.658 5.53 5.358 5.21 5.04 4.895 4.773 4.663 4.55 4.44 4.333 4.198 4.09 3.98 3.88 3.79 3.685 3.59 3.528 3.463 3.353 3.27 3.195 3.088 2.99 2.915 2.85 2.74 2.683 2.663 2.568 2.525 2.455 2.403 2.508 2.488 2.405 2.363 2.365 2.733 2.568 2.67 2.62 2.693 2.77 2.363 2.47 2.535 2.02 1.95 1.943 1.943 1.95 1.91 1.878 1.893 1.943 1.913 1.905 1.885 1.908 1.915 1.893 1.89 1.863 1.823 1.753 1.66 1.568 1.555 1.548 1.55 1.543 1.508 1.485 1.463 1.455 1.448 1.435 1.433 1.443 1.468 1.418 1.413 1.46 1.43 1.448 1.483 1.233 1.133 1.258 1.25 1.528 1.383 1.208 1.235 1.228 1.23 1.223 1.228 1.25 1.243 1.218 1.213 1.22 1.208 1.195 1.185 1.198 1.228 1.223 1.2 1.178 1.155 1.098 1.113 1.143 1.153 1.16 1.19 1.17 1.185 1.235 1.275 1.36 1.47 1.58 1.71 1.823 1.92 2.023 2.09 2.113 2.155 3.543 5.898 6.748 5.345 2.33 2.245 2.163 2.245 2.28 2.328 2.395 2.403 2.498 4.96 6.645 6.173 3.573 2.525 2.575 2.638 2.945 2.938 3.45 3.643 3.113 3.035 3.148 3.205 3.255 3.333 3.413 3.545 3.678 3.803 4.278 4.678 5.07 5.81 5.475 9.945 12.218 12.568 6.038 5.43 5.713 5.695 5.848 6.03 6.175 6.323 6.51 7.308 7.47 7.255 8.988 10.535 10.703 10.063 9.86 8.8 8.84 8.79 8.928 9.025 9.16 9.258 9.37 9.51 9.663 9.808 9.93 10.065 10.64 10.91 13.43 12.845 16.11 18.943 19.055 19.19 19.265 19.37 19.188 13.6 13.168 13.273 13.465 13.743 13.98 14.04 14.183 14.638 14.913 14.688 15.683 15.768 15.948 14.838 14.778 14.81 16.58 17.205 17.288 18.91 27.06 31.52 31.603 30.438 24.193 19.148 17.303 17.523 17.313 17.43 17.398 17.55 17.665 17.71 17.845 18.09 18.21 18.14 18.318 18.368 18.458 18.505 18.47 18.463 18.498 18.515 18.715 18.875 18.993 18.755 18.808 18.885 18.915 18.968 19.103 19.21 19.253 19.315 19.338 19.278 19.343 19.75 20.618 20.51 19.945 19.69 19.788 19.825 19.953 24.08 20.355 20.26 20.733 21.015 21.555 21.645 21.873 21.718 21.49 20.95 20.225 19.978 20.153 20.288 21.295 22.485 22.063 21.013 20.97 21.948 22.25 21.52 21.418 21.55 21.708 21.908 21.953 22.025 22.25 22.253 22.063 21.518 21.625 21.675 21.64 21.783 23.573 25.155 23.218 23.325 23.235 23.825 25.92 26.525 26.543 24.038 29.203 30.323 30.085 30.025 29.963 29.888 29.955 30.283 29.91 29.908 29.55 29.568 29.373 27.263 24.795 24.828 25.32 25.663 25.933 28.108 28.67 27.72 27.62 27.1 27.223 26.195 28.368 28.4 27.733 31.418 31.835 31.688 31.665 31.638 31.863 29.238 26.13 26.718 26.878 25.91 25.443 25.385 25.275 25.055 24.93 24.935 25.008 24.443 24.34 24.158 24.008 23.96 23.923 23.855 23.895 24.443 28.465 28.413 27.275 25.678 24.075 23.548 24.56 28.723 29.878 29.22 29.443 29.773 27.758 22.825 22.733 22.638 22.495 22.398 22.27 22.183 22.53 21.925 21.97 21.96 21.375 20.89 20.538 20.35 20.185 20.05 19.925 19.798 19.69 19.583 19.46 19.39 19.258 19.135 19.038 18.985 18.895 19.535 21.365 22.443 18.683 18.24 18.065 17.95 17.833 18.555 18.315 17.945
12.235 12.125 11.955 11.865 11.715 11.513 11.36 11.233 11.11 10.905 10.75 10.578 10.398 10.2 10.035 9.873 9.683 9.47 9.263 9.083 8.888 8.693 8.52 8.353 8.19 8.008 7.838 7.66 7.468 7.268 7.063 6.895 6.73 6.605 6.443 6.29 6.138 5.955 5.783 5.65 5.508 5.358 5.205 5.038 4.903 4.785 4.67 4.55 4.45 4.31 4.19 4.083 3.948 3.848 3.763 3.675 3.608 3.518 3.438 3.338 3.26 3.208 3.095 3.023 2.938 2.86 2.783 2.738 2.675 2.61 2.535 2.46 2.425 2.538 2.535 2.455 2.338 2.4 2.708 2.605 2.708 2.64 2.695 2.688 2.408 2.45 2.73 2.093 1.935 1.96 1.965 1.953 1.925 1.935 1.918 1.94 1.953 1.938 1.938 1.92 1.908 1.903 1.89 1.845 1.865 1.775 1.653 1.593 1.578 1.585 1.548 1.548 1.52 1.475 1.44 1.418 1.438 1.443 1.435 1.448 1.445 1.438 1.408 1.528 1.498 1.495 1.465 1.205 1.11 1.285 1.33 1.603 1.385 1.225 1.233 1.21 1.223 1.23 1.213 1.235 1.24 1.195 1.213 1.203 1.205 1.215 1.2 1.208 1.218 1.225 1.198 1.183 1.215 1.17 1.148 1.158 1.155 1.158 1.17 1.175 1.21 1.263 1.308 1.393 1.498 1.623 1.705 1.835 1.945 2.003 2.07 2.12 2.17 3.543 5.883 6.72 5.333 2.37 2.268 2.24 2.278 2.318 2.33 2.393 2.388 2.62 5.01 6.595 6.185 3.933 2.545 2.59 2.638 2.89 2.915 3.48 3.635 3.023 3.04 3.103 3.208 3.305 3.38 3.475 3.578 3.74 3.818 3.993 4.13 4.298 4.578 4.998 5.205 10.45 11.633 7.57 6.645 7.413 5.78 6.108 6.253 6.195 6.25 6.87 7.148 8.515 9.068 9.545 10.818 11.138 9.67 9.308 8.82 9.818 10.248 10.498 9.925 10.095 9.693 9.835 9.53 9.678 9.858 9.988 10.115 10.258 10.48 10.723 10.973 11.27 12.34 14.848 16.403 17.358 18.3 17.488 13.44 13.178 13.885 14.388 14.485 13.99 14.03 14.108 14.223 14.408 14.53 14.625 14.69 14.738 14.725 14.765 15.14 16.87 17.243 16.428 16.738 21.743 26.078 31.113 29.348 20.765 17.115 17.115 17.25 17.273 17.325 17.495 17.585 17.633 17.705 17.878 18.085 18.04 18.13 18.358 18.54 18.47 18.415 18.418 18.518 18.46 18.525 18.635 18.74 18.808 18.808 19.055 19.083 19.145 19.188 19.32 19.248 19.233 19.39 19.565 19.395 19.52 19.955 21.065 20.265 19.825 19.813 19.84 19.9 19.973 20.125 20.09 20.183 20.215 20.29 20.34 20.453 20.83 21 21.443 21.903 21.973 21.715 21.908 21.155 22.153 21.553 21.233 22.513 24.055 21.868 21.223 21.33 21.488 21.64 21.793 21.9 22.035 22.085 22.353 23.515 21.953 21.81 21.863 21.913 21.92 22.153 23.543 25.23 23.488 23.615 23.68 24.318 25.395 26.17 26.215 24.175 30.335 31.883 31.545 30.923 30.445 30.43 30.098 29.935 29.933 29.93 30.13 30.663 29.958 29.688 28.928 27.703 26.605 25.405 26.093 29.043 29.593 28.455 27.008 27.05 27.58 27.795 28.275 28.37 29.418 31.765 31.823 32.05 31.418 31.78 31.598 27.063 26.15 26.135 26.458 25.863 25.69 25.608 25.453 25.31 25.445 26 25.13 25.04 24.665 24.393 24.24 24.125 24.038 24.01 24.098 26.53 29.28 29.6 28.928 27.985 26.44 23.643 24.113 27.803 29.62 29.118 28.753 29 23.03 22.883 22.82 22.708 22.588 22.483 22.385 22.27 22.31 23.05 22.823 21.83 21.49 20.86 20.605 21.485 25.155 25.113 22.075 20.025 19.788 19.688 19.57 19.453 19.36 19.26 19.173 19.073 19.263 20.623 20.958 19.673 18.478 18.25 18.128 18.053 17.888 18.615 20.16 18.053
12.283 12.123 11.963 11.823 11.713 11.515 11.373 11.235 11.09 10.9 10.725 10.565 10.378 10.23 10.048 9.89 9.688 9.505 9.29 9.098 8.915 8.72 8.528 8.35 8.175 7.993 7.835 7.67 7.493 7.278 7.08 6.945 6.77 6.618 6.45 6.29 6.155 5.973 5.81 5.668 5.523 5.358 5.203 5.033 4.895 4.788 4.66 4.563 4.455 4.32 4.218 4.07 3.943 3.845 3.753 3.675 3.573 3.498 3.425 3.345 3.273 3.183 3.098 3.03 2.968 2.855 2.788 2.778 2.705 2.615 2.553 2.475 2.445 2.518 2.565 2.45 2.363 2.503 2.558 2.58 2.708 2.67 2.65 2.578 2.483 2.725 2.868 2.158 1.92 1.935 1.925 1.895 1.925 1.933 1.915 1.94 1.948 1.945 1.94 1.908 1.92 1.91 1.883 1.873 1.825 1.785 1.633 1.62 1.583 1.588 1.56 1.543 1.505 1.495 1.478 1.468 1.465 1.448 1.45 1.458 1.43 1.415 1.42 1.5 1.543 1.533 1.363 1.07 1.313 1.258 1.495 1.515 1.225 1.233 1.235 1.215 1.233 1.223 1.225 1.225 1.21 1.198 1.233 1.24 1.223 1.213 1.22 1.218 1.22 1.205 1.22 1.193 1.175 1.228 1.21 1.193 1.18 1.173 1.14 1.173 1.22 1.295 1.355 1.433 1.525 1.618 1.723 1.838 1.945 2.035 2.103 2.113 2.15 3.558 5.885 6.638 5.46 2.365 2.258 2.295 2.293 2.305 2.333 2.408 2.4 2.643 4.963 6.583 6.208 3.875 2.553 2.593 2.603 2.905 2.945 3.433 4.063 3.008 3.033 3.128 3.235 3.295 3.398 3.485 3.59 3.69 3.805 3.96 4.088 4.32 4.503 4.67 4.868 6.215 10.3 5.198 5.4 5.535 5.675 6.03 6.225 6.258 7.048 8.77 8.52 8.243 10.295 10.87 11.575 10.98 8.78 8.33 8.195 8.213 8.813 9.563 9.675 10.44 11.13 11.065 10.885 11.215 10.57 10.445 10.24 10.413 10.578 10.81 11.108 11.435 11.793 12.34 12.8 13.08 13.158 13.238 13.175 13.21 14.833 15.738 14.743 14.035 14.065 14.14 14.22 14.335 14.443 14.558 14.65 14.67 14.698 14.76 15.473 17.173 17.263 16.703 16.555 17.015 20.23 20.113 25.988 23.858 17.11 17.588 17.423 17.305 17.38 17.563 17.595 17.653 17.703 17.925 18.308 18.128 18.19 18.33 18.428 18.603 18.475 18.538 18.538 18.49 18.56 18.655 18.823 18.815 18.93 19.058 19.14 19.63 19.28 19.283 19.288 19.303 19.39 19.34 19.413 19.56 20.103 21.32 19.728 19.733 19.865 19.893 19.938 20.035 20.113 20.1 20.193 20.253 20.343 20.42 21.355 20.71 20.568 20.64 20.735 20.823 21.278 22.255 22.11 21.333 20.878 24.07 24.348 22.585 21.395 21.278 21.41 21.543 21.67 21.833 21.953 22.063 22.283 22.485 23.233 22.095 22.088 22.14 22.168 22.21 22.335 23.203 25.353 24.613 24.338 23.815 23.96 23.925 23.885 24.28 24.573 30.075 31.358 31.703 32 31.98 32.08 31.533 30.793 31.088 30.068 29.963 29.98 29.955 29.98 29.943 29.933 29.755 29.358 26.41 29.25 29.623 28.073 26.93 26.955 27.095 27.503 27.665 28.08 27.72 29.575 31.153 29.17 31.025 31.993 31.745 27.563 26.283 26.365 26.278 25.97 25.935 25.8 25.65 25.983 26.29 26.24 26.113 25.348 25.378 24.765 24.418 24.32 24.225 24.135 24.103 25.495 27.765 28.835 29.383 28.16 24.868 24 25.398 24.048 24.678 28.983 28 25.665 23.238 22.928 22.995 22.763 22.685 22.575 22.47 22.33 22.77 23.235 21.933 21.803 21.513 20.958 24.62 28.46 31.915 31.503 30.338 24.438 20.283 19.813 19.698 19.573 19.458 19.375 19.27 19.338 21.673 22.438 20.33 18.71 18.47 18.308 18.205 18.113 18.035 18.025 18.098 18.313
12.308 12.14 11.993 11.82 11.658 11.485 11.353 11.21 11.063 10.875 10.703 10.535 10.335 10.193 10.038 9.885 9.72 9.51 9.335 9.143 8.948 8.748 8.578 8.41 8.213 8.023 7.818 7.655 7.483 7.255 7.088 6.923 6.76 6.628 6.458 6.305 6.16 5.985 5.833 5.695 5.523 5.378 5.213 5.06 4.913 4.793 4.695 4.583 4.44 4.295 4.203 4.075 3.955 3.855 3.753 3.66 3.575 3.493 3.418 3.338 3.265 3.175 3.103 3.023 2.958 2.865 2.793 2.768 2.713 2.623 2.58 2.52 2.47 2.528 2.505 2.44 2.493 2.268 2.438 2.638 2.723 2.685 2.645 2.485 2.505 2.69 2.993 2.058 1.948 1.945 1.903 1.94 1.918 1.928 1.935 1.918 1.93 1.93 1.945 1.925 1.905 1.885 1.86 1.87 1.853 1.715 1.66 1.623 1.59 1.593 1.56 1.528 1.513 1.495 1.505 1.48 1.45 1.468 1.485 1.46 1.43 1.42 1.413 1.483 1.538 1.563 1.32 1.218 1.105 1.438 1.62 1.368 1.238 1.245 1.248 1.225 1.21 1.2 1.188 1.2 1.208 1.218 1.233 1.235 1.233 1.238 1.238 1.225 1.233 1.225 1.208 1.225 1.165 1.185 1.235 1.228 1.193 1.165 1.163 1.183 1.223 1.288 1.355 1.443 1.563 1.623 1.73 1.845 1.95 1.995 2.08 2.105 2.15 3.628 5.903 6.658 5.168 2.355 2.263 2.293 2.315 2.325 2.33 2.385 2.413 2.833 5.2 6.565 6.218 3.538 2.553 2.61 2.64 3.678 3.003 3.148 4.143 3.378 3.008 3.108 3.208 3.3 3.385 3.498 3.585 3.678 3.8 3.953 4.083 4.315 4.498 4.7 4.815 4.975 5.878 5.19 5.295 5.438 5.61 5.788 5.928 6.11 6.373 8.165 10.425 10.243 10.073 11.083 11.163 10.86 9.69 8.72 9.448 8.528 8.543 8.783 8.92 9.19 9.43 9.44 10.425 11.315 11.528 11.79 11.748 12.015 11.403 10.933 11.16 11.49 11.873 12.445 13.008 13.045 13.13 13.173 13.218 13.23 13.985 15.44 14.428 15.89 15.115 15.318 15.448 14.66 14.923 14.633 14.75 14.753 14.75 14.79 16.063 17.19 17.3 16.468 17.815 17.853 16.8 16.89 17.353 17.65 18.33 18.07 17.97 17.478 17.478 17.56 17.648 17.673 17.783 18.528 18.388 18.408 18.268 18.365 18.393 18.428 18.408 18.515 18.62 18.708 18.593 18.678 18.868 18.795 18.98 19.065 19.145 19.195 19.27 19.365 19.353 19.36 19.458 19.51 19.505 19.753 20.273 21.46 19.835 19.965 20.135 19.95 20.04 20.123 20.105 20.135 20.248 20.303 20.398 20.45 21.035 21.025 20.668 20.72 20.828 20.893 21.068 21.588 21.43 20.985 22.568 23.32 23.013 22.683 22.708 22.728 21.853 21.833 21.843 21.838 21.985 22.418 23.73 23.483 23.41 22.25 22.345 22.393 22.418 22.445 22.51 22.75 23.763 24.693 25.18 25.423 23.93 23.93 23.95 24.51 24.723 25.945 26.928 28.68 29.878 30.77 31.333 31.85 32.285 32.023 31.463 30.923 30.475 30.14 30.068 29.988 30.015 29.98 29.743 27.86 28.71 29.675 27.78 27.145 27.463 27.36 27.328 30.303 32.12 32.283 29.62 27.613 27.915 29.863 30.768 31.165 27.185 26.305 26.66 26.283 26.23 26.145 25.965 25.975 26.528 26.405 26.655 26.45 26.33 25.53 25.71 25.253 24.478 24.38 24.233 24.135 25.493 27.465 28.775 28.633 27.368 24.753 23.973 24.228 24.345 24.443 23.61 25.015 25.705 23.455 22.955 22.963 22.835 22.73 22.63 22.568 23.38 22.763 21.898 21.588 21.708 21.388 21.648 28.808 34.19 36.21 36.175 34.415 30.478 20.99 19.915 19.81 19.683 19.603 19.515 19.368 19.933 21.198 21.098 18.898 18.645 18.455 18.378 18.335 18.678 18.863 18.15 18.45 20.575
12.315 12.165 11.943 11.788 11.67 11.5 11.335 11.233 11.065 10.893 10.698 10.553 10.355 10.19 10.023 9.86 9.688 9.5 9.315 9.138 8.963 8.765 8.583 8.443 8.25 8.07 7.878 7.695 7.483 7.273 7.09 6.9 6.768 6.6 6.46 6.32 6.135 6.003 5.83 5.688 5.545 5.398 5.23 5.083 4.945 4.81 4.705 4.62 4.45 4.31 4.19 4.09 3.963 3.848 3.745 3.678 3.59 3.508 3.408 3.358 3.255 3.175 3.085 3.018 2.935 2.86 2.788 2.743 2.67 2.618 2.578 2.545 2.518 2.53 2.485 2.373 2.353 2.428 2.64 2.733 2.71 2.695 2.903 2.853 2.54 3.133 3.03 1.953 1.935 1.948 1.928 1.93 1.925 1.91 1.92 1.938 1.943 1.918 1.908 1.94 1.905 1.9 1.873 1.86 1.745 1.673 1.653 1.62 1.593 1.613 1.635 1.54 1.513 1.49 1.495 1.5 1.5 1.443 1.445 1.425 1.453 1.405 1.43 1.528 1.548 1.458 1.203 1.268 1.13 1.41 1.533 1.305 1.265 1.27 1.255 1.23 1.21 1.19 1.215 1.205 1.215 1.21 1.223 1.225 1.22 1.233 1.228 1.205 1.24 1.225 1.233 1.223 1.223 1.188 1.23 1.23 1.235 1.173 1.183 1.188 1.22 1.285 1.353 1.46 1.583 1.675 1.725 1.833 1.933 2.005 2.06 2.108 2.16 3.533 5.908 6.633 5.458 2.605 2.245 2.263 2.293 2.293 2.348 2.39 2.413 2.923 5.13 6.51 6.223 3.358 2.55 2.638 2.645 2.808 2.935 3.055 4.025 3.285 3.01 3.09 3.218 3.285 3.353 3.458 3.57 3.645 3.785 3.923 4.07 4.25 4.468 4.63 4.755 4.91 5.068 5.17 5.33 5.46 5.575 5.72 5.905 6.06 6.21 6.378 6.938 8.33 8.14 9.16 9.13 7.65 8.39 8.425 10.508 10.133 9.61 10.225 10.52 10.75 10.193 10.035 10.093 9.778 10.21 11.295 10.273 10.593 10.723 10.88 11.163 11.488 12.375 14.353 13.798 13.548 13.578 13.165 13.223 13.883 15.46 15.033 14.423 16.463 16.453 16.618 16.655 16.6 16.83 16.353 16.488 15.943 15.598 15.28 16.135 17.205 17.308 17.088 23.693 24.718 22.255 20.073 16.928 17.053 17.608 17.343 17.4 17.465 17.478 17.538 17.71 17.705 17.8 18.168 18.375 18.595 18.655 18.548 18.548 18.4 18.418 18.55 18.628 18.743 18.605 18.703 18.93 18.823 18.99 19.223 19.16 19.208 19.288 19.328 19.385 19.41 19.4 19.47 19.61 19.805 20.305 21.353 20.915 25.355 25.53 22.575 20.675 20.15 20.205 21.388 20.728 20.378 20.418 20.473 20.605 20.648 20.713 20.753 20.853 20.93 20.998 21.033 21.038 21.053 22.39 22.375 23.143 22.72 22.263 22.418 22.453 22.683 22.625 22.065 22.228 23.928 23.328 22.798 22.63 22.45 22.568 22.603 22.638 22.68 22.75 22.878 23.033 23.158 23.443 23.86 23.843 23.923 24.185 24.703 25.255 26.133 25.95 26.533 27.328 27.533 28.428 29.008 29.635 32.008 31.643 32.088 31.925 31.658 31.105 30.61 30.25 30.073 28.915 27.413 27.688 29.445 27.605 27.308 27.735 27.543 28.67 31.635 34.558 36.07 35.55 33.058 29.565 30.488 29.695 28.645 27.488 27.053 26.665 26.508 26.465 26.315 26.223 26.28 26.658 26.453 27.463 26.91 26.828 29.98 29.695 25.718 25.268 24.62 24.393 24.475 26.793 28.27 29.033 27.785 27.073 26.718 24.213 24 24.453 24.368 24.213 24.098 23.49 22.995 22.958 23.045 22.905 22.808 22.773 23.528 22.78 22.178 21.785 21.6 21.433 21.278 21.988 32.033 34.695 36.518 36.828 35.863 27.945 20.133 20.003 19.898 19.78 19.63 19.54 19.595 20.388 20.498 19.228 18.858 18.648 18.525 18.453 18.435 18.435 19.373 18.305 19.713 22.24
12.245 12.123 12.028 11.83 11.733 11.533 11.37 11.22 11.058 10.87 10.703 10.543 10.368 10.213 10.058 9.875 9.688 9.493 9.315 9.138 8.958 8.763 8.593 8.443 8.273 8.105 7.893 7.735 7.513 7.323 7.12 6.943 6.778 6.588 6.453 6.28 6.133 5.988 5.835 5.683 5.538 5.39 5.225 5.058 4.91 4.815 4.703 4.605 4.495 4.34 4.2 4.08 3.978 3.868 3.76 3.658 3.58 3.52 3.403 3.353 3.273 3.178 3.08 3.003 2.918 2.843 2.77 2.735 2.648 2.595 2.57 2.543 2.488 2.49 2.465 2.36 2.25 2.215 2.528 3.395 2.718 2.705 3.06 2.963 2.748 2.988 2.745 1.925 1.928 1.945 1.943 1.963 1.955 1.943 1.895 1.898 1.908 1.92 1.875 1.895 1.933 1.893 1.883 1.805 1.705 1.645 1.605 1.583 1.575 1.578 1.58 1.538 1.463 1.473 1.473 1.458 1.478 1.445 1.438 1.433 1.408 1.408 1.468 1.58 1.528 1.278 1.153 1.168 1.328 1.558 1.368 1.333 1.29 1.268 1.215 1.223 1.22 1.203 1.198 1.215 1.238 1.213 1.225 1.22 1.238 1.245 1.238 1.22 1.22 1.235 1.233 1.25 1.22 1.185 1.193 1.235 1.24 1.225 1.215 1.205 1.233 1.303 1.363 1.495 1.6 1.675 1.733 1.803 1.915 1.998 2.083 2.128 2.153 3.498 5.875 6.548 5.303 2.318 2.218 2.253 2.265 2.315 2.365 2.345 2.395 2.793 5.083 6.49 6.238 4.323 2.575 2.648 2.673 2.663 2.888 2.91 4.103 3.515 3.028 3.108 3.203 3.283 3.35 3.45 3.555 3.648 3.763 3.925 4.045 4.213 4.413 4.543 4.72 4.868 5.025 5.185 5.308 5.455 5.593 5.723 5.865 6.043 6.158 6.335 6.51 6.7 6.84 6.958 7.11 7.265 7.43 7.578 7.828 8.12 8.318 8.688 9.315 9.773 11.53 13.14 11.68 10.833 11.743 13.735 10.92 10.668 10.815 11.048 11.325 12.103 13.703 14.868 13.913 14.92 14.605 13.495 14.273 15.465 14.873 13.663 14.65 16.535 16.61 16.745 16.753 16.935 16.928 17.048 17.175 17.18 17.153 17.153 15.435 16.585 16.755 17.815 25.478 25.995 24.945 18.705 16.958 17.275 17.153 17.388 17.413 17.4 17.473 18.333 18.07 18.05 17.953 17.963 18.05 18.298 18.6 18.53 18.705 18.66 18.48 18.505 18.603 18.635 18.638 18.765 18.895 18.855 19.053 19.195 19.205 19.225 19.33 19.353 19.39 19.49 19.535 19.568 19.663 19.98 21.125 20.588 25.558 29.768 29.52 28.848 27.068 26.138 25.08 27.903 26.628 23.823 23.32 21.615 21.08 22.178 20.815 20.815 20.925 20.94 21.023 21.07 21.05 21.645 22.21 23.6 25.443 25.463 24.413 22.68 22.76 22.893 22.83 22.82 22.705 23.445 23.315 23.255 22.785 22.668 22.78 22.795 22.765 22.818 22.885 23.045 23.195 23.378 23.545 23.683 23.808 23.983 24.153 24.42 24.935 26.843 27.068 27.085 26.62 26.288 26.585 26.543 26.748 28.938 29.04 29.78 30.788 31.42 31.868 31.94 32.015 31.343 27.63 27.558 29.145 28.303 28 29.12 28.715 28.223 30.928 31.743 34.985 36.258 36.745 36.605 36.108 35.173 33.425 29.085 29.363 26.963 26.778 26.75 26.63 26.523 26.745 26.59 26.46 26.503 26.9 27.998 30.378 32.92 32.948 28.838 25.28 25.26 24.653 24.495 26.12 27.838 28.098 27.103 26.928 25.685 24.223 24.098 24.128 24.14 23.973 23.908 23.78 23.69 23.05 23.03 22.963 22.953 23.608 25.52 23.84 22.24 21.853 21.69 21.533 21.365 21.448 30.2 34.67 36.01 36.495 36.055 27.058 20.203 20.075 19.95 19.84 19.723 19.625 20.085 20.128 19.358 18.993 18.838 18.713 18.613 18.553 18.48 18.463 18.385 19.183 22.588 23.533
12.253 12.095 11.94 11.775 11.615 11.513 11.398 11.418 11.12 10.918 11.17 11.053 10.858 10.34 10.155 9.955 9.718 9.533 9.345 9.14 8.958 8.79 8.603 8.458 8.255 8.083 7.905 7.738 7.52 7.335 7.153 6.988 6.805 6.628 6.463 6.293 6.113 5.953 5.823 5.655 5.528 5.39 5.235 5.063 4.913 4.795 4.69 4.588 4.458 4.345 4.213 4.108 3.995 3.875 3.79 3.715 3.61 3.518 3.44 3.358 3.288 3.21 3.115 3.01 2.953 2.848 2.748 2.723 2.628 2.593 2.543 2.515 2.468 2.488 2.498 2.403 2.183 2.43 3.3 3.948 2.705 2.715 3.345 3.188 2.808 3.058 2.68 1.923 1.918 1.95 1.918 1.928 1.93 1.953 1.945 1.93 1.88 1.925 1.908 1.883 1.918 1.86 1.855 1.758 1.718 1.645 1.588 1.605 1.54 1.553 1.528 1.51 1.49 1.465 1.465 1.443 1.48 1.45 1.465 1.47 1.435 1.38 1.568 1.803 1.515 1.148 1.283 1.285 1.415 1.483 1.293 1.313 1.315 1.258 1.218 1.213 1.203 1.193 1.208 1.233 1.25 1.233 1.235 1.248 1.248 1.245 1.245 1.22 1.225 1.23 1.233 1.238 1.223 1.203 1.175 1.205 1.24 1.258 1.268 1.268 1.275 1.305 1.383 1.5 1.608 1.705 1.745 1.808 1.925 2.018 2.075 2.135 2.173 3.398 5.735 6.465 4.935 2.36 2.248 2.273 2.283 2.325 2.373 2.345 2.355 2.775 5.083 6.475 6.26 4.333 2.573 2.643 2.648 2.673 2.875 2.87 3.625 3.53 3.013 3.07 3.138 3.248 3.36 3.445 3.543 3.663 3.77 3.893 4.01 4.178 4.36 4.52 4.678 4.815 4.97 5.138 5.285 5.445 5.585 5.718 5.855 6.028 6.178 6.323 6.47 6.63 6.758 6.89 7.065 7.275 7.443 7.61 7.765 7.948 8.14 8.303 8.513 8.665 8.838 9.133 9.475 9.89 10.228 10.938 12.265 10.885 12.145 12.135 12.878 14.068 14.318 14.245 13.73 14.01 13.708 14.29 15.39 15.223 15.168 14.185 14.048 14.773 15.62 15.985 16.023 16.748 16.76 17.218 17.298 17.363 17.255 17.418 15.94 18.258 20.205 18.883 24.668 25.198 26.125 19.94 16.97 17.095 17.17 17.4 17.508 17.473 17.45 18.328 17.863 18.22 17.878 18.108 18.275 18.135 18.233 18.283 18.398 18.373 18.48 18.55 18.625 18.635 18.698 18.81 18.848 18.863 19.095 19.18 19.208 19.24 19.48 19.435 19.36 19.515 19.568 19.633 19.653 20.11 22.518 21.388 29.288 30.628 30.408 30.183 29.963 29.748 29.675 29.93 29.73 29.408 29.043 27.65 27.498 28.168 25.71 23.64 23.595 21.895 21.095 21.12 21.158 22.003 22.235 23.885 28.4 32.148 30.62 27.725 26.013 26.76 29.288 26.595 23.233 22.91 23.123 23.36 22.805 22.795 22.883 22.88 22.858 22.878 23.043 23.195 23.353 23.533 23.668 23.853 24.023 24.185 24.323 24.485 24.665 24.828 25.38 25.933 25.978 26.275 26.38 26.533 26.608 26.825 27.675 28.235 27.165 28.453 29.768 30.868 31.468 31.68 28.008 27.763 27.868 29.148 30.158 32.23 31.96 29.915 31.673 32.993 36.17 35.97 35.66 35.98 36.603 36.785 35.955 27.863 27.738 27.08 26.998 26.92 26.803 26.955 27.15 26.618 26.52 26.543 27.98 30.378 32.688 34.12 34.275 32.735 27.693 25.303 25.288 25.335 24.695 24.885 26.358 26.845 25.178 24.328 24.288 24.268 24.205 24.113 23.975 23.915 23.775 23.763 23.583 23.623 23.92 24.618 25.33 24.12 23.525 23.49 22.07 21.793 21.61 21.435 21.283 21.845 33.883 35.523 35.97 34.433 23.133 20.253 20.128 19.983 19.87 19.86 20.198 20.858 19.56 19.18 19.03 18.888 18.82 18.743 18.63 18.563 18.5 18.453 18.355 19.84 23.395
12.243 12.095 11.963 11.805 11.635 11.475 11.33 11.16 11.088 10.938 11.485 11.933 12.23 11.603 11.34 10.633 10.2 9.855 9.35 9.17 9 8.788 8.633 8.445 8.278 8.1 7.925 7.748 7.53 7.375 7.178 7.003 6.835 6.665 6.488 6.31 6.143 5.98 5.828 5.665 5.5 5.348 5.203 5.053 4.898 4.803 4.69 4.568 4.438 4.31 4.198 4.108 3.998 3.905 3.803 3.74 3.663 3.603 3.485 3.403 3.31 3.21 3.105 3.02 2.94 2.87 2.788 2.718 2.63 2.595 2.525 2.49 2.438 2.448 2.438 2.375 2.215 2.17 3.655 4.143 2.685 2.723 3.043 2.89 2.553 3.1 2.683 1.945 1.91 1.888 1.883 1.948 1.928 1.915 1.923 1.913 1.918 1.938 1.913 1.875 1.883 1.863 1.84 1.768 1.683 1.675 1.635 1.568 1.55 1.55 1.505 1.488 1.483 1.48 1.473 1.46 1.468 1.473 1.478 1.425 1.423 1.533 2.315 2.373 1.485 1.205 1.363 1.615 1.728 1.365 1.285 1.293 1.278 1.288 1.253 1.23 1.225 1.205 1.238 1.23 1.243 1.238 1.238 1.258 1.253 1.248 1.243 1.213 1.223 1.22 1.24 1.235 1.23 1.198 1.173 1.213 1.22 1.265 1.288 1.315 1.32 1.328 1.365 1.468 1.593 1.708 1.73 1.808 1.943 2.035 2.048 2.098 2.168 2.33 2.18 2.145 2.308 2.273 2.263 2.26 2.293 2.345 2.37 2.378 2.385 2.778 4.708 6.463 6.273 4.323 2.555 2.645 2.7 2.693 2.885 2.833 3.535 4.04 3.063 3.065 3.155 3.265 3.355 3.433 3.523 3.635 3.76 3.865 3.99 4.183 4.363 4.528 4.65 4.805 4.973 5.093 5.253 5.405 5.523 5.683 5.838 6.005 6.19 6.323 6.485 6.633 6.743 6.878 7.05 7.243 7.433 7.588 7.753 7.93 8.118 8.285 8.468 8.645 8.868 9.08 9.323 9.523 9.723 9.978 10.195 10.425 11.083 12.265 12.753 13.54 13.373 12.905 12.815 13.01 13.298 13.615 14.178 17.655 16.78 14.328 14.508 14.775 14.865 14.62 14.908 15.41 16.633 15.648 17.29 19.21 19.423 18.645 21.168 24.415 24.888 25.015 28.603 29.28 28.68 25.988 16.978 17.075 17.25 17.368 17.365 17.458 17.518 17.415 17.55 17.735 18.163 18.303 18.515 18.573 18.19 18.335 18.378 18.445 18.465 18.538 18.568 18.588 18.655 18.75 18.928 18.885 19.053 19.1 19.23 19.285 19.395 19.455 19.503 19.51 19.54 19.733 19.788 21.478 25.428 21.238 29.76 30.928 31.015 31.01 30.81 30.625 30.588 30.818 30.625 30.423 30.183 29.948 30.04 29.983 29.735 29.29 29.085 27.208 21.22 21.218 21.46 24.45 22.433 23.795 29.035 32.908 32.59 31.01 30.573 30.54 32.478 31.425 24.143 23.323 23.043 22.903 22.81 22.928 23 22.93 22.96 23.805 24.205 23.598 23.453 23.648 23.785 23.975 24.16 24.378 24.555 24.74 24.823 25.023 25.175 25.348 25.798 26.318 26.055 26.288 26.755 27.173 27.798 27.678 26.958 27.08 27.705 27.395 27.485 28.675 27.595 27.915 27.923 29.908 32.183 34.13 34.47 33.318 32.383 34.638 36.318 36.753 36.583 36.133 36.323 36.465 33.173 28.058 28.403 27.248 27.203 27.078 27.098 27.603 27.62 27.248 26.765 27.523 29.555 30.298 31.49 33.238 33.983 32.918 30.87 27.185 25.628 25.468 25.265 24.76 24.593 24.588 25.588 24.79 24.393 24.393 24.365 24.248 24.108 24.945 24.333 23.75 24.273 23.775 24.358 25.945 23.675 22.815 22.588 23.198 22.375 22.053 21.683 21.575 21.375 21.208 22.555 29.273 28.943 22.79 20.843 20.333 20.188 20.043 19.89 20.038 19.995 19.705 19.318 19.165 19.025 18.933 18.915 19.098 18.875 18.583 18.548 19.46 20.76 19.78 20.095
12.203 12.038 11.935 11.765 11.62 11.463 11.3 11.138 11.015 10.878 10.718 10.573 10.515 10.67 11.038 11.218 12.52 12.608 11.078 10.175 9.095 8.843 8.645 8.455 8.285 8.123 7.945 7.765 7.57 7.385 7.198 7.02 6.873 6.68 6.525 6.34 6.158 5.988 5.828 5.688 5.53 5.363 5.213 5.048 4.9 4.795 4.698 4.56 4.43 4.305 4.2 4.073 3.995 3.888 3.793 3.705 3.638 3.58 3.523 3.4 3.35 3.253 3.148 3.045 2.97 2.873 2.81 2.738 2.648 2.598 2.535 2.485 2.435 2.485 2.438 2.313 2.183 2.138 3.363 3.708 2.668 2.743 3.133 2.71 2.285 2.668 2.605 1.928 1.895 1.878 1.898 1.92 1.903 1.883 1.908 1.923 1.915 1.923 1.915 1.868 1.858 1.85 1.79 1.743 1.693 1.625 1.578 1.543 1.545 1.558 1.555 1.465 1.455 1.455 1.478 1.463 1.468 1.45 1.455 1.43 1.49 1.818 2.888 2.748 1.29 1.138 1.645 1.828 1.653 1.238 1.285 1.265 1.27 1.28 1.253 1.24 1.248 1.225 1.235 1.215 1.24 1.23 1.228 1.25 1.25 1.265 1.24 1.223 1.228 1.21 1.223 1.225 1.208 1.183 1.16 1.18 1.208 1.213 1.26 1.29 1.303 1.355 1.403 1.463 1.598 1.688 1.735 1.808 1.953 2.05 2.055 2.083 2.09 2.13 2.163 2.165 2.183 2.265 2.283 2.27 2.29 2.35 2.41 2.43 2.423 2.645 4.645 6.415 6.278 4.325 2.55 2.598 2.668 2.88 3.263 2.85 3.283 4.17 3.42 3.078 3.158 3.253 3.333 3.418 3.533 3.633 3.735 3.833 4 4.15 4.323 4.515 4.67 4.813 4.983 5.075 5.203 5.35 5.503 5.663 5.82 5.968 6.14 6.3 6.473 6.64 6.77 6.865 7.043 7.245 7.4 7.615 7.79 7.938 8.123 8.275 8.45 8.638 8.865 9.088 9.298 9.495 9.685 9.913 10.123 10.373 10.588 10.83 11.07 11.348 11.598 11.84 12.015 12.225 12.553 12.775 13.555 14.173 16.93 13.658 14.128 14.728 15.203 15.97 16.488 16.863 15.695 16.293 18.07 19.633 20.408 20.615 23.953 23.605 28.508 31.668 31.063 34.335 31.838 24.66 17.48 17.15 17.215 17.205 17.363 17.408 17.575 17.43 17.543 17.718 18.398 18.798 18.325 18.103 18.115 18.213 18.57 18.498 18.46 18.55 18.52 18.598 18.715 18.705 18.765 19.13 19.513 19.388 20.595 19.273 19.528 20.373 19.758 19.58 19.74 19.675 20.045 21.975 26.685 21.153 29.015 30.075 30.303 30.54 30.775 30.895 30.935 30.86 31.043 31.06 30.985 30.86 30.84 30.835 30.633 30.425 30.188 28.688 21.288 21.295 22.883 24.895 23.505 26.31 31.103 32.84 32.635 32.538 32.428 32.013 32.623 31.503 24.528 23.553 23.185 22.975 22.92 23.005 23.035 22.94 23.59 24.605 25.523 25.905 25.545 25.598 24.83 25.503 24.463 24.455 24.65 24.89 25.018 25.22 25.423 25.583 25.948 26.518 26.085 26.503 26.975 26.785 27.623 27.645 27.153 27.653 27.765 27.918 29.868 28.193 27.893 27.89 27.893 28 28.998 31.863 33.535 34.483 34.61 35.75 35.953 35.61 35.865 36.41 36.893 35.41 28.59 28.088 28.14 27.465 27.353 27.268 27.453 28.388 27.608 27.155 28.24 29.695 30.09 30.125 30.248 31.625 32.585 30.888 29.95 28.965 26.59 25.735 25.318 25.38 24.873 25.545 27.958 27.273 25.623 24.49 24.47 24.42 25.188 27.108 26.528 25.178 26.048 25.845 25.463 23.448 23.055 22.898 23.058 22.573 22.768 22.495 22.588 24.133 22.808 21.28 21.155 21.02 20.833 20.663 20.513 20.383 20.225 20.088 20.14 20.245 19.74 19.49 19.273 19.113 19.04 19.01 19.01 19.19 19.003 18.615 19.318 21.503 23.138 21.668 18.62
12.17 12.033 11.89 11.748 11.6 11.44 11.295 11.143 10.998 10.838 10.685 10.515 10.343 10.19 10.065 9.94 10.093 11.203 11.785 11.858 10.378 9.815 8.663 8.48 8.295 8.168 7.985 7.763 7.593 7.388 7.223 7.025 6.88 6.7 6.518 6.345 6.195 6.013 5.848 5.7 5.538 5.398 5.23 5.05 4.905 4.773 4.67 4.533 4.425 4.3 4.19 4.095 3.98 3.875 3.788 3.695 3.62 3.545 3.473 3.395 3.333 3.245 3.153 3.083 2.978 2.89 2.825 2.745 2.675 2.613 2.553 2.51 2.503 2.5 2.488 2.338 2.193 2.165 3.035 2.893 2.633 2.723 3.33 2.785 2.36 2.445 2.57 1.91 1.903 1.875 1.91 1.945 1.95 1.908 1.923 1.92 1.905 1.885 1.848 1.863 1.895 1.86 1.823 1.708 1.648 1.608 1.56 1.545 1.535 1.568 1.545 1.475 1.468 1.49 1.473 1.48 1.488 1.483 1.445 1.435 1.59 2.563 3.048 2.33 1.173 1.088 1.323 1.43 1.345 1.243 1.27 1.24 1.24 1.27 1.258 1.278 1.253 1.243 1.228 1.215 1.228 1.23 1.235 1.263 1.233 1.24 1.23 1.255 1.23 1.218 1.213 1.213 1.193 1.175 1.173 1.178 1.198 1.215 1.228 1.25 1.31 1.358 1.42 1.505 1.595 1.665 1.728 1.835 1.948 2.01 2.06 2.103 2.105 2.128 2.148 2.155 2.165 2.2 2.24 2.293 2.288 2.348 2.395 2.415 2.408 2.468 4 6.39 6.3 4.335 2.545 2.58 2.625 4.108 4.22 2.863 2.94 4.118 3.475 3.04 3.118 3.203 3.318 3.428 3.52 3.615 3.728 3.84 3.993 4.16 4.308 4.523 4.643 4.783 4.97 5.095 5.21 5.34 5.498 5.625 5.8 5.945 6.128 6.288 6.44 6.603 6.73 6.845 7.008 7.205 7.39 7.588 7.758 7.915 8.08 8.243 8.433 8.608 8.833 9.038 9.243 9.44 9.663 9.88 10.095 10.318 10.543 10.783 11.008 11.263 11.505 11.733 11.958 12.15 12.35 14 13.623 13.11 13.31 13.46 13.68 13.913 14.105 14.373 14.705 15.31 15.635 16.05 17.158 22.46 19.73 19.338 23.378 25.565 27.575 32.558 33.798 34.403 33.6 31.138 23.095 17.103 17.215 17.32 17.238 17.34 17.355 17.415 17.575 17.863 17.945 17.975 18.123 18.045 18.135 18.24 18.543 18.493 18.488 18.51 18.533 18.613 18.98 19.033 18.923 19.195 19.253 19.395 19.593 19.23 19.915 19.455 19.528 19.775 19.69 19.62 19.768 20.27 21.208 20.373 24.353 25.808 29.053 29.058 29.863 28 30.1 29.968 30.173 30.398 30.635 30.838 30.395 30.485 30.693 30.835 30.885 26.21 21.328 21.895 25.253 23.593 24.85 27.588 31.693 32.413 31.44 31.778 32.678 32.81 32.52 32.678 24.69 23.365 23.338 23.008 22.973 23.078 23.093 22.998 25.233 25.65 24.978 25.625 25.348 25.635 26.985 29.36 28.425 24.648 24.825 25.068 25.403 26.293 25.59 25.703 25.923 26.108 26.26 26.435 26.9 26.76 26.853 27.138 27.838 27.71 27.695 28.865 30.63 28.43 28.715 28.023 28.375 28.008 28.01 28.388 28.788 30.438 34.313 35.968 36.655 36.655 36.52 36.098 36.685 31.385 28.758 28.465 27.665 27.62 27.538 27.46 27.475 27.788 28.45 27.963 26.833 28.885 30.005 30.153 30.065 29.775 27.478 26.823 28.665 27.355 26.298 26.433 25.99 25.398 25.263 25.84 27.638 28.143 27.623 25.37 24.75 27.788 30.038 32.02 31.76 27.248 25.74 24.105 23.328 24.253 23.185 22.923 22.985 22.728 26.28 26.385 24.283 24.273 24.92 23.455 21.92 21.125 20.91 20.775 20.568 20.408 20.308 20.125 20.688 20.04 19.638 19.438 19.273 19.168 19.053 19.118 19.593 19.22 18.818 19.778 22.033 23.668 24.073 24.065 21.14
12.148 12.01 11.863 11.705 11.558 11.415 11.24 11.1 10.955 10.82 10.685 10.528 10.348 10.165 10.01 9.855 9.65 9.498 9.36 9.485 9.578 9.805 10.13 9.733 8.453 8.178 7.993 7.78 7.558 7.353 7.205 7.04 6.885 6.713 6.528 6.36 6.178 6.015 5.875 5.728 5.578 5.413 5.233 5.048 4.913 4.805 4.698 4.558 4.41 4.3 4.168 4.075 3.965 3.875 3.793 3.71 3.62 3.528 3.465 3.39 3.305 3.238 3.133 3.053 2.99 2.898 2.838 2.723 2.655 2.6 2.553 2.503 2.518 2.535 2.493 2.358 2.17 2.205 2.903 2.855 2.653 2.695 3.15 2.778 2.9 3.115 2.393 1.905 1.913 1.888 1.903 1.92 1.915 1.948 1.895 1.873 1.883 1.87 1.888 1.895 1.883 1.878 1.848 1.75 1.695 1.648 1.605 1.568 1.543 1.548 1.485 1.475 1.465 1.45 1.46 1.465 1.46 1.458 1.44 1.515 1.913 2.878 2.885 1.753 1.105 1.178 1.373 1.448 1.253 1.245 1.255 1.228 1.238 1.258 1.26 1.285 1.288 1.248 1.23 1.228 1.248 1.233 1.218 1.233 1.22 1.243 1.25 1.25 1.238 1.218 1.19 1.203 1.198 1.163 1.183 1.203 1.19 1.193 1.23 1.258 1.323 1.403 1.443 1.518 1.59 1.648 1.728 1.805 1.923 1.998 2.05 2.093 2.115 2.128 2.143 2.135 2.198 2.225 2.245 2.298 2.318 2.338 2.38 2.43 2.385 2.468 4.008 6.393 6.305 4.365 2.495 2.54 2.588 2.66 3.19 2.89 2.893 3.72 3.733 3.208 3.095 3.183 3.285 3.403 3.51 3.598 3.705 3.815 3.98 4.13 4.308 4.523 4.64 4.775 4.943 5.063 5.188 5.313 5.47 5.595 5.79 5.943 6.113 6.258 6.418 6.56 6.693 6.825 6.99 7.148 7.35 7.535 7.723 7.905 8.083 8.245 8.383 8.555 8.77 8.993 9.228 9.395 9.598 9.798 10.04 10.273 10.51 10.758 11.013 11.243 11.485 11.69 11.928 12.095 12.335 12.503 12.78 12.995 13.2 13.365 13.573 13.765 13.98 14.16 14.405 14.57 14.778 15.125 15.32 16.265 17.36 16.5 18.6 23.128 26.698 26.933 30.598 35.12 32.805 30.41 26.155 17.165 17.245 17.248 17.315 17.323 17.328 17.41 17.56 18.155 17.878 17.96 18 18.045 18.15 18.238 18.478 18.455 18.45 18.505 18.528 18.565 18.68 18.835 18.843 18.97 19.555 19.83 19.348 19.263 19.288 19.34 19.565 19.585 19.518 19.52 19.788 20.465 21.563 20.82 21.293 21.048 20.73 23.485 22.555 22.195 21.883 23.41 26.413 28.693 29.295 27.54 26.11 27.933 29.623 30.018 29.793 24.263 21.33 22.353 25.285 22.59 25.108 29.545 32.218 32.103 30.72 31.553 32.83 32.843 31.808 25.725 23.933 23.36 23.21 22.958 23.055 23.19 23.14 23.073 25.428 25.423 27.323 29.903 27.6 25.278 26.173 29.235 28.508 25.04 25.513 26.588 25.628 25.825 25.76 25.825 26.02 26.638 26.655 26.64 26.715 26.918 27.125 27.39 28.523 29.478 28.28 27.775 28.48 28.125 28.398 28.51 28.833 28.258 28.083 28.323 28.473 28.68 28.665 28.94 32.295 34.37 36.543 36.748 36.763 30.778 28.205 28.008 27.805 27.788 27.67 27.643 27.735 27.693 27.813 28.328 28.2 27.45 28.24 29.38 29.49 27.495 26.62 26.523 26.63 26.358 26.285 26.325 26.868 25.695 25.63 25.57 25.725 26.803 27.82 27.193 25.883 29.72 33.24 33.06 32.475 26.103 25.708 23.57 23.118 23.073 23.015 22.903 22.898 25.57 28.268 29.283 28.685 24.77 23.96 24.96 24.288 23.09 22.628 21.458 21.08 20.468 20.363 20.14 20.055 19.775 19.593 19.438 19.315 19.165 19.105 19.16 19.11 18.895 18.883 21.38 23.49 24.075 24.41 24.29 23.673
12.103 11.968 11.803 11.66 11.518 11.378 11.225 11.088 10.938 10.755 10.62 10.468 10.333 10.17 10.035 9.858 9.685 9.525 9.375 9.208 9.035 8.885 8.718 8.693 8.383 8.198 8.108 7.813 7.975 7.388 7.198 7.018 6.868 6.715 6.525 6.373 6.213 6.03 5.893 5.72 5.57 5.413 5.258 5.1 4.968 4.848 4.713 4.565 4.435 4.315 4.195 4.083 3.973 3.88 3.788 3.7 3.618 3.535 3.468 3.393 3.31 3.228 3.118 3.038 2.975 2.88 2.803 2.715 2.663 2.625 2.578 2.515 2.54 2.538 2.475 2.373 2.28 2.325 3.945 2.993 2.663 2.735 3.365 3.25 3.2 3.113 2.243 1.923 1.93 1.913 1.905 1.928 1.903 1.908 1.918 1.878 1.865 1.875 1.863 1.868 1.875 1.878 1.845 1.725 1.68 1.643 1.598 1.573 1.543 1.538 1.498 1.488 1.475 1.49 1.488 1.475 1.48 1.5 1.458 1.52 2.343 3.275 2.803 1.31 1.263 1.378 1.488 1.315 1.25 1.255 1.253 1.235 1.233 1.238 1.258 1.278 1.283 1.263 1.258 1.24 1.225 1.223 1.205 1.253 1.235 1.255 1.255 1.23 1.24 1.228 1.208 1.188 1.178 1.158 1.183 1.2 1.2 1.19 1.235 1.273 1.33 1.383 1.463 1.53 1.605 1.673 1.728 1.81 1.9 1.98 2.048 2.078 2.118 2.145 2.165 2.185 2.19 2.225 2.28 2.298 2.333 2.348 2.385 2.438 2.383 2.37 3.045 3.845 4.01 2.845 2.475 2.515 2.548 2.655 2.805 3.35 2.885 3.26 3.935 3.478 3.04 3.175 3.253 3.37 3.475 3.598 3.688 3.825 3.978 4.113 4.28 4.493 4.598 4.77 4.903 5.03 5.15 5.3 5.428 5.578 5.758 5.898 6.063 6.248 6.395 6.528 6.678 6.835 6.963 7.108 7.298 7.458 7.673 7.873 8.04 8.213 8.345 8.513 8.723 8.943 9.155 9.353 9.545 9.728 9.94 10.203 10.47 10.71 10.92 11.158 11.413 11.665 11.898 12.103 12.285 12.493 12.658 12.89 13.08 13.298 13.483 13.685 13.885 14.06 14.325 14.515 14.753 15.048 15.238 15.448 15.605 15.813 16.078 20.02 26.09 31.373 32.16 32.71 33.483 30.488 16.835 16.94 17.1 17.368 17.228 17.245 17.328 17.348 17.508 17.743 17.8 17.91 17.908 17.985 18.078 18.345 18.748 18.38 18.415 18.398 18.438 18.69 18.673 18.683 18.74 18.883 19.493 19.068 19.143 19.265 19.385 19.348 19.345 19.913 19.92 19.553 19.938 21.098 20.573 20.01 20.153 20.165 20.158 20.22 20.315 20.403 20.483 20.633 21.01 20.785 22.443 22.11 21.028 21.5 22.375 24.098 26.328 21.8 21.765 24.8 25.25 22.98 23.078 24.37 28.298 30.71 30.23 32.095 33.44 32.895 31.598 26.655 23.6 24.215 23.528 22.945 23.085 23.27 23.173 24.16 25.46 25.295 31.06 33.233 32.138 29.965 27.49 26.065 26.01 25.625 26.318 26.248 26.118 26.385 26.433 26.523 26.29 26.66 27.128 26.723 26.843 27.065 27.398 27.47 27.578 27.808 27.845 27.958 28.29 29.01 28.593 28.245 28.408 28.51 29.005 28.395 29.668 30.778 29.05 28.503 28.513 28.538 30.485 34.453 35.745 29.993 28.225 27.98 27.973 27.893 27.918 28.343 28.215 27.788 27.685 27.67 27.748 28.15 27.86 27.78 27.34 26.963 27.053 26.94 26.58 26.398 26.35 26.793 26.375 25.723 25.683 25.558 25.463 26.355 25.92 25.498 25.535 29.815 33.615 33.045 28.76 24.415 24.785 24.053 23.18 23.128 23.203 22.935 24.748 27.825 29.085 29.738 29.46 28.12 24.685 23.543 23.655 24.065 26.168 25.913 24.113 22.23 20.848 20.155 19.95 19.788 19.613 19.438 19.313 19.145 19.128 19.13 19.193 19.408 21.383 23.71 24.113 24.42 24.278 23.89 23.535
12.13 11.935 11.803 11.638 11.498 11.328 11.19 11.038 10.893 10.765 10.608 10.45 10.283 10.148 10.003 9.82 9.68 9.518 9.358 9.218 9.065 8.85 8.673 8.495 8.37 8.203 8.023 7.833 8.08 8.418 9.22 7.705 6.875 6.708 6.52 6.343 6.193 6.03 5.89 5.73 5.573 5.423 5.245 5.123 4.995 4.873 4.735 4.585 4.478 4.333 4.203 4.078 3.993 3.895 3.805 3.715 3.645 3.538 3.473 3.373 3.29 3.205 3.118 3.035 2.97 2.908 2.815 2.733 2.648 2.645 2.615 2.565 2.528 2.535 2.505 3.948 4.523 3.938 2.733 2.793 2.68 2.743 3.425 3.238 3.225 2.898 2.078 1.928 1.923 1.938 1.89 1.875 1.903 1.883 1.885 1.908 1.893 1.893 1.873 1.878 1.893 1.885 1.835 1.693 1.608 1.585 1.555 1.57 1.553 1.533 1.565 1.55 1.52 1.528 1.528 1.533 1.52 1.498 1.465 1.625 3.265 3.928 2.625 1.175 1.28 1.495 1.59 1.23 1.233 1.255 1.268 1.223 1.218 1.255 1.255 1.26 1.26 1.273 1.255 1.24 1.225 1.24 1.24 1.248 1.25 1.235 1.26 1.235 1.22 1.215 1.18 1.183 1.155 1.145 1.175 1.193 1.183 1.223 1.275 1.33 1.385 1.413 1.448 1.538 1.595 1.7 1.753 1.795 1.873 1.945 2.005 2.05 2.115 2.155 2.203 2.198 2.185 2.215 2.258 2.285 2.33 2.35 2.395 2.438 2.423 2.35 2.36 2.373 2.395 2.415 2.44 2.563 2.508 2.62 2.7 3.698 2.895 2.923 3.5 3.808 3.345 3.155 3.253 3.365 3.46 3.57 3.658 3.81 3.94 4.105 4.268 4.478 4.595 4.735 4.893 4.963 5.115 5.258 5.38 5.563 5.71 5.873 6.04 6.243 6.36 6.48 6.648 6.785 6.918 7.078 7.245 7.388 7.593 7.808 7.995 8.153 8.28 8.445 8.668 8.893 9.115 9.293 9.465 9.673 9.898 10.135 10.398 10.595 10.833 11.075 11.32 11.533 11.798 12.02 12.215 12.4 12.63 12.84 13.033 13.223 13.42 13.63 13.813 14.025 14.273 14.43 14.678 15.015 15.173 15.383 15.513 15.685 15.823 16.348 25.96 29.76 33.245 32.923 25.718 16.863 17.128 17.108 16.948 17.053 17.128 17.255 17.353 17.365 17.458 17.713 17.788 17.823 17.838 18.055 18.115 18.223 18.185 18.255 18.295 18.33 18.415 18.675 18.543 18.69 18.828 18.845 18.91 18.938 19.088 19.195 19.26 19.265 19.283 19.375 19.43 19.52 19.778 20.355 19.925 19.988 19.96 20.313 20.918 20.145 20.24 20.368 20.518 20.793 20.713 20.778 20.86 20.895 20.993 21.083 21.243 21.265 21.388 21.535 22.003 25.223 24.195 23.078 23.08 23.098 23.53 24.823 29.53 31.61 32.853 32.598 32.535 26.445 23.445 27.423 27.04 23.4 23.198 23.268 23.18 24.94 25.248 25.793 31.773 33.423 33.263 32.97 32.62 30.378 28.388 26.798 27.485 28.248 27.178 26.403 26.365 26.833 27.105 26.808 26.853 27.463 27.068 27.313 27.943 28.418 27.725 28.11 28.145 28.163 28.288 28.363 28.388 28.385 28.37 28.355 28.41 28.448 28.71 29.528 29.873 29.283 28.683 28.525 28.52 29.01 28.693 28.588 28.368 28.17 28.158 28.103 28.83 28.615 28.245 28.073 27.705 27.705 27.675 27.695 27.755 29.223 29.018 27.663 27.485 27.788 26.618 26.493 26.633 27.713 26.17 25.925 25.8 25.528 25.393 25.66 27.288 25.97 25.685 28.71 30.94 31.595 25.87 24.545 24.415 24.253 24.083 24.2 23.198 23.355 27.493 28.913 29.623 29.623 29.113 28.12 24.703 22.463 24.35 24.815 26.33 27.473 25.3 22.628 20.985 20.115 19.935 19.783 19.61 19.465 19.283 19.135 19.068 19.11 20.033 20.673 19.39 23.038 24.475 24.26 23.92 23.525 22.375
12.075 11.903 11.735 11.663 11.473 11.318 11.158 11.01 10.863 10.695 10.56 10.433 10.28 10.153 9.988 9.795 9.665 9.52 9.343 9.19 9.045 8.858 8.703 8.525 8.34 8.153 7.975 7.808 7.61 7.65 7.77 7.268 6.938 6.735 6.5 6.34 6.185 6.035 5.86 5.725 5.575 5.415 5.255 5.138 4.995 4.868 4.705 4.59 4.478 4.373 4.238 4.118 4.023 3.93 3.818 3.75 3.668 3.568 3.488 3.385 3.313 3.203 3.12 3.025 2.94 2.898 2.78 2.723 2.625 2.623 2.62 2.59 2.54 2.535 2.503 3.513 5.845 7.645 2.64 2.795 2.68 2.865 3.11 2.965 3.208 2.813 2.013 1.923 1.918 1.905 1.928 1.898 1.873 1.868 1.89 1.893 1.888 1.84 1.883 1.873 1.883 1.835 1.773 1.638 1.59 1.548 1.55 1.595 1.563 1.563 1.57 1.59 1.528 1.528 1.498 1.515 1.523 1.518 1.485 2.22 3.615 3.335 1.788 1.183 1.373 1.525 1.388 1.235 1.248 1.253 1.238 1.238 1.25 1.283 1.278 1.285 1.288 1.258 1.268 1.253 1.238 1.23 1.243 1.258 1.26 1.245 1.263 1.245 1.22 1.198 1.225 1.188 1.178 1.155 1.163 1.188 1.238 1.268 1.31 1.36 1.435 1.475 1.503 1.545 1.62 1.685 1.755 1.828 1.873 1.93 1.99 2.04 2.098 2.158 2.195 2.203 2.19 2.225 2.245 2.27 2.333 2.343 2.395 2.435 2.425 2.403 2.373 2.358 2.378 2.578 4.193 5.225 3.513 2.585 2.678 3.093 3.295 2.915 3.103 3.743 3.855 3.1 3.203 3.335 3.428 3.528 3.648 3.773 3.91 4.048 4.225 4.405 4.54 4.703 4.88 4.968 5.085 5.223 5.323 5.515 5.663 5.8 5.96 6.19 6.305 6.433 6.595 6.733 6.865 7.013 7.185 7.358 7.548 7.76 7.928 8.068 8.23 8.415 8.613 8.828 9.055 9.225 9.435 9.658 9.878 10.103 10.328 10.523 10.768 11.02 11.238 11.45 11.668 11.913 12.133 12.325 12.518 12.725 12.923 13.105 13.328 13.498 13.715 13.91 14.223 14.328 14.633 14.98 15.135 15.328 15.458 15.613 15.728 15.923 24.958 27.105 27.553 28.818 23.355 16.873 18.13 17.678 16.94 17.153 17.065 17.173 17.318 17.395 17.495 17.635 17.72 17.76 17.788 17.933 18.105 18.105 18.133 18.325 18.328 18.283 18.468 18.533 18.533 18.603 18.675 18.87 18.865 18.873 19.048 19.103 19.178 19.13 19.275 19.375 19.4 19.468 19.655 20.51 19.87 19.995 20.423 20.198 20.313 20.273 20.238 20.988 21.095 21.435 21.895 20.76 20.903 20.945 21.04 21.168 21.278 21.348 21.51 21.663 23.423 25.405 22.95 23.013 23.05 23.085 23.345 24.478 26.395 27.468 26.518 27.965 28.685 24.983 23.323 25.573 24.51 23.1 23.275 23.673 23.415 26.053 26.448 27.975 32.545 33.36 32.75 33.148 33.17 29.89 28.098 26 30.79 35.725 34.113 30.048 28.175 27.545 27.143 26.828 27.448 27.823 28.243 28.238 28.013 28.41 27.873 28.618 29.068 28.28 28.423 28.495 28.508 28.518 28.54 28.535 28.56 28.545 28.863 29.16 28.578 28.955 29.11 29.188 30.118 31.878 29.848 28.988 28.338 28.345 28.303 28.31 28.965 28.52 28.415 28.67 27.905 27.72 28.15 28.728 27.778 30.103 31.163 30.318 28.873 29.888 27.573 26.61 26.583 26.483 26.258 26.16 25.998 25.895 25.523 25.38 27.403 25.87 25.495 25.623 27.003 25.933 24.4 24.243 24.108 23.923 23.66 26.193 24.825 23.6 28.513 29.468 29.693 29.073 27.76 25.753 22.655 23.165 23.383 23.405 25.145 25.758 24.245 21.288 20.315 20.123 19.97 19.788 19.578 19.415 19.208 19.11 18.99 19.075 20.413 19.35 18.785 18.743 22.795 23.89 23.495 21.185 19.755
12.028 11.875 11.748 11.603 11.448 11.298 11.138 11 10.843 10.703 10.545 10.398 10.263 10.113 9.97 9.82 9.66 9.505 9.34 9.17 9.003 8.838 8.683 8.528 8.375 8.193 8.003 7.833 7.623 7.425 7.253 7.103 6.928 6.76 6.55 6.39 6.238 6.083 5.905 5.74 5.615 5.41 5.273 5.123 4.988 4.843 4.715 4.583 4.48 4.328 4.223 4.12 4.035 3.93 3.858 3.755 3.683 3.588 3.495 3.403 3.33 3.223 3.115 3.015 2.938 2.883 2.755 2.695 2.653 2.638 2.593 2.623 2.56 2.538 2.493 2.71 3.225 3.75 3.058 2.815 2.72 2.97 3.398 3.078 3.088 2.533 1.905 1.918 1.91 1.913 1.903 1.878 1.868 1.873 1.87 1.865 1.838 1.865 1.873 1.883 1.85 1.82 1.745 1.665 1.613 1.543 1.595 1.595 1.59 1.575 1.545 1.52 1.498 1.515 1.495 1.528 1.5 1.565 1.98 2.573 2.628 1.518 1.33 1.275 1.458 1.535 1.235 1.235 1.245 1.253 1.253 1.268 1.273 1.293 1.293 1.3 1.278 1.288 1.283 1.26 1.243 1.24 1.24 1.253 1.253 1.24 1.25 1.23 1.195 1.213 1.208 1.208 1.21 1.188 1.205 1.25 1.298 1.345 1.373 1.423 1.453 1.508 1.573 1.625 1.678 1.71 1.743 1.813 1.87 1.933 2.035 2.038 2.093 2.128 2.143 2.185 2.208 2.23 2.278 2.323 2.32 2.368 2.485 3.435 3.815 2.42 2.408 2.385 2.35 4.533 6.533 6.443 5.328 2.81 2.613 3.64 4.435 2.933 2.94 3.39 3.873 3.318 3.233 3.33 3.435 3.533 3.635 3.755 3.905 4.043 4.23 4.373 4.513 4.695 4.843 4.908 5 5.13 5.31 5.478 5.63 5.773 5.93 6.115 6.228 6.373 6.543 6.693 6.83 6.973 7.125 7.32 7.525 7.698 7.868 8.003 8.16 8.35 8.573 8.748 8.978 9.2 9.395 9.573 9.79 10.05 10.27 10.473 10.688 10.935 11.16 11.368 11.575 11.76 11.993 12.208 12.375 12.608 12.8 13 13.228 13.405 13.58 13.825 14.135 14.283 14.578 14.86 15.078 15.208 15.343 15.508 15.685 15.798 16.193 22.89 23.775 22.688 19.593 16.495 16.613 16.805 16.86 16.83 16.97 17.095 17.593 18.02 17.698 18.275 17.775 17.713 17.743 17.825 18.06 18.065 18.208 18.388 18.493 18.3 18.43 18.448 18.488 18.463 18.65 18.723 18.82 18.82 18.99 19.045 19.1 19.05 19.265 19.353 19.398 19.443 19.95 20.19 19.83 19.908 19.94 19.988 20.085 20.338 20.33 21.723 22.25 22.77 22.82 20.758 20.915 20.958 21.033 21.158 21.345 21.393 21.355 22.175 25.663 25.443 22.805 23.163 23.268 23.37 23.945 24.975 27.325 27.608 26.543 23.823 23.37 23.408 23.45 23.688 23.05 23.17 23.323 24.408 23.543 25.913 26.36 30.5 33.103 32.928 32.345 33.185 32.803 29.013 27.555 26.865 32.288 36.448 36.463 35.95 34.958 34.248 32.915 26.868 27.758 28.04 28.76 28.47 28.558 29.808 29.488 29.793 28.963 28.733 28.45 28.515 28.558 28.58 28.658 28.678 28.723 28.733 28.803 28.885 28.765 28.675 28.658 28.663 29.095 30.258 30.313 28.783 28.535 28.51 28.46 29.793 29.82 28.538 28.558 28.435 28.453 27.963 30.25 32.46 32.44 30.94 30.588 31.105 28.888 28.615 28.293 28.083 28.18 27.72 26.695 26.295 26.525 27.328 26.153 26.958 28.48 25.388 25.27 25.255 26.55 25.893 24.468 24.293 24.15 23.968 25.655 29.33 29.508 25.353 24.95 28.983 29.23 28.483 26.09 23.613 21.935 22.143 22.345 21.753 23.968 24.605 21.385 20.525 20.328 20.178 19.938 19.748 19.55 19.343 19.16 19.04 18.96 18.9 20.488 19.795 18.855 18.288 19.395 22.825 19.975 17.943 17.943
12.015 11.855 11.72 11.603 11.448 11.293 11.133 10.975 10.833 10.675 10.553 10.4 10.253 10.105 9.95 9.8 9.608 9.463 9.338 9.173 8.978 8.813 8.663 8.503 8.343 8.17 7.985 7.823 7.65 7.47 7.278 7.08 6.905 6.75 6.61 6.435 6.26 6.075 5.91 5.793 5.695 5.678 5.843 5.695 6 5.53 5.415 4.575 4.45 4.305 4.218 4.098 4.013 3.938 3.863 3.77 3.698 3.628 3.53 3.43 3.333 3.223 3.128 3.038 2.94 2.865 2.738 2.668 2.653 2.69 2.65 2.748 2.795 2.623 2.518 2.33 2.328 2.573 3.43 2.778 2.738 3.1 3.33 3.15 2.998 2.56 1.998 1.95 1.948 1.905 1.913 1.913 1.893 1.87 1.845 1.823 1.873 1.88 1.888 1.84 1.823 1.748 1.635 1.593 1.573 1.575 1.585 1.568 1.633 1.558 1.543 1.525 1.518 1.53 1.518 1.518 1.505 1.545 2.303 2.665 1.64 1.42 1.168 1.31 1.495 1.375 1.258 1.283 1.278 1.273 1.29 1.285 1.31 1.283 1.313 1.303 1.285 1.283 1.258 1.248 1.25 1.25 1.228 1.24 1.23 1.215 1.245 1.21 1.208 1.225 1.198 1.208 1.22 1.223 1.263 1.318 1.368 1.4 1.438 1.488 1.533 1.568 1.638 1.688 1.74 1.763 1.823 1.835 1.893 1.948 2.018 2.055 2.08 2.11 2.148 2.18 2.223 2.253 2.313 2.345 2.358 2.48 3.518 5.938 7.33 5.378 2.465 2.37 2.398 3.563 5.51 6.68 6.193 4.25 2.575 3.933 5.503 4.173 3.025 3.075 3.585 3.65 3.325 3.308 3.408 3.52 3.643 3.773 3.91 4.043 4.235 4.36 4.508 4.675 4.783 4.86 4.983 5.098 5.248 5.378 5.538 5.715 5.853 6.035 6.175 6.34 6.503 6.658 6.808 6.918 7.088 7.26 7.498 7.663 7.813 7.948 8.103 8.308 8.51 8.678 8.903 9.085 9.315 9.535 9.738 9.965 10.183 10.395 10.625 10.823 11.055 11.28 11.483 11.688 11.89 12.1 12.293 12.468 12.675 12.91 13.093 13.288 13.483 13.7 14.003 14.158 14.515 14.783 14.95 15.09 15.233 15.395 15.555 15.68 16.043 16.875 15.975 16.008 16.158 16.405 16.535 16.64 16.66 16.82 17.22 16.98 17.213 18.943 18.54 18.975 18.023 17.988 18.62 18.158 17.828 17.873 17.958 18.01 18.073 18.16 18.233 18.385 18.71 18.428 18.653 18.708 18.77 18.813 19.095 19.195 19.228 19.048 19.225 19.268 19.298 19.448 19.943 19.825 19.88 19.793 19.835 19.855 19.94 20.045 20.06 20.208 20.315 20.913 22.233 21.45 21.035 20.925 20.993 21.268 21.47 21.185 21.288 23.3 25.018 24.583 22.588 22.663 22.73 24.42 25.785 24.525 25.343 26.805 26.155 23.373 23.543 24.883 26.115 23.525 23.098 23.293 23.41 23.605 24.34 26.208 25.658 31.113 33.238 32.25 31.265 32.833 31.6 28.263 26.01 27.425 34.923 36.775 36.235 36.71 36.563 36.62 34.665 28.278 28.443 30.548 34.488 31.42 29.003 28.598 28.593 28.988 30.543 30.705 30.218 29.92 29.293 28.878 28.643 28.683 28.74 28.815 28.86 28.833 28.875 28.86 28.845 28.79 28.74 28.765 28.733 28.675 28.693 28.655 28.655 30.165 29.15 28.598 28.578 28.488 28.398 28.993 31.793 33.705 33.995 33.215 30.718 30.175 27.565 27.535 27.843 27.933 28.045 27.468 27.163 27.35 26.658 26.68 27.803 27.923 25.635 25.513 25.358 25.145 25.198 24.928 24.488 24.34 24.175 24.608 28.835 29.958 30.715 30.188 27.683 24.228 25.755 25.665 24.185 22.37 21.99 21.665 21.468 21.233 21.653 21.99 20.693 20.48 20.365 20.178 19.973 19.755 19.523 19.323 19.093 18.925 18.86 18.745 18.81 20.135 19.825 18.873 18.36 19.025 17.945 17.92 18.468
11.928 11.783 11.665 11.563 11.393 11.263 11.105 10.978 10.833 10.673 10.525 10.375 10.255 10.108 9.953 9.803 9.615 9.475 9.315 9.138 8.968 8.805 8.66 8.48 8.313 8.163 7.955 7.783 7.623 7.455 7.288 7.11 6.923 6.753 6.578 6.403 6.243 6.093 5.94 5.753 5.588 5.468 5.29 5.465 5.49 5.768 7.503 5.868 4.648 4.295 4.163 4.103 4.033 3.93 3.868 3.748 3.673 3.603 3.525 3.425 3.348 3.253 3.143 3.035 2.95 2.875 2.768 2.683 2.653 2.633 2.7 2.74 2.773 2.748 2.908 2.698 3.85 2.805 3.128 2.728 2.72 3.145 2.978 2.773 2.77 2.663 1.958 1.938 1.945 1.933 1.933 1.885 1.875 1.85 1.878 1.84 1.878 1.873 1.873 1.82 1.76 1.663 1.625 1.59 1.578 1.58 1.573 1.553 1.538 1.56 1.54 1.52 1.53 1.56 1.585 1.678 1.603 1.708 2.153 1.938 1.333 1.285 1.273 1.458 1.52 1.26 1.263 1.283 1.278 1.293 1.288 1.283 1.305 1.29 1.318 1.308 1.308 1.263 1.248 1.268 1.25 1.253 1.248 1.208 1.223 1.233 1.233 1.238 1.243 1.223 1.223 1.215 1.223 1.263 1.293 1.385 1.435 1.46 1.523 1.56 1.613 1.64 1.68 1.73 1.79 1.833 1.87 1.913 1.92 1.945 1.988 2.023 2.055 2.11 2.143 2.185 2.243 2.268 2.333 2.378 2.598 3.25 5.935 7.393 8.06 6.765 3.135 2.383 2.37 2.5 4.555 6.103 6.64 5.878 3.555 2.515 4.51 5.05 3.843 3.055 3.295 3.983 3.713 3.285 3.408 3.46 3.595 3.7 3.855 4.04 4.195 4.343 4.495 4.615 4.71 4.823 4.97 5.11 5.22 5.363 5.493 5.613 5.805 5.995 6.163 6.303 6.443 6.565 6.723 6.865 7.048 7.198 7.418 7.625 7.775 7.888 8.043 8.243 8.453 8.64 8.84 9.043 9.233 9.428 9.62 9.858 10.05 10.265 10.51 10.735 10.95 11.178 11.4 11.585 11.78 11.975 12.178 12.395 12.608 12.805 12.985 13.17 13.353 13.623 13.948 14.048 14.41 14.668 14.86 14.978 15.143 15.265 15.425 15.555 16.405 16.355 15.863 15.935 16.05 16.163 16.395 16.468 16.53 16.658 16.805 16.9 17.108 17.09 17.243 17.475 17.288 17.46 17.865 17.783 17.668 17.775 17.968 17.94 18.248 18.283 18.178 18.29 18.35 18.38 18.483 18.598 18.63 18.698 18.845 19.198 19.308 19.008 19.215 19.395 19.368 19.405 19.855 19.768 21.613 20.87 20.38 20.1 19.898 20.018 20.058 20.12 20.188 20.288 20.345 20.868 20.663 20.738 20.84 20.858 20.918 21.023 21.4 23.54 24.44 23.2 22.513 22.623 22.783 25.073 25.618 24.803 25.185 23.935 24.505 23.7 24.19 26.398 26.89 23.64 23.16 23.358 23.428 23.405 25.368 26.01 27.563 32.05 32.788 29.198 25.583 26.48 28.933 28.27 26.395 29.083 35.925 36.448 35.96 36.62 36.055 37.19 32.595 27.783 28.263 34.24 36.66 36.165 33.898 34.253 31.703 28.86 29.925 30.51 29.74 29.398 30.04 30.275 30.5 29.89 29.263 28.81 28.825 28.86 28.923 28.915 28.965 28.948 28.963 28.928 28.935 28.893 28.865 28.805 28.978 29.17 28.705 28.645 28.608 28.668 31.19 31.243 32.728 34.088 33.85 32.488 31.093 29.17 27.668 27.925 27.463 27.295 27.885 29.818 30.918 31.06 30.608 29.353 28.723 26.045 25.538 25.62 25.618 25.195 24.82 25.65 26.645 24.743 24.07 26.473 29.688 30.48 30.77 30.053 29.59 27.763 22.965 22.73 22.478 22.205 21.925 21.7 21.44 21.188 20.988 20.845 20.735 20.573 20.39 20.308 20.183 19.945 19.71 19.49 19.21 18.853 18.688 18.593 18.533 19.073 20.208 19.48 18.285 17.94 17.895 17.928 17.828
11.9 11.763 11.615 11.49 11.358 11.21 11.07 10.928 10.788 10.638 10.493 10.37 10.213 10.073 9.913 9.775 9.633 9.49 9.313 9.133 8.948 8.81 8.643 8.453 8.3 8.15 7.983 7.82 7.643 7.448 7.273 7.11 6.945 6.775 6.615 6.425 6.24 6.085 5.91 5.735 5.59 5.445 5.288 5.143 4.988 4.993 5.65 5.175 4.883 4.518 5.638 5.24 4.03 3.933 3.87 3.788 3.693 3.62 3.495 3.418 3.338 3.233 3.128 3.045 2.955 2.88 2.795 2.718 2.688 2.688 2.613 2.585 2.608 2.53 3.195 3.998 3.85 2.668 2.788 2.733 2.765 3.218 2.948 2.563 3.025 2.565 1.963 1.953 1.958 1.923 1.9 1.875 1.863 1.858 1.873 1.843 1.843 1.868 1.833 1.808 1.688 1.628 1.59 1.6 1.57 1.575 1.58 1.555 1.56 1.538 1.545 1.548 1.548 1.52 1.563 1.568 1.598 1.978 1.848 1.458 1.238 1.305 1.443 1.535 1.463 1.263 1.283 1.3 1.29 1.293 1.31 1.31 1.318 1.295 1.328 1.288 1.293 1.28 1.255 1.275 1.283 1.275 1.243 1.223 1.253 1.238 1.235 1.258 1.253 1.238 1.223 1.263 1.28 1.33 1.375 1.43 1.478 1.54 1.615 1.64 1.683 1.73 1.753 1.818 1.855 1.9 1.963 1.98 1.973 1.955 1.968 2 2.038 2.08 2.1 2.185 2.238 2.28 2.383 2.495 3.643 5.878 7.343 7.968 6.865 4.98 2.473 2.34 2.378 2.4 2.515 4.898 6.428 6.56 5.428 2.725 2.578 3.05 3.928 3.243 3.09 3.335 4.028 3.635 3.37 3.468 3.6 3.688 3.81 3.94 4.153 4.288 4.425 4.595 4.65 4.8 4.96 5.058 5.168 5.325 5.45 5.585 5.78 5.968 6.118 6.248 6.39 6.533 6.688 6.82 6.998 7.148 7.368 7.555 7.705 7.833 8.005 8.188 8.398 8.575 8.735 8.935 9.153 9.345 9.56 9.765 9.963 10.18 10.403 10.61 10.8 11.04 11.27 11.465 11.69 11.898 12.093 12.3 12.475 12.658 12.845 13.04 13.208 13.498 13.773 13.905 14.268 14.488 14.743 14.84 15.018 15.17 15.283 15.458 16.493 15.823 15.83 15.895 16.123 16.148 16.295 16.33 16.373 16.523 16.608 16.745 16.805 16.933 17.31 17.38 17.258 17.278 17.378 17.465 17.685 17.63 18.405 17.985 18.738 18.058 17.97 18.083 18.198 19.018 18.418 18.463 18.58 18.648 18.735 18.8 18.928 19.083 19.705 19.618 19.3 19.373 19.71 19.995 22.175 22.25 22.205 22.138 21.813 20.803 20.273 20.065 20.168 20.235 20.303 20.36 20.445 20.543 20.678 20.763 20.86 21.18 22.485 23.368 24.698 24.11 25.485 24.415 23.268 25.075 24.633 23.33 24.378 26.308 26.14 25.858 25.62 25.693 26.96 23.535 23.163 23.36 23.448 23.525 24.553 26.02 27.025 29.085 30.323 27.463 25.958 25.863 28.05 27.995 26.685 31.193 35.878 35.78 36.233 36.353 36.105 36.423 30.493 28.275 29.253 36.255 37.228 37.228 36.888 36.763 33.778 29.375 30.588 29.825 29.123 29.2 29.503 29.33 29.6 30.313 29.898 30.083 30.32 29.358 29.23 29.005 29.01 29.033 29.043 29.063 29.095 29.078 29.03 28.988 29.768 30.963 30.14 28.72 28.615 30.4 32.973 32.475 33.38 34.003 33.505 31.638 29.435 28.41 27.795 27.663 27.5 27.31 29.77 31.528 31.243 31.193 30.1 26.29 26.015 25.7 25.853 25.713 25.38 25.1 24.995 28.69 30.743 28.15 24.58 26.268 29.77 30.81 30.328 29.575 28.33 24.733 22.975 22.738 22.488 22.138 21.9 21.673 21.445 21.205 21.013 20.87 20.75 20.593 20.525 20.603 20.508 20.668 19.843 19.495 19.263 18.948 18.593 18.455 18.408 18.325 18.888 20.363 18.733 18.063 18.01 17.87 17.753
11.843 11.705 11.565 11.433 11.303 11.158 10.995 10.873 10.743 10.585 10.463 10.323 10.173 10.045 9.898 9.75 9.58 9.433 9.285 9.11 8.955 8.81 8.64 8.465 8.29 8.133 7.95 7.78 7.61 7.455 7.275 7.105 6.93 6.765 6.6 6.44 6.268 6.095 5.953 5.775 5.588 5.418 5.273 5.12 5.01 4.865 4.75 4.595 4.44 4.363 4.713 5.665 5.218 5.745 4.805 3.943 3.765 3.7 3.47 3.398 3.305 3.21 3.093 3.025 2.978 2.86 2.785 2.71 2.718 2.723 2.663 2.595 2.52 2.465 3.42 4.42 3.868 2.72 2.785 2.755 2.928 3.063 2.808 2.925 3.08 2.215 2.003 1.958 1.95 1.923 1.903 1.893 1.91 1.875 1.863 1.858 1.853 1.853 1.818 1.698 1.625 1.598 1.615 1.595 1.588 1.565 1.578 1.55 1.578 1.553 1.575 1.593 1.558 1.515 1.533 1.57 1.71 2.093 1.605 1.4 1.49 1.428 1.533 1.538 1.275 1.268 1.283 1.305 1.295 1.313 1.305 1.3 1.328 1.305 1.303 1.275 1.27 1.27 1.265 1.26 1.275 1.293 1.23 1.24 1.25 1.25 1.248 1.243 1.268 1.258 1.278 1.31 1.338 1.383 1.475 1.505 1.55 1.595 1.648 1.675 1.738 1.81 1.843 1.885 1.923 1.95 1.985 2.003 2.023 1.985 1.975 2 2.035 2.108 2.085 2.18 2.235 2.323 2.548 3.773 6.068 7.425 7.968 6.85 4.473 2.325 2.333 2.353 2.39 2.41 2.458 2.843 5.403 6.673 6.293 4.348 2.548 2.633 3.045 3.56 3.18 3.133 3.488 4.015 3.518 3.455 3.555 3.65 3.76 3.908 4.075 4.208 4.363 4.54 4.63 4.733 4.883 5.01 5.138 5.295 5.408 5.528 5.693 5.888 6.01 6.16 6.328 6.483 6.635 6.768 6.958 7.12 7.36 7.533 7.685 7.79 7.948 8.13 8.33 8.483 8.663 8.858 9.058 9.24 9.443 9.663 9.875 10.078 10.315 10.523 10.718 10.933 11.113 11.325 11.535 11.745 11.945 12.148 12.353 12.548 12.735 12.913 13.08 13.353 13.598 13.768 14.113 14.383 14.578 14.735 14.89 15.035 15.16 15.448 16.215 15.798 15.88 15.658 15.97 16.003 16.145 16.263 16.255 16.59 16.503 16.603 16.718 16.748 16.913 17.028 17.098 17.258 17.488 17.668 17.435 17.47 17.625 17.738 17.648 17.738 17.833 17.86 17.903 18.088 18.103 18.255 18.355 18.455 18.82 18.983 18.75 18.835 18.873 19.313 19.328 19.263 19.808 21.498 22.328 22.32 22.275 22.358 22.48 22.448 22.335 21.738 21.393 20.773 20.248 20.263 20.398 20.493 20.605 20.77 20.873 21.753 23.975 24.865 25.963 27.585 28.195 30.205 29.045 25.61 23.538 23.408 24.46 27.473 28.915 28.523 25.828 26.47 25.275 23.065 23.245 23.36 23.395 25.978 27.158 25.615 25.928 25.71 26.365 27.285 26.953 26.768 28.093 28.113 27.43 34.405 35.923 36.368 36.568 36.21 35.553 35.278 27.5 28.333 29.783 36.563 37.723 36.913 37.39 37.025 32.425 29.46 32.048 29.943 29.208 29.308 29.385 29.445 29.435 30.175 30.035 29.655 30.48 31.08 31.628 30.993 29.773 29.535 29.085 29.125 29.18 29.215 29.16 29.17 29.863 30.205 30.37 29.603 28.683 30.538 31.985 32.79 33.513 33.593 31.92 28.673 28.313 28.028 27.9 27.78 27.608 27.42 28.455 31.205 30.38 30.23 26.768 26.45 26.193 25.963 25.873 25.503 25.335 24.813 26.81 30.453 31.258 31.673 29.875 26.085 24.85 29.173 29.808 28.08 26.558 23.753 22.88 22.633 22.353 22.113 21.873 21.615 21.435 21.208 21.013 20.893 20.818 20.778 20.69 20.66 20.505 20.08 19.878 19.538 19.225 18.943 18.555 18.343 18.263 18.205 18.135 19.113 20.115 19.7 18.423 17.875 17.698
11.795 11.653 11.515 11.403 11.283 11.125 10.963 10.818 10.703 10.555 10.42 10.275 10.153 10.035 9.898 9.728 9.57 9.423 9.27 9.1 8.938 8.793 8.628 8.47 8.303 8.143 7.965 7.79 7.618 7.445 7.26 7.093 6.928 6.76 6.613 6.428 6.26 6.09 5.93 5.788 5.648 5.458 5.29 5.128 4.993 4.863 4.743 4.625 4.505 4.365 4.268 4.125 4.02 3.973 3.93 4.503 5.963 6.255 4.628 3.61 3.368 3.18 3.083 2.973 2.945 2.833 2.748 2.683 2.673 2.64 2.668 2.648 2.588 2.823 3.868 5.435 3.763 2.94 2.758 2.725 3.165 3.233 2.918 3.135 3.205 2.248 1.983 1.978 1.91 1.89 1.878 1.865 1.858 1.878 1.878 1.868 1.858 1.84 1.76 1.648 1.61 1.605 1.663 1.648 1.618 1.6 1.608 1.568 1.55 1.55 1.563 1.553 1.543 1.5 1.495 1.55 1.788 1.783 1.535 1.435 1.405 1.46 1.475 1.35 1.26 1.283 1.305 1.308 1.298 1.323 1.325 1.31 1.298 1.303 1.288 1.285 1.27 1.273 1.28 1.278 1.275 1.313 1.258 1.23 1.245 1.245 1.258 1.263 1.268 1.268 1.305 1.35 1.398 1.493 1.563 1.605 1.648 1.68 1.715 1.748 1.825 1.895 1.953 1.963 1.98 1.99 2.018 2.045 2.058 2.03 2.023 2.02 2.023 2.08 2.108 2.16 2.2 2.245 2.298 4.4 7.475 7.993 6.82 4.133 2.23 2.305 2.335 2.36 2.418 2.425 2.42 2.48 3.733 5.99 6.693 5.963 3.735 2.568 2.708 2.813 3.073 3.078 3.19 3.833 4.135 3.443 3.533 3.635 3.755 3.888 4.03 4.163 4.31 4.458 4.59 4.72 4.803 4.95 5.11 5.243 5.325 5.463 5.618 5.808 5.963 6.118 6.288 6.428 6.605 6.723 6.905 7.043 7.28 7.475 7.65 7.753 7.908 8.083 8.26 8.41 8.608 8.815 8.99 9.18 9.363 9.595 9.765 9.973 10.2 10.373 10.588 10.79 10.99 11.203 11.403 11.598 11.798 11.993 12.17 12.373 12.58 12.763 12.938 13.235 13.495 13.68 13.99 14.243 14.425 14.59 14.753 14.908 15.01 15.688 16.553 16.038 15.458 15.57 15.843 15.87 15.963 16.053 16.12 16.268 16.433 16.413 16.538 16.648 16.7 16.8 16.968 17.125 17.56 17.933 17.363 17.335 17.325 17.528 17.533 17.578 17.645 17.738 17.743 17.845 17.93 18.063 18.108 18.193 18.593 18.88 18.648 18.793 18.835 18.87 18.958 19.038 19.428 19.548 19.958 21.113 22.17 22.485 22.563 22.553 22.548 22.613 22.708 22.678 22.078 22.258 21.215 20.585 20.715 20.745 21.333 22.275 24.018 24.618 27.218 27.21 23.973 25.94 29.46 24.64 24.07 23.223 24.735 27.778 29.588 28.133 23.905 25.338 23.413 23.095 23.303 23.55 23.56 26.903 28.075 26.158 25.91 26.05 26.825 25.718 26.098 26.505 28.145 27.57 27.358 29.858 33.478 35.768 36.353 36.338 34.76 32.418 30.238 28.443 32.29 36.84 37.055 36.415 37.688 36.763 31.818 30.035 30.358 29.51 29.313 29.395 29.443 29.605 29.543 30.23 33.015 32.863 30.365 29.858 29.648 30.385 31.065 31.298 30.133 29.425 29.215 29.285 29.21 29.253 29.243 29.193 29.488 29.753 29.668 30.06 30.385 31.093 32.068 32.008 29.005 28.318 28.27 28.208 28.01 27.843 27.668 27.51 27.273 28.463 28.39 27.21 26.513 26.365 26.25 26.115 25.528 25.383 25.118 26.008 30.1 30.963 31.673 31.33 30.943 27.828 25.398 24.368 25.99 27.098 24.6 23.063 22.793 22.545 22.255 21.998 21.758 21.563 21.39 21.238 21.095 20.98 20.935 21.115 21.113 21.02 20.458 20.038 20.065 19.783 19.245 18.978 19.16 18.785 18.155 18.04 17.975 17.943 18.77 18.14 17.91 17.788 17.575
11.78 11.643 11.508 11.348 11.225 11.073 10.94 10.795 10.638 10.5 10.388 10.258 10.128 10.013 9.87 9.713 9.558 9.423 9.265 9.11 8.933 8.765 8.61 8.45 8.288 8.128 7.93 7.74 7.615 7.455 7.253 7.08 6.93 6.76 6.59 6.425 6.263 6.078 5.91 5.773 5.635 5.433 5.285 5.165 5.048 4.885 4.753 4.61 4.483 4.368 4.253 4.158 4.048 3.945 3.84 3.725 3.668 3.743 4.573 4.193 4.08 4.41 4.42 3.47 3.01 2.808 2.725 2.675 2.61 2.605 2.628 2.595 2.623 3.005 5.148 4.895 3.038 2.883 2.73 2.713 3.23 3.045 2.978 3.405 2.953 2.033 1.92 1.97 1.933 1.89 1.85 1.843 1.843 1.845 1.85 1.845 1.85 1.788 1.683 1.66 1.623 1.648 1.653 1.648 1.61 1.625 1.595 1.585 1.538 1.575 1.568 1.538 1.525 1.495 1.523 1.615 1.778 1.63 1.508 1.458 1.438 1.493 1.573 1.295 1.283 1.303 1.328 1.328 1.31 1.323 1.32 1.305 1.323 1.298 1.293 1.28 1.283 1.285 1.263 1.258 1.28 1.245 1.275 1.245 1.228 1.265 1.27 1.245 1.258 1.285 1.348 1.415 1.508 1.603 1.648 1.728 1.755 1.783 1.82 1.858 1.895 1.968 1.98 2.018 2.063 2.11 2.48 2.038 2.063 2.025 2.043 2.053 2.053 2.09 2.148 2.165 2.175 2.218 2.255 2.273 5.44 6.73 4.483 2.388 2.275 2.298 2.353 2.373 2.408 2.413 2.408 2.44 2.658 4.8 6.348 6.66 5.47 2.81 2.57 2.655 2.91 3.41 3.11 3.263 3.95 3.703 3.503 3.633 3.725 3.845 3.963 4.11 4.25 4.388 4.57 4.663 4.768 4.893 5.038 5.178 5.285 5.408 5.55 5.72 5.893 6.055 6.218 6.393 6.553 6.675 6.85 6.968 7.143 7.415 7.61 7.715 7.863 8 8.173 8.368 8.553 8.73 8.9 9.098 9.27 9.445 9.643 9.838 10.07 10.268 10.483 10.663 10.843 11.035 11.235 11.453 11.625 11.825 12.013 12.245 12.458 12.633 12.79 13.093 13.315 13.508 13.82 14.078 14.258 14.428 14.595 14.733 14.875 15.79 16.643 15.605 15.185 15.47 15.67 15.655 15.748 15.813 15.968 16.07 16.168 16.25 16.443 16.485 16.598 16.675 16.758 16.843 16.948 16.978 17.103 17.15 17.23 17.343 17.378 17.385 17.42 17.535 17.585 17.71 17.803 17.88 17.94 18.113 18.22 18.268 18.308 18.755 18.58 18.75 18.895 18.893 19.008 19.06 19.178 19.29 19.435 19.863 21.34 22.083 22.27 22.783 22.823 22.78 22.73 22.818 22.935 22.64 22.898 22.205 21.558 23.36 25.66 27.505 27.878 28.055 23.693 23.893 23.413 23.513 23.433 23.255 25.998 28.085 29.743 26.648 24.17 25.143 23.35 23.15 23.325 23.803 24.215 27.375 27.608 26.04 26.098 25.885 26.103 25.81 26.14 27.568 28.15 28.313 27.368 26.583 29.148 30.838 29.895 29.12 31.903 30.283 30.34 27.953 34.858 36.933 36.37 36.328 36.76 36.398 29.105 30.603 29.338 29.3 29.37 29.453 29.473 29.928 31.57 32.68 36.908 36.998 36.135 35.028 31.813 30.288 29.755 29.598 29.833 29.783 29.283 29.368 29.313 29.495 29.31 29.228 29.21 29.155 30.025 30.723 29.853 29.335 29.815 30.353 28.688 28.518 28.373 28.683 28.075 27.87 28.065 28.645 27.75 28.993 29.568 27.03 26.505 26.868 26.308 26.263 25.808 25.635 24.86 28.51 30.675 31.453 31.575 30.808 28.865 27.318 24.673 24.303 23.978 24.058 23.63 23.06 22.783 22.47 22.178 21.908 21.715 21.533 21.38 21.278 21.15 21.075 21.09 22.23 23.765 23.65 22.053 19.913 20.123 19.385 19.108 19.003 18.888 19.183 18.238 17.905 17.833 17.765 17.763 17.748 18.705 18.365 17.44
11.768 11.638 11.468 11.333 11.188 11.03 10.895 10.758 10.61 10.478 10.368 10.243 10.133 9.983 9.853 9.69 9.565 9.408 9.248 9.09 8.95 8.768 8.585 8.42 8.245 8.098 7.91 7.748 7.588 7.42 7.26 7.105 6.91 6.75 6.575 6.418 6.258 6.078 5.928 5.778 5.613 5.47 5.28 5.155 5.013 4.873 4.758 4.62 4.493 4.378 4.235 4.135 4.04 3.943 3.87 3.748 3.678 3.568 3.438 3.358 3.28 3.32 4.328 4.548 4.81 4.023 2.833 2.803 2.68 2.548 2.555 2.53 2.51 2.445 2.5 2.76 2.848 2.798 2.655 2.76 3.18 2.903 3.035 3.568 2.895 2.12 1.938 1.938 1.938 1.915 1.873 1.88 1.86 1.858 1.863 1.848 1.793 1.708 1.65 1.655 1.64 1.678 1.655 1.643 1.615 1.623 1.598 1.598 1.565 1.585 1.57 1.558 1.533 1.518 1.598 1.823 1.925 1.708 1.655 1.518 1.505 1.558 1.363 1.305 1.32 1.325 1.34 1.328 1.333 1.318 1.313 1.31 1.3 1.298 1.29 1.293 1.298 1.283 1.28 1.243 1.263 1.268 1.24 1.253 1.238 1.27 1.31 1.293 1.345 1.375 1.46 1.478 1.563 1.63 1.708 1.788 1.853 1.843 1.9 1.94 1.948 1.978 2 2.05 2.083 2.36 2.993 2.01 2.053 2.048 2.065 2.048 2.06 2.09 2.138 2.158 2.168 2.18 2.213 2.25 2.753 3.89 2.433 2.243 2.268 2.298 2.368 2.393 2.403 2.443 2.43 2.438 2.42 2.718 5.335 6.585 6.425 5.05 2.628 2.563 2.635 2.858 3.385 3.138 3.318 3.913 3.59 3.613 3.738 3.83 3.935 4.075 4.213 4.34 4.493 4.603 4.708 4.843 4.983 5.138 5.25 5.365 5.51 5.703 5.863 6.01 6.2 6.335 6.503 6.633 6.79 6.885 7.078 7.338 7.56 7.66 7.808 7.945 8.11 8.285 8.438 8.623 8.795 8.96 9.153 9.34 9.52 9.718 9.948 10.135 10.343 10.543 10.728 10.915 11.123 11.283 11.48 11.668 11.885 12.085 12.29 12.45 12.615 12.86 13.143 13.363 13.69 13.928 14.08 14.25 14.408 14.54 14.713 15.745 16.678 16.573 15.07 15.31 15.5 15.488 15.548 15.605 15.825 15.933 16 16.125 16.203 16.41 16.425 16.533 16.63 16.66 16.735 16.82 16.873 16.978 16.975 17.013 17.408 17.203 17.243 17.358 17.373 17.54 17.618 17.725 17.758 17.93 18.018 18.073 18.205 18.32 18.363 18.548 18.778 18.813 18.81 19.015 19.053 19.185 19.208 19.403 19.753 19.953 20.103 20.883 22.125 22.868 22.815 22.995 23.013 23.005 23.39 23.405 23.313 23.723 22.12 23.625 22.963 25.118 22.678 22.59 22.87 22.943 22.96 23.273 26.183 28.35 29.77 26.415 24.268 24.435 23.188 23.195 23.333 23.835 24.505 27.698 27.433 26.35 25.785 25.645 25.608 25.605 25.94 27.513 28.08 26.975 26.873 26.285 27.843 29.485 29.078 27.31 26.74 26.938 28.203 29.513 36.42 37.015 36.883 36.675 36.393 36.213 30.398 30.51 29.375 29.348 29.41 29.565 29.543 30.25 32.05 34.17 36.49 37.075 37.285 37.53 37.053 36.313 32.543 29.608 29.603 29.415 29.435 29.42 29.458 29.675 29.428 29.293 29.263 29.175 32.363 34.91 34.86 34.858 32.383 29.745 28.953 29.028 29.295 28.78 28.568 27.925 30.615 32.24 31.473 29.448 27.158 26.85 26.575 28.268 26.955 26.863 26.225 25.728 25.205 29.263 31.193 31.665 31.078 30.325 27.623 25.93 24.393 24.118 23.863 23.608 23.358 23.038 22.703 22.41 22.13 21.915 21.685 21.558 21.44 21.313 21.315 21.238 21.895 25.253 25.208 24.655 23.885 20.73 19.3 19.173 19.125 19 18.835 18.693 18.383 17.943 17.72 17.615 17.575 17.553 18.33 19.145 17.92
11.738 11.615 11.468 11.308 11.188 11.03 10.893 10.745 10.598 10.443 10.305 10.19 10.088 9.968 9.818 9.675 9.533 9.375 9.213 9.05 8.898 8.763 8.6 8.423 8.233 8.098 7.895 7.725 7.573 7.39 7.233 7.06 6.903 6.735 6.588 6.413 6.26 6.075 5.91 5.748 5.605 5.453 5.293 5.163 5.008 4.865 4.743 4.61 4.483 4.383 4.263 4.15 4.045 3.928 3.835 3.76 3.673 3.588 3.5 3.388 3.263 3.133 3.05 3.453 3.81 4.395 3.63 3.79 4 2.52 2.498 2.47 2.435 2.388 2.44 2.748 2.953 2.788 2.68 2.935 3.013 2.75 2.915 3.555 2.708 2.075 1.948 1.928 1.93 1.903 1.883 1.89 1.875 1.873 1.865 1.853 1.765 1.835 1.67 1.665 1.648 1.658 1.63 1.64 1.618 1.6 1.588 1.58 1.523 1.565 1.56 1.558 1.638 1.54 1.63 1.74 1.573 1.58 1.523 1.575 1.598 1.695 1.313 1.295 1.328 1.325 1.328 1.325 1.315 1.313 1.315 1.3 1.295 1.283 1.3 1.303 1.305 1.275 1.28 1.25 1.235 1.253 1.25 1.255 1.318 1.323 1.363 1.418 1.478 1.505 1.553 1.6 1.66 1.693 1.765 1.868 1.938 1.963 1.995 2.008 1.998 1.99 2.005 2.053 2.223 3.685 5.175 3.72 2.06 2.05 2.043 2.055 2.065 2.075 2.143 2.148 2.118 2.155 2.155 2.19 2.223 2.23 2.23 2.238 2.238 2.27 2.345 2.38 2.405 2.433 2.455 2.428 2.408 2.46 3.39 5.888 6.758 6.073 3.96 2.54 2.56 2.618 2.928 3.23 3.145 3.598 4.07 3.663 3.718 3.818 3.925 4.038 4.208 4.338 4.463 4.53 4.655 4.79 4.913 5.06 5.185 5.355 5.478 5.643 5.813 5.958 6.115 6.285 6.418 6.55 6.718 6.825 7.023 7.258 7.455 7.6 7.745 7.89 8.04 8.215 8.373 8.515 8.703 8.848 9.045 9.208 9.42 9.6 9.778 9.98 10.188 10.385 10.54 10.743 10.933 11.113 11.318 11.523 11.738 11.943 12.148 12.265 12.418 12.72 12.973 13.218 13.495 13.738 13.895 14.065 14.223 14.348 14.658 15.795 16.715 16.623 14.85 15.148 15.265 15.323 15.38 15.428 15.628 15.773 15.838 16.195 16.033 16.378 16.39 16.343 16.38 16.458 16.583 16.59 16.71 16.833 16.928 16.848 17.343 17.088 17.08 17.218 17.398 17.36 17.435 17.553 17.605 17.78 17.79 17.878 18.063 18.165 18.24 18.46 18.5 18.773 18.698 18.89 18.98 19.16 19.213 19.33 19.423 19.538 20.06 20.93 20.388 21.975 20.783 22.41 22.998 22.803 23.463 23.448 23.593 24.638 22.405 21.805 21.853 21.985 22.168 22.31 22.645 23.17 22.953 23.658 26.005 27.703 28.66 25.785 24.163 23.52 23.05 23.258 23.325 23.288 23.593 24.315 24.568 25.213 25.56 25.748 26.053 26.383 26.23 26.48 27.718 26.29 26.2 26.355 28.675 29.733 28.998 26.693 26.835 27.783 28.313 28.283 32.318 34.225 36.38 36.715 36.893 36.42 31.24 30.793 30.405 29.333 29.953 31.08 30.29 30.138 30.755 32.365 35.545 36.325 36.998 37.608 37.945 37.203 33.36 29.678 29.803 29.485 29.518 29.52 29.69 29.635 29.47 29.33 29.255 29.228 31.905 34.803 35.47 35.728 35.068 32.575 29.19 28.72 28.678 28.605 28.675 28.6 32.19 32.173 31.933 31.283 27.158 26.77 26.595 26.538 26.62 30.55 30.845 28.365 26.105 25.455 26.683 29.988 30.57 28.025 26.203 24.505 24.273 23.96 23.703 23.47 23.21 22.948 22.65 22.348 22.115 21.883 21.753 21.628 21.475 21.4 21.933 22.25 24.983 25.775 25.608 25.218 24.75 23.08 20.113 19.115 19.498 18.978 18.805 18.59 18.468 18.17 17.73 17.555 17.445 17.333 17.328 17.173 17.003
11.703 11.543 11.425 11.278 11.14 11.003 10.878 10.733 10.598 10.453 10.333 10.205 10.07 9.943 9.778 9.66 9.51 9.348 9.173 9.028 8.868 8.718 8.558 8.383 8.235 8.07 7.918 7.748 7.58 7.4 7.223 7.04 6.903 6.723 6.57 6.395 6.228 6.093 5.925 5.768 5.608 5.45 5.303 5.153 4.998 4.883 4.763 4.628 4.498 4.363 4.258 4.14 4.038 3.955 3.845 3.753 3.655 3.545 3.448 3.378 3.283 3.175 3.04 2.953 2.845 2.723 2.653 2.703 2.61 2.543 2.495 2.508 2.453 2.408 2.465 3.093 2.995 2.698 2.703 3.123 3.485 2.975 3.433 3.308 2.265 2.06 1.915 1.905 1.915 1.883 1.88 1.868 1.883 1.903 1.878 1.778 1.7 1.753 1.68 1.653 1.66 1.638 1.668 1.638 1.63 1.595 1.6 1.605 1.535 1.55 1.525 1.543 1.53 1.575 1.71 1.84 1.503 1.538 1.618 1.475 1.898 1.508 1.308 1.318 1.348 1.32 1.328 1.34 1.318 1.308 1.315 1.295 1.283 1.29 1.308 1.283 1.3 1.255 1.293 1.263 1.223 1.233 1.233 1.24 1.34 1.453 1.453 1.555 1.603 1.653 1.683 1.67 1.743 1.805 1.87 1.938 1.968 2.013 2.028 2.035 2.023 2.023 2.053 2.288 3.463 5.885 7.215 7.068 3.383 2.025 2.053 2.063 2.083 2.08 2.13 2.123 2.123 2.145 2.158 2.17 2.168 2.223 2.25 2.248 2.288 2.298 2.31 2.335 2.4 2.418 2.45 2.433 2.43 2.438 2.688 4.593 6.183 6.68 5.738 3.708 2.56 2.585 2.743 3.56 3.11 3.215 3.868 3.8 3.688 3.8 3.88 4.02 4.123 4.255 4.41 4.478 4.58 4.75 4.878 5.005 5.158 5.298 5.453 5.583 5.76 5.898 6.075 6.235 6.36 6.493 6.635 6.73 6.923 7.175 7.38 7.533 7.673 7.79 7.948 8.118 8.28 8.463 8.628 8.773 8.978 9.135 9.3 9.475 9.658 9.855 10.043 10.225 10.415 10.593 10.748 10.938 11.108 11.31 11.525 11.745 11.928 12.083 12.26 12.548 12.78 13.028 13.348 13.563 13.725 13.88 14.013 14.16 14.803 15.808 16.595 15.993 14.653 14.893 14.995 15.16 15.24 15.348 15.43 15.52 15.623 15.723 15.868 16.06 16.07 16.58 16.365 16.323 16.335 16.455 16.71 16.628 17.198 16.748 16.675 16.89 16.953 17.01 17.118 17.103 17.23 17.303 17.4 17.633 17.635 17.725 17.923 17.968 18.09 18.28 18.333 18.52 18.563 18.588 18.755 18.888 19.02 19.178 19.308 19.378 19.673 20.473 21.493 22.985 22.908 22.735 21.613 23.003 22.215 23.378 24.825 25.963 23.168 24.66 22.965 22.033 22.283 22.445 22.748 23.075 23.843 23.695 23.57 23.923 23.828 24.21 25.06 23.31 23.08 23.238 23.343 23.223 24.465 24.863 24.63 24.848 28.568 28.265 26.505 26.75 27.108 29.34 29.565 26.293 26.368 26.325 27.1 28.238 27.503 27.068 27.398 28.635 27.853 27.878 28.275 28.838 29.958 31.193 32.825 33.983 31.995 31.685 30.72 29.818 29.53 30.663 31.508 31.598 30.785 31.253 35.08 36.613 37.058 37.095 37.59 35.983 30.815 29.745 29.783 29.518 29.565 29.57 29.665 29.558 29.448 29.335 29.233 29.723 33.72 34.898 35.62 35.398 34.765 31.793 29.173 28.88 28.543 28.35 28.24 28.055 28.24 30.073 31.78 31.178 27.288 26.805 26.64 26.34 27.68 31.638 32.388 32.36 31.138 28.035 25.95 26.643 25.563 24.938 24.828 24.928 24.31 23.97 23.63 23.33 23.048 22.793 22.598 22.335 22.065 21.968 21.803 21.7 21.635 21.448 21.215 23.82 25.05 25.438 25.73 25.575 25.173 24.775 22.348 19.148 19.058 18.893 18.718 18.498 18.348 18.23 18.073 17.433 17.233 17.168 17.125 17 16.845
11.68 11.543 11.428 11.258 11.128 10.953 10.825 10.725 10.595 10.435 10.308 10.21 10.093 9.93 9.768 9.613 9.475 9.295 9.165 8.978 8.838 8.695 8.525 8.355 8.203 8.02 7.86 7.703 7.535 7.38 7.223 7.038 6.875 6.73 6.55 6.383 6.233 6.06 5.905 5.788 5.61 5.468 5.308 5.168 5.005 4.863 4.735 4.593 4.503 4.385 4.26 4.163 4.055 3.935 3.843 3.778 3.683 3.563 3.44 3.36 3.265 3.145 3.04 2.95 2.863 2.758 2.658 2.583 2.555 2.53 2.575 2.498 2.423 2.51 3.325 3.243 2.943 2.645 2.703 3.343 3.765 3.2 3.24 2.728 2.148 1.95 1.943 1.905 1.88 1.89 1.89 1.865 1.858 1.843 1.825 1.75 1.685 1.708 1.695 1.673 1.658 1.65 1.668 1.625 1.615 1.585 1.593 1.603 1.578 1.558 1.565 1.533 1.518 1.563 1.78 1.745 1.445 1.463 1.69 1.875 1.81 1.338 1.32 1.325 1.34 1.323 1.333 1.328 1.305 1.295 1.29 1.285 1.285 1.295 1.303 1.305 1.283 1.25 1.245 1.245 1.223 1.233 1.238 1.305 1.418 1.548 1.635 1.763 1.798 1.818 1.818 1.808 1.855 1.883 1.955 2.003 2.038 2.025 2.008 2.02 2.043 2.07 2.278 3.673 5.728 7.288 7.888 6.753 4.14 2.01 2.123 2.055 2.078 2.105 2.125 2.125 2.113 2.15 2.143 2.175 2.155 2.155 2.21 2.253 2.295 2.32 2.298 2.308 2.368 2.413 2.433 2.468 2.445 2.43 2.433 2.918 5.19 6.463 5.938 3.713 2.508 2.513 2.578 2.878 3.495 3.175 3.403 4.22 3.808 3.768 3.84 4.003 4.073 4.223 4.298 4.39 4.515 4.635 4.8 4.945 5.075 5.25 5.39 5.568 5.723 5.85 5.993 6.15 6.305 6.43 6.533 6.638 6.855 7.085 7.295 7.46 7.588 7.723 7.863 8.023 8.19 8.365 8.525 8.7 8.845 9.03 9.188 9.358 9.55 9.718 9.898 10.095 10.215 10.408 10.568 10.753 10.95 11.17 11.365 11.56 11.753 11.92 12.095 12.29 12.643 12.848 13.128 13.343 13.51 13.673 13.803 13.965 15.125 15.888 16.53 15.613 14.595 14.678 14.763 15.023 15.053 15.12 15.338 15.343 15.595 15.548 15.668 15.735 15.87 16.453 16.373 16.025 16.16 16.323 16.483 16.535 16.5 16.578 16.628 16.665 16.803 16.84 16.9 16.948 17.033 17.148 17.328 17.42 17.478 17.63 17.858 17.763 17.973 18.01 18.115 18.333 18.373 18.4 18.525 18.625 18.753 19.02 19.203 19.24 19.628 19.758 19.658 19.833 21.51 20.495 20.908 23.378 22.018 21.45 27.093 27.508 23.675 26.525 24.218 22.678 23.355 23.703 23.795 23.538 25.03 23.63 23.66 23.73 23.775 25.078 26.165 23.288 23.085 23.22 23.578 23.505 23.93 25.683 25.065 28.625 31.25 32.113 31.14 29 29.583 29.803 27.483 26.483 27.52 27.27 26.543 26.708 26.728 26.935 27.67 28.598 27.883 27.99 28.095 28.258 29.923 28.808 29.233 31.738 31.73 29.865 31.05 30.088 30.383 31.088 31.8 31.46 30.325 31.275 33.828 36.913 37.8 38.15 37.435 34.273 29.928 30.018 29.63 29.618 29.593 29.653 29.655 29.573 29.45 29.333 29.233 31.27 34.95 35.07 35.81 35.105 34.38 29.268 29.14 28.895 28.57 28.388 28.268 28.138 28.093 28.88 29.42 28.938 27.055 26.825 26.605 26.365 29.428 32.053 32.62 32.425 31.795 26.138 26.005 27.615 26.308 25.493 25.063 25.063 24.355 24.153 23.95 23.303 22.98 22.73 22.525 22.388 22.185 22.013 21.9 22.125 22.578 21.888 21.293 23.193 24.703 25.088 25.45 25.748 25.518 24.525 20.723 19.348 18.988 18.84 18.68 18.463 18.13 18.058 18.005 17.41 17.103 16.998 16.93 16.888 16.86
11.64 11.48 11.365 11.24 11.105 10.963 10.83 10.71 10.585 10.423 10.28 10.16 10.058 9.943 9.783 9.628 9.478 9.328 9.143 8.953 8.823 8.673 8.513 8.333 8.178 7.998 7.84 7.675 7.478 7.33 7.168 7.04 6.848 6.713 6.555 6.38 6.223 6.08 5.935 5.763 5.61 5.45 5.31 5.158 5.025 4.863 4.743 4.575 4.478 4.355 4.233 4.125 4.033 3.933 3.843 3.745 3.65 3.533 3.438 3.355 3.278 3.148 3.043 2.928 2.835 2.74 2.67 2.605 2.54 2.568 2.535 2.495 2.423 2.35 2.738 2.96 2.718 2.513 2.693 3.528 3.788 3.355 3.07 2.5 2.173 2.015 1.945 1.913 1.905 1.898 1.88 1.875 1.853 1.83 1.76 1.713 1.67 1.685 1.67 1.663 1.65 1.635 1.66 1.645 1.63 1.593 1.61 1.633 1.568 1.568 1.545 1.528 1.52 1.63 1.825 1.633 1.595 1.425 1.555 1.818 1.405 1.315 1.345 1.335 1.338 1.328 1.308 1.308 1.303 1.3 1.295 1.308 1.293 1.285 1.313 1.303 1.283 1.218 1.223 1.24 1.215 1.25 1.338 1.445 1.57 1.725 1.845 1.935 1.973 1.958 1.948 1.948 1.953 2.005 2.038 2.055 2.073 2.125 2.065 2.065 2.075 2.258 3.438 5.933 7.295 7.865 6.758 4.508 2.335 2.038 2.03 2.078 2.098 2.115 2.115 2.118 2.158 2.165 2.135 2.153 2.148 2.168 2.183 2.228 2.315 2.308 2.288 2.285 2.308 2.368 2.428 2.463 2.46 2.455 2.433 2.473 3.33 4.975 3.188 2.505 2.5 2.523 2.588 2.783 3.578 3.195 3.25 4.233 3.838 3.743 3.838 3.92 4.01 4.148 4.243 4.318 4.438 4.598 4.72 4.863 5.008 5.173 5.32 5.51 5.655 5.795 5.94 6.095 6.235 6.363 6.475 6.57 6.778 7.035 7.21 7.365 7.5 7.635 7.78 7.92 8.095 8.258 8.438 8.573 8.73 8.9 9.085 9.26 9.41 9.588 9.743 9.945 10.11 10.275 10.458 10.615 10.8 10.968 11.163 11.368 11.545 11.72 11.97 12.23 12.45 12.618 12.888 13.093 13.28 13.458 13.618 13.813 14.85 14.855 15.608 15.458 14.953 14.668 14.628 15.458 14.785 15.008 15.15 15.16 15.323 15.373 15.555 15.618 15.858 15.92 16.225 15.82 15.908 16.078 16.245 16.238 16.63 16.285 16.425 16.563 16.528 16.573 16.625 16.718 16.843 16.93 17.093 17.213 17.253 17.495 17.555 17.588 17.69 17.835 17.953 18.075 18.168 18.248 18.453 18.955 18.62 18.803 18.92 19.09 19.53 19.735 19.365 18.973 19.08 19.105 20 23.638 24.25 24.558 22.775 21.713 23.478 24.428 24.713 24.753 24.885 25.318 25.173 25.448 26.12 25.883 25.153 23.87 24.23 24.24 24.688 23.073 23.093 23.18 23.17 23.145 24.41 25.405 25.368 31.08 32.833 33.725 33.443 32.675 31.81 31.435 28.573 26.755 28.04 28.74 28.295 27.408 27.095 26.86 27.563 28.373 27.82 27.948 28.07 28.178 28.283 30.485 31.485 35.263 34.813 29.655 32.068 29.35 29.478 29.603 29.773 30.208 30.12 30.063 30.973 33.05 35.453 37.023 37.013 31.643 29.878 29.913 29.625 29.683 29.638 29.708 29.788 29.573 29.45 29.33 29.235 30.293 34.133 35.393 35.76 35.12 33.295 29.218 29.16 28.875 28.588 28.39 28.285 28.168 28.128 29.52 29.23 27.775 27.053 26.82 26.51 26.933 31.415 32.275 32.73 32.388 31.208 26.878 26.103 27.193 25.868 25.688 26.668 25.935 24.468 23.85 23.588 23.278 22.965 22.733 22.56 22.428 22.268 22.185 22.07 22.123 22.7 21.238 21.593 22.973 23.463 24.703 25.09 25.458 24.955 19.848 19.128 19.043 18.96 18.88 18.748 18.523 18.228 17.82 17.6 17.225 16.938 16.793 16.748 16.648 16.693
11.513 11.38 11.243 11.138 11.043 10.93 10.813 10.673 10.51 10.39 10.268 10.153 10.035 9.89 9.733 9.585 9.468 9.315 9.158 8.988 8.835 8.668 8.49 8.303 8.158 8.013 7.83 7.668 7.48 7.313 7.153 7.035 6.823 6.693 6.518 6.393 6.235 6.08 5.915 5.75 5.615 5.445 5.275 5.14 4.998 4.883 4.748 4.585 4.475 4.353 4.23 4.125 4.01 3.89 3.803 3.705 3.645 3.533 3.443 3.353 3.228 3.113 3.023 2.928 2.835 2.743 2.658 2.57 2.525 2.56 2.543 2.465 2.418 2.81 2.728 2.873 2.425 2.34 2.59 3.123 3.215 3.355 2.87 2.34 2.115 2.058 1.95 1.878 1.905 1.87 1.845 1.82 1.78 1.76 1.67 1.653 1.673 1.643 1.643 1.625 1.635 1.648 1.645 1.648 1.633 1.623 1.6 1.618 1.58 1.588 1.598 1.55 1.568 1.665 1.603 1.353 1.385 1.328 1.455 1.66 1.373 1.333 1.355 1.348 1.353 1.323 1.293 1.305 1.293 1.298 1.29 1.273 1.283 1.315 1.313 1.298 1.265 1.263 1.208 1.205 1.225 1.315 1.483 1.638 1.745 1.855 1.945 1.99 2.005 2.015 2.033 2.033 2.045 2.113 2.123 2.153 2.173 2.203 2.19 2.13 2.14 3.34 5.935 7.345 7.903 6.713 4.565 2.38 2.125 2.055 2.085 2.133 2.153 2.135 2.153 2.145 2.175 2.155 2.163 2.158 2.17 2.188 2.198 2.213 2.275 2.258 2.26 2.273 2.285 2.31 2.403 2.443 2.435 2.425 2.443 2.443 2.44 2.428 2.498 2.523 2.533 2.535 2.57 2.658 2.93 3.408 3.22 3.905 3.928 3.7 3.805 3.895 3.97 4.07 4.178 4.278 4.41 4.523 4.65 4.813 4.953 5.115 5.25 5.438 5.61 5.745 5.858 6.03 6.18 6.305 6.423 6.505 6.713 6.95 7.143 7.288 7.393 7.535 7.668 7.793 7.993 8.15 8.293 8.453 8.615 8.79 8.93 9.118 9.273 9.473 9.608 9.778 9.913 10.078 10.245 10.438 10.61 10.798 10.983 11.173 11.353 11.52 11.733 12.033 12.21 12.42 12.675 12.93 13.085 13.238 13.405 13.878 14.118 14.508 14.108 14.238 14.448 14.435 14.84 15.775 15.225 14.893 14.948 15.11 15.253 15.253 15.503 15.45 15.853 15.698 15.658 15.735 15.728 15.998 16.195 16.043 16.405 16.153 16.643 16.828 16.325 16.353 16.4 16.535 16.683 16.823 16.97 17.06 17.12 17.315 17.438 17.45 17.583 17.653 17.78 17.823 18.02 18.083 18.218 18.425 18.49 18.663 18.845 19.198 19.57 20.465 18.91 18.878 18.965 19.065 19.135 24.91 25.455 22.493 22.023 20.913 21.36 21.833 23.063 23.49 24.705 25.278 25.02 25.45 26.625 26.545 26.358 23.81 23.723 24.75 23.885 22.955 23.083 23.12 23.068 23.398 24.225 24.758 25.818 31.153 33.338 34.315 34.41 33.163 30.135 29.938 28.593 28.383 25.853 27.61 27.798 28.053 27.79 27.128 27.033 28.278 27.763 27.848 27.973 28.01 28.07 30.205 32.613 37.11 33.768 29.928 30.638 29.305 29.433 29.553 29.688 29.915 30.213 30.325 30.815 30.083 30.113 31.463 34.13 29.905 29.873 29.845 29.728 29.71 29.698 29.823 29.775 29.685 29.598 29.438 29.283 29.19 30.39 34.3 35.323 34.57 32.698 29.43 29.155 28.85 28.558 28.45 28.315 28.165 28.955 29.753 27.673 27.62 27.71 27.308 26.433 28.658 31.975 32.513 32.715 32.163 30.845 28.118 25.563 25.285 24.998 24.783 25.283 25.188 25.38 24.368 23.463 23.205 22.963 22.805 22.64 22.485 22.405 22.293 22.188 22.28 20.89 20.688 22.423 22.933 22.193 21.705 24.7 24.41 20.448 21.008 19.748 18.975 19.085 18.823 18.648 18.11 17.815 17.668 17.555 17.335 17.128 16.74 16.56 16.74 16.925
11.515 11.36 11.198 11.053 10.923 10.833 10.735 10.618 10.49 10.37 10.268 10.155 10.02 9.865 9.725 9.555 9.43 9.273 9.11 8.97 8.845 8.675 8.508 8.355 8.19 8.03 7.83 7.665 7.485 7.32 7.153 7.025 6.828 6.688 6.51 6.343 6.203 6.073 5.908 5.74 5.585 5.433 5.288 5.133 4.988 4.84 4.71 4.598 4.475 4.343 4.238 4.123 4.02 3.908 3.775 3.7 3.618 3.49 3.398 3.315 3.198 3.073 2.988 2.898 2.798 2.728 2.668 2.613 2.548 2.553 2.533 2.468 2.273 2.93 2.973 2.398 2.123 2.133 2.558 3.005 3.208 3.273 2.67 2.228 2.103 1.975 1.965 1.93 1.913 1.888 1.878 1.83 1.743 1.685 1.645 1.653 1.608 1.683 1.59 1.605 1.573 1.588 1.563 1.583 1.578 1.575 1.578 1.553 1.56 1.55 1.57 1.608 1.728 1.873 1.61 1.273 1.32 1.383 1.525 1.423 1.313 1.33 1.355 1.35 1.338 1.335 1.313 1.31 1.293 1.285 1.28 1.283 1.3 1.273 1.29 1.29 1.263 1.248 1.215 1.203 1.295 1.455 1.633 1.778 1.855 1.923 1.975 2.008 2.073 2.093 2.093 2.088 2.093 2.14 2.168 2.21 2.23 2.208 2.165 2.155 2.163 2.193 3.89 7.913 6.728 3.903 2.145 2.195 2.17 2.133 2.11 2.163 2.185 2.188 2.183 2.168 2.155 2.14 2.155 2.15 2.198 2.208 2.225 2.215 2.245 2.243 2.255 2.26 2.263 2.325 2.363 2.398 2.383 2.383 2.42 2.455 2.423 2.405 2.965 3.015 2.463 2.548 2.585 2.628 2.81 3.36 3.203 3.723 4.348 3.785 3.743 3.858 3.898 3.965 4.065 4.24 4.36 4.48 4.62 4.745 4.873 5.038 5.17 5.355 5.52 5.688 5.815 5.953 6.068 6.26 6.37 6.44 6.64 6.883 7.035 7.155 7.285 7.408 7.515 7.665 7.84 8.053 8.198 8.333 8.478 8.68 8.82 8.975 9.138 9.34 9.523 9.628 9.778 9.948 10.085 10.253 10.393 10.58 10.755 10.968 11.148 11.308 11.58 11.848 11.97 12.223 12.478 12.695 12.893 13.043 13.208 14.003 13.96 13.818 13.91 14.125 14.13 14.193 14.2 14.428 14.473 14.635 14.795 15.088 15.208 15.318 15.383 15.298 15.313 15.423 15.535 15.525 15.718 16.09 15.895 15.765 15.728 15.823 16.638 17.51 16.185 16.228 16.253 16.375 16.51 16.658 16.698 16.773 16.885 17.055 17.165 17.293 17.4 17.468 17.593 17.65 17.89 17.88 17.955 18.15 18.343 18.495 18.688 18.865 20.323 18.998 18.738 18.795 18.883 18.963 19.048 20.118 20.018 19.598 20.125 20.75 21.505 21.608 21.653 21.67 22.185 23.853 24.445 23.998 25.023 26.353 25.758 23.478 23.6 23.475 22.903 22.923 23.078 23.088 22.978 23.828 24.533 24.81 29.938 32.57 33.753 34.503 34.1 33.088 26.933 25.678 26.13 27.198 25.588 25.778 26.098 26.338 26.87 27.388 28.995 29.685 27.96 27.84 27.84 27.883 28.908 33.085 32.995 32.425 31.408 29.613 29.328 29.48 31.983 33.143 30.238 29.763 29.79 29.875 30.318 30.653 30.328 30.065 30 29.89 30.333 29.873 29.763 29.82 29.808 29.835 29.748 29.71 29.655 29.603 29.758 30.248 29.8 32.403 35.128 34.788 30.338 29.275 29.345 28.963 28.543 28.443 28.303 28.16 28.903 28.915 27.473 27.133 26.778 27.118 26.733 28.988 32.198 32.675 32.473 31.91 29.445 27.133 26.308 25.183 24.943 24.838 24.55 24.728 24.76 23.678 23.395 23.195 23.05 22.868 22.718 22.68 22.558 22.293 21.99 21.763 20.803 20.653 22.145 22.915 21.608 20.4 21.505 20.465 21.505 23.915 21.315 19.813 18.503 18.565 18.17 17.808 17.758 17.683 17.54 17.32 17.565 16.853 16.373 16.265 16.65
11.475 11.325 11.193 11.058 10.91 10.76 10.66 10.513 10.395 10.283 10.19 10.098 9.963 9.843 9.67 9.535 9.398 9.27 9.09 8.91 8.8 8.668 8.498 8.34 8.205 8.048 7.868 7.705 7.52 7.338 7.175 7.003 6.83 6.673 6.518 6.37 6.218 6.063 5.898 5.753 5.598 5.428 5.273 5.163 4.98 4.835 4.7 4.59 4.458 4.318 4.205 4.088 3.99 3.888 3.82 3.695 3.59 3.48 3.358 3.268 3.125 3.045 2.948 2.858 2.768 2.68 2.625 2.563 2.558 2.52 2.545 2.48 2.658 3.388 2.893 2.063 1.915 2.015 2.62 3.13 3.158 2.885 2.34 2.258 2.295 2.078 1.955 1.918 1.905 1.888 1.858 1.82 1.735 1.693 1.598 1.645 1.61 1.655 1.673 1.678 1.628 1.6 1.58 1.59 1.57 1.533 1.49 1.485 1.473 1.468 1.495 1.52 1.72 1.738 1.73 1.315 1.298 1.393 1.55 1.388 1.335 1.325 1.33 1.338 1.338 1.318 1.3 1.285 1.293 1.285 1.295 1.298 1.3 1.293 1.28 1.28 1.24 1.24 1.223 1.27 1.448 1.623 1.765 1.863 1.868 1.903 1.935 2.013 2.053 2.088 2.093 2.155 2.135 2.128 2.14 2.168 2.163 2.12 2.135 2.13 2.165 2.163 2.28 5.058 4.295 2.058 2.178 2.343 2.205 2.185 2.138 2.16 2.18 2.203 2.195 2.16 2.183 2.19 2.19 2.173 2.198 2.23 2.23 2.22 2.218 2.243 2.25 2.248 2.268 2.3 2.34 2.37 2.373 2.383 2.42 2.438 2.425 3.36 5.708 6.335 4.585 2.493 2.578 2.635 2.793 3.538 3.283 3.43 4.273 3.808 3.693 3.733 3.785 3.853 3.98 4.163 4.295 4.423 4.555 4.708 4.818 4.948 5.12 5.258 5.405 5.56 5.75 5.875 5.978 6.135 6.29 6.368 6.538 6.748 6.915 7.028 7.123 7.248 7.365 7.54 7.708 7.923 8.075 8.228 8.4 8.55 8.688 8.86 9.018 9.195 9.355 9.475 9.625 9.773 9.923 10.083 10.228 10.395 10.58 10.773 10.963 11.135 11.383 11.62 11.753 12 12.243 12.468 12.665 12.838 13.025 14.178 13.738 13.575 13.653 13.768 14.02 14.038 14.055 14.178 14.253 14.325 14.443 14.675 14.728 14.735 14.978 14.98 15.108 15.273 15.433 15.695 15.48 15.655 15.603 15.578 15.553 15.598 15.855 15.958 16.1 16.05 16.048 16.138 16.285 16.473 16.465 16.54 16.74 16.853 16.938 17.068 17.218 17.28 17.448 17.455 17.71 17.72 17.808 17.98 18.135 18.315 18.48 18.793 19.785 19.138 18.633 18.703 18.773 18.89 18.938 18.988 19.093 19.368 19.98 20.808 22.933 21.903 21.663 21.75 21.885 23.235 24.125 24.258 23.225 23.343 24.783 25.798 23.735 22.915 22.81 22.903 23.015 22.998 22.985 24.108 24.595 24.838 29.593 32.588 34.083 34.52 33.825 31.923 26.855 27.21 25.62 25.363 25.44 25.568 25.65 25.738 25.92 26.69 27.438 27.34 28.233 28.328 28.305 27.913 32.835 35.558 33.36 30.228 30.473 30.44 29.458 30.833 35.495 35.94 35.77 33.078 30.69 31.003 30.138 29.985 30.295 30.548 30.925 30.295 30.618 29.838 29.863 29.818 29.92 29.84 29.743 29.69 29.628 29.6 30.13 32.963 32.148 31.658 31.04 30.218 30.323 29.975 29.418 28.835 28.473 28.368 28.573 28.943 28.918 28.248 27.468 27.12 27.008 28.308 30.918 28.863 27.075 29.363 31.41 31.053 27.998 25.798 25.51 25.09 24.858 25.238 25.455 24.795 23.828 23.615 23.433 23.25 23.068 22.985 22.933 22.793 22.57 22.24 21.86 21.513 21.28 20.705 20.675 21.725 20.868 20.19 20.358 22.255 23.833 24.19 23.868 22.965 21.723 17.995 17.793 17.828 17.985 17.59 18.16 17.405 16.958 17.155 16.42 16.073 16.035
