ncols 469
nrows 30
xllcorner    462014
yllcorner    88696
cellsize     2
NODATA_value -9999
11.062 11.139 11.127 11.107 11.097 11.109 11.132 11.094 11.122 11.087 11.062 11.067 11.022 11.014 11.019 11.009 10.992 10.977 10.972 10.947 10.959 10.949 10.919 10.879 10.829 10.799 10.814 10.782 10.724 10.744 10.712 10.699 10.682 10.657 10.612 10.617 10.569 10.542 10.499 10.487 10.464 10.429 10.402 10.332 10.304 10.239 10.157 10.112 10.064 9.997 9.904 9.852 9.819 9.799 9.717 9.632 9.612 9.537 9.484 9.414 9.384 9.334 9.259 9.174 9.127 9.019 8.942 8.892 8.792 8.724 8.619 8.524 8.502 8.412 8.347 8.354 8.314 8.394 8.509 8.337 8.009 8.382 8.777 7.889 7.814 7.752 7.722 7.697 7.724 7.764 7.832 7.882 7.934 8.014 8.059 8.059 8.114 8.192 8.229 8.317 8.422 8.514 8.609 8.697 8.747 8.789 8.884 8.969 9.064 9.139 9.247 9.327 9.392 9.487 9.607 9.739 9.827 10.004 10.149 10.282 10.432 10.582 10.724 10.832 10.974 11.157 11.272 11.407 11.542 11.694 11.834 11.972 12.062 12.269 12.397 12.552 12.712 12.829 12.969 13.079 13.207 13.352 13.567 13.622 13.734 13.837 13.969 14.124 14.267 14.387 14.654 14.694 14.627 14.719 14.797 14.919 15.062 15.214 15.412 16.009 16.299 16.119 16.174 16.202 16.267 16.137 16.237 16.207 16.354 16.494 16.637 16.767 16.864 16.987 17.047 17.134 17.407 18.217 17.439 17.024 17.532 17.269 17.262 17.322 17.497 18.659 19.187 19.464 18.162 18.037 18.067 18.077 18.112 18.154 18.332 18.444 18.487 18.567 18.612 18.599 18.577 18.674 18.724 18.839 18.959 19.544 19.397 19.244 19.189 19.202 19.194 19.264 19.314 19.359 19.424 19.469 19.422 19.489 19.557 19.617 19.647 19.762 19.844 19.837 19.839 19.924 19.979 19.994 20.017 20.077 20.102 20.117 20.224 20.219 20.284 20.322 20.332 20.337 20.314 20.367 20.402 20.424 20.464 20.455 20.487 20.465 20.49 20.507 20.48 20.475 20.495 20.497 20.592 21.007 20.562 20.567 20.567 20.592 20.557 20.53 20.555 20.537 20.55 20.565 20.572 20.57 20.55 20.532 20.535 20.555 20.625 20.627 20.647 20.595 20.592 20.65 20.737 20.752 20.712 20.697 20.93 21.535 20.852 20.7 21.07 21.932 21.06 20.925 20.95 21.562 21.725 21.027 21.18 21.442 25.55 26.965 27.505 27.777 25.662 21.997 21.977 21.505 20.92 20.752 20.72 20.992 20.905 20.875 20.945 20.897 20.87 20.815 21.465 23.89 22.932 22.97 21.915 20.937 20.78 20.385 20.327 20.297 20.257 20.177 20.135 20.065 19.822 19.71 19.77 19.747 19.51 19.345 19.222 19.065 18.945 18.605 18.457 20.865 23.892 22.135 18.742 18.267 17.342 18.797 18.595 18.587 16.86 16.647 16.72 16.56 16.407 16.135 15.952 15.797 15.795 15.81 15.73 15.66 16.345 16.83 17.287 17.4 16.115 16.075 16.122 16.182 16.292 16.442 17.075 19.722 20.455 21.125 22.195 21.535 19.972 17.47 17.46 18.46 19.07 18.167 18.19 18.207 18.222 18.325 18.462 18.982 22.892 24.995 25.197 23.825 20.115 18.935 19.33 18.975 18.652 18.645 19.47 18.98 18.66 18.615 18.567 18.46 18.35 18.26 18.155 18.072 18.032 17.952 17.877 17.98 18.157 17.687 17.537 17.457 17.462 17.467 17.482 17.65 18.527 19.435 18.407 20.082 18.937 18.472 19.272 19.872 19.732 17.587 17.377 18.812 19.21 17.912 17.06 17.01 17.367 18.93 16.955 17.875 18.985 16.98 16.53 16.632 16.492 16.348 16.213 16.133 16.068 16.118 16.49 16.17 15.973 16.568 16.333 15.85 15.433 14.818 16.058 15.305 14.935 14.963 14.988 15.698 15.115 15.295 15.145 14.793 15.155 15.425 17.09
10.967 10.984 11.037 11.007 10.997 10.977 10.992 10.984 10.974 10.977 10.939 10.969 10.904 10.902 10.914 10.877 10.864 10.869 10.854 10.829 10.812 10.789 10.777 10.747 10.697 10.679 10.679 10.637 10.604 10.584 10.582 10.569 10.559 10.534 10.467 10.489 10.429 10.412 10.384 10.344 10.324 10.282 10.282 10.247 10.187 10.109 10.042 10.012 9.932 9.854 9.779 9.724 9.694 9.662 9.594 9.532 9.482 9.414 9.369 9.297 9.259 9.229 9.147 9.069 9.004 8.934 8.859 8.799 8.694 8.622 8.547 8.432 8.424 8.324 8.254 8.277 8.287 8.422 8.987 8.829 8.754 8.304 8.579 7.817 7.752 7.729 7.699 7.669 7.677 7.709 7.772 7.819 7.847 7.927 7.949 7.979 8.004 8.092 8.154 8.229 8.339 8.444 8.537 8.629 8.692 8.797 8.867 8.962 9.064 9.157 9.277 9.369 9.472 9.592 9.647 9.749 9.829 9.909 10.024 10.134 10.289 10.439 10.567 10.724 10.907 11.244 11.322 11.359 11.457 11.609 11.749 11.909 12.024 12.167 12.307 12.477 12.662 12.859 12.977 13.152 13.219 13.367 13.472 13.597 13.757 13.859 13.954 14.102 14.209 14.297 15.209 16.397 15.959 15.042 15.912 15.197 15.162 15.087 15.129 15.254 15.399 15.572 15.692 16.099 16.524 16.474 16.824 16.614 16.557 16.582 16.539 16.634 16.734 16.849 16.984 17.292 17.697 17.179 16.809 16.924 17.029 17.059 17.154 17.284 17.507 17.579 18.647 18.979 17.874 17.924 17.949 17.944 17.989 18.082 18.849 18.637 18.304 18.377 18.417 18.414 18.434 18.507 18.562 18.634 18.699 18.889 19.592 19.334 19.177 19.132 19.124 19.147 19.209 19.259 19.307 19.334 19.332 19.359 19.444 19.497 19.527 19.634 19.722 19.709 19.742 19.824 19.857 19.882 19.914 19.949 19.972 19.992 20.054 20.114 20.147 20.192 20.217 20.222 20.229 20.237 20.269 20.319 20.357 20.357 20.355 20.367 20.36 20.387 20.37 20.332 20.36 20.352 20.452 20.91 20.455 20.522 20.452 20.482 20.452 20.44 20.44 20.445 20.46 20.475 20.467 20.467 20.45 20.415 20.42 20.447 20.477 20.505 20.505 20.487 20.497 20.545 20.605 20.612 20.59 20.565 20.93 22.61 22.062 20.617 20.657 20.77 20.9 20.86 21.115 21.07 21.38 20.945 20.992 21.527 26.657 26.65 26.262 25.83 24.092 21.795 21.725 21.242 21.262 20.692 20.56 20.855 21.05 20.815 20.905 21.04 22.25 23.162 22.37 24.957 25.165 24.812 22.737 21.662 20.362 20.357 20.377 20.6 20.415 20.355 20.03 19.992 19.962 20.26 20.96 20.605 19.885 19.8 19.42 18.927 18.702 18.507 18.347 20.57 20.717 20.81 18.425 18.935 18.777 19.095 17.505 16.99 17.837 18.725 20.587 19.66 16.372 16.79 15.895 15.695 15.64 15.662 15.595 15.49 16.115 15.845 15.86 15.885 15.96 16.21 16.322 16.205 16.172 17.322 17.557 16.817 17.48 20.337 21.55 21.382 20.51 17.772 17.602 17.912 17.817 17.887 17.957 18.055 18.16 18.275 18.43 18.812 21.512 24.247 24.102 22.665 19.91 19.635 20.197 19.3 18.645 18.562 18.982 19.015 18.515 18.397 18.362 18.265 18.175 18.112 18.045 17.982 17.972 17.862 17.827 17.86 18.035 17.522 17.417 17.382 17.365 17.272 17.322 17.777 20.21 20.807 19.112 20.017 17.71 18.857 22.587 23.405 23.662 21.64 17.537 17.432 18.777 18.155 16.942 16.912 17.14 18.942 17.025 16.67 16.68 16.517 16.34 16.26 16.237 16.24 16.253 16.56 17.003 16.86 17.418 15.843 18.638 18.465 15.855 15.785 15.59 14.968 14.648 14.658 14.858 15.125 15.443 15.93 15.168 15.895 15.655 14.673 15.093 18.365 18.835
10.852 10.894 10.899 10.902 10.874 10.874 10.862 10.872 10.862 10.854 10.842 10.842 10.817 10.784 10.774 10.764 10.762 10.759 10.749 10.712 10.717 10.694 10.662 10.647 10.584 10.542 10.514 10.509 10.479 10.472 10.449 10.464 10.442 10.397 10.372 10.349 10.299 10.302 10.262 10.214 10.209 10.182 10.164 10.097 10.059 9.992 9.922 9.889 9.822 9.747 9.662 9.599 9.589 9.544 9.474 9.394 9.369 9.297 9.239 9.199 9.144 9.119 9.039 8.962 8.892 8.849 8.774 8.679 8.594 8.519 8.427 8.337 8.319 8.272 8.202 8.222 8.252 8.669 9.324 8.172 9.082 7.944 7.759 7.707 7.684 7.659 7.629 7.607 7.634 7.659 7.724 7.777 7.844 7.867 7.902 7.922 7.949 7.974 8.052 8.149 8.254 8.357 8.444 8.562 8.622 8.712 8.807 8.899 9.009 9.119 9.232 9.362 9.489 9.599 9.702 9.809 9.917 9.972 10.047 10.124 10.224 10.334 10.462 10.589 11.087 12.202 12.189 12.312 12.099 11.577 11.689 11.837 11.974 12.117 12.277 12.414 12.522 12.687 12.779 12.959 13.289 13.367 13.389 13.559 13.779 14.112 13.939 14.064 14.147 14.239 14.432 15.087 14.607 16.094 17.219 17.262 16.012 15.859 15.514 15.307 15.367 15.449 15.524 15.614 15.767 15.814 16.072 16.529 16.947 16.917 16.854 17.002 16.879 17.019 17.257 17.607 16.724 16.602 16.702 16.804 16.849 16.997 17.177 17.489 17.412 17.414 18.189 18.964 17.812 17.814 17.772 17.762 17.819 17.874 18.807 18.539 18.132 18.227 18.259 18.277 18.272 18.364 18.424 18.477 18.499 18.587 19.302 19.514 19.119 19.124 19.074 19.059 19.084 19.107 19.159 19.179 19.179 19.252 19.322 19.362 19.419 19.532 19.612 19.564 19.612 19.709 19.729 19.732 19.777 19.819 19.854 19.857 19.914 19.979 20.009 20.059 20.114 20.107 20.114 20.129 20.167 20.209 20.214 20.202 20.237 20.257 20.245 20.265 20.247 20.252 20.247 20.23 20.345 21.642 20.975 20.377 20.362 20.397 20.32 20.335 20.32 20.337 20.35 20.337 20.32 20.327 20.29 20.277 20.297 20.307 20.352 20.377 20.355 20.377 20.355 20.402 20.467 20.482 20.435 20.422 22.77 27.132 27.667 22.957 20.695 21.232 21.057 21.59 22.03 21.197 21.312 21.457 21.412 21.82 21.87 21.15 21.745 21.09 21.522 22.615 22.462 22.122 21.902 20.76 20.43 20.625 21.002 20.47 20.342 23.02 25.86 26.327 26.61 26.645 26.537 25.817 22.887 21.925 20.567 20.462 20.26 20.102 20.29 20.62 20.222 21.327 20.632 20.245 20.127 19.487 19.382 19.2 18.95 18.755 18.615 18.427 18.325 18.282 18.005 17.845 18.157 19.557 19.722 19.612 17.997 20.835 22.052 22.422 22.69 21.472 16.505 16.222 15.797 15.597 15.477 15.522 15.452 15.38 15.385 15.515 15.97 16.562 16.825 16.635 16.62 16.345 16.857 17.48 17.83 16.602 17.65 17.592 20.62 19.225 18.315 17.805 17.3 18.037 17.825 17.807 17.882 17.97 18.05 18.185 18.305 19.17 20.395 21.117 21.445 21.937 20.472 18.612 18.63 18.655 18.597 18.545 18.5 18.477 18.4 18.342 18.275 18.265 18.095 18.007 17.952 17.885 17.842 18.21 20.66 19.39 17.492 17.382 17.34 17.247 17.212 17.15 17.177 17.182 20.22 20.567 17.387 18.365 17.322 17.567 21.797 22.957 23.085 23.39 18.26 17.107 17.775 18.362 17.445 17.332 17.437 17.512 16.505 16.452 16.337 16.285 16.24 16.245 16.3 16.428 16.305 16.515 16.793 15.995 16.685 15.95 18.088 16.538 15.415 15.68 15.163 15.588 15.343 14.438 14.765 15.708 15.93 15.83 18.163 20.208 16.98 15.598 18.253 19.048 19.535
10.774 10.804 10.807 10.762 10.742 10.742 10.754 10.737 10.764 10.769 10.714 10.712 10.704 10.697 10.657 10.657 10.647 10.632 10.622 10.612 10.562 10.562 10.554 10.522 10.459 10.434 10.399 10.372 10.357 10.339 10.349 10.339 10.324 10.289 10.267 10.207 10.179 10.152 10.134 10.097 10.067 10.079 10.027 9.992 9.932 9.879 9.784 9.742 9.679 9.624 9.549 9.477 9.464 9.409 9.339 9.269 9.252 9.182 9.149 9.084 9.044 9.034 8.957 8.874 8.814 8.744 8.677 8.592 8.522 8.434 8.319 8.254 8.219 8.147 8.139 8.154 8.422 8.709 8.834 8.659 7.979 7.772 7.689 7.664 7.629 7.597 7.579 7.544 7.562 7.589 7.649 7.684 7.767 7.814 7.837 7.872 7.922 7.962 8.027 8.119 8.204 8.297 8.379 8.474 8.564 8.652 8.749 8.837 8.952 9.089 9.187 9.312 9.427 9.532 9.677 9.792 9.919 9.969 10.079 10.187 10.269 10.359 10.414 10.544 11.554 12.787 13.037 12.754 12.949 12.527 12.169 12.434 12.657 12.454 12.194 12.322 12.482 12.592 12.757 12.897 13.049 13.184 13.342 13.487 13.647 13.784 13.874 13.962 14.122 14.249 14.407 14.452 14.484 14.824 14.982 15.839 16.082 15.924 16.144 16.229 15.964 15.544 15.592 15.644 15.697 15.777 15.804 15.922 16.052 16.149 16.299 16.709 17.329 17.552 17.314 16.444 16.417 16.574 16.654 16.649 16.817 17.594 17.562 17.364 17.364 17.337 17.907 18.122 17.679 17.687 17.624 17.724 17.759 17.764 18.419 17.982 17.977 18.069 18.104 18.129 18.137 18.207 18.287 18.342 18.324 18.519 19.262 19.017 18.882 19.007 19.024 18.989 18.967 18.989 19.019 19.064 19.059 19.119 19.197 19.227 19.254 19.372 19.437 19.424 19.462 19.544 19.562 19.609 19.597 19.652 19.704 19.692 19.757 19.812 19.834 19.894 19.924 19.959 19.972 20.017 20.057 20.072 20.074 20.067 20.097 20.145 20.112 20.132 20.127 20.125 20.142 20.11 20.24 23.462 20.332 20.252 20.232 20.225 20.212 20.217 20.21 20.235 20.257 20.222 20.207 20.187 20.162 20.132 20.127 20.162 20.225 20.245 20.225 20.257 20.217 20.28 20.35 20.377 20.337 20.322 21.815 28.08 27.465 23.537 21.172 21.22 21.495 22.407 22.487 22.157 22.165 21.997 22.132 22.62 21.44 21.18 20.972 21.042 20.542 21.895 20.515 20.807 21.08 20.425 20.287 20.635 21.25 20.39 20.23 25.177 26.727 26.29 25.985 25.98 26.157 25.972 22.835 20.367 20.217 20.037 20 19.962 22.545 21.205 20.11 21.945 21.53 19.915 20.375 19.762 19.187 19.045 18.842 18.677 18.565 18.335 18.245 18.365 18.162 17.862 18.547 18.41 17.41 16.985 16.99 18.06 22.79 23.212 22.597 21.625 16.85 15.772 15.792 15.747 15.342 15.807 15.377 15.187 15.322 16.257 16.655 15.945 15.91 15.81 16.145 16.317 16.625 16.75 17.012 16.75 17.17 16.612 17.785 16.93 16.87 16.757 16.855 17.147 17.707 17.792 17.867 17.937 18 18.092 18.23 18.762 20.582 20.852 21.335 21.52 20.48 18.607 18.58 18.597 18.585 19.07 18.682 18.305 18.242 18.22 18.147 18.037 17.94 17.877 17.817 17.745 17.795 18.045 19.622 18.967 17.797 17.2 17.08 17.082 17.095 17.022 17.005 17.077 17.332 17.097 16.972 16.997 16.947 16.962 17.56 17.465 22.007 22.197 17.337 17.372 16.952 16.72 16.625 16.517 16.462 16.485 16.467 16.412 16.562 16.26 16.872 17.042 17.102 16.705 16.303 16.173 15.99 15.973 15.95 15.825 15.563 15.29 15.133 15.395 14.998 15.408 15.99 14.27 14.798 15.95 16.25 15.133 18.453 21.5 17.18 14.785 19.48 19.618 19.213
10.662 10.674 10.682 10.619 10.619 10.619 10.612 10.619 10.652 10.654 10.614 10.617 10.599 10.577 10.547 10.582 10.559 10.529 10.489 10.477 10.482 10.452 10.412 10.394 10.342 10.302 10.272 10.262 10.254 10.227 10.252 10.209 10.184 10.154 10.114 10.104 10.064 10.039 10.009 9.992 9.959 9.944 9.882 9.859 9.819 9.769 9.657 9.639 9.567 9.524 9.424 9.372 9.352 9.302 9.247 9.182 9.129 9.092 9.054 9.019 8.947 8.929 8.862 8.784 8.712 8.642 8.572 8.474 8.412 8.334 8.232 8.194 8.132 8.062 8.072 8.074 8.169 8.739 8.517 8.259 8.282 7.812 7.717 7.639 7.582 7.552 7.494 7.477 7.487 7.509 7.559 7.612 7.702 7.734 7.764 7.797 7.844 7.924 7.994 8.077 8.179 8.284 8.354 8.462 8.542 8.604 8.679 8.782 8.882 9.007 9.134 9.259 9.362 9.504 9.637 9.749 9.839 9.937 10.027 10.132 10.239 10.332 10.384 10.549 12.364 14.352 13.624 11.802 12.104 12.799 12.944 13.214 14.467 15.044 14.584 13.397 12.752 12.574 12.757 12.892 13.032 13.147 13.249 13.367 13.494 13.682 13.784 13.887 14.049 14.222 14.404 14.472 14.469 14.532 14.644 14.827 16.257 18.739 19.452 17.602 16.097 15.442 15.537 15.622 15.677 15.779 15.852 15.899 15.977 16.029 16.067 16.104 16.049 16.224 16.104 16.204 16.359 16.397 16.469 16.704 17.987 19.037 17.517 18.069 17.287 17.377 18.197 18.292 17.542 17.532 17.524 17.627 17.652 17.664 17.957 17.814 17.854 17.929 17.964 17.992 18.029 18.089 18.139 18.192 18.162 18.387 19.232 18.777 18.734 18.779 18.884 18.929 18.909 18.884 18.899 18.902 18.934 19.022 19.064 19.104 19.154 19.232 19.292 19.284 19.327 19.392 19.399 19.444 19.439 19.502 19.554 19.547 19.602 19.639 19.679 19.724 19.764 19.794 19.824 19.847 19.862 19.917 19.917 19.932 19.99 20.022 19.987 20.002 19.997 19.972 19.967 19.98 20.03 20.757 20.17 20.08 20.087 20.077 20.105 20.107 20.082 20.097 20.107 20.095 20.082 20.05 20.025 19.992 20.022 20.072 20.062 20.105 20.112 20.135 20.07 20.147 20.215 20.275 20.262 20.27 20.327 21.362 23.68 22.622 22.07 20.565 20.442 20.537 20.595 20.407 20.405 20.425 20.437 20.627 20.675 22.325 22.6 22.82 22.982 22.992 20.385 20.03 20.257 20.302 20.215 20.307 20.397 20.292 20.477 22.942 26.777 26.517 26.58 26.655 26.62 26.025 23.355 20.797 20.2 20.067 20.275 20.525 20.167 21.15 21.51 21.945 20.54 20.115 21.987 21.492 19.292 18.992 18.83 18.66 18.51 18.467 18.195 18.157 17.99 17.955 18.3 18.66 16.932 16.862 16.812 17.467 22.557 23.382 22.567 21.447 17.23 15.69 15.587 15.642 15.225 16.015 15.545 15.097 15.09 16.592 15.722 15.542 15.6 15.657 16 16.012 15.862 16.292 16.5 17.637 16.765 17.065 16.8 16.447 16.452 16.572 16.725 16.925 18.04 17.93 17.795 17.867 18.037 18.942 20.817 19.85 21.217 19.802 19.12 18.355 18.422 18.507 18.457 18.417 18.692 20.042 19.297 18.03 17.982 17.942 18.037 17.89 18.297 17.887 18.007 18.682 18.795 19.852 20.722 20.947 19.37 17.077 17.63 17.075 16.905 16.857 16.762 16.837 16.925 16.882 16.867 16.845 16.835 16.84 16.777 16.732 17.3 17.635 16.662 16.65 16.595 16.532 16.522 16.492 16.472 16.465 16.452 16.48 16.85 16.197 16.79 17.375 16.37 16.188 16.298 16.11 15.875 15.808 15.763 15.613 15.313 15.41 15.095 15.42 15.185 15.355 15.523 14.133 14.305 16.99 18.99 15.383 15.508 18.933 16.695 14.463 17.545 18.643 16.885
10.544 10.564 10.569 10.517 10.502 10.492 10.497 10.519 10.554 10.552 10.507 10.462 10.477 10.484 10.462 10.449 10.432 10.419 10.404 10.359 10.352 10.322 10.292 10.257 10.222 10.202 10.159 10.154 10.137 10.112 10.114 10.087 10.064 10.037 9.984 9.974 9.932 9.907 9.867 9.854 9.827 9.802 9.767 9.727 9.712 9.624 9.559 9.509 9.419 9.392 9.317 9.272 9.234 9.177 9.127 9.102 9.042 8.972 8.927 8.894 8.849 8.792 8.752 8.667 8.584 8.549 8.522 8.407 8.337 8.254 8.159 8.109 8.037 7.982 8.014 8.024 8.134 8.139 8.047 7.954 8.099 7.814 7.607 7.532 7.502 7.479 7.439 7.424 7.429 7.479 7.519 7.567 7.612 7.664 7.689 7.712 7.767 7.842 7.947 8.017 8.114 8.219 8.319 8.407 8.507 8.602 8.707 8.789 8.917 8.997 9.102 9.207 9.322 9.469 9.572 9.692 9.799 9.882 9.987 10.109 10.199 10.239 10.302 10.544 11.364 12.129 11.729 11.204 11.424 12.017 12.362 12.187 13.449 14.999 14.969 14.444 13.229 13.287 14.099 15.349 14.027 13.204 13.207 13.352 13.549 13.594 13.709 13.884 14.012 14.144 14.307 14.442 14.472 14.507 14.637 14.877 17.612 19.314 19.864 18.612 16.464 15.424 15.527 15.559 15.902 15.709 15.757 15.847 15.902 15.992 16.189 16.937 16.502 15.894 16.029 16.127 16.192 16.269 16.547 17.549 17.862 19.259 18.527 17.622 17.027 17.424 18.309 17.814 17.404 17.447 17.392 17.502 17.484 17.549 17.972 17.662 17.699 17.784 17.827 17.839 17.889 18.012 18.062 18.037 18.074 18.594 19.139 18.489 18.517 18.589 18.654 18.784 18.824 18.822 18.799 18.787 18.802 18.884 18.924 18.954 19.012 19.092 19.139 19.134 19.157 19.212 19.264 19.292 19.277 19.372 19.402 19.417 19.489 19.499 19.542 19.592 19.619 19.629 19.677 19.687 19.714 19.772 19.774 19.802 19.85 19.857 19.855 19.87 19.865 19.827 19.88 19.845 19.87 20.265 20.015 20 19.997 19.992 19.957 19.935 19.97 19.992 19.975 19.972 19.955 19.937 19.93 19.89 19.907 19.922 19.94 20.01 20.005 19.99 19.957 20.03 20.1 20.172 20.155 20.177 20.207 21.142 20.812 20.515 20.33 20.307 20.33 20.347 20.342 21.027 20.535 20.285 20.317 20.517 20.252 22.607 23.25 25.182 26.067 25.047 21 19.955 20.122 20.807 20.095 20.117 20.065 20.137 20.13 22.56 25.832 24.032 22.922 22.622 21.43 20.827 20.567 20.135 19.985 19.835 19.932 19.785 21.61 21.665 21.672 21.867 21.012 19.682 21.427 21.555 20.362 19.912 18.82 18.682 18.522 18.61 18.525 19.127 18.4 18.66 18.592 18.632 17.02 16.652 16.335 18.742 22.272 23.357 22.855 21.72 17.835 15.595 15.457 15.275 15.102 15.315 15.332 14.99 14.902 15.9 15.41 15.297 15.41 16.032 15.6 15.64 16.37 16.317 16.965 18.237 19.352 20.085 19.43 17.017 16.457 16.53 16.642 16.855 17.755 18.147 17.9 18.14 18.927 22.327 22.67 22.727 22.65 19.56 18.037 18.132 18.265 18.227 18.205 18.147 18.057 18.907 18.032 17.937 19.035 20.022 20.372 20.107 18.48 20.357 20.685 20.962 21.152 21.347 21.52 21.72 20.93 17.497 17.397 17.062 16.76 16.71 16.645 16.667 16.797 17.065 17.227 17.112 16.855 16.805 16.807 16.73 16.712 16.74 16.895 16.89 17.175 17.14 16.612 16.765 16.377 16.342 16.325 16.417 16.385 16.097 16.222 16.452 15.955 16 16.13 15.92 15.745 15.603 15.483 15.355 15.163 15.42 15.045 14.9 14.785 14.208 15.455 14.2 14.075 14.468 15.448 16.003 15.3 16.435 16.74 14.913 14.523 15.343 14.085
10.434 10.447 10.454 10.412 10.414 10.429 10.429 10.412 10.462 10.429 10.407 10.384 10.389 10.364 10.354 10.339 10.324 10.304 10.267 10.249 10.237 10.217 10.179 10.142 10.107 10.084 10.054 10.004 9.992 10.019 9.984 9.962 9.942 9.909 9.869 9.852 9.804 9.767 9.764 9.724 9.707 9.687 9.634 9.607 9.567 9.507 9.447 9.417 9.347 9.264 9.227 9.147 9.117 9.097 9.032 8.994 8.967 8.882 8.812 8.777 8.734 8.699 8.637 8.582 8.497 8.449 8.419 8.304 8.239 8.147 8.062 8.014 7.947 7.932 7.927 7.972 8.207 8.772 8.209 8.432 7.877 7.807 7.549 7.507 7.454 7.419 7.387 7.357 7.389 7.402 7.452 7.509 7.547 7.579 7.607 7.647 7.687 7.774 7.852 7.982 8.067 8.172 8.274 8.349 8.444 8.572 8.647 8.772 8.872 8.989 9.117 9.237 9.357 9.474 9.552 9.644 9.732 9.839 9.949 10.049 10.152 10.177 10.294 10.554 11.224 11.312 11.157 11.184 11.282 11.357 11.482 11.542 12.017 13.057 12.597 12.834 13.124 13.852 15.877 17.119 16.069 13.534 13.192 13.339 13.514 13.559 13.624 13.774 13.907 14.022 14.192 14.624 14.664 14.627 14.817 15.624 17.932 19.632 19.579 17.982 15.577 15.307 15.342 15.507 15.489 15.587 15.604 15.914 15.837 15.794 15.954 16.717 15.844 15.807 15.952 16.039 16.074 16.274 17.147 17.219 18.709 20.852 17.604 19.129 17.057 17.074 17.092 17.172 17.304 17.349 17.324 17.362 17.377 17.524 18.239 17.669 17.624 17.659 17.699 17.719 17.782 17.884 17.942 17.907 17.949 18.792 18.662 18.252 18.307 18.372 18.467 18.597 18.687 18.752 18.737 18.724 18.677 18.727 18.749 18.802 18.862 18.927 18.962 18.962 18.989 19.069 19.112 19.142 19.137 19.194 19.214 19.249 19.324 19.362 19.402 19.442 19.454 19.484 19.499 19.527 19.577 19.614 19.654 19.692 19.71 19.727 19.707 19.73 19.73 19.7 19.72 19.695 19.727 20.197 19.832 19.807 19.835 19.83 19.832 19.83 19.855 19.85 19.85 19.847 19.825 19.817 19.805 19.742 19.8 19.775 19.79 19.872 19.865 19.865 19.82 19.885 19.982 20.037 20.04 20.042 20.092 20.935 21.502 20.305 20.17 20.172 20.207 20.225 20.217 20.29 20.16 20.172 20.225 20.232 20.085 22.455 23.12 25.445 26.305 24.8 19.855 20.387 20.56 22.075 20.175 19.95 21.047 20.54 20.017 20.475 22.377 23.587 23.397 21.557 19.897 19.89 19.852 19.82 19.775 19.732 19.727 19.672 20.39 20.675 21.222 21.3 21.07 19.547 19.44 19.795 21.605 21.312 19.477 19.632 19.302 19.31 19.06 18.99 17.97 17.64 17.562 18.067 16.645 16.345 16.062 16.625 21.99 22.947 21.817 17.357 16.017 16.277 15.405 15.2 15.002 14.872 14.905 14.86 14.74 15.65 15.867 15.042 15.412 16.01 15.817 15.82 16.102 15.98 19.782 21.377 21.657 21.232 20.705 18.782 16.465 16.497 16.652 16.815 17.052 17.602 17.822 18.3 18.775 20.087 20.282 19.452 20.797 19.557 17.822 17.832 18.167 18.112 17.942 18.327 19.54 20.032 20.385 20.71 21.197 21.42 21.612 21.495 18.807 21.252 21.552 21.767 21.962 22.092 22.19 22.255 22.18 19.172 16.78 16.695 16.63 16.61 16.49 16.532 16.672 18.29 19.062 18.965 18.402 17.34 18.555 17.897 18.677 18.257 16.805 16.91 17.525 17.745 18.117 17.505 17.622 17.842 18.082 16.637 16.34 16.387 15.797 15.94 15.817 15.82 15.84 15.713 15.58 15.425 15.34 15.67 14.98 16.368 15.108 15.53 15.55 15.555 14.983 14.535 15.903 14.685 15.978 20.35 16.388 15.323 14.708 14.668 15.413 14.87 14.113
10.342 10.337 10.359 10.309 10.299 10.322 10.297 10.302 10.347 10.339 10.329 10.314 10.292 10.262 10.244 10.224 10.209 10.199 10.187 10.164 10.154 10.127 10.079 10.014 9.982 9.977 9.952 9.914 9.862 9.879 9.862 9.862 9.802 9.774 9.764 9.744 9.704 9.679 9.624 9.597 9.564 9.577 9.542 9.509 9.454 9.397 9.332 9.307 9.259 9.164 9.117 9.069 9.032 8.997 8.922 8.882 8.857 8.797 8.739 8.692 8.617 8.587 8.507 8.479 8.397 8.347 8.287 8.207 8.129 8.072 7.962 7.947 7.862 7.849 7.879 7.962 8.092 9.487 10.704 8.969 8.054 7.757 7.514 7.462 7.389 7.327 7.294 7.282 7.337 7.344 7.384 7.449 7.492 7.489 7.522 7.564 7.622 7.692 7.789 7.917 8.012 8.079 8.217 8.329 8.439 8.557 8.629 8.732 8.844 8.959 9.077 9.204 9.322 9.454 9.572 9.659 9.752 9.857 9.929 10.039 10.114 10.152 10.267 10.587 11.297 11.274 11.042 11.139 11.254 11.344 11.509 11.569 11.639 11.769 11.917 12.084 12.307 12.637 13.784 14.394 14.389 14.382 14.367 14.374 14.534 14.259 13.954 13.827 13.784 13.952 14.227 14.662 14.662 15.464 17.249 17.689 18.577 19.912 19.419 17.574 15.147 15.089 15.137 15.234 15.309 15.389 15.502 15.769 15.729 15.587 15.414 15.529 15.672 15.754 15.822 15.869 16.317 16.362 16.922 18.317 21.462 21.634 19.402 16.904 17.392 17.877 17.649 18.097 17.524 17.379 17.247 17.307 17.262 17.414 17.927 17.462 17.482 17.537 17.562 17.604 17.689 17.767 17.837 17.797 17.884 18.587 18.199 18.079 18.159 18.222 18.274 18.369 18.519 18.627 18.694 18.654 18.607 18.577 18.564 18.627 18.689 18.759 18.784 18.799 18.839 18.887 18.927 18.969 18.992 19.034 19.039 19.072 19.152 19.179 19.227 19.282 19.304 19.314 19.334 19.347 19.382 19.442 19.534 19.54 19.567 19.6 19.57 19.592 19.595 19.567 19.582 19.582 19.607 19.915 19.71 19.707 19.702 19.732 19.725 19.705 19.74 19.725 19.722 19.7 19.675 19.677 19.612 19.58 19.63 19.65 19.675 19.722 19.74 19.7 19.697 19.74 19.86 19.925 19.937 19.932 19.96 20.49 20.79 20.015 20.082 20.08 20.11 20.115 20.137 20.117 20.102 20.12 20.12 20.072 20.177 21.985 22.75 25.23 26.25 25.307 20.232 19.955 20.772 22.22 20.357 19.845 20.48 20.372 20.24 21.697 22.88 23.825 23.322 22.295 21.13 19.805 19.73 19.685 19.66 19.59 19.557 19.51 19.46 19.54 19.495 19.63 19.552 19.51 20.185 19.927 20.755 20.797 19.297 18.297 17.825 17.767 17.867 17.825 17.49 17.467 17.365 17.637 16.7 16.257 16.1 15.945 20.212 19.915 18.292 15.852 16.012 15.735 15.32 15.072 14.875 14.72 14.72 14.692 14.637 15.12 15.995 15.172 16.02 16.157 15.502 15.3 15.285 15.397 18.937 21.905 22.235 21.58 21.072 19.502 16.827 16.535 16.547 16.717 16.925 17.42 17.925 18.77 17.647 17.427 17.552 17.635 18.732 18.707 17.65 17.692 19.25 19.9 20.305 20.95 21.257 21.46 21.64 21.84 22.032 22.235 22.33 22.4 21.402 21.312 22.222 22.215 22.157 21.97 21.767 21.575 21.247 17.722 16.915 17.122 16.472 16.48 16.375 16.427 16.612 17.622 19.552 17.55 17.067 17.152 19.05 19.025 19 18.72 16.782 16.565 17.112 16.527 16.535 17.432 18.277 18.517 18.51 16.815 16.257 16.495 15.627 15.707 15.655 15.635 15.668 15.435 15.55 15.415 15.103 15.148 15.268 16.248 14.948 14.703 16.783 17.408 18.39 19.098 19.8 15.695 14.64 17.55 17.765 16.525 14.903 15.58 15.638 14.165 13.865
10.282 10.249 10.247 10.217 10.212 10.244 10.222 10.259 10.264 10.257 10.214 10.219 10.174 10.157 10.157 10.129 10.117 10.127 10.097 10.094 10.067 10.029 9.977 9.937 9.884 9.852 9.829 9.792 9.767 9.764 9.747 9.724 9.684 9.652 9.642 9.654 9.579 9.544 9.544 9.484 9.442 9.439 9.417 9.377 9.347 9.309 9.254 9.197 9.132 9.052 9.002 8.942 8.944 8.884 8.829 8.752 8.714 8.677 8.617 8.582 8.529 8.497 8.437 8.384 8.314 8.259 8.167 8.117 8.042 7.967 7.872 7.844 7.769 7.802 7.857 7.919 7.867 9.957 12.612 9.344 7.944 7.669 7.442 7.362 7.322 7.262 7.222 7.249 7.244 7.289 7.312 7.354 7.404 7.407 7.437 7.469 7.549 7.649 7.754 7.832 7.917 8.057 8.172 8.327 8.427 8.512 8.602 8.709 8.782 8.912 9.037 9.182 9.294 9.427 9.529 9.582 9.707 9.819 9.899 9.994 10.077 10.129 10.299 10.647 11.347 11.104 10.984 11.117 11.217 11.312 11.467 11.584 11.654 11.802 11.947 12.027 12.097 12.217 12.322 12.454 12.562 13.089 13.569 14.017 14.404 14.792 14.929 14.859 14.789 14.692 14.587 14.414 14.574 15.449 16.559 17.139 18.677 19.822 19.089 16.764 15.007 15.007 15.069 15.157 15.224 15.317 15.439 15.654 16.034 15.317 15.299 15.457 15.564 15.617 15.714 16.127 17.389 16.657 18.564 21.372 21.977 20.652 16.992 16.754 16.759 16.869 16.927 16.962 17.512 17.739 17.704 17.484 17.854 18.122 17.657 17.319 17.357 17.402 17.432 17.514 17.627 17.674 17.692 17.719 17.829 18.357 17.934 17.959 18.067 18.097 18.137 18.207 18.277 18.427 18.534 18.574 18.572 18.532 18.504 18.482 18.532 18.609 18.607 18.619 18.672 18.714 18.777 18.824 18.852 18.894 18.877 18.912 18.989 19.022 19.072 19.112 19.164 19.167 19.182 19.252 19.257 19.314 19.377 19.392 19.412 19.467 19.467 19.455 19.47 19.45 19.452 19.465 19.522 19.81 19.562 19.58 19.552 19.597 19.58 19.587 19.585 19.562 19.605 19.562 19.55 19.515 19.465 19.437 19.455 19.515 19.557 19.59 19.567 19.557 19.56 19.605 19.727 19.837 19.807 19.822 19.83 20.207 20.82 20.897 20.875 20.907 20.68 20.662 20.397 20.317 20.092 20.32 20.7 21.677 20.6 22.515 22.517 24.71 26.577 25.602 21.382 20.482 20.547 21.312 20.317 19.732 19.74 19.662 19.932 22.27 22.557 22.567 22.417 22.25 21.137 20.28 19.602 19.557 19.522 19.497 19.847 20.23 19.56 19.432 19.992 19.94 20.292 19.97 19.452 19.15 19.49 21.055 19.515 17.862 18.047 18.497 19.03 19.99 17.945 17.452 17.365 18.187 17.55 16.307 16.217 16.415 17.14 17.562 16.095 15.725 15.75 15.422 15.192 14.98 14.767 14.582 14.55 14.565 14.495 14.65 15.285 14.735 17.042 15.955 15.732 15.382 15.207 15.337 17.802 21.67 22.332 21.8 21.065 20.75 17.292 16.455 16.512 16.627 16.85 17.075 18.192 19.242 18.045 17.297 17.4 17.46 18.317 18.792 17.997 18.192 20.375 21.492 21.672 21.885 22.08 22.28 22.395 22.41 22.33 22.21 22.065 21.842 21.277 20.29 21.712 21.545 21.352 21.175 20.972 20.35 19.367 17.192 17.017 17.017 16.33 16.315 16.27 16.222 16.402 16.395 16.62 16.582 16.582 16.645 18.995 18.93 18.675 18.21 16.735 16.515 16.632 16.532 16.232 16.565 18.11 18.455 18.53 17.147 16.057 16.232 15.615 15.442 15.39 15.19 15.258 15.22 14.985 16.035 16.78 17.495 18.383 18.558 18.593 19.2 19.823 20 20.178 20.38 20.563 19.995 15.063 14.473 18.12 15.253 16.683 15.593 15.135 13.91 14.325
10.182 10.207 10.172 10.154 10.152 10.194 10.149 10.187 10.189 10.174 10.129 10.127 10.087 10.069 10.059 10.042 10.024 10.004 9.979 9.997 9.972 9.889 9.874 9.857 9.794 9.722 9.689 9.657 9.649 9.654 9.614 9.614 9.597 9.552 9.522 9.517 9.454 9.429 9.429 9.402 9.339 9.344 9.314 9.277 9.242 9.174 9.142 9.077 9.014 8.949 8.892 8.847 8.852 8.779 8.702 8.644 8.629 8.574 8.524 8.479 8.442 8.394 8.332 8.274 8.212 8.159 8.114 8.034 7.924 7.842 7.787 7.749 7.687 7.742 7.802 7.879 7.912 8.639 8.829 9.284 9.357 7.519 7.347 7.304 7.247 7.179 7.132 7.154 7.174 7.204 7.239 7.282 7.317 7.304 7.349 7.379 7.457 7.569 7.689 7.744 7.844 7.977 8.104 8.219 8.372 8.454 8.572 8.674 8.779 8.894 9.032 9.114 9.252 9.382 9.464 9.564 9.672 9.772 9.872 9.977 10.034 10.074 10.282 10.737 11.322 11.074 10.939 11.077 11.197 11.289 11.389 11.539 11.649 11.774 11.902 12.009 12.127 12.249 12.352 12.469 12.544 12.624 12.722 12.802 12.997 13.314 13.672 14.259 14.797 15.029 15.312 15.552 15.197 15.184 14.847 14.519 15.269 15.724 16.882 15.419 14.802 14.904 14.964 15.049 15.149 15.242 15.409 16.412 15.884 15.139 15.289 15.427 15.467 15.564 15.977 16.354 16.484 17.299 20.649 21.947 21.127 19.409 18.052 16.652 16.632 16.649 16.752 16.857 16.929 16.927 16.892 16.879 16.897 17.749 17.532 17.219 17.254 17.294 17.334 17.432 17.529 17.567 17.622 17.649 17.949 17.899 17.824 17.907 17.932 17.979 18.039 18.097 18.094 18.167 18.257 18.359 18.417 18.444 18.432 18.397 18.429 18.494 18.507 18.494 18.529 18.569 18.632 18.697 18.707 18.749 18.744 18.774 18.849 18.874 18.917 18.957 19.032 19.029 19.029 19.097 19.117 19.174 19.227 19.227 19.292 19.322 19.3 19.322 19.33 19.322 19.345 19.33 19.385 19.807 19.482 19.417 19.447 19.472 19.462 19.457 19.437 19.43 19.445 19.437 19.435 19.39 19.345 19.297 19.32 19.347 19.367 19.445 19.437 19.422 19.422 19.475 19.57 19.66 19.662 19.7 19.68 19.835 21.292 21.675 21.627 23.317 22.347 21.725 21.722 20.325 20.155 20.69 23.192 23.06 20.902 20.815 20.422 23.177 26.157 25.657 21.007 20.032 19.82 20.32 20.455 19.622 19.585 19.55 19.5 21.727 21.197 20.44 20.08 19.827 20.872 23.185 20.54 19.487 19.667 22.745 22.085 23.487 20.817 19.427 20.81 19.042 19.245 18.455 18.315 18.415 18.735 19.097 19.737 20.012 20.572 20.985 21.237 21.002 18.427 17.625 17.337 17.375 17.662 17.145 17.842 18.267 16.17 17.197 17.3 18.72 19.612 16.11 15.83 15.51 14.73 14.477 14.387 14.37 14.332 14.262 14.36 14.422 14.527 14.657 14.777 14.952 15.132 15.297 16.467 20.597 22.067 22.197 21.602 21.292 19.155 16.505 16.487 17.11 17.517 19.227 20.065 20.66 20.03 17.327 17.152 17.087 17.317 19.812 19.237 18.45 20.077 22.257 22.402 22.415 22.34 22.2 22.025 21.84 21.622 21.435 21.222 21.06 20.86 18.747 20.942 20.297 19.755 19.232 18.68 18.23 17.322 16.595 17.182 16.245 16.157 16.227 16.165 16.07 16.22 16.25 16.51 16.607 16.612 16.57 16.49 16.545 16.852 16.385 16.115 15.985 16.882 17.247 16.022 15.987 17.232 18.11 17.057 16.347 15.52 15.617 15.505 15.105 14.972 14.923 15.93 17.158 17.098 18.41 19.44 20.37 20.56 20.753 20.518 20.403 20.618 20.798 20.975 21.13 21.155 21.003 16.228 15.88 14.988 14.133 14.91 15.35 14.62 13.558 13.418
10.077 10.102 10.087 10.069 10.064 10.057 10.047 10.069 10.052 10.027 10.042 10.029 10.002 9.994 9.959 9.947 9.919 9.884 9.889 9.884 9.844 9.817 9.792 9.734 9.667 9.642 9.597 9.544 9.562 9.557 9.507 9.492 9.469 9.419 9.417 9.384 9.364 9.337 9.314 9.297 9.249 9.234 9.204 9.172 9.157 9.097 9.044 8.974 8.907 8.847 8.769 8.749 8.722 8.692 8.622 8.537 8.547 8.484 8.432 8.389 8.334 8.302 8.239 8.184 8.132 8.074 8.024 7.967 7.829 7.759 7.714 7.687 7.619 7.657 7.742 8.842 11.294 9.387 9.879 9.944 8.804 7.357 7.237 7.229 7.192 7.124 7.094 7.102 7.119 7.149 7.204 7.217 7.239 7.234 7.247 7.309 7.379 7.484 7.579 7.682 7.792 7.924 8.042 8.127 8.289 8.394 8.502 8.624 8.742 8.847 8.972 9.097 9.219 9.312 9.429 9.499 9.612 9.737 9.842 9.944 10.034 10.084 10.327 10.937 11.062 10.949 10.929 11.042 11.162 11.272 11.392 11.522 11.632 11.784 11.894 11.957 12.067 12.212 12.334 12.464 12.539 12.634 12.737 12.832 12.934 13.049 13.177 13.237 13.404 13.644 14.057 14.689 15.074 15.664 15.699 15.342 14.814 14.679 14.709 14.894 15.234 14.947 14.844 14.907 14.989 15.294 16.194 15.609 14.984 15.089 15.174 15.262 15.324 15.694 16.624 16.144 16.874 20.649 22.122 21.084 19.314 18.729 17.274 16.884 16.694 16.497 16.627 16.724 16.784 16.779 16.774 16.732 16.719 17.479 17.607 17.089 17.169 17.212 17.254 17.344 17.434 17.464 17.497 17.859 18.292 17.752 17.759 17.802 17.837 17.879 17.962 17.984 18.014 18.042 18.057 18.137 18.207 18.284 18.347 18.357 18.332 18.332 18.382 18.372 18.419 18.424 18.482 18.539 18.584 18.637 18.644 18.652 18.724 18.719 18.787 18.827 18.852 18.857 18.902 18.957 18.987 19.044 19.072 19.095 19.15 19.18 19.172 19.205 19.175 19.192 19.207 19.227 19.242 19.645 19.452 19.297 19.31 19.332 19.327 19.302 19.302 19.305 19.325 19.317 19.312 19.245 19.235 19.187 19.165 19.205 19.245 19.305 19.287 19.29 19.287 19.332 19.427 19.525 19.532 19.547 19.54 19.59 21.142 19.825 20.437 21.395 21.217 21.077 20.475 19.692 19.635 20.822 22.305 20.437 19.845 20.007 20.912 23.015 26.065 25.175 20.565 19.78 19.832 20.155 20.087 19.472 19.475 19.42 19.35 19.522 19.43 19.437 20.005 20.082 20.672 21.13 21.027 20.325 20.217 23.342 21.382 20.815 21.65 18.925 18.5 18.582 18.84 19.637 20.717 21.062 21.342 20.275 19.317 21.117 21.782 22.145 22.197 21.315 19.257 17.462 18.085 17.64 18.84 17.58 18.712 18.3 18.202 21.005 21.557 21.932 22.19 18.26 15.837 14.967 15.337 14.71 14.257 14.247 14.197 14.087 14.137 14.222 14.362 14.427 14.59 14.857 15.13 15.245 15.397 18.357 21.785 22.132 21.495 19.827 17.92 16.787 16.485 19.165 20.315 20.882 21.445 21.552 20.592 19.067 18.88 17.165 17.072 19.472 18.85 17.732 19.137 22.172 21.957 21.775 21.587 21.4 21.205 20.922 20.177 20.697 20.785 20.742 20.515 17.715 18.785 17.967 17.627 17.265 17.02 16.812 16.662 16.55 16.5 16.115 16.032 16.045 15.962 15.957 16.002 16.097 16.102 16.485 16.347 16.142 16.067 16.062 16.15 15.935 16.71 17.272 16.717 16.102 15.9 15.81 15.937 16.35 15.952 15.77 15.552 15.957 15.425 14.975 15.262 18.708 19.46 20.298 20.583 20.79 20.98 21.133 21.378 21.543 21.6 21.163 21.19 21.115 20.97 20.783 20.59 20.365 16.708 14.798 13.773 17.503 14.57 14.94 14.148 13.563 13.308
9.962 10.014 10.004 10.019 9.992 9.954 9.974 9.972 9.977 9.934 9.927 9.907 9.899 9.897 9.852 9.854 9.814 9.789 9.777 9.784 9.729 9.697 9.669 9.564 9.557 9.532 9.489 9.444 9.417 9.442 9.404 9.367 9.357 9.314 9.292 9.267 9.244 9.224 9.197 9.172 9.132 9.099 9.094 9.067 9.022 8.977 8.927 8.859 8.807 8.744 8.699 8.649 8.602 8.582 8.489 8.454 8.444 8.369 8.302 8.274 8.247 8.177 8.137 8.077 8.042 7.992 7.939 7.864 7.749 7.717 7.679 7.579 7.579 7.607 8.747 15.554 13.752 11.332 9.732 12.017 7.607 7.254 7.092 7.067 7.062 7.039 7.002 7.019 7.067 7.119 7.159 7.194 7.177 7.192 7.182 7.247 7.309 7.409 7.502 7.594 7.694 7.839 7.962 8.097 8.204 8.299 8.404 8.529 8.667 8.794 8.937 9.064 9.162 9.274 9.384 9.454 9.567 9.684 9.789 9.887 9.977 10.072 10.364 10.742 10.719 10.804 10.904 11.007 11.117 11.239 11.337 11.457 11.602 11.722 11.844 11.932 12.042 12.162 12.269 12.389 12.527 12.622 12.702 12.809 12.922 13.022 13.122 13.244 13.342 13.442 13.529 13.612 13.737 14.052 13.967 15.002 15.307 15.382 15.924 16.264 16.349 15.984 15.934 15.562 15.287 15.627 15.674 14.839 14.894 14.997 15.079 15.119 15.504 16.397 16.182 17.047 20.607 21.669 21.764 18.819 18.474 17.577 16.462 16.967 16.612 16.392 16.512 16.622 16.692 16.672 16.669 16.619 16.577 17.487 17.354 17.017 17.077 17.079 17.132 17.244 17.322 17.334 17.379 17.797 18.232 17.662 17.674 17.699 17.727 17.787 17.897 17.909 17.914 17.939 17.972 17.974 18.004 18.082 18.192 18.264 18.277 18.269 18.237 18.234 18.274 18.317 18.339 18.409 18.442 18.517 18.517 18.547 18.589 18.624 18.642 18.684 18.732 18.734 18.772 18.804 18.854 18.922 18.947 18.982 19.042 19.062 19.057 19.075 19.087 19.067 19.082 19.082 19.112 19.58 19.402 19.175 19.167 19.19 19.187 19.162 19.165 19.15 19.147 19.155 19.167 19.11 19.075 19.042 19.037 19.055 19.097 19.16 19.155 19.167 19.155 19.207 19.285 19.395 19.427 19.44 19.417 19.442 19.862 19.675 19.64 19.805 19.835 19.72 19.692 19.577 19.607 19.58 19.67 19.832 19.815 19.715 20.482 22.96 26.02 25.557 20.892 19.66 19.617 19.72 19.787 19.362 19.377 19.297 19.25 19.212 19.262 19.53 19.82 19.325 19.742 19.687 19.8 19.335 19.172 22.442 23.035 23.187 21.325 18.722 18.575 20.67 21.197 21.762 22.04 22.327 22.162 20.827 18.562 20.927 22.06 22.592 22.397 21.552 20.365 19.94 20.08 17.347 18.975 16.5 16.035 15.897 16.527 21.782 22.625 22.475 21.965 19.32 15.197 15.025 14.937 14.405 14.127 14.1 14.067 13.955 13.965 14.1 14.175 14.322 14.505 14.697 14.935 15.115 15.285 16.647 20.945 20.27 17.967 17.427 18.325 18.2 17.582 19.98 21.352 22.1 21.79 21.45 20.542 19.772 19.535 17.465 17.007 18.74 19.085 17.225 17.85 21.357 21.142 20.97 20.402 19.342 19.562 17.832 17.472 19.82 20.61 18.727 17.452 17.68 17.232 16.545 16.497 16.502 16.652 16.55 16.497 16.385 16.485 16.107 15.895 15.867 15.822 15.792 15.807 15.932 15.9 16.342 16.255 16.117 15.987 15.97 15.87 16.31 18.072 18.387 18.477 16.552 15.852 16.41 16.6 15.927 17.065 17.32 17.555 17.78 15.847 14.815 14.91 20.828 20.993 21.208 21.39 21.573 21.765 21.85 21.865 21.788 21.648 20.855 20.55 20.37 20.18 19.985 19.438 19.278 15.455 13.798 13.72 15.998 16.275 14.715 14.713 13.69 13.295
9.859 9.914 9.914 9.939 9.929 9.879 9.869 9.897 9.897 9.879 9.807 9.817 9.807 9.777 9.739 9.734 9.709 9.689 9.672 9.657 9.634 9.594 9.584 9.509 9.459 9.417 9.369 9.319 9.307 9.299 9.297 9.257 9.244 9.227 9.169 9.149 9.119 9.127 9.089 9.044 9.024 9.009 8.979 8.944 8.912 8.872 8.827 8.754 8.709 8.637 8.584 8.527 8.539 8.482 8.392 8.342 8.339 8.269 8.197 8.187 8.149 8.099 8.064 7.994 7.944 7.892 7.819 7.732 7.667 7.667 7.584 7.512 7.514 7.599 9.819 13.542 10.987 8.974 9.234 12.237 9.044 7.172 6.997 6.974 6.984 6.927 6.889 6.897 6.919 6.957 7.029 7.059 7.054 7.114 7.119 7.217 7.284 7.372 7.437 7.537 7.677 7.764 7.884 7.994 8.112 8.232 8.349 8.462 8.572 8.714 8.852 8.984 9.104 9.229 9.309 9.414 9.517 9.624 9.732 9.809 9.892 10.007 10.362 10.679 10.589 10.742 10.829 10.974 11.097 11.209 11.324 11.444 11.562 11.702 11.807 11.894 12.027 12.114 12.214 12.357 12.469 12.564 12.684 12.764 12.874 13.009 13.107 13.222 13.324 13.412 13.474 13.577 13.659 13.737 13.779 13.914 14.104 14.562 14.644 14.772 15.007 15.204 15.787 16.307 16.349 15.764 14.717 14.729 14.809 14.887 14.944 15.122 16.427 16.032 17.284 20.084 21.727 22.027 21.184 18.872 18.049 17.489 16.654 16.777 16.649 16.284 16.407 16.519 16.597 16.574 16.544 16.502 16.482 17.047 17.042 16.894 16.979 16.972 17.059 17.152 17.207 17.222 17.297 17.979 17.832 17.549 17.544 17.592 17.637 17.717 17.774 17.794 17.854 17.852 17.887 17.874 17.927 17.947 17.982 18.122 18.202 18.199 18.172 18.177 18.169 18.189 18.219 18.289 18.322 18.359 18.384 18.432 18.482 18.509 18.537 18.592 18.627 18.622 18.687 18.722 18.739 18.752 18.839 18.877 18.922 18.955 18.957 18.962 18.972 18.965 18.975 18.995 19.015 19.44 19.145 19.042 19.05 19.087 19.07 19.05 19.05 19.047 19.03 19.025 19.03 18.992 18.95 18.915 18.907 18.932 18.977 19.01 19.007 19.037 19.037 19.097 19.14 19.252 19.295 19.302 19.307 19.325 19.527 19.602 19.727 19.577 20.46 19.587 19.637 19.56 19.497 19.515 19.635 19.62 19.63 20.445 22.047 22.432 22.472 22.68 21.535 19.572 19.495 19.427 19.342 19.257 19.262 19.177 19.12 19.13 19.885 21.14 21.722 22.552 21.627 21.722 20.327 19.045 19.12 19.71 19.635 19.132 19.692 18.84 18.39 19.19 20.597 22.17 23.002 23.205 22.535 21.41 19.927 20.662 21.682 21.612 21.647 21.74 20.712 20.375 20.257 18.055 18.74 16.807 15.95 15.995 15.992 21.515 22.64 22.58 21.487 18.38 15.325 15.745 15.5 14.64 14.032 13.93 13.92 13.84 13.81 14.11 14.072 14.132 14.362 14.48 14.77 14.927 15.122 15.235 16.46 15.537 16.577 16.56 17.19 16.182 16.49 19.032 21.515 22.39 21.852 20.52 19.777 19.755 18.125 16.935 16.98 17.312 19.13 17.69 17.267 20.21 19.935 17.715 17.932 18.317 18.687 17.195 16.93 18.185 19.45 17.687 16.555 17.082 17.512 16.457 16.445 16.345 16.932 17.51 16.34 16.225 16.282 16.02 15.787 15.73 15.732 15.69 16.08 15.762 15.782 15.755 15.83 16.452 16.625 17.135 18.172 18.695 18.93 19.155 19.315 17.005 16.615 17.672 17.327 16.387 17.962 18.265 18.44 18.625 16.207 14.657 14.635 21.633 21.723 21.855 21.853 21.778 21.615 21.395 21.22 21.035 20.84 20.153 19.76 19.333 16.13 16.758 13.605 14.42 13.718 15.438 14.665 16.53 17.26 14.278 13.57 12.923 13.128
9.739 9.812 9.817 9.817 9.819 9.772 9.754 9.777 9.759 9.762 9.714 9.689 9.704 9.682 9.642 9.612 9.597 9.577 9.569 9.539 9.519 9.484 9.474 9.399 9.352 9.289 9.274 9.219 9.192 9.227 9.177 9.147 9.119 9.114 9.072 9.057 9.052 9.017 8.967 8.944 8.922 8.914 8.889 8.857 8.794 8.747 8.712 8.657 8.587 8.522 8.477 8.457 8.434 8.392 8.287 8.264 8.202 8.179 8.107 8.082 8.067 8.012 7.952 7.907 7.854 7.797 7.702 7.622 7.592 7.577 7.459 7.442 7.444 7.554 7.642 10.492 10.612 8.372 8.204 12.027 10.167 7.027 6.929 6.914 6.897 6.874 6.854 6.844 6.844 6.852 6.834 6.847 6.889 6.949 7.007 7.067 7.182 7.289 7.372 7.464 7.607 7.732 7.857 7.989 8.079 8.159 8.282 8.384 8.504 8.644 8.757 8.884 9.037 9.132 9.214 9.309 9.434 9.554 9.652 9.772 9.847 10.009 10.359 10.517 10.472 10.702 10.824 10.987 11.057 11.164 11.282 11.389 11.517 11.604 11.727 11.844 11.962 12.062 12.184 12.304 12.417 12.524 12.619 12.737 12.829 12.922 13.012 13.122 13.242 13.349 13.454 13.539 13.619 13.707 13.767 13.842 13.889 13.939 14.002 14.074 14.084 14.209 14.337 14.822 15.472 14.487 14.517 14.584 14.689 14.764 14.882 15.117 15.357 16.262 18.627 20.382 21.439 21.362 18.064 17.424 18.439 17.814 17.004 17.207 16.354 16.172 16.294 16.402 16.469 16.457 16.417 16.374 16.439 17.499 16.837 16.804 16.842 16.857 16.922 17.027 17.092 17.127 17.327 17.924 17.512 17.437 17.454 17.487 17.557 17.629 17.719 17.729 17.764 17.789 17.814 17.797 17.817 17.857 17.884 17.909 18.027 18.122 18.092 18.077 18.077 18.049 18.112 18.199 18.229 18.262 18.289 18.279 18.387 18.422 18.429 18.477 18.534 18.532 18.529 18.592 18.609 18.674 18.722 18.747 18.795 18.84 18.837 18.852 18.86 18.84 18.875 18.865 18.897 19.175 18.962 18.895 18.92 18.93 18.932 18.897 18.902 18.902 18.897 18.885 18.89 18.822 18.825 18.787 18.75 18.77 18.805 18.877 18.857 18.887 18.897 18.97 19.027 19.12 19.157 19.172 19.187 19.182 19.56 20.357 21.237 19.555 21.962 19.407 19.352 19.4 19.265 19.265 19.382 19.362 19.467 20 21.88 20.99 20.862 20.487 19.82 19.47 19.495 19.435 19.445 19.59 19.582 19.36 18.987 18.987 21.597 24.92 24.505 24.597 23.04 22.477 21.31 19.015 19.075 19.11 19.112 19.077 19.417 18.975 18.375 18.195 19.892 21.92 22.702 22.565 22.225 21.59 20.052 19.572 20.672 20.442 20.845 21.115 19.447 18.425 17.757 17.217 17.207 17.785 16.482 16.027 17.31 21.222 22.352 22.732 21.692 19.75 15.9 15.552 14.615 14.487 13.902 13.797 13.762 13.722 13.655 13.852 13.865 13.997 14.16 14.322 14.605 15.525 15.83 15.265 16.267 17.502 18.11 17.202 16.06 15.827 16.135 18.09 20.56 21.577 21.42 20.797 19.027 17.832 17.37 17.107 17.535 17.295 18.62 17.66 17.19 18.21 17.957 17.352 17.512 17.492 16.907 16.8 16.795 17.107 16.747 16.435 16.43 16.462 17.125 16.38 16.27 17.472 17.672 16.752 16.112 16.095 15.997 15.867 15.615 15.587 15.555 15.522 16.015 15.617 15.667 15.65 15.667 18.285 18.947 19.15 19.345 19.577 19.765 19.942 20.097 18.247 17.572 18.295 18.48 18.705 18.877 19.052 19.24 19.43 17.392 14.52 14.47 20.055 21.553 21.368 21.175 20.99 20.798 20.595 20.268 18.94 19.365 14.803 14.295 14.495 13.775 13.79 13.678 13.783 13.425 13.543 15.3 14.025 14.418 14.14 15.093 13.268 12.833
9.684 9.704 9.712 9.734 9.719 9.689 9.689 9.672 9.642 9.642 9.604 9.592 9.577 9.547 9.527 9.517 9.522 9.497 9.474 9.444 9.422 9.404 9.369 9.324 9.264 9.169 9.149 9.099 9.072 9.097 9.039 9.022 9.024 8.979 8.957 8.947 8.904 8.889 8.849 8.867 8.827 8.802 8.792 8.754 8.699 8.654 8.632 8.544 8.489 8.434 8.382 8.347 8.334 8.279 8.224 8.154 8.139 8.074 8.024 7.984 7.947 7.904 7.864 7.819 7.774 7.732 7.629 7.574 7.512 7.452 7.389 7.414 7.404 7.522 7.764 8.444 7.204 7.609 10.379 10.594 8.144 6.937 6.867 6.869 6.882 6.842 6.827 6.817 6.784 6.827 6.842 6.822 6.854 6.867 6.904 6.977 7.047 7.167 7.272 7.434 7.552 7.662 7.789 7.914 7.997 8.104 8.234 8.352 8.472 8.574 8.707 8.844 8.957 9.054 9.137 9.249 9.372 9.477 9.597 9.724 9.889 9.934 13.204 14.842 10.937 11.754 10.837 10.902 10.969 11.052 11.189 11.319 11.477 11.567 11.684 11.777 11.892 11.997 12.154 12.247 12.329 12.437 12.579 12.692 12.784 12.892 12.982 13.057 13.169 13.269 13.342 13.407 13.522 13.619 13.674 13.742 13.842 13.922 13.977 14.007 14.104 14.739 15.002 14.297 14.197 14.324 14.407 14.487 14.554 14.719 15.147 15.229 15.809 18.394 19.229 19.009 19.579 19.489 17.164 16.524 17.187 16.202 17.522 17.959 16.764 16.604 16.622 16.722 16.367 16.309 16.277 16.274 16.319 17.072 16.767 16.682 16.732 16.774 16.859 16.927 16.969 16.977 17.257 18.097 17.499 17.332 17.394 17.422 17.464 17.539 17.627 17.652 17.672 17.669 17.687 17.704 17.697 17.722 17.774 17.792 17.824 17.932 18.004 18.042 18.022 17.979 17.969 18.047 18.092 18.139 18.139 18.197 18.239 18.299 18.317 18.377 18.432 18.407 18.412 18.432 18.474 18.532 18.582 18.617 18.665 18.697 18.695 18.707 18.735 18.745 18.752 18.742 18.76 19.137 18.777 18.782 18.777 18.772 18.77 18.742 18.767 18.765 18.745 18.732 18.735 18.68 18.7 18.642 18.612 18.65 18.68 18.725 18.742 18.76 18.777 18.825 18.887 18.982 19.015 19.072 19.052 19.06 19.142 19.49 19.237 19.452 19.327 19.295 19.265 19.247 19.165 19.325 19.307 19.387 19.395 19.61 20.07 19.617 19.535 19.635 19.622 19.705 19.665 20.207 19.995 19.547 19.27 18.892 18.892 18.87 22.07 24.827 25.012 24.89 23.635 22.355 21.627 19.235 19.32 19.482 19.352 19.435 20.34 19.807 18.395 18.175 19.2 21.672 22.415 21.755 20.512 20 19.02 17.86 17.672 18.207 17.83 17.682 17.365 18.047 17.752 17.505 16.687 17.975 16.517 16.147 16.267 20.13 22.05 22.78 21.425 18.515 14.695 14.765 14.337 14.052 13.775 13.612 13.655 13.612 13.527 13.525 13.647 13.817 14.147 14.977 16.022 16.085 15.985 17.727 18.325 18.802 18.822 17.89 16.252 15.777 16.005 16.67 19.532 20.677 19.27 17.63 16.792 16.652 17.487 17.03 16.782 16.61 17.767 19.33 17.817 16.872 17.275 16.89 16.88 17.855 17.105 16.727 16.69 17.037 17.115 17.28 16.332 16.28 17.077 16.675 16.747 17.655 17.847 16.332 15.992 15.965 15.842 15.915 15.472 15.427 15.412 15.38 15.355 15.382 15.515 15.537 15.542 18.277 19.795 19.947 20.072 20.135 20.055 19.902 19.742 18.827 17.44 19.112 19.312 19.482 19.662 19.717 19.712 19.625 18.19 14.367 14.332 17.518 20.74 20.58 19.66 18.823 17.84 15.773 15.643 14.45 14.668 14.12 13.933 14.198 13.828 13.63 14.125 14.873 13.335 13.188 13.9 15.43 15.178 15.468 14.303 14.22 13.24
9.627 9.624 9.642 9.652 9.624 9.589 9.577 9.542 9.519 9.539 9.509 9.514 9.484 9.457 9.419 9.387 9.414 9.397 9.347 9.347 9.317 9.267 9.252 9.234 9.149 9.104 9.077 9.009 8.994 8.974 8.944 8.897 8.914 8.882 8.827 8.832 8.787 8.772 8.764 8.774 8.722 8.714 8.697 8.639 8.609 8.542 8.519 8.437 8.389 8.364 8.297 8.252 8.227 8.162 8.112 8.057 8.017 7.987 7.952 7.909 7.864 7.824 7.792 7.724 7.674 7.624 7.567 7.492 7.434 7.349 7.362 7.357 7.387 7.454 8.237 8.007 7.529 7.482 11.912 7.364 7.099 6.879 6.829 6.837 6.832 6.814 6.794 6.747 6.739 6.809 6.802 6.792 6.812 6.869 6.889 6.924 6.989 7.092 7.229 7.377 7.504 7.634 7.724 7.859 7.952 8.032 8.139 8.247 8.374 8.539 8.662 8.792 8.907 8.999 9.099 9.202 9.327 9.432 9.502 9.557 10.294 10.327 14.359 14.204 13.349 12.839 10.754 10.889 10.914 11.019 11.139 11.259 11.404 11.519 11.624 11.724 11.824 11.924 12.064 12.179 12.287 12.367 12.509 12.589 12.699 12.817 12.879 12.994 13.107 13.214 13.279 13.377 13.447 13.542 13.602 13.667 13.757 13.839 13.884 13.947 14.044 15.002 15.364 14.202 14.149 14.234 14.312 14.369 14.532 15.187 15.074 16.167 18.284 18.927 18.459 18.192 18.192 18.459 18.409 16.817 16.229 15.844 16.527 16.722 15.964 15.944 16.079 16.294 16.374 16.274 16.267 16.369 16.487 17.089 16.682 16.582 16.624 16.674 16.759 16.822 16.872 16.849 17.409 17.854 17.194 17.229 17.282 17.334 17.362 17.452 17.494 17.549 17.567 17.559 17.587 17.604 17.589 17.622 17.649 17.662 17.734 17.772 17.819 17.869 17.914 17.897 17.914 17.889 17.919 17.969 17.997 18.022 18.097 18.129 18.179 18.242 18.284 18.257 18.279 18.304 18.332 18.399 18.454 18.472 18.515 18.567 18.552 18.565 18.575 18.575 18.607 18.62 18.597 18.975 18.78 18.652 18.672 18.65 18.627 18.59 18.595 18.617 18.607 18.6 18.592 18.53 18.532 18.51 18.502 18.522 18.572 18.612 18.61 18.64 18.65 18.695 18.782 18.88 18.915 18.945 18.932 18.912 18.982 19.695 19.337 19.19 19.15 19.177 19.25 19.215 19.437 20.675 19.612 19.72 19.877 20.205 20.44 20.35 20.88 21.022 21.08 21.422 21.557 21.83 20.542 18.852 18.807 18.825 18.765 18.78 20.045 24.582 24.697 24.305 23.575 21.93 21.642 20.725 20.645 20.352 18.83 18.782 19.547 20.267 19.245 18.24 18.735 21.407 21.852 19.69 18.555 17.972 17.862 17.78 17.632 17.545 17.437 17.465 17.187 17.43 17.312 17.275 16.6 16.992 16.142 16.125 15.7 17.595 19.88 19.402 17.31 15.805 16.177 15.167 14.245 14.052 14.155 13.532 13.495 13.45 13.372 13.35 13.917 14.47 16.022 15.597 14.772 15.097 15.282 17.705 18.752 18.437 17.835 16.705 15.567 15.897 16.012 16.455 17.267 17.7 16.82 16.72 18.377 17.972 20.895 17.935 16.217 16.327 16.287 18.785 18.225 17.72 17.07 16.812 16.65 17.267 17.31 16.612 16.91 17.827 17.807 18.12 16.775 16.537 17.432 16.492 16.11 16.427 17.727 16.235 16.012 17.665 17.972 17.942 15.567 15.247 15.24 15.23 15.185 15.16 15.345 15.432 15.392 17.745 20.012 19.89 19.72 19.555 19.345 19.155 18.93 17.567 15.605 19.5 19.71 19.607 19.44 19.235 19.07 18.862 18.09 14.492 14.172 14.225 16.37 16.275 15.068 14.483 14.463 14.305 14.295 14.25 14.215 14.133 13.973 14.003 13.818 13.6 13.698 14.218 13.238 13.105 15.283 13.628 17.058 15.82 15.105 15.353 13.81
9.569 9.574 9.572 9.564 9.559 9.504 9.429 9.404 9.389 9.429 9.414 9.422 9.372 9.309 9.284 9.274 9.297 9.267 9.242 9.249 9.204 9.182 9.167 9.104 9.042 8.994 8.957 8.889 8.907 8.877 8.832 8.809 8.787 8.779 8.767 8.702 8.717 8.677 8.682 8.647 8.634 8.599 8.594 8.527 8.519 8.449 8.404 8.349 8.299 8.262 8.209 8.162 8.122 8.074 8.002 7.957 7.939 7.889 7.857 7.809 7.769 7.729 7.709 7.669 7.609 7.554 7.474 7.409 7.327 7.277 7.292 7.302 7.362 7.747 8.152 8.774 8.447 8.274 7.604 7.169 6.947 6.829 6.819 6.839 6.797 6.779 6.749 6.739 6.739 6.764 6.739 6.747 6.764 6.827 6.879 6.904 6.949 7.047 7.184 7.339 7.449 7.587 7.702 7.802 7.887 7.982 8.097 8.192 8.297 8.422 8.554 8.677 8.799 8.894 8.997 9.127 9.254 9.327 9.399 9.472 9.547 9.844 10.509 10.334 10.574 10.577 10.629 10.757 10.854 10.982 11.077 11.169 11.294 11.407 11.537 11.624 11.749 11.844 11.967 12.097 12.212 12.302 12.424 12.532 12.617 12.734 12.814 12.927 13.024 13.134 13.182 13.267 13.357 13.469 13.532 13.597 13.667 13.737 13.812 13.864 14.724 15.057 14.157 13.929 14.064 14.169 14.182 14.329 14.572 14.942 15.637 18.112 18.884 17.557 16.589 17.804 17.782 18.369 18.092 16.417 16.694 16.697 15.869 15.824 15.879 15.897 15.917 16.027 16.049 16.084 16.342 16.127 16.794 17.024 16.457 16.467 16.492 16.632 16.844 16.724 16.739 16.767 17.502 17.499 17.104 17.112 17.179 17.227 17.279 17.344 17.397 17.434 17.442 17.449 17.472 17.497 17.494 17.544 17.542 17.559 17.609 17.669 17.699 17.662 17.737 17.807 17.799 17.804 17.777 17.794 17.864 17.914 17.957 17.999 18.022 18.079 18.092 18.117 18.122 18.149 18.182 18.247 18.302 18.325 18.357 18.397 18.397 18.44 18.452 18.43 18.465 18.467 18.502 18.715 18.652 18.542 18.477 18.522 18.5 18.495 18.485 18.492 18.48 18.462 18.447 18.407 18.4 18.375 18.395 18.415 18.455 18.495 18.49 18.532 18.552 18.592 18.675 18.785 18.797 18.822 18.807 18.825 18.84 19.87 20.495 19.365 19.502 19.102 19.625 19.772 19.725 19.732 19.417 19.375 19.005 19.295 19.08 19.307 21.792 22.59 22.825 23.295 23.622 23.605 20.96 18.767 18.74 18.74 18.707 18.672 18.732 22.655 22.925 23.507 24.035 23.645 23.237 21.56 20.795 18.747 18.667 18.667 18.872 19.357 18.95 18.995 18.58 18.315 18.117 18.342 18.055 17.9 17.8 17.707 17.572 17.47 17.347 17.245 17.107 16.947 16.842 16.712 16.467 16.712 16.765 16.375 16.312 15.965 17.41 16.872 15.195 16.442 15.922 14.902 14.455 14.375 14.952 13.52 13.347 13.33 13.262 13.185 13.95 14.46 13.972 13.807 14.117 15.365 16.262 17.262 17.7 16.247 15.08 14.557 14.765 15.667 16.03 16.2 16.03 16.285 16.752 19.417 21.635 22.255 22.597 20.452 17.04 16.482 16.485 18.595 19.337 19.622 17.89 16.655 17.002 16.647 17.467 16.57 16.6 18.097 17.432 18.195 16.812 16.12 18.152 17.3 17.085 16.437 15.715 15.885 16.19 16.495 16.027 15.462 15.24 15.14 15.102 15.057 15.005 14.965 15.127 15.312 15.362 16.567 19.32 19.122 18.932 18.43 17.425 17.267 16.272 15.155 15.302 18.272 19.03 18.83 18.617 18.452 18.08 16.867 15.805 14.465 14.002 14.013 14.24 14.315 14.265 14.24 14.225 14.235 14.19 14.12 14.038 13.99 13.935 13.75 13.688 13.493 13.355 13.25 13.125 12.963 13.053 13.315 18.388 13.718 13.278 15.62 13.17
9.519 9.502 9.509 9.494 9.479 9.412 9.334 9.254 9.237 9.379 9.327 9.312 9.267 9.219 9.187 9.174 9.189 9.182 9.144 9.129 9.087 9.072 9.074 9.019 8.982 8.894 8.857 8.844 8.809 8.794 8.787 8.719 8.719 8.687 8.672 8.627 8.607 8.602 8.544 8.577 8.547 8.522 8.482 8.447 8.427 8.364 8.302 8.262 8.229 8.164 8.099 8.082 8.037 7.977 7.972 7.924 7.884 7.797 7.784 7.762 7.712 7.669 7.622 7.569 7.539 7.474 7.399 7.307 7.217 7.237 7.244 7.282 7.322 7.609 7.884 10.122 8.779 7.247 7.122 7.059 6.882 6.814 6.787 6.762 6.722 6.732 6.707 6.712 6.717 6.702 6.729 6.739 6.769 6.804 6.814 6.852 6.917 6.977 7.139 7.297 7.444 7.547 7.657 7.737 7.834 7.949 8.054 8.167 8.264 8.372 8.524 8.622 8.734 8.827 8.927 9.037 9.147 9.254 9.364 9.369 9.472 9.747 11.284 10.122 10.312 10.509 10.569 10.647 10.762 10.899 11.007 11.084 11.182 11.302 11.457 11.547 11.654 11.747 11.902 12.007 12.127 12.234 12.364 12.452 12.542 12.624 12.704 12.839 12.929 13.024 13.097 13.204 13.304 13.382 13.467 13.549 13.617 13.662 13.707 14.414 15.042 14.264 13.792 13.887 13.947 13.994 14.134 14.379 14.687 14.877 16.377 18.522 17.769 15.347 15.484 16.104 17.924 17.957 16.494 15.849 15.787 16.512 15.929 15.677 15.799 15.792 15.822 15.897 15.927 15.932 16.254 15.962 16.594 16.499 16.294 16.352 16.364 16.754 17.587 16.697 16.607 16.644 17.342 17.439 16.994 17.007 17.082 17.102 17.157 17.244 17.287 17.344 17.332 17.339 17.347 17.374 17.374 17.409 17.419 17.457 17.507 17.549 17.559 17.537 17.577 17.669 17.732 17.719 17.707 17.667 17.699 17.772 17.822 17.869 17.877 17.909 17.947 17.959 17.964 18.012 18.059 18.099 18.149 18.187 18.217 18.247 18.24 18.297 18.285 18.287 18.315 18.335 18.347 18.507 18.437 18.32 18.355 18.387 18.35 18.34 18.38 18.385 18.355 18.337 18.33 18.292 18.285 18.245 18.272 18.297 18.35 18.387 18.397 18.465 18.492 18.53 18.58 18.66 18.675 18.705 18.69 18.727 18.715 19.345 20.285 20.332 20.877 20.962 19.557 18.777 18.707 18.685 18.672 18.667 18.802 18.98 19.42 20.81 23.442 24.66 24.877 25.025 25.292 23.952 20.47 18.835 18.767 19.042 18.877 18.58 18.552 23.227 24.617 24.755 24.745 23.985 23.66 20.897 18.69 18.615 18.645 18.657 18.93 19.632 19.142 20.115 19.477 18.695 18.372 18.637 20.04 17.972 17.985 18.342 17.595 17.43 17.395 17.617 17.025 16.865 16.707 16.56 16.38 16.14 15.915 15.737 15.802 15.255 15.46 15.042 14.78 14.522 15.045 14.43 14.492 13.875 13.847 13.355 13.18 13.175 13.077 13.035 13.245 13.322 13.517 13.712 14.107 14.33 15.717 14.962 14.537 14.49 14.537 14.577 14.605 15.2 16.127 16.372 15.95 16.007 18.252 22.247 22.967 23.44 23.202 22.077 17.855 16.352 17.34 18.302 18.502 18.11 16.925 16.5 16.28 16.275 16.412 16.885 16.25 17.295 16.59 16.822 16.01 15.945 17.182 18.06 17.77 16.237 15.527 15.487 15.447 15.56 15.53 15.365 15.225 14.96 14.892 14.882 14.852 14.807 14.917 15.15 15.287 15.577 17.892 17.055 16.362 15.162 15.117 15.137 15.107 15.087 15.207 16.477 17.09 16.55 16 14.832 14.717 14.64 14.64 14.215 13.827 13.858 14.07 14.143 14.14 14.103 14.088 14.053 13.993 13.93 13.838 13.763 13.73 13.583 13.565 13.355 13.208 13.115 13.015 12.89 12.725 12.775 18.018 15.023 15.035 14.51 12.895
9.414 9.429 9.427 9.397 9.384 9.337 9.259 9.134 9.224 9.267 9.207 9.197 9.162 9.102 9.089 9.089 9.089 9.047 9.049 9.012 8.989 8.982 8.959 8.917 8.859 8.802 8.779 8.777 8.702 8.679 8.647 8.609 8.617 8.592 8.564 8.549 8.527 8.527 8.509 8.479 8.462 8.399 8.392 8.362 8.314 8.292 8.252 8.184 8.107 8.072 8.019 7.982 7.952 7.914 7.899 7.849 7.779 7.722 7.702 7.657 7.632 7.584 7.539 7.504 7.437 7.349 7.297 7.202 7.152 7.194 7.202 7.267 7.449 9.589 9.247 8.834 8.852 7.122 7.192 7.017 6.837 6.784 6.769 6.737 6.702 6.694 6.689 6.689 6.677 6.672 6.672 6.684 6.717 6.762 6.789 6.812 6.852 6.919 7.089 7.234 7.359 7.507 7.582 7.692 7.784 7.912 8.007 8.107 8.197 8.337 8.467 8.577 8.674 8.784 8.869 8.972 9.064 9.167 9.274 9.287 9.329 9.969 11.009 10.242 10.339 10.409 10.497 10.582 10.729 10.817 10.942 11.002 11.109 11.232 11.367 11.462 11.567 11.712 11.829 11.932 12.047 12.147 12.257 12.359 12.454 12.539 12.619 12.749 12.799 12.899 13.009 13.114 13.207 13.262 13.357 13.439 13.509 13.559 14.157 14.829 14.069 13.587 13.714 13.807 13.804 13.897 14.097 14.339 15.134 14.789 15.509 17.134 16.282 15.754 15.524 15.729 16.632 16.284 16.362 15.827 16.049 16.142 16.384 15.557 15.589 15.637 15.689 15.789 15.799 15.782 15.772 15.939 16.792 16.509 16.222 16.229 16.242 16.337 16.657 16.459 16.457 16.694 17.452 17.424 16.892 16.924 16.984 17.019 17.072 17.139 17.169 17.204 17.242 17.247 17.257 17.277 17.284 17.312 17.322 17.342 17.407 17.422 17.427 17.422 17.442 17.477 17.554 17.629 17.637 17.637 17.617 17.617 17.677 17.707 17.747 17.772 17.799 17.837 17.834 17.919 17.912 17.974 18.019 18.042 18.067 18.097 18.095 18.147 18.135 18.137 18.15 18.192 18.23 18.982 18.292 18.195 18.187 18.235 18.237 18.23 18.235 18.227 18.215 18.177 18.162 18.13 18.112 18.092 18.135 18.195 18.24 18.302 18.307 18.315 18.36 18.392 18.475 18.54 18.57 18.575 18.617 18.625 18.652 19.022 20.395 21.827 23.617 22.472 19.962 18.55 18.502 18.585 18.817 18.575 18.727 18.827 19.352 21.567 23.775 23.652 24.53 23.495 21.997 20.112 19.347 19.615 19.005 19.015 18.627 18.492 18.452 21.6 24.357 23.882 23.722 23.475 22.805 20.372 19.872 19.265 18.59 18.987 18.895 20.207 20.56 19.13 18.78 18.415 18.175 18.86 19.735 20.065 20.355 20.025 18.387 17.887 17.942 17.582 16.935 16.785 16.65 16.495 16.312 16.095 15.87 15.682 15.437 15.212 14.95 14.775 14.52 14.322 14.072 13.887 13.685 13.482 14.47 17.572 14.365 13.457 13.002 12.915 13.177 13.202 13.385 13.615 13.812 14.075 14.295 14.315 14.407 14.495 14.56 14.57 14.57 15.115 15.902 15.545 15.65 15.705 17.582 21.8 23.117 22.842 21.717 20.082 17.692 17.222 17.16 16.315 16.94 16.987 16.197 16.21 16.512 16.417 16.352 16.967 17.085 16.07 15.867 15.792 15.712 15.645 15.577 15.58 15.517 15.487 15.452 15.492 15.622 16.1 17.07 17.027 15.807 14.852 14.715 14.732 14.692 14.62 14.655 14.92 15.107 15.117 15.957 15.035 15.06 15.042 15.347 15.355 15.43 15.275 15.197 15.032 15.01 14.747 14.78 14.725 14.625 14.28 14.2 13.925 13.8 14.703 13.838 13.913 13.89 13.875 13.803 13.778 13.68 13.613 13.54 13.495 13.81 13.455 13.32 13.63 13.453 12.918 12.79 12.625 12.575 12.573 12.448 14.46 14.643 13.245 12.26
9.349 9.362 9.312 9.302 9.259 9.222 9.177 9.062 9.072 9.104 9.127 9.139 9.072 9.047 9.004 9.002 9.004 8.954 8.939 8.912 8.912 8.887 8.849 8.829 8.779 8.714 8.697 8.667 8.657 8.594 8.599 8.552 8.507 8.519 8.487 8.474 8.442 8.414 8.394 8.352 8.372 8.332 8.297 8.279 8.247 8.202 8.152 8.099 8.014 7.977 7.932 7.897 7.882 7.864 7.817 7.769 7.729 7.627 7.604 7.609 7.559 7.514 7.462 7.427 7.324 7.252 7.197 7.129 7.139 7.142 7.202 7.344 7.717 8.427 7.822 7.429 7.182 7.319 7.174 6.949 6.754 6.699 6.689 6.689 6.669 6.659 6.667 6.667 6.629 6.622 6.627 6.647 6.672 6.692 6.739 6.747 6.779 6.862 7.022 7.189 7.282 7.434 7.539 7.649 7.714 7.834 7.944 8.049 8.184 8.294 8.407 8.517 8.632 8.714 8.819 8.907 8.989 9.072 9.134 9.184 9.297 9.739 10.569 10.314 10.194 10.267 10.389 10.507 10.617 10.694 10.802 10.907 11.052 11.169 11.289 11.402 11.517 11.639 11.759 11.842 11.984 12.079 12.169 12.262 12.377 12.464 12.579 12.654 12.714 12.782 12.909 12.994 13.114 13.154 13.244 13.332 13.402 13.784 14.682 14.032 13.402 13.522 13.594 13.644 13.687 13.889 14.049 14.497 14.679 14.509 16.547 16.954 16.604 15.062 14.987 15.804 16.517 17.172 18.099 16.102 15.737 16.262 16.644 15.422 15.464 15.519 15.592 15.659 15.672 15.667 15.642 15.672 16.622 16.462 16.074 16.094 16.144 16.232 16.322 16.354 16.357 16.834 17.387 16.902 16.789 16.792 16.854 16.917 16.957 17.037 17.069 17.122 17.157 17.149 17.174 17.174 17.174 17.182 17.237 17.262 17.324 17.339 17.319 17.334 17.367 17.344 17.389 17.479 17.549 17.544 17.552 17.549 17.502 17.532 17.627 17.677 17.709 17.714 17.714 17.792 17.782 17.852 17.907 17.875 17.925 17.972 17.965 17.987 18.002 18.012 18.025 18.072 18.082 20.532 18.285 18.062 18.082 18.142 18.1 18.077 18.085 18.075 18.08 18.035 18.02 18.002 18.017 18.01 18.005 18.082 18.105 18.187 18.215 18.222 18.23 18.285 18.347 18.427 18.437 18.492 18.517 18.512 18.535 18.64 19.425 22.542 26.587 21.855 18.985 18.652 18.437 18.445 18.58 18.482 18.565 18.725 18.855 20.047 19.922 18.777 20.6 18.972 18.635 18.665 19.457 19.222 19.327 18.512 18.31 18.315 18.292 19.157 19.367 20.567 21.292 19.942 19.605 18.747 21.175 19.627 18.74 18.595 18.93 18.597 19.712 18.125 17.917 17.785 17.777 17.847 19.187 20.97 20.287 19.217 17.44 17.227 17.547 16.942 17.03 16.682 16.585 16.43 16.265 16.15 16.445 16.237 15.967 15.732 15.457 14.84 14.48 14.282 14.025 13.827 13.587 13.35 20.405 21.207 20.745 13.452 12.882 12.782 12.895 13.035 13.25 13.455 13.645 13.82 14.02 14.182 14.35 14.44 14.522 14.537 14.565 14.71 16.037 15.347 15.547 15.537 15.805 19.89 21.61 18.842 16.475 16.727 18.67 19.172 18.827 16.397 16.11 17.112 16.885 17.857 18.222 16.875 15.992 15.962 15.895 15.815 15.73 15.665 15.637 15.577 15.542 15.527 15.532 15.492 15.455 15.582 16.222 16.982 17.007 17.13 16.437 15.1 14.555 14.54 14.51 14.46 14.455 14.672 14.877 14.952 15.865 15.34 15.282 15.742 15.425 15.065 15.017 15.16 15.712 15.07 14.562 14.27 14.345 14.247 14.01 13.762 13.672 13.545 13.72 14.303 14.035 13.688 13.613 13.57 13.49 13.463 13.415 13.38 13.333 13.36 14.15 13.225 13.07 12.97 12.875 12.663 12.498 12.35 12.258 12.113 13.928 15.925 19.595 14.303 12.585
9.257 9.237 9.202 9.164 9.147 9.119 9.059 9.004 8.962 8.997 8.994 8.999 8.977 8.954 8.952 8.927 8.919 8.882 8.852 8.819 8.817 8.812 8.759 8.712 8.677 8.629 8.637 8.587 8.547 8.537 8.492 8.484 8.442 8.442 8.382 8.379 8.354 8.332 8.309 8.289 8.272 8.274 8.212 8.192 8.149 8.122 8.049 7.999 7.914 7.889 7.864 7.814 7.799 7.754 7.702 7.687 7.624 7.579 7.537 7.547 7.509 7.469 7.409 7.339 7.259 7.162 7.124 7.067 7.112 7.117 7.224 7.454 9.252 12.402 8.447 7.029 7.927 8.137 7.002 6.824 6.679 6.604 6.634 6.629 6.617 6.632 6.612 6.599 6.604 6.579 6.607 6.622 6.612 6.642 6.699 6.727 6.707 6.802 6.987 7.134 7.239 7.404 7.454 7.559 7.674 7.764 7.877 7.994 8.117 8.214 8.342 8.469 8.547 8.642 8.752 8.827 8.914 8.984 9.034 9.092 9.442 10.542 12.212 10.154 10.084 10.149 10.299 10.429 10.532 10.594 10.729 10.837 10.959 11.097 11.227 11.339 11.459 11.592 11.682 11.787 11.919 12.032 12.119 12.214 12.294 12.392 12.469 12.567 12.642 12.707 12.832 12.927 13.017 13.094 13.207 13.337 13.939 14.564 13.984 13.227 13.314 13.457 13.487 13.572 13.927 13.894 14.054 14.929 15.467 14.522 16.917 17.504 17.512 17.164 17.104 17.174 15.904 16.889 16.099 15.822 16.632 18.507 16.864 15.262 15.324 15.412 15.462 15.519 15.524 15.522 15.499 15.944 16.729 16.069 15.949 15.982 16.064 16.149 16.222 16.274 16.267 16.562 16.812 16.544 16.664 16.674 16.707 16.794 16.854 16.949 16.979 17.027 17.042 17.057 17.089 17.087 17.062 17.099 17.157 17.167 17.204 17.249 17.237 17.234 17.242 17.249 17.279 17.332 17.374 17.444 17.489 17.469 17.414 17.407 17.459 17.539 17.594 17.614 17.622 17.647 17.672 17.714 17.759 17.74 17.817 17.87 17.82 17.837 17.87 17.902 17.905 17.91 17.97 18.837 17.942 17.945 17.957 17.922 17.98 17.917 17.927 17.917 17.95 17.897 17.902 17.887 17.905 17.89 17.897 17.972 17.982 18.067 18.107 18.125 18.13 18.167 18.232 18.307 18.345 18.35 18.385 18.405 18.415 18.39 18.63 19.697 21.157 18.782 18.537 18.43 18.37 18.405 18.447 18.462 18.555 18.482 18.83 19.287 19.595 18.545 18.485 18.53 18.547 18.48 19.532 19.355 18.187 18.175 18.175 18.202 18.237 18.64 18.757 19.102 19.36 19.65 20.505 21.385 22.41 21.92 18.357 19.045 18.53 17.805 17.732 17.755 17.702 17.68 17.667 17.705 19.455 21.397 17.722 17.317 17.37 17.172 16.882 17.287 17.275 16.835 17.48 17.61 16.497 17.252 16.495 16.345 18.272 18.73 16.73 15.547 15.387 14.245 13.98 13.817 13.795 16.27 21.235 19.2 21.33 15.78 12.702 12.65 12.67 12.802 13.01 13.227 13.445 13.665 13.847 14.085 14.297 14.405 14.485 14.522 14.572 14.617 14.755 15.07 15.205 15.36 15.472 16.56 16.362 15.915 17.435 20.485 21.855 22.402 21.71 17.212 15.922 16.437 17.14 17.105 17.177 16.682 16.195 16.41 16.03 15.72 15.645 15.625 15.582 16.512 16.52 16.38 15.765 15.53 15.972 15.467 15.417 15.39 15.777 15.202 15.095 15.112 14.395 14.34 14.295 14.295 14.187 14.437 14.632 14.76 14.995 15.232 14.817 14.802 14.785 14.725 14.617 14.49 14.302 14.085 13.96 13.767 13.647 13.567 13.512 13.485 13.472 13.405 13.412 14.028 13.41 13.413 13.41 13.393 13.365 13.28 13.235 13.155 13.058 13.06 12.95 12.958 12.79 12.618 12.475 12.313 12.178 12.04 11.958 11.853 12.035 16.535 19.093 17.653 14.273
9.167 9.137 9.077 9.017 8.984 8.957 8.954 8.919 8.894 8.917 8.912 8.889 8.887 8.879 8.852 8.804 8.789 8.792 8.754 8.727 8.727 8.714 8.672 8.604 8.582 8.554 8.557 8.519 8.487 8.454 8.419 8.402 8.374 8.347 8.307 8.322 8.264 8.269 8.232 8.227 8.197 8.179 8.144 8.107 8.067 7.992 7.954 7.907 7.834 7.804 7.777 7.734 7.694 7.667 7.632 7.597 7.542 7.514 7.484 7.512 7.469 7.389 7.322 7.287 7.187 7.127 7.089 7.049 7.089 7.157 7.239 9.704 8.347 11.754 7.579 8.469 7.227 6.927 6.782 6.667 6.577 6.569 6.542 6.567 6.579 6.572 6.582 6.612 6.599 6.572 6.562 6.579 6.587 6.612 6.627 6.647 6.662 6.739 6.932 7.079 7.174 7.307 7.382 7.497 7.607 7.692 7.817 7.962 8.077 8.157 8.284 8.397 8.487 8.582 8.667 8.749 8.837 8.914 8.977 9.037 9.632 12.172 9.912 9.952 9.922 10.032 10.204 10.312 10.407 10.519 10.629 10.752 10.899 11.012 11.154 11.294 11.389 11.502 11.617 11.742 11.864 11.952 12.059 12.164 12.227 12.312 12.409 12.487 12.557 12.637 12.757 12.854 12.964 13.044 13.147 13.632 14.334 13.722 13.044 13.139 13.279 13.307 13.394 13.564 14.944 16.974 15.972 15.757 16.559 14.604 14.769 15.737 15.742 15.527 15.792 16.529 16.032 15.974 15.614 15.667 15.924 17.237 15.872 15.207 15.197 15.292 15.364 15.419 15.399 15.384 15.422 15.489 16.567 15.862 15.812 15.864 15.964 16.054 16.099 16.124 16.154 16.527 17.157 16.584 16.527 16.594 16.607 16.667 16.774 16.872 16.902 16.944 16.959 16.947 16.942 16.977 16.994 17.012 17.047 17.072 17.074 17.127 17.139 17.129 17.159 17.167 17.172 17.219 17.257 17.259 17.329 17.419 17.354 17.339 17.329 17.374 17.442 17.484 17.514 17.554 17.564 17.602 17.619 17.68 17.69 17.737 17.717 17.742 17.765 17.742 17.787 17.832 17.817 19.097 17.792 17.847 17.83 17.78 17.842 17.79 17.792 17.777 17.777 17.77 17.787 17.777 17.802 17.777 17.8 17.872 17.882 17.96 18.002 18.005 18.045 18.072 18.11 18.17 18.197 18.245 18.267 18.277 18.33 18.297 20.037 20.217 19.342 18.53 18.495 18.34 18.71 18.37 18.282 18.307 18.53 18.39 18.43 19.017 20.017 18.455 18.375 18.632 18.412 18.43 19.382 18.097 18.022 18.032 17.99 17.997 18.167 18.187 18.92 23.5 24.372 24.595 24.66 24.855 25.062 23.617 17.725 17.767 17.697 17.715 17.687 17.672 17.692 17.685 17.69 17.66 18.295 18.98 17.312 16.822 17.085 16.74 17.142 16.7 16.835 18.685 20.402 19.945 17.14 16.317 16.172 15.907 17.96 18.94 17.467 14.785 14.977 15.412 15.217 14.112 14.232 15.482 19.487 17.23 19.217 13.31 12.617 12.562 12.525 12.585 12.82 13.087 13.252 13.505 13.79 13.98 14.185 14.35 14.455 14.512 14.53 14.537 14.657 14.817 15.187 15.647 16.107 15.915 15.817 16.48 20.89 22.375 23 22.937 22.107 18.177 15.797 16.995 16.732 17.652 18.005 17.362 16.532 16.135 15.78 15.73 15.595 15.537 15.607 16.14 17.78 17.805 17.752 16.6 16.302 15.462 15.107 15.117 15.607 14.977 14.882 14.915 14.272 14.18 14.117 14.075 14.015 14.175 14.345 14.412 14.557 14.642 14.595 14.477 14.372 14.215 14.01 13.887 13.827 13.717 13.627 13.397 14.477 13.572 13.325 13.36 13.292 13.262 13.235 13.445 13.865 13.595 13.218 13.15 13.168 13.043 12.928 12.863 12.72 12.698 12.585 12.483 12.353 12.335 12.19 12.635 12.223 12.645 13.915 14.083 13.815 14.365 18.263 17.715 16.535
9.099 9.072 9.042 8.997 8.939 8.904 8.859 8.824 8.794 8.767 8.812 8.814 8.789 8.744 8.704 8.682 8.679 8.664 8.657 8.644 8.629 8.597 8.552 8.504 8.477 8.497 8.472 8.434 8.432 8.389 8.342 8.322 8.292 8.259 8.222 8.209 8.172 8.184 8.197 8.142 8.119 8.072 8.062 7.992 7.979 7.934 7.857 7.802 7.754 7.714 7.684 7.652 7.637 7.629 7.539 7.527 7.492 7.447 7.444 7.457 7.417 7.364 7.267 7.237 7.132 7.059 7.027 7.019 7.079 7.747 8.354 7.764 13.042 11.352 9.207 7.132 6.894 6.754 6.637 6.607 6.544 6.534 6.529 6.497 6.494 6.517 6.562 6.594 6.599 6.592 6.547 6.547 6.559 6.569 6.582 6.589 6.637 6.764 6.932 7.014 7.132 7.244 7.322 7.434 7.557 7.667 7.779 7.897 8.007 8.099 8.232 8.337 8.409 8.519 8.612 8.712 8.779 8.832 8.917 8.984 9.117 10.099 9.479 9.734 9.869 9.959 10.117 10.217 10.324 10.437 10.537 10.667 10.822 10.922 11.037 11.154 11.274 11.414 11.539 11.682 11.782 11.887 11.964 12.074 12.154 12.247 12.339 12.427 12.487 12.587 12.722 12.807 12.869 12.984 13.259 14.212 13.982 13.064 12.992 13.062 13.084 13.174 13.439 13.587 15.759 19.012 18.674 18.809 18.614 16.727 15.744 14.077 13.869 14.042 14.387 14.639 14.814 14.887 15.107 15.392 15.339 15.952 16.854 15.504 15.112 15.182 15.277 15.324 15.277 15.322 15.449 15.572 16.367 15.722 15.679 15.747 15.884 15.909 15.967 16.002 16.019 16.692 16.902 16.367 16.462 16.472 16.489 16.554 16.647 16.749 16.804 16.824 16.844 16.857 16.854 16.872 16.902 16.929 16.992 16.989 16.984 17.014 17.034 17.009 17.037 17.072 17.109 17.134 17.127 17.154 17.177 17.257 17.309 17.299 17.259 17.239 17.242 17.319 17.387 17.449 17.454 17.477 17.509 17.545 17.587 17.632 17.595 17.645 17.665 17.652 17.665 17.692 17.707 19.245 17.695 17.727 17.712 17.71 17.68 17.635 17.617 17.665 17.655 17.63 17.655 17.64 17.695 17.667 17.667 17.72 17.747 17.832 17.887 17.92 17.922 17.965 17.995 18.045 18.055 18.107 18.127 18.132 18.145 18.165 18.432 18.827 18.402 18.275 18.365 18.377 18.27 18.347 18.21 18.267 18.282 18.262 18.552 19.195 19.912 18.392 18.295 19.035 18.837 19.535 18.42 17.83 17.87 17.882 17.812 17.76 17.942 17.922 19.157 24.167 25.385 25.347 25.165 24.98 24.765 24.025 18.46 17.98 17.655 17.632 17.627 18.272 18.387 18.605 18.1 18.882 17.78 18.98 18.547 19.105 19.465 19.115 19.542 17.115 16.442 18.297 20.24 20.26 18.367 15.912 15.68 15.26 17.222 19.355 18.915 18.432 20.02 20.58 19.27 14.857 13.717 13.48 18.947 19.25 16.755 12.465 12.465 12.437 12.365 12.41 12.62 12.922 13.18 13.417 13.665 13.887 14.095 14.252 14.385 14.422 14.457 14.49 14.52 14.692 15.27 15.54 15.567 15.91 15.81 16.192 18.47 22.142 22.407 21.237 18.545 16.787 15.812 16.517 15.93 16.977 17.505 16.147 15.705 16.07 15.752 16.652 17.237 17.42 17.64 16.577 15.422 15.36 15.572 17.33 16.927 15.105 14.952 15.127 15.74 14.847 14.747 14.702 14.647 14.29 13.925 13.89 13.882 13.827 13.982 14.057 14.077 14.267 14.265 14.202 13.962 13.667 13.71 13.51 13.305 14.242 14.07 13.282 13.8 13.297 13.197 13.2 13.185 13.142 13.065 13.713 13.508 13.16 13.02 12.865 12.835 12.688 12.55 12.488 12.35 12.268 12.238 12.198 12.533 14.138 14.098 15.61 16.165 17.283 17.983 18.23 13.943 12.603 17.83 16.998 15.288
8.952 8.964 8.927 8.907 8.892 8.864 8.832 8.797 8.769 8.757 8.687 8.642 8.624 8.594 8.567 8.569 8.559 8.522 8.544 8.547 8.494 8.472 8.457 8.424 8.374 8.407 8.389 8.349 8.332 8.302 8.247 8.237 8.204 8.167 8.144 8.124 8.097 8.079 8.087 8.034 8.027 7.977 7.952 7.904 7.874 7.829 7.774 7.729 7.702 7.629 7.577 7.557 7.542 7.519 7.474 7.454 7.412 7.392 7.347 7.367 7.327 7.277 7.219 7.164 7.087 7.022 6.944 7.007 7.249 7.687 8.304 8.124 8.572 8.912 7.172 6.907 6.604 6.534 6.512 6.524 6.544 6.514 6.514 6.539 6.524 6.544 6.537 6.539 6.519 6.534 6.537 6.552 6.517 6.539 6.554 6.579 6.612 6.719 6.834 6.934 7.062 7.189 7.232 7.349 7.469 7.602 7.732 7.842 7.972 8.079 8.187 8.267 8.379 8.474 8.549 8.647 8.724 8.804 8.867 8.902 9.077 9.402 9.407 9.694 9.874 9.904 10.007 10.129 10.252 10.364 10.472 10.582 10.679 10.837 10.957 11.039 11.192 11.334 11.472 11.627 11.687 11.812 11.924 12.024 12.054 12.142 12.237 12.347 12.397 12.514 12.644 12.722 12.819 12.949 13.784 14.122 12.917 12.787 12.877 12.909 12.942 13.167 13.599 13.612 17.792 19.279 18.884 18.964 18.542 17.389 16.324 13.582 13.567 13.867 13.909 14.529 14.744 14.742 14.779 14.802 14.822 14.909 15.119 14.969 15.042 15.099 15.162 15.182 15.164 15.204 15.287 15.587 15.952 15.552 15.574 15.669 15.747 15.792 15.854 15.852 15.979 16.662 16.457 16.312 16.342 16.372 16.397 16.452 16.569 16.642 16.687 16.724 16.744 16.739 16.747 16.779 16.807 16.867 16.914 16.907 16.924 16.922 16.932 16.947 16.959 17.009 17.024 17.064 17.067 17.062 17.069 17.124 17.184 17.242 17.222 17.212 17.137 17.124 17.219 17.322 17.332 17.372 17.394 17.455 17.477 17.54 17.522 17.537 17.552 17.55 17.552 17.555 17.59 18.072 18.56 17.552 17.557 17.58 17.555 17.485 17.467 17.495 17.492 17.505 17.522 17.515 17.535 17.527 17.555 17.602 17.62 17.67 17.715 17.775 17.787 17.827 17.842 17.87 17.892 17.917 17.947 17.982 18 18.07 19.105 19.845 18.472 18.162 18.2 18.19 18.452 18.3 18.072 18.065 18.06 18.115 18.585 20.35 20.512 18.487 18.245 18.955 19.525 19.572 18.447 17.742 17.722 17.67 17.59 17.575 17.652 17.665 17.797 22.277 23.985 23.755 23.377 20.93 20.76 20.177 18.817 19.725 17.852 18.137 18.567 20.97 20.012 18.345 17.702 18.49 17.38 19.382 19.262 20.545 20.427 20.562 20.147 17.555 16.37 17.8 19.15 18.027 16.87 15.752 15.61 15.312 17.522 20.705 21.202 21.297 21.285 21.297 20.075 14.867 13.732 13.367 13.347 15.922 14.077 12.325 12.322 12.325 12.23 12.257 12.547 12.815 13.04 13.257 13.497 13.5 13.85 14.085 14.21 14.317 14.377 14.42 14.495 14.702 15.085 15.197 15.11 15.332 15.402 16.135 15.87 20.51 19.225 15.72 15.377 15.912 16.252 15.592 16.267 16.172 17.415 16.315 15.562 15.622 15.502 16.607 17.427 17.82 17.745 17.015 15.185 15.407 15.74 15.755 16.74 15.477 14.772 14.785 14.737 14.697 14.637 14.58 14.615 14.517 13.822 13.75 13.667 13.6 13.57 13.685 13.667 13.827 13.87 13.79 13.567 13.285 14.012 13.457 13.172 13.232 13.21 13.15 13.145 13.127 13.335 13.855 13.875 13.015 12.927 12.865 13.068 13.093 12.755 12.52 12.428 12.34 12.273 12.375 12.625 13.065 14.698 15.628 16.83 17.903 18.088 18.28 18.46 18.675 18.845 19.008 17.293 12.158 13.25 13.62 14.64
8.912 8.864 8.869 8.862 8.822 8.787 8.822 8.754 8.779 8.742 8.662 8.539 8.489 8.454 8.434 8.432 8.457 8.407 8.399 8.387 8.392 8.357 8.339 8.319 8.297 8.294 8.294 8.259 8.209 8.207 8.172 8.149 8.089 8.074 8.057 8.014 8.014 8.007 7.969 7.969 7.917 7.879 7.822 7.824 7.792 7.757 7.707 7.642 7.572 7.544 7.509 7.477 7.464 7.434 7.419 7.394 7.352 7.287 7.264 7.297 7.249 7.214 7.164 7.087 7.022 6.939 6.894 6.892 7.087 8.549 7.549 7.972 8.537 8.694 9.909 9.562 6.492 6.464 6.442 6.402 6.402 6.397 6.402 6.422 6.464 6.482 6.524 6.502 6.519 6.519 6.519 6.517 6.522 6.534 6.527 6.577 6.614 6.667 6.784 6.857 6.967 7.104 7.139 7.262 7.389 7.532 7.662 7.787 7.934 8.034 8.139 8.227 8.297 8.424 8.484 8.584 8.659 8.734 8.784 8.847 9.132 9.852 10.952 9.689 9.709 9.832 9.937 10.032 10.154 10.287 10.397 10.507 10.607 10.744 10.842 10.934 11.062 11.269 11.377 11.507 11.634 11.749 11.824 11.899 11.987 12.047 12.147 12.247 12.314 12.422 12.539 12.634 12.759 13.359 13.994 13.139 12.579 12.647 12.679 12.734 12.889 13.044 13.282 13.814 17.527 19.032 19.074 19.284 18.382 16.579 16.214 13.817 13.572 13.874 13.994 14.492 14.749 14.742 14.779 14.777 14.779 14.789 14.809 14.849 14.962 14.999 15.072 15.107 15.087 15.067 15.337 16.222 15.747 15.354 15.427 15.567 15.669 15.707 15.714 15.692 15.794 16.642 16.169 16.219 16.244 16.304 16.304 16.367 16.454 16.519 16.564 16.599 16.624 16.649 16.684 16.712 16.749 16.787 16.837 16.862 16.894 16.887 16.844 16.872 16.904 16.914 16.939 16.987 16.964 16.964 17.002 17.044 17.079 17.102 17.134 17.172 17.059 17.047 17.059 17.127 17.182 17.267 17.302 17.355 17.372 17.41 17.415 17.455 17.457 17.43 17.447 17.43 17.435 19.362 18.835 17.615 17.445 17.457 17.405 17.367 17.327 17.33 17.362 17.362 17.372 17.387 17.405 17.382 17.412 17.45 17.472 17.5 17.545 17.595 17.622 17.662 17.685 17.717 17.75 17.787 17.792 17.84 17.887 17.912 18.062 20.25 18.77 18.03 18.007 18.19 18.315 18.015 17.962 17.957 17.925 18.025 18.31 18.757 19.707 18.705 19.065 19.01 18.867 18.28 17.565 17.557 17.485 17.445 17.407 17.407 17.58 17.567 17.605 20.332 18.85 19.112 18.622 18.065 17.9 18.022 17.87 17.525 18.107 21.547 22.02 21.93 18.922 16.85 17.057 17.62 17.29 17.512 18.27 20.355 21.282 21.362 20.49 18.295 16.922 16.377 16.172 15.982 15.947 15.885 15.625 15.59 16.34 20.612 20.91 20.76 20.715 21.092 21.085 15.647 13.425 13.295 13.11 13.32 14.357 12.197 12.155 12.175 12.11 12.097 12.397 12.667 12.872 13.077 13.765 13.632 13.677 13.852 14.005 14.152 14.252 14.34 14.422 14.62 14.935 14.9 15.025 16.875 17.512 15.265 15.42 15.84 15.31 16.295 17.465 20.372 20.4 17.315 15.107 15.535 16.487 15.425 15.802 15.637 15.382 15.582 16.917 17.667 17.65 17.032 15.265 15.022 14.897 14.83 15.717 15.825 14.58 14.545 14.51 14.752 14.522 15.622 16.427 15.72 13.707 13.762 13.52 13.482 13.34 13.257 13.25 13.39 13.397 13.305 13.13 13.077 13.087 13.075 13.115 13.102 13.09 13.07 13.065 13.047 13.5 13.442 13.602 13.132 12.852 12.63 12.753 13.253 12.495 12.38 12.588 13.385 15.228 15.76 16.07 17.638 18.143 18.288 18.508 18.698 18.933 19.118 19.248 19.36 19.353 19.293 19.108 15.923 15.333 11.805 10.44
8.489 8.557 8.527 8.407 8.267 8.272 8.272 8.287 8.407 8.597 8.567 8.472 8.374 8.339 8.314 8.334 8.342 8.319 8.269 8.279 8.272 8.257 8.247 8.227 8.209 8.159 8.157 8.172 8.132 8.082 8.077 8.067 7.989 7.992 7.959 7.934 7.939 7.922 7.862 7.824 7.837 7.774 7.727 7.727 7.692 7.617 7.572 7.527 7.499 7.444 7.419 7.402 7.384 7.349 7.332 7.292 7.249 7.249 7.179 7.182 7.177 7.147 7.089 7.002 6.939 6.854 6.839 6.819 6.917 7.937 7.844 8.109 10.529 9.309 7.469 6.487 6.432 6.414 6.362 6.319 6.309 6.294 6.329 6.349 6.349 6.379 6.447 6.444 6.439 6.447 6.474 6.454 6.467 6.497 6.527 6.524 6.587 6.647 6.699 6.752 6.912 6.979 7.077 7.192 7.339 7.462 7.572 7.712 7.849 7.979 8.064 8.167 8.277 8.369 8.429 8.549 8.629 8.667 8.714 8.854 9.362 9.672 10.197 9.659 9.719 9.759 9.887 9.999 10.089 10.212 10.332 10.439 10.542 10.632 10.724 10.822 10.992 11.137 11.257 11.392 11.494 11.607 11.677 11.789 11.832 11.932 12.034 12.139 12.212 12.302 12.442 12.539 12.937 13.882 12.994 12.347 12.447 12.542 12.517 12.679 13.564 13.889 13.384 13.334 13.684 14.987 16.492 15.634 14.459 13.629 14.352 14.234 13.919 13.899 14.144 14.592 14.674 14.254 14.227 14.374 14.447 14.694 14.724 14.772 14.819 14.874 14.949 14.967 14.937 14.929 14.989 16.007 15.642 15.222 15.287 15.424 15.522 15.599 15.589 15.577 15.717 16.637 16.234 16.139 16.172 16.212 16.207 16.254 16.339 16.417 16.442 16.487 16.517 16.547 16.599 16.637 16.684 16.724 16.742 16.782 16.794 16.784 16.777 16.769 16.799 16.799 16.842 16.892 16.874 16.882 16.922 16.942 16.964 17.002 17.014 17.102 17.082 17.014 17.012 16.979 16.994 17.109 17.177 17.232 17.262 17.295 17.312 17.337 17.347 17.322 17.352 17.325 17.315 20.162 18.347 17.335 17.302 17.31 17.265 17.22 17.185 17.132 17.177 17.175 17.225 17.31 17.22 17.207 17.252 17.32 17.335 17.377 17.407 17.487 17.482 17.437 17.577 17.557 17.637 17.735 17.817 18.157 18.492 18.607 19.58 20.285 18.37 17.93 18.812 18.907 18.082 17.932 17.855 18.055 18.315 18.575 18.717 18.822 18.727 18.362 17.732 17.802 17.582 17.425 17.375 17.35 17.362 17.362 17.24 17.317 17.59 17.522 17.727 19.412 18.6 17.915 18.125 17.997 17.725 17.187 17.312 17.185 19.17 21.847 22.162 23.67 22.09 19.437 18.335 19.815 17.095 17.285 17.467 19.912 20.785 20.52 20.17 18.932 16.722 17.15 16.445 16.475 16.645 16.627 15.8 16.187 17.537 20.385 21.08 21.49 21.335 21.245 21.03 19.085 13.345 14.145 13.267 13.665 14.375 12.802 11.997 12.042 12.005 11.972 12.202 12.5 12.68 12.897 13.325 13.297 13.475 13.627 13.805 13.962 14.107 14.222 14.307 14.472 14.702 14.852 17.725 22.472 22.967 17.19 15.07 15.177 16.095 20.195 21.492 22.157 21.41 17.965 15.017 15.547 16.462 15.472 15.32 15.277 15.255 15.272 16.312 15.91 15.295 14.902 15.362 14.88 14.682 14.592 15.007 15.377 14.725 15.1 16.387 16.807 17.145 17.557 17.83 17.01 13.592 15.877 13.935 13.322 13.222 13.14 13.08 13.027 13.017 13.007 12.995 13.087 13.755 13.735 13.137 13.045 13.04 13.057 13.1 13.11 13.52 13.31 14.082 13.092 12.8 12.488 12.36 12.345 12.368 13.623 17.31 17.938 18.11 18.34 18.563 18.748 18.935 19.12 19.265 19.335 19.383 19.298 19.113 18.905 18.758 18.54 18.363 16.595 10.985 10.098 10.268
9.249 9.292 9.307 9.164 8.727 8.654 8.519 8.364 8.209 7.979 8.289 8.402 8.302 8.252 8.214 8.254 8.224 8.207 8.192 8.164 8.157 8.147 8.109 8.114 8.067 8.069 8.072 8.034 8.049 8.004 7.974 7.969 7.917 7.899 7.859 7.827 7.842 7.817 7.774 7.734 7.707 7.682 7.632 7.642 7.584 7.542 7.499 7.429 7.372 7.347 7.324 7.322 7.332 7.282 7.257 7.212 7.172 7.144 7.102 7.099 7.092 7.062 7.009 6.934 6.834 6.757 6.749 6.747 6.802 7.597 8.852 7.632 9.012 7.592 6.487 6.424 6.384 6.347 6.287 6.257 6.249 6.234 6.254 6.267 6.279 6.297 6.364 6.384 6.402 6.404 6.397 6.387 6.364 6.422 6.457 6.502 6.562 6.674 6.754 6.857 6.939 7.042 7.127 7.192 7.277 7.384 7.504 7.634 7.787 7.897 8.014 8.097 8.222 8.299 8.407 8.467 8.557 8.574 8.657 9.034 9.997 9.327 9.477 9.572 9.584 9.689 9.834 9.897 10.022 10.127 10.229 10.349 10.464 10.559 10.652 10.752 10.917 11.024 11.117 11.244 11.407 11.502 11.534 11.657 11.724 11.837 11.922 12.012 12.067 12.222 12.349 12.654 13.567 13.409 12.294 12.227 12.364 12.387 12.509 14.799 16.314 13.974 13.069 13.107 13.122 13.249 13.234 13.302 13.439 13.419 13.482 13.822 14.059 13.862 13.812 14.259 14.067 15.564 15.762 15.139 15.824 14.627 14.447 14.654 14.694 14.747 14.852 14.877 14.857 14.827 14.959 16.097 15.399 15.094 15.187 15.314 15.397 15.472 15.482 15.482 15.769 16.732 15.932 16.027 16.094 16.129 16.159 16.174 16.282 16.352 16.394 16.442 16.467 16.492 16.532 16.582 16.614 16.649 16.659 16.677 16.689 16.697 16.694 16.704 16.707 16.719 16.774 16.814 16.797 16.772 16.834 16.849 16.877 16.934 16.947 17.007 16.992 16.984 16.967 16.912 16.892 16.907 16.992 17.11 17.16 17.202 17.205 17.22 17.255 17.25 17.237 17.235 17.23 19.347 17.897 17.207 17.21 17.197 17.135 17.087 17.042 17.027 17.072 17.102 17.16 17.167 17.18 17.187 17.05 17.132 17.212 17.39 17.487 17.612 18.485 17.792 17.885 18.185 18.18 18.442 18.462 18.53 19.51 19.61 19.705 19.175 18.245 18.162 19.28 19.797 18.335 18.505 18.48 18.635 18.557 18.255 18.1 17.652 17.215 17.07 17.04 17.185 17.902 18.727 17.787 17.422 18.915 19.417 17.182 17.022 19.142 20.222 20.747 21.17 17.647 16.935 16.997 17.662 17.037 16.835 16.967 16.955 17.572 19.495 20.565 21.96 21.13 19.392 17.965 20.1 18.28 18.177 18.972 19.387 19.63 18.592 17.875 17.007 17.357 16.337 16.82 15.99 16.497 17.32 15.4 15.337 17.285 19.087 21 20.765 19.642 18.417 15.842 13.62 13.27 13.325 13.797 14.492 17.435 13.085 11.907 11.9 11.867 11.79 11.957 12.32 12.542 12.722 12.925 13.097 13.275 13.42 13.59 13.747 13.91 14.04 14.177 14.322 14.467 14.57 20.922 21.252 22.135 15.797 14.875 14.82 14.97 19.045 21.82 22.687 21.847 18.542 14.955 14.95 15.035 16.515 15.185 15.137 15.11 15.365 15.567 14.745 14.66 14.737 15.547 14.907 14.47 14.36 14.4 16.085 17.217 17.612 17.81 18.007 18.215 18.437 18.647 18.255 13.73 14.995 13.935 13.217 13.11 13.015 13.012 13.087 12.992 12.907 12.927 13.025 13.627 13.37 13.102 13.082 13.107 13.512 13.24 12.915 12.865 12.617 12.852 12.44 12.345 12.2 12.113 12.133 12.645 12.475 18.558 18.75 18.92 19.115 19.283 19.355 19.388 19.275 19.11 18.91 18.688 18.518 18.318 18.133 17.95 16.13 13.94 11.858 11.995 12.925 11.508
10.117 9.642 9.432 9.432 8.942 8.789 8.749 8.877 8.722 8.297 7.907 8.219 8.169 8.109 8.097 8.144 8.119 8.102 8.092 8.032 8.039 8.022 7.999 7.987 7.972 7.964 7.982 7.939 7.914 7.909 7.867 7.854 7.834 7.787 7.787 7.722 7.712 7.719 7.674 7.664 7.609 7.597 7.554 7.522 7.469 7.427 7.392 7.322 7.292 7.262 7.239 7.234 7.209 7.192 7.129 7.132 7.094 7.062 7.069 7.034 7.019 6.992 6.942 6.864 6.777 6.689 6.664 6.847 8.164 7.007 6.682 8.839 11.354 7.194 6.387 6.362 6.314 6.252 6.214 6.187 6.179 6.164 6.182 6.194 6.242 6.279 6.327 6.354 6.372 6.332 6.342 6.309 6.304 6.322 6.359 6.424 6.502 6.617 6.682 6.804 6.904 6.997 7.104 7.232 7.352 7.402 7.539 7.644 7.754 7.854 7.937 8.024 8.119 8.194 8.277 8.372 8.457 8.482 8.699 9.169 12.892 9.942 9.422 9.527 9.544 9.649 9.739 9.854 9.937 10.062 10.167 10.254 10.364 10.457 10.527 10.674 10.799 10.912 10.992 11.152 11.247 11.367 11.454 11.504 11.574 11.682 11.774 11.842 11.899 12.089 12.189 13.189 13.439 12.234 12.059 12.134 12.142 12.247 14.299 15.777 13.802 13.787 13.222 13.112 13.132 13.112 13.182 13.269 13.357 13.412 13.492 13.889 14.354 14.019 13.769 13.814 14.242 16.764 17.332 17.269 16.919 14.927 14.374 14.537 14.577 14.647 14.747 14.729 14.744 14.719 15.279 16.027 15.047 15.022 15.099 15.214 15.284 15.347 15.319 15.334 15.757 16.824 16.159 15.949 16.007 16.069 16.079 16.124 16.219 16.307 16.344 16.442 16.489 16.482 16.502 16.519 16.549 16.572 16.559 16.597 16.634 16.642 16.634 16.657 16.622 16.657 16.687 16.707 16.729 16.694 16.754 16.782 16.797 16.822 16.842 16.882 16.914 16.914 16.912 16.884 16.807 16.794 16.779 16.892 16.98 17.09 17.117 17.167 17.16 17.177 17.172 17.165 17.175 19.192 17.497 17.095 17.1 17.027 16.99 16.957 16.962 16.975 16.962 16.982 19.07 18.032 17.832 20.107 18.925 18.847 18.187 18.217 18.007 18.082 19.505 17.195 16.835 17.012 17.01 17.055 17.062 17.29 18.205 18.427 18.52 17.84 18.325 18.542 18.39 18.245 18.162 18.18 17.75 17.615 17.392 17.11 17.017 16.985 16.875 16.895 16.965 17.01 17.182 18.477 17.855 17.232 18.68 19.23 17.412 16.915 19.725 21.722 22.175 21.377 17.41 16.947 16.92 17.267 17.01 16.757 16.852 16.775 17.212 16.885 17.215 17.002 16.707 17.145 18.265 19.72 18.852 18.687 19.515 17.162 16.385 16.882 16.165 16.097 16.655 15.765 15.637 15.567 15.58 16.017 15.277 15.122 16.842 17.825 16.892 15.045 14.74 14.577 13.752 13.552 13.43 13.172 13.13 15.437 17.35 14.037 12.355 11.772 11.745 11.69 11.767 12.195 12.377 12.58 12.732 12.92 13.085 13.252 13.415 13.557 13.705 13.842 14.015 14.147 14.292 14.58 16.275 16.617 16.045 14.74 14.562 14.7 14.767 16.257 21.167 21.507 20.617 17.192 14.85 15.655 17.355 16.165 15.03 15.02 14.97 14.905 15.107 14.735 14.77 15.02 15.417 14.855 14.367 14.342 14.96 16.64 18.192 18.425 18.612 18.78 18.73 18.66 18.525 18.312 14.302 13.565 13.23 13.057 12.99 12.952 13.095 13.745 13.21 12.96 13.027 13.092 13.17 13.235 13.237 13.135 13.1 13.42 13.297 12.577 12.465 12.257 12.11 12.017 11.947 11.99 11.885 11.828 12.415 12.075 19.213 19.338 19.343 19.218 19.058 18.865 18.703 18.52 18.315 18.12 17.91 17.443 15.18 15.373 14.77 12.14 11.935 11.993 12.348 10.653 11.063
9.734 9.969 9.787 9.387 9.099 9.287 8.982 8.594 8.684 8.739 7.819 8.117 8.087 7.967 7.997 8.027 8.014 8.002 7.977 7.952 7.929 7.937 7.904 7.879 7.899 7.902 7.874 7.842 7.822 7.814 7.774 7.749 7.737 7.707 7.669 7.654 7.617 7.607 7.577 7.577 7.517 7.492 7.429 7.404 7.384 7.332 7.289 7.232 7.194 7.157 7.167 7.139 7.134 7.089 7.059 7.049 6.999 6.972 6.964 6.962 6.987 6.917 6.864 6.784 6.707 6.627 6.612 6.699 6.759 7.417 6.434 7.534 6.969 6.382 6.334 6.307 6.242 6.187 6.162 6.139 6.129 6.089 6.117 6.124 6.177 6.202 6.242 6.284 6.264 6.274 6.274 6.259 6.257 6.277 6.322 6.377 6.449 6.562 6.669 6.764 6.857 6.977 7.084 7.199 7.312 7.384 7.512 7.652 7.759 7.857 7.899 7.979 8.082 8.169 8.217 8.304 8.412 8.519 8.809 9.059 9.862 9.099 9.434 9.457 9.522 9.632 9.672 9.769 9.857 9.987 10.092 10.174 10.294 10.359 10.439 10.557 10.662 10.777 10.922 11.044 11.099 11.224 11.304 11.367 11.462 11.559 11.592 11.682 11.729 11.917 12.504 13.229 12.167 11.802 11.902 11.989 12.022 12.534 14.734 13.557 13.182 13.457 13.154 13.044 13.579 13.307 13.542 13.754 14.159 14.919 14.139 13.487 13.594 14.367 14.459 13.939 14.009 17.039 17.412 17.447 17.152 14.542 14.359 14.437 14.454 14.519 14.589 14.592 14.554 14.534 15.322 15.524 14.929 14.907 15.042 15.122 15.307 15.292 15.252 15.274 15.952 16.722 16.764 16.399 16.009 16.032 16.039 16.087 16.147 16.202 16.279 16.314 16.394 16.429 16.462 16.462 16.442 16.447 16.457 16.507 16.572 16.602 16.577 16.589 16.587 16.614 16.642 16.627 16.667 16.644 16.669 16.719 16.732 16.754 16.807 16.814 16.852 16.862 16.852 16.864 16.839 16.777 16.749 16.71 16.757 16.927 17.035 17.092 17.097 17.107 17.082 17.082 17.12 20.965 17.77 17.022 17.005 16.91 16.865 16.857 16.852 16.852 17.022 19.14 22.53 17.767 20.657 19.51 18.347 18.117 16.872 16.685 16.702 16.885 16.67 16.525 16.55 16.62 16.66 16.717 16.742 16.795 16.822 16.837 16.875 16.895 16.925 17.02 17.147 17.247 17.027 16.912 16.9 16.865 16.865 16.87 16.88 16.827 16.75 16.752 16.84 16.885 16.955 17.647 17.207 17.02 17.53 18.605 17.72 16.735 18.75 21.94 21.97 21.62 17.715 16.977 17.5 17.73 17.842 17.887 18.092 18.177 18.405 17.975 18.52 17.367 17.23 17.775 19.012 18.242 17.567 18.075 17.702 16.967 16.107 16.355 15.935 15.985 16.975 15.722 15.587 15.507 15.49 15.462 15.415 15.54 15.93 15.355 15.182 15.557 15.015 14.262 13.497 13.262 13.062 12.85 13.012 17.3 17.177 14.652 13.322 11.612 11.625 11.582 11.56 12.017 12.25 12.397 12.532 12.702 12.89 13.057 13.227 13.362 13.51 13.695 14.115 14.247 14.115 14.492 14.082 15.72 14.252 14.325 14.417 14.55 14.677 14.975 18.162 17.07 15.92 14.845 15.127 16.155 18.792 15.162 14.932 14.815 14.737 14.672 14.95 15.367 15.73 16.54 16.57 15.862 15.747 16.755 17.12 15.875 18.757 18.685 18.55 18.34 18.147 17.93 17.722 17.497 14.59 13.215 13.065 12.955 12.912 12.85 12.89 13.212 13.19 13.235 13.205 13.295 13.26 13.192 13.137 12.957 12.94 12.9 12.73 12.46 12.525 12.627 12.697 13.955 14.352 14.698 11.7 11.585 11.575 11.738 16.793 18.828 18.633 18.43 18.233 18.055 17.693 15.435 16.295 15.503 14.72 14.26 13.485 14.138 13.698 11.923 11.583 11.5 14.005 14.04 12.53
9.027 9.992 8.812 8.567 8.789 8.954 9.514 8.277 8.634 9.329 7.657 8.107 8.024 7.917 7.922 7.972 7.947 7.929 7.872 7.857 7.814 7.804 7.819 7.797 7.774 7.752 7.759 7.739 7.732 7.689 7.689 7.674 7.669 7.607 7.584 7.557 7.532 7.514 7.499 7.457 7.424 7.397 7.377 7.309 7.287 7.199 7.182 7.174 7.122 7.092 7.074 7.062 7.027 6.997 6.997 6.957 6.924 6.919 6.902 6.887 6.887 6.837 6.774 6.732 6.649 6.552 6.547 6.527 6.672 7.387 7.107 6.717 6.374 6.289 6.272 6.252 6.177 6.129 6.102 6.082 6.049 6.022 6.029 6.077 6.129 6.159 6.189 6.212 6.164 6.194 6.167 6.152 6.187 6.209 6.267 6.302 6.407 6.499 6.599 6.717 6.847 6.942 7.009 7.132 7.237 7.364 7.482 7.594 7.729 7.827 7.877 7.962 8.019 8.069 8.167 8.199 8.289 8.462 8.837 9.054 9.132 9.127 9.317 9.414 9.502 9.594 9.622 9.707 9.794 9.892 10.004 10.107 10.217 10.259 10.354 10.442 10.557 10.659 10.797 10.874 10.962 11.057 11.139 11.244 11.329 11.407 11.469 11.509 11.644 12.067 12.809 12.212 11.637 11.722 11.744 11.807 11.902 13.502 12.899 12.509 12.577 12.672 12.754 12.844 12.932 13.012 13.072 13.299 13.227 15.172 14.362 14.362 13.772 14.572 14.899 14.224 14.302 15.697 16.189 16.189 16.577 14.797 14.252 14.334 14.372 14.432 14.497 14.639 14.474 14.469 14.969 15.422 14.839 14.909 15.597 15.754 15.959 15.752 15.889 15.969 16.112 16.482 16.549 16.829 17.079 16.762 16.887 16.444 16.527 16.144 16.284 16.224 16.292 16.322 16.374 16.367 16.322 16.374 16.409 16.484 16.567 16.557 16.532 16.552 16.549 16.574 16.599 16.637 16.649 16.639 16.639 16.659 16.679 16.712 16.749 16.769 16.814 16.817 16.844 16.819 16.832 16.749 16.687 16.657 16.635 16.672 16.835 16.992 17.035 17.007 16.99 17.015 17.042 17.027 16.795 16.882 16.837 16.772 16.767 16.997 17.615 18.39 18.207 17.972 19.935 16.527 16.212 16.35 16.185 16.182 16.222 16.255 16.282 16.335 16.38 16.44 16.502 16.537 16.547 16.567 16.602 16.62 16.66 16.687 16.73 16.755 16.755 16.75 16.732 16.73 16.695 16.707 16.725 16.687 16.665 16.67 16.692 16.672 16.605 16.6 16.65 16.717 16.762 17.352 17.11 16.902 17.195 19.28 18.12 16.55 17.65 21.887 21.705 22.077 20.45 17.417 17.937 18.622 18.01 17.412 18.535 17.707 18.317 18.65 18.595 18.81 19.12 18.455 17.567 16.93 17.805 18.435 18.042 16.72 16.31 16.995 16.7 18.12 16.775 16.105 15.925 16.252 16.187 16.527 16.567 15.935 15.525 16.017 15.032 14.622 13.847 13.64 14.512 14.325 13.07 12.817 12.635 14.44 16.882 16.735 14.707 11.435 11.475 11.47 11.42 11.747 12.16 12.28 12.377 12.51 12.697 12.855 13.04 13.19 13.325 13.537 13.902 13.815 13.63 14.757 14.127 14.025 14.14 14.185 14.237 14.352 14.465 14.525 14.6 15.3 15.94 17.31 14.58 14.687 15.705 15.645 14.74 14.6 14.457 14.73 14.895 16.147 16.815 17.007 17.175 17.4 17.582 17.8 18 16.78 17.272 17.942 17.755 17.57 17.247 16.55 15.59 13.867 13.632 13.172 12.957 12.877 12.915 13.06 13.462 14.145 13.332 13.132 13.187 13.025 12.995 13.022 12.987 12.747 12.65 12.627 13.2 14.285 14.767 15.085 15.31 15.49 15.662 15.855 12.15 11.365 11.47 12.125 15.138 18.038 16.598 15.408 13.963 12.965 11.948 12.04 14.338 14.078 13.585 12.53 12.528 12.703 12.003 12.03 11.42 11.205 11.66 15.358 11.71
