ncols 454
nrows 31
xllcorner    462040
yllcorner    85480
cellsize     2
NODATA_value -9999
36.993 36.99 36.998 37 36.988 37.008 37.015 37.018 37.018 37.033 37.033 37.013 36.993 36.945 36.908 36.885 36.9 36.89 36.918 36.89 36.875 36.84 36.82 36.785 36.773 36.75 36.695 36.648 36.605 36.6 36.593 36.578 36.55 36.525 36.523 36.508 36.48 36.52 36.515 36.54 36.52 36.613 36.68 36.67 36.665 36.728 36.693 36.688 36.653 36.648 36.655 36.69 36.655 36.648 36.633 36.633 36.683 36.715 36.715 36.663 36.69 36.745 36.76 36.753 36.798 36.76 36.798 36.833 36.873 36.885 36.92 36.91 36.93 36.965 37 37.003 36.995 36.995 37.015 37.01 36.998 36.998 37.02 37.033 37.05 37.045 37.04 37.05 37.04 37.028 37.01 37.033 37.008 37.01 37.008 36.948 36.978 36.913 36.928 36.943 36.908 36.915 36.883 36.903 36.923 36.925 36.925 36.893 36.913 36.905 36.903 36.89 36.87 36.893 36.905 36.905 36.945 36.943 36.963 37 36.99 37.035 37.023 37 36.97 36.998 37.038 37.068 37.123 37.155 37.21 37.253 37.265 37.338 37.385 37.423 37.473 37.533 37.568 37.638 37.68 37.725 37.79 37.805 37.845 37.868 37.88 37.938 37.97 38.005 38.058 38.078 38.133 38.183 38.27 38.51 38.643 38.66 38.678 38.73 38.733 38.798 38.763 38.783 38.813 38.885 38.935 39.035 39.125 39.22 39.318 39.413 39.525 39.61 39.708 39.758 39.848 39.885 39.915 39.95 40.015 40.123 40.21 40.283 40.328 40.42 40.543 40.635 40.77 40.848 40.93 41.043 41.12 41.248 41.303 41.42 41.498 41.615 41.72 41.86 41.985 42.08 42.215 42.33 42.46 42.583 42.723 42.838 42.98 43.118 43.225 43.37 43.535 43.665 43.78 43.913 44.058 44.2 44.318 44.478 44.643 44.825 44.945 45.073 45.27 45.415 45.565 45.683 45.858 46.025 46.188 46.34 46.523 46.68 46.84 47.013 47.185 47.333 47.483 47.623 47.763 47.928 48.083 48.223 48.328 48.453 48.558 48.645 48.743 48.86 48.973 49.085 49.188 49.288 49.37 49.478 49.545 49.68 49.773 49.84 49.94 50.005 50.09 50.185 50.275 50.338 50.398 50.468 50.563 50.64 50.703 50.743 50.795 50.855 50.873 50.925 50.998 51.04 51.07 51.13 51.126 51.106 51.101 51.013 51.006 50.961 51.018 51.041 50.988 50.971 50.961 50.956 50.951 50.938 50.908 50.833 50.788 50.713 50.628 50.588 50.576 50.543 50.528 50.591 50.548 50.503 50.421 50.368 50.346 50.288 50.281 50.263 50.333 50.321 49.891 48.221 46.516 46.378 45.768 45.611 45.966 45.338 45.193 44.451 42.753 41.046 41.438 41.471 40.171 39.791 39.221 38.838 37.776 36.888 36.356 36.088 35.848 35.601 35.198 34.978 35.178 35.186 35.566 36.048 36.261 36.071 36.608 39.198 40.071 40.718 41.951 42.093 40.203 40.871 41.341 39.816 39.331 39.456 40.261 40.866 42.918 45.543 47.881 49.533 49.541 49.136 49.091 49.673 50.068 50.103 50.268 50.723 50.733 50.696 50.708 50.783 50.361 49.873 50.056 50.523 50.858 50.771 50.788 51.858 52.641 53.538 54.268 54.383 54.578 54.736 54.796 54.916 54.996 55.198 55.336 55.541 55.763 55.966 56.198 56.456 56.706 57.006 57.206 57.481 57.693 57.913 58.223 58.213 58.446 58.216 56.631 54.608 53.243 52.118 50.621 49.688 48.578 47.351 46.208 45.053 44.488 43.441 42.428 41.743 41.353 41.291 41.191 41.383 41.461 41.496 41.628 41.938 42.368 43.238 44.546 44.836 45.161 45.871 46.428 46.966 47.131 47.361 47.573 47.568 47.806 48.428 49.688 50.778 51.298 51.086 50.956 51.461 52.251 53.193
37.17 37.158 37.158 37.17 37.178 37.19 37.19 37.203 37.208 37.215 37.2 37.168 37.143 37.105 37.063 37.07 37.07 37.085 37.095 37.083 37.043 37.038 37.023 36.985 36.955 36.948 36.895 36.87 36.828 36.785 36.763 36.735 36.728 36.728 36.768 36.725 36.7 36.72 36.725 36.723 36.723 36.815 36.853 36.875 36.855 36.933 36.883 36.868 36.843 36.88 36.885 36.89 36.86 36.843 36.84 36.813 36.888 36.9 36.925 36.913 36.928 36.94 36.968 36.978 36.993 37.018 37.033 37.048 37.083 37.1 37.098 37.115 37.143 37.18 37.22 37.23 37.218 37.235 37.213 37.215 37.195 37.22 37.22 37.273 37.248 37.258 37.27 37.278 37.245 37.243 37.245 37.25 37.228 37.205 37.18 37.175 37.15 37.14 37.14 37.123 37.088 37.108 37.07 37.083 37.093 37.093 37.075 37.073 37.075 37.055 37.103 37.02 37.053 37.06 37.023 37.033 37.043 37.063 37.073 37.103 37.125 37.113 37.115 37.083 37.048 37.063 37.115 37.113 37.17 37.223 37.235 37.303 37.325 37.388 37.425 37.46 37.5 37.543 37.635 37.698 37.748 37.78 37.805 37.825 37.833 37.878 37.91 37.945 38.015 38.008 38.063 38.133 38.295 38.408 38.558 38.63 38.585 38.578 38.625 38.68 38.683 38.678 38.725 38.755 38.79 38.883 38.943 39.045 39.16 39.225 39.358 39.43 39.518 39.648 39.725 39.788 39.83 39.875 39.93 39.955 40.01 40.125 40.233 40.298 40.355 40.425 40.518 40.635 40.743 40.838 40.923 41.045 41.145 41.268 41.34 41.473 41.563 41.663 41.743 41.848 41.94 42.073 42.185 42.32 42.453 42.578 42.738 42.895 43.018 43.135 43.26 43.39 43.528 43.655 43.783 43.945 44.095 44.255 44.375 44.533 44.713 44.878 45.003 45.175 45.338 45.483 45.633 45.763 45.888 46.045 46.198 46.363 46.558 46.7 46.848 47.008 47.17 47.31 47.455 47.593 47.78 47.933 48.095 48.225 48.355 48.463 48.555 48.648 48.758 48.845 48.928 49.033 49.138 49.243 49.335 49.428 49.518 49.618 49.71 49.773 49.838 49.9 49.98 50.035 50.123 50.195 50.273 50.34 50.418 50.473 50.548 50.588 50.628 50.66 50.705 50.743 50.773 50.825 50.825 50.885 50.883 50.876 50.878 50.856 50.828 50.823 50.791 50.843 50.851 50.841 50.798 50.771 50.733 50.703 50.656 50.588 50.533 50.458 50.411 50.323 50.278 50.278 50.261 50.243 50.188 50.131 50.066 50.028 49.953 49.906 49.918 49.891 49.766 48.956 47.558 46.416 45.483 45.091 44.968 44.806 44.823 44.761 43.921 42.378 41.278 40.013 39.243 40.318 39.073 39.008 38.278 38.091 36.671 35.498 34.761 34.331 34.191 34.033 33.636 33.303 33.041 32.708 32.398 32.538 32.683 32.896 32.891 32.936 33.311 34.306 34.651 34.793 35.501 37.218 36.996 35.468 35.111 35.003 35.596 36.726 37.913 40.418 42.163 44.536 45.371 46.068 46.343 46.668 46.911 46.598 46.666 46.916 47.261 47.451 47.521 47.471 46.911 46.736 46.728 47.033 47.143 47.391 47.718 48.233 48.961 50.253 52.046 52.763 53.196 53.688 54.088 54.396 54.606 54.771 54.931 55.148 55.266 55.443 55.698 55.943 56.153 56.508 56.716 56.836 56.581 55.546 55.146 54.483 54.921 53.511 51.078 49.736 49.848 49.201 47.871 46.973 46.328 45.228 44.048 43.106 42.166 40.711 39.418 38.991 39.026 39.231 39.451 39.846 39.993 39.973 40.078 40.511 40.941 41.263 42.038 42.921 43.428 44.128 44.576 45.106 45.211 45.258 45.438 45.616 46.066 46.676 47.946 48.943 49.101 48.988 48.946 49.256 49.728 50.231
37.348 37.323 37.365 37.34 37.348 37.35 37.358 37.36 37.383 37.395 37.38 37.368 37.353 37.305 37.27 37.243 37.285 37.303 37.275 37.278 37.245 37.223 37.248 37.198 37.148 37.133 37.108 37.095 37.038 37.018 36.98 36.963 36.975 36.975 36.94 36.955 36.975 36.953 36.97 36.95 36.99 37.043 37.088 37.048 37.1 37.105 37.075 37.058 37.073 37.078 37.093 37.058 37.068 37.048 37.05 37.035 37.105 37.118 37.125 37.113 37.115 37.135 37.15 37.18 37.205 37.213 37.238 37.285 37.295 37.305 37.308 37.313 37.343 37.403 37.438 37.453 37.43 37.438 37.428 37.443 37.433 37.44 37.438 37.483 37.463 37.49 37.463 37.468 37.458 37.458 37.46 37.435 37.44 37.433 37.388 37.373 37.353 37.33 37.348 37.303 37.305 37.315 37.285 37.29 37.263 37.26 37.255 37.233 37.24 37.245 37.228 37.213 37.215 37.195 37.195 37.165 37.185 37.208 37.193 37.203 37.18 37.218 37.188 37.168 37.12 37.165 37.168 37.203 37.253 37.283 37.31 37.318 37.385 37.43 37.485 37.5 37.6 37.67 37.715 37.735 37.748 37.768 37.815 37.863 37.883 37.895 37.92 37.953 38.05 38.138 38.258 38.67 38.485 38.545 38.453 38.535 38.52 38.553 38.58 38.59 38.64 38.685 38.738 38.783 38.843 38.898 38.98 39.085 39.158 39.263 39.403 39.473 39.615 39.688 39.74 39.745 39.823 39.875 39.943 40.005 40.055 40.165 40.268 40.35 40.415 40.475 40.57 40.67 40.745 40.828 40.928 41.04 41.14 41.21 41.335 41.483 41.618 41.708 41.82 41.915 41.993 42.09 42.218 42.325 42.43 42.575 42.72 42.883 43.03 43.178 43.31 43.445 43.553 43.673 43.808 43.955 44.118 44.26 44.42 44.593 44.758 44.898 45.07 45.218 45.38 45.53 45.673 45.82 45.95 46.085 46.238 46.375 46.55 46.695 46.868 47.005 47.155 47.315 47.453 47.575 47.71 47.893 48.053 48.195 48.335 48.445 48.548 48.648 48.748 48.818 48.893 48.993 49.09 49.213 49.265 49.335 49.4 49.523 49.615 49.685 49.74 49.798 49.84 49.943 50.03 50.055 50.123 50.19 50.263 50.315 50.38 50.453 50.478 50.515 50.543 50.553 50.56 50.583 50.613 50.635 50.641 50.643 50.636 50.633 50.643 50.661 50.631 50.613 50.641 50.636 50.616 50.588 50.506 50.466 50.386 50.308 50.236 50.161 50.078 50.038 50.013 49.973 49.928 49.856 49.811 49.771 49.628 49.613 49.581 49.576 49.526 49.431 48.633 47.488 46.386 45.188 44.188 43.663 43.528 43.386 43.096 42.676 42.563 42.783 42.303 39.703 38.673 38.826 37.861 37.841 38.368 37.343 36.348 34.741 33.516 32.793 32.596 32.508 32.223 31.823 31.548 31.108 30.706 30.298 29.956 30.071 30.083 29.978 31.098 32.138 32.181 32.133 32.533 32.646 31.646 31.978 32.488 32.738 32.216 32.501 33.576 34.391 36.421 37.353 38.343 39.841 41.313 41.843 42.858 43.258 43.136 43.463 43.981 43.808 43.851 43.886 43.891 43.686 43.726 43.818 43.813 44.196 45.011 45.723 46.966 47.551 48.326 49.518 50.521 51.693 52.628 53.528 53.808 53.956 53.721 53.811 54.268 54.798 55.081 55.378 55.616 55.798 55.681 54.926 53.033 50.681 49.848 48.803 48.293 47.536 47.248 47.091 47.081 46.546 44.888 44.301 43.723 42.586 41.403 40.916 39.658 38.141 37.343 37.098 37.271 37.711 38.098 38.381 38.473 38.451 38.608 38.841 39.408 39.831 40.283 40.893 41.588 42.393 42.856 43.353 43.296 43.338 43.598 43.938 44.363 44.828 45.633 46.781 47.098 46.916 46.903 47.276 47.501 47.671
37.518 37.53 37.54 37.513 37.523 37.525 37.513 37.513 37.543 37.538 37.538 37.52 37.533 37.488 37.423 37.468 37.45 37.478 37.46 37.47 37.43 37.418 37.378 37.368 37.335 37.308 37.275 37.218 37.213 37.215 37.195 37.168 37.16 37.158 37.153 37.155 37.183 37.183 37.215 37.235 37.27 37.288 37.283 37.295 37.34 37.333 37.278 37.298 37.293 37.28 37.283 37.278 37.278 37.28 37.26 37.285 37.343 37.325 37.318 37.325 37.345 37.36 37.375 37.405 37.398 37.423 37.438 37.505 37.51 37.53 37.505 37.525 37.57 37.623 37.64 37.658 37.648 37.655 37.643 37.638 37.638 37.65 37.675 37.675 37.695 37.668 37.695 37.675 37.67 37.66 37.68 37.65 37.663 37.623 37.6 37.58 37.573 37.535 37.548 37.505 37.503 37.495 37.493 37.455 37.458 37.448 37.44 37.41 37.41 37.413 37.395 37.35 37.345 37.34 37.35 37.328 37.325 37.323 37.333 37.303 37.338 37.305 37.278 37.253 37.243 37.258 37.253 37.265 37.295 37.338 37.365 37.378 37.443 37.5 37.558 37.62 37.67 37.703 37.728 37.768 37.815 37.81 37.815 37.828 37.883 38.008 38.133 38.313 38.343 38.998 38.448 38.615 38.378 38.418 38.343 38.44 38.48 38.485 38.51 38.573 38.655 38.7 38.745 38.778 38.855 38.913 38.995 39.105 39.215 39.343 39.428 39.505 39.598 39.698 39.755 39.765 39.833 39.87 39.963 40.033 40.093 40.175 40.285 40.405 40.49 40.53 40.608 40.728 40.793 40.868 40.955 41.053 41.135 41.198 41.338 41.5 41.643 41.745 41.84 41.935 42.015 42.118 42.24 42.363 42.485 42.6 42.748 42.875 43.05 43.195 43.325 43.473 43.588 43.728 43.853 43.975 44.113 44.288 44.45 44.62 44.768 44.938 45.11 45.258 45.398 45.58 45.718 45.863 45.995 46.14 46.275 46.408 46.57 46.698 46.875 47.028 47.15 47.293 47.428 47.56 47.678 47.875 48.015 48.14 48.26 48.398 48.48 48.638 48.738 48.818 48.873 48.94 49.028 49.14 49.21 49.273 49.365 49.428 49.503 49.573 49.63 49.66 49.783 49.858 49.913 49.958 49.995 50.043 50.115 50.133 50.175 50.233 50.27 50.295 50.303 50.343 50.38 50.408 50.448 50.428 50.461 50.466 50.458 50.466 50.446 50.473 50.446 50.436 50.441 50.418 50.393 50.346 50.261 50.181 50.108 50.051 49.983 49.876 49.886 49.858 49.768 49.661 49.601 49.493 49.301 48.741 48.371 48.141 47.893 48.103 48.406 47.766 46.973 46.103 45.403 44.156 42.863 42.171 41.968 41.928 41.453 41.093 41.173 41.533 41.448 40.011 39.526 38.901 37.516 37.861 37.528 35.658 34.968 34.258 33.001 31.726 31.268 30.958 30.866 30.528 29.988 29.603 29.123 28.751 28.323 28.123 27.553 27.696 28.551 29.363 29.671 29.736 28.878 28.821 28.853 29.138 29.566 30.313 30.043 30.026 30.038 30.568 32.518 33.581 34.046 34.131 34.048 35.086 36.263 38.428 38.826 39.618 40.518 40.286 40.046 40.008 40.538 41.106 41.348 41.491 41.593 41.946 42.866 43.806 44.301 44.858 45.621 46.308 47.131 48.168 50.173 50.366 49.338 49.161 49.936 50.376 51.153 51.846 52.666 53.458 53.776 53.366 52.398 51.378 49.626 47.393 45.496 44.566 44.113 43.698 43.838 43.946 43.391 42.783 42.051 41.811 41.216 39.933 38.851 38.148 37.113 35.861 35.353 35.488 35.803 36.231 36.681 36.883 36.901 36.901 37.078 37.336 37.936 38.488 38.806 39.346 39.956 40.671 41.126 41.476 41.446 41.493 41.771 42.071 42.471 42.798 43.536 44.488 44.831 44.861 44.786 44.858 44.831 44.978
37.685 37.68 37.675 37.695 37.688 37.71 37.718 37.71 37.693 37.723 37.713 37.718 37.713 37.673 37.64 37.655 37.653 37.633 37.655 37.648 37.62 37.623 37.593 37.568 37.533 37.513 37.49 37.44 37.415 37.395 37.405 37.395 37.388 37.38 37.363 37.36 37.39 37.418 37.415 37.463 37.428 37.475 37.483 37.513 37.565 37.5 37.475 37.515 37.51 37.498 37.52 37.49 37.48 37.475 37.478 37.508 37.543 37.533 37.535 37.543 37.565 37.593 37.578 37.605 37.625 37.635 37.673 37.693 37.705 37.718 37.725 37.753 37.798 37.833 37.853 37.848 37.86 37.838 37.87 37.833 37.853 37.843 37.873 37.89 37.908 37.885 37.9 37.903 37.875 37.893 37.903 37.875 37.848 37.828 37.793 37.803 37.763 37.733 37.743 37.713 37.688 37.7 37.678 37.665 37.648 37.653 37.618 37.623 37.608 37.598 37.563 37.508 37.518 37.508 37.498 37.47 37.465 37.45 37.448 37.445 37.453 37.425 37.373 37.36 37.35 37.335 37.308 37.338 37.385 37.418 37.438 37.47 37.535 37.58 37.593 37.645 37.685 37.695 37.745 37.805 37.788 37.78 37.85 38.013 38.125 38.31 38.398 38.463 38.623 38.483 38.338 38.325 38.333 38.348 38.378 38.405 38.438 38.475 38.535 38.608 38.668 38.7 38.75 38.815 38.87 38.96 39.073 39.193 39.26 39.355 39.455 39.535 39.635 39.708 39.785 39.823 39.84 39.888 39.953 40.043 40.088 40.143 40.253 40.365 40.52 40.578 40.648 40.725 40.783 40.878 40.983 41.088 41.16 41.243 41.37 41.485 41.61 41.73 41.85 41.96 42.053 42.185 42.25 42.39 42.503 42.683 42.825 42.955 43.113 43.243 43.405 43.503 43.605 43.748 43.878 44.005 44.173 44.325 44.485 44.648 44.815 44.955 45.118 45.273 45.41 45.588 45.763 45.873 46.005 46.175 46.348 46.443 46.58 46.73 46.875 47.058 47.188 47.33 47.405 47.568 47.673 47.813 47.955 48.093 48.218 48.335 48.445 48.535 48.633 48.745 48.808 48.925 49.01 49.075 49.165 49.208 49.283 49.333 49.4 49.478 49.515 49.565 49.67 49.753 49.783 49.82 49.868 49.903 49.94 49.943 49.973 50.038 50.048 50.098 50.115 50.148 50.188 50.223 50.275 50.288 50.296 50.301 50.286 50.256 50.258 50.241 50.226 50.211 50.173 50.171 50.146 50.116 50.031 49.928 49.843 49.753 49.726 49.743 49.638 49.601 49.503 49.391 49.293 49.046 48.208 47.716 47.311 46.776 46.511 46.628 46.638 46.213 45.413 44.391 43.696 42.823 41.911 41.036 40.648 40.518 40.091 39.633 39.511 39.568 39.811 39.678 39.768 39.283 38.931 38.123 36.936 35.136 33.896 33.103 32.601 31.181 30.836 30.233 29.501 29.398 29.046 28.378 27.936 27.361 26.913 26.261 25.136 25.183 25.643 26.586 27.058 26.676 26.656 26.913 27.051 27.081 27.021 27.391 28.068 28.198 28.623 28.823 28.883 29.746 30.388 30.913 30.826 30.986 32.223 33.133 33.763 34.971 34.936 35.551 36.011 37.133 38.316 39.171 39.186 39.241 39.396 40.038 40.866 41.636 41.848 42.023 42.806 43.736 44.488 45.636 45.851 45.743 45.853 46.521 47.163 47.588 48.181 49.253 50.013 50.451 50.063 49.213 47.761 46.611 45.616 44.273 42.193 41.023 40.496 40.318 40.378 40.348 39.348 39.616 39.413 39.306 38.368 36.971 36.241 35.438 34.638 33.538 33.683 34.051 34.421 34.936 35.363 35.476 35.323 35.248 35.461 35.686 36.348 36.788 37.168 37.683 38.058 38.761 39.083 39.473 39.523 39.428 39.828 40.198 40.331 40.653 41.221 41.956 42.326 42.661 42.756 42.921 42.963 42.863
37.793 37.81 37.825 37.835 37.855 37.85 37.838 37.833 37.828 37.848 37.878 37.875 37.85 37.813 37.828 37.805 37.83 37.84 37.8 37.773 37.798 37.79 37.755 37.723 37.675 37.655 37.648 37.625 37.61 37.61 37.608 37.575 37.593 37.578 37.565 37.575 37.603 37.63 37.598 37.623 37.695 37.713 37.71 37.78 37.78 37.74 37.683 37.715 37.73 37.738 37.7 37.698 37.673 37.695 37.71 37.74 37.765 37.785 37.783 37.805 37.788 37.818 37.82 37.835 37.853 37.848 37.893 37.923 37.963 37.94 37.945 37.953 38.01 38.038 38.048 38.05 38.078 38.053 38.083 38.063 38.055 38.045 38.078 38.058 38.105 38.11 38.09 38.113 38.083 38.088 38.095 38.065 38.05 38.033 38.008 38.013 37.958 37.963 37.95 37.918 37.88 37.9 37.883 37.868 37.843 37.84 37.818 37.775 37.778 37.775 37.72 37.72 37.7 37.675 37.673 37.67 37.598 37.593 37.578 37.575 37.57 37.535 37.475 37.43 37.448 37.408 37.42 37.44 37.493 37.525 37.52 37.555 37.585 37.63 37.648 37.7 37.693 37.69 38.463 38.483 38.023 38.06 38.105 38.253 38.293 38.363 38.393 38.303 38.298 38.293 38.293 38.268 38.298 38.318 38.388 38.43 38.48 38.52 38.588 38.648 38.67 38.708 38.765 38.848 38.953 39.073 39.133 39.22 39.313 39.425 39.528 39.605 39.703 39.778 39.843 39.858 39.853 39.923 39.973 40.06 40.153 40.215 40.303 40.395 40.528 40.608 40.683 40.725 40.828 40.89 40.993 41.118 41.208 41.313 41.418 41.515 41.64 41.745 41.86 41.98 42.068 42.173 42.293 42.405 42.518 42.683 42.81 42.973 43.128 43.288 43.448 43.573 43.67 43.81 43.918 44.045 44.193 44.35 44.525 44.67 44.845 44.983 45.14 45.283 45.42 45.588 45.75 45.898 46.028 46.16 46.338 46.47 46.613 46.763 46.903 47.028 47.168 47.298 47.41 47.555 47.675 47.808 47.943 48.035 48.168 48.278 48.408 48.495 48.593 48.658 48.71 48.798 48.913 48.995 49.088 49.165 49.238 49.288 49.32 49.338 49.39 49.48 49.545 49.59 49.633 49.655 49.673 49.725 49.775 49.773 49.818 49.88 49.91 49.945 49.98 49.98 50.013 50.033 50.048 50.068 50.078 50.083 50.091 50.068 50.061 50.041 49.993 49.961 49.956 49.948 49.908 49.823 49.738 49.661 49.601 49.571 49.533 49.478 49.373 49.301 49.226 49.118 49.018 48.396 47.686 47.271 46.741 46.126 45.818 45.888 45.686 45.348 44.613 43.443 42.461 41.748 41.236 40.543 39.781 39.366 38.993 38.371 38.048 38.073 38.256 38.523 38.766 38.426 38.446 37.516 36.091 34.088 32.403 32.451 32.306 31.298 31.356 30.591 29.476 28.758 28.643 27.531 26.813 26.173 25.563 24.218 23.718 23.598 23.691 23.938 24.178 24.311 24.868 25.163 25.413 25.551 25.588 25.818 26.508 26.928 27.443 27.641 27.593 27.838 28.406 29.071 29.508 29.691 29.818 30.511 31.683 32.913 33.408 33.496 33.966 34.876 36.166 36.798 36.816 36.973 37.323 38.243 39.118 39.401 39.671 39.778 39.926 40.866 41.841 42.448 42.531 42.383 42.821 43.698 44.526 44.888 45.433 46.136 46.761 46.596 45.491 43.881 41.936 41.013 40.681 40.173 38.956 38.071 37.533 37.156 36.836 36.083 36.151 36.666 36.903 36.573 34.588 33.493 33.301 32.176 31.266 31.456 32.038 32.623 33.258 33.791 34.048 33.981 33.803 33.681 33.631 33.983 34.576 34.921 35.431 36.088 36.438 37.001 37.141 37.483 37.503 37.523 37.811 38.123 38.233 38.528 38.953 39.466 39.853 40.198 40.713 41.198 41.443 41.338
37.893 37.89 37.925 37.935 37.97 37.935 37.973 37.963 37.985 37.998 38.033 38.023 38.033 37.993 37.98 37.963 37.973 37.978 37.965 37.965 37.953 37.963 37.905 37.915 37.885 37.873 37.855 37.823 37.783 37.798 37.793 37.818 37.795 37.795 37.815 37.818 37.815 37.818 37.83 37.82 37.943 37.968 37.968 37.98 37.98 37.938 37.933 37.95 37.94 37.95 37.94 37.915 37.91 37.905 37.93 37.98 38.008 37.998 38.01 38.015 38.03 38.005 38.048 38.083 38.103 38.063 38.13 38.138 38.163 38.14 38.153 38.165 38.193 38.223 38.238 38.26 38.248 38.275 38.283 38.283 38.258 38.233 38.268 38.32 38.3 38.323 38.313 38.318 38.293 38.295 38.288 38.295 38.23 38.238 38.205 38.188 38.15 38.135 38.12 38.103 38.095 38.093 38.088 38.05 38.05 38.038 38.025 37.968 37.955 37.903 37.893 37.888 37.85 37.82 37.823 37.775 37.725 37.705 37.708 37.68 37.69 37.628 37.563 37.56 37.553 37.538 37.533 37.568 37.588 37.603 37.598 37.61 37.645 37.693 37.72 37.7 37.748 37.98 39.84 38.89 38.255 38.253 38.285 38.2 38.263 38.19 38.21 38.218 38.233 38.225 38.243 38.273 38.338 38.403 38.44 38.498 38.52 38.555 38.593 38.65 38.728 38.778 38.853 38.92 39.033 39.11 39.18 39.255 39.348 39.483 39.573 39.66 39.79 39.83 39.825 39.84 39.865 39.968 40.015 40.123 40.17 40.268 40.338 40.438 40.553 40.658 40.735 40.758 40.83 40.93 41.003 41.075 41.218 41.338 41.435 41.548 41.675 41.785 41.905 42.008 42.075 42.195 42.31 42.42 42.53 42.723 42.853 43.018 43.16 43.315 43.483 43.6 43.73 43.86 44.005 44.12 44.245 44.395 44.553 44.693 44.855 45 45.14 45.288 45.438 45.58 45.735 45.865 46.028 46.188 46.343 46.47 46.615 46.748 46.875 47.058 47.16 47.273 47.403 47.525 47.645 47.773 47.895 48.02 48.108 48.235 48.345 48.443 48.515 48.555 48.653 48.735 48.8 48.873 48.948 49.035 49.108 49.178 49.215 49.273 49.33 49.38 49.405 49.46 49.49 49.508 49.56 49.573 49.613 49.638 49.68 49.748 49.793 49.838 49.85 49.85 49.855 49.86 49.855 49.85 49.826 49.816 49.836 49.836 49.798 49.826 49.791 49.778 49.733 49.703 49.661 49.568 49.478 49.423 49.453 49.323 49.241 49.163 49.068 49.008 48.941 48.831 48.706 48.291 47.566 46.988 46.448 45.861 45.528 45.586 44.998 44.358 43.731 42.783 41.848 41.206 40.721 39.943 38.996 38.191 37.751 37.393 36.641 36.666 36.763 36.871 36.843 36.811 36.883 36.183 34.501 33.091 31.771 32.016 32.358 31.636 31.221 30.003 28.973 28.591 27.648 26.326 25.518 24.776 24.043 22.858 22.238 22.091 22.116 22.231 22.503 22.841 23.398 23.826 23.903 24.126 24.323 24.491 25.103 25.526 26.111 26.581 26.811 26.693 27.016 27.461 28.276 28.918 28.601 28.958 29.643 30.961 31.591 31.646 31.863 32.271 33.356 33.986 34.176 34.713 35.623 36.613 37.333 37.508 37.746 37.683 37.718 38.238 38.576 39.093 39.381 39.721 40.413 41.131 41.806 42.191 42.621 43.241 43.681 42.571 40.693 38.996 37.816 37.063 36.811 36.521 36.338 35.723 34.908 34.301 33.508 33.246 33.453 33.443 33.058 31.558 31.031 30.071 29.333 29.196 29.556 30.066 30.578 31.216 31.833 32.378 32.553 32.401 32.238 32.158 32.081 32.123 32.463 33.018 33.761 34.458 34.971 35.161 35.386 35.438 35.566 35.633 35.831 36.188 36.541 36.771 37.163 37.628 37.861 38.136 38.756 39.533 40.041 39.948
38.033 38.063 38.058 38.08 38.085 38.085 38.083 38.1 38.12 38.14 38.15 38.13 38.135 38.11 38.105 38.115 38.13 38.158 38.125 38.075 38.088 38.125 38.085 38.078 38.085 38.048 38.04 38.01 37.993 38.013 37.988 38.003 38.005 38.015 38.028 38.003 38.033 38.043 38.075 38.11 38.145 38.168 38.203 38.213 38.183 38.17 38.158 38.195 38.19 38.17 38.145 38.123 38.128 38.14 38.178 38.2 38.225 38.2 38.208 38.235 38.263 38.255 38.29 38.295 38.293 38.278 38.323 38.343 38.338 38.34 38.333 38.383 38.418 38.468 38.455 38.483 38.463 38.46 38.485 38.493 38.455 38.473 38.493 38.513 38.508 38.53 38.508 38.49 38.5 38.515 38.483 38.483 38.435 38.433 38.403 38.373 38.358 38.363 38.323 38.313 38.3 38.288 38.28 38.238 38.235 38.223 38.198 38.145 38.138 38.098 38.065 38.043 38.043 38.003 37.928 37.895 37.838 37.828 37.838 37.79 37.763 37.753 37.693 37.675 37.65 37.645 37.63 37.653 37.66 37.68 37.723 37.743 37.71 37.713 37.738 37.875 37.988 38.61 38.958 38.38 38.438 38.25 38.153 38.188 38.173 38.158 38.185 38.215 38.22 38.245 38.288 38.358 38.405 38.438 38.48 38.535 38.585 38.615 38.643 38.69 38.795 38.868 38.98 39.065 39.11 39.155 39.258 39.318 39.41 39.565 39.653 39.723 39.798 39.813 39.813 39.81 39.868 39.99 40.035 40.145 40.198 40.308 40.388 40.473 40.585 40.68 40.803 40.87 40.908 40.98 41.058 41.115 41.235 41.313 41.415 41.533 41.653 41.788 41.928 42.038 42.105 42.235 42.34 42.445 42.578 42.738 42.888 43.033 43.185 43.368 43.528 43.665 43.778 43.928 44.033 44.15 44.275 44.465 44.625 44.765 44.915 45.035 45.158 45.293 45.42 45.575 45.743 45.855 46.033 46.168 46.325 46.458 46.583 46.725 46.883 47.018 47.14 47.258 47.378 47.513 47.65 47.738 47.83 47.938 48.035 48.18 48.283 48.355 48.453 48.488 48.57 48.623 48.69 48.76 48.825 48.885 48.958 49 49.038 49.078 49.12 49.203 49.273 49.325 49.378 49.42 49.425 49.475 49.503 49.533 49.563 49.605 49.618 49.633 49.683 49.69 49.69 49.665 49.658 49.648 49.628 49.603 49.581 49.581 49.551 49.546 49.533 49.513 49.488 49.456 49.388 49.303 49.283 49.268 49.163 49.051 48.963 48.908 48.796 48.716 48.663 48.568 48.471 48.191 47.566 46.876 46.163 45.653 45.468 45.098 44.248 43.223 42.598 42.118 41.531 40.921 40.246 39.346 38.343 37.248 36.556 36.316 35.551 35.396 35.396 35.363 35.396 35.503 35.446 35.126 33.991 32.726 31.506 31.208 31.991 31.661 31.033 29.623 28.241 27.778 26.526 25.213 24.036 23.206 22.361 21.431 20.686 20.516 20.653 20.863 21.281 21.653 22.131 22.506 22.478 22.623 22.556 22.748 23.108 23.566 23.746 25.001 25.561 25.043 25.018 25.116 26.536 27.583 27.416 27.266 27.851 28.968 29.638 29.536 29.906 30.338 30.776 31.373 32.163 32.956 33.973 34.598 35.231 35.843 35.876 35.651 35.746 36.061 36.091 36.291 36.848 37.378 38.363 38.866 39.521 40.086 40.438 40.983 40.886 39.576 37.953 36.496 35.513 34.888 34.388 34.056 33.803 33.361 32.873 31.953 31.278 31.223 30.883 30.166 29.171 28.533 28.121 27.493 27.438 27.756 28.258 28.671 29.261 30.073 30.588 30.928 30.973 30.813 30.628 30.641 30.651 30.541 30.681 31.171 31.876 32.631 33.428 33.508 33.373 33.636 33.946 33.941 34.006 34.291 34.793 35.088 35.533 36.081 36.398 36.541 36.956 37.706 38.096 38.171
38.158 38.17 38.203 38.218 38.245 38.238 38.235 38.25 38.273 38.285 38.308 38.295 38.27 38.24 38.22 38.223 38.245 38.305 38.243 38.26 38.248 38.258 38.223 38.238 38.253 38.223 38.21 38.193 38.175 38.2 38.185 38.185 38.213 38.193 38.178 38.215 38.228 38.218 38.26 38.318 38.35 38.385 38.43 38.443 38.398 38.348 38.393 38.405 38.408 38.403 38.368 38.343 38.378 38.365 38.398 38.44 38.443 38.405 38.403 38.443 38.488 38.495 38.523 38.505 38.5 38.525 38.54 38.573 38.54 38.558 38.565 38.595 38.625 38.668 38.663 38.665 38.658 38.673 38.695 38.683 38.64 38.665 38.7 38.718 38.728 38.74 38.728 38.725 38.718 38.718 38.71 38.66 38.643 38.615 38.608 38.56 38.59 38.523 38.533 38.548 38.515 38.463 38.468 38.458 38.45 38.418 38.378 38.36 38.305 38.253 38.23 38.195 38.155 38.103 38.065 38.05 37.983 37.998 37.98 37.95 37.91 37.863 37.818 37.785 37.748 37.74 37.755 37.788 37.78 37.74 37.728 37.808 37.948 37.965 38.088 38.205 38.18 38.368 38.278 38.21 38.188 38.173 38.168 38.158 38.19 38.16 38.185 38.228 38.28 38.333 38.375 38.418 38.485 38.53 38.57 38.633 38.653 38.673 38.73 38.795 38.855 38.905 39.008 39.088 39.11 39.213 39.275 39.31 39.39 39.518 39.638 39.68 39.733 39.785 39.83 39.898 39.858 40.005 40.093 40.178 40.258 40.32 40.423 40.49 40.623 40.663 40.823 40.95 41 41.048 41.13 41.203 41.303 41.398 41.483 41.588 41.69 41.8 41.895 42.033 42.145 42.268 42.393 42.495 42.63 42.78 42.913 43.08 43.24 43.41 43.565 43.69 43.828 43.965 44.088 44.178 44.338 44.518 44.645 44.825 44.983 45.128 45.223 45.335 45.445 45.58 45.738 45.863 46.018 46.175 46.308 46.473 46.603 46.718 46.86 46.99 47.088 47.213 47.35 47.505 47.603 47.715 47.808 47.905 47.98 48.09 48.175 48.26 48.35 48.4 48.485 48.553 48.608 48.635 48.715 48.785 48.848 48.858 48.885 48.923 48.973 49.045 49.113 49.175 49.253 49.34 49.395 49.38 49.46 49.443 49.443 49.448 49.455 49.5 49.49 49.493 49.483 49.478 49.473 49.435 49.416 49.413 49.368 49.356 49.326 49.288 49.261 49.226 49.166 49.126 49.118 49.153 49.101 49.028 48.888 48.806 48.688 48.603 48.531 48.456 48.386 48.313 48.246 48.091 47.928 46.973 46.146 45.588 45.368 44.823 43.998 43.023 42.233 41.731 41.278 40.331 39.346 38.358 37.623 36.496 35.596 35.323 34.871 34.448 34.348 34.126 33.941 34.003 34.103 33.973 32.783 31.761 31.083 30.543 30.723 30.298 29.493 28.776 27.556 27.131 25.423 23.913 22.833 21.848 20.921 20.136 19.361 19.228 19.353 19.681 20.183 20.456 20.661 20.968 20.911 20.821 20.578 20.558 20.978 21.541 22.156 22.828 22.898 22.788 23.051 23.271 23.756 24.566 25.101 25.456 25.861 26.551 27.271 27.716 28.033 28.466 28.821 29.456 30.221 31.143 32.021 32.513 32.998 33.566 33.646 33.361 33.626 33.948 34.056 34.153 34.751 35.451 36.208 36.888 37.621 37.998 37.988 38.046 37.266 36.081 35.228 34.316 33.678 33.118 32.371 31.671 31.711 31.358 31.013 30.398 29.901 29.746 29.271 28.323 27.131 26.378 25.783 25.768 25.991 26.411 26.846 27.316 28.026 28.968 29.566 29.746 29.443 29.206 29.148 29.133 29.123 29.123 29.203 29.338 29.918 30.976 31.726 31.761 31.651 31.803 32.248 32.288 32.338 32.536 32.918 33.356 33.748 34.366 34.853 34.996 35.268 35.883 36.241 36.493
38.258 38.268 38.313 38.325 38.35 38.345 38.36 38.38 38.39 38.435 38.45 38.44 38.445 38.41 38.368 38.378 38.403 38.41 38.385 38.393 38.415 38.383 38.385 38.383 38.363 38.378 38.383 38.365 38.368 38.365 38.39 38.365 38.39 38.378 38.383 38.388 38.4 38.39 38.453 38.495 38.543 38.583 38.63 38.655 38.598 38.58 38.625 38.613 38.633 38.595 38.575 38.593 38.583 38.573 38.613 38.645 38.643 38.635 38.645 38.685 38.695 38.723 38.713 38.71 38.73 38.778 38.818 38.81 38.788 38.795 38.755 38.795 38.835 38.868 38.86 38.85 38.87 38.893 38.865 38.878 38.878 38.868 38.89 38.883 38.915 38.925 38.9 38.905 38.93 38.9 38.913 38.85 38.835 38.818 38.795 38.735 38.755 38.738 38.75 38.703 38.69 38.688 38.643 38.643 38.608 38.61 38.543 38.58 38.495 38.418 38.345 38.34 38.268 38.225 38.215 38.218 38.173 38.153 38.105 38.05 38.008 37.93 37.9 37.883 37.88 37.875 37.838 37.778 37.785 37.868 37.978 38.175 38.208 38.195 38.233 38.195 38.158 38.118 38.12 38.125 38.123 38.095 38.09 38.118 38.168 38.185 38.233 38.253 38.328 38.393 38.43 38.508 38.528 38.6 38.623 38.685 38.715 38.758 38.845 38.868 38.885 38.9 38.955 39.023 39.138 39.265 39.39 39.403 39.493 39.565 39.61 39.678 39.733 39.835 39.893 39.933 39.913 39.988 40.145 40.183 40.265 40.385 40.45 40.54 40.628 40.695 40.768 40.968 41.028 41.123 41.18 41.248 41.383 41.473 41.565 41.673 41.765 41.873 41.943 42.093 42.155 42.265 42.408 42.528 42.68 42.835 42.983 43.15 43.303 43.458 43.585 43.748 43.895 43.998 44.12 44.233 44.393 44.528 44.675 44.85 45.003 45.153 45.238 45.358 45.49 45.625 45.778 45.885 46.02 46.165 46.333 46.46 46.608 46.733 46.848 46.96 47.035 47.18 47.323 47.445 47.553 47.635 47.765 47.853 47.915 48.02 48.093 48.17 48.233 48.28 48.335 48.405 48.463 48.523 48.595 48.67 48.718 48.775 48.79 48.81 48.86 48.913 48.973 49.035 49.115 49.148 49.235 49.143 49.255 49.323 49.325 49.333 49.31 49.305 49.32 49.313 49.315 49.278 49.23 49.218 49.186 49.171 49.133 49.126 49.121 49.091 49.051 48.963 48.913 48.908 48.893 48.826 48.778 48.738 48.626 48.551 48.393 48.388 48.291 48.203 48.113 48.008 47.956 47.863 47.791 47.511 46.688 45.973 45.473 44.896 44.156 42.936 41.788 41.296 40.646 39.468 38.513 37.581 36.861 35.923 34.931 34.468 34.156 33.623 33.413 33.138 32.696 32.623 32.586 32.628 31.788 30.721 30.061 29.526 29.006 28.233 27.688 27.051 26.531 26.046 24.498 23.158 21.776 20.623 19.598 18.841 18.358 18.226 18.158 18.661 19.091 19.303 19.326 19.456 19.473 19.498 19.073 19.056 19.741 20.156 20.563 21.351 22.038 22.003 21.631 21.871 22.368 22.903 23.478 23.871 24.493 24.981 25.718 26.381 26.538 26.606 26.961 27.513 28.233 28.728 29.561 30.383 30.681 31.046 31.088 31.253 31.568 31.803 32.003 32.211 32.871 33.641 34.398 35.093 35.773 36.166 35.471 34.591 33.826 33.361 32.863 32.206 31.601 31.061 30.506 29.668 29.328 29.253 29.203 28.858 28.491 28.378 27.711 26.681 25.628 24.951 24.556 24.378 24.548 25.081 25.653 26.073 26.723 27.591 28.028 28.136 27.896 27.686 27.643 27.678 27.621 27.443 27.571 27.713 28.123 29.241 29.893 30.046 30.018 30.246 30.528 30.608 30.676 30.848 31.193 31.696 32.231 32.881 33.231 33.156 33.386 33.886 34.148 34.758
38.34 38.375 38.4 38.428 38.445 38.435 38.435 38.455 38.478 38.528 38.548 38.568 38.555 38.53 38.508 38.538 38.555 38.583 38.56 38.545 38.563 38.55 38.538 38.558 38.518 38.553 38.518 38.535 38.54 38.538 38.55 38.538 38.558 38.58 38.583 38.598 38.588 38.603 38.665 38.73 38.745 38.783 38.84 38.878 38.785 38.83 38.823 38.818 38.835 38.835 38.815 38.8 38.768 38.785 38.82 38.863 38.818 38.853 38.85 38.895 38.87 38.92 38.95 38.935 38.988 39.005 39.035 39.018 39.023 39 38.998 39.02 39.078 39.063 39.073 39.048 39.083 39.073 39.078 39.06 39.08 39.073 39.11 39.075 39.113 39.13 39.12 39.118 39.145 39.115 39.078 39.038 39.023 38.983 38.96 38.955 38.945 38.93 38.89 38.898 38.903 38.883 38.825 38.808 38.778 38.765 38.725 38.68 38.63 38.545 38.508 38.513 38.435 38.393 38.393 38.36 38.318 38.238 38.173 38.075 38.053 38.04 38.038 37.99 37.938 37.948 37.955 38.02 38.135 38.143 38.445 38.668 38.423 38.19 38.183 38.138 38.148 38.138 38.113 38.11 38.118 38.123 38.143 38.205 38.195 38.225 38.253 38.31 38.4 38.465 38.543 38.583 38.61 38.62 38.653 38.713 38.718 38.798 38.89 38.92 38.948 38.98 39.023 39.113 39.245 39.36 39.483 39.518 39.603 39.698 39.748 39.823 39.87 39.945 39.988 40.035 40.015 39.995 40.07 40.195 40.285 40.425 40.515 40.603 40.645 40.73 40.833 40.968 41.085 41.123 41.148 41.27 41.413 41.5 41.618 41.755 41.85 41.935 42.04 42.143 42.245 42.315 42.44 42.575 42.705 42.848 43.013 43.158 43.355 43.485 43.658 43.798 43.91 44.033 44.168 44.305 44.43 44.563 44.708 44.885 45.03 45.153 45.28 45.428 45.51 45.65 45.77 45.908 46.07 46.205 46.34 46.485 46.613 46.71 46.808 46.92 47.003 47.133 47.253 47.368 47.463 47.578 47.678 47.745 47.838 47.945 48 48.058 48.115 48.158 48.198 48.278 48.33 48.383 48.448 48.53 48.59 48.663 48.695 48.768 48.813 48.845 48.905 48.925 48.985 49.025 49.05 49.073 49.093 49.125 49.153 49.178 49.158 49.16 49.19 49.173 49.14 49.1 49.063 49.028 48.978 48.951 48.928 48.903 48.896 48.851 48.798 48.763 48.786 48.728 48.666 48.586 48.483 48.398 48.278 48.221 48.143 48.116 48.033 47.978 47.933 47.873 47.723 47.628 47.601 47.538 47.558 47.028 46.261 45.546 44.716 43.323 41.828 40.873 40.111 39.191 38.261 37.193 36.318 35.446 34.386 33.551 33.306 32.988 32.621 32.428 31.926 31.506 31.336 31.071 30.293 29.756 29.433 28.896 28.078 27.046 26.263 25.693 24.883 24.208 23.413 22.183 20.958 19.731 18.616 17.683 17.461 17.541 17.408 17.398 17.606 17.796 18.146 18.211 17.998 17.956 17.983 18.643 19.198 19.151 19.776 20.883 21.103 20.973 20.676 20.626 21.188 21.553 22.091 22.883 23.476 23.791 24.441 24.918 24.921 24.711 25.011 25.646 26.098 26.666 27.468 28.133 28.503 28.831 28.861 29.186 29.431 29.618 29.931 30.248 31.086 31.763 32.668 33.308 33.833 34.056 33.128 32.143 31.651 31.503 31.011 30.211 29.616 29.096 28.556 27.746 27.441 27.363 27.331 27.096 27.026 27.008 26.093 24.701 23.851 23.591 23.266 23.063 23.378 23.888 24.426 24.786 25.331 26.211 26.601 26.548 26.343 26.181 26.243 26.386 26.221 25.956 25.858 26.046 26.178 27.161 27.838 28.268 28.473 28.578 28.881 28.933 29.058 29.121 29.508 30.071 30.673 31.288 31.321 31.036 31.531 32.138 32.216 32.806
38.428 38.45 38.498 38.52 38.505 38.525 38.55 38.568 38.59 38.608 38.655 38.67 38.658 38.645 38.625 38.65 38.68 38.67 38.683 38.675 38.68 38.715 38.733 38.72 38.698 38.703 38.685 38.7 38.695 38.705 38.705 38.695 38.723 38.73 38.77 38.813 38.778 38.8 38.845 38.913 38.945 39.033 39.02 39.028 38.973 39.01 38.978 39.028 39.013 39.03 39.023 39 38.983 39.01 39.033 39.045 39.025 39.035 39.05 39.065 39.063 39.098 39.118 39.138 39.183 39.243 39.225 39.243 39.235 39.225 39.255 39.25 39.253 39.288 39.283 39.258 39.278 39.285 39.26 39.265 39.27 39.285 39.288 39.28 39.288 39.335 39.318 39.31 39.315 39.313 39.265 39.248 39.21 39.218 39.133 39.158 39.15 39.138 39.068 39.09 39.053 39.03 38.99 39.003 38.94 38.9 38.863 38.835 38.77 38.693 38.715 38.69 38.613 38.58 38.538 38.453 38.378 38.32 38.29 38.298 38.275 38.218 38.15 38.16 38.205 38.248 38.345 38.575 38.565 38.335 38.4 38.295 38.303 38.255 38.225 38.228 38.173 38.175 38.155 38.173 38.193 38.213 38.25 38.24 38.255 38.26 38.325 38.413 38.468 38.525 38.58 38.59 38.638 38.693 38.728 38.798 38.853 38.79 38.81 38.945 39 39.073 39.163 39.258 39.36 39.468 39.565 39.618 39.693 39.79 39.853 39.918 39.923 39.97 39.99 39.988 40.043 40.05 40.045 40.215 40.338 40.473 40.563 40.66 40.7 40.763 40.87 40.958 41.093 41.16 41.208 41.275 41.42 41.52 41.63 41.743 41.875 41.978 42.078 42.218 42.318 42.4 42.523 42.648 42.77 42.92 43.055 43.215 43.375 43.518 43.688 43.83 43.983 44.095 44.203 44.35 44.468 44.59 44.72 44.89 45.045 45.18 45.3 45.453 45.55 45.628 45.785 45.913 46.088 46.205 46.34 46.495 46.63 46.715 46.798 46.915 46.99 47.1 47.23 47.31 47.42 47.533 47.573 47.62 47.713 47.778 47.818 47.92 47.985 48.07 48.125 48.175 48.243 48.298 48.388 48.42 48.488 48.538 48.61 48.678 48.718 48.738 48.778 48.838 48.878 48.878 48.895 48.93 48.933 48.963 48.945 48.945 48.968 48.93 48.968 48.985 48.975 48.968 48.92 48.858 48.801 48.756 48.698 48.673 48.621 48.583 48.598 48.616 48.536 48.501 48.426 48.338 48.243 48.161 48.051 47.953 47.863 47.776 47.738 47.713 47.631 47.556 47.478 47.401 47.413 47.431 47.558 47.478 47.136 47.006 46.033 43.876 42.216 40.828 39.878 39.093 38.151 37.013 35.853 34.603 33.486 32.671 32.278 32.203 31.808 31.653 31.473 30.808 30.413 29.736 28.813 28.481 27.981 27.868 27.163 25.923 24.868 24.241 23.511 22.738 22.168 21.151 19.961 18.783 17.841 17.003 16.961 17.111 17.003 16.668 16.598 16.551 16.541 16.501 16.776 16.941 17.253 17.626 18.546 18.653 18.868 19.948 20.388 20.421 20.283 19.953 20.541 20.853 21.451 21.888 21.806 22.146 22.796 23.191 23.073 22.996 23.236 23.793 24.191 24.773 25.553 25.983 26.388 26.556 26.808 27.188 27.153 27.271 27.746 28.483 29.283 29.933 30.781 31.291 31.748 31.793 30.601 29.711 29.576 29.413 28.866 28.291 27.743 27.126 26.463 25.863 25.433 25.328 25.328 25.346 25.291 25.043 24.066 22.971 22.453 22.356 22.028 21.951 22.186 22.696 23.123 23.361 23.988 25.026 25.226 24.823 24.633 24.623 24.806 25.073 24.916 24.611 24.336 24.206 24.263 24.846 25.416 26.091 26.716 26.961 27.088 27.121 27.378 27.438 27.631 28.158 28.676 28.818 28.796 28.731 29.126 29.728 30.328 30.841
38.515 38.545 38.568 38.578 38.613 38.63 38.63 38.655 38.705 38.72 38.778 38.768 38.755 38.738 38.743 38.775 38.8 38.808 38.803 38.813 38.848 38.863 38.85 38.848 38.86 38.845 38.845 38.853 38.86 38.875 38.9 38.91 38.938 38.928 38.935 38.963 38.955 38.96 39.058 39.08 39.108 39.138 39.165 39.155 39.145 39.215 39.205 39.18 39.208 39.218 39.203 39.175 39.183 39.223 39.23 39.255 39.228 39.24 39.235 39.22 39.243 39.285 39.318 39.343 39.393 39.41 39.425 39.433 39.405 39.423 39.46 39.465 39.468 39.49 39.463 39.485 39.475 39.495 39.475 39.478 39.478 39.498 39.478 39.483 39.503 39.543 39.513 39.525 39.523 39.513 39.445 39.45 39.39 39.395 39.348 39.318 39.305 39.32 39.288 39.258 39.233 39.203 39.193 39.158 39.103 39.018 39.003 38.948 38.955 38.923 38.885 38.823 38.745 38.733 38.665 38.6 38.555 38.523 38.493 38.408 38.43 38.46 38.465 38.503 38.503 38.465 39.808 39.228 38.458 38.418 38.425 38.393 38.34 38.308 38.285 38.295 38.27 38.268 38.273 38.315 38.258 38.258 38.3 38.318 38.355 38.393 38.35 38.438 38.563 38.61 38.603 38.6 38.67 38.695 38.72 38.793 38.913 38.943 38.853 38.88 39.045 39.165 39.255 39.328 39.425 39.528 39.593 39.69 39.745 39.83 39.875 39.928 39.93 39.965 40 39.96 39.92 40.068 40.183 40.163 40.353 40.448 40.553 40.718 40.77 40.805 40.903 40.998 41.108 41.225 41.278 41.35 41.44 41.565 41.645 41.763 41.86 41.988 42.093 42.23 42.343 42.46 42.59 42.728 42.865 43.02 43.143 43.275 43.42 43.54 43.728 43.868 43.988 44.088 44.223 44.378 44.505 44.62 44.735 44.895 45.048 45.193 45.333 45.435 45.563 45.685 45.838 45.948 46.08 46.218 46.34 46.483 46.583 46.698 46.788 46.895 46.998 47.085 47.17 47.238 47.32 47.4 47.473 47.518 47.6 47.663 47.713 47.768 47.843 47.95 48.04 48.098 48.163 48.25 48.303 48.348 48.393 48.43 48.498 48.525 48.555 48.618 48.658 48.7 48.728 48.768 48.773 48.773 48.79 48.803 48.79 48.79 48.75 48.74 48.75 48.745 48.743 48.75 48.71 48.653 48.636 48.573 48.513 48.458 48.413 48.428 48.388 48.308 48.266 48.211 48.153 48.081 47.976 47.901 47.811 47.726 47.618 47.546 47.513 47.446 47.371 47.298 47.231 47.183 47.148 47.061 47.203 47.183 46.973 46.173 44.738 43.478 42.123 40.973 40.246 39.316 38.303 36.976 35.626 34.211 32.881 31.981 31.186 30.988 30.978 30.966 30.823 30.166 29.713 28.791 27.633 27.053 26.363 26.196 26.111 25.043 23.671 22.776 22.098 21.313 21.068 19.938 18.638 17.826 16.951 16.486 16.313 16.236 15.836 15.521 15.458 15.353 15.173 15.141 15.303 15.898 16.396 16.436 17.603 18.183 18.256 18.453 18.776 19.326 19.476 18.906 19.156 19.446 19.306 19.566 19.951 20.306 20.931 21.043 21.266 21.406 21.533 21.783 22.123 22.816 23.623 23.718 23.963 24.601 24.841 24.853 24.966 24.963 25.721 26.581 27.551 28.206 28.838 29.508 29.858 29.563 28.333 27.621 27.461 27.243 26.683 26.126 25.783 25.316 24.601 23.941 23.448 23.283 23.321 23.398 23.343 22.901 21.873 21.101 21.113 20.993 20.921 21.003 21.181 21.453 21.673 21.843 22.668 23.733 23.528 23.161 23.113 23.273 23.576 23.668 23.508 23.096 22.618 22.253 22.233 22.821 23.388 23.671 24.246 24.816 25.428 25.276 25.653 25.746 25.821 26.141 25.926 26.251 26.146 25.728 26.173 26.036 26.788 27.998
38.595 38.62 38.658 38.663 38.693 38.733 38.74 38.753 38.798 38.835 38.875 38.868 38.853 38.855 38.853 38.885 38.91 38.913 38.913 38.953 38.973 39 39.008 38.993 39.028 39.013 39.028 39.02 39.038 39.06 39.053 39.078 39.09 39.093 39.1 39.143 39.148 39.22 39.215 39.293 39.343 39.373 39.335 39.308 39.325 39.338 39.33 39.355 39.365 39.355 39.385 39.373 39.343 39.36 39.405 39.41 39.43 39.413 39.455 39.435 39.425 39.455 39.515 39.555 39.615 39.64 39.695 39.663 39.668 39.665 39.673 39.69 39.668 39.67 39.663 39.678 39.703 39.66 39.675 39.693 39.715 39.683 39.683 39.678 39.72 39.725 39.715 39.718 39.698 39.68 39.628 39.645 39.59 39.573 39.52 39.513 39.52 39.45 39.445 39.425 39.385 39.33 39.32 39.3 39.215 39.233 39.225 39.158 39.133 39.068 39 38.953 38.928 38.86 38.778 38.683 38.625 38.615 38.623 38.665 38.85 38.943 39.54 39.145 38.653 38.66 38.613 38.558 38.573 38.52 38.478 38.433 38.423 38.398 38.388 38.398 38.395 38.34 38.328 38.338 38.335 38.363 38.393 38.388 38.423 38.425 38.4 38.48 38.615 38.67 38.635 38.71 38.745 38.763 38.798 38.813 38.883 38.983 39.048 38.965 39.145 39.258 39.333 39.403 39.5 39.585 39.683 39.75 39.765 39.855 39.908 39.965 39.958 40.005 40.078 40.118 40.008 40.208 40.303 40.253 40.308 40.465 40.543 40.7 40.798 40.853 40.94 41.05 41.163 41.248 41.32 41.383 41.478 41.583 41.703 41.815 41.89 42 42.123 42.245 42.36 42.478 42.635 42.77 42.903 43.063 43.19 43.348 43.493 43.6 43.753 43.888 44.028 44.168 44.24 44.423 44.538 44.658 44.775 44.92 45.053 45.18 45.315 45.448 45.57 45.695 45.835 45.96 46.08 46.225 46.343 46.465 46.548 46.665 46.738 46.823 46.943 47.005 47.095 47.143 47.255 47.345 47.405 47.46 47.523 47.555 47.598 47.665 47.738 47.833 47.908 47.973 48.068 48.148 48.213 48.245 48.285 48.32 48.363 48.423 48.455 48.463 48.5 48.533 48.575 48.593 48.605 48.648 48.665 48.655 48.653 48.66 48.623 48.6 48.565 48.533 48.5 48.49 48.483 48.438 48.386 48.341 48.286 48.341 48.316 48.276 48.213 48.171 48.061 47.948 47.861 47.791 47.688 47.621 47.556 47.491 47.413 47.331 47.268 47.208 47.138 47.001 46.718 46.426 45.893 45.633 45.486 45.918 45.536 44.561 43.331 42.098 40.956 40.051 39.288 38.566 38.136 37.098 35.381 33.693 32.123 31.061 30.218 29.993 30.173 30.281 30.271 29.826 29.163 27.838 26.683 25.741 25.036 24.816 24.548 23.848 22.568 21.541 20.646 19.921 19.298 18.491 17.468 16.688 15.991 15.433 15.191 15.031 14.753 14.448 14.441 14.298 14.061 14.168 13.928 14.551 15.553 16.163 17.163 17.083 17.096 17.238 17.501 18.141 18.518 18.456 18.456 18.941 18.333 18.058 18.248 18.291 18.791 19.178 19.401 19.688 19.886 20.146 20.293 20.811 21.418 21.473 21.571 22.056 22.333 22.458 22.656 23.058 23.571 24.396 25.618 26.376 27.033 27.641 28.061 27.563 26.188 25.483 25.231 25.231 24.538 23.973 23.611 23.458 22.908 22.161 21.623 21.348 21.361 21.283 21.358 20.598 19.818 19.468 19.433 19.658 19.843 19.868 20.108 20.348 20.243 20.171 21.021 21.538 21.598 21.621 21.366 21.556 22.133 22.143 21.611 21.258 20.821 20.151 20.231 20.936 21.548 21.633 21.921 22.696 23.541 23.278 23.626 23.798 23.833 23.876 23.696 23.836 23.453 22.488 22.993 23.008 23.958 24.628
38.675 38.713 38.725 38.763 38.79 38.848 38.863 38.885 38.91 38.95 38.98 38.973 38.97 38.97 38.998 39.04 39.048 39.078 39.078 39.118 39.13 39.143 39.178 39.153 39.148 39.158 39.188 39.213 39.195 39.203 39.225 39.26 39.285 39.288 39.275 39.305 39.37 39.42 39.418 39.525 39.545 39.573 39.538 39.505 39.533 39.528 39.543 39.575 39.598 39.618 39.59 39.508 39.483 39.513 39.553 39.575 39.568 39.623 39.64 39.628 39.618 39.583 39.6 39.668 39.733 39.78 39.828 39.863 39.885 39.893 39.9 39.913 39.915 39.898 39.903 39.9 39.87 39.865 39.855 39.85 39.86 39.845 39.873 39.875 39.9 39.893 39.918 39.87 39.89 39.853 39.828 39.785 39.793 39.733 39.725 39.668 39.675 39.62 39.6 39.573 39.533 39.508 39.488 39.475 39.45 39.425 39.368 39.32 39.25 39.228 39.16 39.098 39.018 38.923 38.905 38.85 38.895 38.97 38.978 39.938 39.01 38.993 39.463 39.025 38.71 38.73 38.673 38.628 38.615 38.573 38.578 38.565 38.56 38.535 38.493 38.478 38.448 38.435 38.44 38.47 38.445 38.49 38.5 38.505 38.485 38.473 38.475 38.548 38.688 38.763 38.698 38.725 38.85 38.86 38.888 38.91 38.965 39.05 39.145 39.14 39.158 39.313 39.385 39.498 39.58 39.645 39.748 39.778 39.833 39.9 39.983 40.018 40.033 40.05 40.11 40.18 40.29 40.398 40.445 40.41 40.42 40.535 40.628 40.75 40.818 40.9 40.988 41.055 41.193 41.315 41.403 41.43 41.498 41.593 41.715 41.828 41.943 42.045 42.193 42.263 42.365 42.51 42.64 42.775 42.908 43.08 43.25 43.403 43.53 43.67 43.805 43.955 44.078 44.18 44.31 44.458 44.548 44.675 44.808 44.943 45.05 45.193 45.35 45.468 45.59 45.718 45.848 45.95 46.09 46.215 46.335 46.458 46.57 46.668 46.723 46.77 46.833 46.905 47 47.08 47.18 47.24 47.325 47.41 47.473 47.505 47.53 47.585 47.668 47.713 47.808 47.878 48.003 48.02 48.053 48.085 48.138 48.173 48.235 48.298 48.32 48.33 48.385 48.393 48.435 48.468 48.453 48.475 48.5 48.49 48.51 48.468 48.46 48.448 48.403 48.355 48.325 48.278 48.245 48.188 48.121 48.093 48.116 48.098 48.101 48.038 47.986 47.933 47.856 47.771 47.651 47.558 47.481 47.396 47.303 47.213 47.173 47.126 47.056 46.996 46.888 45.813 45.086 44.383 43.731 43.588 43.071 43.356 43.176 42.711 41.583 40.033 38.591 38.476 37.418 36.221 35.856 36.121 35.086 33.411 31.886 30.541 29.643 29.018 29.133 29.356 29.433 29.228 28.356 27.021 25.743 24.823 24.043 23.616 23.156 22.276 21.216 20.463 19.558 18.731 18.208 17.518 16.403 15.478 14.808 14.286 14.101 14.201 13.951 13.531 13.511 13.571 13.421 13.566 13.353 13.221 14.263 15.573 16.091 16.273 16.328 16.043 16.461 17.218 17.601 17.306 17.253 17.733 17.316 17.016 16.903 17.058 17.346 17.693 17.926 18.126 18.401 18.601 18.746 18.941 19.078 19.303 19.591 19.726 19.718 19.991 20.308 20.921 21.856 22.398 23.468 24.578 24.998 25.656 26.291 25.346 24.326 23.543 23.013 22.836 22.406 21.971 21.733 21.661 21.198 20.541 19.676 18.993 19.098 18.913 19.078 18.483 17.906 17.621 17.653 18.151 18.571 18.576 18.568 18.901 18.803 18.596 18.523 19.361 19.906 19.583 19.008 19.106 19.928 20.248 19.818 19.138 18.543 18.148 18.206 19.046 19.493 19.566 19.843 20.801 21.486 21.233 21.421 21.558 20.796 20.791 20.406 19.778 18.868 18.793 18.733 19.721 21.396 22.156
38.77 38.825 38.823 38.853 38.893 38.933 38.953 38.98 38.98 39.043 39.073 39.075 39.093 39.1 39.118 39.153 39.14 39.175 39.21 39.238 39.25 39.27 39.28 39.278 39.295 39.323 39.318 39.36 39.343 39.37 39.395 39.438 39.445 39.465 39.455 39.455 39.588 39.598 39.623 39.66 39.718 39.743 39.693 39.693 39.71 39.685 39.733 39.72 39.81 39.82 39.81 39.713 39.713 39.758 39.818 39.793 39.78 39.78 39.78 39.813 39.795 39.715 39.695 39.753 39.843 39.91 39.913 39.925 39.95 40.003 40.04 40.068 40.085 40.063 40.08 40.078 40.063 40.088 40.075 40.05 40.05 40.015 40.05 40.035 40.058 40.053 40.075 40.05 40.045 40.04 40.008 39.973 39.953 39.9 39.885 39.848 39.83 39.778 39.728 39.725 39.725 39.72 39.695 39.678 39.618 39.58 39.56 39.485 39.403 39.323 39.238 39.155 39.808 39.123 39.288 39.165 39.365 39.955 39.635 39.153 38.978 38.95 38.928 38.913 38.86 38.795 38.793 38.743 38.755 38.728 38.708 38.665 38.648 38.618 38.585 38.58 38.598 38.598 38.54 38.528 38.535 38.568 38.605 38.603 38.608 38.603 38.625 38.668 38.803 38.785 38.693 38.893 38.973 38.955 39.005 39.04 39.08 39.148 39.233 39.295 39.198 39.213 39.385 39.535 39.638 39.693 39.758 39.825 39.908 40 40.048 40.068 40.085 40.103 40.15 40.205 40.3 40.445 40.47 40.498 40.503 40.528 40.695 40.823 40.91 40.99 41.08 41.098 41.223 41.343 41.443 41.555 41.58 41.638 41.733 41.868 41.963 42.083 42.198 42.305 42.44 42.558 42.68 42.803 42.925 43.105 43.275 43.413 43.538 43.705 43.863 43.978 44.108 44.24 44.37 44.503 44.615 44.725 44.848 44.958 45.045 45.155 45.333 45.458 45.593 45.728 45.84 45.963 46.085 46.21 46.323 46.428 46.5 46.585 46.675 46.733 46.818 46.895 46.948 47.005 47.095 47.185 47.265 47.335 47.4 47.46 47.485 47.523 47.58 47.683 47.718 47.833 47.97 47.923 47.928 47.955 47.983 48.033 48.07 48.13 48.18 48.225 48.253 48.298 48.295 48.305 48.295 48.283 48.328 48.338 48.3 48.26 48.263 48.243 48.21 48.165 48.133 48.103 48.045 48.008 47.978 47.948 47.911 47.848 47.798 47.751 47.708 47.681 47.601 47.536 47.483 47.378 47.288 47.236 47.198 47.178 46.963 46.881 46.281 46.258 46.133 44.363 42.908 42.063 41.396 41.166 40.563 40.508 39.918 39.236 37.203 35.616 34.716 34.368 34.116 33.696 33.601 34.486 35.143 33.448 31.758 30.166 28.793 28.141 27.743 28.136 28.268 28.251 27.733 26.343 25.048 24.146 23.391 22.448 21.903 20.733 19.881 19.201 18.453 17.798 17.108 16.483 15.538 14.368 13.793 13.516 13.468 13.381 13.341 13.011 12.756 12.801 12.791 12.778 12.893 12.613 12.778 13.933 14.461 14.526 14.861 14.833 15.051 15.966 16.338 15.936 15.851 16.181 16.088 15.678 15.641 15.693 15.911 16.231 16.408 16.676 16.876 17.078 17.176 17.303 17.406 17.653 17.563 17.041 17.043 17.606 18.276 19.156 20.191 20.526 21.273 22.466 22.913 23.748 24.101 22.408 21.463 21.553 20.981 20.613 20.013 19.886 19.968 19.816 19.373 18.706 17.598 16.756 16.146 16.358 16.548 16.216 16.016 15.638 15.863 16.013 16.248 16.223 16.063 16.661 17.228 16.243 15.526 16.853 17.536 17.243 16.543 16.411 16.636 17.346 17.326 16.638 16.188 15.913 15.853 16.958 17.213 17.278 17.556 18.311 18.526 18.073 15.913 15.958 16.761 16.791 16.031 15.373 14.488 14.301 14.838 16.828 18.173 19.876
38.885 38.925 38.928 38.958 38.988 38.978 39.02 39.07 39.088 39.13 39.165 39.158 39.188 39.155 39.175 39.195 39.243 39.275 39.318 39.34 39.355 39.393 39.393 39.393 39.433 39.443 39.455 39.455 39.493 39.53 39.525 39.573 39.575 39.598 39.568 39.645 39.72 39.723 39.773 39.83 39.9 39.89 39.833 39.843 39.833 39.86 39.875 39.91 39.935 39.97 39.955 39.963 39.975 40.018 40.025 39.97 40.055 40.075 39.98 39.91 39.913 39.878 39.845 39.883 39.983 40.068 40.105 40.11 40.103 40.108 40.13 40.15 40.145 40.16 40.133 40.15 40.193 40.195 40.198 40.208 40.22 40.233 40.24 40.268 40.253 40.26 40.27 40.225 40.208 40.165 40.165 40.135 40.113 40.04 40.013 39.978 39.955 39.918 39.913 39.923 39.918 39.868 39.828 39.775 39.75 39.675 39.618 39.718 39.615 39.43 39.485 39.44 39.423 39.378 39.443 39.47 39.853 39.318 39.275 39.21 39.15 39.095 39.013 39.018 38.985 38.958 38.925 38.928 38.868 38.838 38.838 38.805 38.778 38.775 38.735 38.7 38.695 38.693 38.658 38.65 38.65 38.66 38.673 38.703 38.73 38.735 38.758 38.78 38.843 38.818 38.775 38.975 39.035 39.04 39.108 39.105 39.14 39.198 39.295 39.355 39.37 39.425 39.535 39.615 39.7 39.75 39.818 39.905 39.98 40.06 40.09 40.128 40.14 40.178 40.213 40.285 40.358 40.425 40.47 40.445 40.53 40.595 40.743 40.825 40.99 41.055 41.158 41.21 41.265 41.435 41.485 41.598 41.668 41.753 41.85 41.938 42.02 42.11 42.198 42.29 42.418 42.568 42.718 42.87 42.968 43.118 43.268 43.418 43.545 43.693 43.86 43.973 44.11 44.255 44.378 44.5 44.613 44.765 44.898 44.958 45.078 45.195 45.323 45.448 45.608 45.743 45.875 45.983 46.07 46.168 46.268 46.36 46.443 46.533 46.613 46.698 46.765 46.833 46.923 47.018 47.07 47.125 47.195 47.255 47.33 47.333 47.35 47.403 47.478 47.6 47.575 47.743 47.9 47.828 47.838 47.828 47.848 47.895 47.925 47.958 48.005 48.05 48.07 48.093 48.115 48.145 48.158 48.183 48.18 48.155 48.13 48.113 48.083 48.04 48 47.955 47.908 47.853 47.848 47.863 47.836 47.776 47.746 47.658 47.608 47.528 47.438 47.368 47.278 47.236 47.188 47.108 47.081 47.031 46.921 45.956 45.156 45.081 44.498 43.736 44.158 42.801 40.961 39.966 39.053 38.496 36.781 37.018 36.941 35.603 34.628 32.833 32.183 31.991 31.456 31.038 31.281 32.293 33.803 33.718 31.891 30.153 28.271 26.778 26.101 26.573 26.888 26.996 26.521 25.196 24.383 23.243 22.211 20.961 19.946 18.826 17.993 17.621 17.101 16.936 16.148 15.648 14.761 13.451 12.933 12.966 12.938 12.836 12.568 11.983 11.548 11.616 11.608 11.301 11.858 11.938 11.941 12.293 12.971 13.153 13.701 13.856 14.653 15.558 15.538 14.811 14.616 14.776 14.873 14.241 13.998 14.081 14.201 14.483 14.683 15.103 15.338 15.598 15.576 15.681 15.781 15.328 14.971 14.846 15.238 15.821 16.403 17.201 17.901 18.503 19.088 19.701 20.226 20.96 20.76 19.304 18.181 18.527 18.611 17.739 17.572 17.711 17.959 17.896 17.329 16.541 15.407 14.468 13.951 13.993 14.238 14.246 13.843 13.703 13.573 13.338 13.761 13.693 13.758 14.451 14.983 13.691 12.928 14.033 14.783 14.136 13.378 13.456 13.991 13.738 14.266 14.608 14.051 13.893 13.938 14.646 14.221 14.518 14.158 12.061 10.773 10.426 10.118 11.416 10.341 9.391 10.598 11.521 10.641 11.086 12.516 13.666 14.491 15.791
38.96 38.978 38.993 39.028 39.06 39.088 39.12 39.138 39.203 39.238 39.235 39.268 39.248 39.268 39.295 39.323 39.328 39.375 39.43 39.435 39.458 39.478 39.51 39.518 39.54 39.563 39.598 39.598 39.618 39.643 39.653 39.67 39.708 39.72 39.695 39.765 39.815 39.875 39.93 39.983 40.053 40.005 39.943 39.955 39.945 39.998 40 40.025 40.058 40.105 40.13 40.155 40.148 40.128 40.155 40.163 40.135 40.19 40.263 40.233 40.17 40.198 40.088 40.125 40.128 40.135 40.155 40.19 40.21 40.27 40.3 40.305 40.308 40.32 40.33 40.335 40.323 40.318 40.318 40.31 40.32 40.33 40.34 40.383 40.428 40.495 40.493 40.458 40.385 40.308 40.313 40.29 40.253 40.208 40.183 40.17 40.15 40.143 40.118 40.083 40.033 40.008 39.988 39.918 39.818 39.755 39.748 39.848 39.92 39.763 39.763 39.76 40.735 39.805 39.583 39.533 39.463 39.398 39.355 39.32 39.268 39.215 39.373 39.345 39.135 39.098 39.068 39.043 39.008 38.978 38.98 38.958 38.915 38.87 38.85 38.838 38.82 38.798 38.773 38.768 38.77 38.768 38.77 38.808 38.84 38.863 38.843 38.89 38.935 38.915 38.903 38.97 39.093 39.13 39.17 39.175 39.195 39.253 39.3 39.388 39.438 39.515 39.608 39.72 39.753 39.828 39.883 39.965 40.008 40.075 40.138 40.175 40.23 40.31 40.408 40.435 40.425 40.488 40.528 40.435 40.633 40.743 40.82 40.915 40.978 41.095 41.22 41.325 41.333 41.405 41.535 41.638 41.75 41.87 41.955 42.01 42.108 42.185 42.263 42.333 42.463 42.588 42.695 42.833 42.98 43.14 43.305 43.463 43.6 43.708 43.865 43.97 44.095 44.253 44.36 44.505 44.625 44.76 44.88 44.98 45.105 45.228 45.338 45.475 45.613 45.743 45.858 45.935 46.05 46.128 46.245 46.315 46.398 46.498 46.578 46.663 46.71 46.793 46.908 46.953 46.998 47.073 47.123 47.2 47.213 47.228 47.275 47.308 47.358 47.465 47.548 47.625 47.68 47.68 47.765 47.72 47.73 47.773 47.788 47.823 47.868 47.875 47.91 47.925 47.918 47.93 47.95 48 48.003 48.013 47.993 47.965 47.928 47.868 47.835 47.753 47.695 47.678 47.67 47.633 47.668 47.591 47.526 47.463 47.406 47.368 47.326 47.186 47.093 46.933 46.843 46.931 46.891 46.728 46.026 44.186 42.336 41.278 40.766 39.493 39.303 38.758 38.788 37.173 35.988 34.833 33.176 32.698 32.406 31.776 32.016 30.663 29.798 29.688 29.083 28.761 29.106 29.576 30.241 30.121 29.421 28.398 27.363 25.571 24.446 24.988 25.273 25.326 24.928 23.571 23.126 22.261 21.173 19.836 18.281 17.548 16.703 16.011 16.008 15.858 15.236 14.658 13.878 12.861 12.316 12.191 12.211 12.183 11.858 11.281 11.213 10.756 10.471 10.161 10.613 11.103 11.261 11.213 11.293 11.458 11.961 12.596 13.593 14.246 13.893 13.416 13.138 13.076 12.876 12.786 12.776 12.553 12.398 12.761 12.391 12.788 13.268 13.791 13.871 13.766 13.561 13.138 13.016 13.486 13.956 14.226 14.406 15.191 15.421 16.428 16.838 16.905 17.514 17.898 17.417 16.174 15.636 15.946 15.272 14.877 14.964 15.081 15.453 15.326 14.85 13.402 12.404 12.289 12.35 12.078 11.931 11.951 11.806 11.666 11.021 10.723 11.416 11.396 11.556 12.051 11.981 10.846 10.253 10.556 10.938 10.773 10.963 10.863 11.293 11.111 11.911 12.383 11.933 11.143 10.976 11.916 11.778 11.306 9.071 7.366 6.798 6.576 6.343 6.093 4.668 3.638 3.651 3.573 5.091 6.388 7.758 9.278 9.128 9.718
39.015 39.008 39.04 39.105 39.113 39.158 39.183 39.233 39.31 39.345 39.333 39.348 39.363 39.37 39.405 39.438 39.445 39.468 39.533 39.56 39.573 39.593 39.62 39.655 39.66 39.673 39.713 39.705 39.743 39.76 39.775 39.823 39.833 39.878 39.845 39.908 39.953 39.995 40.053 40.138 40.135 40.105 40.09 40.093 40.098 40.148 40.203 40.225 40.27 40.283 40.27 40.295 40.265 40.305 40.35 40.4 40.315 40.453 40.77 40.64 40.658 40.753 40.6 40.73 40.663 40.625 40.528 40.383 40.393 40.448 40.468 40.378 40.438 40.458 40.458 40.488 40.503 40.495 40.483 40.46 40.468 40.463 40.453 40.473 40.51 40.573 40.595 40.603 40.548 40.455 40.47 40.458 40.413 40.378 40.38 40.338 40.283 40.25 40.245 40.215 40.198 40.153 40.065 39.985 40.018 40.045 40.043 40.163 40.465 40.9 40.855 40.488 39.968 39.745 39.683 39.635 39.548 39.505 39.458 39.415 39.378 39.59 40.41 40.195 39.5 39.253 39.205 39.185 39.135 39.108 39.103 39.06 39.023 38.993 38.983 38.963 38.925 38.925 38.913 38.878 38.885 38.878 38.878 38.88 38.923 38.948 39 39.005 39.038 39.023 39.053 39.11 39.188 39.21 39.203 39.248 39.29 39.315 39.375 39.438 39.508 39.57 39.673 39.758 39.825 39.888 39.945 40.033 40.12 40.28 40.248 40.268 40.348 40.345 40.415 40.573 40.578 40.628 40.648 40.678 40.755 40.83 40.91 41.013 41.083 41.195 41.345 41.378 41.42 41.483 41.56 41.72 41.828 41.953 42.04 42.115 42.193 42.283 42.355 42.445 42.565 42.66 42.76 42.895 43.015 43.145 43.308 43.445 43.605 43.735 43.883 43.978 44.113 44.24 44.35 44.485 44.643 44.753 44.873 44.97 45.098 45.205 45.32 45.45 45.583 45.718 45.84 45.965 46.04 46.153 46.258 46.308 46.398 46.488 46.585 46.653 46.71 46.783 46.813 46.88 46.92 46.998 47.058 47.09 47.135 47.145 47.18 47.225 47.248 47.283 47.335 47.385 47.438 47.49 47.535 47.563 47.603 47.65 47.69 47.703 47.743 47.755 47.78 47.763 47.755 47.74 47.768 47.768 47.765 47.765 47.758 47.778 47.748 47.715 47.653 47.58 47.595 47.53 47.46 47.415 47.408 47.346 47.318 47.258 47.206 47.133 47.056 46.978 46.486 45.566 45.361 45.686 45.266 44.461 44.426 43.248 41.598 39.713 38.036 36.416 35.411 34.998 34.846 33.646 32.716 31.096 29.458 27.361 28.191 27.373 27.593 27.611 26.946 26.921 26.786 26.846 26.948 27.073 27.081 26.981 26.086 25.551 25.453 24.003 22.931 23.073 23.273 23.478 22.973 21.738 21.393 20.923 19.798 18.758 17.216 16.243 15.673 14.928 15.046 15.036 14.626 14.081 13.496 12.783 11.928 11.593 11.543 11.568 11.481 11.053 10.748 10.481 10.478 10.418 10.146 10.171 10.406 10.401 10.281 10.301 10.626 11.231 11.893 12.263 12.223 11.848 11.456 11.233 11.331 11.316 11.386 11.113 10.813 10.611 10.241 10.296 10.703 11.603 11.786 11.751 11.551 11.566 11.858 12.223 12.548 12.448 12.458 13.383 13.103 13.581 14.036 13.916 14.267 14.71 14.286 13.572 12.644 12.198 12.447 12.021 11.895 11.677 11.959 11.873 11.163 10.185 9.436 8.726 8.495 9.316 9.153 9.353 9.551 9.186 8.121 8.061 8.598 9.013 9.751 10.223 9.363 7.803 7.061 7.231 7.908 8.491 8.681 8.496 9.003 8.988 9.278 9.983 9.931 7.998 7.723 7.178 5.991 4.228 4.288 4.148 3.158 3.423 3.701 3.453 2.893 2.636 2.616 2.761 2.881 2.743 2.883 3.216 3.766 4.346
39.073 39.065 39.093 39.12 39.158 39.213 39.23 39.313 39.355 39.393 39.385 39.41 39.403 39.448 39.503 39.503 39.525 39.563 39.623 39.643 39.675 39.718 39.73 39.758 39.778 39.79 39.8 39.828 39.865 39.865 39.885 39.93 39.968 39.96 39.998 40.038 40.04 40.1 40.175 40.245 40.198 40.195 40.21 40.235 40.265 40.36 40.413 40.418 40.388 40.413 40.418 40.425 40.518 40.583 40.605 40.653 41.175 41.693 41.748 40.843 40.91 40.948 41.253 42.145 40.978 40.925 41.26 40.893 41.6 41.2 40.978 40.748 40.695 40.628 40.598 40.593 40.615 40.608 40.585 40.603 40.613 40.64 40.625 40.655 40.625 40.655 40.678 40.67 40.595 40.535 40.578 40.55 40.528 40.503 40.493 40.438 40.405 40.4 40.393 40.338 40.253 40.22 40.265 40.298 40.27 40.243 40.235 40.23 40.49 40.22 40.04 40.028 39.91 39.873 39.778 39.73 39.673 39.625 39.585 39.56 39.515 39.618 40.053 40 39.528 39.35 39.34 39.305 39.265 39.233 39.22 39.153 39.143 39.138 39.113 39.09 39.045 39.025 38.98 38.938 38.958 38.978 38.985 39.025 39.068 39.075 39.1 39.11 39.135 39.15 39.163 39.225 39.225 39.263 39.29 39.313 39.353 39.395 39.468 39.493 39.598 39.668 39.728 39.783 39.868 39.918 39.985 40.083 40.21 40.285 40.17 40.22 40.338 40.32 40.343 40.628 40.745 40.705 40.755 40.84 40.978 40.978 41 41.105 41.19 41.258 41.398 41.463 41.51 41.588 41.655 41.763 41.858 41.968 42.04 42.15 42.238 42.348 42.428 42.53 42.658 42.758 42.843 42.968 43.095 43.233 43.348 43.45 43.58 43.703 43.855 43.988 44.093 44.248 44.365 44.48 44.638 44.753 44.843 44.925 45.06 45.15 45.275 45.4 45.553 45.698 45.85 45.953 46.06 46.15 46.248 46.335 46.42 46.478 46.548 46.653 46.69 46.748 46.803 46.833 46.868 46.878 46.9 46.95 47.01 47.043 47.09 47.115 47.158 47.195 47.25 47.288 47.33 47.335 47.375 47.41 47.43 47.465 47.483 47.543 47.62 47.628 47.658 47.675 47.653 47.61 47.598 47.593 47.59 47.563 47.538 47.538 47.478 47.453 47.455 47.465 47.438 47.363 47.318 47.283 47.193 47.081 46.976 46.606 46.531 46.796 46.858 46.781 45.976 44.613 43.668 43.538 42.728 41.961 41.668 41.033 39.923 38.943 37.056 35.456 33.108 32.056 32.188 31.286 30.403 29.633 26.923 24.846 24.553 24.583 24.701 24.876 24.448 24.328 24.426 24.741 24.871 24.843 23.306 22.646 22.463 22.646 23.068 22.218 21.186 20.943 21.121 20.926 20.378 19.836 19.701 19.103 17.881 16.938 15.856 14.923 14.363 13.988 13.906 13.986 13.948 13.591 13.201 12.903 11.958 11.116 10.926 11.028 11.186 11.056 10.888 10.476 10.046 9.851 9.646 9.628 9.703 9.613 9.228 9.093 9.388 9.926 10.198 10.233 10.256 10.036 9.738 9.558 9.618 9.971 9.973 9.806 9.283 8.668 8.516 8.388 8.303 8.598 9.001 9.473 9.813 10.001 10.398 10.461 10.326 10.261 10.261 11.246 10.98 10.531 10.047 9.761 10.008 10.406 10.11 9.661 9.269 8.94 9.41 9.496 9.346 8.625 8.269 8.038 7.909 7.484 6.388 4.7 4.705 5.476 6.161 6.439 6.873 6.886 5.573 5.133 5.383 6.236 7.333 8.301 6.248 4.856 3.891 4.253 4.968 5.621 5.311 5.398 6.161 6.396 6.558 7.128 6.573 4.791 4.313 3.073 2.753 2.733 2.663 2.468 2.366 2.523 2.666 2.603 2.491 2.361 2.306 2.338 2.276 2.318 2.411 2.493 2.426 2.706
39.088 39.108 39.15 39.198 39.23 39.273 39.313 39.35 39.445 39.453 39.473 39.483 39.51 39.518 39.548 39.583 39.598 39.648 39.703 39.735 39.76 39.785 39.805 39.828 39.83 39.868 39.903 39.918 39.935 39.958 39.968 40.023 40.075 40.078 40.13 40.17 40.198 40.295 40.325 40.35 40.308 40.33 40.368 40.428 40.435 40.475 40.508 40.54 40.513 40.555 40.57 40.648 40.723 40.733 40.933 40.915 41.025 41.548 41.335 41.058 41.37 41.158 41.133 41.705 41.183 41.178 42.143 41.718 41.895 41.98 42.59 42.38 41.128 40.99 41.16 40.865 40.928 40.933 40.78 40.713 40.74 40.715 40.695 40.745 40.775 40.803 40.835 40.795 40.693 40.668 40.665 40.653 40.61 40.61 40.565 40.558 40.51 40.49 40.455 40.363 40.385 40.513 40.485 40.51 40.828 40.568 40.503 40.425 40.35 40.283 40.195 40.12 40.043 39.998 39.97 39.883 39.813 39.758 39.698 39.695 39.653 39.625 39.548 39.503 39.488 39.483 39.44 39.42 39.375 39.353 39.323 39.288 39.265 39.25 39.185 39.115 39.068 39.103 39.085 39.063 39.083 39.138 39.175 39.2 39.235 39.215 39.243 39.263 39.223 39.198 39.228 39.285 39.315 39.35 39.41 39.425 39.44 39.49 39.565 39.58 39.665 39.735 39.8 39.85 39.935 40.003 40.058 40.15 40.25 40.255 40.153 40.23 40.385 40.463 40.493 40.648 40.733 40.788 40.77 40.91 41.038 41.068 41.1 41.163 41.275 41.34 41.425 41.51 41.6 41.713 41.743 41.853 41.918 42.025 42.118 42.198 42.278 42.358 42.445 42.578 42.673 42.798 42.888 43.033 43.163 43.29 43.393 43.515 43.618 43.738 43.865 43.99 44.1 44.233 44.343 44.435 44.605 44.713 44.843 44.888 44.993 45.103 45.22 45.358 45.508 45.688 45.845 45.958 46.065 46.143 46.238 46.313 46.413 46.475 46.548 46.598 46.668 46.705 46.765 46.785 46.83 46.858 46.863 46.868 46.905 46.91 46.948 46.97 47.028 47.06 47.105 47.173 47.22 47.225 47.255 47.283 47.288 47.313 47.345 47.358 47.398 47.423 47.463 47.49 47.515 47.48 47.48 47.458 47.428 47.395 47.35 47.31 47.285 47.268 47.24 47.228 47.203 47.143 47.088 47.04 46.748 45.931 45.733 45.098 44.798 45.793 46.558 46.468 45.838 44.516 42.158 41.128 40.291 39.818 38.906 37.848 37.081 36.678 36.048 34.841 32.736 30.226 29.496 29.493 28.241 27.938 26.508 23.838 22.268 22.543 22.886 22.673 22.193 22.238 22.908 22.951 22.841 22.383 20.781 20.033 19.468 20.118 20.731 19.253 18.393 18.628 18.471 18.231 18.026 18.121 18.086 17.298 16.168 14.943 14.228 13.698 13.378 12.966 12.643 12.783 12.893 12.893 12.516 12.186 11.941 10.778 10.606 10.696 10.903 10.916 10.421 9.553 8.998 8.611 8.553 8.686 8.948 8.855 8.671 8.579 8.631 8.697 8.614 8.676 8.544 8.341 8.129 7.959 8.043 8.251 8.106 7.861 7.491 7.021 6.716 6.428 6.333 6.448 6.723 7.003 7.263 7.263 7.718 7.716 7.336 7.661 8.131 8.816 7.941 7.464 7.033 6.276 5.714 5.538 6.181 6.328 6.296 6.404 5.976 5.964 5.5 5.274 4.764 4.412 4.41 4.314 4.162 3.824 3.689 3.754 4.107 4.377 4.617 4.578 4.628 4.011 4.328 4.288 4.943 5.618 4.311 2.568 2.328 2.808 3.811 3.943 3.963 3.948 4.251 4.413 4.146 3.908 3.121 2.898 2.811 2.216 2.083 2.156 2.058 1.976 1.966 2.121 2.088 2.103 2.256 2.406 2.041 2.026 1.976 1.956 2.043 2.018 1.973 1.931
39.055 39.123 39.133 39.19 39.263 39.293 39.348 39.398 39.478 39.475 39.523 39.568 39.57 39.59 39.625 39.65 39.673 39.705 39.75 39.783 39.84 39.843 39.868 39.89 39.943 39.935 39.99 40.013 40 40.043 40.088 40.13 40.188 40.198 40.255 40.308 40.323 40.41 40.455 40.47 40.49 40.568 40.543 40.518 40.56 40.575 40.59 40.7 40.725 40.735 40.875 41 40.973 40.995 41.088 41.09 41.198 41.153 41.508 41.193 41.348 41.288 41.348 41.585 41.273 41.308 41.433 41.6 42.443 42.18 42.01 42.943 41.275 41.485 41.623 41.69 42.735 42.623 41.725 41.353 41.448 41.138 41.025 40.878 40.913 40.838 40.86 40.865 40.845 40.825 40.805 40.8 40.773 40.72 40.658 40.6 40.583 40.593 40.64 40.638 40.625 40.72 40.83 40.768 40.72 40.658 40.618 40.533 40.463 40.393 40.32 40.278 40.235 40.165 40.113 40.048 39.993 39.938 39.885 39.815 39.785 39.748 39.705 39.668 39.653 39.653 39.59 39.543 39.5 39.438 39.398 39.38 39.355 39.3 39.23 39.203 39.21 39.238 39.243 39.243 39.295 39.315 39.308 39.295 39.32 39.32 39.348 39.35 39.358 39.37 39.353 39.415 39.41 39.418 39.52 39.508 39.533 39.598 39.62 39.655 39.75 39.815 39.883 39.948 39.998 40.05 40.13 40.208 40.293 40.328 40.235 40.318 40.398 40.438 40.485 40.605 40.728 40.815 40.87 40.948 40.993 41.048 41.133 41.22 41.335 41.453 41.493 41.575 41.673 41.82 41.85 41.905 42.018 42.07 42.213 42.28 42.338 42.393 42.483 42.595 42.69 42.828 42.915 43.075 43.208 43.303 43.44 43.555 43.668 43.78 43.91 44.018 44.123 44.218 44.353 44.445 44.563 44.655 44.758 44.868 44.993 45.125 45.248 45.363 45.523 45.678 45.818 45.958 46.073 46.133 46.205 46.275 46.355 46.44 46.48 46.545 46.61 46.688 46.71 46.738 46.76 46.783 46.8 46.81 46.815 46.833 46.858 46.888 46.885 46.918 46.948 47.018 47.058 47.095 47.138 47.175 47.208 47.218 47.228 47.228 47.228 47.233 47.27 47.275 47.328 47.32 47.3 47.273 47.258 47.243 47.22 47.2 47.193 47.123 47.085 47.033 46.993 46.93 46.685 45.873 44.77 44.15 44.078 44.063 43.68 44.643 45.448 45.07 44.193 43.01 40.863 38.95 38.058 37.768 36.888 35.718 34.783 34.158 33.823 33.135 32.28 30.353 27.543 26.598 26.055 25.625 24.505 22.4 20.488 20.458 20.905 20.65 20.565 20.973 21.42 21.305 20.8 20.08 19.205 18.318 17.948 18.418 18.755 17.133 16.458 16.535 16.31 16.193 16.223 16.383 16.098 15.253 14.546 13.748 12.821 12.333 12.216 11.793 11.468 11.598 11.748 11.801 11.343 11.149 10.961 10.651 10.462 10.623 10.521 10.004 9.238 8.648 8.306 7.833 7.738 7.529 7.591 7.58 7.292 7.426 7.793 7.753 7.503 7.303 7.05 6.844 6.687 6.703 6.733 6.663 6.428 6.053 5.628 5.196 5.038 5.051 5.053 5.118 5.171 5.201 5.273 5.233 5.103 4.716 4.528 4.721 4.993 5.244 4.973 5.094 4.728 4.403 4.229 4.07 4.101 4.238 4.122 4.298 4.077 3.757 3.673 3.737 3.669 3.718 3.833 3.833 3.73 3.447 3.322 3.244 3.37 3.648 3.975 3.948 3.848 3.248 3.766 3.691 3.816 3.956 3.613 2.143 1.901 2.021 2.668 2.673 2.821 3.151 3.556 3.888 3.268 3.088 2.626 1.958 1.918 1.753 1.703 1.741 1.743 1.701 1.683 1.743 1.808 1.918 1.688 1.743 2.353 1.926 1.641 1.661 1.638 1.608 1.693 1.656
39.068 39.098 39.133 39.185 39.235 39.288 39.34 39.423 39.45 39.5 39.55 39.583 39.58 39.6 39.655 39.688 39.7 39.745 39.805 39.838 39.89 39.905 39.925 39.963 39.973 39.99 40.045 40.073 40.083 40.14 40.178 40.223 40.258 40.3 40.368 40.41 40.463 40.51 40.593 40.618 40.62 40.618 40.62 40.643 40.648 40.648 40.67 40.918 40.918 40.988 41.043 41.208 41.258 41.24 41.253 41.188 41.258 41.243 41.268 41.258 41.425 41.45 41.693 41.478 41.5 41.535 41.458 41.628 43.283 42.158 42.165 42.08 42.383 42.198 42.338 42.123 43.225 43.585 42.145 42.678 42.728 41.245 42.415 41.945 42.12 41.755 41.208 41.403 41.005 40.908 40.84 40.905 40.97 40.845 40.708 40.718 40.748 41.185 41.25 40.948 41.02 41.018 40.955 40.848 40.798 40.748 40.705 40.658 40.583 40.553 40.465 40.425 40.35 40.293 40.263 40.193 40.168 40.108 40.038 39.97 39.945 39.905 39.85 39.795 39.755 39.768 39.745 39.703 39.658 39.578 39.483 39.478 39.425 39.38 39.398 39.375 39.363 39.41 39.413 39.403 39.4 39.388 39.393 39.415 39.428 39.445 39.458 39.46 39.478 39.535 39.508 39.508 39.485 39.518 39.605 39.63 39.63 39.68 39.723 39.773 39.825 39.913 39.965 40.043 40.123 40.165 40.233 40.288 40.35 40.36 40.298 40.395 40.545 40.568 40.585 40.648 40.74 40.808 40.885 40.88 40.885 40.983 41.123 41.255 41.368 41.5 41.59 41.653 41.75 41.86 41.93 42 42.073 42.163 42.283 42.378 42.438 42.478 42.565 42.64 42.738 42.82 42.943 43.103 43.23 43.335 43.465 43.593 43.678 43.815 43.93 44.04 44.145 44.245 44.325 44.458 44.548 44.628 44.72 44.823 44.963 45.103 45.26 45.408 45.565 45.688 45.815 45.935 46.04 46.123 46.165 46.22 46.303 46.39 46.453 46.48 46.525 46.618 46.653 46.665 46.698 46.703 46.7 46.743 46.763 46.778 46.798 46.803 46.82 46.845 46.813 46.845 46.875 46.898 46.955 47.04 47.05 47.073 47.09 47.078 47.103 47.125 47.118 47.12 47.13 47.13 47.078 47.063 47.03 47.035 47.058 47.05 47.008 46.983 46.918 46.853 46.828 46.72 45.77 44.068 43.28 42.515 42.07 42.528 42.345 42.813 43.405 42.475 41.618 39.318 37.29 35.185 33.595 33.67 33.09 32.36 31.398 31.19 30.428 29.735 29.63 29.09 27.438 25.09 23.695 23.205 22.015 20.14 19.033 18.938 19.24 19.485 19.378 19.42 19.78 19.448 19.053 18.205 17.453 16.88 16.455 17.155 16.888 15.558 15.115 14.583 14.423 14.213 14.393 14.378 14.068 13.273 12.896 12.326 11.436 11.116 10.798 10.411 10.371 10.298 10.443 10.614 10.223 10.02 9.87 9.874 9.513 9.769 9.671 8.958 8.345 7.866 7.492 7.097 6.968 6.794 6.873 6.857 6.609 6.406 6.408 6.419 6.267 5.881 5.571 5.582 5.556 5.516 5.372 5.062 4.861 4.666 4.621 4.531 4.543 4.503 4.468 4.401 4.263 4.126 4.078 4.063 4.041 3.861 3.861 3.913 3.787 3.461 3.557 3.73 3.829 3.755 3.765 3.626 3.513 3.583 3.509 3.545 3.51 3.441 3.413 3.436 3.371 3.463 3.406 3.513 3.466 3.102 2.952 2.902 3.037 2.842 2.805 3.129 2.718 2.468 2.643 2.701 3.478 3.671 3.668 2.076 1.578 1.558 1.538 1.948 2.233 2.013 2.393 3.138 2.961 2.561 1.968 1.663 1.608 1.516 1.516 1.471 1.433 1.501 1.488 1.446 1.421 1.406 1.426 1.406 1.528 1.446 1.416 1.403 1.406 1.381 1.556 1.478
39.053 39.088 39.123 39.178 39.225 39.275 39.32 39.418 39.473 39.52 39.555 39.588 39.59 39.638 39.673 39.675 39.728 39.76 39.848 39.878 39.903 39.95 39.973 40.008 40.038 40.068 40.073 40.12 40.163 40.203 40.238 40.305 40.308 40.373 40.45 40.508 40.583 40.655 40.668 40.648 40.675 40.703 40.705 40.67 40.748 40.935 40.888 40.973 41.005 41.128 41.145 41.235 41.275 41.363 41.328 41.323 41.313 41.353 41.355 41.37 41.483 41.445 41.52 41.478 41.72 42.2 42.425 42.238 42.488 41.863 41.72 41.61 41.975 42.243 42.35 41.923 42.45 42.525 42.733 42.355 42.173 42.338 42.59 42.318 41.73 42.423 42.583 42.025 41.433 41.313 41.213 41.198 41.143 41.105 40.935 40.94 40.963 41.298 41.255 41.073 41.115 41.13 41.053 40.968 40.893 40.843 40.773 40.778 40.71 40.66 40.603 40.55 40.498 40.453 40.385 40.353 40.323 40.263 40.183 40.128 40.063 40.015 40.003 39.97 39.94 39.923 39.898 39.823 39.773 39.713 39.663 39.623 39.543 39.535 39.53 39.515 39.518 39.523 39.498 39.498 39.505 39.518 39.513 39.515 39.543 39.563 39.558 39.553 39.563 39.625 39.61 39.613 39.535 39.588 39.693 39.725 39.723 39.775 39.823 39.92 39.95 40.023 40.08 40.143 40.213 40.255 40.37 40.46 40.448 40.425 40.35 40.46 40.745 40.798 40.818 40.865 40.915 40.928 40.883 41.003 41.153 41.23 41.355 41.44 41.508 41.588 41.675 41.723 41.863 41.978 42.065 42.085 42.14 42.263 42.338 42.448 42.493 42.535 42.628 42.72 42.793 42.87 42.983 43.095 43.19 43.32 43.463 43.595 43.708 43.8 43.893 44.045 44.13 44.233 44.348 44.428 44.515 44.633 44.75 44.875 44.998 45.138 45.26 45.405 45.543 45.673 45.813 45.935 46.023 46.083 46.13 46.178 46.243 46.298 46.39 46.418 46.473 46.54 46.57 46.578 46.62 46.63 46.665 46.668 46.675 46.693 46.728 46.738 46.75 46.768 46.755 46.763 46.768 46.775 46.818 46.87 46.895 46.895 46.938 46.933 46.948 46.94 46.945 46.943 46.963 46.95 46.905 46.878 46.863 46.84 46.83 46.82 46.84 46.795 46.72 46.678 46.633 46.565 45.665 43.463 42.045 40.078 39.33 40.663 39.645 39.018 39.383 37.248 35.068 32.773 31.815 30.723 29.463 28.97 28.355 27.865 27.35 26.915 25.315 24.738 25.545 26.003 25.82 24.795 22.365 20.725 19.7 18.063 17.728 17.52 17.64 18.065 17.953 17.985 17.998 17.833 17.305 16.518 15.79 15.315 15.178 15.75 15.348 14.243 13.818 13.135 12.798 12.45 12.32 11.88 11.846 11.661 11.176 10.551 10.296 9.751 9.346 9.048 8.971 9.09 9.275 9.425 8.894 8.686 8.528 8.504 8.06 7.784 7.709 7.44 7.2 6.913 6.798 6.318 6.302 5.947 5.895 6.019 5.992 5.489 5.138 4.983 4.845 4.649 4.59 4.574 4.633 4.526 4.328 4.121 4.095 4.1 4.222 4.223 4.213 4.186 4.086 3.916 3.808 3.751 3.778 3.633 3.326 3.168 3.201 3.178 3.244 3.09 3.163 3.265 3.343 3.327 3.363 3.357 3.286 3.307 3.353 3.325 3.27 3.219 3.157 3.114 3.068 3.049 3.021 3.025 2.842 2.709 2.601 2.601 2.395 2.278 2.168 2.12 1.968 1.873 1.868 1.696 2.168 3.663 3.853 2.278 1.436 1.423 1.408 2.018 2.448 1.731 1.478 1.568 1.618 1.658 1.848 1.408 1.453 1.433 1.386 1.378 1.361 1.316 1.296 1.268 1.271 1.248 1.246 1.213 1.306 1.328 1.318 1.311 1.343 1.346 1.358 1.323
39.053 39.115 39.148 39.198 39.23 39.258 39.305 39.38 39.473 39.49 39.528 39.565 39.58 39.63 39.67 39.7 39.738 39.77 39.838 39.895 39.938 39.995 40.028 40.038 40.093 40.1 40.138 40.175 40.215 40.263 40.295 40.358 40.403 40.49 40.578 40.65 40.685 40.683 40.698 40.733 40.75 40.728 40.763 40.925 40.96 41.058 41.163 41.198 41.175 41.21 41.278 41.253 41.298 41.34 41.333 41.395 41.49 41.565 41.515 41.57 41.825 41.743 41.528 41.565 41.643 41.813 42.11 42.208 41.63 41.625 41.663 41.62 41.613 41.635 41.715 42.145 41.97 41.855 42.06 42.283 42.288 42.753 42.973 42.643 42.755 42.265 43.32 43.003 42.645 41.788 41.423 41.383 41.358 41.378 41.243 41.26 41.163 41.195 41.143 41.048 41.138 41.145 41.123 41.06 40.983 40.958 40.908 40.863 40.85 40.768 40.728 40.693 40.623 40.563 40.513 40.493 40.465 40.428 40.355 40.253 40.213 40.19 40.175 40.135 40.098 40.048 40.048 39.975 39.913 39.835 39.81 39.723 39.71 39.735 39.72 39.673 39.665 39.648 39.64 39.61 39.618 39.615 39.615 39.625 39.653 39.663 39.668 39.688 39.66 39.705 39.713 39.66 39.668 39.708 39.73 39.828 39.86 39.863 39.94 40.058 40.03 40.153 40.218 40.273 40.305 40.325 40.445 40.47 40.475 40.48 40.42 40.53 40.725 40.788 40.88 40.99 41.07 41.073 40.97 41.19 41.325 41.425 41.49 41.565 41.608 41.683 41.728 41.823 41.943 42.053 42.133 42.205 42.223 42.315 42.38 42.483 42.563 42.595 42.668 42.763 42.853 42.908 43.008 43.125 43.218 43.34 43.435 43.565 43.665 43.768 43.88 44.008 44.13 44.23 44.355 44.448 44.545 44.653 44.79 44.91 45.043 45.16 45.305 45.433 45.563 45.653 45.755 45.855 45.98 46.033 46.118 46.17 46.193 46.25 46.305 46.328 46.405 46.43 46.473 46.503 46.535 46.555 46.548 46.58 46.59 46.603 46.64 46.675 46.675 46.69 46.705 46.698 46.693 46.703 46.723 46.738 46.738 46.763 46.765 46.735 46.73 46.745 46.743 46.758 46.765 46.748 46.77 46.753 46.728 46.69 46.638 46.595 46.565 46.533 46.48 46.44 46.4 46.37 45.918 44.025 41.993 37.863 37.46 37.523 36.095 35.698 34.905 32.825 31.35 29.9 28.948 28.663 27.195 26.143 25.63 24.738 23.448 22.763 22.113 21.943 22.013 21.868 21.585 21.088 19.938 17.948 17.138 16.343 16.228 15.938 15.645 16.103 16.44 16.283 16.053 16.213 15.693 14.485 13.925 13.635 13.463 14.205 12.953 12.655 12.458 11.693 11.175 10.845 10.515 10.25 10.042 9.655 9.4 9.101 8.981 8.677 8.543 8.313 8.106 7.98 7.88 7.839 7.533 7.213 7.158 7.22 6.884 6.368 6.213 6.176 5.962 5.795 6.272 5.388 5.228 5.024 5.016 4.877 4.762 4.583 4.426 4.352 4.304 4.233 4.22 4.163 4.173 4.125 4.025 4.012 3.987 3.917 3.88 3.766 3.656 3.503 3.306 3.213 3.143 3.103 3.073 2.958 2.983 3.046 2.988 3.069 3.049 3.012 3.028 3.101 3.057 3 3.041 3.024 2.965 2.987 2.998 2.962 2.904 2.857 2.806 2.695 2.614 2.698 2.633 2.496 2.389 2.252 2.135 2.178 2.032 1.866 1.749 1.682 1.621 1.531 1.461 1.398 1.326 2.623 3.643 1.741 1.426 1.423 1.386 1.711 2.193 1.463 1.333 1.353 1.328 1.316 1.316 1.366 1.368 1.361 1.361 1.308 1.338 1.336 1.233 1.256 1.216 1.248 1.281 1.283 1.326 1.393 1.318 1.308 1.296 1.331 1.351 1.353
39.043 39.118 39.158 39.198 39.213 39.25 39.305 39.378 39.46 39.483 39.53 39.57 39.598 39.635 39.68 39.71 39.76 39.803 39.865 39.908 39.95 39.995 40.03 40.04 40.085 40.13 40.153 40.21 40.273 40.335 40.383 40.46 40.515 40.638 40.67 40.658 40.675 40.72 40.753 40.763 40.885 40.993 41.04 41.155 41.163 41.248 41.318 41.4 41.275 41.305 41.35 41.288 41.395 41.383 41.435 41.495 41.543 41.64 41.968 41.855 41.71 41.683 41.653 41.638 41.625 41.795 41.96 41.833 41.658 41.655 41.648 41.648 41.648 41.683 41.688 41.69 41.693 41.733 41.943 41.973 42.02 42.07 42.953 43.28 42.878 43.225 43.153 43.323 43.805 42.91 41.51 41.5 41.475 41.493 41.418 41.335 41.363 41.303 41.27 41.208 41.2 41.223 41.193 41.14 41.135 41.08 41.018 40.988 40.92 40.91 40.873 40.815 40.788 40.728 40.688 40.675 40.675 40.633 40.52 40.47 40.418 40.358 40.31 40.27 40.233 40.215 40.215 40.145 40.043 39.993 39.943 39.928 39.883 39.88 39.848 39.815 39.785 39.783 39.76 39.753 39.743 39.745 39.755 39.748 39.763 39.775 39.775 39.775 39.77 39.775 39.803 39.803 39.773 39.808 39.83 39.895 39.955 39.993 40.023 40.12 40.173 40.318 40.375 40.483 40.528 40.435 40.453 40.515 40.56 40.508 40.5 40.515 40.648 40.698 40.773 40.925 41.073 40.968 41.14 41.315 41.405 41.523 41.555 41.63 41.693 41.745 41.758 41.858 41.995 42.11 42.198 42.26 42.318 42.383 42.473 42.543 42.633 42.698 42.725 42.8 42.868 42.923 43.043 43.153 43.245 43.355 43.45 43.56 43.643 43.71 43.845 43.985 44.1 44.235 44.37 44.458 44.585 44.695 44.828 44.938 45.08 45.203 45.32 45.44 45.578 45.68 45.788 45.855 45.92 46.015 46.083 46.123 46.165 46.188 46.255 46.27 46.308 46.343 46.378 46.413 46.433 46.458 46.453 46.485 46.53 46.525 46.55 46.59 46.585 46.605 46.598 46.58 46.57 46.585 46.605 46.633 46.643 46.665 46.645 46.608 46.565 46.548 46.548 46.515 46.545 46.583 46.585 46.588 46.553 46.515 46.47 46.423 46.398 46.35 46.29 46.198 46.165 46.088 45.26 43.253 40.425 36.438 35.228 34.38 33.4 33.088 32 29.938 28.415 27.653 26.803 26.32 24.85 24.195 23.5 22.413 21.328 20.59 20.115 19.72 19.645 19.143 18.803 18.03 16.798 15.818 15 14.38 14.48 14.403 13.91 13.943 14.51 14.315 13.71 13.575 12.848 12.378 12.195 11.723 11.658 11.558 11.128 11.193 10.865 10.538 10.16 9.613 9.138 8.814 8.55 8.157 7.935 7.764 7.755 8.001 8.051 7.792 7.447 7.096 6.634 6.372 6.337 6.15 6.041 6.146 5.735 5.413 5.107 4.858 4.704 4.722 4.876 4.48 4.42 4.371 4.29 4.245 4.253 4.285 4.259 4.221 4.151 4.124 4.111 4.066 3.993 3.902 3.792 3.69 3.576 3.395 3.264 3.172 3.053 3.023 2.973 2.948 2.868 2.798 2.806 2.736 2.646 2.643 2.584 2.622 2.631 2.604 2.6 2.605 2.646 2.615 2.599 2.634 2.591 2.551 2.539 2.471 2.427 2.364 2.284 2.158 2.087 2.065 2.04 1.953 1.837 1.753 1.721 1.604 1.529 1.481 1.441 1.417 1.366 1.294 1.246 1.301 1.246 1.356 1.391 1.426 1.476 1.411 1.426 1.401 1.368 1.288 1.258 1.323 1.301 1.293 1.271 1.248 1.303 1.243 1.291 1.251 1.241 1.358 1.296 1.251 1.351 1.383 1.348 1.331 1.313 1.378 1.348 1.323 1.281 1.321 1.301 1.333
38.988 39.07 39.128 39.178 39.193 39.233 39.288 39.378 39.46 39.473 39.498 39.528 39.608 39.63 39.665 39.7 39.765 39.805 39.858 39.903 39.943 39.973 40.003 40.043 40.083 40.13 40.153 40.22 40.288 40.355 40.44 40.515 40.573 40.668 40.695 40.675 40.705 40.733 40.963 41.02 41.135 41.173 41.1 41.155 41.245 41.273 41.363 41.375 41.328 41.373 41.428 41.485 41.555 41.54 41.62 41.593 41.613 41.63 41.703 41.71 41.683 41.678 41.713 41.748 41.735 41.758 41.773 41.803 41.798 41.8 41.805 41.758 41.758 41.745 41.74 41.765 41.755 41.763 41.77 41.775 41.81 41.885 42.143 42.64 43.158 43.233 43.385 43.048 42.935 42.565 41.855 41.628 41.568 41.523 41.565 41.485 41.423 41.408 41.405 41.353 41.343 41.345 41.313 41.32 41.313 41.233 41.18 41.113 41.028 40.998 40.953 40.935 40.92 40.903 40.865 40.863 40.84 40.793 40.688 40.638 40.548 40.5 40.443 40.4 40.378 40.363 40.325 40.275 40.155 40.135 40.098 40.103 40.05 40.035 39.988 39.948 39.938 39.928 39.915 39.895 39.89 39.9 39.905 39.865 39.87 39.88 39.868 39.86 39.863 39.88 39.883 39.908 39.915 39.918 39.948 39.978 40.035 40.068 40.123 40.275 40.348 40.358 40.408 40.458 40.59 40.54 40.588 40.74 40.628 40.545 40.53 40.668 40.755 40.783 40.818 40.885 40.975 41.068 41.288 41.365 41.495 41.568 41.633 41.728 41.823 41.845 41.888 41.888 42.038 42.155 42.275 42.333 42.4 42.453 42.548 42.618 42.668 42.808 42.845 42.863 42.933 42.998 43.09 43.168 43.255 43.353 43.415 43.523 43.623 43.728 43.868 43.995 44.128 44.273 44.385 44.48 44.613 44.718 44.825 44.965 45.095 45.218 45.365 45.468 45.595 45.703 45.783 45.848 45.9 45.97 46.03 46.068 46.09 46.133 46.17 46.213 46.24 46.27 46.295 46.335 46.36 46.358 46.363 46.398 46.433 46.423 46.453 46.495 46.518 46.513 46.498 46.47 46.445 46.473 46.503 46.498 46.538 46.543 46.538 46.5 46.46 46.418 46.43 46.423 46.39 46.388 46.358 46.338 46.32 46.29 46.253 46.218 46.208 46.153 46.1 45.993 45.878 45.45 44.245 42.595 39.698 36.503 33.115 30.885 29.768 28.413 26.618 25.528 25.228 25.173 24.445 22.953 22.403 22.145 21.735 20.633 19.673 18.683 18.03 17.815 17.545 17.295 17.175 16.328 15.28 14.33 13.578 13.098 12.97 12.845 12.563 12.55 12.41 12.03 11.095 10.658 10.578 10.67 10.438 10.134 9.474 9.437 9.604 9.727 9.406 9.239 9.093 8.806 8.344 7.798 7.244 6.874 6.688 6.479 6.753 6.972 7.024 6.915 6.768 6.44 5.76 5.09 5.108 5.231 5.002 4.776 4.659 4.613 4.444 4.344 4.281 4.224 4.248 4.239 4.238 4.201 4.152 4.166 4.139 4.076 3.996 3.903 3.805 3.747 3.727 3.685 3.631 3.522 3.442 3.38 3.312 3.237 3.192 3.129 3.062 2.958 2.901 2.826 2.683 2.523 2.346 2.346 2.201 2.223 2.132 2.127 2.096 2.106 2.123 2.104 2.164 2.146 2.101 2.055 2.035 2.009 1.983 1.939 1.871 1.801 1.747 1.727 1.736 1.654 1.569 1.516 1.477 1.414 1.394 1.336 1.336 1.307 1.288 1.264 1.283 1.28 1.326 1.358 1.328 1.333 1.326 1.436 1.421 1.376 1.383 1.451 1.321 1.298 1.361 1.358 1.301 1.338 1.238 1.313 1.386 1.326 1.296 1.378 1.361 1.426 1.406 1.493 1.633 1.531 1.433 1.438 1.418 1.478 1.471 1.378 1.366 1.346 1.271 1.373
38.953 39.033 39.095 39.135 39.185 39.218 39.29 39.36 39.45 39.468 39.488 39.523 39.588 39.613 39.68 39.725 39.755 39.788 39.85 39.895 39.933 39.953 39.983 40.035 40.078 40.14 40.193 40.25 40.35 40.398 40.46 40.548 40.618 40.713 40.688 40.753 40.823 40.975 41.145 41.175 41.318 41.265 41.22 41.308 41.378 41.36 41.473 41.445 41.443 41.488 41.508 41.575 41.623 41.655 41.728 41.708 41.735 41.743 41.775 41.74 41.79 41.805 41.825 41.833 41.843 41.838 41.88 41.905 41.878 41.923 41.905 41.873 41.858 41.86 41.9 41.928 41.898 41.87 41.85 41.828 41.843 41.945 42.063 42.483 42.848 43.088 43 42.665 42.013 43.02 42.248 41.735 41.713 41.67 41.683 41.62 41.54 41.52 41.515 41.538 41.548 41.555 41.54 41.505 41.463 41.41 41.35 41.29 41.218 41.148 41.073 41.03 41.008 41.003 40.96 40.948 40.888 40.84 40.798 40.753 40.698 40.613 40.57 40.58 40.555 40.513 40.458 40.338 40.3 40.323 40.278 40.233 40.185 40.153 40.128 40.093 40.065 40.068 40.065 40.045 40.01 40.043 40.045 40.008 40.008 39.985 39.978 40.003 40.018 40.025 40.03 40.018 40.023 40.018 40.015 40.04 40.088 40.173 40.218 40.315 40.42 40.358 40.355 40.453 40.583 40.653 40.78 40.728 40.618 40.578 40.718 40.9 40.933 41.01 41.02 41.058 41.14 41.25 41.408 41.505 41.583 41.613 41.733 41.85 41.87 41.92 41.975 42.015 42.088 42.235 42.358 42.415 42.495 42.54 42.593 42.673 42.71 42.82 42.903 42.953 43.005 43.085 43.168 43.188 43.268 43.333 43.445 43.543 43.645 43.775 43.908 44.025 44.158 44.313 44.415 44.478 44.603 44.703 44.83 44.95 45.07 45.213 45.35 45.483 45.588 45.693 45.745 45.818 45.903 45.965 46.018 46.048 46.068 46.11 46.133 46.153 46.168 46.198 46.228 46.265 46.29 46.3 46.283 46.283 46.328 46.31 46.328 46.368 46.385 46.378 46.38 46.365 46.32 46.335 46.358 46.35 46.393 46.365 46.37 46.368 46.343 46.34 46.345 46.29 46.255 46.255 46.205 46.158 46.115 46.063 46.025 45.96 45.948 45.91 45.855 45.698 45.125 44.55 43.26 40.275 37.785 34.555 31.173 28.333 26.835 24.91 23.35 22.96 23.118 23.303 22.045 20.778 20.418 20.225 19.9 19.04 18.123 17.243 16.5 16.108 15.798 15.63 15.22 14.315 13.245 12.595 12.205 11.84 11.508 11.398 11.185 11.12 10.875 10.61 9.538 8.88 8.658 8.78 8.643 8.446 7.947 7.93 8.318 8.324 8.139 7.96 8.011 7.862 7.542 6.975 6.326 5.834 5.274 5.163 5.632 6.043 6.011 5.982 5.96 5.747 5.256 4.695 4.502 4.527 4.392 4.351 4.338 4.355 4.319 4.235 4.202 4.157 4.155 4.1 4.046 3.944 3.868 3.83 3.775 3.736 3.645 3.602 3.559 3.547 3.519 3.446 3.387 3.339 3.276 3.18 3.126 3.008 2.905 2.773 2.626 2.465 2.336 2.156 2.093 1.973 1.861 1.808 1.731 1.658 1.649 1.658 1.672 1.665 1.706 1.685 1.643 1.648 1.641 1.625 1.593 1.564 1.507 1.472 1.429 1.369 1.355 1.317 1.288 1.258 1.221 1.212 1.171 1.173 1.203 1.157 1.172 1.126 1.176 1.173 1.261 1.342 1.376 1.401 1.431 1.448 1.423 1.413 1.346 1.281 1.306 1.418 1.461 1.418 1.453 1.516 1.476 1.533 1.486 1.538 1.591 1.636 1.603 1.571 1.608 1.638 1.636 1.733 1.723 1.658 1.553 1.628 1.571 1.603 1.591 1.546 1.558 1.561 1.451 1.463
38.93 38.985 39.04 39.08 39.14 39.168 39.245 39.343 39.418 39.445 39.445 39.5 39.54 39.593 39.643 39.68 39.74 39.773 39.803 39.88 39.905 39.948 39.998 40.068 40.125 40.183 40.238 40.31 40.375 40.438 40.493 40.513 40.595 40.685 40.76 40.953 41.01 41.135 41.305 41.213 41.313 41.3 41.28 41.41 41.503 41.48 41.53 41.535 41.568 41.573 41.568 41.68 41.705 41.775 41.763 41.8 41.803 41.818 41.808 41.883 41.863 41.863 41.898 41.885 41.888 41.92 41.943 41.985 41.953 42.02 41.993 41.973 41.975 41.955 41.998 41.995 41.988 41.96 41.955 41.953 41.943 41.923 42.028 42.19 42.408 42.098 42.018 42.313 42.223 42.383 42.035 41.888 41.903 41.903 41.91 41.865 41.778 41.733 41.755 41.793 41.775 41.773 41.75 41.718 41.695 41.59 41.54 41.45 41.363 41.313 41.263 41.228 41.173 41.133 41.1 41.045 40.965 40.96 40.898 40.848 40.8 40.76 40.72 40.713 40.69 40.62 40.515 40.45 40.468 40.48 40.425 40.358 40.325 40.298 40.29 40.255 40.24 40.228 40.193 40.165 40.135 40.13 40.168 40.16 40.145 40.155 40.13 40.118 40.115 40.17 40.145 40.128 40.135 40.143 40.135 40.14 40.188 40.273 40.33 40.4 40.518 40.485 40.513 40.538 40.668 40.915 40.855 40.66 40.615 40.775 40.9 41.01 41.088 41.163 41.175 41.243 41.315 41.4 41.495 41.565 41.655 41.74 41.815 41.87 41.915 41.978 42.083 42.143 42.18 42.313 42.403 42.47 42.528 42.595 42.638 42.7 42.77 42.823 42.94 42.998 43.06 43.135 43.19 43.253 43.345 43.433 43.505 43.615 43.72 43.845 43.958 44.045 44.185 44.32 44.403 44.5 44.613 44.698 44.803 44.88 45.03 45.17 45.318 45.435 45.555 45.66 45.703 45.793 45.848 45.905 45.948 46.02 46.045 46.053 46.068 46.085 46.1 46.153 46.173 46.188 46.205 46.19 46.208 46.21 46.233 46.248 46.248 46.263 46.253 46.283 46.255 46.258 46.213 46.22 46.208 46.21 46.208 46.243 46.25 46.23 46.305 46.643 46.313 46.143 46.103 46.118 46.083 46.06 45.985 45.915 45.828 45.76 45.683 45.608 45.565 45.045 44.158 42.915 40.348 36.865 34.063 30.74 28.25 26.435 24.66 23.395 22.208 21.45 21.368 21.883 21.01 19.745 18.685 18.265 18.225 17.435 16.585 15.94 15.595 15.128 14.643 14.36 13.65 12.213 11.103 10.918 10.795 10.375 9.898 9.875 9.708 9.61 9.078 8.892 8.062 7.489 7.096 6.913 6.853 6.715 6.337 6.426 6.542 6.693 6.747 6.836 6.862 6.658 6.548 5.948 5.406 4.887 4.65 4.669 4.725 4.906 4.953 5.124 5.087 4.881 4.616 4.401 4.369 4.295 4.242 4.195 4.15 4.131 4.093 3.992 3.894 3.811 3.717 3.654 3.65 3.606 3.575 3.514 3.493 3.477 3.426 3.353 3.348 3.242 3.184 3.074 2.952 2.872 2.742 2.593 2.504 2.351 2.223 2.082 1.946 1.807 1.686 1.603 1.553 1.491 1.451 1.436 1.366 1.351 1.398 1.378 1.4 1.412 1.439 1.446 1.394 1.399 1.391 1.292 1.283 1.238 1.207 1.163 1.11 1.091 1.072 1.03 1.003 0.983 0.991 0.997 1.03 1.048 1.069 1.053 1.053 1.121 1.229 1.27 1.397 1.36 1.461 1.551 1.656 1.573 1.523 1.541 1.591 1.428 1.563 1.786 1.706 1.638 1.541 1.518 1.598 1.623 1.681 1.721 1.688 1.801 1.656 1.716 1.733 1.771 1.698 1.671 1.666 1.643 1.518 1.608 1.611 1.671 1.626 1.743 1.731 1.701 1.806 1.808
38.925 38.965 39.023 39.025 39.075 39.143 39.21 39.273 39.34 39.373 39.433 39.465 39.498 39.575 39.643 39.68 39.725 39.758 39.803 39.835 39.903 39.958 40.018 40.078 40.138 40.188 40.255 40.305 40.378 40.493 40.505 40.588 40.733 40.805 40.875 40.988 41.028 41.123 41.31 41.29 41.273 41.243 41.27 41.44 41.52 41.555 41.545 41.615 41.648 41.665 41.723 41.77 41.76 41.81 41.803 41.858 41.89 41.885 41.923 41.928 41.898 41.928 41.933 41.955 41.975 41.98 41.995 42.035 42.045 42.043 42.038 42.035 42.018 42.023 42.05 42.055 42.048 42.025 42.045 42.03 42.033 42.008 42.065 42.06 42.048 42.02 42.033 42.033 42.108 42.093 42 41.943 42.028 42.013 42.013 42.04 41.955 41.938 41.925 41.943 41.933 41.958 41.92 41.895 41.85 41.798 41.705 41.56 41.485 41.488 41.428 41.383 41.34 41.295 41.243 41.193 41.15 41.123 41.048 40.978 40.938 40.89 40.873 40.79 40.733 40.695 40.653 40.635 40.61 40.61 40.56 40.515 40.47 40.463 40.403 40.395 40.368 40.355 40.303 40.285 40.278 40.295 40.315 40.328 40.303 40.298 40.28 40.29 40.268 40.29 40.293 40.255 40.245 40.258 40.278 40.27 40.303 40.378 40.428 40.493 40.548 40.685 40.7 40.693 40.785 40.913 40.758 40.66 40.793 40.93 41.033 41.083 41.165 41.255 41.298 41.34 41.423 41.468 41.54 41.638 41.725 41.813 41.898 41.968 42.005 42.078 42.185 42.223 42.263 42.313 42.418 42.51 42.593 42.663 42.73 42.76 42.785 42.778 42.855 43.003 43.1 43.17 43.258 43.333 43.418 43.493 43.59 43.683 43.785 43.898 44.02 44.148 44.24 44.34 44.41 44.528 44.603 44.703 44.8 44.905 45.02 45.165 45.298 45.38 45.498 45.583 45.658 45.733 45.783 45.863 45.905 45.95 46.003 46.013 46.043 46.04 46.035 46.09 46.085 46.12 46.128 46.125 46.13 46.14 46.115 46.125 46.158 46.185 46.163 46.17 46.128 46.108 46.108 46.085 46.078 46.12 46.138 46.128 46.11 46.165 46.718 46.568 46.083 45.993 46.03 45.953 45.918 45.883 45.823 45.76 45.683 45.665 45.55 45.273 44.97 44.21 41.71 38.878 35.993 33.9 31.79 29.588 27.205 25.01 23.455 21.87 20.913 19.993 19.798 19.998 19.905 18.8 17.543 16.883 16.603 16.17 15.113 14.365 14.003 13.738 13.328 12.893 12.118 10.583 9.72 9.505 9.498 9.215 8.39 8.182 8.082 7.934 7.432 6.99 6.431 6.227 5.794 5.433 5.305 5.296 5.278 5.274 5.396 5.342 5.386 5.444 5.473 5.344 5.126 4.863 4.55 4.545 4.558 4.508 4.448 4.382 4.368 4.452 4.385 4.26 4.169 4.113 3.983 3.859 3.788 3.777 3.748 3.711 3.68 3.613 3.552 3.492 3.439 3.4 3.374 3.323 3.284 3.224 3.143 3.036 2.94 2.847 2.731 2.614 2.538 2.437 2.318 2.205 2.056 1.941 1.818 1.72 1.609 1.514 1.438 1.339 1.324 1.338 1.303 1.29 1.27 1.301 1.305 1.341 1.36 1.347 1.307 1.302 1.28 1.284 1.24 1.196 1.149 1.11 1.058 1.002 0.956 0.873 0.814 0.779 0.746 0.732 0.711 0.734 0.757 0.83 0.886 0.972 1.037 1.062 1.18 1.297 1.458 1.549 1.612 1.569 1.718 1.846 1.761 1.613 1.651 1.708 1.686 1.678 1.711 1.798 1.691 1.581 1.548 1.556 1.556 1.608 1.593 1.601 1.553 1.636 1.571 1.591 1.651 1.601 1.546 1.611 1.658 1.526 1.468 1.558 1.533 1.568 1.593 1.643 1.566 1.611 1.578 1.601
38.863 38.928 38.973 38.983 39.035 39.083 39.153 39.223 39.278 39.323 39.38 39.415 39.48 39.538 39.618 39.66 39.72 39.74 39.803 39.843 39.903 39.938 40.003 40.08 40.153 40.19 40.23 40.27 40.488 40.625 40.73 40.778 40.798 40.728 40.788 40.94 40.91 40.915 40.898 40.94 41.005 41.185 41.215 41.288 41.36 41.42 41.475 41.578 41.635 41.658 41.68 41.703 41.743 41.79 41.83 41.863 41.85 41.888 41.888 41.933 41.923 41.935 41.953 41.95 41.963 41.985 42.05 42.045 42.05 42.048 42.073 42.058 42.013 42.003 42.05 42.083 42.073 42.068 42.08 42.08 42.078 42.1 42.118 42.103 42.098 42.095 42.123 42.108 42.103 42.135 42.065 41.965 41.973 42.04 42.03 42.06 42.053 41.99 42.018 42.048 42.058 42.103 42.078 42.055 42.02 41.975 41.893 41.78 41.67 41.613 41.528 41.495 41.468 41.425 41.4 41.323 41.28 41.225 41.17 41.128 41.078 41.048 41 40.883 40.825 40.813 40.793 40.755 40.748 40.73 40.685 40.658 40.635 40.61 40.555 40.518 40.508 40.485 40.463 40.44 40.433 40.44 40.458 40.44 40.418 40.42 40.45 40.455 40.43 40.435 40.4 40.385 40.368 40.355 40.395 40.42 40.45 40.488 40.545 40.538 40.645 40.78 40.808 40.76 40.783 40.775 40.758 40.87 40.968 41.053 41.095 41.183 41.23 41.32 41.353 41.42 41.503 41.565 41.65 41.725 41.798 41.888 41.975 42.06 42.123 42.178 42.223 42.293 42.35 42.335 42.453 42.545 42.638 42.733 42.768 42.77 42.77 42.808 42.928 43.08 43.15 43.223 43.303 43.385 43.465 43.558 43.64 43.728 43.843 43.963 44.085 44.195 44.31 44.395 44.483 44.57 44.645 44.728 44.813 44.9 45.038 45.16 45.283 45.383 45.448 45.533 45.588 45.633 45.703 45.785 45.825 45.86 45.928 45.963 46.01 45.99 45.995 46.01 46.04 46.033 46.038 46.055 46.063 46.075 46.068 46.075 46.105 46.07 46.063 46.068 46.038 46.015 45.995 46.003 46.003 46.018 45.993 46.01 46.133 46.485 46.918 46.165 45.84 45.818 45.853 45.758 45.703 45.695 45.645 45.585 45.53 45.5 45.398 44.685 42.7 40.473 37.57 35.88 34.468 32.775 30.793 28.58 26.823 24.263 21.965 20.528 19.575 18.408 18.218 18.42 18.543 17.665 16.56 15.375 14.913 14.735 13.503 12.708 12.44 12.223 11.803 11.083 10.458 9.208 8.338 7.573 7.918 7.751 7.262 7.267 7.057 6.634 6.16 5.49 5.187 5.202 5.087 4.834 4.799 4.826 4.825 4.774 4.68 4.557 4.513 4.57 4.481 4.498 4.447 4.46 4.446 4.41 4.373 4.293 4.135 4.01 3.923 3.865 3.793 3.697 3.662 3.648 3.589 3.542 3.489 3.472 3.462 3.425 3.367 3.272 3.197 3.12 3.033 2.942 2.877 2.797 2.721 2.615 2.508 2.414 2.306 2.182 2.078 1.974 1.876 1.784 1.704 1.587 1.547 1.448 1.426 1.384 1.339 1.31 1.293 1.297 1.3 1.296 1.292 1.275 1.304 1.298 1.366 1.375 1.31 1.295 1.23 1.27 1.162 1.12 1.068 1.015 0.985 0.908 0.843 0.739 0.68 0.62 0.527 0.481 0.561 0.501 0.532 0.65 0.714 0.839 0.957 1.058 1.187 1.227 1.324 1.389 1.477 1.473 1.554 1.701 1.761 1.796 1.809 1.647 1.571 1.56 1.541 1.55 1.474 1.522 1.514 1.563 1.454 1.521 1.568 1.566 1.548 1.583 1.451 1.516 1.518 1.456 1.528 1.626 1.486 1.511 1.418 1.493 1.521 1.501 1.451 1.413 1.488 1.561 1.436 1.513 1.533 1.451
