ncols 438
nrows 32
xllcorner    462068
yllcorner    89368
cellsize     2
NODATA_value -9999
43.187 43.18 43.157 43.152 43.137 43.165 43.16 43.145 43.137 43.12 43.135 43.095 43.115 43.097 43.07 43.077 43.07 43.057 43.057 43.07 43.067 43.055 43.035 43.01 42.995 42.975 42.96 42.935 42.89 42.872 42.832 42.827 42.805 42.795 42.787 42.78 42.775 42.745 42.737 42.752 42.737 42.737 42.742 42.74 42.71 42.682 42.657 42.612 42.59 42.552 42.572 42.59 42.617 42.61 42.612 42.64 42.64 42.66 42.67 42.69 42.702 42.702 42.712 42.692 42.7 42.705 42.707 42.692 42.695 42.687 42.7 42.677 42.687 42.672 42.665 42.635 42.637 42.637 42.647 42.635 42.622 42.617 42.587 42.6 42.597 42.62 42.585 42.605 42.627 42.61 42.615 42.615 42.622 42.625 42.625 42.625 42.6 42.617 42.602 42.635 42.605 42.602 42.592 42.58 42.567 42.567 42.57 42.565 42.545 42.545 42.532 42.527 42.525 42.507 42.472 42.462 42.432 42.427 42.397 42.38 42.402 42.375 42.402 42.41 42.445 42.452 42.497 42.492 42.505 42.487 42.475 42.427 42.372 42.352 42.345 42.382 42.397 42.427 42.442 42.442 42.417 42.415 42.415 42.432 42.437 42.452 42.485 42.485 42.502 42.53 42.552 42.545 42.552 42.552 42.55 42.547 42.545 42.532 42.53 42.542 42.56 42.55 42.557 42.565 42.572 42.585 42.585 42.58 42.595 42.592 42.577 42.585 42.592 42.567 42.605 42.607 42.625 42.622 42.662 42.682 42.695 42.712 42.735 42.765 42.807 42.837 42.852 42.902 42.94 42.987 43.02 43.06 43.102 43.18 43.21 43.245 43.31 43.362 43.425 43.47 43.527 43.582 43.64 43.725 43.79 43.872 43.937 44.032 44.097 44.17 44.227 44.295 44.375 44.42 44.545 44.615 44.72 44.783 44.828 44.918 44.988 45.083 45.168 45.265 45.393 45.443 45.543 45.563 45.623 45.685 45.813 45.878 46.848 46.46 46.243 46.27 46.283 46.303 46.33 46.353 46.383 46.443 46.483 46.505 46.553 46.54 46.558 46.585 46.663 46.725 46.813 46.883 46.87 46.905 46.943 46.948 46.98 47.015 47.033 47.103 47.158 47.19 47.235 47.283 47.275 48.578 47.763 47.408 47.475 47.505 47.545 47.528 47.558 47.59 47.59 47.64 47.685 47.728 47.743 47.765 47.785 47.808 47.79 47.8 47.875 47.918 47.94 49.075 51.068 48.005 48.033 48.035 48.078 48.113 48.133 48.213 48.208 48.268 48.273 48.258 48.238 48.198 48.225 48.215 48.235 48.255 48.245 48.288 48.278 48.28 48.28 48.308 48.34 48.318 48.35 48.403 48.41 48.39 48.438 48.293 48.265 48.245 48.253 48.253 48.25 48.17 48.125 48.233 48.265 48.243 48.173 48.158 48.205 48.693 50.308 48.385 49.273 48.088 48.045 47.985 47.95 47.865 47.81 47.77 47.75 47.738 47.75 47.7 47.7 47.668 47.668 47.628 47.585 47.545 47.508 47.508 47.44 47.413 47.37 47.348 47.323 47.29 47.233 47.218 47.16 47.098 47.075 47.003 46.965 46.905 46.855 46.828 46.795 46.748 46.733 46.673 46.628 46.568 46.533 46.483 46.428 46.375 46.303 46.295 46.19 46.128 46.04 45.988 45.945 45.863 45.775 45.703 45.633 45.6 45.548 45.45 45.428 45.335 45.275 45.218 45.145 45.065 44.988 44.913 44.845 44.775 44.713 44.615 44.518 44.43 44.365 44.298 44.198 44.12 44.063 43.988 43.906 43.838 43.756 43.698 43.618 43.548 43.478 43.413 43.358 43.246 43.208 43.118 43.091 43.041 42.941 42.878 42.831 42.753 42.711 42.648 42.586 42.521
43.157 43.147 43.152 43.15 43.127 43.137 43.135 43.127 43.11 43.105 43.097 43.082 43.09 43.085 43.055 43.055 43.06 43.03 43.047 43.045 43.035 43.037 43.005 42.992 42.962 42.925 42.902 42.905 42.875 42.835 42.802 42.8 42.782 42.745 42.777 42.76 42.74 42.735 42.735 42.697 42.692 42.702 42.677 42.68 42.692 42.657 42.625 42.59 42.55 42.507 42.545 42.562 42.58 42.582 42.592 42.607 42.635 42.622 42.64 42.665 42.675 42.677 42.65 42.67 42.665 42.67 42.65 42.647 42.64 42.652 42.662 42.677 42.665 42.635 42.627 42.61 42.605 42.61 42.592 42.577 42.592 42.562 42.552 42.567 42.55 42.57 42.555 42.542 42.572 42.565 42.557 42.557 42.565 42.57 42.57 42.567 42.545 42.57 42.577 42.557 42.537 42.545 42.517 42.522 42.49 42.487 42.49 42.502 42.47 42.477 42.46 42.445 42.425 42.422 42.405 42.372 42.357 42.357 42.337 42.34 42.312 42.32 42.34 42.342 42.395 42.377 42.407 42.422 42.422 42.417 42.392 42.345 42.287 42.272 42.277 42.28 42.325 42.335 42.362 42.365 42.372 42.37 42.355 42.372 42.362 42.397 42.415 42.415 42.452 42.462 42.472 42.462 42.472 42.465 42.445 42.452 42.442 42.442 42.45 42.467 42.462 42.46 42.455 42.472 42.51 42.505 42.5 42.495 42.502 42.505 42.507 42.505 42.487 42.49 42.502 42.502 42.535 42.537 42.56 42.582 42.607 42.62 42.63 42.67 42.672 42.717 42.747 42.78 42.822 42.867 42.93 42.982 43.015 43.1 43.157 43.19 43.24 43.31 43.385 43.442 43.505 43.582 43.617 43.71 43.782 43.885 43.915 43.98 44.055 44.155 44.197 44.272 44.345 44.41 44.472 44.57 44.635 44.73 44.795 44.903 44.965 45.06 45.13 45.22 45.3 45.37 45.47 45.548 45.648 45.755 45.918 46.163 46.768 46.343 46.168 46.228 46.215 46.268 46.293 46.368 46.368 46.428 46.458 46.503 46.558 46.55 46.555 46.59 46.673 46.725 46.83 46.873 46.873 46.873 46.935 46.943 46.968 47.008 47.043 47.11 47.168 47.175 47.245 47.285 47.263 48.415 47.793 47.415 47.478 47.49 47.543 47.528 47.55 47.58 47.588 47.645 47.683 47.725 47.738 47.778 47.753 47.79 47.808 47.808 47.875 47.903 47.935 49.57 51.215 48.018 48.038 48.03 48.083 48.103 48.15 48.185 48.2 48.258 48.258 48.24 48.215 48.188 48.228 48.223 48.228 48.238 48.243 48.255 48.26 48.253 48.263 48.27 48.333 48.39 48.348 48.36 48.363 48.385 48.358 48.28 48.235 48.198 48.215 48.225 48.213 48.163 48.14 48.11 48.19 48.143 48.16 48.105 48.153 48.64 50.185 48.57 48.855 48.028 48 47.915 47.868 47.815 47.758 47.715 47.715 47.693 47.688 47.655 47.66 47.62 47.598 47.585 47.55 47.503 47.478 47.458 47.425 47.383 47.358 47.338 47.285 47.248 47.203 47.198 47.14 47.075 47.028 47.013 46.918 46.893 46.85 46.818 46.788 46.72 46.688 46.648 46.61 46.565 46.503 46.458 46.408 46.333 46.28 46.28 46.145 46.103 46.033 45.975 45.908 45.843 45.745 45.69 45.598 45.585 45.523 45.458 45.4 45.34 45.265 45.218 45.128 45.035 44.96 44.898 44.828 44.763 44.67 44.588 44.48 44.413 44.36 44.268 44.168 44.113 44.06 43.993 43.911 43.813 43.771 43.691 43.616 43.551 43.488 43.398 43.343 43.248 43.221 43.103 43.106 43.046 42.928 42.886 42.828 42.768 42.716 42.661 42.588 42.491
43.127 43.1 43.105 43.092 43.102 43.12 43.107 43.13 43.14 43.1 43.09 43.06 43.047 43.047 43.035 43.03 43.042 43.027 43.022 43.045 43.015 43.025 43.005 42.965 42.945 42.902 42.91 42.865 42.845 42.807 42.77 42.752 42.732 42.705 42.72 42.707 42.695 42.692 42.692 42.68 42.667 42.65 42.652 42.652 42.632 42.612 42.585 42.545 42.505 42.487 42.5 42.512 42.522 42.545 42.56 42.567 42.575 42.567 42.592 42.625 42.617 42.652 42.61 42.632 42.612 42.615 42.6 42.617 42.612 42.607 42.612 42.632 42.607 42.612 42.587 42.58 42.57 42.567 42.575 42.532 42.53 42.53 42.515 42.517 42.515 42.512 42.507 42.512 42.525 42.522 42.495 42.515 42.515 42.52 42.48 42.482 42.522 42.517 42.492 42.487 42.477 42.44 42.45 42.447 42.45 42.447 42.465 42.447 42.43 42.415 42.407 42.407 42.395 42.375 42.36 42.335 42.315 42.315 42.282 42.285 42.267 42.255 42.267 42.29 42.325 42.327 42.335 42.34 42.337 42.325 42.302 42.28 42.225 42.192 42.172 42.175 42.235 42.277 42.3 42.307 42.295 42.297 42.282 42.275 42.277 42.302 42.325 42.325 42.342 42.367 42.357 42.365 42.357 42.36 42.367 42.367 42.35 42.327 42.34 42.35 42.377 42.37 42.352 42.357 42.392 42.402 42.392 42.42 42.402 42.4 42.392 42.382 42.38 42.385 42.377 42.41 42.372 42.4 42.422 42.45 42.477 42.495 42.535 42.542 42.595 42.642 42.687 42.72 42.765 42.795 42.855 42.927 42.975 43.055 43.107 43.162 43.227 43.302 43.337 43.427 43.492 43.545 43.595 43.675 43.76 43.807 43.87 43.93 43.997 44.067 44.135 44.197 44.272 44.352 44.422 44.492 44.578 44.665 44.745 44.833 44.92 45.01 45.095 45.13 45.278 45.34 45.583 45.775 46.118 46.175 46.2 46.165 46.53 46.255 46.145 46.238 46.248 46.28 46.295 46.36 46.38 46.46 46.493 46.503 46.548 46.523 46.538 46.575 46.67 46.748 46.853 46.865 46.855 46.88 46.93 46.948 46.97 47.025 47.038 47.085 47.163 47.18 47.258 47.275 47.283 48.663 47.908 47.423 47.47 47.51 47.533 47.528 47.558 47.57 47.598 47.655 47.7 47.733 47.733 47.765 47.76 47.79 47.8 47.803 47.855 47.885 47.928 49.44 51.295 48.013 48.038 48.048 48.083 48.095 48.145 48.168 48.203 48.233 48.233 48.215 48.208 48.183 48.203 48.223 48.225 48.223 48.245 48.228 48.235 48.255 48.25 48.25 48.328 48.298 48.28 48.315 48.36 48.353 48.29 48.25 48.2 48.19 48.193 48.18 48.163 48.145 48.145 48.115 48.08 48.035 47.995 48.04 48.085 48.578 50.103 48.715 49.003 47.985 47.958 47.88 47.825 47.76 47.713 47.67 47.675 47.643 47.633 47.608 47.605 47.583 47.535 47.518 47.478 47.47 47.435 47.398 47.36 47.34 47.318 47.29 47.248 47.218 47.16 47.133 47.108 47.06 46.998 46.96 46.915 46.88 46.833 46.788 46.745 46.723 46.673 46.628 46.575 46.548 46.5 46.438 46.39 46.32 46.29 46.243 46.143 46.085 45.995 45.96 45.888 45.81 45.748 45.683 45.593 45.57 45.483 45.443 45.393 45.313 45.245 45.183 45.115 45.035 44.975 44.89 44.833 44.753 44.653 44.565 44.473 44.41 44.313 44.243 44.163 44.1 44.035 43.985 43.893 43.821 43.751 43.673 43.618 43.538 43.478 43.391 43.336 43.283 43.223 43.161 43.111 43.026 42.943 42.868 42.818 42.766 42.721 42.668 42.603 42.518
43.12 43.117 43.075 43.065 43.072 43.09 43.067 43.072 43.082 43.077 43.055 43.035 43.027 43.012 42.997 42.99 42.987 43.002 42.995 42.997 42.992 42.99 42.947 42.935 42.905 42.9 42.882 42.852 42.8 42.787 42.765 42.73 42.717 42.7 42.697 42.677 42.677 42.662 42.657 42.64 42.632 42.602 42.617 42.61 42.6 42.572 42.555 42.512 42.48 42.467 42.475 42.482 42.475 42.5 42.512 42.51 42.525 42.522 42.532 42.542 42.555 42.607 42.56 42.57 42.572 42.57 42.552 42.585 42.57 42.575 42.577 42.567 42.555 42.547 42.537 42.542 42.517 42.53 42.512 42.507 42.512 42.517 42.475 42.465 42.472 42.465 42.465 42.452 42.462 42.48 42.492 42.48 42.462 42.46 42.472 42.447 42.455 42.462 42.46 42.427 42.425 42.417 42.397 42.4 42.417 42.41 42.385 42.37 42.365 42.352 42.35 42.347 42.352 42.295 42.29 42.26 42.245 42.23 42.235 42.225 42.202 42.197 42.215 42.232 42.232 42.252 42.245 42.257 42.235 42.24 42.197 42.195 42.15 42.127 42.11 42.107 42.165 42.195 42.227 42.227 42.22 42.19 42.205 42.182 42.192 42.202 42.242 42.23 42.262 42.257 42.272 42.277 42.292 42.282 42.292 42.27 42.265 42.265 42.265 42.275 42.27 42.275 42.302 42.295 42.28 42.297 42.292 42.287 42.267 42.292 42.27 42.27 42.28 42.27 42.28 42.31 42.297 42.327 42.34 42.36 42.402 42.432 42.472 42.532 42.577 42.617 42.662 42.702 42.727 42.775 42.812 42.867 42.93 42.99 43.027 43.072 43.135 43.19 43.277 43.34 43.405 43.467 43.537 43.585 43.66 43.725 43.78 43.872 43.94 44.005 44.072 44.14 44.215 44.305 44.4 44.465 44.538 44.628 44.763 44.84 44.923 45.065 45.12 45.18 45.623 45.695 46.55 49.61 46.67 47.233 46.82 47.163 46.793 46.285 46.16 46.223 46.29 46.323 46.343 46.358 46.388 46.435 46.46 46.485 46.538 46.515 46.545 46.603 46.69 46.763 46.88 46.845 46.88 46.87 46.94 46.953 46.963 47.013 47.048 47.09 47.165 47.19 47.25 47.275 47.31 48.583 48.055 47.45 47.485 47.508 47.535 47.538 47.568 47.568 47.598 47.648 47.708 47.73 47.74 47.768 47.778 47.79 47.773 47.81 47.863 47.903 47.933 49.313 51.173 48.013 48.028 48.048 48.073 48.093 48.145 48.18 48.188 48.228 48.215 48.21 48.188 48.17 48.188 48.198 48.2 48.21 48.225 48.235 48.228 48.248 48.235 48.223 48.295 48.293 48.293 48.335 48.358 48.275 48.268 48.24 48.15 48.153 48.173 48.17 48.118 48.113 48.113 48.115 48.04 48.005 47.945 47.96 48 49.005 50.01 48.788 49.075 47.933 47.91 47.828 47.755 47.678 47.63 47.61 47.61 47.575 47.575 47.565 47.545 47.53 47.508 47.47 47.433 47.41 47.39 47.35 47.313 47.31 47.253 47.23 47.19 47.165 47.12 47.098 47.048 47.023 46.97 46.923 46.86 46.845 46.788 46.75 46.71 46.675 46.628 46.603 46.565 46.518 46.433 46.403 46.335 46.293 46.28 46.215 46.118 46.058 45.983 45.945 45.875 45.783 45.715 45.64 45.608 45.55 45.483 45.438 45.388 45.303 45.248 45.175 45.105 45.03 44.95 44.885 44.838 44.745 44.65 44.568 44.488 44.408 44.328 44.238 44.145 44.09 44.048 43.943 43.891 43.808 43.748 43.648 43.593 43.533 43.441 43.388 43.301 43.263 43.211 43.118 43.056 42.973 42.911 42.853 42.821 42.771 42.716 42.661 42.573 42.526
43.072 43.062 43.03 43.027 43.035 43.04 43.047 43.035 43.05 43.047 43.022 43.025 43.02 42.985 42.99 42.982 42.987 42.977 42.982 42.97 42.977 42.96 42.932 42.925 42.915 42.862 42.85 42.812 42.787 42.767 42.75 42.712 42.702 42.675 42.662 42.655 42.64 42.635 42.622 42.602 42.592 42.605 42.582 42.59 42.562 42.522 42.507 42.487 42.462 42.45 42.45 42.462 42.442 42.452 42.465 42.462 42.475 42.497 42.497 42.507 42.54 42.545 42.562 42.562 42.55 42.537 42.547 42.55 42.522 42.55 42.515 42.532 42.527 42.507 42.507 42.475 42.48 42.46 42.462 42.435 42.447 42.43 42.417 42.427 42.425 42.42 42.402 42.41 42.407 42.432 42.417 42.405 42.407 42.405 42.385 42.405 42.37 42.405 42.407 42.4 42.365 42.36 42.357 42.37 42.347 42.332 42.337 42.327 42.307 42.282 42.287 42.292 42.285 42.25 42.245 42.195 42.185 42.167 42.165 42.152 42.12 42.122 42.137 42.132 42.142 42.14 42.172 42.177 42.17 42.18 42.147 42.1 42.065 42.052 42.042 42.052 42.077 42.125 42.137 42.137 42.145 42.132 42.135 42.125 42.1 42.105 42.145 42.137 42.162 42.167 42.187 42.155 42.172 42.187 42.175 42.17 42.157 42.162 42.157 42.165 42.15 42.142 42.162 42.192 42.192 42.192 42.192 42.207 42.21 42.207 42.21 42.205 42.2 42.192 42.232 42.242 42.25 42.292 42.302 42.327 42.357 42.41 42.435 42.475 42.5 42.53 42.572 42.59 42.64 42.662 42.715 42.767 42.817 42.86 42.91 42.992 43.057 43.125 43.197 43.26 43.327 43.407 43.475 43.532 43.597 43.685 43.742 43.812 43.892 43.967 44.075 44.195 44.267 44.35 44.49 44.67 44.698 44.798 44.89 45.1 45.233 45.275 45.193 46.11 45.698 45.735 45.46 46.54 46.995 47.49 47.218 47.368 47.018 46.25 46.248 46.273 46.263 46.328 46.37 46.363 46.428 46.46 46.488 46.513 46.55 46.53 46.548 46.625 46.708 46.775 46.868 46.86 46.885 46.898 46.97 46.965 46.963 47.01 47.063 47.1 47.165 47.213 47.268 47.295 47.308 48.198 47.853 47.47 47.473 47.515 47.548 47.533 47.585 47.58 47.625 47.675 47.73 47.73 47.748 47.773 47.763 47.79 47.768 47.84 47.863 47.908 47.95 49.193 49.803 48.03 48.025 48.053 48.088 48.098 48.15 48.17 48.178 48.23 48.233 48.193 48.18 48.163 48.195 48.193 48.215 48.205 48.21 48.215 48.208 48.225 48.218 48.22 48.223 48.28 48.393 48.34 48.348 48.303 48.258 48.243 48.135 48.123 48.138 48.15 48.105 48.1 48.068 48.08 48.008 47.933 47.903 47.923 47.988 49.283 50.078 48.748 48.938 47.895 47.86 47.77 47.71 47.645 47.59 47.563 47.548 47.53 47.538 47.503 47.498 47.47 47.453 47.423 47.385 47.355 47.325 47.285 47.25 47.23 47.205 47.17 47.135 47.103 47.07 47.048 47.025 46.98 46.923 46.875 46.828 46.79 46.763 46.735 46.683 46.638 46.6 46.555 46.533 46.488 46.418 46.358 46.315 46.298 46.243 46.15 46.105 46.033 45.968 45.918 45.873 45.788 45.69 45.615 45.583 45.523 45.46 45.418 45.353 45.295 45.243 45.168 45.09 45.02 44.925 44.885 44.825 44.733 44.635 44.563 44.483 44.41 44.33 44.235 44.16 44.115 44.048 43.953 43.871 43.811 43.736 43.651 43.591 43.513 43.441 43.376 43.291 43.261 43.196 43.126 43.048 42.978 42.913 42.861 42.788 42.751 42.676 42.643 42.606 42.533
43.01 43.012 43.005 43.01 43.002 43.01 43.012 43.017 43.002 42.997 42.987 42.957 42.947 42.942 42.967 42.952 42.947 42.952 42.945 42.935 42.95 42.927 42.92 42.907 42.875 42.852 42.815 42.77 42.757 42.717 42.7 42.695 42.662 42.647 42.647 42.635 42.615 42.612 42.59 42.597 42.597 42.58 42.575 42.577 42.552 42.52 42.477 42.445 42.44 42.415 42.412 42.397 42.397 42.425 42.445 42.43 42.43 42.47 42.457 42.46 42.48 42.482 42.502 42.492 42.515 42.512 42.477 42.49 42.475 42.492 42.475 42.472 42.47 42.45 42.447 42.43 42.425 42.42 42.425 42.412 42.402 42.405 42.4 42.375 42.385 42.367 42.34 42.35 42.367 42.377 42.362 42.362 42.365 42.355 42.35 42.352 42.332 42.352 42.337 42.332 42.33 42.312 42.297 42.282 42.287 42.267 42.267 42.265 42.245 42.227 42.21 42.215 42.22 42.205 42.16 42.167 42.135 42.102 42.067 42.062 42.045 42.03 42.045 42.052 42.047 42.047 42.062 42.087 42.062 42.06 42.05 42.032 41.982 41.957 41.955 41.965 42 42.01 42.037 42.067 42.055 42.055 42.032 42.027 42.012 42.007 42.035 42.022 42.05 42.047 42.085 42.085 42.057 42.062 42.057 42.065 42.057 42.067 42.082 42.08 42.087 42.082 42.097 42.1 42.145 42.147 42.15 42.172 42.17 42.167 42.152 42.145 42.167 42.16 42.177 42.185 42.167 42.187 42.21 42.247 42.237 42.285 42.325 42.37 42.402 42.435 42.48 42.515 42.56 42.592 42.64 42.682 42.752 42.807 42.865 42.937 43.015 43.075 43.135 43.215 43.28 43.38 43.492 43.57 43.63 43.777 44.03 44.027 44.15 44.67 44.715 44.782 44.762 45.24 45.005 45.107 44.965 44.955 45.138 45.09 45.285 45.345 45.203 46.575 46.798 45.488 45.49 45.675 46.178 46.623 46.548 47.158 46.843 46.168 46.245 46.29 46.293 46.323 46.36 46.368 46.42 46.473 46.495 46.528 46.643 46.52 46.55 46.615 46.718 46.798 46.855 46.863 46.89 46.915 46.96 46.978 46.99 47.033 47.08 47.118 47.175 47.23 47.283 47.313 47.275 48.265 47.898 47.445 47.493 47.523 47.55 47.533 47.588 47.608 47.635 47.685 47.73 47.733 47.745 47.78 47.768 47.783 47.773 47.833 47.86 47.903 47.925 48.98 49.765 48.023 48.028 48.043 48.075 48.095 48.16 48.158 48.193 48.22 48.213 48.19 48.158 48.145 48.173 48.163 48.22 48.225 48.19 48.193 48.19 48.203 48.21 48.21 48.185 48.19 48.19 48.218 48.238 48.195 48.16 48.143 48.128 48.115 48.12 48.138 48.095 48.073 48.065 48.038 47.955 47.885 47.863 47.89 47.998 49.73 49.483 49.595 48.45 47.848 47.81 47.715 47.66 47.585 47.51 47.52 47.515 47.483 47.473 47.48 47.43 47.438 47.393 47.375 47.333 47.305 47.263 47.25 47.23 47.195 47.165 47.14 47.105 47.078 47.04 46.998 46.978 46.933 46.908 46.848 46.805 46.755 46.745 46.7 46.648 46.605 46.585 46.523 46.498 46.438 46.375 46.33 46.26 46.25 46.21 46.108 46.053 45.985 45.933 45.885 45.833 45.748 45.665 45.565 45.568 45.518 45.433 45.393 45.328 45.275 45.21 45.13 45.04 44.978 44.915 44.87 44.783 44.71 44.615 44.548 44.473 44.398 44.323 44.225 44.165 44.12 44.05 43.95 43.873 43.803 43.733 43.633 43.551 43.508 43.451 43.401 43.293 43.273 43.191 43.153 43.091 43.001 42.936 42.876 42.808 42.751 42.706 42.663 42.586 42.523
42.98 42.982 42.972 42.967 42.967 42.98 42.96 42.98 42.96 42.967 42.96 42.935 42.927 42.927 42.932 42.927 42.917 42.92 42.922 42.915 42.912 42.917 42.892 42.877 42.845 42.84 42.8 42.762 42.725 42.695 42.695 42.645 42.63 42.637 42.622 42.61 42.607 42.592 42.57 42.575 42.557 42.55 42.557 42.545 42.517 42.517 42.465 42.44 42.412 42.375 42.377 42.387 42.37 42.407 42.39 42.4 42.4 42.39 42.412 42.417 42.417 42.452 42.452 42.437 42.452 42.44 42.455 42.447 42.447 42.442 42.432 42.447 42.415 42.412 42.4 42.39 42.375 42.367 42.387 42.355 42.345 42.35 42.34 42.315 42.327 42.315 42.297 42.307 42.302 42.31 42.307 42.305 42.3 42.317 42.32 42.295 42.282 42.29 42.272 42.28 42.27 42.26 42.232 42.235 42.232 42.205 42.212 42.207 42.202 42.187 42.185 42.165 42.155 42.145 42.122 42.092 42.037 42.045 42.017 41.992 41.977 41.952 41.965 41.967 42.005 41.982 41.997 41.992 41.992 41.982 41.97 41.932 41.902 41.887 41.865 41.89 41.935 41.937 41.957 41.967 41.987 41.952 41.91 41.902 41.927 41.925 41.925 41.932 41.965 41.975 42.012 42.007 42.012 42.022 42.047 42.037 42.027 42.02 42.04 42.03 42.035 42.07 42.065 42.055 42.077 42.07 42.102 42.095 42.092 42.107 42.077 42.067 42.085 42.07 42.087 42.087 42.087 42.097 42.122 42.16 42.18 42.227 42.29 42.317 42.35 42.4 42.425 42.485 42.535 42.545 42.615 42.695 42.762 42.937 42.95 43.077 43.415 43.545 43.61 44.027 43.69 43.76 43.952 43.852 44.045 44.07 44.202 44.207 44.352 44.567 44.69 44.677 44.85 44.897 44.9 44.857 44.938 44.97 45.145 45.148 45.17 45.213 45.28 45.468 45.513 45.553 45.66 45.755 45.793 45.835 46.023 47.358 46.828 46.13 46.205 46.26 46.293 46.313 46.328 46.38 46.405 46.478 46.52 46.528 46.615 46.543 46.565 46.635 46.728 46.795 46.85 46.863 46.903 46.943 46.975 46.958 46.995 47.035 47.078 47.13 47.193 47.233 47.28 47.295 47.31 48.73 47.78 47.448 47.493 47.528 47.538 47.538 47.6 47.605 47.635 47.688 47.725 47.728 47.74 47.763 47.768 47.77 47.76 47.835 47.855 47.895 47.928 49.088 49.763 47.983 48.023 48.038 48.068 48.093 48.145 48.158 48.2 48.215 48.22 48.183 48.175 48.13 48.14 48.15 48.195 48.18 48.18 48.173 48.17 48.175 48.193 48.188 48.15 48.14 48.183 48.213 48.188 48.163 48.178 48.135 48.125 48.095 48.113 48.085 48.053 48.023 48.053 48.008 48.015 47.92 47.903 47.92 47.95 50 49.463 50.025 48.725 47.83 47.763 47.685 47.608 47.525 47.488 47.498 47.458 47.47 47.415 47.41 47.405 47.38 47.338 47.333 47.288 47.263 47.203 47.225 47.165 47.138 47.143 47.098 47.065 47.043 47.013 46.995 46.923 46.878 46.86 46.83 46.778 46.713 46.705 46.633 46.618 46.583 46.543 46.508 46.458 46.393 46.345 46.303 46.238 46.2 46.173 46.093 46.023 45.963 45.9 45.823 45.785 45.705 45.633 45.558 45.543 45.47 45.423 45.373 45.29 45.23 45.195 45.105 45.023 44.955 44.905 44.833 44.768 44.68 44.603 44.52 44.445 44.385 44.298 44.2 44.148 44.103 44.03 43.94 43.888 43.803 43.713 43.636 43.573 43.491 43.448 43.386 43.308 43.286 43.186 43.141 43.081 43.001 42.956 42.883 42.818 42.761 42.718 42.671 42.608 42.551
42.955 42.915 42.917 42.912 42.892 42.912 42.917 42.902 42.907 42.905 42.902 42.895 42.877 42.862 42.862 42.892 42.882 42.885 42.882 42.89 42.88 42.887 42.852 42.84 42.807 42.797 42.777 42.74 42.73 42.682 42.667 42.612 42.605 42.587 42.592 42.6 42.582 42.56 42.552 42.562 42.537 42.51 42.53 42.525 42.49 42.492 42.462 42.417 42.385 42.35 42.352 42.347 42.37 42.355 42.37 42.352 42.362 42.352 42.387 42.377 42.382 42.395 42.382 42.385 42.39 42.402 42.39 42.405 42.402 42.42 42.405 42.39 42.385 42.372 42.375 42.357 42.34 42.33 42.33 42.317 42.302 42.3 42.282 42.282 42.282 42.28 42.265 42.262 42.255 42.267 42.277 42.267 42.257 42.26 42.25 42.262 42.27 42.247 42.235 42.24 42.232 42.207 42.202 42.205 42.187 42.187 42.182 42.162 42.14 42.132 42.117 42.105 42.102 42.07 42.06 42.025 41.995 41.987 41.952 41.957 41.917 41.892 41.91 41.882 41.907 41.937 41.922 41.895 41.92 41.93 41.88 41.862 41.845 41.8 41.77 41.777 41.805 41.852 41.855 41.85 41.835 41.83 41.832 41.827 41.835 41.857 41.867 41.885 41.915 41.917 41.932 41.937 41.942 41.955 41.955 41.972 41.957 41.952 41.942 41.942 41.937 41.955 41.957 41.967 41.97 41.962 41.965 41.982 42.01 42.005 42.005 42.007 42 41.995 42.02 42.04 42.03 42.045 42.085 42.115 42.177 42.192 42.227 42.27 42.355 42.432 42.49 42.567 42.57 42.715 43.235 43.512 43.362 43.325 43.65 44.032 44.342 43.662 43.492 44.09 43.827 43.332 43.362 43.637 43.622 43.672 43.74 43.942 43.932 44.057 44.175 44.272 44.387 44.462 44.552 44.657 44.745 44.833 44.895 45 45.058 45.133 45.223 45.31 45.425 45.513 45.613 45.693 45.765 45.783 46.035 47.138 46.428 46.128 46.37 46.24 46.285 46.313 46.338 46.39 46.423 46.473 46.5 46.568 46.578 46.555 46.57 46.663 46.74 46.803 46.85 46.89 46.903 46.953 46.97 46.955 47.02 47.038 47.075 47.133 47.198 47.243 47.285 47.298 47.3 48.345 47.783 47.45 47.49 47.528 47.533 47.548 47.608 47.615 47.643 47.695 47.74 47.725 47.74 47.735 47.775 47.773 47.775 47.825 47.888 47.895 47.933 50.45 49.86 47.973 48.02 48.03 48.07 48.093 48.12 48.15 48.195 48.21 48.203 48.173 48.148 48.12 48.138 48.16 48.205 48.173 48.173 48.155 48.165 48.163 48.168 48.168 48.163 48.18 48.405 48.303 48.215 48.188 48.11 48.158 48.155 48.06 48.06 48.025 47.99 47.99 48.003 48.015 47.955 47.93 47.845 48.063 47.923 49.933 49.068 50.428 48.993 47.78 47.725 47.64 47.575 47.483 47.44 47.43 47.415 47.4 47.393 47.368 47.338 47.318 47.293 47.243 47.228 47.198 47.168 47.16 47.108 47.09 47.065 47.063 47.013 46.978 46.978 46.923 46.888 46.863 46.82 46.768 46.728 46.7 46.648 46.603 46.588 46.535 46.495 46.465 46.43 46.365 46.325 46.285 46.233 46.19 46.13 46.068 45.965 45.915 45.868 45.79 45.75 45.648 45.608 45.54 45.495 45.455 45.41 45.348 45.278 45.188 45.17 45.095 45.015 44.933 44.883 44.825 44.758 44.658 44.578 44.488 44.408 44.358 44.275 44.175 44.115 44.058 43.985 43.908 43.861 43.793 43.713 43.628 43.558 43.481 43.431 43.368 43.311 43.258 43.166 43.151 43.058 42.993 42.943 42.856 42.826 42.746 42.708 42.683 42.591 42.551
42.905 42.887 42.875 42.842 42.86 42.865 42.857 42.887 42.875 42.87 42.88 42.88 42.87 42.85 42.837 42.837 42.847 42.86 42.852 42.872 42.85 42.837 42.807 42.797 42.772 42.775 42.745 42.727 42.675 42.642 42.612 42.597 42.587 42.572 42.555 42.535 42.54 42.537 42.51 42.495 42.485 42.505 42.485 42.492 42.447 42.46 42.435 42.377 42.332 42.302 42.28 42.292 42.295 42.28 42.305 42.317 42.302 42.31 42.325 42.337 42.33 42.35 42.357 42.36 42.352 42.372 42.365 42.38 42.38 42.362 42.365 42.347 42.33 42.345 42.337 42.337 42.297 42.297 42.307 42.282 42.257 42.245 42.237 42.222 42.21 42.215 42.205 42.21 42.215 42.212 42.23 42.2 42.195 42.205 42.195 42.19 42.192 42.175 42.192 42.192 42.182 42.177 42.15 42.155 42.145 42.14 42.125 42.122 42.125 42.1 42.105 42.082 42.062 42.045 42.015 41.97 41.965 41.927 41.875 41.867 41.837 41.827 41.82 41.795 41.822 41.85 41.82 41.857 41.84 41.835 41.815 41.775 41.74 41.717 41.665 41.665 41.712 41.735 41.777 41.795 41.802 41.812 41.802 41.795 41.812 41.82 41.845 41.817 41.847 41.835 41.852 41.862 41.88 41.875 41.86 41.855 41.842 41.857 41.86 41.865 41.855 41.855 41.855 41.88 41.89 41.897 41.91 41.952 41.97 41.957 41.975 41.997 42.015 41.985 42.072 42.102 42.165 42.197 42.312 42.375 42.465 42.66 42.652 42.545 42.517 42.37 42.355 42.367 42.27 42.452 42.615 43.1 43.172 42.66 42.827 43.005 42.922 42.892 42.977 43.077 43.17 43.272 43.365 43.477 43.557 43.652 43.755 43.83 43.92 43.987 44.08 44.175 44.265 44.342 44.45 44.525 44.63 44.725 44.783 44.875 44.965 45.033 45.143 45.22 45.318 45.473 45.61 45.66 45.75 45.775 46.073 47.94 46.498 46.143 46.21 46.23 46.3 46.338 46.368 46.388 46.475 46.485 46.518 46.62 46.62 46.573 46.588 46.675 46.763 46.815 46.875 46.895 46.915 46.963 46.978 46.968 47.018 47.045 47.11 47.155 47.22 47.255 47.303 47.32 47.305 48.133 48.16 47.458 47.498 47.535 47.54 47.545 47.593 47.613 47.648 47.685 47.728 47.723 47.728 47.76 47.758 47.763 47.75 47.813 47.88 47.923 47.935 50.345 50.043 47.98 47.998 48.035 48.06 48.083 48.123 48.123 48.188 48.205 48.21 48.175 48.148 48.118 48.133 48.153 48.183 48.158 48.15 48.148 48.135 48.135 48.168 48.158 48.183 48.223 48.235 48.17 48.183 48.203 48.08 48.16 48.203 48.135 48.048 48.015 47.965 47.975 47.973 47.958 47.933 47.855 48.028 48.083 47.88 50.01 48.813 51.06 49.005 47.745 47.688 47.588 47.525 47.463 47.425 47.428 47.39 47.373 47.363 47.325 47.315 47.268 47.238 47.218 47.185 47.133 47.115 47.105 47.048 47.03 47.008 46.995 46.958 46.925 46.905 46.88 46.838 46.793 46.768 46.723 46.69 46.645 46.603 46.565 46.56 46.505 46.453 46.435 46.403 46.32 46.285 46.24 46.185 46.163 46.078 46.045 45.953 45.89 45.825 45.785 45.71 45.635 45.568 45.525 45.46 45.405 45.365 45.315 45.253 45.185 45.125 45.035 44.958 44.898 44.845 44.803 44.715 44.623 44.543 44.48 44.393 44.338 44.253 44.138 44.09 44.055 43.975 43.88 43.816 43.781 43.663 43.596 43.546 43.461 43.423 43.373 43.311 43.271 43.183 43.133 43.041 42.981 42.921 42.846 42.798 42.756 42.696 42.638 42.566 42.508
42.89 42.857 42.847 42.845 42.847 42.835 42.835 42.842 42.847 42.847 42.84 42.832 42.817 42.797 42.807 42.792 42.782 42.8 42.805 42.797 42.807 42.797 42.772 42.76 42.732 42.73 42.707 42.657 42.63 42.602 42.577 42.582 42.545 42.542 42.527 42.517 42.527 42.512 42.51 42.51 42.472 42.487 42.462 42.47 42.445 42.427 42.387 42.35 42.307 42.267 42.26 42.275 42.28 42.262 42.285 42.275 42.26 42.287 42.27 42.29 42.305 42.287 42.32 42.297 42.307 42.32 42.312 42.322 42.342 42.32 42.305 42.307 42.297 42.28 42.275 42.26 42.247 42.24 42.252 42.24 42.217 42.21 42.197 42.185 42.15 42.147 42.152 42.155 42.137 42.155 42.175 42.157 42.172 42.155 42.162 42.137 42.15 42.145 42.145 42.14 42.142 42.127 42.112 42.102 42.085 42.085 42.085 42.07 42.08 42.05 42.025 42.007 42.007 41.977 41.955 41.92 41.882 41.84 41.81 41.782 41.75 41.74 41.737 41.717 41.72 41.72 41.737 41.755 41.732 41.71 41.702 41.697 41.64 41.602 41.575 41.602 41.612 41.627 41.69 41.71 41.7 41.717 41.695 41.707 41.717 41.74 41.747 41.765 41.747 41.777 41.785 41.795 41.787 41.787 41.787 41.775 41.787 41.79 41.817 41.815 41.825 41.822 41.845 41.887 41.872 41.907 41.987 42.062 42.037 42.097 42.227 42.162 42.732 42.937 42.65 42.517 42.66 42.842 43.222 42.642 42.425 42.407 42.022 41.997 42.01 42.012 41.992 42.112 42.157 42.252 42.337 42.402 42.475 42.51 42.595 42.68 42.72 42.802 42.887 42.977 43.062 43.142 43.235 43.325 43.432 43.51 43.625 43.702 43.787 43.892 43.967 44.077 44.165 44.277 44.387 44.475 44.563 44.648 44.738 44.825 44.93 45.02 45.12 45.225 45.315 45.468 45.58 45.683 45.748 45.74 46.24 48.198 46.75 46.173 46.215 46.263 46.303 46.333 46.38 46.418 46.48 46.48 46.545 46.588 46.6 46.605 46.635 46.685 46.76 46.83 46.89 46.913 46.898 46.948 46.983 47 47.033 47.073 47.12 47.173 47.23 47.273 47.31 47.328 47.303 47.65 48.233 47.53 47.485 47.545 47.52 47.548 47.585 47.6 47.655 47.675 47.713 47.708 47.718 47.72 47.74 47.76 47.758 47.825 47.878 47.913 47.928 50.28 49.628 47.985 47.99 48.048 48.063 48.1 48.105 48.11 48.185 48.215 48.205 48.165 48.115 48.12 48.11 48.143 48.155 48.138 48.125 48.118 48.143 48.153 48.168 48.12 48.143 48.145 48.173 48.185 48.148 48.118 48.07 48.145 48.185 48.123 48.1 48.04 47.968 47.953 47.935 47.883 47.808 47.758 47.76 47.805 47.858 49.91 48.198 49.22 47.98 47.72 47.66 47.57 47.49 47.428 47.405 47.4 47.37 47.333 47.323 47.31 47.283 47.243 47.213 47.185 47.143 47.083 47.07 47.04 47 46.97 46.953 46.935 46.903 46.868 46.843 46.805 46.785 46.74 46.703 46.678 46.635 46.603 46.573 46.523 46.53 46.475 46.425 46.403 46.34 46.268 46.233 46.225 46.16 46.135 46.055 46.015 45.913 45.88 45.79 45.743 45.675 45.608 45.533 45.485 45.438 45.398 45.338 45.25 45.223 45.145 45.12 45.015 44.94 44.87 44.813 44.77 44.685 44.59 44.523 44.435 44.365 44.288 44.223 44.135 44.073 44.01 43.945 43.868 43.798 43.746 43.643 43.576 43.521 43.448 43.391 43.328 43.253 43.243 43.161 43.108 43.033 42.961 42.921 42.878 42.793 42.748 42.688 42.641 42.581 42.491
42.81 42.802 42.79 42.782 42.78 42.775 42.785 42.795 42.795 42.81 42.815 42.767 42.76 42.785 42.772 42.762 42.76 42.765 42.78 42.782 42.767 42.777 42.742 42.742 42.732 42.685 42.695 42.652 42.617 42.587 42.557 42.535 42.512 42.51 42.505 42.492 42.49 42.475 42.447 42.44 42.42 42.435 42.432 42.427 42.387 42.375 42.33 42.317 42.282 42.245 42.217 42.237 42.227 42.21 42.225 42.227 42.217 42.222 42.247 42.265 42.262 42.267 42.275 42.277 42.28 42.282 42.25 42.287 42.3 42.282 42.277 42.267 42.265 42.252 42.227 42.217 42.222 42.197 42.187 42.167 42.155 42.155 42.145 42.102 42.092 42.115 42.107 42.09 42.095 42.095 42.107 42.087 42.105 42.1 42.1 42.082 42.097 42.105 42.085 42.06 42.07 42.04 42.04 42.012 42.022 42.005 42.012 42.005 42 41.99 41.972 41.95 41.94 41.92 41.895 41.845 41.797 41.775 41.76 41.735 41.707 41.677 41.662 41.635 41.652 41.645 41.657 41.627 41.617 41.61 41.577 41.552 41.53 41.535 41.467 41.485 41.475 41.505 41.547 41.572 41.587 41.617 41.652 41.652 41.677 41.687 41.705 41.707 41.737 41.757 41.772 41.797 41.775 41.82 41.8 41.845 41.915 41.935 42.015 41.955 42.02 42.127 42.162 42.27 42.477 42.042 42.212 42.005 42.61 42.93 42.422 42.445 42.747 42.255 41.78 41.702 41.66 41.655 41.712 41.742 41.77 41.807 41.847 41.9 41.932 41.965 42 42.055 42.105 42.14 42.2 42.21 42.265 42.34 42.417 42.482 42.547 42.62 42.712 42.792 42.87 42.985 43.072 43.182 43.272 43.37 43.52 43.597 43.697 43.79 43.915 44.02 44.137 44.227 44.34 44.447 44.54 44.645 44.723 44.823 44.915 45.025 45.123 45.238 45.343 45.46 45.588 45.64 45.718 45.748 47.553 48.65 46.77 46.225 46.245 46.27 46.293 46.333 46.368 46.428 46.503 46.533 46.535 46.575 46.6 46.64 46.663 46.723 46.765 46.865 46.9 46.93 46.913 46.953 46.98 46.99 47.068 47.083 47.135 47.19 47.253 47.275 47.313 47.32 47.325 48.303 47.74 47.455 47.488 47.538 47.515 47.553 47.595 47.605 47.653 47.693 47.708 47.703 47.71 47.735 47.715 47.755 47.753 47.828 47.858 47.885 47.915 50.19 49.07 47.965 47.988 48.025 48.048 48.073 48.09 48.125 48.188 48.22 48.195 48.155 48.113 48.088 48.095 48.138 48.135 48.123 48.13 48.125 48.13 48.128 48.155 48.128 48.15 48.178 48.17 48.188 48.158 48.108 48.06 48.198 48.135 48.075 48.11 48.015 47.993 48.008 47.918 47.848 47.785 47.718 47.71 47.72 47.875 49.948 48.223 50.088 47.788 47.668 47.6 47.565 47.47 47.4 47.373 47.375 47.323 47.315 47.32 47.273 47.245 47.225 47.175 47.14 47.098 47.04 47.028 47.008 46.975 46.953 46.925 46.868 46.853 46.83 46.815 46.773 46.728 46.678 46.653 46.645 46.57 46.528 46.523 46.49 46.47 46.435 46.373 46.358 46.323 46.255 46.213 46.193 46.12 46.143 46.018 45.958 45.88 45.845 45.775 45.708 45.643 45.558 45.493 45.448 45.395 45.358 45.308 45.238 45.17 45.118 45.07 45.003 44.915 44.858 44.795 44.735 44.665 44.57 44.493 44.4 44.338 44.278 44.183 44.103 44.063 44 43.923 43.873 43.773 43.718 43.623 43.558 43.488 43.413 43.368 43.293 43.281 43.206 43.146 43.063 42.991 42.933 42.878 42.856 42.798 42.751 42.701 42.643 42.571 42.511
42.81 42.792 42.787 42.767 42.757 42.762 42.757 42.782 42.762 42.76 42.76 42.735 42.732 42.727 42.707 42.725 42.732 42.737 42.73 42.752 42.735 42.732 42.702 42.692 42.675 42.67 42.665 42.625 42.592 42.54 42.522 42.51 42.49 42.475 42.465 42.472 42.487 42.447 42.432 42.425 42.412 42.397 42.417 42.405 42.372 42.352 42.31 42.27 42.25 42.21 42.207 42.202 42.202 42.18 42.217 42.217 42.212 42.19 42.187 42.202 42.212 42.21 42.207 42.225 42.22 42.222 42.22 42.24 42.25 42.222 42.207 42.207 42.197 42.165 42.18 42.152 42.152 42.135 42.14 42.102 42.097 42.097 42.067 42.07 42.092 42.065 42.057 42.042 42.062 42.045 42.077 42.055 42.072 42.062 42.065 42.052 42.062 42.037 42.045 42.025 42.015 42.03 42.025 41.99 41.982 41.992 41.992 41.95 41.952 41.917 41.915 41.91 41.89 41.847 41.797 41.8 41.752 41.705 41.672 41.655 41.61 41.58 41.585 41.567 41.57 41.552 41.58 41.557 41.54 41.525 41.495 41.437 41.425 41.41 41.387 41.377 41.352 41.382 41.437 41.517 41.577 41.61 41.637 41.665 41.65 41.657 41.745 41.702 41.767 41.955 41.92 41.935 42.31 42.247 42.462 42.887 42.652 42.702 42.442 42.235 41.96 41.74 41.802 41.947 41.992 41.6 41.517 41.365 41.345 41.462 41.452 41.472 41.495 41.517 41.507 41.532 41.532 41.547 41.575 41.567 41.605 41.612 41.65 41.697 41.715 41.765 41.802 41.825 41.885 41.93 41.987 42.015 42.095 42.175 42.235 42.317 42.382 42.467 42.552 42.64 42.742 42.87 42.965 43.087 43.19 43.315 43.43 43.54 43.665 43.765 43.887 43.997 44.107 44.235 44.35 44.43 44.543 44.648 44.73 44.843 44.978 45.07 45.148 45.255 45.338 45.455 45.583 45.62 45.69 45.998 47.32 47.275 46.328 46.223 46.26 46.288 46.31 46.355 46.388 46.453 46.523 46.548 46.57 46.605 46.58 46.638 46.67 46.74 46.775 46.88 46.925 46.92 46.925 46.965 46.998 46.995 47.085 47.11 47.138 47.19 47.253 47.273 47.315 47.328 47.355 48.165 47.945 47.465 47.495 47.535 47.528 47.558 47.578 47.61 47.653 47.683 47.7 47.698 47.71 47.73 47.733 47.743 47.743 47.83 47.855 47.9 47.935 50.045 49.75 47.985 47.985 48.04 48.055 48.08 48.103 48.13 48.185 48.2 48.178 48.173 48.108 48.075 48.083 48.105 48.138 48.1 48.118 48.11 48.12 48.153 48.108 48.093 48.075 48.178 48.2 48.123 48.218 48.11 47.998 48.088 48.078 48.045 48.038 47.975 47.948 47.955 47.97 47.83 47.755 47.703 47.658 47.688 48.315 50.333 48.21 49.845 48.08 48.348 47.61 47.52 47.425 47.38 47.348 47.34 47.318 47.325 47.29 47.26 47.238 47.213 47.15 47.133 47.08 47.045 47.01 46.985 46.948 46.923 46.883 46.853 46.855 46.828 46.783 46.745 46.698 46.643 46.618 46.588 46.528 46.5 46.488 46.458 46.418 46.415 46.368 46.333 46.263 46.218 46.185 46.16 46.095 46.105 45.995 45.91 45.838 45.808 45.74 45.683 45.62 45.54 45.478 45.433 45.368 45.31 45.278 45.218 45.145 45.1 45.055 44.978 44.885 44.83 44.768 44.715 44.623 44.54 44.47 44.375 44.318 44.238 44.175 44.095 44.048 43.983 43.905 43.835 43.766 43.693 43.591 43.528 43.471 43.371 43.341 43.273 43.251 43.186 43.093 43.041 42.968 42.913 42.858 42.841 42.761 42.743 42.686 42.621 42.563 42.483
42.765 42.757 42.742 42.737 42.732 42.735 42.742 42.745 42.745 42.735 42.727 42.725 42.715 42.72 42.732 42.717 42.712 42.717 42.742 42.722 42.71 42.725 42.677 42.667 42.607 42.642 42.625 42.572 42.547 42.535 42.507 42.482 42.457 42.442 42.432 42.452 42.442 42.415 42.4 42.39 42.377 42.38 42.347 42.365 42.307 42.31 42.252 42.217 42.202 42.17 42.15 42.15 42.157 42.14 42.167 42.162 42.162 42.15 42.137 42.14 42.167 42.18 42.185 42.187 42.182 42.187 42.18 42.187 42.187 42.19 42.17 42.177 42.152 42.15 42.122 42.107 42.107 42.092 42.085 42.07 42.047 42.05 42.012 42.032 42.012 42.032 42.01 41.995 41.995 41.987 41.992 41.982 41.987 41.982 41.992 41.97 41.97 41.972 41.99 41.97 41.97 41.962 41.947 41.93 41.927 41.92 41.915 41.9 41.87 41.86 41.84 41.832 41.827 41.785 41.75 41.73 41.67 41.635 41.597 41.57 41.53 41.487 41.51 41.477 41.472 41.467 41.482 41.467 41.447 41.422 41.392 41.32 41.322 41.3 41.335 41.41 41.415 41.342 41.37 41.567 41.827 41.925 41.997 41.945 42.105 42.412 42.57 42.452 42.222 42.297 41.915 41.925 42.297 42.257 41.98 41.99 41.52 41.635 41.4 41.35 41.317 41.29 41.35 41.362 41.362 41.335 41.34 41.315 41.345 41.337 41.325 41.32 41.302 41.302 41.302 41.295 41.32 41.337 41.34 41.347 41.387 41.39 41.412 41.467 41.52 41.587 41.627 41.645 41.705 41.735 41.817 41.855 41.932 42.017 42.072 42.182 42.26 42.37 42.452 42.545 42.652 42.787 42.9 43.007 43.14 43.255 43.355 43.472 43.597 43.735 43.837 43.975 44.082 44.222 44.35 44.44 44.563 44.673 44.785 44.893 44.988 45.078 45.17 45.283 45.383 45.478 45.593 45.625 45.713 45.695 46.525 46.743 46.393 46.258 46.433 46.285 46.31 46.35 46.375 46.483 46.518 46.545 46.6 46.62 46.6 46.615 46.673 46.763 46.82 46.893 46.933 46.918 46.925 46.963 47.018 47.03 47.083 47.11 47.153 47.225 47.278 47.305 47.318 47.3 47.348 48.095 47.695 47.483 47.5 47.548 47.518 47.565 47.583 47.62 47.655 47.695 47.68 47.71 47.71 47.733 47.728 47.738 47.72 47.81 47.858 47.9 47.925 49.878 49.375 47.975 48.005 48.013 48.048 48.095 48.105 48.12 48.193 48.19 48.18 48.148 48.088 48.068 48.03 48.098 48.118 48.1 48.113 48.118 48.098 48.108 48.103 48.068 48.043 48.105 48.128 48.15 48.14 48.085 48 47.97 48.055 48.035 48.025 48 47.938 47.918 48.018 47.953 47.818 47.713 47.685 47.745 48.18 50.193 48.193 49.17 52.983 52.203 52.295 47.485 47.42 47.363 47.325 47.33 47.303 47.3 47.283 47.245 47.208 47.193 47.143 47.123 47.07 47.063 47.005 46.97 46.955 46.923 46.885 46.84 46.835 46.805 46.788 46.735 46.693 46.663 46.603 46.56 46.533 46.49 46.463 46.435 46.395 46.353 46.318 46.298 46.245 46.195 46.16 46.135 46.12 46.09 45.97 45.885 45.85 45.793 45.715 45.673 45.593 45.515 45.463 45.41 45.345 45.29 45.248 45.195 45.148 45.07 45.013 44.94 44.87 44.803 44.753 44.68 44.603 44.505 44.453 44.36 44.288 44.243 44.153 44.073 44.033 43.963 43.903 43.828 43.776 43.678 43.593 43.518 43.458 43.393 43.346 43.281 43.231 43.163 43.108 43.036 42.968 42.893 42.838 42.801 42.743 42.708 42.668 42.586 42.536 42.471
42.752 42.732 42.712 42.707 42.7 42.702 42.707 42.707 42.71 42.707 42.692 42.69 42.695 42.685 42.67 42.665 42.657 42.657 42.672 42.667 42.66 42.652 42.64 42.622 42.59 42.575 42.557 42.53 42.515 42.49 42.465 42.432 42.427 42.417 42.415 42.4 42.39 42.37 42.375 42.36 42.36 42.37 42.327 42.34 42.307 42.28 42.267 42.215 42.187 42.157 42.13 42.127 42.117 42.122 42.157 42.14 42.12 42.115 42.13 42.12 42.122 42.157 42.145 42.132 42.132 42.145 42.125 42.125 42.127 42.147 42.12 42.105 42.092 42.082 42.075 42.05 42.035 42.032 42 42.01 42.012 41.99 41.965 41.962 41.94 41.952 41.905 41.927 41.902 41.922 41.927 41.945 41.935 41.915 41.917 41.917 41.935 41.932 41.935 41.932 41.905 41.895 41.907 41.892 41.88 41.885 41.875 41.872 41.83 41.807 41.765 41.762 41.74 41.712 41.69 41.66 41.605 41.57 41.537 41.522 41.47 41.407 41.402 41.37 41.355 41.37 41.362 41.312 41.28 41.277 41.26 41.205 41.182 41.157 41.247 41.475 41.727 41.322 41.105 41.525 42.275 42.375 41.797 41.542 41.782 41.845 41.59 41.51 41.312 41.255 41.18 41.21 41.247 41.22 41.235 41.25 41.247 41.235 41.23 41.207 41.205 41.192 41.192 41.205 41.192 41.187 41.175 41.14 41.11 41.117 41.065 41.057 41.057 41.07 41.07 41.077 41.105 41.115 41.135 41.167 41.195 41.207 41.257 41.267 41.322 41.392 41.447 41.5 41.537 41.62 41.692 41.76 41.842 41.942 41.99 42.052 42.145 42.257 42.355 42.48 42.585 42.71 42.812 42.932 43.065 43.182 43.305 43.44 43.58 43.722 43.857 43.977 44.11 44.232 44.357 44.472 44.603 44.695 44.81 44.91 44.993 45.085 45.163 45.293 45.4 45.495 45.603 45.643 45.708 45.778 46.795 46.728 46.255 46.245 46.28 46.27 46.333 46.448 46.45 46.513 46.578 46.555 46.598 46.685 46.59 46.61 46.668 46.755 46.815 46.91 46.95 46.93 46.948 46.973 47.018 47.033 47.093 47.118 47.143 47.215 47.27 47.31 47.323 47.303 47.338 48.15 47.85 47.478 47.508 47.525 47.518 47.58 47.573 47.608 47.658 47.683 47.693 47.68 47.71 47.733 47.718 47.733 47.748 47.82 47.86 47.905 47.938 49.708 49.438 47.988 47.998 48.02 48.05 48.068 48.108 48.123 48.2 48.185 48.168 48.123 48.07 48.075 48.108 48.128 48.105 48.09 48.118 48.113 48.098 48.11 48.108 48.07 48.008 48.103 48.108 48.185 48.098 48.22 48.155 48.01 47.96 48.055 47.963 47.968 47.95 47.908 48.1 47.855 47.933 47.7 47.69 48.03 47.968 49.813 48.23 50.523 49.803 48.5 48.64 47.453 47.373 47.32 47.31 47.29 47.285 47.288 47.255 47.218 47.178 47.163 47.128 47.113 47.078 47.045 47.005 46.97 46.953 46.915 46.88 46.855 46.828 46.8 46.76 46.728 46.683 46.658 46.595 46.568 46.52 46.478 46.453 46.423 46.393 46.35 46.3 46.293 46.203 46.17 46.133 46.075 46.058 46.015 45.948 45.84 45.813 45.758 45.668 45.625 45.573 45.495 45.433 45.393 45.34 45.275 45.228 45.185 45.123 45.053 44.998 44.928 44.838 44.795 44.725 44.668 44.578 44.505 44.425 44.358 44.288 44.21 44.13 44.085 44.018 43.978 43.91 43.805 43.773 43.683 43.593 43.521 43.458 43.376 43.336 43.256 43.263 43.141 43.101 43.006 42.948 42.893 42.843 42.771 42.746 42.693 42.658 42.561 42.531 42.438
42.717 42.722 42.687 42.665 42.662 42.672 42.69 42.692 42.702 42.682 42.685 42.675 42.667 42.635 42.632 42.625 42.62 42.627 42.637 42.64 42.657 42.64 42.63 42.607 42.562 42.567 42.552 42.497 42.477 42.45 42.437 42.425 42.385 42.39 42.362 42.362 42.36 42.35 42.342 42.322 42.332 42.292 42.312 42.285 42.265 42.242 42.212 42.167 42.15 42.11 42.08 42.075 42.09 42.075 42.087 42.057 42.075 42.08 42.067 42.077 42.087 42.102 42.092 42.075 42.087 42.09 42.092 42.077 42.09 42.08 42.072 42.082 42.07 42.057 42.052 42.02 42.005 41.982 41.957 41.935 41.945 41.945 41.927 41.917 41.885 41.895 41.86 41.875 41.86 41.865 41.875 41.87 41.857 41.862 41.86 41.845 41.862 41.87 41.857 41.862 41.842 41.817 41.825 41.825 41.807 41.8 41.805 41.787 41.745 41.74 41.695 41.685 41.662 41.66 41.645 41.587 41.537 41.485 41.46 41.427 41.367 41.34 41.307 41.28 41.282 41.26 41.237 41.212 41.197 41.172 41.132 41.097 41.06 41.045 41.162 41.17 41.705 41.292 40.972 41.022 41.435 41.55 41.215 41.2 41.185 41.13 41.15 41.117 41.137 41.13 41.132 41.11 41.1 41.14 41.115 41.065 41.067 41.04 41.022 40.997 40.975 40.972 40.97 40.972 40.975 40.96 40.92 40.902 40.885 40.87 40.85 40.87 40.845 40.857 40.837 40.857 40.902 40.897 40.925 40.947 40.972 40.992 41.072 41.12 41.172 41.207 41.285 41.355 41.43 41.5 41.585 41.65 41.71 41.8 41.885 41.962 42.075 42.187 42.287 42.41 42.52 42.685 42.802 42.942 43.057 43.182 43.302 43.445 43.567 43.725 43.855 43.982 44.12 44.23 44.342 44.462 44.593 44.698 44.793 44.903 45.003 45.095 45.18 45.313 45.413 45.52 45.6 45.658 45.725 45.818 47.685 46.72 46.233 46.24 46.233 46.253 46.253 46.328 46.403 46.463 46.623 46.578 46.598 46.67 46.63 46.658 46.69 46.765 46.845 46.898 46.933 46.95 46.965 46.988 47.02 47.04 47.093 47.13 47.178 47.23 47.255 47.298 47.325 47.32 47.33 48.108 48.218 47.458 47.515 47.543 47.525 47.565 47.583 47.623 47.653 47.685 47.683 47.678 47.708 47.718 47.72 47.698 47.738 47.823 47.86 47.903 47.93 49.543 49.63 47.975 47.99 48.025 48.058 48.078 48.11 48.138 48.185 48.175 48.163 48.135 48.11 48.083 48.105 48.105 48.09 48.095 48.105 48.105 48.083 48.085 48.075 48.055 48.003 48.073 48.033 48.023 48.01 47.99 48.02 48.208 47.955 47.903 47.903 47.915 47.88 47.94 47.88 47.828 47.76 47.705 47.64 47.808 47.845 49.72 48.285 50.133 47.833 47.575 47.505 47.415 47.378 47.305 47.27 47.278 47.27 47.285 47.233 47.205 47.185 47.155 47.118 47.083 47.043 47.033 46.993 46.948 46.945 46.92 46.875 46.845 46.825 46.81 46.745 46.71 46.675 46.65 46.593 46.593 46.523 46.48 46.445 46.418 46.398 46.338 46.293 46.27 46.183 46.15 46.1 46.065 46.06 45.97 45.898 45.835 45.785 45.733 45.633 45.588 45.518 45.455 45.413 45.355 45.313 45.26 45.198 45.155 45.1 45.048 44.975 44.903 44.843 44.75 44.715 44.64 44.565 44.48 44.41 44.343 44.28 44.2 44.103 44.063 44.023 43.965 43.88 43.81 43.763 43.683 43.591 43.516 43.443 43.393 43.333 43.243 43.236 43.148 43.101 43.038 42.953 42.911 42.858 42.793 42.743 42.708 42.651 42.591 42.528 42.443
42.737 42.705 42.69 42.685 42.66 42.652 42.652 42.657 42.665 42.66 42.635 42.615 42.615 42.597 42.595 42.582 42.59 42.58 42.6 42.602 42.59 42.602 42.57 42.535 42.52 42.497 42.48 42.442 42.412 42.385 42.372 42.35 42.337 42.332 42.317 42.342 42.332 42.325 42.322 42.292 42.272 42.28 42.285 42.277 42.255 42.23 42.2 42.157 42.12 42.085 42.042 42.06 42.077 42.045 42.055 42.05 42.032 42.025 42.022 42.032 42.05 42.052 42.055 42.052 42.057 42.035 42.03 42.035 42.022 42.027 42.022 42.027 42.017 42.002 41.967 41.977 41.947 41.915 41.895 41.88 41.882 41.867 41.882 41.847 41.84 41.825 41.81 41.812 41.802 41.782 41.81 41.795 41.812 41.802 41.81 41.81 41.827 41.822 41.807 41.83 41.812 41.8 41.807 41.775 41.78 41.747 41.752 41.722 41.685 41.677 41.647 41.63 41.595 41.595 41.557 41.527 41.477 41.437 41.405 41.367 41.312 41.287 41.215 41.187 41.185 41.167 41.13 41.075 41.085 41.07 41.027 40.947 40.935 40.892 41.08 41.172 41.667 41.17 40.88 40.847 40.915 40.965 40.955 40.972 40.952 40.915 40.955 40.927 40.94 40.94 40.927 40.88 40.885 40.897 40.85 40.842 40.835 40.825 40.802 40.792 40.79 40.795 40.767 40.73 40.732 40.732 40.702 40.687 40.677 40.697 40.66 40.672 40.675 40.67 40.677 40.685 40.73 40.75 40.767 40.782 40.825 40.85 40.932 40.955 41.022 41.07 41.147 41.225 41.307 41.387 41.485 41.562 41.65 41.74 41.817 41.905 42.03 42.125 42.25 42.377 42.502 42.637 42.75 42.867 43.002 43.122 43.26 43.39 43.535 43.652 43.792 43.917 44.057 44.192 44.312 44.425 44.56 44.683 44.785 44.89 44.985 45.083 45.185 45.278 45.428 45.553 45.61 45.683 45.74 45.795 47.358 46.678 46.23 46.223 46.215 46.22 46.23 46.288 46.363 46.463 46.525 46.545 46.59 46.595 46.643 46.665 46.698 46.815 46.893 46.953 46.96 46.973 46.963 47 47.023 47.063 47.095 47.123 47.17 47.228 47.265 47.305 47.323 47.333 47.33 48.01 48.098 47.46 47.533 47.535 47.533 47.568 47.588 47.628 47.653 47.683 47.688 47.688 47.7 47.728 47.715 47.713 47.745 47.823 47.858 47.895 47.93 49.41 49.738 47.973 47.988 48.033 48.055 48.075 48.118 48.148 48.195 48.175 48.163 48.128 48.088 48.115 48.09 48.1 48.093 48.098 48.08 48.09 48.083 48.138 48.083 48.03 47.98 47.973 48.028 48.028 48 47.928 47.955 47.96 47.913 47.883 47.863 47.825 47.805 47.863 47.888 47.775 47.688 48.03 47.745 47.958 47.85 50.068 48.515 48.975 47.645 47.538 47.453 47.375 47.338 47.29 47.285 47.298 47.263 47.268 47.23 47.185 47.175 47.153 47.115 47.068 47.005 46.995 46.958 46.918 46.925 46.903 46.873 46.83 46.803 46.793 46.748 46.71 46.683 46.658 46.595 46.558 46.54 46.48 46.448 46.415 46.37 46.34 46.31 46.263 46.198 46.153 46.105 46.043 46.08 45.948 45.885 45.808 45.768 45.693 45.625 45.565 45.513 45.423 45.37 45.32 45.255 45.22 45.178 45.125 45.07 45.005 44.933 44.878 44.813 44.735 44.685 44.638 44.55 44.438 44.395 44.313 44.253 44.19 44.103 44.063 44.023 43.963 43.893 43.815 43.758 43.671 43.586 43.508 43.451 43.393 43.343 43.286 43.253 43.168 43.101 43.061 42.988 42.923 42.851 42.806 42.743 42.701 42.658 42.598 42.536 42.443
42.677 42.659 42.637 42.639 42.637 42.632 42.612 42.622 42.629 42.619 42.609 42.579 42.584 42.567 42.569 42.567 42.562 42.56 42.56 42.56 42.555 42.542 42.522 42.495 42.477 42.465 42.43 42.422 42.402 42.382 42.352 42.302 42.31 42.3 42.3 42.305 42.312 42.29 42.27 42.265 42.262 42.232 42.222 42.225 42.2 42.177 42.137 42.085 42.057 42 41.995 42.025 42.005 41.99 41.98 41.977 41.972 41.96 41.945 41.967 41.995 41.985 41.997 42.005 41.997 41.982 41.977 41.977 41.987 41.987 41.975 41.965 41.975 41.945 41.92 41.92 41.887 41.855 41.845 41.842 41.82 41.82 41.795 41.782 41.777 41.772 41.78 41.775 41.75 41.752 41.732 41.745 41.717 41.737 41.74 41.75 41.742 41.747 41.735 41.75 41.75 41.737 41.745 41.722 41.707 41.687 41.672 41.645 41.62 41.592 41.572 41.56 41.525 41.497 41.47 41.435 41.392 41.347 41.317 41.265 41.21 41.205 41.145 41.097 41.1 41.062 41.015 40.97 40.982 40.932 40.892 40.84 40.787 40.78 40.882 41.607 41.437 40.915 40.737 40.742 40.762 40.805 40.807 40.812 40.792 40.767 40.757 40.725 40.725 40.722 40.68 40.71 40.697 40.672 40.677 40.687 40.67 40.65 40.65 40.622 40.587 40.562 40.557 40.527 40.515 40.515 40.5 40.487 40.507 40.522 40.495 40.492 40.492 40.51 40.52 40.535 40.56 40.577 40.61 40.665 40.705 40.74 40.807 40.85 40.952 41.002 41.072 41.152 41.237 41.325 41.422 41.502 41.595 41.667 41.752 41.852 41.935 42.06 42.165 42.3 42.435 42.572 42.69 42.81 42.957 43.092 43.215 43.385 43.507 43.637 43.765 43.92 44.042 44.182 44.29 44.417 44.54 44.657 44.772 44.867 44.985 45.097 45.19 45.317 45.43 45.565 45.63 45.67 45.73 46.49 49.405 46.607 46.265 46.26 46.245 46.21 46.202 46.317 46.382 46.485 46.535 46.577 46.592 46.627 46.667 46.685 46.732 46.835 46.887 46.942 46.955 46.96 46.967 47.01 47.057 47.067 47.115 47.135 47.19 47.237 47.287 47.312 47.315 47.345 47.327 47.87 47.67 47.468 47.53 47.525 47.52 47.575 47.59 47.618 47.65 47.69 47.68 47.69 47.7 47.713 47.708 47.71 47.755 47.793 47.843 47.893 47.923 49.283 49.76 47.975 47.975 48.018 48.04 48.063 48.105 48.138 48.183 48.175 48.143 48.103 48.08 48.105 48.09 48.103 48.095 48.075 48.063 48.063 48.078 48.093 48.038 48.03 47.965 47.975 47.995 47.983 47.958 47.968 47.895 47.873 47.875 47.88 47.87 47.778 47.753 47.765 47.785 47.71 47.653 47.688 48.423 48.2 47.668 49.745 48.668 48.848 47.773 47.5 47.423 47.358 47.345 47.283 47.28 47.285 47.26 47.238 47.215 47.16 47.163 47.125 47.08 47.033 47 46.995 46.93 46.93 46.883 46.878 46.858 46.8 46.78 46.763 46.728 46.708 46.658 46.623 46.59 46.548 46.513 46.47 46.428 46.398 46.365 46.348 46.283 46.245 46.193 46.145 46.098 46.043 46.043 45.92 45.84 45.82 45.758 45.678 45.61 45.545 45.48 45.425 45.345 45.298 45.233 45.188 45.145 45.1 45.038 44.988 44.905 44.848 44.79 44.695 44.663 44.59 44.518 44.425 44.37 44.288 44.24 44.18 44.07 44.033 43.985 43.94 43.86 43.798 43.718 43.64 43.558 43.503 43.448 43.383 43.32 43.278 43.235 43.165 43.095 43.035 42.985 42.935 42.87 42.803 42.753 42.71 42.643 42.635 42.54 42.435
42.639 42.654 42.642 42.632 42.619 42.619 42.607 42.592 42.584 42.572 42.549 42.539 42.529 42.524 42.534 42.512 42.517 42.502 42.495 42.502 42.482 42.47 42.45 42.457 42.445 42.417 42.385 42.385 42.342 42.322 42.32 42.295 42.267 42.267 42.262 42.257 42.245 42.26 42.237 42.237 42.227 42.202 42.202 42.19 42.177 42.162 42.125 42.072 42.047 42 41.975 42.007 41.977 41.995 41.965 41.967 41.955 41.947 41.922 41.952 41.977 41.992 41.96 41.952 41.97 41.95 41.94 41.932 41.93 41.945 41.91 41.9 41.885 41.872 41.852 41.83 41.805 41.78 41.772 41.76 41.747 41.737 41.725 41.702 41.697 41.692 41.68 41.665 41.67 41.657 41.67 41.68 41.665 41.682 41.677 41.707 41.69 41.695 41.707 41.717 41.707 41.69 41.677 41.67 41.652 41.65 41.622 41.592 41.555 41.5 41.502 41.492 41.47 41.44 41.39 41.347 41.327 41.265 41.21 41.177 41.135 41.092 41.067 41.027 41.005 40.975 40.91 40.9 40.867 40.815 40.792 40.735 40.662 40.64 40.75 40.767 40.94 40.77 40.655 40.597 40.622 40.675 40.695 40.665 40.617 40.62 40.62 40.587 40.562 40.592 40.537 40.52 40.507 40.5 40.527 40.49 40.46 40.442 40.435 40.407 40.39 40.362 40.342 40.335 40.342 40.332 40.297 40.307 40.322 40.36 40.352 40.337 40.36 40.37 40.395 40.4 40.42 40.467 40.495 40.545 40.6 40.635 40.682 40.75 40.81 40.865 40.937 41.03 41.127 41.21 41.295 41.402 41.482 41.585 41.665 41.775 41.89 42.01 42.12 42.255 42.375 42.517 42.655 42.767 42.9 43.05 43.202 43.327 43.475 43.612 43.75 43.9 44.012 44.167 44.29 44.412 44.52 44.66 44.787 44.882 44.977 45.112 45.23 45.345 45.445 45.555 45.645 45.695 45.717 47.03 49.127 46.437 46.25 46.262 46.3 46.252 46.227 46.347 46.422 46.492 46.545 46.59 46.612 46.637 46.687 46.695 46.75 46.842 46.917 46.965 46.97 46.96 46.99 47.005 47.062 47.08 47.132 47.162 47.22 47.257 47.285 47.3 47.34 47.357 47.362 47.912 47.71 47.468 47.515 47.51 47.51 47.55 47.593 47.605 47.645 47.668 47.67 47.695 47.71 47.713 47.7 47.68 47.775 47.798 47.843 47.898 47.92 49.168 49.793 47.97 47.99 48.048 48.038 48.068 48.095 48.13 48.19 48.153 48.13 48.113 48.075 48.098 48.078 48.085 48.075 48.07 48.048 48.043 48.043 48.053 48.025 48.013 47.945 47.965 47.985 47.958 47.928 48.048 47.91 47.863 47.853 47.905 47.883 47.78 47.713 47.685 47.648 47.62 47.59 47.603 47.805 47.833 47.705 50.48 48.6 48.275 47.593 47.455 47.4 47.345 47.333 47.3 47.273 47.275 47.223 47.243 47.188 47.16 47.133 47.098 47.055 47.013 46.978 46.928 46.893 46.893 46.868 46.84 46.83 46.79 46.758 46.735 46.698 46.683 46.648 46.605 46.575 46.558 46.52 46.463 46.415 46.395 46.358 46.325 46.275 46.26 46.178 46.14 46.083 46.045 46.023 45.935 45.858 45.82 45.753 45.683 45.625 45.543 45.463 45.395 45.345 45.273 45.238 45.168 45.118 45.07 45.008 44.955 44.878 44.815 44.743 44.7 44.625 44.555 44.475 44.393 44.34 44.288 44.22 44.145 44.063 44.018 43.965 43.91 43.833 43.785 43.718 43.625 43.558 43.478 43.42 43.36 43.29 43.315 43.21 43.145 43.078 43.005 42.96 42.883 42.855 42.815 42.785 42.74 42.655 42.61 42.545 42.455
42.594 42.624 42.592 42.587 42.584 42.572 42.557 42.547 42.547 42.542 42.502 42.517 42.507 42.492 42.484 42.489 42.482 42.47 42.487 42.485 42.465 42.465 42.437 42.405 42.412 42.392 42.37 42.365 42.337 42.307 42.267 42.272 42.267 42.257 42.257 42.257 42.232 42.222 42.195 42.215 42.19 42.187 42.172 42.152 42.145 42.135 42.085 42.03 41.975 41.96 41.95 41.96 41.932 41.92 41.917 41.887 41.89 41.89 41.887 41.895 41.895 41.897 41.895 41.897 41.905 41.882 41.897 41.897 41.89 41.872 41.857 41.865 41.852 41.822 41.79 41.78 41.757 41.755 41.73 41.727 41.715 41.707 41.692 41.677 41.68 41.647 41.632 41.602 41.622 41.6 41.607 41.602 41.627 41.612 41.642 41.642 41.645 41.642 41.65 41.635 41.65 41.64 41.615 41.6 41.595 41.567 41.557 41.525 41.492 41.465 41.427 41.402 41.37 41.345 41.327 41.27 41.222 41.172 41.137 41.11 41.062 41.022 40.95 40.922 40.907 40.902 40.812 40.8 40.725 40.702 40.68 40.62 40.53 40.517 40.677 40.72 40.785 40.615 40.54 40.457 40.447 40.497 40.507 40.492 40.455 40.445 40.435 40.42 40.437 40.377 40.395 40.33 40.332 40.315 40.305 40.275 40.267 40.262 40.252 40.26 40.235 40.192 40.197 40.177 40.177 40.182 40.17 40.147 40.17 40.205 40.205 40.21 40.185 40.222 40.232 40.245 40.267 40.297 40.34 40.37 40.43 40.472 40.532 40.597 40.69 40.747 40.847 40.952 41.047 41.117 41.187 41.297 41.37 41.475 41.582 41.677 41.805 41.925 42.047 42.185 42.297 42.44 42.587 42.737 42.857 43.047 43.192 43.315 43.462 43.622 43.755 43.915 44.03 44.152 44.295 44.41 44.542 44.67 44.775 44.882 44.98 45.105 45.21 45.345 45.455 45.56 45.662 45.7 45.72 46.575 47.892 46.205 46.257 46.305 46.34 46.297 46.295 46.375 46.44 46.512 46.572 46.615 46.592 46.635 46.692 46.717 46.755 46.86 46.945 46.98 46.957 46.965 47.002 47.012 47.08 47.092 47.132 47.155 47.23 47.27 47.292 47.317 47.352 47.352 47.352 47.957 47.693 47.483 47.513 47.508 47.503 47.56 47.583 47.623 47.66 47.668 47.67 47.693 47.718 47.713 47.68 47.678 47.755 47.795 47.855 47.905 47.948 49.068 49.888 47.963 47.975 48.023 48.038 48.08 48.115 48.14 48.158 48.135 48.133 48.095 48.06 48.068 48.055 48.06 48.035 48.055 48.035 48.02 48.023 48.023 47.99 47.97 47.935 47.93 47.953 47.908 47.91 47.865 47.848 47.843 47.82 47.808 47.8 47.725 47.67 47.67 47.62 47.57 47.54 47.488 47.798 47.748 47.633 50.38 48.55 48.218 47.518 47.453 47.353 47.323 47.32 47.265 47.245 47.255 47.225 47.23 47.163 47.15 47.115 47.073 47.028 46.975 46.945 46.913 46.903 46.885 46.858 46.8 46.79 46.77 46.76 46.715 46.678 46.635 46.625 46.58 46.538 46.53 46.475 46.45 46.405 46.37 46.35 46.31 46.278 46.233 46.17 46.135 46.073 46.038 45.998 45.893 45.848 45.815 45.753 45.67 45.623 45.538 45.435 45.385 45.348 45.263 45.21 45.155 45.098 45.05 44.993 44.925 44.86 44.8 44.728 44.66 44.6 44.525 44.44 44.37 44.308 44.253 44.178 44.105 44.038 43.995 43.928 43.858 43.798 43.735 43.678 43.59 43.528 43.445 43.383 43.33 43.243 43.26 43.17 43.103 43.093 43.03 42.963 42.883 42.813 42.805 42.77 42.758 42.708 42.633 42.565 42.475
42.607 42.602 42.572 42.552 42.549 42.544 42.537 42.544 42.539 42.509 42.502 42.494 42.457 42.459 42.437 42.454 42.425 42.442 42.442 42.435 42.42 42.42 42.402 42.36 42.355 42.342 42.32 42.3 42.285 42.242 42.242 42.23 42.212 42.19 42.202 42.2 42.197 42.187 42.175 42.17 42.145 42.13 42.14 42.152 42.13 42.092 42.052 42.002 41.965 41.947 41.905 41.912 41.892 41.875 41.88 41.855 41.872 41.877 41.857 41.84 41.867 41.855 41.88 41.86 41.88 41.862 41.867 41.855 41.845 41.832 41.812 41.807 41.785 41.76 41.717 41.715 41.667 41.66 41.647 41.65 41.627 41.63 41.63 41.607 41.605 41.572 41.547 41.532 41.522 41.522 41.532 41.552 41.56 41.545 41.562 41.582 41.59 41.582 41.597 41.582 41.585 41.565 41.547 41.55 41.512 41.49 41.475 41.47 41.415 41.39 41.352 41.335 41.297 41.255 41.245 41.212 41.142 41.07 41.07 41.005 40.96 40.9 40.87 40.827 40.812 40.77 40.707 40.687 40.647 40.617 40.547 40.487 40.405 40.42 40.575 40.425 40.562 40.48 40.345 40.34 40.285 40.32 40.327 40.315 40.272 40.26 40.252 40.212 40.227 40.195 40.202 40.19 40.21 40.192 40.187 40.132 40.147 40.14 40.13 40.09 40.105 40.047 40.052 40.05 40.025 40.012 40.012 40.017 40.01 40.022 40.027 40.04 40.03 40.047 40.09 40.092 40.137 40.157 40.23 40.247 40.295 40.317 40.405 40.455 40.555 40.647 40.737 40.825 40.925 40.995 41.08 41.172 41.27 41.367 41.475 41.605 41.72 41.837 41.99 42.16 42.297 42.415 42.55 42.725 42.865 43.007 43.175 43.307 43.462 43.635 43.775 43.91 44.047 44.167 44.307 44.43 44.56 44.677 44.755 44.885 44.995 45.12 45.225 45.355 45.47 45.58 45.657 45.662 45.967 47.092 46.447 46.165 46.285 46.322 46.33 46.257 46.312 46.405 46.49 46.55 46.595 46.63 46.632 46.66 46.7 46.737 46.797 46.88 46.96 46.99 46.982 46.962 47.012 47.015 47.062 47.09 47.14 47.17 47.227 47.277 47.315 47.307 47.325 47.34 47.355 47.852 47.958 47.483 47.49 47.503 47.53 47.565 47.58 47.633 47.653 47.65 47.668 47.69 47.71 47.69 47.683 47.683 47.765 47.805 47.858 47.903 47.93 48.998 49.98 47.96 47.97 48.005 48.035 48.075 48.088 48.12 48.153 48.125 48.128 48.083 48.065 48.065 48.028 48.028 48.023 48.048 48.01 48.01 48.01 48.033 47.98 47.935 47.893 47.903 47.955 47.968 47.87 47.833 47.83 47.82 47.798 47.778 47.75 47.71 47.723 47.693 47.61 47.56 47.51 47.44 47.505 47.638 47.585 49.713 47.913 48.075 47.558 47.448 47.333 47.3 47.278 47.238 47.218 47.21 47.218 47.215 47.153 47.138 47.095 47.055 47.01 46.97 46.923 46.88 46.86 46.858 46.808 46.793 46.773 46.735 46.725 46.685 46.68 46.623 46.595 46.545 46.52 46.495 46.455 46.42 46.393 46.365 46.34 46.3 46.263 46.235 46.158 46.098 46.053 46.05 45.983 45.878 45.83 45.803 45.728 45.665 45.595 45.53 45.455 45.368 45.33 45.28 45.223 45.16 45.128 45.053 44.993 44.928 44.86 44.788 44.708 44.658 44.593 44.498 44.423 44.345 44.275 44.2 44.15 44.058 43.995 43.973 43.91 43.84 43.783 43.718 43.635 43.565 43.493 43.43 43.373 43.315 43.233 43.268 43.158 43.09 43.063 43.018 42.973 42.94 42.9 42.833 42.795 42.76 42.688 42.623 42.545 42.458
42.589 42.532 42.519 42.504 42.497 42.504 42.499 42.484 42.477 42.467 42.467 42.439 42.414 42.409 42.399 42.374 42.385 42.387 42.397 42.385 42.387 42.387 42.377 42.352 42.32 42.292 42.282 42.282 42.262 42.242 42.207 42.192 42.2 42.19 42.18 42.192 42.172 42.13 42.132 42.132 42.105 42.11 42.087 42.08 42.08 42.04 42 41.952 41.93 41.887 41.845 41.842 41.835 41.83 41.815 41.82 41.82 41.822 41.787 41.802 41.827 41.827 41.827 41.817 41.825 41.82 41.782 41.78 41.77 41.78 41.765 41.757 41.755 41.712 41.692 41.67 41.637 41.635 41.605 41.607 41.6 41.577 41.567 41.57 41.55 41.52 41.5 41.487 41.48 41.477 41.47 41.475 41.512 41.512 41.517 41.52 41.527 41.545 41.547 41.535 41.52 41.487 41.492 41.455 41.442 41.435 41.397 41.407 41.352 41.317 41.275 41.242 41.227 41.167 41.17 41.107 41.045 41.002 40.962 40.882 40.83 40.802 40.757 40.722 40.682 40.645 40.567 40.582 40.532 40.497 40.437 40.385 40.277 40.29 40.437 40.375 40.54 40.345 40.202 40.172 40.147 40.175 40.167 40.165 40.135 40.13 40.13 40.065 40.042 40.055 40.057 40.067 40.067 40.03 40.045 40.017 40.03 40.007 39.972 39.927 39.932 39.885 39.87 39.887 39.87 39.855 39.842 39.84 39.86 39.877 39.89 39.867 39.89 39.91 39.915 39.96 39.987 40.025 40.055 40.102 40.13 40.19 40.275 40.342 40.412 40.5 40.602 40.705 40.805 40.91 40.997 41.107 41.21 41.307 41.402 41.537 41.655 41.837 41.95 42.102 42.23 42.39 42.56 42.707 42.832 43.01 43.145 43.312 43.475 43.622 43.757 43.922 44.045 44.197 44.327 44.46 44.577 44.67 44.795 44.902 44.997 45.11 45.247 45.365 45.49 45.57 45.625 45.642 45.932 46.905 46.115 46.22 46.33 46.315 46.297 46.25 46.347 46.452 46.497 46.555 46.64 46.642 46.642 46.677 46.722 46.76 46.812 46.93 46.99 46.985 46.992 46.98 47.027 47.037 47.075 47.112 47.135 47.177 47.235 47.287 47.32 47.307 47.31 47.347 47.365 47.902 48.445 47.47 47.495 47.493 47.523 47.563 47.583 47.643 47.643 47.653 47.688 47.693 47.718 47.683 47.685 47.688 47.773 47.808 47.855 47.898 47.923 48.888 50.055 47.94 47.99 48 48.053 48.088 48.068 48.128 48.138 48.12 48.105 48.055 48.038 48.043 48.028 48.033 48.008 48.015 48 47.975 47.978 47.97 47.935 47.905 47.883 47.873 47.995 48.033 47.848 47.803 47.783 47.763 47.753 47.723 47.723 47.668 47.695 47.748 47.568 47.515 47.47 47.4 47.438 47.495 47.58 50.068 47.623 48.185 47.528 47.398 47.328 47.348 47.338 47.26 47.22 47.168 47.158 47.138 47.13 47.133 47.083 47.025 46.983 46.953 46.898 46.865 46.828 46.82 46.795 46.765 46.745 46.735 46.725 46.685 46.633 46.605 46.59 46.535 46.495 46.463 46.455 46.39 46.35 46.33 46.308 46.27 46.24 46.19 46.135 46.103 46.025 46.033 45.97 45.863 45.828 45.77 45.693 45.638 45.573 45.508 45.428 45.355 45.338 45.273 45.21 45.143 45.095 45.04 44.993 44.925 44.85 44.77 44.718 44.655 44.578 44.49 44.433 44.345 44.29 44.208 44.128 44.058 43.983 43.958 43.875 43.805 43.755 43.683 43.62 43.533 43.458 43.408 43.333 43.288 43.243 43.24 43.145 43.118 43.053 43.023 42.95 42.913 42.888 42.833 42.785 42.733 42.658 42.603 42.53 42.448
42.539 42.527 42.504 42.497 42.502 42.489 42.469 42.469 42.459 42.464 42.434 42.417 42.394 42.372 42.354 42.367 42.347 42.335 42.332 42.34 42.335 42.33 42.332 42.307 42.26 42.252 42.26 42.21 42.2 42.175 42.152 42.13 42.115 42.117 42.115 42.127 42.125 42.1 42.097 42.067 42.067 42.065 42.037 42.055 42.042 42.01 41.972 41.92 41.875 41.85 41.815 41.815 41.805 41.805 41.802 41.782 41.76 41.765 41.775 41.772 41.777 41.772 41.777 41.765 41.76 41.77 41.735 41.735 41.712 41.717 41.71 41.705 41.685 41.637 41.612 41.592 41.57 41.552 41.54 41.515 41.51 41.502 41.487 41.472 41.447 41.435 41.43 41.402 41.417 41.405 41.385 41.405 41.437 41.44 41.455 41.485 41.487 41.487 41.497 41.492 41.467 41.45 41.432 41.415 41.4 41.377 41.347 41.335 41.292 41.245 41.197 41.177 41.145 41.112 41.102 41.035 40.967 40.917 40.882 40.822 40.752 40.687 40.65 40.642 40.572 40.557 40.457 40.467 40.405 40.367 40.31 40.24 40.157 40.172 40.315 41.165 40.312 40.16 40.057 40.052 39.99 40.005 40.045 40.022 39.995 39.94 39.92 39.915 39.902 39.887 39.885 39.867 39.897 39.857 39.892 39.845 39.85 39.85 39.825 39.817 39.787 39.802 39.757 39.712 39.722 39.717 39.702 39.687 39.705 39.717 39.715 39.727 39.735 39.757 39.79 39.827 39.845 39.882 39.922 39.952 40.025 40.087 40.145 40.222 40.307 40.407 40.512 40.607 40.71 40.8 40.892 41 41.085 41.187 41.315 41.422 41.565 41.742 41.867 42.027 42.18 42.33 42.502 42.63 42.777 42.97 43.13 43.29 43.442 43.602 43.757 43.895 44.045 44.192 44.325 44.44 44.577 44.677 44.802 44.91 45.01 45.097 45.235 45.37 45.497 45.557 45.637 45.665 45.952 46.622 46.09 46.28 46.317 46.267 46.245 46.26 46.38 46.48 46.537 46.587 46.635 46.655 46.652 46.705 46.737 46.777 46.852 46.937 47.005 46.985 47.005 47.017 47.04 47.042 47.08 47.115 47.152 47.18 47.217 47.295 47.312 47.322 47.335 47.347 47.36 47.895 47.845 47.455 47.503 47.495 47.54 47.568 47.59 47.653 47.64 47.668 47.68 47.685 47.708 47.695 47.695 47.7 47.785 47.83 47.863 47.89 47.913 48.71 50.118 47.948 47.975 48.013 48.058 48.055 48.058 48.1 48.11 48.113 48.095 48.045 48.025 48.028 47.985 47.995 47.99 48.018 47.978 47.965 47.92 47.888 47.898 47.87 47.85 47.85 47.878 47.84 47.8 47.79 47.765 47.723 47.723 47.703 47.7 47.618 47.595 47.655 47.543 47.485 47.423 47.36 47.403 47.44 47.588 49.798 47.898 50.115 47.955 47.39 47.34 47.375 47.318 47.245 47.2 47.18 47.165 47.115 47.105 47.093 47.065 46.978 46.953 46.898 46.858 46.838 46.815 46.788 46.783 46.75 46.71 46.705 46.688 46.663 46.633 46.548 46.558 46.52 46.475 46.453 46.418 46.37 46.335 46.278 46.268 46.213 46.223 46.153 46.093 46.05 46.038 46.043 45.923 45.825 45.795 45.723 45.67 45.615 45.56 45.488 45.418 45.325 45.323 45.238 45.173 45.13 45.08 45.023 44.98 44.928 44.838 44.758 44.705 44.625 44.555 44.495 44.415 44.313 44.263 44.19 44.123 44.038 43.968 43.945 43.895 43.778 43.733 43.663 43.583 43.503 43.448 43.373 43.318 43.253 43.253 43.155 43.13 43.088 43.043 42.995 42.945 42.883 42.838 42.81 42.778 42.725 42.663 42.608 42.505 42.433
42.502 42.492 42.474 42.454 42.447 42.409 42.414 42.424 42.419 42.412 42.379 42.362 42.347 42.334 42.304 42.299 42.317 42.285 42.307 42.292 42.295 42.3 42.27 42.28 42.247 42.227 42.207 42.18 42.15 42.13 42.105 42.087 42.087 42.092 42.077 42.075 42.065 42.047 42.037 42.02 42.007 42.015 42.012 42.002 41.967 41.95 41.917 41.86 41.835 41.787 41.76 41.74 41.752 41.732 41.742 41.717 41.705 41.715 41.717 41.722 41.712 41.73 41.73 41.712 41.717 41.687 41.695 41.682 41.667 41.66 41.64 41.64 41.607 41.602 41.57 41.562 41.532 41.512 41.502 41.472 41.455 41.457 41.445 41.422 41.4 41.377 41.365 41.367 41.352 41.352 41.357 41.345 41.397 41.4 41.405 41.425 41.45 41.43 41.442 41.442 41.42 41.4 41.392 41.357 41.342 41.327 41.287 41.257 41.202 41.177 41.125 41.097 41.062 41.03 40.977 40.927 40.887 40.83 40.787 40.735 40.66 40.592 40.545 40.522 40.482 40.437 40.347 40.332 40.317 40.27 40.205 40.13 40.032 40.022 40.13 40.655 40.142 39.987 39.902 39.902 39.857 39.855 39.9 39.877 39.822 39.79 39.762 39.745 39.747 39.685 39.69 39.7 39.687 39.665 39.685 39.672 39.647 39.64 39.64 39.62 39.587 39.577 39.56 39.562 39.562 39.537 39.56 39.56 39.54 39.545 39.55 39.565 39.587 39.597 39.642 39.695 39.705 39.755 39.792 39.835 39.887 39.952 40.017 40.072 40.172 40.252 40.375 40.485 40.575 40.677 40.777 40.877 40.995 41.115 41.227 41.37 41.495 41.675 41.787 41.94 42.11 42.287 42.437 42.59 42.752 42.927 43.077 43.255 43.425 43.585 43.73 43.882 44.045 44.197 44.327 44.457 44.585 44.707 44.8 44.91 44.997 45.122 45.245 45.39 45.485 45.57 45.627 45.647 45.822 46.147 46.097 46.31 46.322 46.24 46.235 46.27 46.41 46.497 46.555 46.605 46.642 46.662 46.677 46.702 46.75 46.795 46.865 46.972 47.03 47.005 47 47.012 47.027 47.037 47.075 47.107 47.16 47.19 47.247 47.275 47.322 47.327 47.335 47.35 47.36 48.037 48.028 47.47 47.51 47.5 47.55 47.573 47.59 47.645 47.633 47.655 47.673 47.7 47.698 47.703 47.683 47.713 47.78 47.808 47.858 47.905 47.908 48.633 50.28 47.955 47.978 48 48.033 48.05 48.053 48.098 48.11 48.085 48.073 48.028 48.01 48 47.973 47.968 47.963 47.963 47.96 47.935 47.928 47.84 47.87 47.825 47.798 47.81 47.85 47.803 47.818 47.808 47.77 47.703 47.703 47.658 47.658 47.558 47.54 47.528 47.52 47.47 47.39 47.335 47.375 47.41 47.535 49.62 47.723 50.69 47.505 47.388 47.335 47.355 47.313 47.25 47.178 47.155 47.178 47.073 47.053 47.043 47.025 46.905 46.903 46.89 46.838 46.813 46.803 46.77 46.738 46.73 46.698 46.675 46.645 46.62 46.58 46.54 46.51 46.468 46.435 46.405 46.373 46.333 46.305 46.255 46.218 46.188 46.168 46.135 46.068 46.015 45.998 45.968 45.89 45.813 45.76 45.69 45.638 45.585 45.525 45.44 45.385 45.33 45.3 45.208 45.17 45.105 45.048 45 44.953 44.888 44.835 44.753 44.695 44.623 44.55 44.445 44.4 44.318 44.265 44.19 44.113 44.013 43.963 43.913 43.863 43.758 43.705 43.65 43.568 43.493 43.438 43.358 43.3 43.205 43.213 43.168 43.15 43.06 43.008 42.97 42.913 42.873 42.823 42.788 42.758 42.698 42.633 42.575 42.5 42.44
42.464 42.482 42.467 42.424 42.417 42.392 42.409 42.412 42.389 42.372 42.347 42.342 42.317 42.294 42.272 42.254 42.26 42.265 42.257 42.265 42.267 42.237 42.24 42.21 42.187 42.17 42.145 42.132 42.112 42.08 42.07 42.04 42.025 42.017 42.01 42.007 41.997 41.987 41.975 41.982 41.977 41.965 41.97 41.94 41.905 41.887 41.885 41.83 41.777 41.752 41.717 41.695 41.695 41.712 41.7 41.69 41.697 41.692 41.697 41.682 41.7 41.7 41.682 41.675 41.68 41.667 41.665 41.632 41.617 41.617 41.607 41.595 41.572 41.552 41.517 41.5 41.462 41.465 41.435 41.417 41.407 41.382 41.367 41.342 41.312 41.31 41.292 41.287 41.292 41.285 41.302 41.307 41.312 41.335 41.332 41.362 41.375 41.362 41.365 41.355 41.352 41.307 41.322 41.29 41.265 41.252 41.2 41.155 41.135 41.1 41.04 41.005 40.977 40.94 40.892 40.84 40.827 40.747 40.69 40.622 40.57 40.512 40.442 40.41 40.387 40.33 40.252 40.232 40.185 40.142 40.082 40.005 39.9 39.885 40.807 40.575 40.627 39.845 39.74 39.747 39.705 39.735 39.745 39.747 39.69 39.635 39.635 39.552 39.54 39.527 39.53 39.515 39.535 39.542 39.532 39.502 39.477 39.472 39.427 39.4 39.41 39.405 39.397 39.405 39.392 39.38 39.375 39.385 39.382 39.387 39.397 39.415 39.435 39.465 39.522 39.572 39.595 39.632 39.642 39.677 39.732 39.822 39.915 39.97 40.057 40.157 40.285 40.372 40.467 40.537 40.647 40.775 40.88 41.005 41.115 41.27 41.417 41.58 41.735 41.885 42.05 42.22 42.367 42.547 42.715 42.905 43.057 43.245 43.397 43.552 43.7 43.85 44.015 44.167 44.3 44.437 44.555 44.692 44.81 44.935 45.017 45.13 45.232 45.385 45.49 45.572 45.627 45.645 45.812 45.967 46.197 46.315 46.29 46.25 46.2 46.26 46.427 46.497 46.56 46.605 46.645 46.66 46.685 46.707 46.767 46.812 46.877 46.985 47.027 47.025 47.005 47.017 47.017 47.017 47.07 47.13 47.155 47.185 47.257 47.287 47.32 47.325 47.335 47.347 47.342 48.105 47.858 47.473 47.495 47.483 47.555 47.573 47.598 47.625 47.628 47.678 47.675 47.705 47.67 47.693 47.665 47.7 47.773 47.795 47.845 47.898 47.903 49.573 50.34 47.94 47.983 48.01 48.013 48.015 48.04 48.083 48.065 48.058 48.03 47.98 47.973 47.983 47.958 47.938 47.955 47.948 47.913 47.915 47.9 47.858 47.835 47.778 47.768 47.798 47.808 47.793 47.783 47.763 47.718 47.668 47.653 47.625 47.583 47.598 47.633 47.505 47.495 47.55 47.715 47.513 47.618 47.73 47.808 49.533 47.598 50.263 48.335 47.37 47.338 47.325 47.248 47.235 47.158 47.12 47.125 47.04 46.99 46.925 46.938 46.898 46.88 46.87 46.833 46.803 46.745 46.743 46.73 46.678 46.643 46.645 46.618 46.588 46.54 46.5 46.47 46.43 46.393 46.385 46.33 46.288 46.23 46.215 46.195 46.15 46.113 46.053 46.018 45.96 45.938 45.943 45.828 45.76 45.713 45.648 45.595 45.558 45.49 45.418 45.338 45.29 45.245 45.183 45.133 45.075 45.025 44.988 44.908 44.87 44.798 44.73 44.658 44.61 44.533 44.468 44.38 44.315 44.245 44.16 44.088 44.008 43.968 43.905 43.848 43.748 43.685 43.635 43.56 43.473 43.423 43.333 43.298 43.208 43.218 43.153 43.133 43.053 43.01 42.96 42.893 42.865 42.808 42.778 42.735 42.675 42.628 42.575 42.5 42.42
42.452 42.447 42.429 42.407 42.394 42.394 42.377 42.382 42.354 42.317 42.307 42.302 42.294 42.254 42.237 42.249 42.242 42.25 42.23 42.22 42.232 42.215 42.175 42.167 42.145 42.132 42.107 42.1 42.072 42.047 42.005 42.007 41.985 41.982 41.985 42.005 42.017 41.98 41.957 41.932 41.937 41.932 41.907 41.892 41.875 41.852 41.812 41.77 41.745 41.685 41.672 41.65 41.69 41.665 41.645 41.622 41.627 41.62 41.597 41.602 41.625 41.62 41.617 41.6 41.607 41.597 41.57 41.565 41.585 41.562 41.545 41.507 41.51 41.47 41.45 41.452 41.435 41.397 41.35 41.37 41.337 41.332 41.307 41.277 41.265 41.255 41.265 41.252 41.227 41.232 41.262 41.257 41.277 41.265 41.287 41.315 41.305 41.31 41.327 41.315 41.305 41.282 41.275 41.24 41.22 41.19 41.155 41.112 41.07 41.04 40.99 40.947 40.905 40.855 40.805 40.755 40.705 40.63 40.562 40.53 40.45 40.407 40.35 40.302 40.255 40.197 40.152 40.09 40.065 40.037 39.967 39.882 39.78 39.737 39.927 40.525 41.36 39.792 39.595 39.605 39.572 39.64 39.612 39.56 39.525 39.485 39.432 39.405 39.395 39.392 39.382 39.365 39.367 39.347 39.335 39.317 39.3 39.292 39.267 39.252 39.237 39.24 39.202 39.22 39.207 39.222 39.207 39.232 39.252 39.267 39.257 39.267 39.285 39.33 39.37 39.415 39.445 39.49 39.53 39.585 39.64 39.7 39.787 39.872 39.952 40.037 40.15 40.232 40.357 40.45 40.552 40.677 40.795 40.917 41.062 41.212 41.357 41.512 41.652 41.83 41.997 42.177 42.317 42.495 42.665 42.84 43.012 43.175 43.372 43.505 43.652 43.822 43.977 44.142 44.275 44.412 44.537 44.647 44.757 44.875 45 45.15 45.252 45.395 45.5 45.57 45.63 45.672 46.007 46.12 46.257 46.322 46.25 46.22 46.205 46.275 46.45 46.51 46.56 46.602 46.637 46.65 46.7 46.727 46.767 46.802 46.887 46.972 47.027 46.995 47.007 47.02 47.05 47.047 47.09 47.112 47.142 47.17 47.285 47.272 47.31 47.307 47.32 47.327 47.337 48.225 48.588 47.61 47.485 47.493 47.553 47.553 47.585 47.615 47.61 47.668 47.678 47.688 47.663 47.688 47.635 47.643 47.675 47.703 47.77 47.81 47.795 49.963 50.355 47.935 47.963 47.99 48.013 48.013 48.028 48.04 48.033 48.02 47.993 47.955 47.935 47.915 47.91 47.893 47.888 47.9 47.965 47.888 47.923 48.08 48.16 48.018 47.748 47.755 48.053 48.178 48.403 48.55 48.71 48.778 48.71 48.775 49.038 49.035 48.835 48.403 48.31 48.575 48.653 48.468 48.538 48.503 48.373 49.47 47.553 49.71 48.073 47.33 47.313 47.308 47.27 47.233 47.188 47.148 47.108 47.083 47.015 46.96 46.928 46.88 46.853 46.825 46.773 46.745 46.708 46.68 46.665 46.62 46.593 46.585 46.568 46.548 46.515 46.47 46.428 46.395 46.378 46.328 46.295 46.23 46.19 46.17 46.148 46.103 46.08 46.008 45.948 45.93 45.898 45.878 45.785 45.72 45.688 45.618 45.573 45.53 45.455 45.365 45.305 45.275 45.215 45.158 45.093 45.035 44.973 44.955 44.898 44.848 44.765 44.715 44.653 44.588 44.523 44.428 44.348 44.273 44.225 44.133 44.065 43.983 43.925 43.888 43.85 43.723 43.705 43.605 43.523 43.49 43.408 43.333 43.283 43.2 43.188 43.128 43.093 43.038 42.975 42.933 42.878 42.813 42.775 42.753 42.733 42.66 42.605 42.54 42.488 42.395
42.419 42.417 42.387 42.377 42.362 42.349 42.334 42.319 42.317 42.312 42.289 42.274 42.269 42.239 42.222 42.229 42.225 42.205 42.207 42.207 42.192 42.165 42.14 42.135 42.11 42.08 42.062 42.04 42.017 42 41.952 41.947 41.927 41.93 41.92 41.925 41.922 41.895 41.895 41.88 41.865 41.842 41.82 41.825 41.802 41.772 41.735 41.712 41.665 41.637 41.582 41.587 41.6 41.59 41.605 41.585 41.565 41.537 41.542 41.55 41.567 41.57 41.577 41.562 41.557 41.525 41.532 41.512 41.512 41.5 41.495 41.477 41.452 41.437 41.39 41.397 41.332 41.32 41.3 41.317 41.272 41.262 41.252 41.212 41.232 41.195 41.2 41.182 41.175 41.155 41.172 41.195 41.212 41.215 41.207 41.232 41.237 41.225 41.235 41.197 41.2 41.205 41.202 41.16 41.14 41.09 41.037 40.995 40.95 40.937 40.892 40.847 40.795 40.765 40.717 40.655 40.59 40.537 40.495 40.4 40.327 40.297 40.245 40.19 40.132 40.07 39.995 39.98 39.945 39.9 39.852 39.752 39.637 39.67 39.89 41.337 43.095 40.535 39.497 39.482 39.48 39.515 39.437 39.362 39.35 39.305 39.267 39.255 39.257 39.257 39.232 39.212 39.182 39.18 39.155 39.12 39.097 39.097 39.08 39.062 39.04 39.042 39.035 39.04 39.035 39.05 39.032 39.065 39.082 39.092 39.062 39.09 39.102 39.147 39.202 39.23 39.272 39.327 39.38 39.417 39.495 39.537 39.642 39.73 39.825 39.942 40.062 40.162 40.252 40.36 40.485 40.57 40.7 40.815 40.962 41.112 41.262 41.42 41.582 41.732 41.897 42.087 42.277 42.43 42.605 42.78 42.952 43.137 43.322 43.475 43.645 43.822 43.945 44.107 44.267 44.407 44.525 44.67 44.787 44.915 45.017 45.142 45.26 45.415 45.525 45.582 45.652 45.885 46.53 46.165 46.255 46.302 46.227 46.175 46.197 46.277 46.437 46.492 46.535 46.587 46.64 46.645 46.672 46.712 46.767 46.802 46.882 46.977 47.01 46.98 47.007 47.01 47.02 47.062 47.077 47.097 47.14 47.18 47.272 47.292 47.307 47.307 47.3 47.32 47.33 48.34 48.208 47.47 47.493 47.49 47.553 47.548 47.575 47.628 47.625 47.655 47.66 47.685 47.66 47.685 47.603 47.605 47.655 47.675 47.723 47.73 47.743 49.843 49.885 47.905 47.943 47.978 47.985 47.975 47.995 48.01 48.005 48 47.93 47.9 47.88 47.96 48.648 48.928 49.185 49.42 49.55 49.255 49.225 49.328 49.21 48.388 47.743 47.753 48.105 48.13 48.145 48.07 47.923 48.01 47.795 47.8 47.693 47.515 47.48 47.478 47.46 47.398 47.333 47.295 47.325 47.375 47.395 49.188 47.475 49.755 47.403 47.345 47.338 47.325 47.303 47.298 47.26 47.15 47.115 47.12 47.09 47.06 46.955 46.888 46.855 46.79 46.758 46.688 46.658 46.645 46.61 46.583 46.545 46.518 46.49 46.488 46.448 46.415 46.368 46.343 46.33 46.27 46.24 46.2 46.155 46.125 46.093 46.05 45.993 45.953 45.91 45.875 45.885 45.813 45.723 45.683 45.623 45.575 45.52 45.468 45.41 45.315 45.285 45.235 45.163 45.105 45.04 45.005 44.953 44.925 44.855 44.81 44.735 44.688 44.613 44.54 44.48 44.395 44.328 44.258 44.188 44.1 44.023 43.948 43.903 43.86 43.795 43.725 43.68 43.578 43.508 43.443 43.385 43.315 43.263 43.19 43.18 43.125 43.083 43.038 42.975 42.935 42.878 42.818 42.775 42.725 42.695 42.62 42.603 42.528 42.45 42.383
42.394 42.372 42.354 42.337 42.312 42.279 42.284 42.277 42.287 42.277 42.262 42.264 42.222 42.192 42.187 42.177 42.167 42.16 42.162 42.142 42.132 42.127 42.105 42.072 42.06 42.025 42.027 41.99 41.94 41.932 41.915 41.9 41.885 41.892 41.9 41.877 41.87 41.847 41.837 41.822 41.825 41.777 41.8 41.775 41.762 41.732 41.712 41.652 41.622 41.565 41.567 41.512 41.525 41.535 41.542 41.525 41.512 41.507 41.502 41.497 41.512 41.515 41.497 41.502 41.475 41.47 41.447 41.447 41.435 41.425 41.405 41.387 41.372 41.357 41.355 41.33 41.29 41.252 41.225 41.24 41.22 41.217 41.177 41.177 41.162 41.13 41.132 41.127 41.125 41.115 41.112 41.115 41.155 41.137 41.152 41.167 41.165 41.18 41.175 41.152 41.16 41.142 41.127 41.1 41.055 41.025 40.985 40.937 40.89 40.855 40.795 40.777 40.717 40.66 40.632 40.57 40.5 40.425 40.382 40.297 40.22 40.147 40.107 40.055 40.015 39.935 39.87 39.852 39.815 39.762 39.725 39.62 39.525 39.54 39.7 40.952 40.085 39.462 39.382 39.355 39.36 39.402 39.342 39.272 39.252 39.212 39.157 39.13 39.067 39.095 39.067 39.042 39 38.99 38.975 38.942 38.91 38.89 38.872 38.847 38.822 38.837 38.855 38.84 38.83 38.85 38.85 38.855 38.86 38.865 38.9 38.942 38.94 39.01 39.035 39.102 39.132 39.177 39.267 39.317 39.39 39.477 39.542 39.662 39.757 39.857 39.967 40.072 40.177 40.245 40.347 40.472 40.612 40.74 40.89 41.03 41.192 41.352 41.537 41.7 41.85 42.04 42.22 42.395 42.57 42.76 42.91 43.095 43.27 43.437 43.612 43.782 43.95 44.112 44.272 44.405 44.517 44.655 44.76 44.887 45.007 45.132 45.28 45.395 45.515 45.587 45.655 45.94 46.537 46.197 46.277 46.26 46.17 46.145 46.172 46.29 46.462 46.47 46.512 46.602 46.637 46.635 46.67 46.727 46.765 46.81 46.877 46.967 46.965 46.975 46.997 46.997 47.007 47.027 47.06 47.092 47.142 47.175 47.252 47.265 47.285 47.29 47.297 47.315 47.352 48.195 47.908 47.453 47.48 47.5 47.555 47.558 47.56 47.613 47.628 47.655 47.673 47.688 47.668 47.675 47.595 47.58 47.635 47.683 47.748 47.75 47.733 49.713 49.743 48.498 48.095 47.92 47.988 48.43 48.61 48.413 48.63 48.883 49.125 49.775 50.15 50.53 48.815 47.853 47.945 48.183 47.953 47.825 47.83 47.81 47.745 47.735 47.748 47.733 47.725 47.68 47.658 47.633 47.615 47.595 47.538 47.563 47.538 47.478 47.475 47.463 47.45 47.4 47.323 47.273 47.295 47.328 47.35 48.31 47.848 48.235 48.235 47.488 48.443 47.468 47.368 47.293 47.275 47.198 47.165 47.128 47.103 47.038 46.995 46.983 46.93 46.84 46.775 46.71 46.685 46.623 46.595 46.553 46.515 46.493 46.46 46.45 46.428 46.395 46.343 46.298 46.28 46.22 46.18 46.145 46.09 46.085 46.038 46.01 45.94 45.91 45.865 45.838 45.83 45.74 45.678 45.638 45.568 45.52 45.473 45.423 45.348 45.295 45.288 45.22 45.143 45.09 45.03 44.955 44.918 44.893 44.83 44.755 44.693 44.628 44.59 44.525 44.463 44.373 44.275 44.21 44.165 44.073 43.99 43.923 43.9 43.843 43.76 43.693 43.648 43.538 43.475 43.4 43.358 43.303 43.223 43.183 43.143 43.105 43.068 43.03 42.953 42.915 42.868 42.803 42.768 42.733 42.695 42.62 42.585 42.505 42.438 42.358
42.327 42.309 42.272 42.267 42.269 42.249 42.254 42.252 42.262 42.249 42.237 42.212 42.184 42.177 42.149 42.132 42.142 42.122 42.122 42.117 42.115 42.095 42.06 42.035 42.037 42.03 41.995 41.965 41.942 41.912 41.885 41.875 41.862 41.842 41.822 41.825 41.817 41.802 41.785 41.787 41.782 41.765 41.767 41.717 41.7 41.68 41.637 41.615 41.577 41.52 41.495 41.45 41.507 41.482 41.462 41.47 41.452 41.452 41.462 41.46 41.462 41.457 41.462 41.432 41.442 41.422 41.417 41.385 41.397 41.387 41.36 41.352 41.337 41.307 41.277 41.27 41.227 41.205 41.192 41.175 41.177 41.132 41.127 41.102 41.087 41.052 41.075 41.05 41.045 41.037 41.04 41.037 41.072 41.085 41.097 41.1 41.107 41.112 41.12 41.085 41.077 41.057 41.027 40.985 40.957 40.94 40.895 40.825 40.78 40.755 40.7 40.647 40.602 40.56 40.517 40.467 40.387 40.325 40.267 40.2 40.117 40.035 39.987 39.937 39.885 39.807 39.77 39.717 39.657 39.625 39.557 39.49 39.392 39.42 39.537 41.02 40.205 39.325 39.225 39.192 39.25 39.272 39.235 39.165 39.095 39.042 38.997 38.975 38.935 38.942 38.9 38.882 38.845 38.812 38.777 38.74 38.722 38.697 38.665 38.63 38.625 38.622 38.642 38.657 38.637 38.667 38.677 38.692 38.695 38.735 38.755 38.782 38.83 38.875 38.93 38.977 39.025 39.075 39.15 39.192 39.277 39.35 39.447 39.522 39.627 39.767 39.855 39.935 40.077 40.177 40.287 40.42 40.567 40.69 40.835 40.985 41.125 41.282 41.465 41.625 41.795 41.985 42.165 42.342 42.54 42.692 42.857 43.035 43.22 43.385 43.572 43.752 43.937 44.092 44.23 44.37 44.502 44.657 44.772 44.895 45.002 45.12 45.282 45.407 45.52 45.59 45.69 46.192 46.375 46.207 46.257 46.217 46.142 46.137 46.192 46.3 46.425 46.477 46.532 46.61 46.61 46.61 46.657 46.702 46.737 46.785 46.885 46.957 46.942 46.95 46.99 46.995 46.987 47.027 47.05 47.087 47.13 47.19 47.247 47.26 47.295 47.275 47.292 47.3 47.332 48.2 47.84 47.45 47.47 47.483 47.535 47.525 47.568 47.605 47.61 47.63 47.665 47.675 47.673 47.673 47.623 47.638 47.678 47.688 47.728 47.775 47.745 48.898 51.045 51.183 50.483 49.77 49.388 50.2 50.84 49.4 49.323 48.838 49.048 49.423 49.42 49.015 49.488 47.808 48.155 48.36 48.678 48.368 48.573 48.013 47.703 47.708 47.725 47.71 47.673 47.648 47.603 48.57 49.703 48.26 47.533 47.54 47.79 49.835 49.41 47.413 47.428 47.365 47.295 47.263 47.303 47.325 47.31 48.018 48.9 47.74 48.395 48.638 47.973 48.058 48.12 47.373 47.298 48.14 47.163 47.15 47.185 47.105 47.078 47.015 46.945 46.883 46.835 46.773 46.693 46.625 46.58 46.548 46.513 46.478 46.45 46.438 46.418 46.383 46.343 46.275 46.248 46.205 46.148 46.093 46.058 46.018 45.988 45.948 45.9 45.858 45.83 45.81 45.793 45.688 45.64 45.593 45.525 45.495 45.443 45.385 45.293 45.25 45.295 45.19 45.08 45.055 44.975 44.93 44.908 44.858 44.77 44.73 44.655 44.603 44.545 44.485 44.42 44.328 44.255 44.195 44.14 44.043 43.978 43.925 43.855 43.803 43.728 43.66 43.613 43.538 43.448 43.378 43.318 43.288 43.19 43.175 43.145 43.08 43.055 42.995 42.93 42.918 42.86 42.793 42.758 42.718 42.683 42.623 42.568 42.488 42.41 42.325
42.282 42.264 42.259 42.237 42.212 42.194 42.202 42.209 42.197 42.214 42.187 42.174 42.129 42.107 42.104 42.094 42.095 42.092 42.075 42.057 42.057 42.045 42.035 41.977 41.972 41.95 41.932 41.915 41.895 41.862 41.85 41.825 41.81 41.8 41.782 41.78 41.777 41.767 41.76 41.745 41.73 41.74 41.712 41.682 41.665 41.647 41.61 41.557 41.517 41.487 41.445 41.405 41.412 41.41 41.42 41.417 41.41 41.385 41.392 41.392 41.405 41.432 41.397 41.372 41.36 41.325 41.327 41.31 41.315 41.302 41.287 41.282 41.262 41.237 41.215 41.207 41.185 41.15 41.13 41.102 41.082 41.05 41.047 41.03 41.032 41.005 41 40.992 40.977 40.962 40.977 40.995 41.007 41.015 41.015 41.047 41.08 41.045 41.047 41.025 41.025 40.977 40.985 40.935 40.915 40.862 40.815 40.765 40.71 40.682 40.615 40.577 40.53 40.48 40.412 40.355 40.282 40.22 40.152 40.092 40.017 39.912 39.88 39.807 39.745 39.645 39.612 39.57 39.522 39.492 39.44 39.367 39.272 39.305 39.742 41.357 40.737 39.177 39.075 39.085 39.16 39.152 39.09 39 38.917 38.895 38.86 38.835 38.8 38.772 38.757 38.707 38.705 38.64 38.642 38.592 38.567 38.537 38.512 38.482 38.477 38.46 38.442 38.457 38.47 38.477 38.475 38.49 38.51 38.547 38.572 38.622 38.642 38.702 38.752 38.797 38.88 38.917 38.972 39.07 39.145 39.24 39.36 39.462 39.56 39.642 39.772 39.862 39.995 40.092 40.2 40.335 40.47 40.622 40.762 40.922 41.07 41.247 41.435 41.6 41.772 41.957 42.132 42.317 42.49 42.677 42.832 43.017 43.215 43.407 43.587 43.75 43.922 44.087 44.217 44.352 44.477 44.615 44.742 44.887 45.007 45.15 45.307 45.425 45.502 45.592 45.637 46.45 46.387 46.217 46.255 46.177 46.11 46.137 46.187 46.327 46.407 46.46 46.532 46.577 46.597 46.62 46.65 46.695 46.74 46.785 46.887 46.94 46.937 46.952 46.977 46.982 46.992 47.005 47.03 47.065 47.125 47.165 47.255 47.272 47.285 47.282 47.295 47.315 47.342 47.987 47.83 47.458 47.465 47.483 47.525 47.525 47.568 47.598 47.615 47.62 47.663 47.68 47.653 47.663 47.653 47.735 47.763 47.768 47.825 47.855 47.873 47.858 47.86 47.87 47.91 47.91 47.933 47.918 47.945 47.96 47.943 47.93 47.875 47.825 47.823 49.155 49.555 48.445 50.873 50.985 50.963 50.993 51.045 48.91 47.733 47.69 47.713 47.675 47.613 47.738 49.508 48.68 50.605 48.773 47.523 47.485 47.68 50.323 49.768 47.42 47.423 47.35 47.29 47.903 48.35 47.368 47.283 47.435 49.528 48.793 48.283 47.668 47.553 48.255 47.21 47.485 47.228 47.208 47.78 49.33 48.943 47.218 47.11 47.028 46.958 46.91 46.86 46.818 46.753 46.69 46.623 46.555 46.54 46.488 46.435 46.415 46.375 46.355 46.313 46.283 46.23 46.198 46.133 46.058 46.03 45.993 45.948 45.878 45.855 45.795 45.768 45.753 45.735 45.633 45.588 45.535 45.498 45.433 45.395 45.328 45.26 45.208 45.188 45.115 45.043 45.003 44.945 44.9 44.863 44.815 44.73 44.69 44.63 44.565 44.53 44.463 44.375 44.295 44.228 44.163 44.108 44.028 43.96 43.903 43.835 43.768 43.695 43.633 43.588 43.488 43.428 43.348 43.293 43.235 43.155 43.135 43.133 43.063 43.013 42.958 42.905 42.885 42.815 42.78 42.723 42.685 42.633 42.595 42.52 42.463 42.395 42.333
42.229 42.202 42.189 42.187 42.172 42.154 42.167 42.164 42.169 42.164 42.152 42.152 42.097 42.082 42.069 42.072 42.052 42.045 42.035 42.027 42.022 42.002 41.987 41.95 41.935 41.93 41.9 41.865 41.835 41.8 41.785 41.767 41.77 41.757 41.742 41.755 41.732 41.705 41.7 41.67 41.697 41.677 41.66 41.61 41.61 41.567 41.512 41.465 41.432 41.435 41.38 41.355 41.345 41.37 41.35 41.345 41.337 41.337 41.327 41.315 41.347 41.357 41.337 41.3 41.317 41.292 41.277 41.257 41.252 41.262 41.242 41.235 41.207 41.195 41.157 41.155 41.122 41.1 41.062 41.055 41.02 41.01 40.97 40.975 40.96 40.955 40.91 40.92 40.902 40.887 40.907 40.915 40.927 40.947 40.955 40.972 40.98 40.972 40.977 40.95 40.97 40.912 40.905 40.872 40.83 40.78 40.72 40.662 40.62 40.582 40.512 40.492 40.427 40.387 40.335 40.272 40.197 40.102 40.045 39.952 39.875 39.782 39.747 39.7 39.652 39.525 39.485 39.455 39.4 39.37 39.325 39.217 39.147 39.187 39.86 40.717 41.142 38.962 38.935 38.932 39.012 38.98 38.917 38.847 38.795 38.742 38.732 38.7 38.677 38.632 38.632 38.63 38.58 38.545 38.497 38.445 38.415 38.382 38.312 38.305 38.292 38.267 38.23 38.252 38.237 38.267 38.285 38.337 38.352 38.382 38.417 38.472 38.495 38.557 38.605 38.715 38.742 38.795 38.867 38.965 39.057 39.135 39.237 39.355 39.442 39.542 39.665 39.785 39.897 40.035 40.165 40.285 40.422 40.557 40.712 40.877 41.032 41.235 41.38 41.565 41.752 41.927 42.102 42.282 42.47 42.655 42.835 42.992 43.182 43.357 43.545 43.722 43.897 44.065 44.217 44.367 44.5 44.68 44.785 44.895 45.025 45.152 45.327 45.43 45.502 45.557 46.117 47.21 46.267 46.26 46.242 46.177 46.127 46.172 46.19 46.31 46.392 46.455 46.512 46.562 46.562 46.587 46.64 46.67 46.715 46.787 46.885 46.932 46.927 46.945 46.957 46.965 46.972 46.985 47.03 47.055 47.117 47.195 47.25 47.262 47.292 47.292 47.29 47.315 47.34 48.042 48.188 47.54 47.468 47.495 47.525 47.528 47.57 47.593 47.615 47.64 47.653 47.685 47.66 47.66 47.663 47.76 47.748 47.778 47.838 47.86 47.865 47.845 47.875 47.903 47.908 47.908 47.905 47.913 47.93 47.95 47.938 47.925 47.865 47.803 47.805 48.668 49.425 48.23 50.215 50.013 50.023 49.18 48.808 48.09 47.685 47.655 47.678 47.665 47.6 49.03 50.648 48.503 50.598 48.82 47.48 47.463 47.595 50.253 49.823 47.353 47.383 47.445 47.278 49.24 50.365 47.988 47.258 47.275 47.338 48.135 50.323 50.688 50.318 49.765 49.353 48.113 47.62 47.053 47.53 48.825 47.395 47.105 47.775 47.088 46.953 46.93 46.925 46.9 46.785 46.718 46.728 46.645 46.558 46.505 46.468 46.425 46.373 46.333 46.295 46.273 46.233 46.158 46.12 46.04 46.02 45.98 45.928 45.858 45.83 45.765 45.733 45.7 45.678 45.573 45.53 45.505 45.455 45.408 45.343 45.28 45.225 45.188 45.15 45.088 45.02 44.988 44.923 44.863 44.838 44.773 44.703 44.665 44.578 44.555 44.49 44.418 44.328 44.285 44.18 44.13 44.093 43.993 43.92 43.863 43.785 43.753 43.678 43.635 43.533 43.443 43.398 43.323 43.27 43.2 43.113 43.16 43.083 43.05 42.99 42.953 42.9 42.858 42.79 42.775 42.683 42.668 42.618 42.58 42.53 42.455 42.37 42.33
42.209 42.194 42.182 42.152 42.149 42.137 42.144 42.139 42.147 42.124 42.099 42.079 42.039 42.024 42.002 42.024 42.015 41.98 41.992 41.98 41.96 41.935 41.935 41.897 41.872 41.847 41.837 41.825 41.785 41.767 41.745 41.73 41.697 41.71 41.7 41.7 41.7 41.682 41.672 41.66 41.667 41.615 41.61 41.58 41.552 41.515 41.51 41.455 41.415 41.382 41.337 41.292 41.285 41.3 41.302 41.27 41.277 41.275 41.247 41.255 41.262 41.252 41.245 41.252 41.235 41.23 41.185 41.175 41.18 41.175 41.152 41.155 41.135 41.132 41.107 41.09 41.042 41.03 41.005 40.98 40.96 40.93 40.92 40.887 40.887 40.855 40.85 40.847 40.84 40.84 40.845 40.847 40.862 40.88 40.9 40.895 40.92 40.92 40.925 40.902 40.892 40.86 40.827 40.775 40.742 40.69 40.63 40.602 40.54 40.475 40.437 40.405 40.38 40.31 40.247 40.177 40.087 40.005 39.942 39.842 39.752 39.682 39.635 39.567 39.497 39.4 39.372 39.33 39.25 39.227 39.172 39.072 39.017 39.067 39.132 41.56 41.56 39.415 38.765 38.775 38.84 38.91 38.825 38.727 38.665 38.63 38.575 38.555 38.53 38.487 38.475 38.442 38.42 38.395 38.355 38.302 38.277 38.2 38.165 38.157 38.142 38.12 38.115 38.11 38.097 38.112 38.137 38.182 38.202 38.217 38.232 38.27 38.337 38.397 38.47 38.532 38.605 38.675 38.757 38.855 38.925 39.037 39.13 39.25 39.342 39.462 39.575 39.715 39.842 39.975 40.117 40.25 40.382 40.492 40.652 40.837 41 41.182 41.342 41.527 41.727 41.905 42.087 42.275 42.435 42.615 42.805 42.997 43.182 43.347 43.555 43.715 43.88 44.055 44.205 44.34 44.482 44.597 44.73 44.857 45.012 45.165 45.327 45.432 45.475 45.565 46.272 47.58 46.407 46.267 46.205 46.127 46.09 46.18 46.217 46.33 46.402 46.467 46.5 46.565 46.565 46.577 46.62 46.665 46.7 46.797 46.887 46.925 46.91 46.915 46.937 46.942 46.97 46.977 47.022 47.042 47.115 47.19 47.257 47.255 47.275 47.285 47.285 47.307 47.32 48.2 47.96 47.475 47.458 47.49 47.525 47.513 47.553 47.585 47.605 47.625 47.675 47.678 47.665 47.665 47.68 47.748 47.748 47.773 47.848 47.848 47.865 47.848 47.863 48.083 49.42 49.775 49.568 47.915 47.908 47.935 48.153 48.533 47.835 47.775 47.783 48.08 49.303 47.768 47.755 47.77 47.75 47.743 47.713 47.7 47.705 47.62 47.65 47.623 47.573 47.54 47.53 47.42 50.443 50.13 47.41 47.538 47.528 50.173 49.943 47.338 47.343 47.293 47.43 49.805 50.285 47.453 47.248 47.225 47.185 47.13 47.215 47.675 48.213 48.348 49.095 49.325 50.288 48.14 48.038 47.77 47.685 47.208 46.885 46.75 47.578 46.988 47.04 46.88 46.838 46.785 46.693 46.675 46.64 46.56 46.483 46.43 46.393 46.335 46.283 46.233 46.203 46.128 46.113 46.02 45.993 45.953 45.91 45.84 45.805 45.715 45.69 45.68 45.643 45.528 45.473 45.44 45.405 45.345 45.288 45.235 45.18 45.143 45.085 45.055 44.98 44.923 44.858 44.83 44.8 44.715 44.673 44.608 44.558 44.5 44.433 44.38 44.303 44.225 44.163 44.1 44.043 43.963 43.87 43.843 43.785 43.725 43.653 43.61 43.518 43.423 43.365 43.313 43.23 43.178 43.1 43.128 43.053 43.025 42.96 42.905 42.865 42.818 42.77 42.74 42.685 42.655 42.59 42.55 42.518 42.428 42.36 42.295
42.152 42.147 42.122 42.119 42.107 42.104 42.114 42.092 42.089 42.092 42.054 42.034 42.017 41.982 41.964 41.947 41.962 41.945 41.947 41.925 41.927 41.885 41.885 41.87 41.847 41.822 41.802 41.797 41.757 41.722 41.705 41.69 41.655 41.675 41.66 41.655 41.632 41.612 41.61 41.595 41.58 41.56 41.567 41.525 41.5 41.487 41.437 41.372 41.327 41.275 41.24 41.222 41.22 41.222 41.235 41.212 41.207 41.177 41.172 41.185 41.192 41.19 41.195 41.15 41.16 41.152 41.12 41.117 41.107 41.082 41.085 41.065 41.055 41.045 41.017 41.01 40.962 40.962 40.925 40.917 40.902 40.867 40.857 40.822 40.807 40.8 40.785 40.76 40.76 40.765 40.767 40.77 40.8 40.807 40.835 40.847 40.862 40.84 40.847 40.835 40.812 40.777 40.742 40.712 40.66 40.627 40.58 40.51 40.45 40.397 40.347 40.307 40.257 40.207 40.15 40.082 39.987 39.895 39.835 39.747 39.657 39.55 39.507 39.427 39.372 39.285 39.24 39.195 39.17 39.112 39.022 38.95 38.887 38.935 40.23 41.685 42.632 38.887 38.585 38.6 38.667 38.73 38.685 38.587 38.527 38.477 38.43 38.422 38.4 38.39 38.365 38.33 38.262 38.242 38.197 38.15 38.112 38.05 37.995 37.962 37.927 37.95 37.99 37.937 37.962 37.977 37.982 37.992 38.022 38.062 38.1 38.155 38.21 38.287 38.375 38.445 38.52 38.58 38.675 38.75 38.817 38.93 39.047 39.155 39.257 39.395 39.517 39.652 39.795 39.887 40.035 40.177 40.335 40.47 40.615 40.79 40.957 41.142 41.305 41.517 41.705 41.89 42.057 42.227 42.402 42.595 42.775 42.957 43.17 43.34 43.525 43.707 43.865 44.022 44.187 44.325 44.465 44.592 44.725 44.88 45.012 45.177 45.345 45.415 45.505 45.587 46.375 46.89 46.385 46.277 46.202 46.132 46.11 46.185 46.215 46.327 46.412 46.46 46.487 46.542 46.57 46.572 46.6 46.64 46.695 46.77 46.867 46.897 46.897 46.922 46.902 46.927 46.947 46.977 47.015 47.037 47.112 47.182 47.242 47.255 47.28 47.27 47.285 47.302 47.337 48.22 48.163 47.468 47.46 47.625 47.685 47.525 47.553 47.583 47.608 47.623 47.663 47.683 47.663 47.683 47.7 47.735 47.753 47.803 47.833 47.835 47.848 48.4 50.073 50.563 50.85 50.81 49.825 47.933 47.915 47.918 50.398 50.51 47.838 47.755 47.765 47.983 49.24 47.76 47.788 47.755 47.738 47.698 47.713 47.663 47.605 47.593 47.615 47.585 47.528 47.515 47.498 47.45 50.32 50.478 47.443 47.535 47.405 50.1 50.085 47.405 47.318 47.263 48.393 50.37 48.715 47.18 47.21 47.163 47.125 47.678 47.593 47.028 46.983 46.965 46.94 46.94 47.038 47.143 48.038 47.888 48.26 49.095 48.548 48.073 47.613 47.723 48.833 47.023 46.893 46.833 46.765 46.708 46.64 46.58 46.528 46.43 46.36 46.31 46.28 46.225 46.185 46.113 46.055 45.983 45.943 45.915 45.888 45.813 45.745 45.695 45.658 45.615 45.585 45.495 45.453 45.403 45.343 45.303 45.223 45.185 45.123 45.098 45.028 44.978 44.905 44.853 44.833 44.785 44.75 44.683 44.618 44.573 44.505 44.448 44.41 44.335 44.26 44.215 44.13 44.045 43.99 43.908 43.863 43.793 43.725 43.673 43.615 43.553 43.475 43.405 43.333 43.278 43.22 43.15 43.1 43.068 43.058 42.978 42.925 42.883 42.833 42.763 42.73 42.695 42.643 42.595 42.563 42.523 42.473 42.418 42.335 42.26
