ncols 459
nrows 31
xllcorner    462046
yllcorner    92070
cellsize     2
NODATA_value -9999
-1.045 -1.117 -1.139 -1.11 -1.121 -1.099 -1.081 -1.094 -1.111 -1.071 -1.084 -1.066 -1.109 -1.094 -1.043 -1.091 -1.113 -1.084 -1.131 -1.141 -0.914 -1.101 -1.155 -1.14 -1.149 -1.126 -1.157 -1.135 -1.163 -1.137 -1.167 -1.206 -1.154 -1.204 -1.209 -1.243 -1.014 -1.198 -1.174 -1.172 -0.965 -1.013 -1.179 -1.191 -1.234 -1.023 -1.209 -1.012 -1.27 -1.283 -1.264 -1.297 -1.309 -1.309 -1.369 -1.322 -1.099 -1.366 -1.337 -1.396 -1.429 -1.449 -1.434 -1.24 -1.264 -1.448 -1.459 -1.473 -1.488 -1.551 -1.574 -1.331 -1.37 -1.601 -1.604 -1.62 -1.636 -1.599 -1.664 -1.635 -1.626 -1.403 -1.359 -1.354 -1.499 -1.479 -1.422 -1.439 -1.442 -1.373 -1.374 -1.474 -1.713 -1.454 -1.238 -1.273 -1.266 -1.247 -1.216 -1.304 -1.539 -1.751 -1.804 -1.512 -1.803 -1.836 -1.546 -1.368 -1.542 -1.571 -1.55 -1.553 -1.488 -1.581 -1.578 -1.607 -1.841 -1.868 -1.891 -1.624 -1.654 -1.907 -1.594 -1.532 -1.357 -1.119 -1.159 -1.155 -1.135 -1.121 -1.303 -1.57 -1.702 -1.697 -1.584 -1.479 -1.697 -2.006 -1.97 -2.059 -1.781 -1.986 -2.061 -1.744 -1.74 -1.74 -2.068 -1.799 -1.731 -1.665 -1.761 -1.759 -1.775 -1.687 -1.661 -1.656 -1.829 -1.703 -1.633 -1.728 -1.68 -1.641 -1.583 -1.57 -1.537 -1.536 -1.512 -1.273 -1.494 -1.514 -1.615 -1.194 -1.518 -1.44 -0.757 -0.621 -1.355 -1.36 -1.329 -1.384 -1.406 -1.501 -1.516 -1.493 -1.455 -1.466 -1.638 -1.772 -1.73 -1.647 -1.495 -1.279 -1.345 -1.487 -1.506 -1.543 -1.457 -1.274 -1.501 -1.783 -2.044 -2.081 -1.78 -1.687 -1.486 -1.532 -1.836 -2.089 -2.093 -2.043 -1.789 -1.735 -1.798 -2.062 -1.834 -1.718 -1.566 -1.469 -1.505 -1.564 -1.541 -1.512 -1.702 -1.86 -2.145 -1.803 -1.832 -2.111 -1.781 -1.729 -1.521 -1.491 -1.678 -1.875 -1.804 -2.078 -1.771 -1.681 -1.506 -1.553 -1.887 -2.068 -2.055 -1.765 -1.807 -1.808 -2.101 -2.038 -2.095 -1.829 -2.068 -2.044 -2.073 -1.787 -1.637 -1.466 -1.486 -1.522 -1.462 -1.467 -1.685 -1.786 -2.087 -1.815 -1.745 -1.741 -1.808 -1.775 -1.775 -1.812 -2.065 -2.065 -1.822 -1.542 -1.675 -1.819 -1.809 -1.663 -1.493 -1.34 -1.118 -1.147 -1.264 -1.293 -1.257 -1.26 -1.248 -1.502 -1.791 -2.083 -2.071 -2.078 -1.777 -1.682 -1.792 -2.04 -1.782 -1.525 -1.557 -1.444 -1.302 -1.051 -0.801 -0.691 -0.679 -0.841 -1.118 -1.299 -1.452 -1.624 -1.741 -1.734 -1.733 -1.626 -1.446 -1.203 -1.004 -0.744 -0.607 -0.684 -0.754 -0.741 -0.7 -0.633 -0.713 -0.949 -1.077 -1.171 -1.219 -1.254 -1.208 -1.174 -1.099 -0.87 -1.06 -1.224 -1.266 -1.255 -1.513 -1.792 -2.102 -2.148 -2.11 -1.793 -1.68 -1.511 -1.216 -1.501 -1.724 -1.772 -1.716 -1.636 -1.453 -1.19 -0.971 -1.081 -1.277 -1.499 -1.505 -1.524 -1.622 -1.484 -1.792 -2.045 -2.008 -1.741 -1.682 -1.47 -1.302 -1.01 -0.714 -0.394 -0.15 0.017 -0.184 -0.349 -0.564 -0.724 -0.85 -0.96 -0.981 -1.018 -1 -0.93 -0.776 -0.586 -0.484 -0.16 0.127 0.121 -0.121 1.943 1.983 -0.926 -1.048 -1.325 -1.508 -1.564 -1.525 -1.496 -1.433 -1.279 -1.233 -1.165 1.811 1.831 -0.506 1.851 1.843 -0.424 -0.683 -0.95 -1.177 -1.39 -1.592 -1.765 -2.071 -1.989 -1.859 -1.764 -1.466 -1.241 -1.008 -0.688 1.923 1.931 2.018 1.971 1.991 1.948 2.023 1.993 1.948 1.933 1.983 1.971 2.001 2.076 1.903 1.911 2.048 2.033 2.011 1.773 1.733 1.866 1.981 1.971 2.061 2.086 1.961 1.881 1.938 1.981 1.976 1.963 1.888 2.048 1.978
-1.108 -1.157 -1.123 -1.063 -1.07 -1.109 -1.134 -1.115 -1.098 -1.06 -1.053 -1.081 -1.063 -1.047 -1.054 -1.077 -1.084 -1.09 -0.922 -1.113 -1.143 -1.14 -1.067 -1.119 -1.114 -1.15 -1.129 -1.11 -1.182 -1.154 -1.158 -1.131 -1.146 -1.187 -1.178 -1.141 -1.17 -1.202 -1.167 -0.982 -0.971 -0.952 -1.171 -1.212 -1.236 -1.186 -1.001 -0.935 -0.998 -1.225 -1.288 -1.25 -1.258 -1.294 -1.34 -1.351 -1.334 -1.33 -1.317 -1.406 -1.412 -1.384 -1.416 -1.433 -1.463 -1.46 -1.484 -1.512 -1.509 -1.574 -1.287 -1.338 -1.272 -1.371 -1.58 -1.621 -1.38 -1.375 -1.583 -1.613 -1.639 -1.443 -1.445 -1.483 -1.736 -1.643 -1.448 -1.424 -1.318 -1.213 -1.481 -1.753 -1.717 -1.477 -1.378 -1.147 -1.023 -0.998 -0.945 -1.206 -1.387 -1.537 -1.796 -1.789 -1.8 -1.783 -1.554 -1.375 -1.293 -1.281 -1.311 -1.3 -1.277 -1.31 -1.316 -1.476 -1.572 -1.593 -1.597 -1.51 -1.64 -1.646 -1.502 -1.257 -1.164 -0.977 -0.882 -0.876 -0.866 -0.985 -1.188 -1.333 -1.434 -1.399 -1.361 -1.384 -1.597 -1.716 -1.969 -1.721 -1.593 -1.723 -2.014 -1.723 -1.945 -1.983 -1.999 -2.011 -1.823 -1.558 -1.533 -1.517 -1.534 -1.532 -1.734 -1.836 -1.854 -1.687 -1.736 -1.71 -1.651 -1.578 -1.564 -1.531 -1.275 -1.552 -1.524 -1.517 -1.286 -1.494 -1.487 -1.275 -1.051 -1.447 -1.355 -0.472 -1.358 -1.324 -1.293 -1.285 -1.304 -1.384 -1.369 -1.506 -1.5 -1.527 -1.474 -1.535 -1.537 -1.466 -1.289 -1.351 -1.475 -1.719 -1.802 -1.805 -1.652 -1.409 -1.461 -1.747 -1.785 -1.837 -2.087 -1.861 -1.57 -1.454 -1.649 -1.823 -1.827 -1.831 -1.688 -1.453 -1.689 -1.803 -1.713 -1.519 -1.466 -1.482 -1.693 -1.831 -1.813 -1.715 -1.84 -2.063 -2.088 -2.056 -1.845 -1.938 -1.755 -1.5 -1.301 -1.29 -1.5 -1.514 -1.713 -1.774 -1.664 -1.514 -1.371 -1.499 -1.755 -1.838 -1.847 -1.703 -1.532 -1.685 -1.797 -1.793 -1.835 -1.817 -2.08 -2.082 -1.789 -1.68 -1.423 -1.311 -1.21 -1.325 -1.292 -1.561 -1.81 -2.075 -2.057 -2.083 -1.797 -1.548 -1.515 -1.68 -1.819 -1.792 -1.791 -1.795 -1.694 -1.438 -1.457 -1.581 -1.504 -1.476 -1.355 -1.12 -0.942 -0.875 -1.021 -1.022 -1.039 -1.002 -1.21 -1.475 -1.711 -1.804 -1.799 -1.822 -1.619 -1.797 -2.074 -2.005 -1.762 -1.519 -1.272 -1.209 -1.073 -0.9 -0.7 -0.474 -0.652 -0.964 -1.217 -1.486 -1.678 -1.755 -2.073 -2.03 -2.03 -1.768 -1.511 -1.211 -0.958 -0.737 -0.485 -0.463 -0.476 -0.474 -0.533 -0.751 -0.955 -1.045 -1.303 -1.448 -1.53 -1.487 -1.412 -1.241 -1.083 -1.063 -1.26 -1.466 -1.534 -1.532 -1.536 -1.816 -2.019 -2.122 -1.773 -1.642 -1.458 -1.343 -1.269 -1.525 -1.832 -2.098 -2.024 -1.779 -1.515 -1.25 -0.953 -1.12 -1.4 -1.647 -1.809 -1.669 -1.531 -1.528 -1.688 -1.801 -1.759 -1.693 -1.464 -1.301 -1.133 -0.927 -0.598 -0.35 -0.066 -0.175 -0.235 -0.171 -0.362 -0.501 -0.65 -0.665 -0.718 -0.735 -0.751 -0.672 -0.576 -0.374 -0.221 0.011 0.24 0.255 0.01 2.041 -0.503 -0.799 1.928 -1.027 -1.246 -1.355 -1.468 -1.525 -1.461 -1.337 -1.098 -0.871 -0.742 -0.647 1.878 -0.168 -0.246 -0.486 1.818 1.818 -1.296 -1.485 1.911 -9999 -2.193 -2.038 -1.79 -1.507 1.923 1.871 1.908 -0.633 -0.424 1.936 1.923 1.953 2.016 2.016 1.968 1.913 1.886 1.786 1.808 1.983 1.958 2.013 1.853 1.903 1.956 1.933 1.908 1.761 1.833 1.928 2.036 1.951 1.951 2.028 2.053 1.811 1.878 1.861 1.903 1.978 1.896 2.063 1.976
-1.147 -1.188 -1.133 -1.131 -1.068 -0.862 -1.056 -1.121 -1.072 -1.042 -1.041 -1.083 -1.035 -1.018 -1.046 -1.085 -1.089 -0.877 -1.085 -1.117 -1.122 -1.092 -1.091 -1.132 -1.112 -1.122 -1.161 -1.158 -1.083 -1.119 -1.165 -1.135 -1.137 -1.167 -1.164 -1.209 -1.168 -1.172 -1.185 -1.192 -1.2 -1.175 -1.171 -1.197 -1.186 -1.188 -0.968 -1.012 -1.189 -1.212 -1.239 -1.222 -1.219 -1.252 -1.27 -1.325 -1.319 -1.274 -1.328 -1.357 -1.365 -1.361 -1.39 -1.423 -1.461 -1.464 -1.264 -1.291 -1.272 -1.53 -1.519 -1.558 -1.342 -1.198 -1.321 -1.357 -1.263 -1.375 -1.352 -1.381 -1.647 -1.626 -1.645 -1.45 -1.694 -1.665 -1.689 -1.681 -1.427 -1.172 -1.435 -1.72 -1.703 -1.695 -1.444 -1.258 -0.987 -0.942 -0.958 -1.172 -1.378 -1.489 -1.758 -1.756 -1.741 -1.527 -1.446 -1.243 -1.004 -1.046 -1.026 -1.04 -1.251 -1.268 -1.285 -1.228 -1.347 -1.32 -1.308 -1.595 -1.848 -1.889 -1.628 -1.395 -1.099 -0.859 -0.613 -0.598 -0.685 -0.826 -1.012 -1.122 -1.134 -1.108 -1.125 -1.233 -1.359 -1.599 -1.716 -1.63 -1.363 -1.615 -1.692 -1.738 -2.014 -1.983 -2.052 -2.008 -1.734 -1.488 -1.26 -1.279 -1.28 -1.52 -1.692 -1.873 -1.876 -1.659 -1.75 -1.636 -1.613 -1.624 -1.65 -1.601 -1.033 -1.542 -1.541 -1.274 -1.169 -1.3 -1.289 -1.151 -0.997 -0.761 -1.42 -0.314 -1.417 -1.399 -1.334 -1.245 -1.257 -1.35 -1.464 -1.613 -1.714 -1.714 -1.623 -1.435 -1.306 -1.461 -1.528 -1.518 -1.663 -1.829 -2.073 -2.046 -1.801 -1.579 -1.314 -1.447 -1.521 -1.781 -2.033 -1.763 -1.544 -1.446 -1.509 -1.56 -1.5 -1.533 -1.444 -1.32 -1.478 -1.595 -1.68 -1.791 -1.702 -1.54 -1.762 -2.106 -2.094 -1.769 -1.724 -1.858 -2.116 -2.091 -1.801 -1.55 -1.519 -1.3 -1.1 -1.098 -1.256 -1.315 -1.462 -1.519 -1.496 -1.284 -1.122 -1.3 -1.454 -1.552 -1.609 -1.47 -1.357 -1.486 -1.479 -1.555 -1.522 -1.721 -1.799 -2.08 -1.825 -1.512 -1.284 -1.146 -0.974 -0.961 -1.235 -1.548 -1.808 -2.064 -2.029 -1.852 -1.65 -1.473 -1.534 -1.858 -2.098 -2.087 -2.059 -1.802 -1.52 -1.318 -1.224 -1.243 -1.282 -1.223 -1.131 -0.931 -0.687 -0.617 -0.737 -0.765 -0.788 -0.926 -1.195 -1.322 -1.471 -1.497 -1.53 -1.554 -1.49 -1.63 -1.798 -1.783 -1.662 -1.475 -1.221 -0.959 -0.87 -0.699 -0.54 -0.397 -0.676 -1.035 -1.248 -1.515 -1.783 -2.023 -2.017 -2.016 -2.035 -1.757 -1.495 -1.205 -0.926 -0.647 -0.376 -0.183 -0.231 -0.335 -0.657 -0.883 -1.121 -1.281 -1.445 -1.68 -1.801 -1.755 -1.614 -1.466 -1.224 -1.151 -1.46 -1.693 -1.753 -1.795 -1.676 -1.737 -1.758 -1.799 -1.716 -1.447 -1.294 -1.103 -1.272 -1.577 -1.871 -2.043 -2.108 -1.722 -1.468 -1.243 -0.885 -1.13 -1.508 -1.809 -2.04 -1.757 -1.747 -1.518 -1.54 -1.486 -1.54 -1.435 -1.308 -1.127 -0.925 -0.741 -0.524 -0.257 -0.383 -0.427 -0.436 -0.381 -0.381 -0.304 -0.385 -0.364 -0.48 -0.509 -0.501 -0.44 -0.299 -0.126 0.082 0.264 0.423 0.344 0.153 -0.1 -0.41 -0.651 -0.875 -1.06 -1.328 -1.433 -1.746 -1.755 -1.748 -1.542 -1.271 -0.977 -0.71 -0.471 1.976 1.938 -0.282 -0.468 -0.683 2.013 1.973 1.896 -1.853 -9999 -1.982 1.943 -1.7 -1.447 -1.194 -0.956 2.071 -0.491 2.006 -0.013 1.956 1.951 1.956 1.968 1.971 1.821 1.896 1.768 1.728 1.896 1.936 1.903 1.896 1.853 1.831 1.936 1.808 1.891 1.956 2.016 1.936 1.868 2.003 2.016 1.936 1.856 1.893 1.906 1.961 1.988 1.913 1.963 1.978
-1.109 -1.162 -1.172 -1.047 -1.084 -1.106 -1.066 -1.104 -1.03 -1.051 -1.015 -1.022 -1.031 -1.056 -1.097 -1.102 -1.033 -0.86 -1.06 -1.066 -1.113 -1.083 -1.12 -1.098 -1.098 -1.097 -1.124 -1.109 -1.099 -1.056 -1.13 -1.139 -1.147 -1.137 -1.116 -1.117 -1.163 -1.169 -1.16 -1.181 -1.164 -1.144 -1.193 -1.178 -1.18 -1.158 -1.14 -0.976 -1.18 -1.227 -1.258 -1.255 -1.185 -1.233 -1.266 -1.28 -1.278 -1.319 -1.287 -1.346 -1.355 -1.358 -1.404 -1.184 -1.203 -1.232 -1.232 -1.526 -1.529 -1.474 -1.481 -1.487 -1.288 -1.071 -1.085 -1.133 -1.321 -1.551 -1.583 -1.61 -1.643 -1.596 -1.671 -1.672 -1.691 -1.623 -1.657 -1.69 -1.424 -1.169 -1.409 -1.681 -1.706 -1.437 -1.29 -1.135 -1.04 -1.161 -1.261 -1.234 -1.487 -1.724 -1.754 -1.514 -1.45 -1.408 -1.247 -1.147 -0.882 -0.825 -1 -1.205 -1.415 -1.55 -1.549 -1.403 -1.254 -1.055 -1.322 -1.594 -1.838 -1.878 -1.562 -1.383 -1.13 -0.88 -0.586 -0.363 -0.45 -0.611 -0.751 -0.872 -0.966 -1.091 -1.186 -1.355 -1.607 -1.705 -1.721 -1.56 -1.363 -1.362 -1.448 -1.715 -1.939 -1.987 -2.013 -1.982 -1.727 -1.432 -1.199 -1.009 -1.237 -1.47 -1.629 -1.663 -1.648 -1.599 -1.621 -1.573 -1.505 -1.626 -1.71 -1.646 -1.571 -1.614 -1.629 -1.064 -0.94 -1.027 -1.052 -0.994 -0.912 -0.704 -1.453 -0.227 -1.573 -1.52 -1.367 -1.29 -1.301 -1.37 -1.498 -1.69 -1.915 -1.945 -1.723 -1.474 -1.48 -1.655 -1.818 -1.817 -1.76 -1.998 -2.07 -2.097 -1.847 -1.509 -1.222 -1.166 -1.434 -1.675 -1.814 -1.656 -1.553 -1.665 -1.788 -1.726 -1.466 -1.284 -1.237 -1.225 -1.478 -1.673 -1.807 -2.137 -1.796 -1.65 -1.856 -2.095 -2.077 -1.812 -1.532 -1.826 -2.128 -1.797 -1.737 -1.48 -1.177 -1.047 -0.906 -0.847 -0.958 -1.074 -1.287 -1.29 -1.25 -1.124 -1.012 -1.149 -1.147 -1.244 -1.293 -1.227 -1.101 -1.202 -1.249 -1.256 -1.295 -1.509 -1.711 -1.766 -1.736 -1.452 -1.268 -0.976 -0.758 -0.962 -1.22 -1.496 -1.682 -1.793 -1.857 -1.695 -1.464 -1.371 -1.513 -1.777 -2.032 -2.105 -1.837 -1.656 -1.472 -1.228 -0.989 -1.016 -0.948 -0.977 -1.008 -1.016 -1.025 -0.839 -0.78 -0.596 -0.676 -0.981 -1.216 -1.461 -1.669 -1.787 -1.854 -1.801 -1.693 -1.43 -1.563 -1.508 -1.427 -1.354 -1.108 -0.868 -0.728 -0.734 -0.681 -0.652 -0.682 -1.023 -1.238 -1.587 -1.831 -2.038 -2.023 -1.991 -1.778 -1.619 -1.488 -1.178 -0.896 -0.613 -0.383 -0.148 -0.189 -0.459 -0.67 -0.891 -1.267 -1.482 -1.698 -1.794 -2.053 -1.999 -1.698 -1.49 -1.219 -1.221 -1.526 -1.776 -2.015 -2.047 -1.709 -1.603 -1.495 -1.538 -1.576 -1.464 -1.483 -1.287 -1.254 -1.52 -1.807 -2.006 -2.082 -1.84 -1.494 -1.246 -0.886 -1.155 -1.485 -1.81 -2.041 -2.069 -1.844 -1.562 -1.287 -1.268 -1.265 -1.193 -1.081 -0.96 -0.702 -0.656 -0.421 -0.534 -0.597 -0.692 -0.778 -0.735 -0.724 -0.544 -0.372 -0.097 -0.137 -0.198 -0.187 -0.141 -0.007 0.056 0.316 0.412 0.578 0.338 0.033 -0.199 -0.501 -0.689 -0.871 -1.161 -1.44 -1.686 -1.838 -2.058 1.881 -1.621 -1.387 -1.067 -0.711 -0.383 -0.172 -0.052 -0.264 -0.4 1.971 -0.932 -1.292 1.871 -1.812 -1.903 1.983 -1.865 -1.522 -1.237 1.896 -0.892 2.018 -0.353 -0.088 2.018 0.352 1.943 1.933 1.831 1.761 1.808 1.941 1.976 1.991 2.041 1.931 1.848 1.926 1.878 1.921 1.941 2.023 2.068 1.988 1.896 1.843 1.903 2.093 1.986 1.793 1.866 1.931 1.938 1.941 1.911 1.888 2.006 1.918
-1.079 -1.093 -1.14 -1.039 -1.038 -1.048 -1.067 -1.055 -1.019 -1.014 -1.025 -1.034 -1.028 -1.023 -1.072 -1.058 -1.055 -1.062 -1.033 -1.064 -1.054 -1.036 -1.096 -1.079 -1.089 -1.065 -1.113 -1.146 -1.131 -1.117 -1.125 -1.091 -1.142 -1.075 -1.144 -1.123 -1.109 -1.145 -1.142 -1.152 -1.141 -1.156 -1.144 -1.157 -1.137 -1.2 -1.174 -1.2 -1.167 -1.201 -1.222 -1.17 -1.229 -1.226 -1.205 -1.267 -1.276 -1.292 -1.314 -1.297 -1.326 -1.339 -1.151 -1.05 -1.179 -1.424 -1.444 -1.463 -1.48 -1.461 -1.515 -1.274 -1.208 -1.238 -1.322 -1.313 -1.337 -1.562 -1.536 -1.398 -1.602 -1.576 -1.616 -1.606 -1.416 -1.602 -1.368 -1.395 -1.302 -1.106 -1.331 -1.406 -1.673 -1.416 -1.317 -1.173 -1.151 -1.36 -1.472 -1.441 -1.465 -1.701 -1.723 -1.744 -1.497 -1.303 -1.279 -1.27 -1.06 -0.858 -1.013 -1.276 -1.558 -1.815 -1.777 -1.523 -1.286 -1.035 -1.184 -1.426 -1.561 -1.607 -1.48 -1.271 -1.032 -0.815 -0.569 -0.32 -0.377 -0.598 -0.78 -0.969 -1.129 -1.29 -1.37 -1.398 -1.683 -1.957 -1.939 -1.694 -1.398 -1.401 -1.334 -1.623 -1.758 -1.685 -1.72 -1.728 -1.627 -1.384 -1.198 -0.979 -1.083 -1.319 -1.466 -1.501 -1.481 -1.534 -1.516 -1.475 -1.541 -1.589 -1.639 -1.581 -1.57 -1.532 -1.525 -1.575 -1.651 -1.644 -0.804 -0.786 -0.749 -1.432 -1.488 -0.063 -1.716 -1.618 -1.457 -1.332 -1.367 -1.49 -1.585 -1.719 -1.924 -1.973 -1.832 -1.498 -1.668 -1.783 -2.028 -2.056 -1.832 -1.798 -2.068 -2.065 -1.834 -1.584 -1.309 -1.008 -1.303 -1.527 -1.555 -1.664 -1.838 -1.887 -2.089 -1.759 -1.502 -1.314 -1.051 -1.264 -1.557 -1.836 -2.043 -2.028 -2.079 -1.808 -2.037 -2.059 -2.052 -1.803 -1.54 -1.692 -1.796 -1.695 -1.505 -1.291 -1.078 -0.869 -0.758 -0.65 -0.676 -0.872 -0.964 -0.99 -0.948 -0.873 -0.717 -0.861 -0.924 -1.016 -1.051 -1.033 -0.867 -0.964 -0.997 -0.965 -1.117 -1.349 -1.466 -1.521 -1.474 -1.31 -1.137 -0.881 -0.771 -0.859 -1.073 -1.304 -1.461 -1.555 -1.536 -1.438 -1.344 -1.278 -1.5 -1.665 -1.827 -1.795 -1.751 -1.467 -1.299 -1.095 -0.886 -0.946 -1.079 -1.216 -1.258 -1.202 -1.221 -1.136 -1.019 -0.785 -0.709 -1.02 -1.27 -1.54 -1.84 -2.083 -2.107 -2.053 -1.786 -1.5 -1.25 -1.225 -1.167 -1.125 -1.007 -0.921 -0.987 -1.038 -0.936 -0.915 -0.823 -0.959 -1.231 -1.489 -1.703 -1.841 -1.753 -1.745 -1.666 -1.476 -1.285 -1.055 -0.761 -0.588 -0.349 -0.116 -0.205 -0.501 -0.732 -0.943 -1.26 -1.501 -1.778 -2.068 -2.054 -1.985 -1.723 -1.447 -1.473 -1.57 -1.589 -1.843 -1.992 -2.138 -1.767 -1.531 -1.413 -1.68 -1.795 -1.786 -1.704 -1.449 -1.237 -1.515 -1.728 -1.789 -1.714 -1.706 -1.47 -1.253 -0.858 -1.198 -1.379 -1.641 -1.724 -1.836 -1.743 -1.463 -1.222 -0.999 -0.979 -0.886 -0.855 -0.704 -0.608 -0.376 -0.576 -0.8 -0.861 -0.946 -0.943 -0.957 -0.93 -0.758 -0.555 -0.337 -0.151 0.097 0.112 0.124 0.198 0.358 0.44 0.591 0.588 0.353 0.067 -0.198 -0.473 -0.623 -0.88 -1.184 -1.567 -1.816 -2.084 -2.129 -1.855 -1.577 -1.327 -1.045 -0.799 -0.421 -0.245 -0.023 -0.135 -0.322 -0.68 -0.904 -1.096 -1.263 1.901 2.008 1.946 -1.616 -1.386 -1.067 2.028 -0.645 1.966 1.978 -0.008 0.246 0.475 0.441 1.918 1.791 1.858 1.958 2.011 1.956 1.953 2.101 1.993 1.886 1.886 1.898 1.948 2.023 2.023 2.061 1.893 1.833 1.878 1.953 1.961 1.931 1.863 2.018 1.996 1.923 1.891 1.913 1.963 2.056 1.913
-1.076 -1.075 -1.108 -1.121 -1.034 -1.037 -1.021 -1.045 -0.998 -0.968 -0.972 -1 -1.013 -1.034 -1.057 -0.991 -1.066 -1.027 -1.02 -1.083 -1.046 -0.857 -0.894 -1.105 -1.09 -1.1 -1.12 -1.096 -1.101 -1.118 -1.11 -1.114 -1.063 -1.091 -1.111 -1.098 -1.131 -1.158 -1.135 -1.134 -1.128 -0.91 -1.113 -1.149 -1.155 -1.162 -1.172 -1.194 -1.143 -1.15 -1.199 -1.187 -1.214 -1.233 -1.225 -1.216 -1.202 -1.256 -1.066 -1.29 -1.282 -1.348 -1.143 -1.14 -1.17 -1.21 -1.378 -1.427 -1.176 -1.235 -1.306 -1.178 -1.056 -1.315 -1.538 -1.511 -1.329 -1.324 -1.355 -1.283 -1.409 -1.549 -1.598 -1.602 -1.42 -1.351 -1.257 -1.144 -1.15 -1.146 -1.404 -1.671 -1.675 -1.675 -1.422 -1.174 -1.185 -1.454 -1.667 -1.691 -1.699 -1.699 -1.682 -1.46 -1.49 -1.398 -1.463 -1.383 -1.211 -1.047 -0.964 -1.206 -1.357 -1.509 -1.754 -1.51 -1.257 -1.03 -1.031 -1.265 -1.296 -1.337 -1.239 -1.073 -0.893 -0.697 -0.48 -0.276 -0.444 -0.69 -0.913 -1.11 -1.266 -1.508 -1.624 -1.628 -1.577 -1.635 -1.673 -1.563 -1.64 -1.644 -1.602 -1.345 -1.416 -1.428 -1.455 -1.441 -1.374 -1.248 -1.069 -1.06 -1.225 -1.246 -1.419 -1.587 -1.67 -1.658 -1.599 -1.46 -1.513 -1.602 -1.61 -1.606 -1.59 -1.539 -1.513 -1.596 -1.699 -1.697 -0.541 -1.536 -1.45 -1.462 -1.564 -0.001 -1.782 -1.629 -1.503 -1.367 -1.372 -1.528 -1.765 -1.957 -1.729 -1.718 -1.649 -1.534 -1.818 -2.01 -2.042 -2.033 -1.79 -1.671 -1.805 -1.823 -1.676 -1.52 -1.3 -0.947 -1.101 -1.276 -1.586 -1.743 -2.019 -1.801 -2.031 -1.772 -1.557 -1.326 -1.074 -1.252 -1.456 -1.676 -1.752 -2.029 -1.8 -1.786 -2.089 -2.093 -1.805 -1.681 -1.5 -1.563 -1.493 -1.467 -1.307 -1.131 -0.938 -0.736 -0.522 -0.34 -0.441 -0.592 -0.68 -0.68 -0.666 -0.722 -0.645 -0.644 -0.722 -0.76 -0.816 -0.756 -0.592 -0.686 -0.758 -0.721 -0.971 -1.087 -1.212 -1.247 -1.265 -1.294 -1.267 -1.117 -0.904 -0.723 -0.887 -1.128 -1.271 -1.291 -1.267 -1.316 -1.485 -1.508 -1.431 -1.462 -1.54 -1.551 -1.463 -1.31 -1.07 -0.95 -0.899 -1.066 -1.309 -1.438 -1.522 -1.51 -1.539 -1.291 -1.097 -0.917 -0.721 -0.998 -1.304 -1.556 -1.789 -2.115 -2.029 -2.116 -1.81 -1.45 -1.231 -1 -0.924 -0.89 -0.94 -1.069 -1.221 -1.293 -1.233 -1.232 -1.125 -0.964 -1.114 -1.297 -1.463 -1.503 -1.485 -1.496 -1.459 -1.267 -1.09 -0.88 -0.648 -0.505 -0.272 -0.028 -0.197 -0.412 -0.638 -0.947 -1.192 -1.454 -1.699 -1.809 -1.79 -1.74 -1.616 -1.384 -1.623 -1.823 -1.68 -1.709 -1.733 -1.759 -1.675 -1.482 -1.551 -1.819 -2.115 -2.095 -1.793 -1.514 -1.273 -1.396 -1.483 -1.535 -1.5 -1.511 -1.393 -1.165 -0.811 -1.057 -1.309 -1.419 -1.466 -1.49 -1.475 -1.307 -1.093 -0.828 -0.709 -0.658 -0.634 -0.477 -0.389 -0.622 -0.727 -0.976 -1.096 -1.144 -1.213 -1.258 -1.177 -0.963 -0.761 -0.55 -0.357 -0.023 0.27 0.369 0.394 0.56 0.593 0.833 0.65 0.368 0.004 -0.19 -0.45 -0.632 -0.996 -1.23 -1.564 -1.775 -2.073 -2.177 -1.957 -1.61 -1.292 -0.979 -0.723 -0.36 -0.231 0.026 -0.036 -0.212 -0.546 -0.798 -0.97 2.058 -1.167 2.066 -1.395 1.931 -1.117 1.978 -0.754 -0.548 1.956 1.933 0.088 0.325 0.535 0.688 0.526 1.788 1.958 2.081 2.098 1.911 1.906 2.141 2.016 1.886 1.846 1.928 2.008 2.046 2.038 1.966 1.898 1.853 1.901 2.003 1.908 1.881 1.873 2.023 2.011 1.833 1.886 1.881 1.953 1.908 1.963
-1.097 -1.098 -1.093 -1.057 -1.03 -1.028 -1.051 -1.05 -1.013 -0.983 -0.971 -1.021 -1.002 -1.059 -1.048 -0.778 -0.809 -1.026 -1.005 -1.032 -1.024 -0.844 -0.87 -1.077 -1.048 -1.05 -1.091 -1.077 -1.058 -1.085 -1.096 -1.09 -1.078 -1.067 -1.05 -1.079 -1.143 -1.101 -1.15 -1.124 -0.905 -0.923 -1.12 -1.169 -0.898 -0.924 -1.138 -1.17 -1.12 -1.131 -1.173 -0.962 -1.233 -1.187 -1.204 -1.194 -1.227 -1.248 -0.999 -1.25 -1.273 -1.298 -1.087 -1.343 -1.333 -1.361 -1.169 -1.21 -1.097 -1.145 -1.257 -1.257 -1.191 -1.312 -1.495 -1.556 -1.609 -1.523 -1.299 -1.093 -1.243 -1.361 -1.602 -1.613 -1.641 -1.356 -1.256 -1.266 -1.352 -1.292 -1.287 -1.408 -1.622 -1.595 -1.392 -1.189 -1.207 -1.475 -1.67 -1.668 -1.393 -1.701 -1.707 -1.65 -1.722 -1.447 -1.737 -1.498 -1.406 -1.175 -0.94 -1.058 -1.214 -1.414 -1.499 -1.437 -1.205 -0.959 -0.84 -0.977 -1.08 -1.053 -0.996 -0.874 -0.738 -0.547 -0.421 -0.502 -0.549 -0.788 -0.988 -1.27 -1.523 -1.636 -1.864 -1.863 -1.663 -1.591 -1.392 -1.636 -1.924 -1.924 -1.701 -1.432 -1.432 -1.437 -1.353 -1.229 -1.115 -1.034 -1.035 -1.236 -1.43 -1.446 -1.446 -1.662 -1.811 -1.806 -1.643 -1.583 -1.539 -1.662 -1.748 -1.718 -1.651 -1.529 -1.511 -1.574 -1.651 -1.673 -0.354 -1.526 -1.459 -0.201 -0.087 0.09 -1.826 -1.603 -1.521 -1.403 -1.4 -1.553 -1.773 -2.049 -1.736 -1.497 -1.472 -1.548 -1.787 -2.03 -2.027 -1.741 -1.706 -1.466 -1.546 -1.523 -1.441 -1.381 -1.111 -0.881 -0.998 -1.299 -1.536 -1.745 -2.012 -1.986 -1.959 -1.724 -1.521 -1.318 -1.144 -1.216 -1.423 -1.494 -1.629 -1.748 -1.676 -1.685 -1.819 -2.094 -1.832 -1.562 -1.325 -1.218 -1.272 -1.246 -1.108 -0.937 -0.718 -0.583 -0.361 -0.071 -0.355 -0.562 -0.729 -0.857 -0.933 -0.96 -0.96 -0.781 -0.707 -0.573 -0.534 -0.471 -0.376 -0.485 -0.499 -0.719 -0.952 -1.124 -1.311 -1.453 -1.595 -1.604 -1.464 -1.312 -1.105 -0.888 -0.705 -0.92 -1.039 -1.146 -1.327 -1.442 -1.659 -1.786 -1.695 -1.463 -1.312 -1.285 -1.203 -1.142 -0.956 -0.705 -1.031 -1.279 -1.497 -1.65 -1.78 -1.842 -1.71 -1.458 -1.174 -1.004 -0.724 -0.987 -1.223 -1.446 -1.681 -1.812 -2.101 -1.818 -1.712 -1.433 -1.184 -0.969 -0.68 -0.882 -1.089 -1.278 -1.468 -1.545 -1.51 -1.485 -1.297 -1.12 -0.974 -1.143 -1.223 -1.275 -1.243 -1.223 -1.162 -1.112 -0.904 -0.673 -0.437 -0.304 -0.144 0.062 -0.174 -0.369 -0.6 -0.841 -1.108 -1.297 -1.512 -1.54 -1.592 -1.448 -1.425 -1.507 -1.71 -2.046 -1.766 -1.677 -1.465 -1.506 -1.429 -1.26 -1.567 -1.766 -2.054 -2.001 -1.758 -1.513 -1.311 -1.307 -1.263 -1.21 -1.222 -1.254 -1.039 -0.898 -0.72 -0.931 -1.065 -1.158 -1.196 -1.275 -1.269 -1.124 -0.941 -0.754 -0.587 -0.435 -0.421 -0.356 -0.485 -0.742 -0.914 -1.078 -1.291 -1.426 -1.481 -1.492 -1.364 -1.11 -0.818 -0.655 -0.451 -0.127 0.174 0.38 0.579 0.799 0.938 0.989 0.748 0.353 0.087 -0.201 -0.388 -0.694 -0.894 -1.213 -1.533 1.873 -2.052 -2.099 -1.853 -1.628 -1.317 -0.989 -0.752 -0.47 -0.26 -0.023 0.033 -0.15 1.963 -0.624 -0.77 -0.917 -1.006 1.928 1.921 2.051 -0.894 1.961 -0.53 1.956 1.956 -0.04 0.213 0.461 0.712 0.946 0.832 0.808 2.186 2.176 2.048 1.921 1.938 2.176 2.006 1.933 1.903 2.021 2.061 1.866 1.906 1.891 1.873 1.923 1.921 2.021 1.933 1.888 1.906 1.993 1.971 1.908 1.923 1.968 1.913 1.951 2.036
-1.103 -1.126 -1.17 -1.079 -1.077 -1.056 -0.99 -1.005 -1.029 -0.99 -1.004 -0.967 -1.007 -1.018 -1.012 -1 -0.759 -0.772 -0.997 -1.015 -1.011 -1.028 -1.012 -1.023 -1.068 -1.058 -1.054 -1.085 -1.062 -1.01 -1.075 -1.07 -1.088 -1.092 -1.132 -1.036 -1.123 -1.103 -1.094 -1.046 -0.904 -1.086 -1.106 -1.149 -1.112 -0.927 -1.135 -1.109 -1.122 -1.13 -0.921 -0.937 -1.188 -1.172 -1.218 -1.204 -1.188 -0.998 -1.184 -1.213 -1.263 -1.254 -1.266 -1.299 -1.308 -1.333 -1.39 -1.178 -1.145 -1.205 -1.42 -1.462 -1.228 -1.261 -1.561 -1.532 -1.559 -1.281 -1.206 -1.018 -1.203 -1.356 -1.577 -1.555 -1.578 -1.548 -1.325 -1.324 -1.569 -1.347 -1.124 -1.267 -1.384 -1.395 -1.295 -1.304 -1.441 -1.41 -1.663 -1.671 -1.416 -1.418 -1.682 -1.665 -1.702 -1.48 -1.702 -1.673 -1.484 -1.243 -0.981 -1.017 -1.22 -1.23 -1.252 -1.205 -1.062 -0.851 -0.632 -0.715 -0.779 -0.802 -0.721 -0.648 -0.537 -0.54 -0.684 -0.784 -0.789 -0.772 -1.028 -1.294 -1.593 -1.854 -1.839 -1.911 -1.882 -1.667 -1.399 -1.61 -1.879 -1.869 -1.638 -1.642 -1.642 -1.608 -1.563 -1.358 -1.101 -0.888 -1.13 -1.33 -1.607 -1.651 -1.649 -1.698 -1.811 -1.841 -1.788 -1.645 -1.495 -1.664 -1.798 -1.637 -1.598 -1.503 -1.503 -1.514 -1.593 -1.584 -1.563 -1.591 -1.575 -1.545 0.126 -1.644 -1.695 -1.563 -1.472 -1.324 -1.326 -1.485 -1.672 -1.753 -1.654 -1.441 -1.235 -1.441 -1.654 -1.791 -1.761 -1.663 -1.441 -1.32 -1.221 -1.199 -1.215 -1.072 -0.921 -0.792 -1.023 -1.279 -1.497 -1.651 -1.735 -1.722 -1.733 -1.615 -1.445 -1.345 -1.301 -1.247 -1.227 -1.389 -1.476 -1.535 -1.453 -1.505 -1.656 -1.774 -1.732 -1.483 -1.197 -1.019 -1.022 -1.003 -0.863 -0.799 -0.609 -0.41 -0.193 -0.187 -0.52 -0.751 -0.915 -1.079 -1.187 -1.276 -1.187 -1.044 -0.918 -0.745 -0.543 -0.332 -0.075 -0.347 -0.637 -0.882 -1.134 -1.262 -1.451 -1.665 -1.826 -1.853 -1.727 -1.5 -1.215 -0.944 -0.746 -0.744 -0.951 -1.212 -1.463 -1.684 -1.796 -2.048 -1.826 -1.691 -1.467 -1.213 -0.916 -0.876 -0.671 -0.676 -0.976 -1.257 -1.57 -1.813 -2.019 -2.102 -1.806 -1.532 -1.24 -1.031 -0.71 -0.891 -1.15 -1.32 -1.484 -1.717 -1.791 -1.721 -1.487 -1.276 -1.062 -0.882 -0.728 -0.947 -1.209 -1.469 -1.675 -1.839 -1.768 -1.629 -1.472 -1.267 -1.122 -0.879 -0.969 -1.003 -0.988 -0.945 -0.911 -0.861 -0.699 -0.542 -0.298 -0.146 -0.021 0.185 -0.032 -0.226 -0.512 -0.703 -0.91 -1.094 -1.248 -1.255 -1.289 -1.227 -1.197 -1.462 -1.749 -2.133 -2.093 -1.786 -1.489 -1.197 -1.188 -1.213 -1.532 -1.694 -1.745 -1.783 -1.6 -1.434 -1.496 -1.541 -1.471 -1.261 -1.08 -0.939 -0.768 -0.68 -0.517 -0.707 -0.785 -0.937 -0.963 -0.976 -0.984 -0.84 -0.688 -0.595 -0.431 -0.205 -0.111 -0.377 -0.59 -0.81 -1.125 -1.267 -1.465 -1.643 -1.771 -1.652 -1.442 -1.231 -0.951 -0.742 -0.465 -0.144 0.155 0.383 0.64 0.911 1.113 1.017 0.667 0.382 0.163 -0.036 -0.324 -0.66 -0.948 -1.26 -1.508 -1.631 -1.8 -1.795 1.956 -1.457 -1.222 -1.01 -0.714 1.983 -0.229 -0.055 0.231 0.045 -0.141 1.966 1.981 -0.629 1.888 -0.701 -0.701 1.956 1.926 1.931 -0.395 1.843 1.983 0.164 0.304 0.579 0.894 2.033 1.028 0.98 2.016 2.041 1.986 1.886 1.933 1.951 1.906 1.883 1.908 1.971 1.848 1.798 1.823 1.886 1.998 2.008 1.966 2.011 2.016 1.948 1.983 2.058 2.013 1.976 1.998 1.936 1.813 1.836 2.088
-1.07 -1.042 -1.061 -1.056 -1.04 -1.006 -1.002 -1.02 -1.001 -0.981 -1.065 -1.038 -1.045 -1.058 -1.045 -0.974 -1.016 -0.999 -0.995 -0.995 -1.025 -1 -1.041 -1.045 -1.059 -1.024 -1.045 -1.06 -1.011 -1.078 -1.07 -1.045 -1.049 -1.087 -1.075 -0.836 -1.068 -1.064 -1.064 -1.067 -1.052 -1.094 -1.099 -1.11 -1.109 -0.887 -0.899 -1.102 -1.132 -1.139 -0.963 -1.181 -1.155 -1.168 -1.215 -1.027 -0.966 -0.99 -1.167 -1.135 -1.216 -1.214 -1.276 -1.29 -1.307 -1.329 -1.146 -1.144 -1.358 -1.43 -1.45 -1.424 -1.437 -1.207 -1.252 -1.513 -1.512 -1.279 -1.046 -1.017 -1.24 -1.554 -1.559 -1.49 -1.523 -1.568 -1.584 -1.325 -1.57 -1.336 -1.234 -1.244 -1.371 -1.36 -1.385 -1.382 -1.623 -1.358 -1.576 -1.405 -1.351 -1.421 -1.656 -1.693 -1.64 -1.412 -1.687 -1.438 -1.378 -1.145 -0.882 -1.14 -1.347 -1.501 -1.492 -1.415 -1.193 -0.968 -0.689 -0.434 -0.475 -0.523 -0.526 -0.438 -0.546 -0.695 -0.868 -1.005 -1.059 -1.069 -1.044 -1.249 -1.551 -1.877 -1.868 -1.87 -1.626 -1.532 -1.384 -1.486 -1.59 -1.624 -1.615 -1.85 -1.88 -1.88 -1.688 -1.399 -1.149 -0.929 -1.197 -1.472 -1.728 -1.907 -1.924 -1.684 -1.641 -1.657 -1.638 -1.582 -1.465 -1.603 -1.637 -1.572 -1.487 -1.572 -1.641 -1.636 -1.647 -1.641 -1.673 -1.706 -1.668 -1.579 -1.495 -1.582 -1.539 -1.441 -1.351 -1.165 -1.172 -1.274 -1.459 -1.557 -1.455 -1.301 -1.462 -1.578 -1.542 -1.49 -1.462 -1.48 -1.294 -1.078 -0.927 -1.014 -0.934 -0.864 -0.786 -0.713 -0.938 -1.146 -1.397 -1.477 -1.537 -1.522 -1.526 -1.527 -1.498 -1.518 -1.45 -1.358 -1.251 -1.2 -1.303 -1.325 -1.319 -1.361 -1.517 -1.559 -1.56 -1.458 -1.3 -1.07 -0.912 -0.696 -0.625 -0.551 -0.393 -0.125 -0.134 -0.362 -0.659 -0.869 -1.105 -1.346 -1.486 -1.55 -1.425 -1.268 -1.079 -0.863 -0.662 -0.45 -0.121 -0.514 -0.733 -1.014 -1.226 -1.481 -1.735 -1.832 -2.076 -2.047 -1.78 -1.5 -1.272 -0.973 -1.024 -0.887 -0.976 -1.254 -1.554 -1.798 -2.082 -2.026 -2.1 -1.779 -1.552 -1.291 -0.956 -0.715 -0.502 -0.764 -0.993 -1.258 -1.479 -1.682 -1.811 -2.074 -1.813 -1.562 -1.302 -0.988 -0.722 -0.708 -0.915 -1.122 -1.393 -1.468 -1.558 -1.458 -1.329 -1.101 -0.957 -0.761 -0.759 -1.016 -1.284 -1.526 -1.788 -2.062 -2.07 -1.763 -1.7 -1.474 -1.238 -0.958 -0.687 -0.706 -0.678 -0.717 -0.667 -0.614 -0.431 -0.229 -0.135 -0.027 0.143 0.28 0.085 -0.11 -0.363 -0.518 -0.742 -0.862 -0.954 -0.971 -0.979 -0.983 -1.225 -1.501 -1.777 -2.081 -1.785 -1.66 -1.449 -1.172 -0.996 -1.084 -1.305 -1.466 -1.487 -1.534 -1.426 -1.455 -1.683 -1.823 -1.682 -1.413 -1.247 -0.974 -0.595 -0.429 -0.294 -0.527 -0.667 -0.742 -0.719 -0.771 -0.709 -0.607 -0.523 -0.408 -0.175 0.008 -0.14 -0.459 -0.669 -0.978 -1.151 -1.436 -1.662 -1.77 -2.079 -1.771 -1.432 -1.201 -1.021 -0.681 -0.434 -0.208 0.143 0.355 0.678 0.981 1.12 0.919 0.657 0.321 0.171 -0.034 -0.31 -0.626 1.896 -1.095 -1.309 -1.391 -1.462 -1.494 -1.403 -1.337 -1.1 -0.9 -0.596 1.941 -0.162 0.104 0.436 0.258 -0.05 -0.12 1.801 -0.404 1.966 1.983 -0.419 -0.494 1.803 -0.283 -0.155 1.933 1.903 0.348 1.976 0.803 2.086 1.958 1.846 1.242 2.053 1.204 1.868 1.893 1.953 1.931 1.973 1.881 1.903 1.928 1.806 1.796 1.908 1.988 2.036 2.063 1.966 1.943 1.926 1.996 1.956 1.896 2.001 1.908 1.928 1.901 1.823 1.883 2.088
-1.011 -1.045 -1.031 -1.099 -1.052 -0.98 -1.018 -0.983 -1.003 -1.032 -1.054 -1.009 -0.974 -1.012 -0.994 -0.972 -0.975 -0.947 -0.952 -0.944 -1.009 -0.984 -1.038 -1.044 -1.05 -1.012 -1.009 -0.811 -1.025 -0.831 -0.813 -0.861 -0.797 -0.801 -1.022 -0.857 -1.098 -1.067 -1.076 -1.064 -1.058 -1.06 -1.124 -1.072 -1.107 -1.085 -1.064 -1.097 -1.117 -1.117 -1.131 -0.911 -0.909 -0.933 -0.95 -1.151 -1.178 -1.176 -1.173 -0.999 -1.161 -1.189 -1.235 -1.243 -1.283 -1.077 -1.088 -1.344 -1.332 -1.399 -1.438 -1.418 -1.495 -1.212 -1.452 -1.477 -1.505 -1.247 -1.069 -1.192 -1.271 -1.501 -1.532 -1.286 -1.322 -1.288 -1.321 -1.562 -1.565 -1.57 -1.32 -1.301 -1.562 -1.589 -1.582 -1.306 -1.545 -1.314 -1.353 -1.295 -1.338 -1.428 -1.401 -1.403 -1.394 -1.289 -1.415 -1.371 -1.193 -1.015 -0.927 -1.204 -1.45 -1.735 -1.681 -1.482 -1.192 -0.951 -0.751 -0.405 -0.182 -0.159 -0.232 -0.391 -0.647 -0.855 -1.086 -1.27 -1.301 -1.251 -1.216 -1.252 -1.483 -1.595 -1.823 -1.594 -1.525 -1.329 -1.192 -1.291 -1.387 -1.418 -1.54 -1.659 -1.607 -1.637 -1.496 -1.294 -1.08 -0.86 -1.059 -1.361 -1.606 -1.697 -1.646 -1.563 -1.492 -1.57 -1.66 -1.649 -1.523 -1.467 -1.5 -1.439 -1.469 -1.605 -1.842 -1.832 -1.689 -1.708 -1.843 -1.897 -1.845 -1.711 -1.505 -1.36 -1.299 -1.247 -1.192 -1.022 -1.062 -1.146 -1.229 -1.3 -1.245 -1.5 -1.689 -1.809 -1.82 -1.681 -1.466 -1.235 -1.076 -0.917 -0.71 -0.693 -0.714 -0.612 -0.597 -0.636 -0.837 -1.011 -1.199 -1.303 -1.334 -1.467 -1.603 -1.698 -1.669 -1.696 -1.599 -1.499 -1.325 -1.182 -1.173 -1.175 -1.133 -1.3 -1.478 -1.68 -1.782 -1.683 -1.569 -1.322 -1.087 -0.849 -0.674 -0.351 -0.108 0.02 -0.263 -0.45 -0.722 -0.995 -1.274 -1.486 -1.696 -1.809 -1.7 -1.464 -1.213 -0.987 -0.769 -0.51 -0.365 -0.566 -0.78 -1.053 -1.28 -1.493 -1.774 -2.135 -2 -2.08 -1.81 -1.581 -1.255 -1.216 -1.255 -1.125 -0.96 -1.216 -1.491 -1.713 -1.798 -2.071 -1.824 -1.669 -1.475 -1.155 -0.928 -0.735 -0.759 -0.918 -0.958 -1.091 -1.277 -1.501 -1.821 -1.996 -1.809 -1.565 -1.288 -0.977 -0.721 -0.54 -0.67 -0.938 -1.147 -1.232 -1.274 -1.233 -1.173 -0.952 -0.753 -0.572 -0.704 -0.961 -1.229 -1.456 -1.603 -1.833 -2.075 -2.053 -1.758 -1.487 -1.282 -1.026 -0.715 -0.408 -0.475 -0.409 -0.408 -0.334 -0.218 -0.061 0.033 0.183 0.323 0.376 0.208 -0.025 -0.18 -0.36 -0.587 -0.614 -0.739 -0.712 -0.705 -0.98 -1.19 -1.38 -1.656 -1.755 -1.657 -1.394 -1.288 -1.06 -0.858 -0.95 -1.14 -1.252 -1.292 -1.276 -1.29 -1.568 -1.86 -2.047 -1.772 -1.495 -1.25 -0.95 -0.653 -0.406 -0.26 -0.364 -0.411 -0.474 -0.496 -0.605 -0.481 -0.359 -0.261 -0.157 0.042 0.098 -0.199 -0.483 -0.681 -0.988 -1.21 -1.532 -1.764 -2.024 -2.025 -1.794 -1.475 -1.219 -0.92 -0.709 -0.441 -0.166 0.118 0.26 0.666 0.994 1.207 1.033 0.775 0.444 0.196 -0.028 -0.308 -0.565 -0.742 -0.968 2.096 2.121 -1.266 -1.323 -1.27 -1.192 -0.914 -0.793 -0.542 -0.313 -0.041 0.224 0.486 1.806 1.786 1.793 1.818 1.918 1.968 1.951 1.893 1.816 1.986 0.062 0.127 0.198 1.903 1.953 1.936 0.979 1.136 1.843 1.54 1.502 1.517 1.25 1.275 1.903 1.948 1.926 1.896 2.026 1.986 1.938 1.931 1.878 1.998 2.131 2.053 1.988 1.883 2.028 1.996 2.073 1.983 1.856 1.923 1.971 1.878 1.903 1.908 1.923 1.998
-1.035 -0.986 -1.008 -0.99 -1.017 -0.984 -0.991 -0.937 -1.004 -1.036 -0.976 -0.987 -0.977 -0.959 -0.923 -0.981 -0.969 -0.976 -0.971 -0.93 -0.977 -0.972 -1.034 -1 -0.965 -0.985 -1.026 -0.803 -0.822 -0.713 -0.842 -0.812 -0.856 -1.063 -1.045 -0.876 -1.087 -1.069 -1.056 -1.084 -1.053 -1.074 -1.049 -1.078 -1.084 -1.077 -1.078 -1.057 -1.081 -1.087 -1.09 -1.097 -0.918 -0.948 -1.151 -1.138 -1.162 -1.135 -1.147 -1.137 -0.927 -1.143 -1.171 -0.953 -1.047 -1.265 -1.309 -1.302 -1.329 -1.384 -1.393 -1.416 -1.454 -1.182 -1.464 -1.468 -1.441 -1.218 -1.249 -1.274 -1.455 -1.466 -1.464 -1.243 -1.44 -1.464 -1.258 -1.251 -1.289 -1.324 -1.521 -1.528 -1.545 -1.569 -1.516 -1.56 -1.305 -1.264 -1.154 -1.15 -1.358 -1.613 -1.664 -1.392 -1.331 -1.125 -1.195 -1.163 -0.99 -1.001 -0.932 -1.159 -1.339 -1.47 -1.655 -1.476 -1.207 -0.939 -0.703 -0.461 -0.27 -0.373 -0.506 -0.468 -0.663 -0.962 -1.247 -1.43 -1.58 -1.511 -1.387 -1.213 -1.269 -1.456 -1.576 -1.463 -1.284 -1.137 -0.836 -1.034 -1.16 -1.166 -1.313 -1.365 -1.338 -1.314 -1.274 -1.122 -1.151 -1.07 -0.988 -1.192 -1.346 -1.381 -1.559 -1.648 -1.672 -1.69 -1.851 -1.811 -1.619 -1.434 -1.312 -1.309 -1.489 -1.659 -1.823 -1.84 -1.709 -1.711 -1.88 -1.874 -1.851 -1.683 -1.57 -1.356 -1.244 -1.211 -1.127 -1.011 -0.824 -0.924 -0.983 -1.007 -1.233 -1.522 -1.764 -2.017 -2.034 -1.788 -1.58 -1.235 -0.999 -0.645 -0.581 -0.645 -0.743 -0.756 -0.737 -0.826 -1.085 -1.206 -1.295 -1.357 -1.372 -1.529 -1.643 -1.815 -1.771 -1.816 -1.667 -1.494 -1.341 -1.213 -1.059 -1.058 -1.182 -1.337 -1.562 -1.752 -2.031 -1.809 -1.7 -1.412 -1.158 -0.96 -0.708 -0.478 -0.201 -0.025 -0.292 -0.448 -0.719 -1.028 -1.329 -1.552 -1.782 -2.053 -1.774 -1.547 -1.328 -1.091 -0.902 -0.658 -0.593 -0.725 -0.854 -0.972 -1.264 -1.519 -1.711 -1.847 -2.058 -1.767 -1.702 -1.438 -1.428 -1.586 -1.51 -1.383 -1.129 -1.061 -1.335 -1.475 -1.719 -1.754 -1.679 -1.489 -1.316 -1.061 -0.832 -0.708 -0.919 -1.13 -1.262 -1.238 -1.175 -1.418 -1.685 -1.807 -1.648 -1.479 -1.211 -0.953 -0.744 -0.419 -0.524 -0.728 -0.906 -0.991 -0.995 -0.957 -0.948 -0.719 -0.551 -0.349 -0.617 -0.856 -1.093 -1.364 -1.483 -1.839 -2.104 -2.074 -1.838 -1.486 -1.258 -0.985 -0.712 -0.48 -0.225 -0.152 -0.168 -0.082 0.012 0.127 0.208 0.395 0.55 0.557 0.38 0.176 0.044 -0.149 -0.282 -0.356 -0.351 -0.464 -0.647 -0.888 -1.095 -1.28 -1.44 -1.463 -1.499 -1.266 -1.075 -0.944 -0.749 -0.774 -0.89 -0.993 -0.998 -1.021 -1.216 -1.497 -1.698 -1.769 -1.657 -1.441 -1.256 -0.925 -0.649 -0.436 -0.241 -0.068 -0.155 -0.151 -0.187 -0.248 -0.257 -0.076 0.093 0.163 0.282 0.059 -0.235 -0.46 -0.675 -0.957 -1.231 -1.574 -1.832 -2.048 -2.109 -1.796 -1.445 -1.239 -0.966 -0.747 -0.452 -0.199 0.096 0.359 0.691 0.962 1.154 1.077 0.81 0.621 0.429 0.11 1.848 -0.379 -0.567 -0.655 -0.818 -0.944 -0.993 -1.015 -1.004 -0.895 -0.687 -0.533 -0.389 1.943 0.067 0.352 0.571 1.868 0.474 1.856 0.211 2.021 1.968 0.016 1.961 1.943 0.195 0.23 1.898 1.928 1.908 1.971 1.826 1.126 1.302 1.903 2.036 1.94 2.041 1.476 1.526 1.629 1.958 1.896 1.966 2.016 2.008 1.871 1.888 1.881 1.961 2.038 1.983 1.976 1.893 2.023 2.068 1.976 1.851 1.768 1.933 1.843 1.818 1.926 2.001 2.066 1.993
-1.014 -1.038 -1.024 -1.044 -0.854 -1.027 -1.008 -0.971 -0.997 -0.974 -1.018 -0.962 -0.971 -0.917 -0.9 -0.961 -0.946 -0.733 -0.913 -0.949 -0.917 -0.971 -0.926 -0.909 -0.926 -0.979 -0.788 -0.791 -0.833 -0.809 -1.032 -1.043 -1.075 -1.028 -1.057 -1.052 -0.869 -1.032 -1.059 -1.036 -1.069 -0.848 -1.029 -1.069 -1.039 -1.036 -1.012 -1.029 -0.865 -1.065 -1.047 -1.075 -0.9 -0.787 -0.859 -1.122 -1.125 -1.128 -0.974 -0.961 -0.947 -0.951 -0.954 -0.975 -1.217 -1.261 -1.268 -1.273 -1.335 -1.134 -1.129 -1.159 -1.195 -1.207 -1.445 -1.477 -1.225 -1.179 -1.433 -1.195 -1.212 -1.478 -1.188 -1.245 -1.51 -1.485 -1.497 -1.279 -1.063 -1.22 -1.29 -1.54 -1.54 -1.558 -1.539 -1.286 -1.244 -1.021 -0.914 -1.081 -1.248 -1.367 -1.569 -1.603 -1.365 -1.162 -1.147 -1.215 -1.197 -1.195 -1.106 -0.933 -1.097 -1.298 -1.422 -1.328 -1.118 -0.923 -0.634 -0.422 -0.417 -0.597 -0.676 -0.72 -0.707 -0.989 -1.252 -1.494 -1.769 -1.742 -1.546 -1.308 -1.121 -1.286 -1.284 -1.266 -1.103 -0.89 -0.673 -0.763 -0.885 -0.948 -1.038 -1.038 -1.118 -1.273 -1.348 -1.353 -1.383 -1.306 -1.201 -1.096 -1.352 -1.528 -1.705 -1.893 -1.901 -1.736 -1.88 -1.824 -1.636 -1.452 -1.301 -1.3 -1.482 -1.689 -1.863 -1.653 -1.604 -1.643 -1.695 -1.865 -1.896 -1.734 -1.618 -1.477 -1.485 -1.43 -1.308 -1.134 -0.931 -0.654 -0.789 -0.992 -1.271 -1.513 -1.822 -2.072 -2.094 -1.821 -1.552 -1.248 -1.005 -0.77 -0.862 -0.913 -0.964 -1.08 -1.063 -1.025 -1.192 -1.328 -1.502 -1.576 -1.524 -1.536 -1.665 -1.779 -1.76 -1.798 -1.69 -1.505 -1.38 -1.258 -1.088 -1.098 -1.226 -1.358 -1.56 -1.748 -1.974 -1.977 -1.77 -1.555 -1.244 -1.029 -0.741 -0.469 -0.22 -0.026 -0.255 -0.467 -0.737 -1.023 -1.262 -1.536 -1.782 -2.089 -1.803 -1.741 -1.451 -1.192 -0.956 -0.737 -0.799 -0.964 -1.135 -1.262 -1.248 -1.358 -1.479 -1.727 -1.794 -1.721 -1.436 -1.513 -1.693 -1.837 -1.719 -1.52 -1.336 -1.319 -1.505 -1.559 -1.579 -1.508 -1.484 -1.312 -1.103 -0.992 -0.988 -0.952 -1.102 -1.296 -1.482 -1.566 -1.555 -1.46 -1.419 -1.518 -1.435 -1.336 -1.083 -0.869 -0.639 -0.37 -0.302 -0.488 -0.644 -0.699 -0.737 -0.723 -0.655 -0.509 -0.281 -0.186 -0.523 -0.726 -0.941 -1.231 -1.49 -1.662 -1.815 -1.806 -1.662 -1.479 -1.217 -0.971 -0.713 -0.474 -0.201 0.052 0.102 0.148 0.187 0.305 0.435 0.627 0.808 0.766 0.617 0.427 0.257 0.056 0.033 -0.093 -0.096 -0.255 -0.546 -0.708 -0.895 -1.088 -1.182 -1.209 -1.213 -1.097 -0.887 -0.781 -0.59 -0.524 -0.636 -0.66 -0.681 -0.907 -1.076 -1.271 -1.45 -1.553 -1.47 -1.325 -1.118 -0.843 -0.657 -0.434 -0.134 0.156 0.14 0.102 0.072 0.041 -0.034 0.176 0.37 0.428 0.368 0.115 -0.206 -0.501 -0.681 -0.915 -1.173 -1.443 -1.685 -1.794 -1.769 -1.653 -1.375 -1.211 -0.945 -0.72 -0.398 -0.116 0.107 0.394 0.654 0.927 1.131 1.118 0.946 0.818 0.601 0.306 -0.044 -0.158 -0.352 -0.496 1.996 -0.807 -0.751 -0.716 -0.752 -0.646 -0.462 -0.258 -0.206 -0.088 0.187 0.488 0.608 1.858 0.658 0.528 0.522 0.488 1.953 0.426 0.416 2.058 0.35 0.439 1.886 1.913 0.794 0.87 1.896 1.993 1.624 2.048 2.071 1.988 1.886 1.743 1.823 2.023 1.913 1.863 1.873 1.836 1.751 1.848 1.933 1.968 1.861 1.946 1.936 1.908 2.068 2.003 1.928 1.898 1.831 1.836 1.871 1.891 1.826 2.058 2.183 1.993 1.888
-0.998 -1.015 -1.052 -1.084 -1.028 -1.03 -1.012 -0.971 -0.958 -0.985 -0.975 -0.961 -0.976 -0.941 -0.924 -0.992 -0.795 -0.732 -0.878 -0.925 -0.932 -0.955 -0.945 -0.987 -0.962 -0.957 -0.742 -0.972 -0.999 -0.975 -0.979 -0.992 -0.98 -1.02 -1.033 -0.837 -1.055 -1.017 -1.037 -1.024 -1.028 -1.017 -0.992 -1.031 -1.033 -1.039 -1.046 -1.036 -1.048 -1.022 -1.063 -0.872 -0.781 -0.89 -0.886 -1.105 -1.098 -1.148 -0.9 -0.902 -1.147 -0.967 -0.953 -0.984 -1.201 -1.213 -1.218 -1.25 -1.275 -1.058 -1.085 -1.297 -1.38 -1.173 -1.17 -1.167 -1.19 -1.391 -1.414 -1.366 -1.185 -1.228 -1.217 -1.421 -1.435 -1.457 -1.467 -1.296 -1.158 -1.246 -1.481 -1.266 -1.259 -1.29 -1.295 -1.197 -1.014 -0.897 -0.713 -0.906 -1.009 -1.212 -1.317 -1.356 -1.265 -1.257 -1.338 -1.423 -1.411 -1.411 -1.251 -1.079 -0.911 -1.071 -1.162 -1.104 -1.01 -0.848 -0.749 -0.648 -0.633 -0.845 -0.927 -0.98 -0.94 -0.959 -1.223 -1.471 -1.741 -1.763 -1.49 -1.239 -1.043 -0.996 -1.007 -0.928 -0.84 -0.705 -0.538 -0.537 -0.765 -0.902 -0.991 -1.048 -1.262 -1.374 -1.601 -1.591 -1.579 -1.518 -1.31 -1.075 -1.338 -1.654 -1.971 -1.946 -1.931 -1.702 -1.66 -1.625 -1.529 -1.409 -1.165 -1.212 -1.452 -1.592 -1.67 -1.596 -1.434 -1.454 -1.641 -1.711 -1.697 -1.639 -1.49 -1.655 -1.686 -1.584 -1.456 -1.325 -0.993 -0.657 -0.722 -0.973 -1.281 -1.58 -1.735 -1.757 -1.784 -1.674 -1.404 -1.225 -0.957 -0.917 -1.039 -1.185 -1.247 -1.278 -1.295 -1.214 -1.326 -1.512 -1.612 -1.666 -1.613 -1.521 -1.602 -1.629 -1.724 -1.729 -1.622 -1.502 -1.403 -1.261 -1.114 -1.059 -1.197 -1.33 -1.462 -1.626 -1.707 -1.737 -1.669 -1.472 -1.255 -1.019 -0.704 -0.453 -0.167 0.05 -0.166 -0.465 -0.751 -1.023 -1.289 -1.546 -1.841 -2.073 -2.137 -1.806 -1.542 -1.232 -1.036 -0.743 -0.926 -1.073 -1.31 -1.455 -1.528 -1.556 -1.478 -1.5 -1.576 -1.461 -1.454 -1.654 -1.843 -2.068 -1.85 -1.658 -1.51 -1.495 -1.74 -1.791 -1.812 -1.692 -1.432 -1.208 -1.077 -1.212 -1.252 -1.197 -1.226 -1.502 -1.742 -1.82 -1.769 -1.62 -1.476 -1.308 -1.229 -1.11 -0.954 -0.699 -0.487 -0.258 -0.088 -0.247 -0.326 -0.431 -0.445 -0.465 -0.43 -0.257 -0.095 -0.08 -0.422 -0.554 -0.879 -1.092 -1.315 -1.439 -1.498 -1.543 -1.46 -1.289 -1.057 -0.9 -0.67 -0.414 -0.182 0.085 0.317 0.378 0.494 0.697 0.787 0.881 1.063 0.926 0.695 0.559 0.421 0.316 0.31 0.28 0.163 -0.134 -0.36 -0.588 -0.663 -0.832 -0.928 -0.992 -1.023 -0.917 -0.721 -0.579 -0.392 -0.251 -0.305 -0.396 -0.528 -0.79 -0.983 -1.059 -1.194 -1.259 -1.272 -1.118 -0.998 -0.746 -0.52 -0.27 -0.001 0.27 0.507 0.385 0.332 0.264 0.293 0.451 0.574 0.616 0.413 0.129 -0.133 -0.439 -0.608 -0.867 -1.03 -1.295 -1.388 -1.541 -1.512 -1.43 -1.318 -1.065 -0.892 -0.565 -0.295 -0.081 0.162 0.436 0.685 0.91 1.139 1.414 1.083 0.954 0.591 0.274 0.142 0.056 -0.077 -0.25 -0.41 -0.466 -0.525 -0.496 -0.44 -0.342 -0.192 -0.122 -0.079 0.043 0.34 0.543 0.675 0.986 0.944 0.852 0.784 0.72 0.597 0.663 2.086 2.046 1.898 2.116 2.031 1.871 1.823 1.866 1.986 2.058 1.804 1.956 1.923 1.896 1.868 1.753 1.866 1.983 1.958 1.903 1.881 1.846 1.796 1.848 1.878 1.896 1.976 1.993 1.973 1.936 1.978 1.988 2.068 1.928 1.796 1.823 1.951 1.831 1.878 2.083 2.098 1.916 1.916
-0.973 -1.038 -1.047 -0.983 -1.002 -1.046 -1.021 -1.026 -1.015 -0.959 -1.009 -0.952 -0.955 -0.967 -0.784 -0.713 -0.746 -0.912 -0.938 -0.906 -0.921 -0.964 -0.917 -0.974 -0.949 -0.924 -0.932 -0.955 -0.997 -0.977 -0.97 -1.008 -1.007 -0.973 -0.8 -1.035 -1.044 -0.834 -0.999 -1.018 -1 -0.981 -0.996 -1.012 -0.97 -0.984 -0.989 -0.842 -1.004 -1.03 -0.858 -0.788 -0.822 -1.014 -1.077 -1.121 -1.103 -1.111 -1.122 -1.083 -1.148 -1.148 -1.159 -1.128 -1.162 -1.169 -1.18 -1.017 -1.054 -0.97 -1.055 -1.325 -1.334 -1.333 -1.139 -1.33 -1.346 -1.37 -1.387 -1.422 -1.189 -1.21 -1.407 -1.393 -1.416 -1.396 -1.435 -1.239 -1.254 -1.475 -1.459 -1.461 -1.237 -1.02 -1.018 -1.03 -1.043 -1.018 -0.847 -0.771 -0.845 -1.009 -1.118 -1.092 -1.107 -1.332 -1.565 -1.623 -1.611 -1.563 -1.334 -1.117 -0.865 -0.846 -0.893 -0.899 -0.911 -0.956 -0.952 -0.902 -0.801 -0.983 -1.137 -1.204 -1.216 -1.025 -1.175 -1.389 -1.475 -1.458 -1.371 -1.222 -1.007 -0.73 -0.776 -0.683 -0.599 -0.47 -0.416 -0.758 -0.927 -1.079 -1.199 -1.352 -1.307 -1.569 -1.787 -1.868 -1.859 -1.604 -1.386 -1.06 -1.271 -1.485 -1.622 -1.606 -1.611 -1.526 -1.386 -1.369 -1.307 -1.163 -1.053 -1.095 -1.285 -1.406 -1.449 -1.41 -1.289 -1.277 -1.461 -1.524 -1.498 -1.452 -1.714 -1.728 -1.855 -1.678 -1.502 -1.235 -0.943 -0.751 -0.633 -0.906 -1.128 -1.328 -1.444 -1.54 -1.483 -1.502 -1.318 -1.073 -0.907 -1.079 -1.261 -1.442 -1.497 -1.497 -1.45 -1.41 -1.488 -1.606 -1.698 -1.796 -1.681 -1.544 -1.45 -1.551 -1.595 -1.626 -1.585 -1.489 -1.396 -1.28 -1.124 -1.06 -1.182 -1.281 -1.394 -1.489 -1.543 -1.557 -1.467 -1.306 -1.11 -0.87 -0.616 -0.368 -0.118 0.051 -0.152 -0.472 -0.747 -1.024 -1.164 -1.5 -1.751 -1.81 -1.819 -1.658 -1.512 -1.194 -0.972 -0.893 -1.11 -1.314 -1.466 -1.695 -1.803 -1.803 -1.716 -1.461 -1.299 -1.503 -1.509 -1.79 -2.134 -2.066 -2.086 -1.791 -1.47 -1.691 -1.825 -2.072 -2.091 -1.8 -1.524 -1.258 -1.284 -1.462 -1.516 -1.437 -1.345 -1.558 -1.83 -2.088 -2.059 -1.766 -1.522 -1.372 -0.982 -0.922 -0.784 -0.52 -0.337 -0.173 0.08 -0.076 -0.114 -0.099 -0.122 -0.15 -0.127 -0.069 0.04 -0.059 -0.284 -0.502 -0.71 -0.909 -1.106 -1.173 -1.237 -1.276 -1.256 -1.118 -0.911 -0.757 -0.54 -0.315 -0.11 0.21 0.536 0.742 0.746 0.883 0.952 1.088 1.247 1.079 0.971 0.768 0.657 0.595 0.521 0.472 0.327 0.016 -0.214 -0.346 -0.482 -0.573 -0.718 -0.723 -0.744 -0.709 -0.517 -0.386 -0.208 -0.006 -0.093 -0.202 -0.436 -0.645 -0.766 -0.839 -0.865 -0.917 -0.982 -0.873 -0.723 -0.537 -0.34 -0.087 0.137 0.394 0.613 0.626 0.517 0.506 0.585 0.751 0.769 0.646 0.362 0.19 -0.02 -0.292 -0.468 -0.773 -0.935 -1.079 -1.177 -1.279 -1.219 -1.159 -1.13 -0.931 -0.71 -0.479 -0.244 0.094 0.285 0.559 2.088 1.039 1.195 1.561 1.216 0.959 0.741 0.51 0.482 0.346 0.138 -0.006 -0.113 -0.124 -0.207 -0.212 -0.196 -0.086 0.031 0.037 0.084 0.254 0.512 1.803 1.783 1.196 2.026 1.058 0.993 0.912 0.904 1.886 1.866 1.863 1.866 1.039 2.016 1.826 1.921 2.021 2.128 2.058 1.906 1.953 1.866 1.888 1.968 1.913 1.963 2.061 1.991 1.772 1.576 2.028 2.036 2.033 1.916 1.948 2.001 1.983 1.916 1.848 1.938 2.026 1.976 1.891 1.891 1.901 1.936 1.871 1.978 2.091 2.008 1.908 2.026
-0.962 -1.019 -1.001 -0.951 -0.964 -0.991 -1.03 -1.008 -0.963 -0.917 -0.966 -0.95 -0.879 -0.898 -0.923 -0.923 -0.895 -0.913 -0.908 -0.931 -0.876 -0.881 -0.707 -0.723 -0.785 -0.976 -0.955 -0.952 -0.939 -0.897 -1.005 -0.946 -0.99 -0.772 -0.988 -1.015 -0.941 -0.974 -0.97 -0.985 -0.979 -1.019 -0.993 -1.008 -0.996 -1.01 -0.826 -0.771 -0.817 -0.954 -0.813 -0.767 -0.814 -1.016 -1.029 -1.02 -1.058 -1.081 -1.113 -1.082 -1.126 -1.121 -1.141 -0.967 -0.916 -0.938 -0.947 -0.893 -0.776 -0.834 -1.063 -1.286 -1.257 -1.304 -1.327 -1.288 -1.308 -1.083 -1.342 -1.134 -1.16 -1.174 -1.135 -1.374 -1.391 -1.368 -1.428 -1.196 -1.429 -1.428 -1.441 -1.208 -1.126 -0.979 -1.147 -1.235 -1.277 -1.173 -1.035 -1.029 -0.841 -0.798 -0.793 -0.85 -1.11 -1.328 -1.583 -1.549 -1.58 -1.592 -1.289 -1.13 -0.938 -0.747 -0.933 -1.114 -1.182 -1.111 -1.152 -1.137 -0.956 -1.099 -1.293 -1.424 -1.344 -1.178 -1.019 -1.13 -1.187 -1.206 -1.177 -1.04 -1.002 -0.941 -0.884 -0.721 -0.48 -0.279 -0.508 -0.782 -1.029 -1.234 -1.445 -1.537 -1.529 -1.536 -1.82 -1.766 -1.786 -1.601 -1.341 -1.071 -1.12 -1.297 -1.325 -1.357 -1.37 -1.299 -1.132 -1.117 -1.057 -0.974 -0.863 -0.943 -1.094 -1.143 -1.215 -1.185 -1.067 -1.11 -1.258 -1.272 -1.27 -1.53 -1.765 -1.932 -1.907 -1.728 -1.467 -1.187 -0.942 -0.702 -0.489 -0.755 -0.954 -1.077 -1.246 -1.212 -1.257 -1.213 -1.121 -0.946 -0.951 -1.201 -1.466 -1.665 -1.719 -1.767 -1.668 -1.496 -1.522 -1.705 -1.835 -1.773 -1.64 -1.516 -1.444 -1.496 -1.508 -1.496 -1.539 -1.491 -1.394 -1.276 -1.178 -1.208 -1.239 -1.248 -1.282 -1.309 -1.361 -1.345 -1.279 -1.144 -0.958 -0.764 -0.497 -0.287 -0.063 0.152 -0.186 -0.415 -0.629 -0.887 -1.131 -1.287 -1.536 -1.542 -1.569 -1.422 -1.268 -1.123 -0.878 -0.947 -1.236 -1.508 -1.717 -1.816 -2.09 -2.124 -1.833 -1.523 -1.428 -1.672 -1.839 -1.849 -1.835 -2.075 -1.837 -1.68 -1.523 -1.791 -2.083 -2.012 -2.128 -1.836 -1.543 -1.26 -1.442 -1.681 -1.843 -1.699 -1.454 -1.686 -1.846 -2.084 -2.055 -1.782 -1.505 -1.269 -0.976 -0.761 -0.579 -0.368 -0.112 0.066 0.255 0.173 0.139 0.166 0.157 0.097 0.151 0.156 0.204 0.033 -0.174 -0.34 -0.517 -0.697 -0.841 -0.963 -0.988 -1.04 -1.023 -0.895 -0.734 -0.583 -0.39 -0.209 0.035 0.373 0.646 0.797 0.888 1.064 1.197 1.333 1.601 1.375 1.222 1.026 0.994 0.921 0.782 0.618 0.391 0.237 0.043 -0.147 -0.246 -0.326 -0.439 -0.409 -0.453 -0.433 -0.279 -0.14 -0.048 0.203 0.131 -0.076 -0.274 -0.411 -0.491 -0.591 -0.627 -0.679 -0.684 -0.582 -0.48 -0.316 -0.154 0.052 0.277 0.49 0.655 0.852 0.743 0.813 0.89 0.958 0.974 0.739 0.544 0.364 0.07 -0.131 -0.314 -0.504 -0.687 -0.827 -0.943 -0.968 -0.97 -0.894 -0.834 -0.732 -0.514 -0.32 -0.084 0.171 0.344 0.645 0.908 1.107 1.366 1.733 1.438 1.03 0.888 0.765 0.628 0.53 0.376 0.226 0.163 0.132 0.146 0.1 0.116 0.161 0.278 0.233 0.365 0.584 0.833 0.954 1.873 1.402 2.053 1.938 1.185 1.125 1.131 1.923 1.144 1.098 1.863 1.232 1.307 2.001 2.043 2.078 2.211 1.943 1.828 1.916 1.891 1.813 1.886 1.991 2.068 2.063 1.963 1.956 1.382 1.176 2.036 1.883 1.921 1.988 2.008 2.023 1.846 1.768 1.913 2.068 1.983 1.838 1.956 2.103 1.991 2.076 2.141 2.043 1.821 1.833 1.976
-0.96 -1.023 -0.949 -0.996 -0.968 -0.929 -0.973 -0.924 -0.964 -1.004 -0.931 -0.928 -0.869 -0.896 -0.835 -0.853 -0.908 -0.681 -0.624 -0.732 -0.868 -0.925 -0.716 -0.683 -0.909 -0.961 -0.917 -0.943 -0.977 -0.939 -0.997 -0.958 -0.949 -0.759 -0.745 -0.904 -0.91 -0.959 -0.919 -0.93 -0.969 -0.991 -0.988 -0.97 -0.989 -0.848 -0.989 -0.839 -0.844 -0.821 -0.816 -0.82 -0.925 -1.004 -1.031 -1 -1.054 -1.07 -1.089 -1.103 -1.13 -1.126 -1.132 -1.146 -1.148 -0.959 -0.868 -0.727 -0.612 -0.796 -0.929 -1.052 -1.278 -1.3 -1.305 -1.311 -1.278 -1.082 -1.125 -1.118 -1.337 -1.333 -1.342 -1.359 -1.159 -1.154 -1.414 -1.406 -1.403 -1.148 -1.38 -1.175 -0.986 -1.009 -1.233 -1.443 -1.476 -1.219 -1.226 -1.169 -0.965 -0.746 -0.566 -0.815 -1.026 -1.221 -1.338 -1.31 -1.338 -1.324 -1.289 -1.24 -1.06 -0.883 -1.043 -1.267 -1.382 -1.374 -1.374 -1.267 -1.089 -1.264 -1.393 -1.652 -1.447 -1.348 -1.097 -0.892 -1.007 -1.165 -1.217 -1.219 -1.277 -1.164 -1.042 -0.836 -0.622 -0.471 -0.562 -0.758 -1.028 -1.269 -1.514 -1.754 -1.819 -1.575 -1.551 -1.516 -1.54 -1.451 -1.227 -0.992 -0.892 -1.058 -1.082 -1.049 -1.07 -0.997 -0.896 -0.825 -0.794 -0.709 -0.837 -1.029 -1.138 -1.176 -1.091 -1.073 -0.886 -1.051 -1.289 -1.403 -1.484 -1.524 -1.734 -1.9 -1.95 -1.691 -1.414 -1.147 -0.907 -0.67 -0.394 -0.525 -0.699 -0.868 -0.98 -0.978 -1.003 -0.958 -0.93 -0.81 -1.022 -1.261 -1.559 -1.805 -1.979 -1.948 -1.75 -1.49 -1.476 -1.629 -1.655 -1.755 -1.606 -1.517 -1.411 -1.432 -1.463 -1.449 -1.473 -1.45 -1.421 -1.343 -1.29 -1.335 -1.384 -1.406 -1.364 -1.32 -1.206 -1.114 -1.075 -0.988 -0.782 -0.55 -0.35 -0.212 0.083 0.201 -0.065 -0.344 -0.563 -0.74 -0.928 -1.144 -1.215 -1.25 -1.254 -1.173 -1.043 -0.873 -0.704 -0.995 -1.268 -1.547 -1.816 -2.076 -2.058 -2.12 -1.794 -1.536 -1.497 -1.828 -2.099 -2.147 -1.821 -1.735 -1.667 -1.444 -1.495 -1.757 -1.791 -1.825 -1.841 -1.671 -1.486 -1.266 -1.559 -1.767 -2.064 -1.766 -1.644 -1.808 -2.092 -2.149 -1.806 -1.705 -1.46 -1.267 -1.039 -0.757 -0.487 -0.255 0.001 0.169 0.265 0.345 0.345 0.362 0.385 0.349 0.203 0.097 -0.08 -0.187 -0.233 -0.14 -0.353 -0.511 -0.681 -0.782 -0.774 -0.772 -0.76 -0.666 -0.531 -0.257 -0.17 -0.022 0.237 0.548 0.689 0.906 1.087 1.358 1.549 1.558 1.702 1.469 1.388 1.313 1.259 1.095 1.015 0.816 0.513 0.391 0.213 0.105 0.03 -0.107 -0.141 -0.186 -0.181 -0.189 -0.084 0.091 0.213 0.416 0.393 0.186 0.016 -0.095 -0.251 -0.395 -0.432 -0.453 -0.404 -0.335 -0.265 -0.132 0.009 0.229 0.453 0.589 0.734 1.026 1.114 1.19 1.162 1.217 1.194 0.806 0.687 0.46 0.18 0.034 -0.176 -0.346 -0.459 -0.581 -0.664 -0.668 -0.663 -0.644 -0.571 -0.503 -0.273 -0.037 0.082 0.237 0.442 0.741 0.97 1.17 1.531 1.841 1.617 1.363 1.18 1.016 0.894 0.728 0.521 0.46 0.447 0.396 0.381 0.416 0.436 0.466 0.556 0.543 0.717 0.911 1.053 1.183 1.418 1.628 1.812 1.998 1.519 1.486 1.408 2.011 1.968 1.886 1.394 1.403 1.638 2.138 1.942 2.028 2.018 1.793 1.963 1.966 1.963 1.893 1.898 1.983 2.093 1.966 1.833 1.856 1.956 0.944 0.703 0.447 1.843 1.978 1.966 1.913 1.808 1.776 1.918 2.088 2.046 1.983 1.976 1.988 1.928 1.956 1.946 1.888 1.903 1.968 1.863
-0.955 -0.954 -0.973 -0.994 -0.925 -0.919 -0.936 -0.896 -0.929 -0.927 -0.913 -0.884 -0.863 -0.692 -0.882 -0.872 -0.897 -0.678 -0.705 -0.705 -0.83 -0.724 -0.715 -0.898 -0.893 -0.885 -0.917 -0.878 -0.911 -0.923 -0.964 -0.928 -0.945 -0.774 -0.781 -0.936 -0.934 -0.935 -0.95 -0.94 -0.789 -0.809 -0.841 -0.826 -0.95 -0.979 -0.994 -0.821 -0.974 -0.959 -0.981 -0.969 -0.976 -0.831 -0.986 -1.015 -1.015 -1.055 -1.029 -1.068 -1.09 -1.084 -1.054 -1.085 -1.165 -1.158 -0.904 -0.749 -0.58 -0.643 -0.807 -1.048 -1.242 -1.275 -1.274 -1.098 -1.053 -0.981 -1.105 -1.094 -1.099 -1.329 -1.113 -1.112 -1.043 -1.141 -1.334 -1.356 -1.395 -1.358 -1.152 -1.076 -0.936 -1.027 -1.205 -1.481 -1.446 -1.261 -1.516 -1.219 -0.992 -0.771 -0.571 -0.663 -0.882 -0.983 -1.01 -1.02 -1.206 -1.29 -1.542 -1.326 -1.226 -1.02 -1.079 -1.381 -1.59 -1.59 -1.57 -1.381 -1.173 -1.38 -1.647 -1.617 -1.636 -1.364 -1.175 -0.901 -1.142 -1.374 -1.416 -1.41 -1.41 -1.356 -1.135 -0.929 -0.658 -0.494 -0.498 -0.693 -0.976 -1.233 -1.489 -1.681 -1.8 -1.519 -1.271 -1.263 -1.248 -1.202 -1.052 -0.88 -0.674 -0.755 -0.832 -0.857 -0.839 -0.715 -0.639 -0.529 -0.506 -0.696 -0.915 -1.17 -1.31 -1.35 -1.262 -1.232 -1.001 -1.145 -1.431 -1.645 -1.796 -1.695 -1.617 -1.931 -1.884 -1.627 -1.391 -1.14 -0.929 -0.679 -0.319 -0.275 -0.472 -0.573 -0.65 -0.724 -0.739 -0.69 -0.612 -0.749 -0.972 -1.249 -1.589 -1.841 -1.947 -1.982 -1.731 -1.482 -1.339 -1.493 -1.588 -1.642 -1.605 -1.507 -1.42 -1.44 -1.544 -1.586 -1.527 -1.506 -1.507 -1.454 -1.385 -1.437 -1.496 -1.527 -1.519 -1.529 -1.363 -1.226 -1.013 -0.78 -0.588 -0.328 -0.198 0.013 0.291 0.313 0.095 -0.168 -0.423 -0.588 -0.727 -0.899 -0.962 -0.985 -0.983 -0.995 -0.846 -0.693 -0.708 -1.005 -1.227 -1.595 -1.84 -2.047 -2.11 -2.122 -1.817 -1.515 -1.568 -1.828 -2.058 -2.083 -1.863 -1.509 -1.449 -1.284 -1.337 -1.527 -1.558 -1.606 -1.548 -1.472 -1.311 -1.271 -1.537 -1.809 -2.028 -2.111 -1.816 -1.67 -1.8 -2.103 -1.828 -1.509 -1.32 -1.149 -0.964 -0.694 -0.419 -0.189 0.129 0.384 0.395 0.538 0.58 0.626 0.431 0.145 -0.001 -0.176 -0.34 -0.407 -0.45 -0.418 -0.413 -0.452 -0.445 -0.521 -0.479 -0.51 -0.493 -0.417 -0.294 -0.114 0.012 0.235 0.406 0.649 0.819 1.038 1.354 1.661 1.787 1.857 1.833 1.794 1.693 1.527 1.367 1.27 1.111 0.921 0.687 0.617 0.422 0.258 0.17 0.114 0.074 0.041 0.146 0.129 0.286 0.332 0.445 0.59 0.536 0.425 0.223 0.096 -0.011 -0.142 -0.214 -0.255 -0.193 -0.097 0.017 0.135 0.214 0.428 0.598 0.661 0.93 1.245 1.439 1.513 1.486 1.495 1.211 0.886 0.783 0.666 0.373 0.217 0.102 -0.084 -0.326 -0.421 -0.46 -0.419 -0.461 -0.385 -0.234 -0.168 -0.092 0.072 0.206 0.426 0.623 0.859 1.046 1.275 1.646 1.936 1.775 1.641 1.53 1.362 1.132 0.899 0.756 0.713 0.679 0.588 0.604 0.638 0.634 0.614 0.783 0.868 1.002 1.148 1.342 1.342 1.549 1.8 1.928 1.737 1.744 1.779 1.841 1.876 1.714 1.961 1.67 1.683 1.973 2.156 1.993 1.858 1.846 1.776 2.003 2.023 1.943 1.918 2.128 2.063 1.958 1.856 1.395 1.148 1.856 0.692 1.813 0.322 0.152 1.976 1.933 1.941 1.853 1.786 1.928 2.066 1.986 1.981 1.953 1.908 1.898 1.813 1.821 1.841 1.966 1.963 1.826
-0.903 -0.928 -0.904 -0.944 -0.951 -0.856 -0.889 -0.905 -0.923 -0.901 -0.936 -0.905 -0.861 -0.88 -0.832 -0.87 -0.839 -0.833 -0.902 -0.876 -0.829 -0.888 -0.712 -0.905 -0.903 -0.913 -0.92 -0.876 -0.739 -0.913 -0.898 -0.898 -0.889 -0.749 -0.916 -0.924 -0.898 -0.919 -0.929 -0.926 -0.824 -0.797 -0.915 -0.919 -0.954 -0.97 -0.934 -0.834 -0.945 -0.955 -0.938 -0.965 -0.974 -0.786 -0.967 -0.995 -0.991 -1.003 -1.049 -1.038 -0.828 -0.921 -1.037 -1.099 -1.118 -0.89 -0.822 -0.69 -0.537 -0.602 -0.781 -1.024 -1.2 -1.234 -1.276 -1.094 -0.98 -1.076 -1.295 -1.323 -1.311 -1.082 -1.076 -0.982 -0.898 -1.127 -1.318 -1.373 -1.378 -1.359 -1.372 -1.163 -1.077 -0.941 -1.097 -1.227 -1.255 -1.453 -1.468 -1.203 -1.012 -0.763 -0.521 -0.53 -0.675 -0.796 -0.972 -1.108 -1.288 -1.503 -1.475 -1.55 -1.263 -1.08 -1.078 -1.348 -1.53 -1.549 -1.546 -1.377 -1.32 -1.338 -1.616 -1.625 -1.598 -1.342 -1.136 -1.167 -1.201 -1.427 -1.673 -1.576 -1.633 -1.442 -1.134 -0.974 -0.732 -0.507 -0.512 -0.697 -0.916 -1.15 -1.398 -1.467 -1.475 -1.411 -1.195 -0.986 -0.988 -0.963 -0.854 -0.712 -0.513 -0.44 -0.502 -0.563 -0.539 -0.464 -0.417 -0.305 -0.616 -0.824 -1.044 -1.284 -1.486 -1.587 -1.484 -1.325 -1.2 -1.143 -1.434 -1.779 -2.109 -1.704 -1.566 -1.655 -1.593 -1.528 -1.325 -1.128 -0.869 -0.612 -0.296 -0.025 -0.214 -0.321 -0.375 -0.419 -0.472 -0.441 -0.373 -0.643 -0.959 -1.229 -1.475 -1.685 -1.726 -1.702 -1.623 -1.504 -1.511 -1.494 -1.485 -1.532 -1.501 -1.469 -1.474 -1.514 -1.566 -1.576 -1.535 -1.551 -1.552 -1.493 -1.446 -1.517 -1.618 -1.645 -1.675 -1.641 -1.495 -1.311 -1.073 -0.815 -0.516 -0.265 0.009 0.225 0.392 0.415 0.19 0.052 -0.152 -0.393 -0.52 -0.669 -0.705 -0.742 -0.694 -0.718 -0.593 -0.45 -0.699 -0.982 -1.221 -1.467 -1.69 -1.789 -1.797 -1.804 -1.697 -1.45 -1.493 -1.694 -1.787 -1.808 -1.704 -1.492 -1.239 -1.084 -1.129 -1.223 -1.303 -1.284 -1.297 -1.24 -1.107 -1.253 -1.463 -1.662 -1.766 -1.806 -1.687 -1.41 -1.715 -1.791 -1.718 -1.484 -1.215 -0.981 -0.787 -0.575 -0.333 -0.038 0.151 0.448 0.585 0.864 0.71 0.47 0.263 -0.029 -0.207 -0.429 -0.569 -0.656 -0.752 -0.764 -0.761 -0.747 -0.675 -0.567 -0.382 -0.242 -0.22 -0.09 0.008 0.077 0.179 0.412 0.508 0.775 0.946 1.338 1.609 1.802 1.953 1.886 1.901 1.986 1.915 1.761 1.592 1.457 1.402 1.08 0.928 0.832 0.637 0.506 0.422 0.355 0.324 0.306 0.451 0.484 0.535 0.614 0.655 0.776 0.742 0.59 0.422 0.362 0.285 0.165 0.082 0.016 0.151 0.249 0.246 0.345 0.489 0.631 0.695 0.849 1.127 1.37 1.53 1.572 1.627 1.583 1.268 1.235 1.017 0.866 0.655 0.555 0.27 0.101 -0.064 -0.148 -0.179 -0.218 -0.246 -0.111 0.011 0.043 0.14 0.239 0.405 0.644 0.808 1.019 1.158 1.516 1.792 1.955 1.861 1.661 1.631 1.579 1.375 1.149 1.918 1.046 0.951 1.017 0.897 0.941 1.968 0.839 0.947 1.04 1.163 1.377 1.345 1.553 1.665 1.925 1.888 1.843 1.911 1.906 1.851 1.933 2.028 2.021 1.903 2.018 1.973 1.956 1.891 1.883 1.813 1.808 1.958 2.026 1.938 1.896 1.941 1.948 1.786 1.515 1.292 1.086 0.79 0.606 1.921 1.946 0.009 2.078 1.938 1.848 1.856 1.851 1.998 1.986 2.001 1.986 1.961 1.893 1.878 1.841 1.838 1.881 1.983 1.903 1.913
-0.893 -0.909 -0.928 -0.893 -0.913 -0.902 -0.815 -0.87 -0.85 -0.907 -1.007 -0.932 -0.897 -0.866 -0.902 -0.796 -0.809 -0.837 -0.869 -0.905 -0.826 -0.785 -0.852 -0.681 -0.831 -0.849 -0.849 -0.69 -0.736 -0.871 -0.836 -0.836 -0.729 -0.732 -0.891 -0.892 -0.896 -0.91 -0.779 -0.912 -0.796 -0.804 -0.912 -0.913 -0.936 -0.919 -0.802 -0.912 -0.93 -0.931 -0.959 -0.947 -0.848 -0.794 -0.827 -0.993 -0.969 -1.014 -1.027 -1.035 -1.017 -0.873 -1.047 -1.039 -0.91 -0.778 -0.663 -0.532 -0.404 -0.53 -0.677 -0.887 -0.996 -1.273 -1.28 -1.033 -1.016 -1.265 -1.286 -1.283 -1.285 -1.302 -1.307 -1.075 -0.988 -1.089 -1.282 -1.308 -1.337 -1.367 -1.331 -1.344 -1.145 -1.105 -1.07 -1.193 -1.216 -1.46 -1.404 -1.156 -0.978 -0.731 -0.583 -0.552 -0.585 -0.835 -1.005 -1.238 -1.516 -1.485 -1.486 -1.482 -1.262 -1.066 -1.084 -1.323 -1.589 -1.639 -1.551 -1.338 -1.598 -1.566 -1.63 -1.591 -1.371 -1.255 -1.258 -1.371 -1.301 -1.43 -1.731 -1.612 -1.417 -1.309 -1.111 -0.924 -0.66 -0.477 -0.377 -0.65 -0.832 -1.056 -1.157 -1.176 -1.231 -1.167 -1.046 -0.809 -0.775 -0.741 -0.671 -0.489 -0.297 -0.123 -0.179 -0.229 -0.249 -0.224 -0.169 -0.285 -0.594 -0.833 -1.038 -1.312 -1.549 -1.859 -1.593 -1.457 -1.314 -1.141 -1.437 -1.782 -2.098 -1.961 -1.658 -1.346 -1.302 -1.289 -1.169 -0.958 -0.766 -0.52 -0.266 0.044 0.103 -0.111 -0.151 -0.19 -0.138 -0.135 -0.328 -0.535 -0.858 -1.087 -1.386 -1.526 -1.551 -1.559 -1.652 -1.689 -1.701 -1.628 -1.494 -1.43 -1.424 -1.452 -1.516 -1.594 -1.562 -1.512 -1.519 -1.523 -1.498 -1.429 -1.491 -1.553 -1.615 -1.772 -1.807 -1.675 -1.52 -1.297 -1.093 -0.75 -0.551 -0.288 -0.02 0.098 0.185 0.398 0.354 0.127 0.061 -0.153 -0.285 -0.445 -0.523 -0.48 -0.505 -0.468 -0.379 -0.41 -0.657 -0.872 -1.119 -1.322 -1.43 -1.503 -1.504 -1.56 -1.482 -1.295 -1.329 -1.486 -1.514 -1.515 -1.445 -1.337 -1.079 -0.906 -0.935 -1.016 -0.976 -0.974 -1.039 -0.993 -0.893 -1.14 -1.301 -1.499 -1.511 -1.525 -1.47 -1.311 -1.453 -1.561 -1.477 -1.374 -1.101 -0.933 -0.713 -0.419 -0.151 0.091 0.34 0.612 0.758 0.896 0.68 0.37 0.109 -0.194 -0.393 -0.632 -0.781 -0.875 -0.985 -0.961 -0.964 -0.948 -0.867 -0.764 -0.542 -0.37 -0.184 0.096 0.173 0.221 0.392 0.51 0.742 0.915 1.14 1.396 1.733 1.891 2.003 1.873 1.848 1.951 1.953 1.891 1.811 1.618 1.421 1.266 1.18 1.059 0.86 0.779 0.776 0.639 0.567 0.552 0.637 0.622 0.724 0.808 0.878 1.009 0.951 0.791 0.642 0.573 0.523 0.424 0.317 0.32 0.408 0.507 0.553 0.65 0.662 0.804 0.975 1.053 1.329 1.594 1.645 1.863 1.948 1.702 1.449 1.393 1.264 0.998 0.865 0.583 0.455 0.258 0.197 0.166 0.102 0.056 0.117 0.185 0.242 0.245 0.347 0.536 0.669 0.844 1.005 1.127 1.317 1.75 1.959 1.901 1.841 1.916 1.773 1.637 1.522 1.4 1.888 1.226 1.185 1.249 1.931 1.138 1.064 1.157 1.297 1.35 1.401 1.48 1.497 1.677 1.853 1.973 1.828 1.963 1.986 1.851 1.868 1.978 1.976 2.073 1.958 1.891 1.893 1.913 1.903 1.856 1.836 1.891 2.003 2.178 2.023 1.983 1.906 1.803 1.63 1.317 1.244 1.973 0.765 0.58 0.346 1.973 -0.196 1.963 -0.638 1.868 1.883 1.921 2.026 1.918 1.866 1.868 1.858 1.881 1.971 1.941 1.931 2.036 2.058 1.961 1.983
-0.847 -0.882 -0.864 -0.856 -0.874 -0.912 -0.883 -0.866 -0.886 -0.9 -0.961 -1.006 -0.891 -0.843 -0.859 -0.844 -0.846 -0.81 -0.783 -0.845 -0.827 -0.828 -0.825 -0.871 -0.66 -0.876 -0.691 -0.641 -0.871 -0.845 -0.882 -0.722 -0.714 -0.716 -0.753 -0.847 -0.872 -0.871 -0.779 -0.863 -0.873 -0.786 -0.888 -0.88 -0.898 -0.799 -0.905 -0.883 -0.89 -0.918 -0.829 -0.83 -0.795 -0.829 -0.828 -0.948 -0.985 -0.996 -0.837 -1.014 -1.042 -0.844 -0.847 -0.852 -1.075 -0.93 -0.816 -0.608 -0.456 -0.39 -0.595 -0.704 -0.869 -0.942 -0.978 -0.883 -0.927 -1.039 -1.25 -1.257 -1.219 -1.265 -1.281 -1.294 -1.06 -0.989 -1.066 -1.044 -1.085 -1.345 -1.368 -1.351 -1.379 -1.203 -1.176 -1.392 -1.188 -1.439 -1.431 -1.247 -1.06 -0.832 -0.734 -0.76 -0.647 -0.765 -0.95 -1.126 -1.227 -1.452 -1.223 -1.275 -1.186 -1.07 -1.106 -1.333 -1.568 -1.561 -1.543 -1.364 -1.568 -1.539 -1.558 -1.543 -1.341 -1.339 -1.361 -1.615 -1.351 -1.228 -1.368 -1.385 -1.309 -1.091 -0.957 -0.817 -0.549 -0.342 -0.273 -0.502 -0.692 -0.836 -0.888 -0.938 -0.955 -0.901 -0.817 -0.638 -0.474 -0.46 -0.408 -0.275 -0.103 0.119 0.038 0.023 0.017 -0.015 0.047 -0.223 -0.518 -0.762 -0.994 -1.286 -1.524 -1.827 -1.849 -1.551 -1.338 -1.129 -1.449 -1.729 -1.992 -1.605 -1.457 -1.237 -1.093 -1.028 -0.903 -0.779 -0.604 -0.409 -0.177 0.092 0.327 0.113 0.12 0.075 0.15 0.018 -0.216 -0.443 -0.718 -0.895 -1.103 -1.253 -1.501 -1.694 -1.72 -1.879 -1.817 -1.665 -1.505 -1.43 -1.323 -0.577 -0.852 -1.59 -1.521 -1.534 -1.514 -1.263 -1.03 -0.785 -1.484 -1.597 -1.75 -1.769 -1.801 -1.659 -1.498 -1.354 -0.993 -0.796 -0.49 -0.39 -0.257 -0.155 0.036 0.184 0.354 0.386 0.265 0.092 -0.088 -0.074 -0.141 -0.231 -0.227 -0.176 -0.108 -0.351 -0.492 -0.683 -0.932 -1.127 -1.211 -1.258 -1.227 -1.268 -1.258 -1.113 -1.158 -1.242 -1.274 -1.268 -1.282 -1.128 -0.953 -0.759 -0.683 -0.724 -0.726 -0.714 -0.75 -0.723 -0.755 -0.939 -1.074 -1.262 -1.248 -1.282 -1.257 -1.144 -1.254 -1.251 -1.21 -1.123 -0.989 -0.777 -0.576 -0.272 -0.036 0.192 0.415 0.663 0.816 0.751 0.507 0.244 -0.057 -0.395 -0.582 -0.756 -0.959 -1.084 -1.158 -1.268 -1.281 -1.199 -1.094 -0.952 -0.726 -0.438 -0.328 -0.096 0.168 0.441 0.687 0.763 0.972 1.079 1.306 1.548 1.841 2.033 1.931 1.871 1.918 1.961 1.851 1.968 1.888 1.878 1.71 1.619 1.416 1.317 1.066 0.967 0.955 0.878 0.916 0.822 0.857 0.907 0.974 0.963 1.028 1.191 1.155 1.008 0.837 0.826 0.802 0.657 0.575 0.683 0.714 0.757 0.756 0.782 0.857 1.033 1.287 1.418 1.639 1.71 1.781 1.853 1.871 1.846 1.737 1.641 1.477 1.198 0.924 0.775 0.618 0.496 0.503 0.46 0.382 0.37 0.403 0.401 0.422 0.411 0.587 0.804 0.928 1.115 1.295 1.408 1.56 1.918 1.993 1.876 1.903 1.888 1.776 1.859 1.702 1.655 1.523 1.593 1.455 1.387 1.343 1.407 1.239 1.441 1.64 1.998 1.609 1.691 1.717 1.903 1.996 1.976 1.856 1.938 1.876 1.773 1.866 1.988 1.986 1.876 1.981 1.881 1.881 1.848 1.873 1.878 1.896 1.956 2.118 2.113 1.908 1.813 1.821 1.833 1.671 1.377 1.958 1.093 0.781 0.5 0.172 -0.016 -0.242 1.908 1.891 -0.979 -1.174 1.851 1.978 1.921 1.916 1.841 1.858 1.978 2.123 1.948 1.901 2.051 1.963 2.013 1.896
-0.82 -0.817 -0.839 -0.864 -0.831 -0.883 -0.889 -0.864 -0.875 -0.872 -0.845 -0.929 -0.886 -0.841 -0.886 -0.629 -0.797 -0.821 -0.76 -0.59 -0.624 -0.84 -0.573 -0.634 -0.672 -0.859 -0.823 -0.843 -0.826 -0.803 -0.844 -0.728 -0.819 -0.82 -0.817 -0.747 -0.833 -0.742 -0.851 -0.834 -0.853 -0.759 -0.772 -0.874 -0.878 -0.796 -0.775 -0.846 -0.861 -0.882 -0.9 -0.828 -0.82 -0.919 -0.82 -0.786 -0.827 -0.803 -0.792 -0.833 -0.82 -0.811 -0.839 -1.081 -1.088 -1.087 -0.869 -0.674 -0.495 -0.277 -0.377 -0.532 -0.708 -0.761 -0.759 -0.708 -0.715 -0.913 -1.04 -1.066 -1.063 -1.256 -1.264 -1.081 -0.972 -0.837 -0.892 -0.947 -1.069 -1.102 -1.353 -1.369 -1.374 -1.152 -1.467 -1.428 -1.166 -1.436 -1.462 -1.212 -0.976 -0.948 -0.974 -0.959 -0.798 -0.595 -0.78 -0.933 -1.137 -1.34 -1.153 -1.028 -1.004 -0.824 -1.05 -1.296 -1.555 -1.556 -1.3 -1.275 -1.334 -1.293 -1.282 -1.323 -1.371 -1.573 -1.614 -1.608 -1.353 -1.232 -1.354 -1.259 -1.082 -0.938 -0.756 -0.671 -0.453 -0.264 -0.144 -0.312 -0.471 -0.568 -0.649 -0.684 -0.703 -0.65 -0.608 -0.463 -0.465 -0.432 -0.41 -0.36 -0.237 -0.058 0.022 0.19 0.216 0.207 -0.003 -0.276 -0.509 -0.752 -0.989 -1.251 -1.479 -1.75 -1.514 -1.428 -1.237 -1.073 -1.306 -1.563 -1.631 -1.453 -1.255 -1.073 -0.902 -0.727 -0.672 -0.536 -0.356 -0.258 -0.016 0.162 0.392 0.4 0.35 0.372 0.408 0.144 -0.111 -0.29 -0.517 -0.658 -0.994 -1.306 -1.51 -1.745 -1.963 -1.878 -1.802 -1.643 -1.526 -1.433 -1.311 -0.578 -0.828 -1.088 -1.249 -1.542 -1.313 -1.187 -1.006 -0.822 -0.606 -1.548 -1.648 -1.658 -1.629 -1.604 -1.502 -1.345 -1.086 -0.731 -0.768 -0.647 -0.494 -0.33 -0.164 0.033 0.189 0.488 0.477 0.313 0.162 0.155 0.153 0.054 0.071 0.1 0.115 -0.138 -0.328 -0.525 -0.735 -0.85 -0.926 -0.957 -0.984 -0.988 -0.91 -0.829 -0.918 -0.954 -0.993 -0.955 -0.965 -0.907 -0.744 -0.563 -0.362 -0.395 -0.439 -0.449 -0.441 -0.421 -0.513 -0.732 -0.849 -0.988 -0.99 -0.972 -1.015 -0.932 -1.02 -0.992 -0.994 -0.956 -0.824 -0.604 -0.368 -0.082 -0.038 0.234 0.534 0.678 0.883 0.689 0.482 0.104 -0.236 -0.453 -0.646 -0.865 -1.118 -1.262 -1.389 -1.552 -1.54 -1.463 -1.296 -1.099 -0.867 -0.63 -0.449 -0.182 0.149 0.4 0.66 0.849 1.15 1.459 1.666 1.758 1.972 1.933 2.013 2.088 2.131 2.111 2.028 2.013 1.868 1.946 2.011 1.86 1.552 1.393 1.191 1.199 1.248 1.172 1.203 1.115 1.113 1.136 1.126 1.181 1.29 1.382 1.328 1.266 1.058 1.089 1.111 0.865 0.814 0.938 1.028 0.984 0.924 0.985 1.149 1.264 1.454 1.616 1.655 1.734 1.746 1.843 1.808 1.881 1.912 1.779 1.598 1.35 1.075 0.931 0.85 0.838 0.822 0.759 0.684 0.646 0.63 0.706 0.635 0.646 0.742 1.009 1.239 1.341 1.458 1.626 1.803 1.952 1.936 1.851 1.833 1.856 1.901 1.826 1.786 1.987 1.79 1.764 1.678 1.873 1.654 1.856 1.551 1.685 1.776 1.891 1.853 1.906 1.863 1.978 1.918 1.888 1.856 1.881 1.781 1.961 1.981 2.013 2.031 1.931 2.041 1.996 1.953 1.843 1.751 1.913 1.923 1.941 2.033 1.976 1.811 1.776 1.801 1.876 1.682 1.453 1.207 1.025 0.652 0.37 0.157 1.856 1.931 -0.735 -0.925 1.873 -1.437 2.008 1.933 1.751 1.891 1.936 1.996 2.073 2.188 1.998 1.871 1.978 1.903 1.883 1.923
-0.837 -0.783 -0.786 -0.824 -0.828 -0.828 -0.853 -0.836 -0.874 -0.876 -0.855 -0.85 -0.863 -0.879 -0.863 -0.794 -0.793 -0.78 -0.729 -0.715 -0.764 -0.804 -0.804 -0.777 -0.64 -0.846 -0.851 -0.792 -0.826 -0.814 -0.674 -0.813 -0.823 -0.809 -0.789 -0.738 -0.758 -0.682 -0.735 -0.806 -0.831 -0.771 -0.735 -0.767 -0.783 -0.767 -0.779 -0.861 -0.849 -0.862 -0.861 -0.888 -0.905 -0.893 -0.905 -0.798 -0.804 -0.902 -0.956 -0.972 -0.954 -0.986 -1.007 -1.054 -1.062 -0.865 -0.734 -0.62 -0.464 -0.543 -0.514 -0.48 -0.471 -0.535 -0.563 -0.481 -0.566 -0.719 -0.817 -0.833 -1.058 -1.301 -1.054 -1.012 -0.848 -0.907 -0.948 -0.91 -0.935 -1.047 -1.128 -1.37 -1.146 -1.191 -1.451 -1.431 -1.469 -1.463 -1.443 -1.18 -0.952 -1.069 -1.158 -1.074 -0.935 -0.772 -0.601 -0.821 -0.937 -1.003 -0.979 -1.004 -0.979 -0.818 -1.008 -1.153 -1.276 -1.227 -1.232 -1.022 -1.057 -1.098 -1.048 -1.071 -1.319 -1.561 -1.555 -1.591 -1.344 -1.305 -1.559 -1.307 -1.247 -1.076 -0.804 -0.584 -0.394 -0.162 0.092 -0.12 -0.235 -0.32 -0.397 -0.401 -0.455 -0.576 -0.649 -0.712 -0.751 -0.66 -0.612 -0.558 -0.459 -0.254 -0.089 0.075 0.263 0.273 0.065 -0.194 -0.431 -0.756 -1.051 -1.17 -1.338 -1.497 -1.417 -1.242 -1.109 -0.927 -1.114 -1.271 -1.313 -1.207 -1.077 -0.811 -0.674 -0.47 -0.438 -0.254 -0.173 -0.073 0.141 0.257 0.469 0.727 0.645 0.67 0.595 0.258 0.059 -0.164 -0.41 -0.655 -0.946 -1.235 -1.484 -1.676 -1.772 -1.703 -1.815 -1.618 -1.475 -1.443 -0.38 -0.61 -0.788 -0.962 -1.18 -1.328 -1.242 -1.021 -0.923 -0.706 -0.496 -0.331 -0.109 0.152 -1.516 -1.517 -1.384 -1.244 -1.148 -1.138 -0.979 -0.958 -0.741 -0.608 -0.384 -0.13 0.082 0.322 0.545 0.371 0.249 0.076 -0.038 -0.189 -0.209 -0.199 -0.19 -0.165 -0.19 -0.39 -0.552 -0.633 -0.688 -0.791 -0.789 -0.791 -0.735 -0.647 -0.695 -0.73 -0.689 -0.752 -0.698 -0.673 -0.552 -0.372 -0.142 -0.143 -0.18 -0.181 -0.174 -0.124 -0.311 -0.501 -0.615 -0.741 -0.762 -0.74 -0.709 -0.625 -0.736 -0.764 -0.741 -0.696 -0.589 -0.397 -0.223 0.023 0.229 0.492 0.676 0.831 0.948 0.69 0.338 -0.049 -0.325 -0.455 -0.67 -0.944 -1.184 -1.473 -1.691 -1.794 -1.819 -1.699 -1.476 -1.199 -0.967 -0.726 -0.478 -0.25 0.058 0.408 0.632 0.806 1.127 1.484 1.708 1.9 1.991 1.921 1.853 1.931 2.073 2.081 2.061 1.971 1.896 1.856 1.893 1.958 1.664 1.66 1.612 1.571 1.555 1.464 1.392 1.368 1.524 1.439 1.374 1.448 1.543 1.597 1.596 1.51 1.375 1.35 1.419 1.19 1.088 1.214 1.256 1.132 1.135 1.236 1.467 1.639 1.722 1.66 1.726 1.721 1.833 1.843 1.836 1.991 1.911 1.878 1.612 1.394 1.283 1.199 1.181 1.215 1.15 0.974 0.894 0.842 0.91 0.876 0.825 0.935 1.09 1.23 1.334 1.433 1.61 1.764 1.984 2.016 1.858 1.851 1.993 1.976 2.006 1.933 1.883 1.923 1.781 1.811 1.886 1.963 1.956 1.896 1.903 1.936 1.811 1.753 1.861 1.856 2.033 2.053 1.943 1.888 1.938 1.861 1.868 1.973 2.073 2.053 1.973 2.058 1.988 1.996 1.958 1.978 1.906 2.008 2.001 2.008 2.008 1.878 1.878 1.868 1.961 1.966 1.767 1.936 2.038 0.847 0.564 0.329 0.067 -0.19 -0.491 -0.843 -1.018 1.848 -1.493 -1.719 1.811 -9999 -9999 2.078 2.108 2.021 1.923 1.863 1.891 1.823 1.823 1.888 1.921
-0.782 -0.591 -0.78 -0.778 -0.852 -0.831 -0.835 -0.857 -0.827 -0.824 -0.794 -0.825 -0.813 -0.788 -0.845 -0.795 -0.803 -0.779 -0.718 -0.74 -0.761 -0.757 -0.794 -0.811 -0.839 -0.824 -0.816 -0.779 -0.641 -0.608 -0.645 -0.643 -0.815 -0.8 -0.699 -0.633 -0.622 -0.659 -0.719 -0.733 -0.729 -0.73 -0.76 -0.754 -0.744 -0.76 -0.841 -0.834 -0.837 -0.832 -0.865 -0.871 -0.854 -0.883 -0.87 -0.761 -0.762 -0.916 -0.93 -0.964 -0.926 -0.948 -0.999 -1.015 -1.049 -0.827 -0.655 -0.531 -0.645 -0.708 -0.719 -0.606 -0.563 -0.424 -0.356 -0.288 -0.364 -0.501 -0.595 -0.717 -0.97 -1.076 -1.282 -1.078 -0.973 -1.089 -1.118 -1.041 -1.086 -1.015 -1.046 -1.145 -1.057 -1.229 -1.337 -1.378 -1.403 -1.161 -1.134 -1.064 -0.97 -1.109 -1.331 -1.138 -1.068 -0.908 -0.735 -0.734 -0.952 -1.143 -1.233 -1.216 -1.16 -0.961 -0.84 -0.969 -1.048 -1.036 -1.005 -0.816 -0.83 -0.815 -0.812 -1.006 -1.205 -1.311 -1.366 -1.361 -1.357 -1.487 -1.553 -1.607 -1.41 -1.119 -0.875 -0.674 -0.445 -0.173 0.097 0.135 -0.021 -0.118 -0.211 -0.394 -0.599 -0.773 -0.845 -0.894 -0.895 -0.883 -0.866 -0.729 -0.59 -0.442 -0.276 -0.046 0.155 0.355 0.082 -0.129 -0.398 -0.648 -0.845 -1.086 -1.129 -1.221 -1.181 -1.055 -0.99 -0.757 -0.958 -1.141 -1.057 -1.019 -0.9 -0.683 -0.468 -0.381 -0.215 -0.072 0 0.166 0.358 0.493 0.639 0.934 0.954 0.936 0.735 0.438 0.18 -0.043 -0.329 -0.576 -0.847 -1.096 -1.362 -1.514 -1.539 -1.659 -1.67 -1.591 -1.488 -0.096 -0.32 -0.512 -0.68 -0.836 -1.013 -1.068 -1.017 -0.833 -0.639 -0.503 -0.362 -0.17 -0.057 0.115 0.182 -1.41 -1.261 -1.33 -1.332 -1.322 -1.319 -1.169 -0.978 -0.757 -0.545 -0.324 -0.059 0.135 0.291 0.148 -0.016 -0.162 -0.257 -0.363 -0.444 -0.414 -0.462 -0.475 -0.426 -0.32 -0.297 -0.335 -0.421 -0.459 -0.483 -0.497 -0.431 -0.378 -0.325 -0.374 -0.464 -0.454 -0.459 -0.438 -0.355 -0.186 0.035 0.101 0.044 0.117 0.06 0.023 -0.162 -0.251 -0.406 -0.469 -0.498 -0.447 -0.435 -0.333 -0.453 -0.463 -0.462 -0.433 -0.308 -0.173 -0.042 0.155 0.418 0.708 0.873 1.067 0.892 0.653 0.276 -0.047 -0.284 -0.521 -0.737 -1.013 -1.297 -1.489 -1.824 -2.021 -2.021 -1.8 -1.511 -1.258 -0.969 -0.704 -0.447 -0.255 0.128 0.373 0.558 0.899 1.099 1.385 1.587 1.886 1.943 1.756 1.823 1.968 1.971 1.926 1.898 1.971 1.958 1.876 1.821 1.856 1.703 1.816 1.968 1.942 1.701 1.587 1.604 1.577 1.693 1.792 1.788 1.802 1.838 1.858 1.849 1.665 1.7 1.648 1.578 1.368 1.362 1.435 1.445 1.288 1.409 1.623 1.64 1.74 1.753 1.781 1.731 1.818 1.956 1.891 1.926 1.876 1.936 1.796 1.763 1.675 1.625 1.566 1.551 1.414 1.272 1.173 1.179 1.185 1.188 1.134 1.132 1.233 1.387 1.443 1.539 1.673 1.827 1.911 1.881 1.986 1.861 1.886 2.098 2.143 2.088 1.981 1.831 1.773 1.748 1.848 1.961 2.051 2.003 1.971 1.928 1.871 1.791 1.786 1.966 1.931 2.046 1.956 1.858 1.838 1.943 1.908 2.026 2.111 2.076 2.008 1.896 1.858 1.871 1.911 1.821 1.846 1.876 1.913 1.951 1.926 2.013 1.936 1.986 1.938 1.916 1.983 1.626 1.347 1.943 0.743 0.552 0.195 1.871 1.813 -0.509 1.791 -1.067 -1.325 -1.499 -1.781 -2.087 -2.102 -9999 -9999 2.096 1.956 1.766 1.763 1.843 1.863 1.818 1.838 1.863
-0.711 -0.732 -0.799 -0.744 -0.815 -0.815 -0.807 -0.783 -0.773 -0.772 -0.8 -0.714 -0.702 -0.796 -0.734 -0.77 -0.765 -0.794 -0.763 -0.777 -0.709 -0.722 -0.713 -0.764 -0.807 -0.808 -0.782 -0.642 -0.754 -0.764 -0.764 -0.65 -0.63 -0.771 -0.75 -0.67 -0.658 -0.676 -0.739 -0.752 -0.76 -0.744 -0.797 -0.781 -0.748 -0.748 -0.796 -0.806 -0.798 -0.795 -0.827 -0.849 -0.833 -0.76 -0.766 -0.739 -0.762 -0.776 -0.775 -0.784 -0.734 -0.921 -0.957 -0.974 -0.773 -0.747 -0.539 -0.565 -0.731 -0.867 -0.883 -0.755 -0.654 -0.454 -0.379 -0.23 -0.267 -0.461 -0.688 -0.889 -0.984 -1.237 -1.263 -1.27 -1.054 -1.306 -1.311 -1.137 -1.345 -1.102 -0.882 -0.907 -0.883 -1.084 -1.216 -1.123 -1.193 -1.069 -0.984 -0.992 -0.935 -1.123 -1.321 -1.387 -1.123 -0.939 -0.728 -0.749 -0.974 -1.205 -1.399 -1.382 -1.262 -1.005 -0.789 -0.787 -0.821 -0.811 -0.828 -0.72 -0.603 -0.594 -0.647 -0.898 -1.048 -1.026 -1.074 -1.076 -1.337 -1.557 -1.507 -1.562 -1.319 -1.137 -0.893 -0.629 -0.372 -0.133 0.092 0.341 0.106 -0.088 -0.352 -0.522 -0.711 -0.954 -1.043 -1.124 -1.121 -1.113 -1.075 -0.922 -0.773 -0.584 -0.321 -0.126 0.058 0.232 0.169 -0.095 -0.318 -0.473 -0.66 -0.803 -0.92 -0.98 -0.956 -0.834 -0.735 -0.543 -0.703 -0.877 -0.974 -0.857 -0.711 -0.6 -0.354 -0.194 0.006 0.162 0.255 0.378 0.565 0.717 0.849 1.117 1.202 1.089 0.804 0.538 0.31 0.073 -0.216 -0.459 -0.691 -0.968 -1.189 -1.394 -1.407 -1.479 -1.518 -1.456 0.263 0.02 -0.2 -0.358 -0.528 -0.682 -0.778 -0.818 -0.78 -0.7 -0.647 -0.594 -0.5 -0.349 -0.222 -0.026 0.12 0.215 -1.407 -1.493 -1.529 -1.555 -1.473 -1.313 -1.178 -0.89 1.873 -0.444 -0.094 0.263 0.179 -0.056 -0.225 -0.375 -0.496 -0.638 -0.691 -0.742 -0.683 -0.718 -0.678 -0.52 -0.404 -0.197 -0.162 -0.229 -0.227 -0.169 -0.14 -0.085 -0.071 -0.136 -0.228 -0.206 -0.204 -0.163 -0.033 0.121 0.246 0.382 0.324 0.31 0.316 0.252 0.106 -0.018 -0.076 -0.146 -0.176 -0.185 -0.16 -0.092 -0.236 -0.23 -0.171 -0.062 -0.011 0.063 0.155 0.355 0.54 0.748 0.949 1.106 0.887 0.598 0.287 0.026 -0.211 -0.443 -0.68 -0.912 -1.265 -1.531 -1.682 -1.751 -2.034 -1.833 -1.556 -1.25 -0.956 -0.724 -0.414 -0.183 0.114 0.391 0.564 0.878 1.228 1.491 1.583 1.978 2.063 1.961 1.941 2.096 2.088 1.953 1.863 1.851 1.903 1.898 1.823 1.928 1.756 1.888 1.983 1.953 1.881 1.931 1.911 1.868 1.896 1.906 1.906 1.898 1.891 1.891 2.063 1.951 2.002 1.833 1.68 1.562 1.641 1.7 1.631 1.592 1.87 2.02 1.883 1.856 1.841 1.848 1.951 1.986 2.066 1.976 1.883 1.808 1.848 1.823 1.821 1.896 1.827 1.775 1.717 1.594 1.521 1.46 1.547 1.393 1.342 1.372 1.455 1.593 1.713 1.847 1.848 1.897 1.961 1.843 1.843 1.868 1.941 1.988 2.098 2.041 1.866 1.826 1.803 1.763 1.811 1.916 1.928 2.033 1.958 2.003 1.966 1.963 1.946 1.901 1.956 1.886 1.978 1.796 1.806 1.851 1.981 1.963 2.021 1.981 1.948 1.843 1.766 1.863 1.851 1.798 1.848 1.726 1.888 1.888 1.976 2.033 2.041 1.921 1.926 1.903 1.908 1.806 1.525 1.367 1.024 0.785 1.831 0.276 1.841 -0.229 1.943 -0.825 1.928 -1.264 -1.553 -1.759 -2.14 -2.189 -1.724 -1.737 -1.719 1.856 1.723 1.873 1.946 1.921 2.036 1.956 1.876
-0.705 -0.731 -0.745 -0.72 -0.738 -0.782 -0.753 -0.747 -0.729 -0.696 -0.737 -0.708 -0.734 -0.726 -0.732 -0.728 -0.771 -0.804 -0.781 -0.57 -0.764 -0.746 -0.716 -0.782 -0.753 -0.736 -0.782 -0.77 -0.71 -0.729 -0.765 -0.652 -0.633 -0.734 -0.71 -0.692 -0.636 -0.715 -0.73 -0.714 -0.783 -0.745 -0.759 -0.727 -0.74 -0.712 -0.761 -0.759 -0.767 -0.737 -0.79 -0.806 -0.788 -0.817 -0.821 -0.824 -0.824 -0.86 -0.757 -0.662 -0.717 -0.898 -0.93 -0.935 -0.727 -0.596 -0.459 -0.572 -0.806 -0.988 -1.056 -0.879 -0.659 -0.595 -0.49 -0.319 -0.338 -0.521 -0.736 -0.922 -1.139 -1.201 -1.26 -1.271 -1.057 -1.252 -1.236 -1.076 -1.303 -1.076 -0.847 -0.669 -0.679 -0.802 -0.923 -0.926 -0.962 -0.906 -0.777 -0.739 -0.938 -1.157 -1.34 -1.362 -1.151 -0.934 -0.938 -0.939 -0.95 -1.14 -1.222 -1.459 -1.256 -1.02 -0.78 -0.575 -0.571 -0.542 -0.571 -0.489 -0.371 -0.338 -0.486 -0.646 -0.788 -0.828 -0.812 -1.002 -1.19 -1.25 -1.474 -1.518 -1.279 -1.069 -0.878 -0.597 -0.362 -0.116 0.142 0.305 0.09 -0.14 -0.371 -0.606 -0.797 -1.073 -1.268 -1.338 -1.35 -1.348 -1.24 -1.087 -0.853 -0.656 -0.418 -0.249 -0.125 0.041 0.201 0.038 -0.164 -0.357 -0.499 -0.553 -0.635 -0.738 -0.701 -0.622 -0.484 -0.355 -0.439 -0.506 -0.6 -0.57 -0.52 -0.394 -0.26 -0.108 0.086 0.316 0.469 0.591 0.706 0.83 1.02 1.243 1.363 1.111 0.91 0.667 0.425 0.156 -0.055 -0.305 -0.544 -0.779 -0.946 -1.05 -1.201 -1.284 -1.329 -1.375 -1.301 0.129 -0.065 -0.192 -0.322 -0.467 -0.552 -0.576 -0.677 -0.86 -0.901 -0.785 -0.683 -0.542 -0.392 -0.212 -0.095 0.025 0.252 0.468 -1.721 -1.719 -1.609 -1.501 -1.253 -0.977 -0.752 -0.436 -0.112 0.101 -0.046 -0.213 -0.406 -0.572 -0.736 -0.869 -0.949 -0.953 -0.975 -0.98 -0.915 -0.803 -0.593 -0.349 -0.074 0.083 0.108 0.131 0.176 0.152 0.206 0.072 -0.005 0.027 0.076 0.133 0.3 0.369 0.468 0.607 0.613 0.586 0.625 0.448 0.351 0.286 0.264 0.189 0.159 0.042 0.03 0.13 0.058 0.015 0.112 0.215 0.19 0.295 0.434 0.593 0.758 0.843 0.998 1.082 0.916 0.628 0.375 0.117 -0.062 -0.333 -0.585 -0.841 -1.072 -1.324 -1.488 -1.662 -1.786 -1.721 -1.487 -1.203 -0.953 -0.661 -0.418 -0.127 0.119 0.335 0.588 0.86 1.215 1.486 1.69 2.126 2.098 1.961 1.953 1.983 1.983 1.943 1.838 1.916 1.948 1.851 1.828 1.928 1.916 1.893 1.913 1.793 1.828 1.833 1.883 1.881 1.898 1.921 1.838 1.898 1.931 1.928 2.016 2.028 1.913 1.758 1.801 1.886 1.966 1.948 1.831 1.888 2.066 1.986 1.856 1.838 1.893 1.873 1.971 1.976 1.928 1.863 1.806 1.853 1.876 1.858 1.838 1.828 1.803 1.886 1.86 1.8 1.778 1.688 1.671 1.624 1.644 1.729 1.812 1.847 2.012 2.098 2.008 1.988 2.063 1.873 1.916 1.941 1.918 2.001 2.078 1.946 1.833 1.903 1.696 1.716 1.843 2.036 2.003 1.961 1.828 1.783 1.811 1.866 2.071 1.953 1.888 1.898 1.853 1.731 1.771 2.008 2.061 2.031 1.873 1.976 1.833 1.923 1.988 2.021 1.936 1.881 1.981 1.913 1.976 1.941 1.931 1.953 1.903 1.891 1.833 1.896 1.843 1.773 1.618 1.901 1.065 1.873 0.555 0.379 0.131 -0.15 1.911 1.886 -1.003 -1.224 -1.508 -1.754 -2.182 -2.25 -1.786 -1.578 -1.524 1.771 1.836 1.961 2.016 1.963 1.936 1.926 1.851
-0.645 -0.62 -0.689 -0.664 -0.721 -0.693 -0.68 -0.697 -0.647 -0.695 -0.681 -0.655 -0.477 -0.698 -0.661 -0.684 -0.703 -0.479 -0.754 -0.714 -0.716 -0.746 -0.654 -0.678 -0.694 -0.714 -0.701 -0.709 -0.712 -0.675 -0.579 -0.604 -0.633 -0.707 -0.682 -0.691 -0.619 -0.689 -0.683 -0.715 -0.656 -0.699 -0.705 -0.641 -0.675 -0.642 -0.639 -0.632 -0.661 -0.704 -0.726 -0.781 -0.73 -0.786 -0.77 -0.789 -0.787 -0.828 -0.823 -0.708 -0.725 -0.828 -0.909 -0.902 -0.723 -0.587 -0.519 -0.626 -0.785 -0.785 -0.837 -0.866 -0.814 -0.743 -0.583 -0.461 -0.438 -0.634 -0.775 -0.883 -1.169 -1.169 -1.247 -1.062 -1.022 -0.996 -1.012 -1.044 -1.258 -1.074 -0.822 -0.667 -0.848 -0.88 -0.925 -0.89 -0.793 -0.944 -0.894 -0.939 -0.951 -1.197 -1.366 -1.347 -1.161 -1.046 -1.145 -1.138 -1.089 -0.918 -1.086 -1.229 -1.139 -0.916 -0.742 -0.525 -0.362 -0.361 -0.335 -0.278 -0.14 -0.08 -0.317 -0.395 -0.54 -0.594 -0.68 -0.875 -1.03 -1.194 -1.261 -1.258 -1.177 -0.977 -0.754 -0.555 -0.341 -0.101 0.124 0.379 0.12 -0.115 -0.351 -0.576 -0.875 -1.135 -1.372 -1.549 -1.572 -1.53 -1.349 -1.152 -0.966 -0.711 -0.62 -0.445 -0.298 -0.065 0.137 0.176 -0.027 -0.138 -0.287 -0.319 -0.379 -0.478 -0.469 -0.362 -0.287 -0.164 -0.143 -0.231 -0.319 -0.338 -0.252 -0.182 -0.052 0.032 0.214 0.381 0.679 0.782 0.878 1.023 1.165 1.36 1.367 1.182 0.939 0.722 0.55 0.338 0.169 -0.148 -0.31 -0.489 -0.679 -0.811 -1.008 -1.069 -1.145 -1.132 0.499 -1.135 -1.072 -1.048 -0.113 -0.249 -0.47 -0.654 -0.9 -1.01 -1.089 -1.01 -0.83 -0.683 -0.546 -0.387 -0.248 -0.034 0.16 0.453 -1.872 -1.864 -1.697 -1.495 -1.297 -0.965 -0.742 -0.512 -0.214 0.045 -0.151 -0.372 -0.548 -0.725 -0.962 -1.078 -1.174 -1.308 -1.319 -1.271 -1.111 -0.99 -0.757 -0.535 -0.292 -0.024 0.234 0.379 0.439 0.426 0.36 0.246 0.2 0.291 0.327 0.369 0.499 0.594 0.745 0.845 0.875 0.899 0.916 0.692 0.681 0.532 0.487 0.364 0.292 0.32 0.381 0.418 0.308 0.308 0.328 0.384 0.445 0.538 0.714 0.824 0.95 0.987 1.218 1.18 1.025 0.797 0.412 0.204 -0.028 -0.302 -0.506 -0.73 -0.937 -1.108 -1.383 -1.471 -1.5 -1.44 -1.314 -1.113 -0.842 -0.672 -0.393 -0.123 0.077 0.327 0.595 0.881 1.167 1.469 1.756 2.088 1.961 2.006 1.951 2.038 2.026 1.836 1.878 1.978 1.881 1.928 1.898 1.826 1.806 1.853 1.838 1.781 1.853 1.821 1.878 1.798 1.863 1.926 1.881 1.881 1.831 1.968 1.921 1.878 1.786 1.781 1.863 1.996 2.023 1.928 1.876 1.906 2.066 1.856 1.793 1.826 1.921 1.933 1.936 1.856 1.831 1.841 1.791 1.986 1.941 1.883 1.768 1.893 1.906 1.971 1.878 1.878 1.888 1.948 1.903 1.943 1.968 2.041 2.008 2.018 1.973 1.898 1.918 1.996 1.976 1.876 1.911 2.003 1.946 1.998 2.036 2.023 1.853 1.858 1.843 1.881 1.931 1.976 1.976 1.801 1.806 1.801 1.811 1.926 2.001 1.856 1.771 1.821 1.876 1.816 1.811 2.011 2.056 1.958 1.816 1.858 1.858 1.928 1.983 1.991 1.923 1.933 2.118 2.033 1.941 1.943 2.013 1.903 1.853 1.846 1.898 1.941 1.833 1.783 1.692 1.375 1.157 0.895 0.601 0.372 0.1 -0.105 2.041 -0.695 -0.966 -1.23 1.956 -1.644 -1.848 -1.813 -1.685 -1.413 1.801 -1.122 1.911 2.001 2.063 2.068 1.991 1.968 1.746
-0.598 -0.645 -0.63 -0.656 -0.635 -0.628 -0.624 -0.63 -0.631 -0.653 -0.664 -0.669 -0.591 -0.651 -0.622 -0.638 -0.608 -0.666 -0.668 -0.682 -0.66 -0.687 -0.672 -0.447 -0.685 -0.67 -0.659 -0.682 -0.656 -0.664 -0.57 -0.688 -0.672 -0.677 -0.624 -0.605 -0.603 -0.636 -0.591 -0.605 -0.587 -0.557 -0.617 -0.634 -0.654 -0.473 -0.426 -0.642 -0.689 -0.69 -0.714 -0.731 -0.723 -0.749 -0.695 -0.741 -0.782 -0.807 -0.696 -0.638 -0.617 -0.644 -0.665 -0.721 -0.701 -0.637 -0.557 -0.737 -0.948 -1.015 -0.794 -1.033 -1.034 -0.846 -0.627 -0.454 -0.491 -0.695 -0.863 -1.109 -1.087 -1.187 -1.034 -1.097 -1.208 -1.213 -0.992 -0.932 -1.028 -0.961 -0.829 -0.824 -1.041 -1.106 -1.113 -1.066 -0.867 -1.047 -1.136 -1.185 -1.07 -1.124 -1.229 -1.175 -1.089 -1.138 -1.359 -1.394 -1.189 -0.97 -0.936 -0.971 -0.938 -0.788 -0.685 -0.466 -0.213 -0.127 -0.14 -0.089 0.036 0.035 -0.121 -0.243 -0.315 -0.303 -0.479 -0.694 -0.923 -1.007 -1.016 -1.001 -0.969 -0.829 -0.603 -0.394 -0.27 -0.094 -0.012 0.156 0.149 -0.133 -0.375 -0.627 -0.855 -1.057 -1.322 -1.564 -1.568 -1.564 -1.316 -1.196 -1.1 -0.917 -0.758 -0.61 -0.38 -0.143 0.04 0.313 0.238 0.115 -0.02 -0.079 -0.151 -0.196 -0.2 -0.136 -0.038 0.069 0.074 0.016 -0.053 -0.044 0.046 0.135 0.186 0.275 0.425 0.557 0.847 1.022 1.126 1.288 1.435 1.555 1.484 1.279 1.209 0.882 0.626 0.443 0.361 0.126 -0.069 -0.189 -0.417 -0.569 -0.76 -0.898 -0.941 -1.004 0.554 -0.995 -0.922 0.127 -0.097 -0.357 -0.558 -0.811 -0.996 -1.168 -1.265 -1.187 -0.96 -0.849 -0.713 -0.443 -0.292 -0.074 -1.553 0.369 -1.741 -1.919 -1.753 -1.554 -1.303 -1.004 -0.748 -0.504 -0.251 -0.101 -0.292 -0.551 -0.746 -0.883 -1.108 -1.325 -1.492 -1.534 -1.563 -1.47 -1.329 -1.141 -0.919 -0.607 -0.426 -0.159 0.071 0.353 0.617 0.56 0.58 0.527 0.479 0.561 0.59 0.635 0.703 0.838 0.939 0.986 1.133 1.143 1.095 0.915 0.916 0.819 0.678 0.623 0.505 0.534 0.658 0.695 0.642 0.684 0.571 0.562 0.736 0.789 1.001 1.04 1.191 1.303 1.533 1.347 1.169 0.892 0.581 0.363 0.094 -0.185 -0.363 -0.54 -0.751 -0.964 -1.098 -1.222 -1.264 -1.242 -1.089 -0.93 -0.751 -0.544 -0.296 -0.02 0.216 0.454 0.712 0.955 1.245 1.507 1.727 1.943 2.006 2.196 2.148 2.088 2.006 1.818 1.851 1.846 1.936 2.036 1.906 1.816 1.833 1.858 1.743 1.731 1.876 1.978 1.853 1.746 1.896 1.923 1.683 1.823 1.841 1.948 1.858 1.808 1.806 1.883 2.076 1.966 1.946 1.848 1.966 1.923 1.871 1.881 1.853 1.808 1.886 1.938 1.923 1.788 1.783 1.723 1.793 2.141 1.976 1.961 1.988 1.956 1.938 1.873 1.848 1.893 1.936 1.993 1.926 2.003 1.998 2.028 2.046 2.028 2.061 1.941 1.958 1.961 1.996 2.036 2.118 1.993 1.776 1.963 1.933 1.873 1.798 1.883 1.973 2.051 2.038 1.956 1.806 1.838 1.921 1.913 1.886 1.876 1.816 1.838 1.886 1.961 1.958 1.876 1.961 2.093 1.903 1.746 1.681 1.913 1.896 1.971 1.983 1.948 1.938 1.963 2.053 1.903 1.873 1.938 1.901 1.901 1.941 1.896 1.938 1.988 1.866 1.701 1.678 1.411 1.13 0.906 0.683 0.461 0.139 -0.031 2.091 -0.584 -0.874 -1.177 1.843 1.923 -1.599 -1.521 2.028 1.796 -1.216 -0.888 -0.741 2.076 2.008 1.996 2.023 1.913 1.803
-0.541 -0.56 -0.615 -0.62 -0.659 -0.624 -0.548 -0.58 -0.574 -0.585 -0.647 -0.643 -0.609 -0.583 -0.612 -0.623 -0.525 -0.567 -0.607 -0.686 -0.643 -0.61 -0.609 -0.444 -0.672 -0.639 -0.513 -0.657 -0.664 -0.65 -0.667 -0.641 -0.667 -0.603 -0.633 -0.592 -0.563 -0.593 -0.631 -0.422 -0.614 -0.584 -0.627 -0.471 -0.505 -0.659 -0.607 -0.644 -0.664 -0.691 -0.705 -0.704 -0.684 -0.649 -0.67 -0.655 -0.662 -0.805 -0.81 -0.672 -0.588 -0.654 -0.833 -0.882 -0.878 -0.69 -0.732 -0.736 -0.926 -1.013 -0.854 -1.047 -1.057 -0.861 -0.712 -0.525 -0.474 -0.718 -0.913 -1.093 -1.089 -0.955 -0.926 -1.059 -1.239 -1.239 -1.208 -0.962 -0.824 -0.795 -0.811 -0.861 -1.175 -1.389 -1.347 -1.143 -0.907 -1.14 -1.29 -1.352 -1.15 -1.048 -1.071 -1.196 -1.164 -1.096 -1.149 -1.354 -1.144 -0.963 -0.74 -0.745 -0.738 -0.643 -0.508 -0.353 -0.085 0.061 0.119 0.179 0.278 0.172 0.051 -0.026 -0.101 -0.194 -0.306 -0.514 -0.692 -0.726 -0.781 -0.8 -0.737 -0.6 -0.426 -0.275 -0.338 -0.276 -0.168 -0.012 0.143 -0.134 -0.361 -0.6 -0.802 -1.034 -1.261 -1.349 -1.335 -1.306 -1.274 -1.485 -1.337 -1.075 -0.82 -0.617 -0.382 -0.155 -0.01 0.321 0.422 0.322 0.22 0.116 0.065 0.036 0.034 0.155 0.276 0.344 0.309 0.246 0.189 0.228 0.283 0.383 0.386 0.545 0.734 0.821 1.007 1.196 1.288 1.39 1.547 1.745 1.575 1.397 1.389 1.089 0.911 0.731 0.508 0.28 0.087 0.038 -0.17 -0.359 -0.564 -0.619 -0.728 -0.777 0.775 0.633 -0.751 0.11 -0.126 -0.406 -0.625 -0.843 -1.083 -1.249 -1.507 -1.29 -1.168 -0.981 -0.805 -0.573 -0.324 -0.073 -1.509 0.343 0.55 0.763 -1.659 -1.498 -1.346 -1.019 -0.729 -0.505 -0.187 -0.146 -0.427 -0.653 -0.894 -1.12 -1.359 -1.469 -1.71 -1.781 -1.835 -1.696 -1.497 -1.215 -0.994 -0.73 -0.471 -0.222 0.09 0.275 0.582 0.837 0.866 0.755 0.767 0.859 0.975 0.918 0.932 1.11 1.142 1.286 1.486 1.538 1.285 1.162 1.118 1.018 0.932 0.88 0.788 0.853 0.904 0.981 0.923 0.922 0.888 0.875 0.996 1.028 1.158 1.306 1.45 1.577 1.783 1.532 1.237 0.926 0.637 0.395 0.202 0.065 -0.181 -0.39 -0.551 -0.741 -0.887 -0.958 -0.914 -0.927 -0.876 -0.747 -0.667 -0.373 -0.1 0.077 0.326 0.585 0.835 1.024 1.269 1.547 1.799 1.976 1.978 1.951 2.031 2.031 1.976 1.868 1.886 1.851 1.981 1.988 1.833 1.868 1.888 1.786 1.793 1.798 1.843 1.878 1.893 1.783 2.038 1.861 1.571 1.878 1.983 2.101 1.881 1.658 1.791 1.923 2.011 1.871 1.866 1.816 1.818 1.858 1.993 1.918 1.996 1.998 1.891 1.878 1.911 1.828 1.781 1.838 2.038 1.938 1.938 1.883 1.928 1.938 1.956 1.853 1.823 1.996 1.943 1.986 1.988 1.996 2.003 2.008 1.971 1.881 1.918 1.903 1.971 2.023 1.996 1.971 2.163 1.916 1.893 1.961 1.891 1.823 1.701 1.848 2.051 2.061 2.008 1.806 1.743 1.863 1.978 1.953 1.936 1.811 1.776 2.018 1.993 1.866 1.931 1.933 2.011 1.966 1.843 1.736 1.921 2.093 1.926 1.901 1.913 2.026 2.001 1.928 1.883 1.776 1.851 1.881 1.986 2.036 2.043 1.953 1.921 1.926 1.871 1.816 1.755 1.6 1.239 0.9 0.812 0.555 0.189 0.006 2.068 -0.508 -0.706 -0.949 -1.115 -1.116 1.966 -1.306 -1.146 1.791 -0.934 -0.69 -0.488 2.003 1.931 1.946 1.981 1.976 2.041
-0.54 -0.526 -0.548 -0.568 -0.571 -0.611 -0.573 -0.588 -0.526 -0.557 -0.627 -0.619 -0.641 -0.63 -0.634 -0.634 -0.642 -0.58 -0.524 -0.622 -0.688 -0.593 -0.407 -0.428 -0.64 -0.628 -0.654 -0.476 -0.678 -0.626 -0.605 -0.642 -0.525 -0.586 -0.558 -0.581 -0.593 -0.638 -0.636 -0.602 -0.624 -0.642 -0.461 -0.373 -0.482 -0.672 -0.647 -0.659 -0.662 -0.695 -0.706 -0.699 -0.669 -0.643 -0.698 -0.711 -0.638 -0.742 -0.777 -0.793 -0.626 -0.659 -0.847 -0.87 -0.863 -0.674 -0.87 -0.894 -0.716 -0.756 -0.832 -0.825 -0.848 -0.813 -0.647 -0.538 -0.454 -0.686 -0.778 -0.911 -0.918 -0.881 -0.726 -0.884 -0.969 -0.954 -1.01 -0.901 -0.705 -0.96 -1.052 -1.072 -1.077 -1.301 -1.092 -1.015 -0.878 -1.133 -1.342 -1.341 -1.355 -1.144 -1.134 -1.373 -1.389 -1.15 -1.062 -1.142 -1.069 -0.906 -0.689 -0.554 -0.49 -0.432 -0.331 -0.16 -0.009 0.162 0.128 0.117 0.156 0.25 0.282 0.184 0.137 0.013 -0.15 -0.319 -0.393 -0.459 -0.531 -0.534 -0.451 -0.456 -0.496 -0.519 -0.551 -0.47 -0.377 -0.206 0.002 -0.024 -0.27 -0.514 -0.702 -0.908 -1.065 -1.123 -1.093 -1.138 -1.391 -1.713 -1.41 -1.194 -0.888 -0.664 -0.404 -0.178 0.056 0.372 0.573 0.559 0.439 0.29 0.25 0.283 0.337 0.346 0.467 0.627 0.54 0.541 0.435 0.457 0.544 0.569 0.643 0.77 0.943 1.088 1.237 1.402 1.512 1.635 1.756 1.933 1.777 1.555 1.386 1.208 1.11 0.851 0.614 0.494 0.361 0.224 0.148 -0.045 -0.287 -0.404 -0.495 -0.583 0.811 0.708 0.451 0.14 -0.158 -1.253 -1.415 -1.498 -1.077 -1.302 -1.559 -1.567 -1.323 -1.072 -0.815 -0.618 -0.387 -0.087 0.089 0.339 0.592 0.85 0.946 0.693 -1.283 -0.895 -0.737 -0.454 -0.264 -0.387 -0.453 -0.75 -1.022 -1.276 -1.525 -1.682 -1.758 -2.137 -2.09 -1.76 -1.52 -1.236 -1.024 -0.74 -0.451 -0.168 0.108 0.323 0.517 0.892 1.192 1.169 1.095 1.195 1.178 1.158 1.228 1.251 1.419 1.474 1.63 1.84 1.58 1.498 1.402 1.289 1.24 1.13 1.115 1.226 1.306 1.261 1.237 1.15 1.169 1.161 1.151 1.253 1.407 1.485 1.628 1.809 1.889 1.676 1.294 1.036 0.765 0.569 0.385 0.266 0.019 -0.187 -0.365 -0.556 -0.65 -0.713 -0.69 -0.703 -0.649 -0.545 -0.427 -0.206 0.057 0.274 0.48 0.736 0.828 1.122 1.382 1.667 1.935 2.048 2.006 1.948 2.026 2.083 1.921 1.858 1.851 1.953 1.911 1.818 1.766 1.868 1.846 1.706 1.746 1.786 1.801 1.838 1.858 1.856 2.018 1.868 1.793 1.928 2.018 1.956 1.803 1.811 1.898 2.018 1.951 1.808 1.816 1.866 1.913 2.021 2.058 1.963 1.918 1.956 1.968 1.921 1.916 1.803 1.851 1.968 2.048 1.866 1.843 1.866 1.926 1.921 1.941 1.873 1.963 1.991 1.983 2.038 2.038 2.008 2.036 2.028 1.911 1.848 1.923 1.961 2.031 2.076 2.083 1.976 1.986 1.848 1.901 1.838 1.826 1.711 1.818 1.976 1.988 1.928 1.873 1.823 1.801 1.868 1.933 2.036 2.043 1.821 1.841 1.891 1.993 1.798 1.968 1.958 1.931 1.963 1.831 1.908 2.078 2.166 1.978 1.863 1.958 2.031 1.923 1.883 1.823 1.778 1.866 1.936 1.968 1.973 1.998 1.948 1.948 2.008 1.931 2.031 2.026 1.517 1.828 1.851 0.919 0.628 0.313 1.958 -0.178 -0.445 -0.571 -0.836 -0.891 -0.87 -0.945 -1.001 -0.972 1.951 1.968 2.036 1.951 -0.239 -0.036 0.134 0.406 1.871 1.901
-0.446 -0.507 -0.567 -0.514 -0.575 -0.517 -0.49 -0.558 -0.491 -0.521 -0.573 -0.597 -0.623 -0.69 -0.579 -0.54 -0.564 -0.526 -0.578 -0.549 -0.588 -0.613 -0.581 -0.555 -0.45 -0.446 -0.627 -0.588 -0.595 -0.605 -0.621 -0.627 -0.626 -0.611 -0.614 -0.582 -0.6 -0.606 -0.596 -0.62 -0.625 -0.639 -0.629 -0.634 -0.381 -0.47 -0.642 -0.644 -0.671 -0.695 -0.674 -0.676 -0.637 -0.641 -0.665 -0.733 -0.615 -0.729 -0.728 -0.733 -0.621 -0.625 -0.8 -0.831 -0.833 -0.851 -0.9 -0.894 -0.672 -0.94 -0.98 -0.822 -0.636 -0.64 -0.461 -0.307 -0.295 -0.487 -0.577 -0.691 -0.7 -0.685 -0.558 -0.671 -0.721 -0.705 -0.749 -0.709 -0.883 -1.031 -1.248 -1.269 -1.048 -1.068 -0.986 -0.813 -0.824 -1.03 -1.108 -1.075 -1.119 -1.033 -1.062 -1.163 -1.355 -1.106 -0.905 -0.937 -0.891 -0.758 -0.555 -0.441 -0.293 -0.199 -0.097 0.077 0.095 -0.037 -0.118 -0.126 -0.061 0.059 0.052 0.185 0.34 0.179 0.011 -0.13 -0.173 -0.265 -0.316 -0.47 -0.621 -0.68 -0.737 -0.762 -0.771 -0.649 -0.523 -0.284 -0.145 0.061 -0.126 -0.337 -0.557 -0.694 -0.8 -0.874 -0.869 -1.175 -1.347 -1.67 -1.412 -1.206 -0.946 -0.647 -0.376 -0.135 0.056 0.328 0.543 0.761 0.6 0.542 0.519 0.56 0.591 0.582 0.641 0.773 0.814 0.73 0.651 0.713 0.859 0.865 0.995 1.066 1.176 1.27 1.431 1.584 1.783 1.926 1.966 1.986 2.031 1.719 1.557 1.381 1.274 1.107 0.867 0.74 0.663 0.515 0.403 0.286 0.027 -0.116 -0.272 -0.295 -0.408 0.639 0.415 0.136 -1.073 -1.217 -1.343 -1.465 -1.052 -1.183 -1.306 -1.295 -1.21 -1.018 -0.803 -0.561 -0.342 -0.131 0.087 0.35 0.637 0.764 0.833 0.578 0.45 1.943 -0.645 -0.401 -0.519 -0.597 -0.696 -0.719 -0.999 -1.291 -1.505 -1.762 -2.067 -2.098 -2.106 -1.786 -1.575 -1.319 -1.01 -0.753 -0.445 -0.208 0.045 0.302 0.517 0.84 1.151 1.247 1.397 1.465 1.369 1.421 1.442 1.504 1.705 1.755 1.939 2.005 1.78 1.792 1.651 1.57 1.574 1.507 1.48 1.418 1.455 1.488 1.387 1.326 1.315 1.341 1.308 1.495 1.578 1.678 1.861 1.956 1.898 1.822 1.445 1.163 0.858 0.678 0.593 0.403 0.164 0.004 -0.192 -0.285 -0.405 -0.461 -0.454 -0.498 -0.365 -0.274 -0.192 0.015 0.217 0.462 0.693 0.773 0.975 1.195 1.565 1.803 2.016 1.926 1.826 1.941 2.021 1.983 1.891 1.838 1.906 1.961 1.876 1.756 1.838 1.908 1.778 1.768 1.866 1.911 1.988 1.736 1.766 1.901 1.946 1.826 1.886 1.951 1.991 1.913 1.923 1.931 2.056 1.971 1.936 1.883 1.893 1.886 1.891 1.983 1.946 1.848 1.811 1.878 1.976 1.978 1.826 1.826 1.891 1.951 1.891 1.908 1.863 1.873 1.821 1.916 1.911 1.863 1.956 1.941 1.983 2.061 2.076 1.963 1.881 1.926 1.886 1.993 2.086 2.083 2.036 1.883 1.853 1.926 1.818 1.848 1.883 1.843 1.853 1.896 2.083 2.116 1.996 1.881 1.796 1.836 1.933 1.971 2.041 1.968 1.946 1.878 1.923 2.011 1.986 1.911 1.968 2.081 1.896 1.901 1.873 1.996 2.011 1.958 1.883 1.923 2.038 1.863 1.728 1.841 1.843 1.893 1.941 1.856 1.863 1.833 1.931 1.883 1.881 1.758 1.893 2.126 1.938 1.555 1.332 1.898 2.108 0.739 0.435 1.903 1.823 -0.294 -0.449 -0.615 -0.649 -0.632 -0.692 1.808 -0.702 -0.595 -0.466 -0.365 -0.225 -0.065 0.213 0.45 0.569 0.767 1.881
-0.424 -0.455 -0.534 -0.539 -0.51 -0.492 -0.452 -0.452 -0.478 -0.527 -0.509 -0.594 -0.593 -0.563 -0.599 -0.604 -0.601 -0.612 -0.57 -0.593 -0.592 -0.658 -0.648 -0.616 -0.62 -0.623 -0.622 -0.591 -0.56 -0.56 -0.618 -0.483 -0.565 -0.608 -0.613 -0.559 -0.586 -0.584 -0.577 -0.606 -0.619 -0.604 -0.613 -0.584 -0.588 -0.623 -0.627 -0.653 -0.643 -0.672 -0.647 -0.624 -0.582 -0.569 -0.616 -0.577 -0.585 -0.729 -0.746 -0.746 -0.621 -0.634 -0.641 -0.765 -0.798 -0.824 -0.857 -0.677 -0.67 -0.939 -0.896 -0.787 -0.609 -0.411 -0.275 -0.136 -0.125 -0.264 -0.364 -0.495 -0.545 -0.48 -0.333 -0.449 -0.494 -0.55 -0.676 -0.848 -0.957 -1.199 -1.234 -1.252 -1.049 -0.825 -0.797 -0.799 -0.787 -0.811 -0.888 -0.865 -0.87 -0.798 -0.842 -1.01 -1.089 -0.994 -1.027 -1.145 -1.025 -0.859 -0.733 -0.556 -0.414 -0.207 0.027 0.042 -0.123 -0.255 -0.398 -0.326 -0.259 -0.195 -0.169 0.024 0.213 0.361 0.18 0.1 0.006 -0.223 -0.427 -0.638 -0.79 -0.922 -0.962 -0.978 -0.935 -0.839 -0.614 -0.389 -0.265 -0.052 -0.023 -0.204 -0.371 -0.511 -0.584 -0.667 -0.87 -1.044 -1.228 -1.364 -1.267 -1.082 -0.905 -0.615 -0.368 -0.136 0.099 0.262 0.512 0.807 0.919 0.828 0.794 0.828 0.793 0.772 0.844 0.951 1.005 1.101 0.995 0.992 1.017 1.12 1.149 1.232 1.265 1.413 1.498 1.778 1.901 1.953 1.988 1.956 1.991 1.841 1.732 1.473 1.35 1.25 1.196 1.028 0.969 0.734 0.618 0.518 0.304 0.183 -0.052 -0.105 -0.192 -0.351 0.401 0.226 -1.032 -1.207 -1.3 -0.662 -0.841 -1.486 -1.518 -1.041 -1.01 -0.817 -0.674 -0.477 -0.307 -0.076 0.205 0.418 0.666 -1.178 -1.236 0.439 0.3 1.956 1.876 -0.595 -0.739 1.913 -0.967 -1.031 -1.021 -1.263 -1.442 -1.686 -1.762 -2.074 -1.833 -1.757 -1.477 -1.26 -0.999 -0.711 -0.496 -0.199 0.081 0.309 0.559 0.817 1.095 1.317 1.61 1.681 1.548 1.634 1.61 1.703 1.896 2.026 2.008 1.933 1.968 1.997 1.905 1.798 1.714 1.778 1.753 1.759 1.743 1.776 1.615 1.565 1.644 1.583 1.552 1.661 1.8 1.866 1.863 1.896 1.936 1.765 1.483 1.217 1.087 0.939 0.719 0.597 0.41 0.268 0.063 -0.045 -0.14 -0.157 -0.257 -0.193 -0.117 -0.019 0.09 0.285 0.435 0.55 0.708 0.923 1.166 1.366 1.688 1.932 1.948 1.888 1.848 1.921 1.933 1.981 1.881 1.898 2.003 1.953 1.793 1.931 1.876 1.881 1.836 1.881 1.913 1.848 1.861 1.778 1.853 1.898 1.838 1.798 1.948 1.981 1.966 1.808 1.813 1.981 2.076 2.086 1.911 1.918 1.901 1.916 2.003 1.923 1.891 1.826 1.851 2.001 1.978 1.803 1.741 1.913 1.951 1.961 1.863 1.811 1.833 2.031 1.951 1.873 1.836 1.851 1.896 1.946 2.053 2.081 2.066 1.958 1.848 1.728 1.876 2.081 2.078 1.963 1.863 1.828 1.876 1.901 1.808 1.791 1.998 1.906 1.903 1.928 2.116 2.008 1.856 1.791 1.861 1.961 2.046 2.113 2.041 1.911 1.806 1.823 2.001 1.991 1.941 1.906 1.928 2.013 1.856 1.873 1.853 1.858 2.006 1.911 1.841 1.996 1.858 1.763 1.698 1.948 1.973 1.946 1.948 1.953 1.866 1.826 1.993 1.978 1.931 1.871 2.003 1.921 1.768 1.569 1.484 1.268 1.049 0.783 0.537 1.853 1.773 -0.097 1.878 -0.268 2.008 -0.458 -0.566 -0.495 -0.395 2.036 -0.209 1.988 0.051 0.155 0.39 2.126 0.776 0.912 1.056
