ncols 448
nrows 32
xllcorner    463052
yllcorner    85410
cellsize     2
NODATA_value -9999
1.508 1.456 1.468 1.423 1.513 1.436 1.413 1.493 1.483 1.491 1.471 1.491 1.446 1.368 1.328 1.308 1.273 1.291 1.266 1.281 1.321 1.343 1.408 1.406 1.423 1.428 1.371 1.343 1.356 1.386 1.371 1.356 1.418 1.391 1.446 1.418 1.441 1.468 1.461 1.453 1.423 1.413 1.448 1.456 1.466 1.533 1.561 1.418 1.513 1.498 1.458 1.436 1.521 1.556 1.551 1.818 1.808 1.948 2.001 2.211 2.571 2.681 2.966 3.378 4.226 5.456 7.906 11.071 12.583 14.061 15.676 16.706 17.673 18.466 18.896 19.823 20.716 21.353 21.831 22.176 22.481 22.853 23.458 24.101 24.761 25.286 25.756 26.053 26.093 25.931 25.741 26.111 26.976 27.883 28.298 28.268 28.581 29.473 30.351 31.476 32.198 32.241 33.056 34.001 34.531 34.628 34.613 34.796 34.538 34.893 35.148 35.008 34.273 34.351 35.271 35.918 36.111 36.296 36.711 37.156 37.671 38.088 38.368 38.606 39.168 39.083 39.098 39.028 39.201 40.298 41.353 41.848 42.111 41.198 39.931 39.153 38.776 38.543 38.438 38.716 39.081 39.526 39.878 40.366 40.888 41.083 40.836 40.673 40.638 40.836 41.073 40.871 40.411 39.976 39.858 40.373 41.503 42.408 42.478 42.776 43.306 44.358 45.511 45.873 46.458 47.323 48.366 49.601 50.768 52.096 53.281 53.981 54.853 55.703 56.783 57.973 58.946 60.051 61.278 63.031 65.431 66.276 67.228 68.198 69.291 70.228 70.926 71.113 69.443 68.796 69.088 68.671 68.873 69.001 67.326 65.503 64.881 63.883 64.198 65.106 65.641 65.421 65.556 65.513 65.701 65.961 66.188 66.513 66.853 67.286 67.638 66.106 64.601 64.321 63.853 62.736 61.998 62.003 62.258 62.593 63.141 63.373 63.531 62.028 62.621 62.733 62.163 62.183 62.156 62.248 62.798 63.396 64.286 65.501 67.351 67.928 67.946 68.706 69.226 70.421 71.463 72.358 73.656 74.996 75.231 75.113 74.123 72.878 72.736 72.636 73.158 74.158 74.926 75.328 75.533 75.581 75.718 75.708 75.661 75.471 75.418 75.483 75.546 75.593 75.566 75.526 75.523 75.396 75.416 75.436 75.418 75.288 75.188 75.196 75.116 75.063 74.951 74.903 74.838 74.681 74.493 74.436 74.486 74.518 74.468 74.251 74.053 73.966 73.871 74.068 74.048 73.908 73.793 73.718 73.613 73.463 73.336 73.273 73.218 73.131 72.978 72.858 72.743 72.676 72.583 72.516 72.436 72.338 72.226 72.136 72.036 71.921 71.826 71.711 71.651 71.518 71.401 71.278 71.198 71.083 70.913 70.793 70.688 70.596 70.461 70.308 70.181 70.051 69.951 69.823 69.701 69.621 69.466 69.343 69.193 69.086 68.933 68.763 68.608 68.461 68.301 68.146 68.008 67.908 67.793 67.656 67.551 67.411 67.266 67.123 66.978 66.886 66.716 66.596 66.418 66.276 66.138 66.011 65.846 65.733 65.578 65.451 65.303 65.168 65.046 64.871 64.703 64.633 64.511 64.381 64.256 64.091 63.961 63.871 63.793 63.796 63.941 64.006 63.901 63.386 62.073 60.118 49.466 36.368 20.861 15.263 14.626 13.893 13.588 13.178 12.671 11.848 8.711 3.781 1.356 1.393 1.376 1.428 1.498 1.438 1.461 1.443 1.416 1.381 1.538 1.501 1.406 1.451 1.456 1.526 1.471 1.518 1.511 1.451 1.456 1.468 1.503 1.428 1.351 1.273 1.233 1.178 1.171 1.263 1.243 1.261 1.261 1.266 1.293 1.373 1.383 1.396 1.366 1.306 1.331 1.348 1.398 1.481 1.433 1.476 1.448 1.411 1.466 1.438 1.456 1.448 1.443 1.381
1.518 1.606 1.463 1.463 1.418 1.516 1.476 1.496 1.441 1.483 1.478 1.513 1.508 1.516 1.548 1.578 1.563 1.536 1.611 1.506 1.533 1.433 1.396 1.396 1.393 1.351 1.331 1.328 1.321 1.291 1.296 1.388 1.378 1.408 1.408 1.426 1.386 1.363 1.411 1.378 1.441 1.381 1.391 1.373 1.418 1.398 1.368 1.363 1.363 1.356 1.361 1.291 1.341 1.323 1.403 1.506 1.556 1.613 1.673 1.831 2.326 2.156 2.216 2.476 2.946 4.151 5.678 8.538 10.011 11.726 13.618 14.863 15.743 16.618 17.576 18.551 19.343 19.958 20.413 20.751 21.116 21.626 22.248 22.808 23.396 24.001 24.428 24.668 24.658 24.436 24.346 24.636 25.241 25.831 26.196 26.253 26.321 26.458 26.856 27.566 28.511 29.413 30.501 31.976 31.973 32.091 32.386 32.786 32.261 31.951 31.618 31.636 31.876 32.518 33.281 33.626 33.588 34.198 34.906 35.218 35.558 35.886 36.448 36.663 36.988 37.116 37.008 36.671 36.916 37.531 37.983 37.946 38.471 38.101 37.588 37.258 36.831 36.583 36.571 36.756 37.413 37.983 38.366 38.998 39.471 39.711 39.186 38.981 38.986 39.103 39.546 39.406 38.796 38.373 38.001 38.273 38.993 40.158 40.486 40.673 41.046 42.083 43.283 43.908 44.318 45.133 46.396 47.426 48.308 49.516 50.766 51.608 52.308 53.188 53.936 54.591 55.356 56.263 57.153 58.986 60.926 62.571 63.923 65.181 66.351 67.661 68.548 69.023 66.888 64.891 64.823 64.268 63.628 63.906 62.948 62.156 61.688 61.031 61.811 62.741 63.261 62.998 62.876 62.576 63.118 63.551 63.931 64.491 64.961 65.681 65.478 63.486 62.371 61.958 61.831 60.943 60.258 60.241 60.236 59.698 59.281 59.253 58.856 58.723 58.283 58.326 58.471 59.473 59.383 59.546 59.901 60.423 60.751 61.423 62.283 63.011 64.003 65.068 66.176 67.436 68.616 69.226 70.331 71.888 73.116 72.471 71.078 69.718 69.433 70.191 71.351 72.671 73.836 74.333 74.638 74.808 75.033 75.131 74.948 74.813 74.861 74.818 74.876 74.896 74.938 74.973 74.913 74.911 74.998 74.871 74.751 74.603 74.511 74.458 74.483 74.493 74.468 74.243 74.093 73.873 73.688 73.718 73.878 74.053 73.931 73.581 73.273 73.166 73.256 73.371 73.563 73.543 73.468 73.383 73.258 73.143 73.031 72.951 72.878 72.698 72.628 72.586 72.411 72.308 72.243 72.178 72.093 71.996 71.878 71.816 71.703 71.601 71.521 71.411 71.283 71.196 71.063 70.946 70.858 70.788 70.671 70.566 70.433 70.333 70.201 70.028 69.918 70.161 69.936 69.546 69.398 69.301 69.136 69.001 68.866 68.753 68.633 68.478 68.321 68.178 68.073 67.918 67.756 67.646 67.533 67.366 67.243 67.108 66.971 66.836 66.668 66.528 66.408 66.258 66.083 65.941 65.803 65.676 65.546 65.408 65.261 65.148 65.023 64.883 64.753 64.561 64.416 64.348 64.193 64.086 63.916 63.768 63.618 63.581 63.443 63.313 63.191 63.093 63.013 62.648 61.716 57.713 46.858 36.266 23.881 18.063 17.701 17.261 16.901 16.516 15.978 15.586 15.136 13.986 8.706 5.596 3.358 1.926 1.448 1.453 1.458 1.428 1.383 1.436 1.386 1.488 1.536 1.458 1.523 1.643 1.571 1.583 1.531 1.526 1.476 1.538 1.438 1.398 1.276 1.258 1.241 1.198 1.273 1.321 1.248 1.253 1.306 1.323 1.406 1.368 1.353 1.356 1.401 1.368 1.381 1.386 1.408 1.441 1.428 1.466 1.386 1.358 1.323 1.331 1.346 1.353 1.353 1.328
1.508 1.556 1.511 1.541 1.491 1.526 1.411 1.471 1.456 1.428 1.396 1.476 1.493 1.461 1.433 1.526 1.478 1.493 1.501 1.423 1.431 1.406 1.363 1.418 1.393 1.378 1.428 1.393 1.366 1.356 1.438 1.416 1.408 1.391 1.378 1.341 1.348 1.366 1.433 1.348 1.401 1.441 1.423 1.428 1.433 1.458 1.483 1.423 1.418 1.433 1.451 1.426 1.441 1.416 1.393 1.396 1.448 1.468 1.491 1.556 1.696 1.816 2.136 2.198 2.913 4.046 4.553 5.558 7.251 9.223 11.371 12.701 13.978 15.058 16.278 17.136 17.918 18.481 18.966 19.348 19.838 20.388 21.003 21.616 22.186 22.668 22.988 23.178 23.216 23.051 22.843 22.928 23.391 24.023 24.396 24.358 24.353 24.546 24.983 25.208 25.616 26.541 27.616 28.266 27.823 28.758 29.218 29.583 30.018 29.861 29.158 29.473 29.928 30.718 31.023 31.056 30.891 31.608 32.583 33.081 33.486 33.876 34.398 34.466 34.678 34.971 34.773 34.456 34.691 35.733 36.151 35.638 35.408 35.728 35.686 35.271 34.841 34.626 34.691 34.918 35.488 36.138 36.606 37.211 37.748 38.013 37.393 37.298 37.488 37.476 37.803 37.613 36.886 36.431 36.156 36.376 36.893 37.758 38.423 38.641 38.963 39.696 40.843 41.846 42.591 43.308 44.408 45.011 45.658 46.778 47.781 48.793 49.738 50.548 51.381 50.923 51.656 52.973 53.481 54.801 57.521 59.293 60.596 62.036 63.131 64.388 65.426 65.738 62.933 61.461 61.673 61.256 60.651 60.163 59.601 59.268 59.156 58.723 58.983 59.998 60.138 60.361 60.281 60.086 60.986 62.008 62.381 62.763 63.113 63.293 61.823 60.586 59.918 59.651 59.591 58.823 58.571 58.441 58.468 58.203 57.036 55.921 55.603 55.428 55.538 55.288 55.341 55.428 56.473 56.681 57.253 57.908 58.356 58.723 59.243 59.898 60.868 62.286 63.598 64.771 65.726 66.253 66.776 67.346 67.493 67.188 66.931 66.463 66.338 67.218 69.118 70.506 71.703 71.901 72.666 73.473 74.043 74.223 73.901 73.778 74.001 74.058 74.066 74.098 74.228 74.196 74.031 74.126 74.238 74.003 73.533 73.441 73.566 73.626 73.721 73.726 73.681 73.508 73.263 72.951 72.763 72.958 73.153 73.328 73.216 72.811 72.456 72.293 72.378 72.593 72.796 72.973 73.068 72.998 72.926 72.751 72.681 72.568 72.501 72.378 72.288 72.191 72.056 71.956 71.858 71.821 71.766 71.691 71.563 71.451 71.338 71.268 71.183 71.076 70.938 70.853 70.688 70.593 70.511 70.501 70.346 70.248 70.161 70.063 69.906 69.713 69.776 69.998 69.831 69.308 69.123 68.986 68.823 68.671 68.533 68.418 68.266 68.143 67.983 67.956 67.773 67.526 67.391 67.306 67.211 67.093 66.958 66.851 66.718 66.591 66.441 66.318 66.151 66.021 65.796 65.641 65.516 65.358 65.191 65.053 64.926 64.793 64.678 64.538 64.401 64.261 64.168 64.013 63.906 63.758 63.606 63.451 63.343 63.208 63.078 62.953 62.798 62.656 62.446 62.231 61.451 56.751 46.071 35.898 26.223 21.036 20.611 20.233 19.888 19.356 18.788 18.368 17.986 17.513 16.998 16.191 14.458 11.481 6.696 1.643 1.493 1.453 1.481 1.448 1.468 1.546 1.543 1.588 1.596 1.598 1.616 1.566 1.606 1.463 1.456 1.471 1.456 1.383 1.363 1.268 1.323 1.353 1.391 1.456 1.346 1.286 1.366 1.408 1.376 1.381 1.376 1.356 1.368 1.383 1.356 1.388 1.396 1.406 1.376 1.388 1.368 1.363 1.368 1.396 1.403 1.313 1.321 1.373
1.551 1.461 1.583 1.681 1.608 1.523 1.443 1.513 1.481 1.556 1.406 1.456 1.523 1.443 1.386 1.383 1.363 1.401 1.338 1.361 1.398 1.411 1.481 1.563 1.591 1.641 1.606 1.516 1.503 1.511 1.456 1.433 1.423 1.366 1.348 1.313 1.343 1.308 1.353 1.436 1.463 1.543 1.486 1.548 1.473 1.461 1.578 1.566 1.456 1.446 1.516 1.473 1.476 1.448 1.421 1.408 1.458 1.463 1.928 1.758 1.503 1.588 1.763 2.188 2.736 2.706 3.011 3.901 3.993 5.576 7.711 9.441 11.348 13.168 14.786 15.861 16.551 17.138 17.571 18.056 18.636 19.206 19.791 20.386 20.871 21.313 21.548 21.653 21.628 21.558 21.398 21.288 21.578 22.101 22.398 22.326 22.488 22.836 23.303 23.476 23.546 24.448 24.941 24.148 24.306 24.838 25.323 25.753 26.731 26.896 26.478 26.703 27.013 28.156 28.528 28.816 28.963 29.831 30.381 30.946 31.408 31.751 32.101 32.471 32.356 32.721 32.683 32.341 32.786 33.681 33.998 33.608 33.228 33.606 33.448 33.241 32.788 32.596 32.703 33.093 33.356 34.136 34.508 35.163 35.901 36.006 35.543 35.498 35.668 35.598 35.861 35.646 34.931 34.553 34.308 34.478 34.988 35.713 36.383 36.706 36.863 37.443 38.478 39.581 40.748 41.606 42.026 42.223 42.766 44.098 45.226 46.116 46.806 47.718 47.908 47.833 48.471 49.326 50.441 52.001 54.238 56.111 56.898 58.058 59.363 60.113 60.831 60.558 58.473 58.211 58.466 58.326 58.116 57.663 57.603 57.451 56.496 56.078 56.333 56.606 56.896 57.278 57.508 58.023 59.383 60.243 60.571 60.873 61.338 61.408 59.868 58.616 57.738 57.181 56.886 56.783 56.706 56.561 56.493 56.301 55.528 53.956 53.191 53.138 53.301 53.193 53.248 53.028 53.221 53.958 54.698 54.976 55.381 55.671 56.101 56.746 57.536 58.661 60.296 61.611 62.531 63.343 64.101 63.908 63.783 63.656 63.401 62.948 62.621 63.176 64.021 65.311 66.448 66.958 67.681 68.906 69.998 70.881 70.588 70.581 71.806 72.286 72.346 72.746 73.338 73.353 72.738 73.213 73.386 73.078 72.246 72.021 72.331 72.671 72.788 72.921 72.846 72.641 72.383 71.991 71.831 72.213 72.501 72.626 72.453 72.108 71.611 71.386 71.563 71.741 71.941 72.156 72.323 72.388 72.356 72.288 72.183 72.036 71.946 71.866 71.806 71.781 71.671 71.508 71.386 71.291 71.233 71.191 71.018 70.846 70.723 70.731 70.796 70.678 70.573 70.381 70.198 70.121 70.166 70.158 70.033 69.931 69.823 69.718 69.611 69.448 69.348 69.383 69.163 68.928 68.728 68.586 68.503 68.381 68.221 68.088 67.973 67.801 67.671 67.666 67.581 67.221 67.073 66.968 66.896 66.728 66.626 66.466 66.328 66.151 66.081 65.978 65.811 65.691 65.576 65.376 65.288 65.103 64.941 64.818 64.676 64.553 64.418 64.273 64.116 64.018 63.813 63.713 63.613 63.483 63.303 63.168 63.033 62.901 62.746 62.601 62.408 62.213 62.033 61.871 61.151 56.676 46.301 35.833 27.271 23.926 23.303 22.903 22.466 22.111 21.548 21.118 20.698 20.246 19.748 19.056 18.423 17.928 16.943 9.043 3.931 1.478 1.528 1.561 1.548 1.586 1.583 1.563 1.573 1.583 1.558 1.513 1.458 1.483 1.428 1.438 1.468 1.468 1.496 1.421 1.433 1.436 1.386 1.358 1.353 1.411 1.423 1.368 1.338 1.328 1.398 1.346 1.361 1.376 1.458 1.371 1.403 1.348 1.321 1.386 1.338 1.356 1.411 1.421 1.361 1.306 1.358 1.346
1.671 1.628 1.791 1.736 1.691 1.611 1.463 1.603 1.541 1.528 1.566 1.538 1.571 1.448 1.386 1.388 1.363 1.378 1.458 1.453 1.553 1.496 1.596 1.566 1.578 1.531 1.473 1.436 1.488 1.593 1.501 1.441 1.438 1.418 1.398 1.503 1.608 1.586 1.591 1.621 1.553 1.551 1.588 1.553 1.566 1.486 1.583 1.573 1.543 1.458 1.521 1.505 1.446 1.418 1.39 1.36 1.381 1.476 1.412 1.458 1.336 1.509 1.421 1.668 1.776 1.946 1.906 2.078 2.238 2.506 2.598 4.791 8.801 11.013 13.033 14.176 14.941 15.738 16.318 16.858 17.418 18.023 18.538 19.101 19.548 19.898 20.098 20.213 20.163 20.068 19.918 19.741 19.571 19.956 20.288 20.283 20.676 21.233 21.611 21.593 21.646 21.956 21.808 21.523 21.698 21.803 22.008 22.458 22.911 23.576 24.013 24.181 24.268 24.551 25.198 26.233 26.751 27.496 28.083 28.683 29.031 29.201 29.966 30.238 30.041 30.431 30.403 30.288 30.961 31.758 31.933 31.053 30.853 31.353 31.228 31.281 30.716 30.698 31.046 31.443 31.646 31.971 32.458 32.931 33.906 33.941 33.553 33.398 33.418 33.413 33.711 33.563 32.893 32.661 32.511 32.576 32.971 33.698 34.551 34.783 34.858 35.228 36.158 37.426 38.683 39.013 38.941 39.408 39.946 41.223 42.326 43.308 43.706 44.556 44.916 45.358 46.258 47.166 48.101 49.028 50.501 51.666 52.078 52.368 53.003 53.616 54.506 55.376 55.143 54.993 55.078 55.016 55.138 55.338 55.688 55.228 54.133 53.578 53.543 53.706 54.013 54.623 55.128 56.153 57.786 58.233 58.436 58.836 59.296 59.443 57.901 56.701 55.638 54.988 54.383 54.648 54.741 54.648 54.488 54.096 53.601 52.076 51.173 50.771 50.903 51.126 51.333 51.131 51.031 51.143 52.076 52.553 52.526 52.756 53.016 53.626 54.203 54.733 55.738 58.016 58.753 59.458 60.446 60.623 60.576 60.433 60.218 59.728 59.643 60.011 60.646 61.441 62.188 62.423 62.621 63.451 64.673 65.871 66.636 67.011 67.598 68.611 69.528 70.378 71.466 71.753 70.326 71.323 72.196 71.941 70.458 69.858 70.476 71.051 71.263 71.931 72.206 71.796 70.783 69.856 70.146 71.243 71.761 71.596 71.528 71.391 70.718 69.891 69.893 70.536 70.971 71.323 71.578 71.618 71.588 71.571 71.561 71.413 71.331 71.298 71.246 71.296 71.191 71.033 70.826 70.686 70.618 70.548 70.331 70.141 70.036 70.038 70.121 69.946 69.941 69.671 69.503 69.461 69.646 69.796 69.696 69.591 69.476 69.343 69.236 69.156 69.026 68.948 68.726 68.583 68.428 68.366 68.218 68.068 67.918 67.761 67.606 67.446 67.301 67.153 67.046 66.893 66.773 66.643 66.548 66.423 66.278 66.126 66.006 65.846 65.811 65.693 65.516 65.346 65.203 65.036 64.923 64.748 64.671 64.483 64.363 64.251 64.143 64.028 63.883 63.686 63.526 63.486 63.293 63.161 63.018 62.876 62.746 62.598 62.468 62.251 62.068 61.848 61.676 61.466 60.636 56.148 43.456 33.353 27.478 26.153 25.811 25.361 24.913 24.556 24.023 23.686 23.283 22.836 22.358 21.728 21.031 20.686 20.181 19.226 15.461 3.103 1.593 1.533 1.533 1.528 1.518 1.541 1.493 1.511 1.493 1.533 1.503 1.513 1.511 1.436 1.421 1.456 1.503 1.506 1.426 1.446 1.436 1.491 1.483 1.438 1.401 1.348 1.351 1.381 1.406 1.411 1.421 1.406 1.508 1.421 1.568 1.496 1.483 1.376 1.373 1.351 1.373 1.371 1.393 1.341 1.323 1.358
1.636 1.656 1.678 1.683 1.703 1.691 1.643 1.561 1.608 1.661 1.673 1.548 1.528 1.466 1.471 1.398 1.421 1.531 1.558 1.558 1.611 1.606 1.593 1.553 1.423 1.483 1.471 1.453 1.481 1.511 1.636 1.658 1.568 1.663 1.683 1.721 1.798 1.686 1.601 1.661 1.556 1.531 1.503 1.543 1.578 1.503 1.516 1.561 1.578 1.56 1.533 1.513 1.391 1.351 1.365 1.32 1.362 1.463 1.46 1.46 1.417 1.474 1.341 1.354 1.293 1.466 1.773 1.778 1.926 2.026 2.106 2.923 5.198 6.823 9.708 10.546 12.148 13.658 14.753 15.551 16.091 16.688 17.208 17.753 18.236 18.558 18.776 18.788 18.728 18.333 18.353 18.153 17.858 17.688 17.916 18.266 18.798 19.521 19.603 19.438 19.508 19.518 19.291 19.318 19.708 19.916 19.646 20.218 20.841 21.386 21.783 22.441 22.736 22.383 21.931 22.903 24.348 24.698 24.996 25.798 26.321 26.828 27.393 27.681 27.811 28.188 28.126 27.511 28.313 29.546 29.581 28.973 28.361 28.526 28.811 29.173 28.783 29.116 29.626 29.931 30.181 30.498 30.763 30.971 31.561 31.523 31.508 31.583 31.528 31.471 31.193 31.018 30.748 30.688 30.701 30.763 31.103 31.876 32.763 32.931 32.776 33.056 33.863 35.003 36.066 36.056 36.021 36.783 37.486 38.478 38.638 38.966 39.311 40.673 41.823 42.623 43.733 44.811 45.648 46.178 46.796 47.413 48.116 48.398 49.068 50.091 50.738 51.663 51.843 51.546 51.488 52.061 52.583 53.091 52.888 51.958 51.348 51.111 51.166 51.536 51.571 52.043 53.116 54.541 55.673 55.926 56.146 56.636 57.306 57.318 55.993 54.896 53.523 52.723 52.188 52.198 52.776 52.653 52.528 52.218 51.418 50.111 49.166 48.591 48.431 48.798 49.293 49.248 49.033 49.041 49.383 49.668 50.143 49.991 50.201 50.341 50.868 51.656 52.596 54.056 54.703 55.786 57.156 57.336 57.328 56.863 56.493 56.386 56.693 56.823 56.903 57.341 58.566 59.016 59.321 59.893 61.081 62.423 63.491 63.883 64.358 65.433 66.463 67.471 68.846 69.196 68.158 67.903 69.158 69.363 68.081 67.336 67.631 68.181 67.508 67.808 68.743 69.081 67.693 66.558 66.983 68.383 69.811 69.703 69.741 70.313 69.936 68.293 67.601 68.063 68.976 70.206 70.683 70.573 70.621 70.773 70.808 70.701 70.686 70.711 70.716 70.711 70.568 70.378 70.131 70.023 70.043 69.888 69.606 69.393 69.356 69.406 69.421 69.411 69.153 68.893 68.643 68.628 68.891 69.158 69.216 69.186 69.108 69.001 68.931 68.856 68.728 68.611 68.406 68.258 68.131 68.018 67.881 67.778 67.601 67.456 67.341 67.163 67.006 66.893 66.741 66.581 66.471 66.361 66.231 66.126 65.988 65.871 65.753 65.671 65.541 65.358 65.206 65.043 64.918 64.748 64.621 64.496 64.396 64.216 64.091 63.948 63.821 63.698 63.546 63.408 63.238 63.151 62.986 62.848 62.731 62.621 62.476 62.241 62.103 61.933 61.766 61.608 61.436 61.018 59.881 49.998 35.621 30.321 27.348 25.858 25.966 26.228 26.941 26.738 26.421 26.166 25.738 25.253 24.893 24.156 23.673 23.311 22.868 22.448 18.766 4.681 1.578 1.606 1.626 1.491 1.493 1.476 1.503 1.508 1.528 1.493 1.553 1.533 1.466 1.453 1.461 1.513 1.548 1.543 1.466 1.516 1.471 1.491 1.536 1.493 1.448 1.416 1.456 1.493 1.448 1.526 1.541 1.601 1.588 1.563 1.643 1.571 1.513 1.418 1.436 1.406 1.403 1.421 1.411 1.488 1.323 1.278
1.531 1.523 1.523 1.516 1.596 1.641 1.563 1.561 1.528 1.558 1.586 1.561 1.526 1.511 1.543 1.456 1.518 1.563 1.566 1.538 1.518 1.528 1.483 1.533 1.456 1.426 1.528 1.441 1.526 1.606 1.513 1.638 1.726 1.723 1.658 1.653 1.691 1.556 1.548 1.536 1.546 1.593 1.546 1.538 1.536 1.583 1.568 1.618 1.51 1.463 1.472 1.511 1.429 1.419 1.396 1.363 1.346 1.385 1.351 1.365 1.391 1.43 1.474 1.528 1.479 1.516 1.578 1.511 1.751 1.801 1.918 2.126 2.566 2.971 3.716 5.763 8.751 10.678 12.051 13.038 13.613 14.633 15.306 16.333 16.901 17.143 17.226 17.356 17.146 16.256 16.011 16.148 16.116 16.056 16.268 16.703 16.853 16.931 16.146 16.386 16.991 16.263 16.311 16.491 17.011 17.403 17.523 18.396 19.048 19.303 19.928 20.133 21.228 21.203 20.628 20.196 20.861 21.688 22.463 23.078 23.986 24.783 25.273 25.728 26.016 25.573 25.246 24.801 24.951 26.551 27.056 26.151 26.096 25.873 26.351 26.921 27.128 27.666 28.093 28.448 28.701 29.028 29.146 29.136 29.141 29.343 29.718 29.833 29.778 29.623 29.313 29.001 28.883 28.948 28.971 29.098 29.311 30.001 31.001 31.116 30.851 30.728 31.303 32.296 33.398 33.226 32.878 33.081 34.011 34.688 34.363 34.768 35.756 36.676 37.271 37.836 39.551 41.671 42.358 42.731 43.356 44.163 44.938 45.648 46.056 46.823 47.501 47.546 47.301 47.731 48.396 49.308 49.941 50.276 50.053 49.406 48.743 48.588 48.843 49.073 49.213 49.926 50.733 52.241 52.976 53.168 53.503 53.953 54.371 54.691 53.488 52.016 50.333 50.291 49.923 50.038 50.421 50.391 50.458 50.196 49.118 47.853 47.138 46.306 46.066 46.458 47.143 47.133 46.978 47.048 47.468 47.583 47.653 47.921 47.913 47.953 48.158 48.718 49.518 50.481 50.923 51.161 52.506 53.153 53.376 52.681 52.021 51.776 51.758 51.903 51.986 52.708 54.253 55.101 55.656 56.586 57.658 58.948 60.056 60.898 61.691 62.398 63.376 64.626 65.688 65.838 64.838 64.506 64.746 65.658 65.203 64.341 64.156 64.638 63.796 62.881 62.556 62.866 62.863 62.431 62.061 62.301 63.506 65.153 66.051 67.161 67.756 65.921 64.861 64.793 65.833 67.816 68.633 68.356 69.073 69.381 69.483 69.751 69.903 69.906 70.028 70.026 69.926 69.648 69.348 69.426 69.456 69.296 68.876 68.623 68.613 68.666 68.696 68.673 68.536 68.191 67.718 67.721 68.001 68.228 68.366 68.326 68.406 68.503 68.463 68.468 68.286 68.201 68.076 67.948 67.763 67.603 67.533 67.443 67.198 67.011 66.943 66.826 66.693 66.586 66.401 66.296 66.153 66.046 65.938 65.821 65.688 65.563 65.423 65.308 65.148 65.018 64.863 64.728 64.616 64.478 64.366 64.196 64.063 63.908 63.756 63.638 63.491 63.383 63.293 63.156 62.971 62.806 62.693 62.571 62.421 62.303 62.153 61.986 61.766 61.643 61.401 61.168 60.701 58.593 50.161 36.461 31.361 28.311 24.938 23.303 23.851 23.466 23.386 24.256 25.896 26.938 26.411 25.936 25.708 25.721 25.696 25.663 25.216 24.746 21.231 6.183 1.616 1.601 1.626 1.573 1.546 1.541 1.586 1.591 1.516 1.511 1.528 1.521 1.478 1.478 1.486 1.491 1.506 1.488 1.516 1.531 1.598 1.661 1.651 1.581 1.573 1.578 1.566 1.523 1.508 1.588 1.656 1.601 1.578 1.611 1.666 1.606 1.571 1.551 1.558 1.578 1.536 1.461 1.403 1.436 1.318 1.278
1.431 1.466 1.431 1.393 1.471 1.458 1.401 1.531 1.523 1.526 1.533 1.476 1.536 1.598 1.528 1.491 1.511 1.498 1.511 1.638 1.506 1.513 1.543 1.533 1.526 1.606 1.561 1.601 1.663 1.791 1.768 1.711 1.646 1.513 1.521 1.531 1.616 1.551 1.576 1.533 1.553 1.573 1.496 1.521 1.498 1.563 1.518 1.509 1.411 1.432 1.397 1.356 1.394 1.377 1.342 1.384 1.357 1.35 1.317 1.404 1.402 1.398 1.456 1.466 1.473 1.517 1.603 1.571 1.568 1.448 1.573 1.861 2.281 2.888 3.661 4.101 6.028 8.636 9.373 9.448 10.568 11.898 13.138 14.271 14.921 14.636 14.866 14.818 14.996 13.996 13.376 13.823 14.061 14.233 14.538 13.838 13.521 13.173 13.116 13.193 13.311 12.701 13.061 13.906 14.586 15.003 15.471 16.026 16.316 17.021 17.836 17.773 18.491 19.151 18.726 18.603 18.198 18.236 19.458 20.271 20.853 22.438 23.606 23.993 24.311 23.953 22.983 22.358 22.241 22.583 23.458 23.571 23.913 24.038 24.438 25.161 25.758 26.263 26.668 26.981 27.243 27.506 27.601 27.536 27.463 27.733 28.123 28.163 28.051 27.918 27.601 27.236 27.093 27.031 26.961 27.213 27.418 28.101 29.051 29.386 29.141 28.733 28.548 29.086 29.741 30.053 29.978 29.363 29.563 29.323 29.621 30.726 32.738 33.701 34.238 34.741 35.988 38.751 39.158 39.493 40.086 40.831 41.561 42.406 43.076 43.486 44.298 43.893 43.408 43.471 44.296 45.956 47.141 47.643 47.508 47.076 46.153 45.896 46.176 46.398 46.893 47.776 48.436 49.733 50.606 50.763 50.926 51.296 51.526 51.446 49.953 48.508 47.656 47.401 47.746 48.061 48.251 48.258 48.478 48.316 47.288 45.768 44.773 44.008 43.646 44.201 44.641 44.626 44.736 44.946 45.381 45.693 45.716 45.616 45.506 45.533 45.803 46.198 46.631 47.226 47.758 48.266 49.131 49.528 48.738 48.321 48.273 47.788 47.383 47.938 48.438 49.138 49.506 50.648 51.581 52.913 54.298 55.413 56.323 57.533 58.663 59.461 60.498 61.763 62.651 62.831 62.008 61.791 62.011 62.691 62.176 60.933 60.356 60.313 60.496 59.876 59.206 58.916 58.923 58.886 58.593 58.408 58.828 59.898 60.641 61.376 61.921 62.501 62.148 61.793 62.098 63.193 63.943 63.998 64.633 65.158 65.603 66.263 67.573 68.078 68.821 68.963 69.003 68.796 68.213 68.686 68.821 68.693 68.141 67.548 67.338 67.566 67.978 67.971 67.888 67.528 66.963 66.846 67.083 67.191 67.241 67.161 67.351 67.613 67.848 67.698 67.621 67.586 67.516 67.388 67.308 67.151 66.903 66.691 66.413 66.226 66.118 66.128 66.153 66.088 65.948 65.803 65.761 65.626 65.576 65.456 65.328 65.216 65.096 64.948 64.821 64.691 64.506 64.388 64.246 64.148 64.043 63.843 63.726 63.583 63.421 63.281 63.168 63.081 62.923 62.798 62.638 62.498 62.363 62.218 62.076 61.908 61.748 61.583 61.381 61.253 60.943 60.558 58.746 48.148 36.686 31.463 28.033 24.341 20.913 19.013 13.998 12.698 14.006 14.441 16.801 19.811 21.633 22.211 22.536 23.153 23.943 24.736 25.428 25.831 18.531 3.978 1.628 1.641 1.568 1.561 1.621 1.633 1.591 1.523 1.558 1.466 1.483 1.498 1.513 1.543 1.478 1.473 1.518 1.476 1.526 1.563 1.613 1.586 1.546 1.503 1.568 1.558 1.573 1.583 1.618 1.626 1.588 1.556 1.523 1.548 1.616 1.626 1.543 1.548 1.561 1.553 1.541 1.441 1.451 1.401 1.343 1.336
1.373 1.331 1.388 1.238 1.353 1.378 1.393 1.446 1.368 1.503 1.498 1.433 1.468 1.586 1.536 1.601 1.666 1.576 1.586 1.586 1.501 1.503 1.598 1.608 1.643 1.728 1.771 1.758 1.766 1.686 1.633 1.578 1.508 1.493 1.458 1.406 1.463 1.463 1.468 1.461 1.516 1.501 1.463 1.533 1.573 1.54 1.407 1.361 1.287 1.29 1.282 1.253 1.23 1.188 1.189 1.209 1.209 1.182 1.166 1.229 1.269 1.331 1.374 1.395 1.464 1.583 1.597 1.639 1.663 1.521 1.538 2.048 2.433 2.651 3.196 3.578 4.533 5.886 6.618 7.301 7.643 8.683 9.943 10.476 11.993 11.903 11.796 11.341 11.523 11.173 10.606 11.091 11.143 10.513 10.108 8.956 8.456 9.026 9.841 9.656 9.268 9.398 10.793 11.798 12.223 12.486 13.063 13.458 14.271 14.546 14.768 14.913 15.463 16.218 15.948 15.611 15.631 15.071 16.348 16.728 17.501 19.233 20.758 20.518 20.231 21.251 21.033 20.506 20.433 20.121 20.796 21.593 22.151 22.548 23.066 23.836 24.471 24.951 25.251 25.613 25.803 25.958 26.076 26.128 26.116 26.356 26.631 26.623 26.448 26.206 25.968 25.618 25.443 25.156 24.796 24.996 25.253 25.958 27.126 27.573 27.383 27.088 26.496 26.068 26.158 25.798 26.088 25.998 25.846 26.023 26.308 26.861 28.618 29.413 30.441 31.568 32.966 33.753 34.991 36.328 37.306 37.858 38.601 39.663 40.213 40.121 40.963 41.168 41.121 41.026 41.581 43.326 44.251 44.648 44.688 44.278 43.301 42.633 42.853 43.128 44.051 44.811 45.818 46.776 47.793 48.423 48.761 49.058 48.823 47.946 46.801 46.113 45.458 45.376 45.876 46.281 46.433 46.233 46.481 46.431 45.348 43.498 42.313 41.771 41.378 41.651 42.203 42.206 42.301 42.751 43.066 43.431 43.548 43.423 43.271 43.371 43.536 43.921 44.248 44.706 45.091 45.596 46.258 46.391 45.618 44.496 44.248 44.233 43.928 44.216 44.831 45.338 45.796 46.618 47.686 49.306 50.776 51.681 51.966 52.686 54.163 55.331 56.753 58.191 59.351 59.023 58.348 58.596 59.486 60.416 59.368 58.043 57.303 57.143 57.596 57.466 56.836 56.236 56.071 56.063 55.968 55.626 55.703 55.998 56.313 56.526 57.238 58.406 59.303 59.441 59.536 59.856 60.223 60.478 60.313 60.238 60.191 60.063 60.308 61.441 63.733 64.258 66.183 66.718 65.751 66.328 67.378 67.746 67.418 65.331 64.363 64.536 66.063 66.888 66.981 66.876 66.323 65.921 66.106 66.126 66.196 66.113 66.343 66.706 66.883 66.786 66.688 66.706 66.641 66.571 66.411 66.223 66.081 65.818 65.443 65.281 65.186 65.198 65.198 65.291 65.171 64.998 64.933 64.871 64.813 64.788 64.746 64.668 64.591 64.446 64.258 64.073 63.963 63.878 63.896 63.831 63.691 63.541 63.386 63.278 63.086 62.971 62.831 62.703 62.533 62.416 62.301 62.186 62.003 61.851 61.656 61.503 61.311 61.191 60.993 60.723 60.323 58.958 52.961 39.508 31.621 24.491 18.681 10.941 6.663 4.871 4.531 4.938 5.183 5.383 5.896 6.228 7.763 9.481 9.238 11.456 14.573 16.936 18.068 15.831 4.756 1.566 1.603 1.581 1.498 1.526 1.563 1.576 1.571 1.541 1.498 1.366 1.366 1.448 1.538 1.463 1.496 1.433 1.503 1.528 1.523 1.558 1.568 1.488 1.461 1.481 1.538 1.506 1.476 1.466 1.528 1.491 1.501 1.488 1.506 1.541 1.548 1.543 1.631 1.633 1.616 1.586 1.531 1.541 1.421 1.433 1.463 1.398
1.356 1.323 1.363 1.353 1.313 1.426 1.456 1.398 1.403 1.493 1.393 1.328 1.418 1.493 1.583 1.596 1.618 1.558 1.551 1.556 1.593 1.573 1.676 1.731 1.711 1.713 1.698 1.668 1.518 1.516 1.506 1.616 1.506 1.546 1.523 1.416 1.501 1.481 1.458 1.543 1.488 1.483 1.476 1.478 1.491 1.481 1.36 1.267 1.182 1.185 1.117 1.05 1.061 1.004 0.996 1.054 0.96 0.966 1.006 0.984 1.065 1.126 1.186 1.276 1.391 1.491 1.566 1.634 1.667 1.698 1.613 1.903 2.058 2.213 2.571 3.348 4.208 4.886 5.101 5.201 6.013 6.336 7.016 7.091 8.678 9.403 8.863 8.041 7.383 7.026 6.688 6.971 6.713 6.396 6.331 5.983 5.578 5.611 6.638 6.641 6.393 7.681 9.016 9.718 9.896 9.998 10.638 11.528 11.903 11.473 11.626 11.758 12.703 14.063 14.001 13.213 12.343 12.013 12.391 13.141 14.296 16.196 17.551 17.281 16.501 16.661 17.746 18.486 18.886 18.878 19.283 20.078 20.703 21.236 21.891 22.581 23.251 23.643 23.993 24.196 24.411 24.643 24.731 24.678 24.826 25.028 25.186 25.028 24.378 23.878 24.096 24.041 23.798 23.433 22.978 22.858 22.993 23.738 24.503 24.531 25.418 25.208 24.486 22.981 22.031 21.641 21.523 21.796 22.291 22.976 23.748 24.286 24.518 24.903 25.161 26.256 28.913 31.006 31.623 33.096 34.421 35.106 35.496 36.143 36.198 36.186 37.543 38.076 39.016 38.643 39.173 40.508 40.781 40.716 40.111 39.831 39.863 39.651 39.303 39.256 39.803 40.578 41.643 43.656 45.386 46.106 46.358 46.548 46.583 45.626 43.756 43.476 42.871 43.256 43.891 44.361 44.428 44.206 44.153 44.251 42.848 40.833 39.801 39.153 39.033 39.413 39.521 39.556 39.961 40.658 40.896 41.033 41.048 41.001 40.878 41.036 41.303 41.561 41.801 42.301 42.683 42.913 43.303 43.456 42.778 41.758 41.426 41.408 41.393 41.408 41.848 42.243 42.666 43.193 43.941 45.348 46.926 47.688 47.963 48.053 48.496 49.463 51.001 53.016 54.103 54.621 54.596 55.376 56.861 57.766 56.218 55.243 54.283 54.356 54.533 54.296 54.216 53.896 53.623 53.486 53.243 53.138 53.078 53.483 53.721 53.983 54.556 55.456 56.403 56.856 57.238 57.566 57.786 58.041 58.083 57.993 57.816 57.481 57.173 56.868 56.498 56.461 57.596 59.718 59.878 61.761 62.866 63.653 64.131 62.128 61.193 61.378 62.263 63.673 65.016 65.541 65.706 65.101 65.058 64.901 65.183 64.643 65.208 65.726 65.936 65.706 65.613 65.803 65.803 65.631 65.451 65.251 65.188 64.941 64.506 64.258 64.186 64.138 64.153 64.186 64.098 64.003 63.996 63.978 63.931 63.886 63.821 63.858 63.803 63.681 63.493 63.201 63.108 63.196 63.201 63.251 63.231 63.088 62.961 62.821 62.606 62.481 62.393 62.196 62.008 61.891 61.801 61.686 61.593 61.481 61.318 61.146 60.983 60.796 60.446 60.148 59.563 52.691 41.438 30.403 17.411 8.243 4.253 3.606 3.663 4.223 4.478 4.538 4.603 4.731 4.711 4.691 4.618 4.073 3.096 2.068 1.621 3.028 5.311 2.491 1.488 1.558 1.461 1.428 1.413 1.468 1.431 1.516 1.451 1.486 1.401 1.378 1.398 1.428 1.466 1.431 1.486 1.481 1.456 1.556 1.498 1.398 1.461 1.366 1.413 1.491 1.511 1.501 1.458 1.413 1.483 1.416 1.441 1.456 1.486 1.546 1.548 1.571 1.608 1.671 1.701 1.651 1.546 1.558 1.506 1.518 1.488 1.408
1.308 1.361 1.358 1.318 1.316 1.338 1.366 1.371 1.388 1.341 1.358 1.371 1.418 1.486 1.573 1.536 1.528 1.476 1.553 1.613 1.618 1.628 1.773 1.701 1.623 1.621 1.636 1.441 1.328 1.471 1.393 1.538 1.528 1.431 1.443 1.401 1.513 1.476 1.473 1.441 1.451 1.416 1.358 1.458 1.328 1.324 1.229 1.113 1.072 1.068 1.035 0.922 0.841 0.795 0.752 0.785 0.766 0.817 0.839 0.819 0.952 0.989 1.073 1.209 1.288 1.329 1.502 1.47 1.538 1.611 1.638 1.716 2.456 2.038 2.118 2.578 3.733 4.018 4.083 3.978 5.136 4.923 4.828 5.158 5.196 6.973 5.066 5.166 4.971 4.208 4.136 4.368 3.473 3.616 3.763 3.696 3.648 3.881 4.613 4.463 4.476 5.941 7.511 7.008 7.158 7.846 8.423 8.943 9.048 9.526 9.936 10.198 10.293 11.601 11.823 10.813 9.828 9.413 9.258 9.736 11.516 13.151 14.161 13.773 12.996 13.083 14.248 15.736 17.273 17.618 18.166 18.898 19.566 20.058 20.681 21.391 21.876 22.401 22.653 22.971 23.061 23.113 23.338 23.321 23.416 23.656 23.721 23.211 21.546 20.918 20.851 21.666 21.766 21.463 21.231 20.958 20.796 21.368 21.098 20.446 21.321 21.926 21.321 19.916 18.693 18.401 18.518 18.948 18.916 19.543 20.328 20.683 21.496 22.238 22.776 23.368 25.238 26.483 27.393 28.378 30.468 32.523 33.088 33.198 32.866 33.216 33.561 34.046 35.066 35.043 35.698 37.071 37.116 36.471 35.473 35.411 35.218 35.616 34.836 36.171 36.558 37.151 37.933 40.273 42.543 43.613 44.013 44.128 43.593 42.518 40.791 40.311 40.276 40.448 41.218 42.136 42.156 42.166 41.951 41.433 40.168 38.578 37.008 36.768 36.971 37.161 36.826 36.791 37.388 38.181 38.731 38.928 38.773 38.641 38.526 38.601 38.883 39.048 39.348 39.726 40.208 40.423 40.731 40.686 40.183 39.473 38.828 38.333 38.268 38.486 38.978 39.631 40.026 40.328 40.761 41.283 42.276 43.221 43.548 44.133 44.896 45.231 46.511 48.196 49.448 50.173 50.276 49.913 51.533 52.806 52.006 51.528 51.126 50.798 51.176 51.153 50.956 50.721 50.913 50.916 50.848 50.736 50.636 50.928 51.173 51.471 52.241 53.153 53.823 54.501 55.053 55.526 55.763 56.078 56.171 56.051 55.726 55.431 55.126 54.986 55.243 55.403 55.658 55.863 56.283 56.888 57.711 58.163 58.318 58.648 59.026 59.418 60.313 62.043 63.208 63.663 64.151 64.198 63.896 62.956 63.091 62.116 62.918 63.893 64.596 64.058 63.553 63.956 64.558 64.441 64.183 63.636 63.983 63.968 63.461 63.143 63.146 62.921 62.976 63.003 62.868 62.791 62.846 62.921 62.913 62.873 62.783 62.941 63.033 62.838 62.556 62.358 62.278 62.346 62.433 62.478 62.448 62.318 62.188 62.053 61.891 61.608 61.431 61.236 61.063 60.883 60.788 60.851 60.946 60.983 60.908 60.773 60.488 60.163 59.708 58.616 50.236 39.381 27.546 6.703 2.088 2.251 2.098 1.978 1.986 2.588 3.013 3.341 3.798 4.586 4.776 4.656 4.528 3.948 2.831 2.153 1.648 1.491 1.486 1.398 1.346 1.368 1.378 1.453 1.443 1.456 1.453 1.473 1.446 1.446 1.473 1.416 1.416 1.361 1.416 1.416 1.371 1.466 1.528 1.416 1.363 1.331 1.393 1.351 1.376 1.431 1.378 1.413 1.473 1.461 1.426 1.503 1.458 1.478 1.493 1.526 1.528 1.613 1.636 1.661 1.671 1.571 1.481 1.541 1.571 1.561 1.508 1.431
1.233 1.226 1.326 1.333 1.406 1.348 1.396 1.416 1.436 1.388 1.446 1.438 1.531 1.496 1.463 1.401 1.443 1.411 1.588 1.583 1.593 1.586 1.596 1.543 1.571 1.591 1.501 1.496 1.391 1.341 1.393 1.423 1.453 1.438 1.446 1.451 1.441 1.408 1.441 1.426 1.321 1.298 1.378 1.389 1.353 1.319 1.112 1.045 0.98 0.886 0.796 0.73 0.736 0.658 0.559 0.563 0.504 0.641 0.652 0.733 0.803 0.789 0.844 1.046 1.103 1.17 1.283 1.397 1.469 1.522 1.533 1.571 1.658 1.706 1.903 2.421 2.683 2.626 3.081 2.743 3.936 3.676 3.816 4.083 4.103 4.611 4.016 4.298 3.923 3.433 2.863 2.768 2.823 2.776 2.786 2.253 2.243 2.276 2.256 2.633 3.498 4.298 5.383 5.026 4.186 4.921 6.073 6.753 7.193 7.781 8.578 8.843 8.853 8.843 8.973 7.971 7.556 7.246 6.483 7.203 8.941 10.601 10.963 11.151 9.886 9.826 11.741 13.928 15.956 16.388 17.096 17.773 18.401 18.901 19.531 20.131 20.658 21.101 21.506 21.638 21.831 21.841 21.808 21.926 22.046 22.278 22.331 21.703 19.713 18.386 17.668 18.106 18.508 18.256 18.591 18.911 18.681 18.713 17.981 17.686 17.758 17.818 17.401 16.568 15.913 15.786 16.118 16.403 16.711 16.613 16.648 16.963 18.053 19.136 19.918 20.158 21.298 23.686 25.026 25.803 26.313 27.748 30.148 29.633 29.363 30.401 31.028 31.601 32.383 32.501 32.893 33.338 33.998 33.123 32.538 31.868 31.753 31.901 31.726 31.721 32.576 34.078 35.978 38.838 40.306 40.928 41.573 42.061 40.078 39.076 37.683 37.801 37.908 37.758 38.543 38.833 39.416 39.723 39.231 38.388 37.403 35.828 34.701 34.906 35.006 34.988 34.053 33.721 33.903 34.381 34.866 35.806 36.373 36.326 36.028 35.858 35.856 35.928 36.396 36.908 37.336 37.781 38.166 38.086 37.633 37.061 36.363 35.736 35.516 35.593 35.896 36.646 37.418 37.838 37.911 37.996 38.416 38.891 39.578 40.388 41.446 42.028 42.281 43.096 44.376 45.443 45.518 45.358 45.451 46.491 47.333 47.338 47.208 47.023 47.311 47.763 47.613 47.606 47.763 48.128 48.396 48.468 48.508 48.671 49.038 49.458 50.088 50.823 51.398 52.093 52.916 53.366 53.761 53.993 54.143 54.048 53.601 53.181 52.976 52.771 52.888 53.153 53.556 53.961 54.118 54.678 55.278 55.531 55.138 55.886 56.571 56.781 57.053 58.998 61.473 62.883 63.533 63.458 62.926 61.043 59.293 59.231 59.631 60.026 60.586 60.706 60.013 60.628 61.471 61.038 60.686 60.486 61.251 62.563 62.216 61.721 61.311 60.581 60.328 60.246 60.278 60.333 60.553 61.111 61.221 61.441 61.631 61.983 62.046 61.871 61.591 61.256 61.346 61.528 61.628 61.656 61.583 61.503 61.393 61.158 60.943 60.568 60.356 60.196 60.013 59.848 59.726 59.853 60.046 60.236 60.161 60.011 59.651 58.803 56.666 46.306 38.023 24.443 4.646 1.311 1.308 1.333 1.348 1.368 1.301 1.261 1.308 1.451 1.738 2.411 3.403 3.826 3.768 2.661 2.206 1.858 1.461 1.363 1.408 1.353 1.348 1.368 1.413 1.398 1.421 1.478 1.468 1.461 1.478 1.508 1.471 1.453 1.386 1.391 1.391 1.381 1.378 1.386 1.351 1.326 1.331 1.368 1.413 1.511 1.426 1.368 1.391 1.421 1.463 1.496 1.481 1.511 1.466 1.536 1.506 1.488 1.433 1.483 1.528 1.571 1.571 1.586 1.513 1.546 1.576 1.578 1.566 1.558
1.253 1.391 1.458 1.331 1.386 1.433 1.388 1.411 1.398 1.391 1.373 1.431 1.451 1.428 1.378 1.363 1.386 1.446 1.556 1.613 1.508 1.468 1.451 1.478 1.463 1.406 1.388 1.361 1.381 1.316 1.348 1.348 1.431 1.503 1.456 1.411 1.421 1.431 1.348 1.346 1.326 1.313 1.358 1.283 1.255 1.166 0.99 0.888 0.909 0.77 0.664 0.514 0.508 0.443 0.347 0.469 0.418 0.398 0.41 0.463 0.604 0.745 0.806 0.808 0.994 1.071 1.121 1.2 1.327 1.38 1.456 1.408 1.536 1.633 1.678 1.891 1.928 1.881 2.236 2.188 2.471 2.656 3.086 3.026 3.191 3.303 3.093 3.563 2.828 2.701 2.246 2.406 2.226 2.203 2.068 1.923 1.908 1.843 1.826 1.883 2.166 2.318 2.128 3.031 2.876 3.016 3.928 4.928 4.961 5.896 7.013 7.321 7.336 7.053 6.368 5.508 5.366 5.078 4.408 5.406 6.943 8.036 7.743 7.533 6.763 6.458 8.651 11.988 14.356 15.283 15.921 16.506 17.191 17.656 18.236 18.868 19.361 19.796 20.028 20.256 20.363 20.446 20.501 20.748 20.708 20.838 20.843 20.066 18.128 16.506 15.198 14.911 14.198 14.661 14.973 14.806 15.748 16.006 15.806 15.518 15.208 14.958 14.093 13.526 13.496 13.593 13.836 14.353 14.838 14.943 14.991 14.928 15.226 15.978 16.541 16.851 17.296 19.113 21.211 21.556 19.723 19.096 20.976 23.096 24.971 26.293 27.896 28.136 28.838 29.183 29.638 30.441 31.356 30.323 29.801 29.573 29.738 29.748 29.583 29.221 29.726 31.563 33.681 36.586 38.111 38.643 39.398 38.948 36.161 34.893 34.271 34.788 35.218 35.626 36.206 36.536 37.036 37.506 36.471 36.476 35.076 33.061 32.283 32.626 32.711 31.868 30.036 30.688 31.426 32.183 32.641 33.216 33.498 33.473 33.213 32.771 32.698 32.796 32.986 33.408 33.843 33.943 34.203 34.741 34.523 33.808 33.358 33.181 33.151 33.101 33.301 33.673 34.178 34.866 35.283 35.723 35.773 36.006 36.411 36.756 37.338 38.026 38.353 38.836 39.223 39.556 39.661 39.893 39.733 40.081 41.138 41.818 42.186 42.521 42.666 43.138 44.161 44.546 44.946 45.331 45.748 46.103 46.418 46.641 46.906 47.351 48.096 48.673 49.101 49.496 50.548 51.203 51.561 51.838 52.053 51.911 51.678 51.023 50.716 50.486 50.538 50.793 51.118 51.536 51.831 52.108 52.768 52.721 52.606 53.018 53.678 53.868 53.591 53.216 52.941 52.491 53.398 56.358 57.208 57.658 56.213 55.258 54.496 54.488 54.536 55.303 54.643 55.076 54.838 54.953 55.968 56.388 57.651 59.748 60.808 59.918 58.161 56.943 55.461 54.531 54.851 54.511 54.981 55.596 56.113 57.833 59.006 60.401 60.273 60.251 59.896 59.408 59.831 60.493 60.691 60.706 60.666 60.613 60.483 60.223 59.778 59.431 59.283 59.236 59.026 58.951 58.821 58.943 59.088 59.168 59.058 58.778 58.328 52.993 44.658 35.171 16.841 1.473 1.441 1.338 1.283 1.326 1.308 1.276 1.296 1.263 1.323 1.431 1.428 1.473 1.593 1.743 1.868 1.568 1.488 1.398 1.338 1.343 1.313 1.323 1.371 1.356 1.423 1.371 1.496 1.503 1.483 1.513 1.546 1.506 1.443 1.496 1.386 1.378 1.421 1.391 1.393 1.418 1.376 1.388 1.401 1.471 1.451 1.433 1.448 1.393 1.466 1.381 1.438 1.456 1.376 1.351 1.421 1.511 1.478 1.518 1.528 1.578 1.561 1.533 1.576 1.606 1.538 1.528 1.526 1.558 1.558 1.578
1.313 1.463 1.571 1.481 1.401 1.401 1.411 1.388 1.368 1.363 1.376 1.433 1.466 1.331 1.283 1.363 1.421 1.458 1.498 1.391 1.386 1.433 1.468 1.353 1.398 1.373 1.426 1.308 1.266 1.268 1.291 1.373 1.396 1.356 1.391 1.338 1.336 1.316 1.283 1.308 1.298 1.358 1.321 1.226 1.11 1.002 0.911 0.784 0.728 0.628 0.494 0.405 0.337 0.381 0.205 0.165 0.219 0.132 0.38 0.31 0.393 0.608 0.678 0.691 0.814 0.967 1.04 1.129 1.218 1.278 1.352 1.403 1.518 1.526 1.543 1.573 1.588 1.606 1.773 1.916 1.783 2.691 2.468 2.441 2.278 2.143 2.306 2.358 2.286 2.278 1.903 1.853 1.756 1.781 1.771 1.751 1.746 1.746 1.701 1.698 1.741 1.716 1.946 2.103 2.358 2.603 3.478 3.483 3.248 3.933 5.161 5.591 5.776 5.613 4.721 3.611 3.403 3.421 3.143 3.701 4.168 5.131 5.071 4.681 4.553 4.326 5.798 9.858 11.866 13.818 14.696 15.288 15.871 16.431 17.053 17.658 18.088 18.398 18.643 19.001 19.113 19.091 19.026 18.823 19.293 19.301 18.688 17.608 15.813 13.626 12.631 11.313 11.333 11.998 11.658 11.626 12.478 13.058 12.878 12.846 12.818 12.271 11.551 11.393 11.531 11.061 10.986 11.701 12.373 13.181 13.268 12.938 13.026 13.463 13.623 14.173 14.463 14.726 15.663 16.701 15.913 15.208 14.401 15.253 17.103 20.181 23.698 25.276 25.753 25.891 26.283 27.008 27.151 27.248 27.703 27.661 27.561 27.596 27.081 26.488 27.213 29.006 30.901 33.123 35.306 36.036 36.056 34.676 32.633 32.221 31.983 32.558 33.368 33.896 33.908 34.181 34.138 34.326 33.546 34.153 31.866 30.198 29.733 29.931 29.661 27.503 26.513 26.803 28.313 29.866 30.113 30.283 30.626 30.581 30.481 30.091 30.196 30.398 30.546 30.761 31.011 30.718 30.461 30.781 30.783 30.218 30.196 30.081 29.913 29.931 30.338 30.666 31.371 32.118 32.326 32.871 33.313 33.603 33.851 34.038 34.308 34.816 35.143 35.551 36.028 36.498 36.896 36.938 36.923 37.118 37.301 37.866 38.518 38.581 39.026 39.451 40.316 40.861 41.963 42.313 43.018 43.593 44.123 44.348 44.651 44.991 45.846 46.458 46.768 47.068 47.958 48.688 49.161 49.658 49.921 49.951 49.581 48.988 48.653 48.296 48.421 48.696 49.151 49.623 49.963 50.043 50.233 50.478 50.396 50.361 50.628 51.368 50.768 50.078 49.376 49.008 49.148 50.081 51.436 53.011 52.796 51.926 50.416 49.133 48.088 48.023 48.168 48.458 49.043 49.546 50.111 49.916 50.583 52.998 55.846 55.498 54.021 52.831 51.778 50.833 50.401 49.921 48.741 47.843 47.993 48.626 49.501 50.183 50.581 52.396 52.838 53.663 54.876 56.426 57.863 58.576 59.038 59.343 59.386 59.106 58.461 58.071 57.696 57.663 57.633 57.808 57.798 58.003 58.151 58.178 58.008 56.266 47.128 38.051 29.433 11.498 1.453 1.436 1.491 1.421 1.421 1.423 1.448 1.381 1.346 1.328 1.531 1.526 1.446 1.528 1.601 1.581 1.563 1.513 1.526 1.498 1.401 1.371 1.361 1.406 1.366 1.411 1.403 1.421 1.438 1.521 1.533 1.501 1.491 1.426 1.418 1.481 1.378 1.421 1.438 1.371 1.496 1.511 1.421 1.441 1.486 1.438 1.393 1.411 1.378 1.388 1.441 1.451 1.301 1.386 1.301 1.291 1.341 1.371 1.453 1.548 1.546 1.526 1.483 1.511 1.561 1.538 1.553 1.493 1.473 1.486 1.511 1.498
1.481 1.446 1.516 1.551 1.508 1.458 1.456 1.456 1.463 1.503 1.611 1.623 1.381 1.318 1.336 1.318 1.358 1.423 1.443 1.358 1.413 1.346 1.451 1.388 1.411 1.428 1.453 1.388 1.248 1.303 1.316 1.388 1.361 1.478 1.391 1.278 1.283 1.296 1.341 1.301 1.266 1.346 1.388 1.23 1.067 0.911 0.773 0.717 0.592 0.548 0.331 0.323 0.119 0.191 0.144 -0.019 -0.026 0.026 0.083 0.133 0.236 0.351 0.414 0.688 0.715 0.892 0.959 1.017 1.055 1.198 1.231 1.292 1.416 1.418 1.446 1.473 1.463 1.538 1.806 1.601 1.521 1.528 1.778 1.736 1.811 1.673 1.761 1.653 1.683 1.748 1.733 1.696 1.683 1.678 1.683 1.663 1.616 1.633 1.681 1.678 1.636 1.666 1.771 1.796 1.931 2.231 2.261 2.621 2.576 2.968 3.311 3.483 3.798 4.113 3.731 3.178 2.793 2.666 2.618 2.626 2.621 3.178 3.743 3.568 3.701 3.551 3.921 6.558 8.833 10.773 12.118 13.366 13.828 14.336 14.851 15.818 16.301 16.706 17.388 17.441 17.588 17.906 17.023 16.238 17.086 16.786 15.838 13.376 12.518 11.093 9.721 7.878 7.983 7.658 7.046 7.846 9.143 9.731 8.748 8.626 8.511 8.548 8.726 9.278 9.133 8.461 8.586 9.016 10.118 11.058 11.091 11.078 10.578 10.678 10.986 11.481 11.573 12.096 12.696 12.678 12.511 11.931 11.601 11.438 12.151 14.013 15.436 20.238 22.911 23.243 23.568 23.641 23.363 24.101 25.418 25.571 25.663 25.603 25.023 24.436 25.078 25.983 27.233 29.816 31.921 33.296 32.376 31.396 30.018 29.233 29.528 30.253 31.446 32.066 32.241 31.678 31.518 31.083 29.733 29.456 28.098 27.176 26.411 25.631 24.613 23.281 22.993 23.741 24.783 25.578 26.363 27.128 27.531 27.838 27.913 27.636 27.401 27.366 27.856 27.933 27.961 28.218 28.256 28.461 28.238 27.431 27.198 27.038 26.693 26.596 26.911 27.043 27.466 28.528 29.478 30.113 30.856 31.278 31.421 31.761 32.241 32.548 32.671 32.836 32.898 33.066 33.806 34.331 34.223 34.133 34.266 34.833 35.576 35.646 36.188 36.748 37.353 37.861 38.298 39.146 39.896 40.666 41.063 41.616 42.053 42.311 42.698 43.478 43.846 43.888 44.811 45.641 46.206 46.958 47.353 47.208 46.706 46.483 46.378 45.978 46.088 46.568 46.983 47.391 47.793 48.141 48.353 48.248 48.001 47.676 47.951 48.671 48.223 47.098 46.508 46.183 46.628 47.266 48.191 49.131 49.413 48.481 47.123 45.956 44.348 44.066 43.768 44.146 44.736 45.221 45.363 45.848 47.038 48.583 50.361 50.601 50.283 49.583 48.281 46.888 45.828 45.518 44.341 43.296 42.518 41.803 41.396 40.958 41.211 41.771 42.948 44.658 45.913 47.808 50.693 53.063 54.816 55.613 56.323 56.803 56.596 54.593 52.421 52.116 52.951 54.181 55.478 56.416 56.928 56.848 54.923 44.656 27.163 18.716 12.416 2.158 1.513 1.483 1.613 1.573 1.556 1.593 1.593 1.458 1.508 1.413 1.468 1.461 1.438 1.473 1.468 1.603 1.523 1.568 1.596 1.506 1.428 1.396 1.368 1.466 1.491 1.456 1.531 1.568 1.568 1.563 1.493 1.411 1.393 1.431 1.423 1.346 1.403 1.411 1.403 1.366 1.408 1.463 1.511 1.468 1.448 1.468 1.343 1.386 1.363 1.323 1.328 1.368 1.346 1.318 1.371 1.371 1.381 1.361 1.373 1.421 1.538 1.493 1.458 1.378 1.396 1.456 1.488 1.521 1.621 1.541 1.528 1.548
1.586 1.578 1.596 1.596 1.558 1.526 1.506 1.558 1.526 1.521 1.428 1.371 1.323 1.331 1.323 1.436 1.398 1.401 1.286 1.433 1.346 1.411 1.368 1.423 1.436 1.378 1.358 1.418 1.421 1.298 1.288 1.381 1.301 1.358 1.276 1.286 1.308 1.323 1.356 1.461 1.401 1.366 1.38 1.174 1.031 0.817 0.738 0.624 0.477 0.429 0.221 0.128 0.118 0.028 -0.098 -0.132 -0.185 -0.04 -0.084 0.028 0.153 0.173 0.261 0.5 0.665 0.724 0.924 0.939 0.984 1.063 1.098 1.197 1.363 1.443 1.381 1.388 1.391 1.473 1.496 1.451 1.473 1.453 1.461 1.531 1.518 1.488 1.571 1.543 1.526 1.518 1.766 1.426 1.563 1.656 1.553 1.551 1.501 1.533 1.531 1.546 1.571 1.581 1.618 1.663 1.726 1.798 1.951 2.226 2.176 2.426 2.561 2.628 2.821 2.866 3.043 2.733 2.268 2.203 2.086 2.088 2.093 2.161 2.346 2.986 3.171 3.253 3.788 4.756 6.983 8.103 9.183 10.326 11.166 11.606 12.261 13.431 13.251 14.021 15.238 14.901 15.431 16.088 14.638 13.756 13.196 12.358 11.386 10.016 9.003 7.671 6.853 5.086 5.053 4.611 4.231 4.861 6.841 7.013 5.816 5.686 5.391 5.588 5.633 6.463 6.516 6.416 6.451 6.731 7.478 8.843 9.516 9.401 8.483 8.081 7.458 7.708 7.936 8.781 9.203 9.021 9.171 9.416 9.536 9.981 10.453 11.098 12.166 15.038 17.278 18.753 19.696 20.406 19.878 19.386 19.843 20.533 21.803 23.278 22.436 22.396 22.913 23.336 23.846 24.493 25.326 27.241 26.503 26.726 26.346 25.556 26.206 27.336 28.333 29.251 30.123 29.183 28.883 28.196 26.368 25.558 24.748 23.376 21.853 21.086 20.146 19.761 20.123 21.251 22.116 22.886 23.216 23.583 23.916 24.543 22.036 20.378 20.683 19.811 22.148 23.823 23.361 25.056 25.663 25.291 24.786 25.031 25.046 23.998 23.046 22.446 22.566 23.396 24.036 25.951 26.483 26.908 27.776 28.231 28.673 29.206 29.998 30.208 30.251 30.313 30.336 30.773 30.766 30.391 30.281 30.521 30.598 30.338 30.711 31.531 32.016 32.876 33.806 34.256 35.138 36.081 36.803 37.338 37.673 37.798 38.071 38.621 38.993 38.471 37.953 38.013 38.923 39.216 41.883 43.328 44.501 44.613 43.971 43.736 43.771 43.536 43.533 43.803 44.276 44.546 44.871 45.708 46.251 46.183 45.723 45.041 44.628 44.223 43.961 43.606 42.811 43.046 43.496 44.278 45.071 45.911 46.123 44.818 43.526 41.811 40.531 39.898 39.466 38.958 39.136 40.181 41.118 41.863 43.791 46.158 46.578 46.528 47.001 46.553 45.658 44.498 43.011 42.476 42.086 40.856 40.008 39.643 39.243 38.696 38.366 38.386 38.538 39.033 39.906 40.746 42.541 44.528 46.848 48.396 48.731 49.166 48.513 47.091 45.873 45.436 46.461 47.388 46.568 47.203 49.068 50.656 40.398 24.946 12.258 9.826 5.791 1.511 1.498 1.648 1.756 1.703 1.671 1.693 1.616 1.636 1.658 1.516 1.528 1.538 1.428 1.461 1.433 1.588 1.581 1.558 1.513 1.501 1.533 1.526 1.546 1.486 1.491 1.608 1.573 1.551 1.553 1.506 1.506 1.423 1.413 1.421 1.346 1.386 1.361 1.378 1.351 1.386 1.413 1.421 1.416 1.386 1.366 1.336 1.328 1.351 1.343 1.366 1.323 1.271 1.308 1.316 1.383 1.406 1.458 1.403 1.486 1.506 1.498 1.428 1.396 1.406 1.443 1.401 1.426 1.458 1.483 1.531 1.506 1.513
1.546 1.658 1.643 1.536 1.541 1.486 1.483 1.506 1.566 1.631 1.611 1.436 1.386 1.406 1.386 1.526 1.533 1.491 1.376 1.443 1.346 1.401 1.408 1.423 1.451 1.516 1.381 1.346 1.356 1.333 1.286 1.273 1.198 1.268 1.268 1.263 1.331 1.331 1.441 1.568 1.498 1.536 1.318 1.192 1.01 0.801 0.718 0.565 0.443 0.297 0.143 0.089 0.032 -0.085 -0.184 -0.236 -0.406 -0.185 -0.132 -0.032 0.143 0.158 0.141 0.331 0.498 0.732 0.796 0.913 0.948 1.015 1.092 1.243 1.311 1.283 1.376 1.378 1.408 1.428 1.436 1.463 1.461 1.458 1.358 1.348 1.453 1.436 1.488 1.491 1.461 1.378 1.408 1.336 1.348 1.453 1.433 1.488 1.488 1.436 1.438 1.466 1.461 1.531 1.533 1.581 1.608 1.663 1.693 1.876 1.828 1.903 1.981 2.123 1.911 2.251 2.296 2.193 1.856 1.878 1.823 1.938 1.826 1.903 2.243 2.848 2.718 3.006 3.468 4.443 5.578 6.581 7.236 8.221 9.101 9.561 9.498 10.433 10.663 10.911 11.771 11.776 12.748 12.961 10.993 10.868 9.918 9.418 7.931 5.963 5.603 5.086 4.556 3.853 3.711 4.066 3.303 3.163 4.211 4.821 3.808 2.938 3.243 4.458 4.726 4.793 5.768 5.456 4.506 4.793 5.481 6.753 7.636 7.836 6.601 5.583 5.378 5.203 5.241 5.338 5.498 5.768 6.738 7.643 8.086 8.638 9.363 9.441 10.188 12.331 14.006 14.883 15.563 15.916 15.393 15.606 16.193 16.976 17.263 18.491 19.166 20.073 20.863 21.388 21.916 22.421 22.518 22.551 22.501 22.668 22.711 22.331 22.541 23.433 24.151 25.096 25.993 25.796 26.536 26.011 23.891 23.163 22.536 20.633 18.586 17.346 16.588 17.068 17.751 18.391 18.728 19.518 20.336 19.068 11.723 11.608 11.883 12.268 12.933 14.173 15.226 15.988 16.371 17.218 20.783 21.376 21.483 22.021 21.428 19.961 19.191 18.818 18.273 18.701 18.733 18.523 20.241 22.228 23.426 24.606 25.058 25.083 25.893 26.641 26.641 26.816 26.771 27.718 27.741 27.291 27.473 27.441 26.998 27.233 27.633 27.991 27.931 28.448 29.403 29.956 30.143 31.086 31.373 32.291 32.386 32.808 33.971 34.518 35.343 35.501 34.946 34.781 34.973 35.636 36.281 37.708 38.898 39.516 39.623 39.648 39.616 39.638 39.996 40.443 40.658 41.193 41.691 41.961 42.316 43.183 43.301 42.411 41.766 41.643 41.371 40.686 39.591 39.566 39.986 40.353 40.726 40.851 41.046 40.283 39.393 38.301 36.971 35.626 35.341 35.016 34.606 34.961 36.111 37.178 38.483 40.536 40.781 40.953 41.891 43.178 43.836 43.223 41.666 39.538 38.646 37.561 36.778 36.441 36.573 36.248 36.208 35.741 36.243 36.593 37.186 37.998 38.918 39.973 40.708 41.098 40.903 40.528 40.213 40.868 40.993 40.903 40.733 40.691 41.321 41.956 42.746 41.061 22.853 9.771 7.268 6.268 2.408 1.541 1.661 1.721 1.731 1.688 1.598 1.613 1.651 1.538 1.638 1.643 1.531 1.463 1.506 1.478 1.501 1.561 1.511 1.523 1.446 1.446 1.491 1.578 1.581 1.633 1.541 1.528 1.531 1.506 1.528 1.526 1.496 1.426 1.376 1.358 1.328 1.333 1.411 1.386 1.373 1.423 1.523 1.391 1.386 1.328 1.323 1.311 1.323 1.308 1.338 1.393 1.336 1.343 1.443 1.448 1.443 1.471 1.428 1.453 1.528 1.493 1.428 1.428 1.426 1.456 1.418 1.376 1.388 1.423 1.443 1.441 1.421 1.483
1.516 1.593 1.541 1.528 1.536 1.531 1.661 1.513 1.636 1.516 1.596 1.476 1.448 1.463 1.543 1.516 1.573 1.496 1.421 1.396 1.423 1.433 1.443 1.418 1.438 1.476 1.406 1.366 1.353 1.313 1.293 1.386 1.276 1.276 1.291 1.301 1.361 1.361 1.418 1.476 1.501 1.506 1.313 1.112 0.911 0.774 0.674 0.541 0.37 0.221 0.094 0.056 -0.101 -0.218 -0.377 -0.453 -0.546 -0.465 -0.33 -0.203 -0.047 0.037 0.081 0.266 0.429 0.538 0.636 0.982 0.961 1.061 1.228 1.232 1.258 1.331 1.338 1.326 1.386 1.323 1.411 1.453 1.376 1.443 1.383 1.308 1.333 1.376 1.313 1.238 1.341 1.431 1.371 1.321 1.298 1.331 1.363 1.323 1.388 1.296 1.286 1.348 1.356 1.483 1.486 1.523 1.476 1.498 1.491 1.526 1.516 1.618 1.746 1.951 1.936 1.951 2.646 1.918 1.806 1.733 1.741 1.653 1.666 1.661 2.608 2.456 2.288 2.393 3.191 4.286 4.566 5.646 5.778 5.951 6.591 6.986 7.158 6.801 7.411 7.138 7.131 7.643 8.403 8.168 7.333 6.548 5.996 5.968 5.223 4.291 3.996 3.803 3.136 2.826 2.573 2.878 2.903 2.681 2.126 2.313 2.266 2.056 2.166 3.691 4.383 4.166 5.128 4.921 3.143 3.436 4.378 6.063 6.281 4.953 4.076 3.718 3.648 3.358 3.401 3.356 3.626 4.878 5.333 6.128 7.268 6.933 7.096 7.056 7.723 9.138 10.616 11.823 12.306 12.806 12.898 13.443 14.023 14.583 14.951 15.758 16.581 17.536 18.318 19.093 19.721 20.318 20.256 19.858 19.631 19.673 19.591 19.471 19.981 20.878 21.373 21.673 23.123 23.681 23.986 23.126 22.063 21.213 20.293 18.426 16.708 15.373 14.341 13.948 14.848 15.806 15.638 15.968 15.726 10.211 7.696 8.088 7.841 7.553 7.908 8.556 8.113 10.298 11.056 12.313 13.283 14.246 16.091 16.586 15.566 14.948 14.548 14.078 13.611 14.148 14.058 14.168 14.913 14.663 16.923 17.121 19.496 21.066 22.083 22.956 23.121 23.561 23.718 23.726 24.143 24.076 24.093 23.998 23.876 24.246 24.778 25.356 25.941 26.483 27.171 27.603 27.803 27.958 28.201 28.148 27.886 27.496 27.356 28.001 29.386 29.863 30.616 30.786 31.028 31.986 33.021 34.181 35.363 36.021 36.431 36.466 36.661 36.998 37.138 37.343 37.533 37.421 37.548 37.506 37.263 37.663 38.151 38.098 37.871 37.643 37.493 37.256 36.678 36.318 36.038 35.666 35.471 35.273 35.113 35.083 35.031 34.453 33.143 31.936 31.836 31.973 31.893 32.011 32.273 32.718 33.383 34.256 35.263 36.396 37.093 39.096 39.733 39.526 37.946 36.121 34.891 34.236 33.518 33.298 32.941 32.688 32.936 32.813 32.928 33.406 33.936 34.801 35.471 36.896 38.041 38.856 38.781 38.106 37.658 37.548 37.588 37.443 37.513 37.258 37.571 38.831 37.256 27.491 3.706 2.871 2.671 1.983 1.626 1.601 1.706 1.783 1.671 1.661 1.593 1.568 1.568 1.531 1.551 1.591 1.528 1.483 1.496 1.466 1.556 1.536 1.486 1.558 1.561 1.533 1.583 1.568 1.626 1.623 1.616 1.573 1.593 1.553 1.551 1.556 1.533 1.498 1.476 1.491 1.458 1.331 1.341 1.386 1.396 1.406 1.323 1.386 1.351 1.288 1.363 1.353 1.366 1.326 1.401 1.363 1.326 1.383 1.518 1.443 1.391 1.428 1.356 1.356 1.328 1.401 1.366 1.381 1.408 1.481 1.463 1.503 1.351 1.461 1.433 1.383 1.408 1.416
1.613 1.528 1.588 1.613 1.521 1.486 1.481 1.516 1.521 1.423 1.536 1.518 1.563 1.556 1.496 1.508 1.541 1.606 1.428 1.388 1.403 1.471 1.441 1.411 1.383 1.363 1.386 1.328 1.376 1.378 1.428 1.386 1.428 1.446 1.406 1.393 1.416 1.421 1.523 1.488 1.488 1.458 1.319 1.135 0.887 0.711 0.618 0.43 0.289 0.171 0.05 -0.087 -0.231 -0.334 -0.454 -0.632 -0.6 -0.522 -0.588 -0.27 -0.315 -0.111 0.114 0.198 0.342 0.38 0.661 0.848 0.938 1.109 1.25 1.345 1.401 1.376 1.311 1.308 1.348 1.341 1.408 1.541 1.433 1.321 1.343 1.298 1.281 1.203 1.211 1.271 1.356 1.358 1.308 1.246 1.256 1.266 1.228 1.226 1.286 1.293 1.281 1.256 1.191 1.391 1.358 1.383 1.393 1.403 1.421 1.416 1.638 1.706 2.008 1.863 1.786 1.816 1.763 1.518 1.563 1.686 1.573 1.751 1.553 1.538 1.598 1.926 1.606 2.178 3.063 3.338 3.353 3.916 4.866 5.218 5.043 5.648 5.766 5.636 5.361 5.423 5.878 6.081 6.156 6.276 5.723 5.176 4.483 4.548 4.488 4.033 3.401 2.878 2.593 2.226 1.991 2.508 2.711 2.216 1.753 2.006 1.878 1.916 1.943 3.288 3.293 3.133 2.901 2.573 2.423 3.021 3.303 4.916 5.163 3.236 3.123 3.036 2.563 2.526 2.766 3.046 3.143 3.926 4.161 4.428 5.783 5.708 5.618 4.941 4.558 5.241 6.126 6.481 7.611 9.181 10.641 11.336 11.868 12.668 13.383 13.873 14.391 15.178 15.838 16.621 17.393 17.886 18.046 17.383 16.918 16.598 17.003 18.021 18.901 19.368 19.331 19.021 19.686 20.308 20.636 20.293 20.021 18.233 17.471 16.903 15.543 13.806 12.533 10.696 10.878 11.401 10.971 10.568 5.606 4.373 3.603 3.531 3.341 2.131 2.571 2.441 1.671 1.503 3.508 3.871 4.996 6.248 7.288 10.153 10.773 10.631 10.341 10.216 10.016 9.893 9.806 9.953 10.441 10.503 10.328 10.521 11.518 15.271 17.488 17.578 17.443 17.481 19.286 18.598 19.311 19.561 19.886 20.796 21.046 21.271 21.778 22.178 23.811 23.991 24.613 25.273 25.441 25.776 26.186 25.861 25.461 24.626 24.708 25.286 25.983 26.723 27.068 27.348 27.873 28.278 28.856 30.168 30.726 30.901 31.133 32.408 32.931 33.793 33.913 34.251 34.713 34.898 34.651 34.546 34.601 34.821 34.816 34.883 34.851 34.628 34.626 34.443 33.956 33.653 33.061 31.901 31.278 31.296 31.393 31.476 31.166 30.221 29.646 29.431 29.316 29.141 28.951 28.791 29.446 29.633 29.696 29.891 30.521 31.078 31.416 32.863 34.356 34.571 34.168 32.956 31.816 30.808 29.913 29.731 29.231 28.941 28.878 28.783 29.036 29.846 30.638 31.496 32.366 33.488 34.956 35.566 35.596 34.528 33.231 32.716 32.933 33.083 33.148 30.366 28.021 17.358 13.188 1.416 1.476 1.528 1.423 1.441 1.513 1.588 1.628 1.646 1.631 1.668 1.583 1.551 1.541 1.633 1.623 1.673 1.628 1.546 1.481 1.493 1.541 1.541 1.526 1.498 1.493 1.483 1.608 1.601 1.623 1.531 1.596 1.626 1.693 1.676 1.623 1.696 1.591 1.578 1.566 1.523 1.516 1.453 1.426 1.438 1.373 1.411 1.351 1.363 1.386 1.423 1.416 1.423 1.438 1.408 1.348 1.378 1.426 1.443 1.463 1.473 1.413 1.433 1.403 1.398 1.396 1.368 1.353 1.346 1.396 1.406 1.321 1.358 1.311 1.336 1.373 1.351 1.361 1.396
1.603 1.496 1.556 1.516 1.558 1.498 1.503 1.538 1.573 1.533 1.506 1.518 1.486 1.551 1.448 1.566 1.408 1.408 1.446 1.408 1.428 1.383 1.408 1.331 1.356 1.421 1.371 1.296 1.413 1.393 1.403 1.471 1.558 1.548 1.558 1.636 1.543 1.541 1.626 1.533 1.503 1.511 1.353 1.132 0.916 0.792 0.716 0.556 0.407 0.197 0.046 -0.132 -0.235 -0.402 -0.568 -0.688 -0.887 -0.864 -0.673 -0.512 -0.385 -0.172 0.068 0.161 0.231 0.461 0.715 0.986 1.029 1.056 1.344 1.398 1.393 1.378 1.281 1.408 1.211 1.366 1.356 1.391 1.381 1.281 1.291 1.276 1.298 1.246 1.323 1.338 1.383 1.286 1.363 1.281 1.303 1.248 1.276 1.296 1.273 1.241 1.276 1.176 1.161 1.186 1.176 1.348 1.396 1.383 1.306 1.336 1.386 1.326 1.376 1.426 1.526 1.496 1.431 1.433 1.381 1.363 1.341 1.421 1.376 1.393 1.486 1.483 1.463 1.828 2.248 2.278 2.343 3.588 4.208 4.546 4.266 4.591 4.333 4.043 4.573 4.396 4.691 4.693 4.911 5.358 4.753 4.106 3.588 3.436 3.363 3.336 3.011 2.708 2.261 1.973 1.871 1.693 1.708 1.806 1.696 1.716 1.851 1.651 1.596 2.148 2.511 2.201 1.838 1.981 2.316 2.476 2.838 2.626 2.411 2.146 2.393 2.311 2.041 2.196 2.028 2.163 2.736 3.013 3.798 3.598 4.113 4.556 4.406 4.238 3.708 3.741 3.506 4.008 4.421 5.768 7.078 8.861 10.056 11.176 11.458 11.441 11.908 12.933 13.533 14.276 14.938 15.341 15.508 15.081 14.673 14.923 15.966 16.836 17.478 17.403 17.141 16.768 16.593 17.411 17.648 16.758 16.931 15.698 15.446 15.148 14.173 12.238 10.698 8.883 6.938 6.616 5.686 4.246 3.483 3.086 2.863 3.281 2.791 1.873 1.811 1.791 1.676 1.611 1.656 1.548 1.571 1.621 1.756 1.986 3.568 4.603 5.563 5.033 4.708 5.008 4.696 4.121 4.373 4.328 4.348 4.291 6.858 9.818 11.193 12.081 12.541 13.168 14.293 13.378 13.926 14.841 14.866 15.633 16.476 17.216 17.391 17.468 17.843 19.726 20.646 20.196 20.601 21.463 22.468 22.413 22.041 21.761 21.838 22.323 23.331 24.986 25.366 25.253 25.553 25.918 25.858 25.446 25.346 24.796 24.248 24.421 25.036 26.616 28.221 29.878 30.456 30.678 30.493 30.193 30.578 31.273 31.263 31.491 31.918 32.128 32.358 32.066 31.433 31.401 30.656 29.311 28.103 28.183 27.716 27.461 27.318 26.666 26.306 25.956 25.873 25.876 25.726 25.598 25.671 25.718 25.821 26.398 27.313 27.508 27.888 28.098 28.451 28.798 28.696 28.201 27.428 26.993 26.851 26.448 25.746 25.376 24.978 24.601 24.136 24.721 24.968 26.166 28.093 29.233 31.126 31.596 31.213 31.171 30.666 30.181 29.711 29.261 27.416 21.183 13.468 1.448 1.456 1.438 1.513 1.481 1.458 1.491 1.568 1.591 1.581 1.591 1.571 1.643 1.616 1.633 1.591 1.623 1.628 1.531 1.523 1.521 1.513 1.426 1.451 1.448 1.548 1.516 1.528 1.503 1.531 1.586 1.558 1.586 1.691 1.648 1.753 1.698 1.668 1.581 1.636 1.583 1.521 1.541 1.513 1.616 1.576 1.496 1.398 1.393 1.471 1.481 1.521 1.533 1.528 1.438 1.431 1.421 1.376 1.363 1.396 1.386 1.361 1.411 1.451 1.346 1.373 1.416 1.413 1.378 1.341 1.351 1.371 1.336 1.306 1.361 1.376 1.418 1.403 1.318 1.378 1.363
1.601 1.528 1.681 1.496 1.401 1.413 1.426 1.443 1.463 1.523 1.403 1.468 1.448 1.413 1.423 1.496 1.456 1.341 1.406 1.398 1.421 1.401 1.466 1.416 1.428 1.448 1.436 1.473 1.591 1.493 1.591 1.593 1.668 1.703 1.806 1.858 1.706 1.671 1.686 1.561 1.506 1.653 1.397 1.186 1.043 0.879 0.758 0.56 0.426 0.271 0.094 -0.066 -0.265 -0.428 -0.622 -0.705 -0.754 -0.665 -0.684 -0.56 -0.39 -0.198 0.1 0.148 0.277 0.507 0.563 0.814 0.909 0.949 1.149 1.241 1.381 1.308 1.463 1.396 1.321 1.338 1.318 1.291 1.273 1.293 1.288 1.291 1.346 1.418 1.458 1.376 1.353 1.358 1.396 1.388 1.383 1.341 1.413 1.338 1.301 1.211 1.168 1.256 1.221 1.486 1.313 1.333 1.351 1.331 1.298 1.261 1.191 1.163 1.063 1.281 1.316 1.373 1.328 1.311 1.233 1.291 1.351 1.321 1.323 1.338 1.256 1.263 1.356 1.471 1.598 1.381 1.913 2.941 2.816 3.808 3.973 3.903 3.386 3.036 3.331 3.523 3.821 3.613 4.348 4.226 3.753 3.303 2.731 2.788 2.938 2.396 2.456 2.138 1.666 1.608 1.558 1.568 1.683 1.651 1.436 1.523 1.821 1.536 1.511 1.498 1.563 1.518 1.598 1.613 1.921 2.078 1.998 2.036 1.833 1.796 1.743 1.718 1.736 1.831 1.691 2.043 2.033 2.361 2.993 2.763 3.233 3.536 3.138 3.203 3.271 2.653 2.508 2.688 2.746 3.071 3.473 5.691 7.883 9.511 9.413 9.093 9.716 10.391 11.168 12.148 12.581 13.003 13.118 12.696 12.811 13.476 14.321 14.798 15.248 15.611 15.183 14.658 14.148 14.526 14.213 13.393 13.421 13.663 13.696 13.481 12.583 11.216 8.346 6.661 4.311 3.566 3.513 3.228 3.103 2.831 2.216 2.648 2.456 2.016 1.663 1.718 1.726 1.698 1.611 1.611 1.551 1.551 1.516 1.583 1.583 1.561 1.701 1.673 1.701 1.786 1.636 1.698 1.523 1.503 1.483 1.486 1.491 1.871 4.488 6.781 8.546 8.023 7.498 7.588 7.616 8.158 8.861 9.153 10.548 12.706 13.386 13.641 13.031 14.276 16.806 17.473 16.978 16.758 16.946 17.118 17.843 17.543 17.123 17.468 18.191 19.386 20.571 20.346 19.596 18.383 19.593 17.371 18.228 17.771 16.743 17.408 18.113 19.448 22.153 23.881 25.383 25.731 25.883 26.061 26.351 26.901 26.866 27.258 27.533 28.316 28.848 28.161 27.426 27.491 27.388 25.698 24.583 24.371 23.786 23.428 23.123 22.788 22.711 22.553 22.193 21.956 21.938 21.971 21.583 21.831 22.218 22.951 23.621 24.138 24.791 25.693 25.963 26.111 25.473 24.171 23.973 23.768 23.711 23.423 23.313 23.061 22.393 21.038 20.263 20.191 20.453 21.193 22.501 24.228 25.161 25.276 25.388 25.356 25.401 25.606 25.713 25.121 17.698 11.131 1.833 1.453 1.461 1.453 1.471 1.541 1.456 1.488 1.506 1.576 1.581 1.523 1.598 1.623 1.638 1.653 1.581 1.526 1.501 1.448 1.516 1.443 1.461 1.461 1.411 1.416 1.458 1.506 1.561 1.448 1.496 1.533 1.591 1.628 1.638 1.636 1.558 1.561 1.583 1.633 1.651 1.553 1.558 1.553 1.596 1.571 1.598 1.563 1.461 1.451 1.536 1.551 1.526 1.551 1.601 1.473 1.543 1.376 1.378 1.346 1.381 1.311 1.353 1.366 1.376 1.356 1.316 1.398 1.371 1.451 1.343 1.318 1.288 1.303 1.353 1.393 1.338 1.326 1.306 1.218 1.323 1.311
1.536 1.486 1.441 1.436 1.333 1.373 1.458 1.423 1.478 1.418 1.391 1.418 1.401 1.398 1.451 1.513 1.463 1.443 1.438 1.411 1.488 1.448 1.366 1.361 1.451 1.486 1.513 1.616 1.678 1.628 1.601 1.608 1.698 1.723 1.706 1.746 1.688 1.648 1.661 1.591 1.631 1.693 1.484 1.326 1.213 0.977 0.794 0.662 0.458 0.269 0.09 -0.103 -0.239 -0.428 -0.606 -0.585 -0.644 -0.634 -0.562 -0.47 -0.349 -0.14 0.037 0.131 0.308 0.495 0.67 0.893 0.9 1.018 1.13 1.264 1.283 1.318 1.368 1.343 1.291 1.271 1.256 1.256 1.258 1.333 1.368 1.333 1.383 1.523 1.448 1.341 1.338 1.361 1.376 1.398 1.568 1.481 1.568 1.431 1.481 1.401 1.383 1.333 1.388 1.426 1.316 1.296 1.338 1.251 1.233 1.226 1.188 1.148 1.073 1.041 1.206 1.256 1.236 1.208 1.196 1.283 1.253 1.258 1.201 1.223 1.256 1.336 1.268 1.291 1.228 1.186 1.398 2.003 2.203 2.563 2.931 2.773 2.951 2.801 2.691 2.426 2.256 2.798 2.633 2.938 2.853 2.538 1.798 2.061 2.283 2.051 1.713 1.551 1.466 1.488 1.463 1.443 1.646 1.423 1.388 1.386 1.416 1.471 1.456 1.443 1.393 1.396 1.411 1.503 1.696 1.558 1.593 1.636 1.541 1.526 1.671 1.466 1.536 1.593 1.626 2.323 1.901 1.918 2.183 1.628 2.101 2.271 2.583 2.296 2.223 2.006 1.963 2.208 2.451 2.568 2.778 3.926 6.153 7.053 6.446 5.888 6.316 7.103 6.706 7.126 9.491 10.556 10.423 10.441 11.063 11.828 12.513 12.771 13.288 13.741 13.223 12.626 11.736 11.501 11.548 11.401 11.471 11.666 11.663 11.463 10.453 8.041 4.971 4.238 3.941 3.001 2.378 2.356 2.593 2.221 1.888 1.873 1.891 1.781 1.783 1.616 1.676 1.653 1.771 1.623 1.668 1.651 1.561 1.486 1.471 1.471 1.468 1.573 1.723 1.846 1.673 1.636 1.546 1.581 1.561 1.398 1.401 1.383 1.361 1.456 1.496 1.818 2.573 2.601 2.006 2.133 2.628 2.986 3.466 6.808 8.141 8.741 9.798 10.713 13.023 12.493 11.556 10.153 10.548 10.663 11.073 11.726 11.301 11.833 12.788 13.458 13.966 13.861 13.358 12.801 12.988 12.641 12.578 12.746 14.181 14.731 15.508 15.923 17.543 18.731 20.828 23.568 24.208 24.458 24.736 24.898 25.091 25.118 25.406 25.513 25.151 24.766 24.448 23.973 23.408 22.298 21.936 21.586 21.183 20.761 20.633 19.921 19.213 18.913 18.611 18.721 17.561 17.796 17.671 18.706 19.008 19.301 19.763 20.136 20.728 21.391 21.366 22.148 21.818 21.228 20.996 20.821 20.461 20.211 19.796 19.828 17.513 15.776 15.391 15.783 16.281 16.881 18.641 20.631 22.053 22.246 21.453 20.561 20.563 20.513 20.781 13.993 3.566 1.398 1.351 1.358 1.443 1.491 1.493 1.538 1.471 1.526 1.456 1.438 1.528 1.501 1.473 1.501 1.458 1.521 1.521 1.568 1.513 1.548 1.493 1.473 1.511 1.548 1.481 1.423 1.436 1.428 1.461 1.448 1.503 1.563 1.563 1.601 1.618 1.596 1.581 1.623 1.623 1.648 1.693 1.626 1.576 1.628 1.693 1.686 1.608 1.551 1.581 1.546 1.566 1.558 1.471 1.501 1.528 1.536 1.486 1.423 1.388 1.433 1.426 1.368 1.418 1.428 1.428 1.391 1.396 1.343 1.376 1.371 1.378 1.331 1.293 1.321 1.373 1.331 1.266 1.236 1.263 1.363 1.346 1.313
1.463 1.461 1.573 1.498 1.443 1.423 1.521 1.506 1.403 1.401 1.343 1.341 1.361 1.421 1.423 1.456 1.438 1.413 1.473 1.428 1.448 1.538 1.513 1.498 1.501 1.583 1.548 1.558 1.676 1.581 1.581 1.636 1.613 1.658 1.591 1.561 1.593 1.528 1.553 1.601 1.671 1.666 1.579 1.402 1.245 1.101 0.873 0.693 0.459 0.331 0.154 -0.012 -0.206 -0.357 -0.463 -0.395 -0.435 -0.446 -0.431 -0.296 -0.19 -0.018 0.044 0.196 0.357 0.478 0.671 0.808 0.849 1.034 1.154 1.333 1.323 1.328 1.286 1.316 1.258 1.353 1.346 1.398 1.528 1.566 1.593 1.571 1.523 1.503 1.461 1.438 1.328 1.396 1.516 1.571 1.531 1.583 1.556 1.531 1.641 1.731 1.618 1.473 1.433 1.383 1.371 1.338 1.361 1.346 1.261 1.333 1.231 1.238 1.258 1.178 1.173 1.256 1.218 1.283 1.291 1.218 1.138 1.183 1.183 1.223 1.206 1.303 1.268 1.163 1.056 1.191 1.103 1.206 1.458 1.551 1.553 2.023 2.346 2.016 2.561 1.638 1.651 1.641 1.828 1.976 2.103 1.861 1.441 1.566 1.686 1.528 1.671 1.421 1.386 1.398 1.388 1.366 1.386 1.343 1.288 1.286 1.318 1.338 1.373 1.386 1.361 1.366 1.351 1.463 1.491 1.453 1.406 1.483 1.433 1.466 1.528 1.526 1.513 1.551 1.426 1.411 1.418 1.421 1.538 1.461 1.443 1.496 1.538 1.651 1.671 1.591 1.836 1.806 2.596 2.648 2.866 3.806 5.033 4.928 4.971 4.853 4.606 4.673 4.843 5.131 6.146 7.218 7.248 7.498 8.821 9.846 10.636 10.673 11.348 11.521 11.268 10.596 9.376 8.141 8.481 8.816 8.938 9.196 8.881 8.148 8.063 5.873 4.046 4.296 3.641 2.328 2.163 2.051 1.643 1.571 1.633 1.698 1.621 1.731 1.611 1.518 1.561 1.583 1.591 1.483 1.511 1.461 1.491 1.436 1.453 1.503 1.516 1.648 1.586 2.203 1.763 1.601 1.261 1.463 1.531 1.518 1.566 1.528 1.483 1.423 1.501 1.471 1.498 1.478 1.396 1.361 1.338 1.323 1.466 2.618 3.441 3.613 5.378 7.088 6.431 5.891 5.578 5.591 5.798 6.358 6.478 7.006 7.728 8.626 8.811 9.008 9.123 8.878 8.468 8.431 8.198 8.118 8.148 8.211 9.021 10.776 13.103 12.723 13.371 15.218 15.628 17.721 20.666 21.823 23.006 22.926 22.688 22.581 23.426 22.551 20.481 20.391 20.373 20.348 18.806 18.141 18.026 17.798 17.856 18.413 18.451 17.296 13.703 10.441 8.976 8.771 8.786 6.786 6.868 9.193 10.741 14.673 15.346 15.161 16.343 17.123 18.358 18.371 18.431 18.658 18.726 18.471 17.978 17.943 17.421 17.061 15.323 12.656 12.743 13.508 13.531 13.863 14.731 15.261 15.858 16.586 16.551 15.798 15.326 15.076 10.393 6.076 5.228 3.801 1.646 1.356 1.438 1.523 1.558 1.566 1.521 1.508 1.426 1.408 1.438 1.416 1.381 1.396 1.418 1.486 1.608 1.636 1.626 1.556 1.493 1.533 1.513 1.568 1.503 1.528 1.478 1.443 1.386 1.433 1.436 1.493 1.493 1.533 1.581 1.546 1.506 1.566 1.623 1.608 1.611 1.643 1.673 1.581 1.601 1.633 1.608 1.606 1.628 1.708 1.653 1.723 1.526 1.538 1.476 1.553 1.596 1.581 1.528 1.466 1.531 1.533 1.478 1.508 1.466 1.408 1.373 1.381 1.398 1.388 1.418 1.408 1.321 1.298 1.343 1.296 1.238 1.238 1.321 1.406 1.341 1.393
1.383 1.426 1.423 1.403 1.426 1.428 1.373 1.308 1.363 1.326 1.378 1.376 1.381 1.508 1.431 1.466 1.528 1.518 1.513 1.518 1.471 1.543 1.511 1.551 1.531 1.523 1.458 1.526 1.508 1.526 1.516 1.506 1.503 1.523 1.488 1.448 1.448 1.466 1.576 1.653 1.656 1.651 1.709 1.382 1.299 1.114 0.933 0.753 0.559 0.398 0.236 0.065 -0.103 -0.27 -0.27 -0.284 -0.3 -0.332 -0.267 -0.187 -0.126 -0.02 0.127 0.302 0.428 0.605 0.74 0.847 0.955 1.062 1.214 1.421 1.383 1.341 1.333 1.361 1.483 1.461 1.518 1.543 1.656 1.681 1.663 1.633 1.646 1.556 1.631 1.621 1.583 1.628 1.606 1.643 1.573 1.603 1.618 1.596 1.678 1.721 1.571 1.588 1.498 1.398 1.453 1.393 1.366 1.488 1.343 1.291 1.331 1.291 1.251 1.171 1.221 1.281 1.318 1.323 1.191 1.243 1.203 1.158 1.201 1.223 1.186 1.176 1.261 1.163 1.168 1.128 1.128 1.121 1.201 1.148 1.331 1.441 2.203 1.543 1.733 1.381 1.393 1.431 2.086 1.811 1.461 1.303 1.293 1.331 1.333 1.286 1.313 1.338 1.331 1.318 1.358 1.376 1.313 1.241 1.308 1.326 1.306 1.296 1.323 1.311 1.308 1.333 1.328 1.326 1.416 1.358 1.431 1.473 1.416 1.448 1.431 1.476 1.466 1.421 1.478 1.448 1.373 1.376 1.366 1.388 1.441 1.468 1.536 1.491 1.503 1.456 1.621 2.196 2.406 2.683 3.176 4.083 4.193 4.376 4.438 3.953 3.901 4.148 4.043 4.011 4.408 5.138 5.181 5.773 5.948 7.003 7.771 7.543 8.678 9.056 8.711 8.036 6.818 5.593 6.296 5.576 5.328 6.093 6.388 6.373 5.338 4.766 3.531 3.701 3.073 1.863 1.761 1.543 1.503 1.543 1.668 1.683 1.553 1.471 1.476 1.488 1.516 1.498 1.501 1.426 1.423 1.416 1.431 1.403 1.436 1.453 1.468 1.473 1.446 1.468 1.636 1.313 1.131 1.426 1.531 1.618 1.733 1.598 1.503 1.511 1.443 1.463 1.388 1.321 1.336 1.428 1.406 1.361 1.428 1.471 1.458 1.506 1.506 1.908 1.698 1.483 1.608 2.296 2.493 2.248 2.353 2.486 2.948 6.031 6.256 6.161 5.751 5.573 5.726 5.781 5.901 6.038 6.178 6.463 6.726 7.118 7.636 8.253 8.936 9.591 11.336 13.561 16.528 17.468 17.466 16.506 15.218 16.068 17.241 17.251 16.243 15.356 15.396 15.246 14.396 11.456 11.841 12.351 12.836 13.431 10.871 9.753 6.923 5.153 3.898 4.441 3.081 2.501 2.073 1.648 2.306 4.158 5.338 6.708 9.131 12.013 12.793 15.041 15.833 16.211 16.083 15.346 15.156 15.653 14.708 14.181 8.688 7.451 8.246 8.556 9.126 10.286 12.226 13.266 13.701 13.178 12.641 12.283 11.596 10.348 6.843 5.213 5.316 5.173 4.583 4.281 4.118 3.663 2.398 1.721 1.568 1.493 1.408 1.723 1.498 1.313 1.346 1.366 1.458 1.453 1.523 1.568 1.571 1.563 1.568 1.536 1.493 1.496 1.571 1.496 1.471 1.443 1.448 1.398 1.418 1.438 1.421 1.461 1.436 1.516 1.503 1.568 1.538 1.526 1.531 1.593 1.573 1.453 1.566 1.553 1.576 1.608 1.583 1.648 1.696 1.636 1.648 1.603 1.551 1.578 1.611 1.593 1.503 1.496 1.518 1.573 1.568 1.521 1.471 1.446 1.481 1.486 1.486 1.433 1.368 1.386 1.328 1.301 1.278 1.323 1.468 1.416 1.353 1.348 1.393 1.376
1.328 1.393 1.408 1.373 1.371 1.473 1.366 1.321 1.351 1.411 1.336 1.253 1.351 1.418 1.388 1.486 1.501 1.551 1.623 1.598 1.506 1.508 1.446 1.433 1.468 1.466 1.473 1.478 1.433 1.406 1.481 1.491 1.396 1.378 1.383 1.403 1.488 1.511 1.558 1.591 1.601 1.623 1.629 1.518 1.26 1.07 0.911 0.742 0.59 0.419 0.3 0.134 0.063 -0.125 -0.175 -0.223 -0.23 -0.215 -0.121 -0.041 0.016 0.068 0.17 0.353 0.465 0.595 0.753 0.944 1.103 1.208 1.315 1.462 1.466 1.438 1.461 1.506 1.488 1.561 1.623 1.706 1.731 1.806 1.641 1.643 1.578 1.646 1.683 1.606 1.676 1.633 1.648 1.641 1.568 1.578 1.473 1.526 1.481 1.508 1.438 1.548 1.441 1.423 1.506 1.451 1.508 1.498 1.418 1.298 1.348 1.346 1.288 1.258 1.356 1.418 1.398 1.401 1.396 1.313 1.231 1.331 1.351 1.406 1.291 1.256 1.213 1.236 1.206 1.213 1.343 1.211 1.168 1.016 1.103 1.038 1.233 1.191 1.311 1.321 1.208 1.368 1.411 1.306 1.266 1.251 1.261 1.261 1.306 1.296 1.311 1.343 1.383 1.381 1.348 1.421 1.413 1.298 1.346 1.341 1.316 1.276 1.361 1.318 1.303 1.301 1.321 1.301 1.271 1.341 1.408 1.368 1.341 1.378 1.353 1.391 1.418 1.426 1.411 1.451 1.443 1.426 1.453 1.558 1.481 1.516 1.476 1.478 1.416 1.468 1.436 1.498 1.566 1.886 2.431 3.073 3.863 3.906 4.021 3.536 3.073 3.041 2.898 2.826 3.168 3.431 3.826 5.148 4.948 5.596 5.811 5.831 6.958 6.768 6.203 5.798 5.381 4.711 4.973 4.363 4.683 5.103 5.171 4.653 3.736 2.996 2.406 2.103 1.811 1.593 1.443 1.461 1.548 1.541 1.578 1.586 1.518 1.461 1.503 1.436 1.378 1.413 1.486 1.443 1.438 1.443 1.391 1.416 1.386 1.426 1.468 1.476 1.393 1.336 1.431 1.186 1.363 1.428 1.611 1.591 1.631 1.583 1.586 1.518 1.486 1.576 1.478 1.346 1.328 1.426 1.438 1.488 1.461 1.466 1.433 1.448 1.468 1.443 1.423 1.396 1.366 1.391 1.361 1.378 1.446 1.528 1.426 2.031 2.173 2.141 2.101 1.986 2.026 2.421 2.933 3.068 3.021 3.116 3.456 3.471 3.941 4.118 6.121 7.458 7.563 8.078 9.468 11.816 12.451 12.321 11.518 11.621 12.348 11.993 10.973 11.056 10.953 11.338 8.951 7.718 7.236 7.306 6.753 3.891 1.653 1.521 1.343 1.311 1.376 1.376 1.466 1.568 1.526 1.576 1.488 1.681 2.316 2.563 2.393 3.863 2.723 5.411 6.158 5.626 7.358 8.241 8.616 9.891 9.236 8.483 6.138 3.851 3.118 3.078 3.278 4.203 4.423 6.568 9.571 9.253 9.856 9.241 8.838 5.693 3.668 3.911 3.913 3.596 3.718 3.951 3.838 3.478 2.831 2.026 2.198 2.363 2.383 2.611 2.518 2.071 1.348 1.321 1.348 1.373 1.338 1.426 1.418 1.486 1.468 1.483 1.538 1.526 1.538 1.541 1.411 1.448 1.463 1.466 1.478 1.453 1.413 1.451 1.453 1.426 1.508 1.556 1.466 1.463 1.448 1.436 1.458 1.466 1.441 1.491 1.506 1.568 1.576 1.583 1.533 1.603 1.586 1.631 1.586 1.603 1.548 1.491 1.533 1.501 1.528 1.543 1.491 1.496 1.423 1.491 1.563 1.568 1.518 1.481 1.436 1.393 1.403 1.438 1.366 1.393 1.423 1.416 1.398 1.443 1.391 1.361
1.358 1.393 1.338 1.341 1.341 1.356 1.456 1.481 1.336 1.448 1.381 1.381 1.361 1.473 1.466 1.481 1.461 1.471 1.526 1.478 1.553 1.451 1.426 1.401 1.471 1.516 1.441 1.436 1.416 1.456 1.568 1.438 1.466 1.423 1.563 1.461 1.468 1.498 1.518 1.558 1.548 1.503 1.543 1.494 1.223 1.071 0.872 0.722 0.586 0.516 0.4 0.236 0.132 0.004 -0.077 -0.045 -0.136 -0.051 0.043 0.114 0.159 0.165 0.32 0.415 0.585 0.67 0.801 1.007 1.163 1.264 1.331 1.558 1.546 1.546 1.581 1.608 1.606 1.646 1.591 1.646 1.658 1.603 1.561 1.528 1.571 1.626 1.541 1.611 1.553 1.626 1.633 1.596 1.678 1.523 1.526 1.491 1.403 1.468 1.483 1.456 1.436 1.523 1.448 1.443 1.486 1.526 1.493 1.431 1.453 1.391 1.413 1.406 1.458 1.401 1.426 1.398 1.426 1.426 1.401 1.421 1.443 1.501 1.396 1.406 1.346 1.331 1.331 1.353 1.331 1.281 1.206 1.151 1.143 1.151 1.101 1.118 1.083 1.068 1.093 1.203 1.246 1.276 1.393 1.268 1.348 1.336 1.326 1.321 1.346 1.436 1.506 1.481 1.498 1.468 1.446 1.366 1.373 1.351 1.346 1.391 1.408 1.373 1.416 1.411 1.386 1.303 1.373 1.361 1.363 1.406 1.416 1.373 1.371 1.366 1.431 1.411 1.463 1.483 1.493 1.478 1.511 1.511 1.613 1.516 1.468 1.478 1.538 1.493 1.418 1.351 1.358 1.388 1.713 1.918 2.291 2.833 2.843 2.526 2.391 2.593 2.471 2.658 2.201 2.986 3.661 4.408 4.318 4.283 4.588 4.753 4.978 4.743 4.738 4.723 4.173 3.993 3.913 3.656 3.733 4.373 4.301 3.653 4.013 2.243 1.826 1.548 1.341 1.296 1.416 1.486 1.451 1.528 1.541 1.588 1.638 1.453 1.358 1.411 1.358 1.353 1.383 1.436 1.428 1.466 1.501 1.393 1.353 1.403 1.426 1.428 1.331 1.331 1.321 1.326 1.406 1.446 1.548 1.631 1.546 1.651 1.656 1.583 1.618 1.616 1.561 1.511 1.408 1.401 1.466 1.568 1.481 1.411 1.396 1.391 1.386 1.381 1.398 1.353 1.331 1.381 1.433 1.456 1.448 1.478 1.411 1.348 1.366 1.356 1.401 1.393 1.366 1.428 1.428 1.393 1.433 1.411 1.481 1.471 1.526 1.681 1.791 3.086 3.806 4.443 4.673 5.636 7.101 7.821 7.896 6.983 6.468 5.723 6.058 6.721 6.483 6.033 5.041 5.296 4.951 4.183 3.931 3.576 2.908 1.983 1.748 1.493 1.583 1.611 1.631 1.626 1.553 1.683 1.606 1.493 1.356 1.321 1.331 1.408 1.516 1.498 1.601 1.596 1.826 2.328 3.256 4.688 5.201 5.976 3.753 1.731 1.653 1.958 2.546 2.103 1.843 2.061 2.188 2.391 2.613 3.743 2.666 1.541 1.733 1.916 2.343 2.561 2.366 1.886 2.321 2.346 2.116 1.481 1.311 1.633 1.626 1.681 1.716 1.633 1.338 1.251 1.233 1.303 1.341 1.368 1.393 1.358 1.398 1.463 1.533 1.553 1.453 1.443 1.411 1.438 1.456 1.466 1.386 1.408 1.388 1.546 1.476 1.421 1.401 1.358 1.401 1.331 1.316 1.326 1.376 1.421 1.378 1.428 1.426 1.446 1.481 1.473 1.566 1.581 1.556 1.508 1.603 1.601 1.493 1.476 1.511 1.521 1.521 1.483 1.471 1.501 1.496 1.496 1.588 1.521 1.541 1.546 1.533 1.441 1.431 1.473 1.501 1.451 1.498 1.551 1.483 1.438 1.388 1.451
1.381 1.428 1.366 1.381 1.453 1.373 1.426 1.386 1.388 1.411 1.466 1.426 1.463 1.471 1.441 1.351 1.431 1.421 1.523 1.398 1.411 1.443 1.523 1.383 1.431 1.418 1.436 1.426 1.443 1.533 1.578 1.363 1.421 1.516 1.526 1.538 1.461 1.576 1.433 1.381 1.431 1.463 1.398 1.364 1.26 1.121 0.969 0.821 0.735 0.57 0.476 0.3 0.262 0.175 0.106 0.074 0.054 0.132 0.19 0.215 0.257 0.295 0.396 0.511 0.613 0.786 0.889 1.1 1.279 1.369 1.466 1.606 1.593 1.623 1.691 1.688 1.671 1.648 1.638 1.523 1.473 1.511 1.543 1.506 1.533 1.521 1.528 1.468 1.463 1.516 1.523 1.576 1.541 1.476 1.446 1.471 1.431 1.521 1.536 1.496 1.503 1.633 1.523 1.493 1.461 1.478 1.553 1.528 1.566 1.593 1.561 1.508 1.561 1.451 1.468 1.561 1.526 1.503 1.541 1.546 1.511 1.498 1.618 1.596 1.516 1.543 1.573 1.546 1.443 1.496 1.456 1.388 1.466 1.293 1.278 1.318 1.273 1.281 1.291 1.351 1.348 1.441 1.491 1.451 1.543 1.551 1.426 1.448 1.481 1.603 1.563 1.553 1.543 1.571 1.556 1.453 1.498 1.521 1.646 1.586 1.498 1.508 1.558 1.463 1.438 1.453 1.436 1.438 1.446 1.501 1.441 1.418 1.431 1.426 1.486 1.476 1.508 1.451 1.466 1.428 1.471 1.493 1.518 1.561 1.581 1.521 1.426 1.411 1.376 1.386 1.376 1.403 1.563 1.436 1.671 1.876 1.953 2.028 1.773 1.678 1.768 1.931 1.841 2.643 2.658 3.341 3.631 3.561 3.463 3.476 3.413 3.688 3.813 3.191 3.256 2.711 2.708 3.706 3.323 3.676 3.213 2.646 2.893 2.153 1.478 1.423 1.408 1.401 1.466 1.428 1.443 1.511 1.676 1.526 1.513 1.443 1.381 1.333 1.368 1.316 1.278 1.331 1.301 1.323 1.396 1.378 1.446 1.421 1.421 1.381 1.381 1.308 1.328 1.391 1.348 1.441 1.466 1.516 1.513 1.558 1.638 1.626 1.626 1.638 1.606 1.608 1.496 1.416 1.411 1.423 1.428 1.438 1.383 1.341 1.398 1.371 1.381 1.423 1.413 1.421 1.423 1.438 1.388 1.398 1.391 1.408 1.433 1.356 1.398 1.393 1.388 1.361 1.396 1.411 1.383 1.353 1.323 1.363 1.326 1.393 1.361 1.393 1.433 1.473 1.516 1.811 2.973 3.376 3.691 2.671 2.551 2.711 3.158 3.453 3.528 3.536 3.063 3.203 3.388 2.376 2.146 2.403 2.613 1.848 1.606 1.531 1.661 1.636 1.673 1.628 1.596 1.588 1.593 1.638 1.633 1.643 1.443 1.456 1.538 1.501 1.491 1.598 1.578 1.623 1.601 1.576 1.868 2.128 1.713 1.523 1.523 1.586 1.621 1.606 1.643 1.658 1.696 1.666 1.663 1.493 1.521 1.466 1.381 1.353 1.323 1.378 1.308 1.293 1.196 1.276 1.596 1.261 1.076 1.151 1.233 1.233 1.318 1.301 1.163 1.161 1.158 1.151 1.241 1.281 1.258 1.258 1.293 1.348 1.421 1.421 1.403 1.408 1.406 1.373 1.468 1.478 1.411 1.396 1.443 1.323 1.356 1.408 1.378 1.426 1.303 1.308 1.293 1.283 1.251 1.313 1.318 1.358 1.383 1.391 1.416 1.421 1.466 1.446 1.388 1.416 1.473 1.471 1.433 1.511 1.561 1.588 1.611 1.558 1.528 1.576 1.538 1.536 1.593 1.543 1.581 1.591 1.593 1.501 1.481 1.541 1.521 1.491 1.486 1.483 1.533 1.493 1.478 1.496
1.488 1.481 1.453 1.456 1.486 1.416 1.423 1.301 1.368 1.396 1.436 1.386 1.421 1.436 1.361 1.331 1.306 1.328 1.423 1.326 1.351 1.433 1.401 1.388 1.436 1.441 1.476 1.363 1.508 1.483 1.458 1.526 1.576 1.563 1.456 1.501 1.496 1.411 1.403 1.371 1.411 1.348 1.431 1.413 1.294 1.098 0.99 0.906 0.726 0.619 0.52 0.422 0.312 0.342 0.246 0.243 0.233 0.262 0.305 0.321 0.369 0.444 0.515 0.636 0.753 0.837 1.003 1.213 1.323 1.461 1.668 1.731 1.656 1.708 1.678 1.656 1.616 1.621 1.606 1.546 1.413 1.388 1.411 1.433 1.428 1.431 1.423 1.481 1.438 1.418 1.453 1.418 1.473 1.386 1.451 1.398 1.366 1.428 1.531 1.553 1.536 1.518 1.488 1.466 1.416 1.481 1.533 1.531 1.563 1.561 1.611 1.716 1.671 1.616 1.651 1.558 1.628 1.673 1.668 1.658 1.671 1.661 1.676 1.801 1.743 1.768 1.823 1.721 1.638 1.711 1.741 1.646 1.756 1.653 1.678 1.703 1.791 1.701 1.651 1.633 1.691 1.728 1.688 1.726 1.746 1.753 1.683 1.681 1.646 1.653 1.666 1.628 1.608 1.638 1.693 1.716 1.603 1.648 1.666 1.741 1.636 1.673 1.661 1.518 1.496 1.541 1.463 1.513 1.593 1.528 1.416 1.436 1.438 1.551 1.538 1.498 1.501 1.431 1.423 1.413 1.418 1.503 1.481 1.556 1.526 1.506 1.471 1.416 1.338 1.368 1.406 1.421 1.428 1.468 1.396 1.396 1.403 1.471 1.486 1.403 1.381 1.391 1.666 1.873 1.481 1.871 2.088 2.531 2.091 2.038 1.998 2.153 2.913 1.768 2.376 3.213 2.131 2.521 2.703 3.013 1.576 1.763 1.443 1.491 1.563 1.411 1.416 1.433 1.396 1.388 1.398 1.386 1.438 1.463 1.388 1.326 1.358 1.221 1.228 1.243 1.381 1.371 1.261 1.316 1.336 1.353 1.441 1.391 1.416 1.566 1.501 1.383 1.338 1.353 1.321 1.486 1.416 1.383 1.458 1.503 1.506 1.598 1.673 1.713 1.638 1.586 1.548 1.561 1.496 1.471 1.498 1.433 1.426 1.448 1.538 1.458 1.401 1.443 1.418 1.476 1.453 1.451 1.453 1.393 1.356 1.398 1.441 1.438 1.373 1.388 1.348 1.418 1.461 1.413 1.461 1.406 1.401 1.358 1.356 1.481 1.453 1.541 1.546 1.416 1.423 1.448 1.403 1.478 1.431 1.371 1.461 1.436 1.453 1.538 1.608 1.613 1.551 1.611 1.671 1.591 1.633 1.616 1.603 1.708 1.611 1.498 1.498 1.543 1.613 1.576 1.538 1.483 1.471 1.626 1.726 1.791 1.648 1.518 1.511 1.491 1.506 1.628 1.591 1.591 1.551 1.508 1.493 1.486 1.498 1.508 1.538 1.528 1.583 1.623 1.543 1.641 1.693 1.676 1.553 1.433 1.396 1.431 1.421 1.381 1.288 1.231 1.221 1.211 1.236 1.313 1.358 1.306 1.303 1.341 1.308 1.288 1.341 1.251 1.213 1.193 1.156 1.178 1.206 1.223 1.231 1.288 1.321 1.338 1.333 1.333 1.353 1.376 1.391 1.406 1.391 1.378 1.358 1.311 1.303 1.273 1.336 1.338 1.311 1.268 1.336 1.228 1.211 1.246 1.296 1.276 1.308 1.346 1.343 1.371 1.368 1.386 1.363 1.388 1.398 1.406 1.413 1.506 1.508 1.613 1.608 1.673 1.646 1.533 1.576 1.563 1.576 1.571 1.591 1.593 1.593 1.601 1.583 1.568 1.543 1.563 1.516 1.523 1.523 1.568 1.621 1.631 1.623 1.643
1.548 1.493 1.506 1.478 1.451 1.483 1.491 1.406 1.396 1.448 1.436 1.406 1.338 1.346 1.316 1.263 1.311 1.248 1.253 1.301 1.278 1.368 1.423 1.431 1.468 1.451 1.423 1.518 1.448 1.396 1.433 1.403 1.446 1.438 1.423 1.313 1.326 1.381 1.338 1.331 1.351 1.368 1.383 1.343 1.303 1.214 1.068 0.921 0.803 0.64 0.606 0.523 0.444 0.353 0.349 0.342 0.337 0.388 0.381 0.433 0.521 0.588 0.649 0.774 0.906 0.976 1.13 1.245 1.385 1.563 1.678 1.641 1.648 1.653 1.581 1.528 1.498 1.503 1.451 1.483 1.408 1.473 1.416 1.436 1.351 1.383 1.358 1.356 1.343 1.366 1.378 1.413 1.358 1.398 1.408 1.396 1.411 1.458 1.443 1.516 1.493 1.453 1.488 1.406 1.556 1.548 1.558 1.586 1.663 1.616 1.656 1.816 1.838 1.778 1.756 1.733 1.646 1.688 1.791 1.736 1.736 1.791 1.881 1.806 1.771 1.736 1.866 1.923 1.916 1.763 1.751 1.831 1.811 1.751 1.818 1.831 1.763 1.823 1.813 1.801 1.868 1.861 1.788 1.798 1.771 1.708 1.708 1.733 1.728 1.658 1.721 1.653 1.658 1.683 1.628 1.716 1.763 1.741 1.706 1.708 1.588 1.618 1.598 1.588 1.528 1.598 1.503 1.511 1.548 1.541 1.511 1.408 1.446 1.578 1.543 1.576 1.633 1.483 1.483 1.483 1.473 1.553 1.526 1.513 1.411 1.443 1.436 1.428 1.498 1.546 1.456 1.421 1.446 1.486 1.478 1.463 1.363 1.371 1.426 1.418 1.376 1.348 1.448 1.478 1.416 1.321 1.281 1.478 1.303 1.528 2.036 1.793 1.551 1.501 1.906 1.736 1.963 1.338 1.776 2.023 1.296 1.336 1.628 1.461 1.498 1.421 1.451 1.348 1.323 1.293 1.411 1.401 1.438 1.521 1.358 1.313 1.413 1.176 1.273 1.261 1.328 1.306 1.253 1.371 1.428 1.406 1.408 1.438 1.416 1.528 1.436 1.476 1.336 1.278 1.306 1.396 1.356 1.326 1.396 1.501 1.481 1.601 1.571 1.706 1.608 1.623 1.608 1.518 1.553 1.543 1.491 1.456 1.498 1.503 1.513 1.476 1.411 1.418 1.453 1.503 1.461 1.478 1.441 1.463 1.326 1.391 1.368 1.423 1.491 1.476 1.461 1.513 1.448 1.433 1.443 1.398 1.401 1.418 1.463 1.478 1.526 1.648 1.566 1.513 1.443 1.451 1.421 1.483 1.426 1.443 1.441 1.468 1.493 1.536 1.608 1.548 1.528 1.513 1.581 1.526 1.556 1.563 1.531 1.563 1.518 1.411 1.456 1.516 1.553 1.551 1.528 1.516 1.576 1.813 2.218 2.471 2.553 2.476 1.938 1.541 1.526 1.583 1.548 1.551 1.566 1.496 1.403 1.483 1.426 1.486 1.486 1.461 1.541 1.511 1.496 1.581 1.536 1.596 1.466 1.478 1.438 1.408 1.381 1.328 1.266 1.248 1.293 1.301 1.351 1.343 1.398 1.388 1.393 1.386 1.413 1.398 1.316 1.283 1.281 1.281 1.356 1.328 1.386 1.361 1.331 1.311 1.351 1.368 1.353 1.326 1.351 1.348 1.341 1.436 1.431 1.298 1.338 1.338 1.281 1.246 1.193 1.148 1.176 1.153 1.166 1.198 1.203 1.243 1.233 1.273 1.261 1.288 1.311 1.306 1.328 1.316 1.288 1.358 1.468 1.446 1.476 1.516 1.558 1.626 1.633 1.623 1.543 1.486 1.593 1.558 1.546 1.576 1.638 1.666 1.621 1.648 1.603 1.591 1.543 1.528 1.483 1.506 1.581 1.603 1.686 1.726 1.668 1.661
1.696 1.626 1.583 1.473 1.458 1.576 1.501 1.451 1.343 1.346 1.408 1.346 1.308 1.278 1.266 1.353 1.306 1.311 1.293 1.308 1.366 1.398 1.411 1.448 1.541 1.461 1.501 1.531 1.366 1.406 1.356 1.426 1.376 1.346 1.296 1.306 1.268 1.246 1.323 1.336 1.333 1.331 1.411 1.358 1.243 1.25 1.142 0.999 0.894 0.787 0.734 0.658 0.589 0.511 0.484 0.491 0.429 0.42 0.447 0.516 0.632 0.702 0.779 0.873 1.026 1.086 1.215 1.299 1.49 1.586 1.613 1.578 1.666 1.618 1.553 1.506 1.526 1.458 1.373 1.461 1.518 1.498 1.423 1.423 1.441 1.461 1.378 1.431 1.448 1.361 1.328 1.388 1.416 1.443 1.438 1.348 1.476 1.483 1.443 1.416 1.451 1.486 1.528 1.498 1.501 1.506 1.593 1.641 1.636 1.703 1.733 1.801 1.908 1.718 1.676 1.648 1.701 1.658 1.733 1.676 1.693 1.718 1.751 1.718 1.721 1.756 1.778 1.833 1.801 1.801 1.791 1.683 1.696 1.673 1.603 1.641 1.691 1.713 1.718 1.698 1.741 1.701 1.711 1.753 1.758 1.683 1.678 1.703 1.691 1.646 1.623 1.673 1.671 1.631 1.616 1.671 1.681 1.613 1.648 1.563 1.623 1.608 1.603 1.553 1.586 1.511 1.563 1.558 1.538 1.636 1.628 1.563 1.561 1.628 1.611 1.596 1.618 1.503 1.486 1.521 1.581 1.556 1.536 1.571 1.481 1.508 1.463 1.638 1.586 1.601 1.506 1.441 1.446 1.521 1.536 1.496 1.393 1.368 1.378 1.426 1.401 1.326 1.366 1.551 1.351 1.353 1.383 1.348 1.366 1.363 1.533 1.748 1.453 1.456 1.391 1.363 1.491 1.341 1.358 1.331 1.391 1.311 1.393 1.416 1.498 1.453 1.351 1.308 1.336 1.286 1.358 1.381 1.376 1.373 1.351 1.323 1.283 1.218 1.303 1.313 1.298 1.393 1.458 1.358 1.328 1.438 1.421 1.463 1.503 1.501 1.471 1.478 1.483 1.413 1.438 1.308 1.311 1.436 1.456 1.618 1.553 1.558 1.463 1.613 1.606 1.628 1.581 1.541 1.613 1.733 1.533 1.556 1.498 1.486 1.446 1.511 1.496 1.466 1.431 1.491 1.451 1.443 1.463 1.511 1.443 1.406 1.388 1.393 1.516 1.466 1.476 1.438 1.431 1.378 1.436 1.446 1.428 1.496 1.563 1.538 1.506 1.536 1.571 1.621 1.568 1.516 1.453 1.446 1.478 1.438 1.426 1.436 1.523 1.531 1.553 1.568 1.488 1.478 1.496 1.476 1.561 1.466 1.451 1.531 1.518 1.548 1.521 1.576 1.538 1.533 1.541 1.483 1.406 1.333 1.463 1.626 1.621 1.576 1.661 1.521 1.531 1.588 1.583 1.551 1.508 1.473 1.421 1.426 1.466 1.531 1.466 1.463 1.431 1.476 1.536 1.523 1.453 1.488 1.516 1.451 1.421 1.408 1.368 1.278 1.258 1.328 1.353 1.348 1.361 1.393 1.383 1.446 1.396 1.446 1.468 1.486 1.461 1.371 1.398 1.391 1.431 1.411 1.503 1.411 1.418 1.463 1.351 1.378 1.331 1.323 1.351 1.393 1.451 1.526 1.368 1.358 1.371 1.338 1.286 1.266 1.251 1.256 1.221 1.273 1.296 1.313 1.288 1.306 1.251 1.221 1.168 1.213 1.246 1.296 1.301 1.363 1.361 1.376 1.408 1.463 1.416 1.393 1.448 1.573 1.583 1.573 1.581 1.613 1.543 1.536 1.556 1.568 1.608 1.648 1.643 1.651 1.663 1.598 1.576 1.561 1.528 1.618 1.641 1.633 1.648 1.591 1.638 1.646
1.661 1.583 1.571 1.486 1.461 1.473 1.438 1.446 1.508 1.326 1.408 1.411 1.343 1.353 1.341 1.263 1.233 1.386 1.393 1.331 1.331 1.398 1.403 1.456 1.528 1.393 1.433 1.406 1.376 1.381 1.343 1.298 1.266 1.288 1.291 1.308 1.248 1.296 1.341 1.361 1.348 1.353 1.381 1.293 1.258 1.241 1.29 1.153 1.038 0.887 0.785 0.736 0.697 0.631 0.598 0.578 0.599 0.595 0.644 0.7 0.745 0.803 0.844 0.93 1.028 1.172 1.297 1.514 1.576 1.571 1.543 1.498 1.593 1.581 1.591 1.511 1.531 1.538 1.388 1.448 1.513 1.468 1.396 1.601 1.423 1.366 1.391 1.426 1.426 1.361 1.353 1.423 1.426 1.456 1.441 1.471 1.543 1.463 1.488 1.408 1.468 1.498 1.581 1.533 1.493 1.493 1.548 1.516 1.501 1.618 1.628 1.658 1.653 1.613 1.616 1.586 1.653 1.596 1.606 1.571 1.571 1.631 1.576 1.606 1.578 1.651 1.658 1.716 1.646 1.686 1.733 1.673 1.578 1.538 1.528 1.588 1.673 1.598 1.571 1.623 1.673 1.658 1.671 1.666 1.646 1.631 1.646 1.566 1.618 1.538 1.576 1.598 1.553 1.548 1.596 1.626 1.651 1.591 1.646 1.531 1.611 1.578 1.591 1.518 1.523 1.518 1.516 1.556 1.586 1.611 1.568 1.518 1.513 1.603 1.581 1.638 1.591 1.466 1.593 1.596 1.611 1.536 1.626 1.588 1.611 1.566 1.518 1.591 1.631 1.593 1.573 1.478 1.501 1.458 1.473 1.388 1.336 1.391 1.493 1.458 1.488 1.386 1.361 1.416 1.413 1.428 1.421 1.326 1.306 1.333 1.396 1.408 1.406 1.343 1.353 1.423 1.383 1.363 1.406 1.353 1.366 1.351 1.376 1.458 1.448 1.556 1.338 1.348 1.301 1.328 1.388 1.333 1.446 1.478 1.351 1.338 1.323 1.293 1.306 1.301 1.338 1.386 1.403 1.413 1.456 1.466 1.471 1.463 1.488 1.436 1.433 1.468 1.411 1.366 1.361 1.361 1.461 1.416 1.361 1.506 1.531 1.546 1.371 1.471 1.618 1.628 1.578 1.578 1.663 1.686 1.671 1.631 1.521 1.561 1.511 1.548 1.576 1.581 1.523 1.423 1.456 1.528 1.418 1.388 1.418 1.386 1.468 1.518 1.488 1.458 1.536 1.461 1.416 1.338 1.373 1.438 1.473 1.526 1.488 1.456 1.506 1.486 1.583 1.623 1.533 1.508 1.478 1.488 1.423 1.431 1.413 1.398 1.398 1.506 1.516 1.561 1.516 1.461 1.431 1.496 1.531 1.508 1.516 1.518 1.466 1.563 1.556 1.561 1.586 1.541 1.583 1.493 1.416 1.381 1.438 1.518 1.538 1.518 1.506 1.518 1.503 1.578 1.528 1.543 1.478 1.441 1.358 1.396 1.413 1.401 1.381 1.363 1.393 1.498 1.541 1.486 1.523 1.538 1.578 1.538 1.568 1.548 1.363 1.391 1.438 1.351 1.378 1.358 1.391 1.443 1.381 1.426 1.481 1.501 1.553 1.443 1.518 1.496 1.403 1.466 1.431 1.491 1.458 1.488 1.413 1.418 1.391 1.413 1.391 1.338 1.373 1.468 1.491 1.343 1.376 1.421 1.413 1.303 1.296 1.333 1.316 1.266 1.246 1.273 1.273 1.328 1.351 1.318 1.263 1.188 1.221 1.316 1.258 1.298 1.343 1.351 1.351 1.336 1.393 1.341 1.328 1.328 1.418 1.508 1.548 1.496 1.531 1.518 1.471 1.568 1.691 1.653 1.606 1.611 1.556 1.623 1.608 1.643 1.656 1.641 1.636 1.626 1.566 1.521 1.591 1.613 1.638 1.608
1.598 1.623 1.578 1.603 1.551 1.423 1.486 1.498 1.588 1.451 1.398 1.306 1.321 1.416 1.386 1.518 1.603 1.493 1.518 1.513 1.546 1.448 1.428 1.466 1.396 1.446 1.336 1.306 1.366 1.368 1.388 1.251 1.243 1.286 1.268 1.353 1.173 1.308 1.296 1.321 1.351 1.313 1.356 1.356 1.271 1.316 1.246 1.213 1.064 1.027 0.971 0.851 0.814 0.947 0.786 0.715 0.789 0.827 0.842 0.852 0.951 0.919 0.981 1.009 1.202 1.293 1.443 1.448 1.478 1.511 1.511 1.558 1.573 1.526 1.526 1.606 1.528 1.508 1.441 1.496 1.543 1.481 1.436 1.391 1.371 1.391 1.393 1.413 1.383 1.403 1.433 1.418 1.453 1.413 1.436 1.508 1.521 1.438 1.481 1.453 1.488 1.536 1.526 1.518 1.496 1.471 1.471 1.533 1.436 1.416 1.426 1.516 1.583 1.508 1.521 1.483 1.596 1.523 1.453 1.496 1.456 1.438 1.478 1.501 1.473 1.543 1.526 1.583 1.573 1.576 1.588 1.566 1.516 1.461 1.476 1.523 1.541 1.598 1.508 1.503 1.511 1.626 1.608 1.663 1.591 1.526 1.601 1.566 1.483 1.461 1.508 1.493 1.481 1.528 1.618 1.658 1.588 1.576 1.696 1.601 1.733 1.631 1.611 1.556 1.561 1.586 1.546 1.588 1.591 1.561 1.716 1.573 1.573 1.598 1.613 1.573 1.623 1.576 1.668 1.636 1.616 1.648 1.603 1.601 1.513 1.556 1.583 1.548 1.598 1.596 1.553 1.551 1.478 1.511 1.501 1.438 1.388 1.461 1.556 1.576 1.591 1.538 1.501 1.491 1.501 1.558 1.558 1.378 1.343 1.328 1.373 1.461 1.383 1.343 1.413 1.458 1.393 1.381 1.383 1.423 1.388 1.388 1.371 1.481 1.433 1.426 1.351 1.403 1.318 1.388 1.438 1.406 1.503 1.556 1.501 1.398 1.426 1.401 1.471 1.488 1.443 1.388 1.341 1.386 1.483 1.481 1.391 1.513 1.531 1.473 1.496 1.468 1.461 1.416 1.398 1.436 1.468 1.493 1.388 1.413 1.416 1.383 1.393 1.496 1.566 1.541 1.511 1.493 1.531 1.558 1.618 1.531 1.536 1.491 1.523 1.541 1.591 1.578 1.616 1.536 1.558 1.468 1.428 1.453 1.396 1.423 1.506 1.486 1.548 1.408 1.543 1.501 1.453 1.386 1.408 1.503 1.523 1.541 1.453 1.391 1.433 1.461 1.566 1.593 1.546 1.483 1.471 1.453 1.463 1.431 1.351 1.431 1.371 1.413 1.418 1.401 1.493 1.428 1.433 1.446 1.536 1.541 1.536 1.371 1.493 1.476 1.491 1.543 1.516 1.486 1.506 1.456 1.373 1.368 1.413 1.491 1.523 1.486 1.486 1.431 1.421 1.408 1.456 1.426 1.403 1.343 1.308 1.321 1.328 1.346 1.396 1.418 1.418 1.458 1.428 1.446 1.513 1.516 1.526 1.561 1.576 1.441 1.398 1.426 1.496 1.416 1.423 1.413 1.456 1.463 1.483 1.501 1.536 1.556 1.576 1.613 1.563 1.526 1.496 1.531 1.591 1.511 1.491 1.498 1.458 1.438 1.396 1.416 1.401 1.386 1.388 1.438 1.408 1.423 1.461 1.396 1.383 1.376 1.356 1.341 1.318 1.376 1.283 1.273 1.261 1.276 1.301 1.276 1.311 1.246 1.248 1.273 1.293 1.291 1.301 1.316 1.283 1.271 1.226 1.251 1.271 1.243 1.313 1.293 1.338 1.406 1.418 1.418 1.413 1.508 1.558 1.633 1.571 1.543 1.528 1.503 1.548 1.573 1.588 1.658 1.636 1.521 1.556 1.551 1.636 1.633 1.608 1.581
