ncols 488
nrows 32
xllcorner    463024
yllcorner    91798
cellsize     2
NODATA_value -9999
-0.742 -0.901 -1.173 -1.511 -1.736 -2.097 -1.957 -2.037 -2.092 -1.944 -2.147 -1.994 -2.069 -1.969 -2.057 -1.994 -2.127 -1.992 -2.007 -2.044 -2.079 -2.254 -2.064 -2.049 -1.947 -2.039 -2.039 -1.997 -2.022 -1.909 -2.002 -1.952 -2.119 -2.069 -2.112 -2.002 -2.119 -1.954 -2.079 -2.057 -2.087 -2.147 -2.107 -1.9 -1.755 -1.463 -1.325 -1.133 -0.952 -0.831 -0.706 -0.577 -0.571 -0.302 -0.306 -0.137 0.131 0.296 0.425 0.591 0.768 0.895 0.86 0.996 1.276 1.346 1.207 1.005 0.955 1.184 1.343 1.253 1.101 1.153 1.184 1.468 1.719 1.45 1.343 1.452 1.385 1.194 0.882 1.055 1.114 1.066 0.895 0.936 1.088 1.167 1.368 1.631 1.655 1.369 1.184 1.259 1.235 1.252 1.226 1.283 1.339 1.569 1.561 1.564 1.593 1.612 1.602 1.575 1.534 1.55 1.564 1.556 1.529 1.561 1.559 1.571 1.536 1.55 1.62 1.663 1.695 1.686 1.656 1.651 1.562 1.54 1.634 1.674 1.639 1.607 1.62 1.824 1.745 1.589 1.552 1.605 1.669 1.692 1.692 1.675 1.607 1.583 1.566 1.581 1.555 1.57 1.596 1.596 1.554 1.568 1.566 1.552 1.577 1.623 1.67 1.695 1.736 1.602 1.44 1.576 1.628 1.581 1.632 1.62 1.493 1.454 1.453 1.454 1.48 1.494 1.5 1.501 1.459 1.484 1.495 1.626 1.612 1.621 1.52 1.556 -9999 1.596 1.593 1.607 1.601 1.553 1.567 1.617 1.648 1.664 1.671 1.618 1.563 1.562 1.578 1.58 1.584 1.531 1.416 1.455 1.542 1.534 1.516 1.51 1.516 1.648 1.57 1.49 1.614 1.635 1.609 1.581 1.56 1.593 1.61 1.603 1.574 1.619 1.62 1.606 1.61 1.644 1.686 1.69 1.628 1.574 1.689 1.663 1.62 1.571 1.542 1.595 1.634 1.619 1.63 1.644 1.68 1.701 1.667 1.647 1.65 1.653 1.594 1.523 1.533 1.556 1.577 1.613 1.624 1.56 1.548 1.62 1.643 1.636 1.626 1.639 1.64 1.622 1.645 1.679 1.668 1.637 1.607 1.627 1.663 1.687 1.604 1.557 1.625 1.583 1.548 1.538 1.586 1.605 1.619 1.598 1.562 1.467 1.501 1.543 1.566 1.571 1.587 1.59 1.602 1.599 1.564 1.541 1.509 1.568 1.605 1.625 1.656 1.644 1.609 1.549 1.538 1.54 1.645 1.571 1.44 1.408 1.496 1.604 1.586 1.579 1.606 1.629 1.621 1.614 1.606 1.688 1.693 1.682 1.683 1.675 1.68 1.753 1.72 1.69 1.671 1.642 1.568 1.584 1.583 1.595 1.588 1.565 1.604 1.699 1.762 1.673 1.596 1.66 1.691 1.615 1.579 1.586 -9999 -9999 -9999 1.669 1.595 1.65 1.641 1.652 1.655 1.644 1.63 1.631 1.604 1.542 1.46 1.459 1.493 1.53 1.55 1.513 1.572 1.58 1.452 1.518 1.561 1.576 1.574 1.569 -9999 1.545 1.536 1.563 1.573 1.584 1.578 1.588 1.69 1.737 1.583 1.567 1.578 1.659 1.694 1.651 1.692 1.703 1.693 1.686 1.691 1.576 1.705 1.696 1.755 1.707 1.682 1.684 1.711 1.731 1.705 1.721 1.633 1.594 1.539 1.523 1.484 1.481 1.568 1.665 1.647 1.573 1.606 1.625 1.616 1.611 1.592 1.581 1.604 1.648 1.69 1.699 1.753 1.695 1.688 1.667 1.642 1.606 1.603 1.607 1.657 1.64 1.606 1.578 1.572 1.588 1.625 1.59 1.584 1.587 1.57 1.557 1.546 1.588 1.618 1.668 1.575 1.472 1.572 1.597 1.631 1.698 1.713 1.653 1.656 1.693 1.681 1.726 1.717 1.713 1.68 1.672 1.665 1.653 1.614 1.576 1.567 1.564 1.546 1.528 1.543 1.577 1.647 1.667 1.552 1.602 1.619 1.641 1.592 1.564 1.552 1.596 1.626 1.624 1.635 1.692 1.744 1.673 1.518 1.563 1.771 1.678
-0.763 -0.95 -1.194 -1.564 -1.665 -2.199 -2.144 -2.047 -2.022 -2.049 -1.964 -2.004 -2.102 -2.009 -2.027 -2.052 -1.912 -1.997 -2.044 -2.069 -2.032 -2.087 -2.082 -2.014 -2.089 -2.039 -2.082 -1.947 -2.059 -1.992 -1.992 -2.039 -2.079 -1.994 -2.074 -1.997 -2.139 -1.954 -2.114 -1.977 -2.162 -2.022 -1.992 -2.054 -1.843 -1.679 -1.416 -1.393 -1.072 -1.067 -0.915 -0.769 -0.603 -0.592 -0.459 -0.196 0.208 0.406 0.489 0.758 0.951 1.105 1.115 1.018 1.01 1.077 1.012 0.859 0.985 1.203 1.532 1.314 1.102 0.914 1.137 1.363 1.411 1.334 1.211 1.276 1.173 1.025 1.126 1.391 1.411 1.25 1.054 1.07 1.281 1.453 1.299 1.376 1.378 1.259 1.306 1.522 1.288 1.047 1.097 1.359 1.567 1.238 1.278 1.565 1.59 1.594 1.599 1.594 1.601 1.591 1.605 1.64 1.696 1.627 1.593 1.615 1.542 1.577 1.645 1.694 1.651 1.643 1.688 1.66 1.626 1.565 1.611 1.613 1.572 1.642 1.673 1.696 1.609 1.542 1.534 1.6 1.648 1.696 1.721 1.7 1.642 1.593 1.581 1.603 1.58 1.567 1.611 1.596 1.557 1.535 1.557 1.56 1.582 1.612 1.629 1.648 1.65 1.602 1.59 1.601 1.633 1.505 1.562 1.533 1.473 1.448 1.459 1.431 -9999 1.441 1.447 1.412 1.403 -9999 1.554 1.628 1.623 1.597 1.546 1.55 1.557 1.563 1.554 1.59 1.639 1.617 1.594 1.611 1.621 1.611 1.604 1.58 1.531 1.522 1.488 1.49 1.509 1.515 1.5 1.517 1.559 1.573 1.559 1.529 1.525 1.595 1.569 1.48 1.67 1.677 1.638 1.603 1.597 1.623 1.637 1.637 1.616 1.6 1.601 1.605 1.612 1.641 1.666 1.665 1.61 1.619 1.567 1.607 1.614 1.565 1.51 1.643 1.659 1.662 1.638 1.655 1.697 1.719 1.645 1.651 1.61 1.554 1.59 1.601 1.602 1.475 1.558 1.672 1.625 1.534 1.557 1.587 1.638 1.651 1.646 1.639 1.627 1.583 1.615 1.654 1.654 1.655 1.63 1.623 1.599 1.553 1.525 1.487 1.499 1.471 1.498 1.549 1.594 1.566 1.524 1.566 1.554 1.503 1.551 1.53 1.554 1.555 1.543 1.51 1.622 1.597 1.559 1.527 1.51 1.513 1.473 1.423 1.673 1.628 1.563 1.551 1.544 1.553 1.72 1.592 1.404 1.433 1.496 1.535 1.573 1.6 1.643 1.636 1.616 1.602 1.604 1.716 1.69 1.636 1.701 1.658 1.574 1.639 1.654 1.653 1.66 1.671 1.541 1.616 1.562 1.592 1.571 1.552 1.522 1.697 1.719 1.66 1.576 1.599 -9999 1.603 1.583 1.589 1.602 1.665 -9999 1.72 1.784 1.74 1.711 1.709 1.667 1.632 1.631 1.657 1.601 1.584 1.53 1.489 1.48 1.529 1.569 1.53 1.559 1.557 1.488 1.526 1.562 1.57 1.568 1.573 1.555 1.589 1.654 1.701 1.595 1.575 1.568 1.556 1.652 1.655 1.53 1.588 1.655 1.767 1.685 1.624 1.707 1.679 1.633 1.67 1.671 1.629 1.679 1.662 1.683 1.645 1.658 1.705 1.733 1.738 1.723 1.699 1.649 1.582 1.504 1.469 1.522 1.557 1.563 1.581 1.667 1.639 1.667 1.646 1.604 1.568 1.537 1.589 1.586 1.571 1.556 1.636 1.587 1.636 1.694 1.768 1.699 1.667 1.62 1.567 1.625 1.607 1.632 1.654 1.592 1.574 1.59 1.589 1.59 1.589 1.575 1.593 1.583 1.589 1.608 1.645 1.587 1.529 1.598 -9999 1.699 1.746 1.72 1.672 1.658 1.716 1.651 1.586 1.703 1.718 1.704 1.698 1.694 1.667 1.61 1.568 1.569 1.582 1.541 1.503 1.541 -9999 1.608 1.571 1.533 1.587 1.603 1.612 1.59 1.605 1.607 1.637 1.666 1.593 1.583 1.657 1.737 1.746 1.664 1.723 1.819 1.753
-0.702 -0.995 -1.282 -1.584 -1.78 -1.999 -2.077 -2.002 -2.017 -2.219 -2.034 -1.994 -2.029 -1.972 -2.119 -2.189 -2.149 -2.009 -2.087 -2.042 -2.084 -2.122 -2.144 -2.002 -1.987 -2.014 -2.022 -2.099 -2.109 -2.034 -2.014 -2.119 -2.194 -2.054 -2.127 -2.057 -2.004 -1.989 -2.124 -2.027 -2.129 -2.187 -2.127 -1.969 -2.121 -1.869 -1.568 -1.415 -1.322 -1.165 -1.085 -0.971 -0.749 -0.503 -0.346 -0.115 0.194 0.46 0.55 0.836 1.063 1.293 -2.009 1.177 0.95 0.797 0.83 0.836 0.972 1.156 1.336 1.233 1.069 0.866 0.937 1.091 1.17 1.163 1.066 1.066 0.959 0.995 1.259 1.6 1.702 1.342 1.149 1.183 1.463 1.667 1.363 1.108 1.088 1.047 1.303 1.57 1.347 1.091 1.054 1.212 1.288 1.239 1.535 1.35 1.571 1.56 1.582 1.6 1.575 1.595 1.62 1.631 1.646 -9999 1.616 1.604 1.61 1.639 1.615 1.606 1.504 1.563 1.696 1.653 1.554 1.565 1.608 1.637 1.65 1.64 1.646 1.577 1.502 1.404 1.498 1.613 1.637 1.71 1.757 1.669 1.611 1.585 1.561 1.528 1.548 1.54 1.57 1.533 1.529 1.527 1.558 1.564 1.581 1.593 1.591 1.611 1.628 1.599 1.589 1.583 1.585 1.578 1.629 1.501 1.475 1.421 1.409 1.409 1.417 1.416 1.403 1.331 1.382 1.481 1.566 1.62 1.656 1.627 1.568 1.559 1.56 1.563 1.562 1.588 1.621 1.604 1.574 1.56 1.542 1.506 1.587 1.586 1.598 1.548 1.446 1.44 1.523 1.481 1.587 1.591 1.604 1.608 1.599 1.573 1.528 1.594 1.641 1.664 1.662 1.655 1.632 1.615 1.61 1.626 1.657 1.657 1.617 1.585 1.602 1.608 1.626 1.631 1.64 1.608 1.534 1.395 1.494 1.583 1.641 1.568 1.579 1.574 1.648 1.655 1.647 1.662 1.71 1.729 1.627 1.515 1.607 1.634 1.648 1.664 1.687 1.549 1.596 1.664 1.644 1.583 1.579 1.622 1.685 1.683 1.675 1.661 1.645 1.638 1.628 1.631 1.623 1.602 1.614 1.601 1.54 1.463 1.459 1.428 1.462 1.472 1.504 1.538 1.568 1.527 1.479 1.582 1.581 1.55 1.528 1.51 1.584 1.547 1.577 1.603 1.569 1.526 1.574 1.517 1.508 1.486 1.459 1.485 1.624 1.595 1.503 1.562 1.546 1.564 1.712 1.659 1.513 1.427 1.486 1.545 1.574 1.609 1.592 1.602 1.628 1.625 1.599 1.668 1.676 1.601 1.764 1.664 1.506 1.607 1.625 1.623 1.646 1.645 1.596 1.601 1.581 1.578 1.579 1.628 1.574 1.635 1.682 1.612 1.525 1.579 1.591 1.565 1.548 1.584 1.63 1.667 1.712 1.727 1.723 1.726 1.707 1.713 1.702 1.589 1.615 1.687 1.623 1.602 1.604 1.551 1.404 1.48 1.539 1.502 1.515 1.55 1.531 1.552 1.57 1.566 1.563 1.567 1.518 1.579 1.628 1.643 1.514 1.533 1.64 1.728 1.63 1.591 1.6 1.749 1.75 1.712 1.623 1.648 1.679 1.66 1.631 1.661 1.643 1.622 1.69 1.576 1.672 1.658 1.661 1.702 1.722 1.737 1.72 1.707 1.665 1.552 1.549 1.555 1.579 1.569 1.549 1.58 1.642 1.681 1.679 1.66 1.602 1.545 1.459 1.504 1.571 1.546 1.532 1.569 1.581 1.65 1.743 1.751 1.757 1.698 1.679 1.699 1.663 1.6 1.611 1.619 1.597 1.574 1.571 1.59 1.602 1.591 1.568 1.6 1.575 1.59 -9999 1.603 1.597 1.654 1.705 1.696 1.715 1.758 1.716 1.677 1.675 1.629 1.629 1.671 1.713 1.726 1.719 1.662 1.699 1.674 1.634 1.628 1.591 1.599 1.574 1.533 1.556 1.595 1.595 1.579 1.56 1.579 1.571 1.547 1.579 1.655 1.671 1.673 1.707 1.609 1.57 1.551 1.713 1.805 1.749 1.752 1.745 1.732
-0.654 -1.017 -1.281 -1.507 -1.792 -2.042 -1.964 -1.942 -2.067 -2.019 -2.167 -2.044 -2.099 -1.982 -2.064 -2.022 -2.007 -2.084 -1.979 -2.054 -2.072 -2.177 -2.119 -1.932 -2.024 -2.002 -2.094 -2.027 -2.017 -2.062 -2.004 -2.054 -2.024 -2.014 -2.081 -2.047 -2.087 -1.989 -2.014 -2.161 -2.124 -2.084 -1.992 -2.089 -1.844 -1.717 -1.453 -1.294 -1.271 -2.007 -0.948 -0.833 -0.812 -0.459 -0.29 -0.139 0.202 0.448 0.638 0.855 1.087 1.33 1.499 1.218 0.97 0.801 0.997 1.067 1.009 1.024 1.127 1.09 0.957 0.934 1.082 1.041 1.143 1.197 1.331 1.254 1.067 0.942 1.122 1.349 1.418 1.302 1.091 1.118 1.293 1.365 1.23 1.041 1.046 1.111 1.27 1.396 1.433 1.277 1.251 1.28 1.128 1.129 1.299 1.366 1.559 1.521 1.529 1.524 1.519 1.563 1.615 1.639 1.65 1.64 1.632 1.606 1.621 1.692 1.541 1.532 1.541 1.603 1.604 1.591 1.539 1.575 1.636 1.626 1.624 1.659 1.686 1.661 1.545 1.449 1.507 1.59 1.596 1.597 1.674 1.622 1.599 1.577 1.549 1.529 1.552 1.568 1.557 1.531 1.543 1.606 1.597 1.573 1.58 1.59 1.566 1.583 1.599 1.571 1.518 1.559 1.566 1.573 1.545 1.49 1.487 1.403 1.405 1.404 1.405 1.426 1.447 1.443 1.487 1.52 1.552 1.599 1.647 1.642 1.62 1.604 1.574 1.567 1.557 1.549 1.563 1.56 1.519 1.509 1.489 1.464 1.529 1.605 1.582 1.498 1.475 1.493 1.521 1.658 1.644 1.633 1.626 1.642 1.651 1.629 1.616 1.699 1.65 1.648 1.607 1.618 1.623 1.619 1.598 1.605 1.678 1.658 1.609 1.584 1.599 1.622 1.63 1.645 1.636 1.6 1.545 1.554 1.527 1.592 1.645 1.591 1.629 1.649 1.629 1.627 1.63 1.655 1.689 1.697 1.661 1.613 1.659 1.695 1.683 1.694 1.67 1.624 1.632 1.628 1.636 1.635 1.617 1.672 1.751 1.724 1.692 1.681 1.653 1.638 1.626 1.623 1.624 1.61 1.648 1.661 1.58 1.461 1.468 1.479 1.473 1.493 1.544 1.57 1.562 1.551 1.552 1.574 1.582 1.579 1.534 1.543 1.553 1.528 1.626 1.598 1.546 1.519 1.556 1.536 1.543 1.532 1.554 1.641 1.731 1.693 1.649 1.538 1.545 1.579 1.657 1.665 1.57 1.5 1.516 1.548 1.611 1.609 1.533 1.584 1.653 1.664 1.71 1.67 1.651 1.627 1.693 1.642 1.59 1.624 1.607 1.576 1.596 1.649 1.692 1.655 1.581 1.582 1.592 1.577 1.58 1.599 1.588 1.557 1.546 1.603 1.644 1.557 1.529 1.59 1.644 1.667 1.704 1.723 1.706 1.67 1.652 1.701 1.622 1.597 1.626 1.627 1.584 1.571 1.59 1.568 1.554 1.518 1.52 1.502 1.505 1.526 1.565 1.572 1.572 1.604 1.557 1.5 1.471 1.572 1.597 1.61 1.526 1.516 1.535 1.629 1.566 1.563 1.714 1.755 1.728 1.623 1.526 1.566 1.623 1.617 1.613 1.67 1.681 1.546 1.607 1.578 1.53 1.63 1.662 1.67 1.671 1.689 1.712 1.683 1.634 1.603 1.584 1.575 1.647 1.606 1.602 1.648 1.724 1.714 1.705 1.702 1.692 1.588 1.569 1.542 1.589 1.512 1.55 1.588 1.627 1.597 1.604 1.714 1.773 1.782 1.664 1.658 1.683 1.634 1.615 1.599 1.574 1.557 1.578 1.602 1.632 1.6 1.549 1.572 1.575 1.571 -9999 1.577 1.586 1.662 1.735 1.686 1.672 1.653 1.664 1.661 1.642 1.63 1.636 1.678 1.723 1.728 1.709 1.673 1.679 1.639 1.611 1.67 1.592 1.539 1.582 1.57 1.569 1.6 1.611 1.604 1.61 1.602 1.595 1.543 1.676 1.718 1.551 1.644 1.633 1.615 1.619 1.747 1.638 1.612 1.749 1.715 1.663 1.663
-0.85 -1.043 -1.283 -1.471 -1.734 -2.062 -2.022 -2.137 -2.022 -2.004 -2.109 -2.042 -1.979 -2.089 -2.072 -2.077 -2.057 -2.037 -2.122 -2.102 -2.089 -2.159 -2.144 -2.174 -2.004 -2.052 -2.012 -2.104 -1.992 -1.994 -1.969 -2.022 -2.109 -1.984 -2.004 -2.029 -2.079 -2.042 -2.162 -2.132 -2.057 -2.094 -2.002 -1.848 -1.734 -1.497 -1.225 -1.13 -0.976 -0.913 -0.724 -0.662 -0.583 -0.515 -0.287 -0.059 0.168 0.376 0.627 0.82 0.987 1.197 1.3 1.087 0.9 0.975 1.239 1.328 1.228 1.059 0.901 0.853 0.878 1.1 1.3 1.389 1.302 1.433 1.552 1.433 1.205 0.907 0.884 1.045 1.135 1.056 0.911 0.911 1.041 1.044 1.013 1.057 1.314 1.44 1.429 1.388 1.64 1.361 1.34 1.489 1.229 1.007 1.225 1.376 1.331 1.267 1.29 1.52 1.541 1.587 1.651 1.654 1.649 1.632 1.625 1.613 1.601 1.573 1.445 1.642 1.569 1.592 1.567 1.568 1.578 1.609 1.638 1.637 1.648 1.664 1.741 1.808 1.625 1.523 1.543 1.584 1.597 1.523 1.586 1.55 1.573 1.587 1.55 1.517 1.544 1.616 1.578 1.539 1.546 1.583 1.585 1.575 1.537 1.503 1.634 1.627 1.594 1.558 1.543 1.582 1.58 1.555 1.509 1.441 1.545 1.441 1.418 1.42 1.442 1.478 1.492 1.527 1.602 1.542 1.551 1.591 1.646 1.639 1.653 1.634 1.59 1.582 1.571 1.528 1.547 1.563 1.554 1.516 1.467 1.404 1.481 1.581 1.588 1.554 1.569 1.577 1.579 1.622 1.581 1.615 1.668 1.669 1.633 1.671 1.63 1.587 1.567 1.564 1.582 1.598 1.636 1.619 1.603 1.605 1.616 1.642 1.659 1.688 1.644 1.645 1.611 1.652 1.64 1.598 1.584 1.555 1.563 1.659 1.709 1.618 1.628 1.61 1.599 1.604 1.611 1.615 1.648 1.669 1.657 1.644 1.687 1.712 1.654 1.685 1.719 1.704 1.644 1.643 1.636 1.657 1.598 1.652 1.722 1.713 1.687 1.709 1.662 1.6 1.601 1.608 1.594 1.59 1.675 1.777 1.682 1.573 1.548 1.55 1.477 1.503 1.532 1.547 1.551 1.566 1.574 1.564 1.56 1.505 1.507 1.549 1.547 1.551 1.576 1.561 1.523 1.508 1.582 1.653 1.601 1.551 1.615 1.689 1.731 1.7 1.634 1.537 1.547 1.598 1.669 1.726 1.606 1.529 1.582 1.644 1.581 1.512 1.463 1.554 1.59 1.631 1.652 1.635 1.598 1.589 1.618 1.621 1.612 1.646 1.597 1.523 1.593 1.633 1.644 1.658 1.669 1.631 1.595 1.567 1.541 1.514 1.534 1.534 1.55 1.593 1.618 1.567 1.568 1.611 1.65 1.685 1.703 1.712 1.696 1.643 1.623 1.733 1.612 1.552 1.7 1.65 1.525 1.542 1.586 1.59 1.552 1.504 1.475 1.465 1.468 1.49 1.555 1.575 1.583 1.578 1.507 1.497 1.502 1.535 1.545 1.531 1.516 1.501 1.527 1.554 1.567 1.599 1.64 1.693 1.702 1.695 1.611 1.58 1.588 1.614 1.566 1.633 1.646 1.527 1.539 1.542 1.556 1.681 1.654 1.644 1.562 1.591 1.636 1.624 1.586 1.615 1.615 1.562 1.503 1.566 1.614 1.669 1.71 1.715 1.714 1.693 1.689 1.608 1.562 1.564 1.558 1.561 1.597 1.644 1.672 1.601 1.542 1.718 1.757 1.746 1.614 1.592 1.593 1.612 1.587 1.56 1.53 1.546 1.581 1.588 1.592 1.575 1.581 1.624 1.589 1.548 1.505 1.525 1.544 1.533 1.616 1.66 1.666 1.649 1.621 1.626 1.631 1.643 1.654 1.679 1.707 1.693 1.66 1.665 1.673 1.603 1.539 1.57 1.619 1.599 1.601 1.602 1.567 1.628 1.634 1.643 1.667 1.627 1.612 1.632 1.7 1.689 1.644 -9999 1.591 1.59 1.586 1.604 1.629 1.669 1.796 1.738 1.683 1.628
-0.836 -1.079 -1.329 -1.42 -1.752 -2.114 -2.122 -2.129 -2.047 -2.097 -1.949 -2.042 -2.182 -2.049 -2.142 -2.097 -1.909 -2.064 -2.024 -2.082 -2.167 -2.109 -2.047 -2.112 -1.979 -2.097 -2.027 -2.007 -2.067 -1.917 -1.979 -1.969 -2.039 -1.992 -1.977 -2.144 -2.022 -2.067 -2.201 -2.054 -2.032 -2.077 -1.99 -1.677 -1.565 -1.305 -1.048 -1.017 -0.801 -0.69 -0.509 -0.414 -0.388 -0.302 -0.278 -0.12 0.1 0.296 0.538 0.73 0.909 1.031 1.12 0.964 0.793 1.016 1.284 1.547 1.325 1.084 0.861 0.701 0.872 1.088 1.357 1.601 1.398 1.518 1.815 1.513 1.23 0.936 0.731 0.801 0.862 0.851 0.738 0.724 0.797 0.835 0.855 1.158 1.442 1.736 1.691 1.351 1.331 1.334 1.56 1.251 1.123 0.97 1.328 1.63 1.368 1.363 1.521 1.288 1.588 1.688 1.737 1.646 1.605 1.619 1.618 1.605 1.571 1.547 1.538 1.636 1.639 1.595 1.527 1.525 1.545 1.614 1.626 1.623 1.65 1.669 1.72 1.747 1.614 1.474 1.562 1.654 1.613 1.586 1.584 1.591 1.595 1.6 1.604 1.498 1.481 1.626 1.611 1.555 1.533 1.555 1.564 1.57 1.598 1.553 1.602 1.609 -9999 1.554 1.563 1.563 1.568 1.537 1.492 1.472 1.495 1.433 1.475 1.476 1.499 1.478 1.497 1.511 1.646 1.633 1.645 1.627 1.609 1.593 1.588 1.675 1.605 1.58 1.556 1.49 1.532 1.573 1.574 1.549 1.513 1.517 1.508 1.605 1.628 1.667 1.694 1.661 1.58 1.525 1.604 1.623 1.721 1.71 1.683 1.741 1.608 1.47 1.498 1.495 1.515 1.581 1.657 1.64 1.613 1.589 1.571 1.612 1.683 1.673 1.56 1.577 1.553 1.602 1.609 1.606 1.608 1.578 1.556 1.619 1.656 1.653 1.626 1.585 1.555 1.565 1.585 1.596 1.598 1.602 1.583 1.601 1.634 1.643 1.609 1.676 1.744 1.725 1.695 1.618 1.608 1.528 1.567 1.64 1.681 1.718 1.729 1.772 1.716 1.605 1.597 1.607 1.607 1.611 1.643 1.706 1.658 1.598 1.581 1.587 1.577 1.528 1.491 1.46 1.524 1.568 1.574 1.557 1.517 1.475 1.459 1.527 1.555 1.552 1.559 1.54 1.498 1.517 1.588 1.708 1.605 1.47 1.539 1.658 1.699 1.663 1.598 1.597 1.597 1.645 1.547 1.615 1.581 1.464 1.542 1.613 1.567 1.503 1.509 1.543 1.555 1.569 1.606 1.611 1.592 1.558 1.6 1.603 1.624 1.64 1.575 1.499 1.563 1.602 1.61 1.646 1.677 1.661 1.596 1.565 1.56 1.534 1.552 1.562 1.568 1.59 1.606 1.59 1.596 1.637 1.679 1.68 1.689 1.708 1.7 1.676 1.68 1.658 1.587 1.574 1.667 1.629 1.55 1.551 1.593 1.577 1.546 1.468 1.426 1.449 1.429 1.424 1.471 1.559 1.534 1.529 1.475 1.494 1.515 1.505 1.502 1.514 1.493 1.508 1.523 1.574 1.591 1.624 1.642 1.659 1.674 1.674 1.631 1.588 1.596 1.592 1.595 1.577 1.592 1.483 1.495 1.549 1.611 1.642 1.648 1.676 1.605 1.574 1.614 1.607 1.591 1.614 1.666 1.659 1.593 1.561 1.608 1.639 1.671 1.715 1.76 1.657 1.635 1.594 1.517 1.547 1.575 1.614 1.635 1.653 1.639 1.672 1.744 1.8 1.805 1.714 1.658 1.583 1.612 1.597 1.568 1.561 1.517 1.541 1.554 1.556 1.534 1.518 1.529 1.605 1.444 1.504 1.503 1.531 1.484 1.545 1.631 1.672 1.704 1.677 1.62 1.62 1.639 1.7 1.727 1.717 -9999 1.625 1.588 1.596 1.633 1.626 1.601 1.634 1.714 1.635 1.656 1.666 1.681 1.658 1.633 1.639 1.653 1.642 1.633 1.705 1.715 1.699 1.657 1.593 1.584 1.578 1.495 1.478 1.651 1.635 1.636 1.686 1.658 1.634
-0.758 -1.031 -1.334 -1.531 -1.7 -2.062 -2.162 -2.099 -2.039 -2.002 -1.969 -2.072 -2.009 -2.012 -2.082 -2.034 -2.069 -2.037 -2.012 -2.064 -2.234 -2.129 -1.932 -2.062 -2.057 -1.962 -2.134 -1.974 -2.047 -2.024 -2.112 -2.049 -1.942 -2.002 -2.017 -2.077 -2.007 -2.064 -2.042 -2.202 -2.157 -1.975 -1.766 -1.608 -1.257 -1.149 -0.862 -0.719 -0.595 -0.439 -0.329 -0.225 -0.153 -0.114 -0.159 -0.099 0.048 0.238 0.43 0.672 0.758 0.851 0.887 0.821 0.787 0.968 1.172 1.333 1.208 1.009 0.73 0.843 1.048 1.116 1.274 1.306 1.258 1.388 1.503 1.394 1.097 0.808 0.584 0.56 0.623 0.601 0.525 0.486 0.706 0.897 1.117 1.196 1.34 1.441 1.361 1.299 1.559 1.319 1.56 1.285 1.034 0.991 1.221 1.332 1.597 1.365 1.346 1.358 1.663 1.439 1.645 1.63 1.615 1.609 1.611 1.602 1.595 1.595 1.597 1.618 1.616 1.598 1.568 1.515 1.472 1.544 1.588 1.619 1.693 1.635 1.612 1.611 1.6 1.592 1.576 1.604 1.586 1.588 1.603 1.599 1.599 1.593 1.556 1.511 1.57 1.64 1.579 1.535 1.512 1.533 1.549 1.541 1.555 1.528 1.539 1.551 1.556 1.542 1.532 1.552 1.555 1.526 1.499 1.505 1.517 1.524 1.499 1.486 1.558 1.591 1.444 1.454 1.507 1.608 1.639 1.606 1.568 1.577 1.595 1.63 1.593 1.582 1.573 1.571 1.58 1.598 1.568 1.545 1.533 1.585 1.553 1.584 1.625 1.671 1.727 1.691 1.59 1.68 1.605 1.627 1.676 1.693 1.688 1.664 1.593 1.524 1.558 1.568 1.538 1.597 1.65 1.651 1.648 1.654 1.592 1.607 1.649 1.634 1.549 1.527 1.522 1.543 1.585 1.632 1.606 1.565 1.532 1.574 1.625 1.615 1.581 1.557 1.549 1.551 1.561 1.563 1.538 1.514 1.523 1.538 1.591 1.616 1.629 1.674 1.729 1.732 1.758 1.779 1.666 1.609 1.62 1.657 1.64 1.745 1.811 1.815 1.742 1.621 1.616 1.622 1.615 1.619 1.584 1.575 1.536 1.576 1.568 1.55 1.528 1.524 1.499 1.487 -9999 1.529 1.531 1.505 1.479 1.439 1.416 1.495 1.523 1.567 1.592 1.513 1.455 1.492 1.507 1.591 1.576 1.513 1.567 1.644 1.684 1.66 1.643 1.631 1.629 1.685 1.605 1.582 1.587 1.577 1.656 1.657 1.564 1.536 1.571 1.558 1.538 1.563 1.623 1.612 1.6 1.582 1.546 1.561 1.608 1.617 1.558 1.485 1.565 1.605 1.623 1.657 1.701 1.673 1.618 1.607 1.612 1.606 1.598 1.609 1.649 1.638 1.623 1.618 1.629 1.649 1.666 1.66 1.657 1.657 1.671 1.689 1.682 1.645 1.565 1.552 1.635 1.549 1.546 1.545 1.553 1.544 1.526 1.492 1.472 1.475 1.474 1.501 1.553 1.496 1.455 1.526 1.503 1.515 1.532 1.487 1.447 1.502 1.548 1.538 1.528 1.604 1.597 1.594 1.617 1.631 1.642 1.641 1.611 1.597 1.628 1.615 1.593 1.562 1.596 1.64 1.568 1.575 1.657 1.638 1.624 1.636 1.7 1.659 1.667 1.589 1.599 1.644 1.668 1.705 1.644 1.577 1.574 1.593 1.638 1.707 1.693 1.591 1.638 1.585 1.433 1.483 1.584 1.617 1.673 1.678 1.607 1.736 1.862 1.845 1.761 1.616 1.574 1.57 1.641 1.544 1.558 1.592 1.624 1.593 1.541 1.548 1.527 1.49 1.493 1.558 1.494 1.483 1.467 1.51 1.509 1.565 1.627 1.671 1.753 1.721 1.616 1.627 1.669 1.763 1.813 1.74 1.653 1.596 1.553 1.54 1.665 1.66 1.652 1.662 1.693 1.691 1.73 1.703 1.673 1.641 1.574 1.601 1.632 1.639 1.673 1.705 1.687 1.651 1.617 1.618 1.626 1.592 1.542 1.552 1.625 1.498 1.566 1.676 1.688 1.654
-0.704 -0.983 -1.268 -1.541 -1.807 -1.954 -2.077 -2.014 -2.039 -2.162 -1.919 -1.964 -2.067 -2.032 -2.094 -2.082 -2.099 -2.062 -2.022 -2.009 -2.247 -2.059 -2.082 -2.004 -1.992 -2.002 -2.012 -2.037 -1.922 -2.049 -2.129 -2.054 -2.047 -2.077 -2.044 -2.042 -2.014 -2.067 -2.094 -2.027 -2.224 -1.879 -1.627 -1.423 -1.2 -1.075 -0.801 -0.663 -0.462 -0.176 -0.1 0.034 0.092 0.142 0.061 0.108 0.097 0.096 0.249 0.426 0.476 0.541 0.606 0.63 0.675 0.85 1.009 1.122 1.051 0.906 0.818 1.072 1.313 1.487 1.428 1.18 1.123 1.156 1.251 1.147 0.935 0.74 0.502 0.326 0.42 0.373 0.341 0.59 0.83 1.071 1.301 1.433 1.449 1.672 1.347 1.172 1.312 1.227 1.335 1.223 1.022 1.055 1.065 1.253 1.544 1.345 1.135 1.312 1.416 1.313 1.419 1.611 1.603 1.592 1.596 1.604 1.599 1.614 1.595 1.597 1.575 1.562 1.528 1.496 1.426 1.498 1.522 1.563 1.623 1.576 1.583 1.545 1.564 1.662 1.574 1.493 1.549 1.565 1.591 1.572 1.558 1.567 1.533 1.546 1.524 1.582 1.535 1.519 1.513 1.555 1.558 1.537 1.444 1.394 1.515 1.548 1.54 1.545 1.54 1.571 1.553 1.498 1.498 1.514 1.534 1.548 1.563 1.536 1.583 1.571 1.472 1.465 1.514 1.606 1.624 1.585 1.561 1.604 1.631 1.596 1.589 1.593 1.607 1.595 1.638 1.594 1.541 1.512 1.546 1.552 1.547 1.552 1.577 1.623 1.635 1.676 1.659 1.684 1.651 1.649 1.659 1.676 1.651 1.655 1.615 1.583 1.607 1.63 1.652 1.668 1.691 1.654 1.614 1.593 1.546 1.571 1.607 1.587 1.547 1.537 1.506 1.482 1.592 1.707 1.637 1.573 1.553 1.553 1.57 1.57 1.555 1.566 1.542 1.53 1.564 1.575 1.538 1.501 1.53 1.549 1.589 1.585 1.623 -9999 1.718 -9999 1.723 1.732 1.769 1.809 1.69 1.654 1.663 1.718 1.758 1.651 1.674 1.619 1.642 1.644 1.62 1.562 1.536 1.533 1.539 1.573 1.533 1.493 1.483 1.506 1.487 1.494 1.485 1.479 1.479 1.471 1.479 1.457 1.448 1.467 1.486 1.531 1.563 1.529 1.495 1.49 1.521 1.584 1.566 1.582 1.617 1.68 1.662 1.647 1.636 1.632 1.625 1.613 1.576 1.588 1.62 1.644 1.664 1.62 1.579 1.572 1.59 1.567 1.531 1.568 1.59 1.606 1.603 1.622 1.529 1.564 1.607 1.611 1.571 1.528 1.573 1.618 1.626 1.643 1.627 1.644 1.657 1.658 1.655 1.663 1.609 1.625 1.657 1.645 1.63 1.625 1.631 1.64 1.636 1.608 1.597 1.615 1.645 1.697 1.703 1.666 1.562 1.518 1.546 1.535 1.522 1.525 1.505 1.469 1.479 1.487 1.514 1.513 1.522 1.534 1.538 1.518 1.488 1.482 1.459 1.517 1.542 1.503 1.464 1.512 1.572 1.578 1.6 1.582 1.572 1.521 1.558 1.599 1.649 1.628 1.597 1.592 1.614 1.607 1.597 1.555 1.572 1.611 1.597 1.576 1.687 1.588 1.614 1.67 1.73 1.704 1.66 1.615 1.639 1.677 1.597 1.623 1.632 1.583 1.563 1.513 1.475 1.716 1.686 1.649 1.641 1.594 1.502 1.522 1.574 1.621 1.656 1.659 1.671 1.72 1.744 1.758 1.64 1.565 1.484 1.544 1.579 1.557 1.601 1.611 1.63 1.603 1.577 1.533 1.541 1.518 1.483 1.526 1.515 1.47 1.463 1.528 1.557 1.584 1.621 1.607 1.765 1.72 1.633 1.695 1.651 1.73 1.764 1.712 1.669 1.601 1.588 1.589 1.642 1.653 1.653 1.644 1.632 1.649 1.679 1.619 1.621 1.61 1.595 1.623 1.626 1.629 1.635 1.65 1.608 1.585 1.608 1.618 1.645 1.634 1.626 1.642 1.649 1.609 1.669 1.732 1.706 1.691
-0.717 -1.068 -1.336 -1.499 -1.827 -2.034 -2.024 -1.972 -2.084 -2.077 -2.044 -2.059 -2.037 -2.067 -2.054 -2.052 -2.119 -2.077 -1.949 -2.092 -1.989 -2.024 -1.934 -2.084 -2.019 -1.987 -2.072 -2.017 -1.962 -2.177 -2.034 -2.027 -2.012 -2.074 -2.054 -2.024 -2.002 -2.049 -2.124 -2.109 -2.031 -1.792 -1.54 -1.343 -1.088 -0.835 -0.686 -0.5 -0.252 -0.033 0.142 0.288 0.357 0.375 0.421 0.397 0.361 0.227 0.026 0.197 0.257 0.385 0.386 0.396 0.529 0.7 0.922 1.121 1.06 1.035 0.944 1.146 1.479 1.813 1.599 1.269 0.961 0.942 1.033 0.866 0.748 0.537 -2.03 0.181 0.161 0.174 0.372 0.653 0.871 1.142 1.399 1.624 1.406 1.426 1.28 1.309 1.533 1.317 1.1 1.038 1.051 1.207 1.297 1.162 1.263 1.23 1.092 1.101 1.161 1.07 1.249 1.558 1.324 1.57 1.587 1.598 1.606 1.596 1.508 1.539 1.545 1.519 1.487 1.521 1.53 1.521 1.5 1.486 1.52 1.587 1.601 1.577 1.524 1.651 1.567 1.507 1.516 1.523 1.574 1.512 1.531 1.546 1.54 1.538 1.562 1.577 1.525 1.531 1.563 1.592 1.585 1.562 1.502 1.465 1.516 1.535 1.542 1.558 1.599 1.58 1.538 1.504 1.505 1.522 1.531 1.503 1.486 1.566 1.607 1.574 1.518 1.533 1.593 1.642 1.656 1.614 1.607 1.647 1.662 1.578 1.601 1.634 1.633 1.623 1.622 1.621 1.568 1.545 1.554 1.558 1.532 1.558 1.549 1.596 1.619 1.622 1.627 1.646 1.639 1.639 1.661 1.705 1.663 1.643 1.623 1.609 1.623 1.638 1.665 1.65 1.64 1.605 1.59 1.581 1.562 1.561 1.573 1.596 1.56 1.564 1.537 1.55 1.639 1.763 1.658 1.567 1.538 1.54 1.559 1.573 1.573 1.578 1.554 1.554 1.604 1.607 1.606 1.585 1.572 1.587 1.625 1.655 1.621 1.649 1.7 1.66 1.659 1.67 1.714 1.758 1.721 -9999 -9999 1.741 1.764 1.712 1.715 1.729 1.726 1.726 1.657 1.595 1.546 1.537 1.56 1.598 1.536 1.483 1.481 1.556 1.539 1.517 1.487 1.478 1.466 1.42 1.414 1.531 1.503 1.544 1.576 1.532 1.537 -9999 1.5 1.517 1.563 1.601 1.605 1.581 1.548 1.591 1.609 1.622 1.622 1.614 1.61 1.591 1.505 1.571 1.644 1.647 1.606 1.568 1.564 1.579 1.583 1.587 1.515 1.556 1.581 1.605 1.601 1.608 1.627 1.617 1.618 1.624 1.589 1.557 1.55 1.588 -9999 1.618 1.626 1.652 1.679 1.715 1.649 1.589 1.618 1.637 1.674 1.657 1.637 1.622 1.632 1.645 1.62 1.603 1.595 1.601 1.63 1.682 1.718 1.681 1.534 1.527 1.563 1.555 1.516 1.493 1.473 1.424 1.415 1.456 1.484 1.522 1.522 1.527 1.531 1.509 1.484 1.454 1.453 1.533 1.582 1.51 1.468 1.505 1.569 1.578 1.58 1.579 1.517 1.448 1.519 1.554 1.685 1.613 1.626 1.642 1.565 1.608 1.599 1.607 1.61 1.638 1.739 1.702 1.689 1.65 1.68 1.714 1.676 1.715 1.662 1.621 1.607 1.631 1.623 1.634 1.595 1.58 1.571 1.54 1.556 1.655 1.668 1.663 1.622 1.611 1.62 1.562 1.578 1.623 1.623 1.631 1.684 1.676 1.621 1.708 1.612 1.571 1.651 1.689 1.59 1.609 1.647 1.64 1.631 1.583 1.49 1.5 1.545 1.569 1.566 1.566 1.545 1.533 1.516 1.593 1.609 1.602 1.575 1.508 1.637 1.653 1.614 1.679 1.667 1.706 1.698 1.688 1.661 1.619 1.631 1.578 1.606 1.621 1.627 1.543 1.553 1.561 1.652 1.623 1.584 1.598 1.635 1.637 1.631 1.621 1.593 1.558 1.538 1.525 1.583 1.616 1.646 1.638 1.65 1.63 1.643 1.645 1.678 1.722 1.705 1.705
-0.781 -1.029 -1.23 -1.427 -1.622 -1.753 -2.092 -2.044 -2.054 -2.109 -2.159 -2.057 -2.027 -2.032 -2.022 -2.154 -2.152 -2.149 -2.024 -2.144 -2.109 -2.019 -2.087 -2.047 -2.034 -2.077 -1.987 -2.032 -2.067 -2.024 -2.027 -1.919 -2.211 -2.069 -1.989 -1.984 -1.977 -2.152 -2.112 -2.082 -1.972 -1.695 -1.557 -1.257 -1.002 -0.74 -0.579 -0.362 -0.073 0.165 0.39 0.506 0.579 0.697 0.713 0.678 0.597 0.41 0.194 0.059 0.023 0.107 0.202 0.407 0.601 0.843 1.069 1.238 1.277 1.19 1.031 1.071 1.388 1.56 1.432 1.157 0.905 0.663 0.646 0.595 0.47 0.369 0.229 0.036 -0.059 0.119 0.4 0.605 0.856 1.086 1.277 1.295 1.203 1.154 1.266 1.281 1.544 1.291 1.042 1.024 1.064 1.304 1.52 1.249 1.165 1.333 1.283 1.149 1.127 0.999 1.167 1.308 1.222 1.328 1.585 1.597 1.613 1.616 1.52 1.514 1.51 1.571 1.496 1.588 1.648 1.551 1.527 1.484 1.486 1.553 1.645 1.683 1.687 1.604 1.575 1.523 1.53 1.523 1.54 1.47 1.532 1.569 1.564 1.553 1.59 1.553 1.513 1.54 1.612 1.611 1.605 1.6 1.596 1.604 1.542 1.533 1.53 1.562 1.586 1.581 1.532 1.502 1.505 -9999 1.548 1.539 1.465 1.63 1.639 1.575 1.536 1.586 1.62 1.638 1.671 1.651 1.635 1.651 1.656 1.657 1.649 1.685 1.744 1.624 1.62 1.665 1.626 1.607 1.664 1.613 1.576 1.591 1.608 1.605 1.582 1.562 1.589 1.561 1.603 1.637 1.703 1.699 1.661 1.646 1.6 1.682 1.642 1.64 1.593 1.585 1.565 1.533 1.571 1.605 1.559 1.559 1.571 1.58 1.569 1.59 1.592 1.6 1.644 1.662 1.593 1.545 1.517 1.546 1.581 1.583 1.573 1.55 1.576 1.601 1.634 1.625 1.614 1.602 1.599 1.596 1.569 1.56 1.608 1.671 1.733 1.604 1.599 1.623 1.662 1.684 1.689 1.676 1.701 1.749 1.794 1.752 1.733 1.742 1.739 1.717 1.683 1.64 1.545 1.539 1.592 1.63 1.548 1.498 1.555 1.587 1.567 1.543 1.478 1.482 1.485 1.457 1.431 1.495 1.552 1.579 1.58 1.556 1.55 1.544 1.53 1.535 1.598 1.656 1.632 1.562 1.517 1.504 1.602 1.588 1.543 1.565 1.602 1.639 1.588 1.588 1.645 1.663 1.626 1.481 1.487 1.472 1.531 1.567 1.552 1.553 1.578 1.601 1.591 1.588 1.618 1.618 1.635 1.662 1.646 1.643 1.582 1.585 -9999 1.58 1.602 1.679 1.674 1.672 1.64 1.638 1.628 1.631 1.645 1.649 1.642 1.612 1.63 1.654 1.618 1.618 1.618 1.607 1.603 1.625 1.651 1.653 1.596 1.551 1.579 1.556 1.483 1.454 1.451 1.426 1.4 1.432 1.45 1.48 1.509 1.517 1.51 1.493 1.477 1.448 1.401 1.523 1.624 1.549 1.503 1.495 1.531 1.558 1.557 1.592 1.557 1.53 1.491 1.569 1.668 1.658 1.684 1.743 1.657 1.62 1.64 1.662 1.659 1.688 1.716 1.715 1.72 1.745 1.781 1.758 1.69 1.684 1.665 1.572 1.524 1.583 1.648 1.664 1.607 1.569 1.549 1.637 1.688 1.668 1.665 1.629 1.588 1.585 1.571 1.502 1.536 1.561 1.562 1.547 1.615 1.637 1.638 1.637 1.625 1.648 1.668 1.624 1.566 1.632 1.654 1.645 1.624 1.589 1.549 1.543 1.548 1.557 1.627 1.622 1.626 1.584 1.552 1.601 1.655 1.636 1.571 1.558 1.611 1.591 1.565 1.615 1.645 1.675 1.659 1.685 1.778 1.716 1.622 1.559 1.612 1.626 1.643 1.6 1.585 1.563 1.579 1.616 1.611 1.605 1.658 1.652 1.645 1.654 1.594 1.526 1.562 1.57 1.585 1.62 1.65 1.577 1.492 1.572 1.643 1.662 1.621 1.654 -9999 -9999
-0.658 -0.898 -1.117 -1.324 -1.503 -1.803 -1.972 -2.024 -2.087 -2.117 -1.994 -2.207 -2.037 -2.164 -2.049 -2.017 -2.019 -2.112 -2.137 -2.062 -1.989 -1.979 -2.039 -2.072 -2.052 -2.019 -2.114 -2.221 -2.019 -1.989 -2.014 -2.042 -1.949 -2.062 -2.077 -1.974 -2.089 -2.149 -2.169 -2.164 -1.88 -1.689 -1.39 -1.159 -0.938 -0.652 -0.444 -0.21 0.018 0.252 0.505 0.662 0.854 0.953 1 0.853 0.76 0.627 0.415 0.146 -0.09 -0.136 0.179 0.27 0.629 0.89 1.13 1.356 1.598 1.226 1.009 0.861 1.107 1.246 1.183 0.94 0.752 0.506 0.39 0.31 0.276 0.181 0.056 -0.063 -0.16 0.111 0.377 0.538 0.748 0.951 1.067 1.04 1.136 1.414 1.41 1.614 1.333 1.205 0.995 1.211 1.293 1.129 1.233 1.255 -2.124 -9999 1.369 1.366 1.337 1.238 -2.081 1.241 1.342 1.257 1.355 1.364 1.604 1.584 1.543 1.523 1.515 1.544 1.533 1.507 1.506 1.521 1.551 1.5 1.465 1.528 1.63 1.654 1.663 1.612 1.584 1.476 1.591 1.594 1.587 1.56 1.552 1.576 1.564 1.529 1.561 1.54 1.505 1.549 1.575 1.603 1.599 1.597 1.601 1.595 1.558 1.498 1.581 1.586 1.595 1.58 1.527 1.487 1.505 -9999 1.562 1.639 1.67 1.673 1.61 1.591 1.573 1.604 1.621 1.641 1.699 1.648 1.64 1.619 1.575 1.62 1.662 1.674 1.705 1.655 1.652 1.698 1.63 1.599 1.63 1.644 1.67 1.688 1.658 1.636 1.616 1.605 1.622 1.601 1.623 1.657 1.687 1.671 1.616 1.599 1.62 1.618 1.64 1.651 1.635 1.572 1.541 1.547 1.592 1.622 1.552 1.56 1.573 1.576 1.604 1.602 1.633 1.647 -9999 -9999 1.593 1.568 1.562 1.584 1.599 1.57 1.65 1.61 1.606 1.631 1.66 1.638 1.612 1.606 1.603 1.622 1.537 1.388 1.529 1.705 1.785 1.572 1.581 1.608 1.631 1.625 1.64 1.651 1.681 1.736 1.768 1.724 1.723 1.735 1.726 1.681 1.648 1.64 1.569 1.499 1.535 1.603 1.587 1.562 1.537 1.494 1.521 1.57 1.458 1.493 1.547 1.521 1.529 1.556 1.592 1.592 1.58 1.571 1.566 1.575 1.546 1.523 1.601 1.634 1.631 1.594 1.545 1.532 1.66 1.606 1.533 1.519 1.556 1.623 1.624 1.667 1.722 1.671 1.603 1.5 1.479 1.483 1.547 1.555 1.555 1.563 1.584 1.605 1.591 1.57 1.586 1.591 1.63 1.685 1.669 1.647 1.6 1.578 1.553 1.552 1.521 1.61 1.62 1.625 1.656 1.662 1.636 1.623 1.625 1.642 1.65 1.618 1.607 1.606 1.622 1.637 1.656 1.627 1.606 1.583 1.588 1.664 1.6 1.55 1.534 1.487 1.474 1.402 1.415 1.43 1.442 1.48 1.473 1.495 1.519 1.525 1.504 1.49 1.451 1.46 1.462 1.534 1.574 1.516 1.519 1.482 1.501 1.551 1.573 1.57 1.57 1.564 1.57 1.625 1.654 1.684 1.702 1.698 1.675 1.63 1.656 1.702 1.662 1.662 1.665 1.714 1.752 1.794 1.837 1.79 1.781 1.667 1.65 1.563 1.551 1.579 1.627 1.59 1.595 1.574 1.579 1.655 1.684 1.679 1.665 1.626 1.576 1.561 1.531 1.446 1.54 1.601 1.548 1.503 1.588 1.628 1.655 1.608 1.634 1.707 1.728 1.583 1.599 1.626 1.62 1.618 1.615 1.605 1.588 1.599 1.607 1.571 1.615 1.668 1.675 1.606 1.572 1.619 1.691 1.65 1.577 1.568 1.644 1.558 1.57 1.599 1.507 1.589 1.628 1.67 1.732 1.728 1.672 1.637 1.651 1.679 1.696 1.707 1.652 1.594 1.531 1.615 1.644 1.567 1.627 1.666 1.633 1.638 1.622 1.599 1.605 1.626 1.603 1.638 1.681 1.604 1.524 1.56 1.61 1.636 1.591 1.605 -9999 -9999
-0.557 -0.725 -0.999 -1.216 -1.499 -1.9 -2.002 -2.064 -2.052 -1.984 -2.062 -2.047 -2.109 -2.087 -2.069 -2.074 -2.109 -2.034 -2.072 -1.967 -2.072 -2.027 -1.987 -2.017 -1.984 -1.954 -2.077 -1.999 -1.927 -1.902 -1.917 -1.999 -1.997 -2.079 -2.109 -2.007 -2.014 -2.137 -1.969 -2.074 -1.882 -1.577 -1.33 -1.061 -0.854 -0.581 -0.437 -0.209 0.12 0.356 0.546 0.729 0.983 1.164 1.188 1.055 0.909 0.793 0.558 0.322 0.086 -0.162 0.11 0.358 0.719 0.871 1.075 1.265 1.421 1.208 0.977 0.98 1.083 1.077 1.019 0.737 0.56 0.396 0.224 0.14 0.056 -0.109 -0.134 -0.225 -0.222 0.057 0.205 0.381 0.627 0.714 0.884 1.087 1.363 1.735 1.451 1.406 1.259 1.019 1.073 1.329 1.566 1.256 1.255 -9999 1.313 1.34 1.376 1.606 1.572 1.352 1.135 1.386 1.632 1.374 1.124 1.261 1.343 1.565 -9999 1.544 1.576 1.595 1.583 1.456 1.403 1.501 1.67 1.605 1.516 1.496 1.521 1.536 1.555 1.598 1.575 1.526 1.589 1.605 1.607 1.593 1.6 1.614 1.584 1.575 1.578 1.563 1.546 1.555 1.566 1.579 1.576 1.59 1.585 1.565 1.545 1.535 1.576 1.591 1.592 1.586 1.557 1.529 1.533 1.549 1.541 1.585 1.619 1.636 1.621 1.609 1.612 1.632 1.635 1.653 1.646 1.633 1.623 1.6 1.524 1.673 1.685 1.659 1.683 1.657 1.665 1.675 1.656 1.632 1.665 1.694 1.707 1.714 1.678 1.643 1.654 1.67 1.649 1.701 1.687 1.703 1.671 1.641 1.597 1.553 1.562 1.539 1.619 1.647 1.631 1.542 1.517 1.551 1.558 1.506 1.581 1.585 1.586 1.578 1.544 1.538 1.641 1.653 -9999 -9999 1.59 1.591 1.591 1.6 1.614 1.531 1.603 1.628 1.612 1.637 1.72 1.679 1.636 1.605 1.582 1.55 1.595 1.507 1.572 1.681 1.715 1.671 1.662 1.638 1.67 1.612 1.613 1.636 1.668 1.687 1.725 1.703 1.685 1.663 1.698 1.728 1.657 1.627 1.595 1.467 1.462 1.555 1.584 1.561 1.498 1.504 1.529 1.504 1.422 1.468 1.551 1.57 1.575 1.581 1.592 1.623 1.576 1.565 1.588 1.595 1.622 1.665 1.619 1.622 1.632 1.629 1.614 1.613 1.668 1.569 1.452 1.476 1.51 1.584 1.641 1.72 1.757 1.663 1.625 1.561 1.506 1.522 1.551 1.554 1.556 1.565 1.584 1.569 1.628 1.686 1.597 1.561 1.625 1.672 1.656 1.607 1.585 1.573 1.555 1.552 1.554 1.638 1.617 1.643 1.664 1.689 1.651 1.627 1.635 1.632 1.621 1.607 1.589 1.582 1.61 1.63 1.649 1.626 1.616 1.583 1.575 1.573 1.53 1.487 1.484 1.455 1.456 1.416 1.424 1.442 1.446 1.486 1.497 1.524 1.553 1.546 1.536 1.496 1.484 1.523 1.564 1.546 1.583 1.574 1.538 1.49 1.495 1.538 1.571 1.571 1.598 1.65 1.689 1.667 1.66 1.672 1.693 1.674 1.722 1.701 1.684 1.728 1.662 1.646 1.73 1.781 1.747 1.678 1.71 1.738 1.717 1.674 1.639 1.603 1.614 1.592 1.555 1.556 1.606 1.592 1.584 1.662 1.665 1.666 1.671 1.658 1.641 1.579 1.557 1.504 1.588 1.632 1.586 1.573 1.611 1.631 1.693 1.7 1.664 1.699 1.71 1.66 1.605 1.628 1.586 1.585 1.602 1.603 1.577 1.64 1.671 1.584 1.639 1.688 1.699 1.634 1.578 1.581 1.587 1.575 1.562 1.512 1.559 1.586 1.596 1.637 1.59 1.562 1.548 1.566 1.584 1.658 1.716 1.691 1.673 1.712 1.672 1.664 1.639 1.6 1.57 1.615 1.621 1.615 1.623 1.641 1.633 1.641 1.629 1.62 1.596 1.593 1.595 1.616 1.618 1.595 1.599 1.584 1.604 1.476 1.544 -9999 1.56 1.619
-0.502 -0.67 -0.968 -1.222 -1.55 -1.885 -1.949 -2.089 -1.994 -2.112 -2.084 -2.007 -2.159 -2.097 -2.157 -2.054 -2.039 -2.157 -2.102 -2.077 -1.977 -2.019 -1.969 -2.074 -2.054 -2.004 -2.227 -2.052 -1.984 -2.079 -2.087 -1.937 -2.049 -2.032 -2.017 -2.072 -2.047 -1.984 -2.149 -2.167 -1.862 -1.61 -1.266 -1.084 -0.741 -0.6 -0.363 -0.089 0.217 0.447 0.599 0.729 1.05 1.267 1.328 1.195 1.043 0.899 0.666 0.374 0.172 -0.121 0.123 0.319 0.587 0.767 0.89 0.966 1.195 1.035 1.014 1.192 1.297 1.194 1.05 0.796 0.605 0.407 0.148 -0.059 -0.194 -0.245 -0.306 -0.401 -0.122 0.146 0.291 0.567 0.79 0.953 1.066 1.116 1.386 1.696 1.44 -2.055 -2.067 1.101 1.021 1.238 1.386 1.239 1.223 1.33 1.249 1.372 1.259 1.369 1.365 1.392 1.287 1.285 1.386 1.248 1.103 1.253 1.297 1.291 1.292 1.532 1.528 1.595 1.681 1.531 1.419 1.581 1.699 1.625 1.546 1.446 1.437 1.412 1.455 1.571 1.592 1.616 1.605 1.61 1.605 1.608 1.609 1.593 1.582 1.654 1.625 1.632 1.606 -9999 1.534 1.553 1.555 1.539 1.537 1.525 1.537 1.557 1.585 1.578 1.563 1.598 1.588 1.565 1.537 1.547 1.461 1.505 1.485 1.536 1.594 1.601 1.613 1.63 1.63 1.64 1.621 1.62 1.613 1.602 1.621 1.678 1.673 1.635 1.633 1.666 1.688 1.679 1.705 1.648 1.657 1.687 1.695 1.656 1.64 1.617 1.626 1.639 1.634 1.66 1.687 1.712 1.669 1.649 1.678 1.674 1.622 1.594 1.598 1.594 1.525 1.503 1.49 1.598 1.549 1.501 1.56 1.581 1.589 1.615 1.574 1.515 1.559 1.625 1.636 1.614 1.609 1.633 1.584 1.543 1.549 1.563 1.591 1.622 1.595 1.612 1.682 1.676 1.66 1.622 1.614 1.637 1.724 1.695 1.672 1.677 1.697 1.697 1.715 1.735 1.742 1.612 1.57 1.586 1.621 1.656 1.698 1.678 1.67 1.616 1.647 1.661 1.62 1.583 1.581 1.493 1.493 1.623 1.614 1.568 1.527 1.546 1.558 1.499 1.453 1.506 1.58 1.578 1.555 1.559 1.569 1.604 1.577 1.59 1.613 1.592 1.523 1.6 1.614 1.62 1.668 1.689 1.677 1.68 1.645 1.584 1.549 1.421 1.471 1.567 1.633 1.68 1.673 1.639 1.633 1.627 1.598 1.586 1.574 1.567 1.556 1.561 1.583 1.595 1.642 1.683 1.649 1.617 1.652 1.689 1.655 1.605 1.592 1.574 1.558 1.581 1.62 1.682 1.764 1.712 1.69 1.662 1.635 1.616 1.686 1.645 1.594 1.622 1.628 1.632 1.632 1.653 1.655 1.648 1.634 1.605 1.567 1.49 1.482 1.44 1.448 1.533 1.503 1.483 1.487 1.512 1.497 1.509 1.541 1.554 1.619 1.566 1.532 1.513 1.493 1.566 1.62 1.595 1.607 1.644 1.587 1.54 1.515 1.536 1.581 1.597 1.652 1.699 1.663 1.66 1.634 1.626 1.669 1.688 1.718 1.683 1.668 1.711 1.688 1.704 1.763 1.756 1.696 1.605 1.621 1.66 1.658 1.647 1.621 1.615 1.647 1.606 1.58 1.609 1.632 1.594 1.561 1.604 1.612 1.616 1.676 1.673 1.737 1.626 1.418 1.527 1.602 1.62 1.582 1.61 1.649 1.712 1.727 1.711 1.684 1.63 1.664 1.639 1.583 1.59 1.578 1.555 1.518 1.532 1.542 1.589 1.622 1.639 1.691 1.707 1.622 1.594 1.538 1.507 1.506 1.539 1.568 1.572 1.641 1.607 1.6 1.589 1.612 1.597 1.47 1.539 1.56 1.618 1.704 1.702 1.675 1.662 1.601 1.633 1.653 1.632 1.613 1.651 1.602 1.61 1.631 1.627 1.623 1.639 1.646 1.59 1.569 1.569 1.572 1.624 1.588 1.585 1.575 1.549 1.539 1.501 1.501 -9999 1.565 1.616
-0.461 -0.711 -1.018 -1.223 -1.497 -1.821 -2.059 -1.949 -2.077 -2.059 -2.107 -2.004 -2.044 -2.057 -2.152 -2.074 -2.129 -2.057 -2.059 -1.932 -2.104 -1.999 -1.992 -1.977 -2.044 -2.014 -2.092 -2.137 -1.937 -1.979 -1.979 -1.989 -1.962 -2.124 -2.122 -2.004 -2.146 -2.059 -2.079 -2.169 -1.837 -1.576 -1.358 -1.069 -0.793 -0.557 -0.265 -0.054 0.252 0.455 0.707 0.866 1.019 1.26 1.523 1.32 1.17 0.965 0.71 0.475 0.191 -0.089 -0.028 0.107 0.451 0.599 0.713 0.78 0.899 0.886 1.105 1.318 1.56 1.333 1.135 0.836 0.592 0.389 0.231 -0.06 -0.364 -0.455 -0.59 -0.456 -0.126 0.187 0.398 0.687 0.909 1.129 1.265 1.326 1.261 1.394 1.317 -2.092 1.246 1.338 1.202 0.987 1.117 1.049 1.103 1.098 1.352 1.621 1.35 1.371 1.632 1.656 1.413 1.124 1.219 1.309 1.349 1.336 1.534 1.276 1.207 1.304 1.421 1.449 1.443 1.514 1.512 1.628 1.66 1.598 1.511 1.431 1.414 1.432 1.421 1.512 1.574 1.63 1.611 1.615 1.583 1.583 1.626 1.612 1.629 1.67 1.676 1.691 1.627 1.568 1.502 1.517 1.515 1.48 1.521 1.481 1.523 1.549 1.566 1.571 1.592 1.614 1.604 1.582 1.538 1.633 1.566 1.558 1.575 1.542 1.55 1.56 1.568 1.573 1.663 1.639 1.592 1.607 1.596 1.611 1.629 1.668 1.664 1.637 1.659 1.663 1.673 1.633 1.682 1.634 1.651 1.709 1.705 1.688 1.631 1.605 1.604 1.576 1.568 1.554 1.636 1.652 1.659 1.641 1.733 1.705 1.682 1.636 1.584 1.532 1.529 1.511 1.521 1.56 1.565 1.578 1.587 1.585 1.587 1.651 1.618 1.562 1.575 1.659 1.648 1.57 1.601 1.57 1.524 1.486 1.487 1.624 1.551 1.557 1.61 1.582 1.628 1.659 1.661 -9999 1.646 1.664 1.694 1.685 1.661 1.632 1.662 1.692 1.702 1.633 1.64 1.624 1.55 1.456 1.624 1.669 1.7 1.679 1.632 1.557 1.586 1.584 1.588 1.564 1.562 1.538 1.544 1.605 1.617 1.616 1.615 1.632 1.586 1.535 1.506 1.582 1.635 1.561 1.515 1.537 1.563 1.603 1.592 1.624 1.614 1.624 1.53 1.56 1.569 1.632 1.696 1.747 1.735 1.687 1.618 1.587 1.559 1.468 1.5 1.572 1.659 1.665 1.631 1.599 1.625 1.642 1.635 1.616 1.618 1.576 1.54 1.557 1.56 1.608 1.639 1.69 1.692 1.664 1.65 1.707 1.651 1.597 1.601 1.584 1.597 1.613 1.623 1.623 1.592 1.672 1.655 1.645 1.629 1.619 1.627 1.658 1.658 1.654 1.676 1.688 1.67 1.673 1.679 1.643 1.638 1.637 1.626 1.568 1.507 1.455 1.452 1.489 1.486 1.491 1.546 1.574 1.549 1.523 1.547 1.568 1.573 1.52 1.531 1.519 1.525 1.563 1.59 1.601 1.588 1.601 1.588 1.543 1.524 1.538 1.582 1.615 1.653 1.709 1.727 1.689 1.638 1.57 1.582 1.662 1.662 1.636 1.61 1.674 1.68 1.712 1.798 1.719 1.672 1.599 1.604 1.623 1.642 1.635 1.622 1.621 1.627 1.624 1.642 1.683 1.662 1.61 1.575 1.525 1.545 1.588 1.643 1.72 1.785 1.731 1.644 1.612 1.582 1.582 1.588 1.632 1.685 1.743 1.745 1.734 1.725 1.667 1.621 1.586 1.584 1.593 1.561 1.529 1.514 1.494 1.507 1.571 1.607 1.625 1.701 1.744 1.518 1.524 1.511 1.487 1.488 1.515 1.562 1.608 1.631 1.594 1.589 1.573 1.555 1.552 1.533 1.563 1.613 1.646 1.714 1.705 1.676 1.651 1.622 1.621 1.672 1.666 1.631 1.592 1.579 1.601 1.616 1.603 1.585 1.61 1.602 1.565 1.558 1.561 1.571 1.574 1.56 1.542 1.522 1.499 1.484 1.454 1.493 -9999 1.586 1.625
-0.426 -0.691 -1.108 -1.313 -1.528 -1.789 -2.014 -2.042 -1.972 -2.057 -2.119 -2.059 -2.019 -2.059 -2.012 -2.054 -2.032 -1.999 -2.142 -1.994 -2.007 -2.082 -2.132 -1.992 -2.129 -2.029 -2.064 -2.072 -1.954 -1.997 -2.049 -2.039 -2.107 -2.079 -2.074 -2.007 -2.104 -2.064 -2.132 -2.077 -1.832 -1.613 -1.36 -1.068 -0.758 -0.496 -0.278 -0.022 0.236 0.496 0.669 0.827 1.019 1.15 1.22 1.309 1.165 0.925 0.615 0.374 0.101 -0.055 -0.151 0.087 0.244 0.385 0.566 0.651 0.682 0.908 1.115 1.288 1.406 1.245 1.134 0.844 0.585 0.374 0.162 -0.057 -0.303 -0.585 -0.625 -0.428 -0.097 0.175 0.409 0.669 0.97 1.206 1.377 1.563 1.334 1.163 1.078 1.145 1.391 1.617 1.307 1.016 1.036 1.265 1.345 1.244 1.191 1.33 1.233 1.338 1.564 1.613 1.366 1.053 1.226 1.474 1.526 1.301 1.295 1.184 0.953 1.17 1.174 1.184 1.47 1.503 1.638 1.609 1.595 1.589 1.493 1.456 1.384 1.425 1.475 1.486 1.523 1.543 1.597 1.631 1.612 1.572 1.531 1.555 1.608 1.667 1.663 1.621 1.615 1.525 1.494 1.466 1.523 1.545 1.51 1.489 1.515 1.549 1.546 1.569 1.614 1.632 1.59 1.585 1.594 1.63 1.612 1.59 1.58 1.545 1.524 1.528 1.512 1.497 1.615 1.608 1.56 1.534 1.612 1.598 1.587 1.68 1.652 1.646 1.694 1.668 1.639 1.652 1.682 1.687 1.695 1.706 1.69 1.692 1.611 1.607 1.634 1.602 1.6 1.614 1.627 1.636 1.603 1.547 1.543 1.642 1.661 1.638 1.542 1.482 1.521 1.514 1.522 1.522 1.545 1.598 1.599 1.595 1.608 1.623 1.622 1.556 1.565 1.644 1.723 1.701 1.621 1.567 1.515 1.5 1.524 1.532 1.516 1.51 1.586 1.595 1.633 1.645 -9999 1.645 1.643 1.657 1.641 1.547 1.638 1.624 1.623 1.65 1.644 1.544 1.615 1.567 1.556 1.622 1.764 1.678 1.715 1.706 1.678 1.659 1.547 1.514 1.591 1.593 1.566 1.534 1.556 1.569 1.582 1.601 1.599 1.618 1.589 1.566 1.546 1.601 1.61 1.506 1.547 1.578 1.608 1.567 1.491 1.606 1.595 1.565 1.527 1.527 1.638 1.665 1.691 1.728 1.716 1.622 1.582 1.581 1.541 1.538 1.518 1.552 1.615 1.65 1.629 1.574 1.63 1.641 1.636 1.636 1.618 1.587 1.567 1.583 1.56 1.616 1.667 1.706 1.709 1.67 1.641 1.629 1.617 1.56 1.585 1.597 1.615 1.63 1.619 1.588 1.578 1.617 1.626 1.644 1.627 1.615 1.612 1.645 1.667 1.665 1.676 1.666 1.634 1.628 1.629 1.638 1.631 1.645 1.695 1.597 1.524 1.506 1.504 1.502 1.49 1.477 1.521 1.539 1.518 1.514 1.546 1.575 1.566 1.547 1.541 1.524 1.535 1.567 1.596 1.605 1.598 1.601 -9999 1.54 1.52 1.486 1.564 1.602 1.642 1.691 1.722 1.72 1.686 1.593 1.587 1.638 1.612 1.644 1.663 1.698 1.674 1.69 1.732 1.722 1.665 1.622 1.579 1.625 1.656 1.642 1.611 1.625 1.629 1.645 1.655 1.655 1.609 1.609 1.592 1.578 1.582 1.614 1.602 1.658 1.724 1.72 1.702 1.694 1.582 1.57 1.599 1.64 1.675 1.715 1.723 1.724 1.664 1.645 1.566 1.51 1.572 1.603 1.579 1.534 1.529 1.474 1.503 1.572 1.597 1.605 1.658 1.707 1.615 1.575 1.534 1.516 1.513 1.552 1.592 1.606 1.61 1.629 1.582 1.54 1.497 1.526 1.609 1.654 1.687 1.675 1.656 1.639 1.651 1.661 1.619 1.601 1.62 1.656 1.636 1.619 1.615 1.644 1.613 1.596 1.589 1.6 1.591 1.538 1.555 1.569 1.634 1.654 1.666 1.567 1.54 1.52 1.511 1.516 1.522 1.535 -9999 -9999
-0.357 -0.665 -0.966 -1.189 -1.518 -1.762 -2.087 -2.044 -2.142 -2.134 -2.057 -2.047 -2.107 -2.069 -1.947 -2.219 -2.122 -2.124 -1.999 -2.072 -2.027 -2.069 -2.042 -2.067 -2.037 -1.999 -2.002 -2.007 -1.927 -2.009 -2.109 -1.987 -1.974 -2.047 -1.904 -2.082 -1.969 -2.072 -2.062 -2.059 -1.763 -1.641 -1.299 -1.154 -0.816 -0.616 -0.426 -0.112 0.126 0.372 0.586 0.752 0.935 1.027 1.054 1.087 0.957 0.777 0.538 0.26 -0.005 -0.203 -0.237 -0.067 0.032 0.095 0.312 0.486 0.603 0.798 0.967 1.159 1.219 1.174 0.985 0.774 0.544 0.324 0.059 -0.195 -0.378 -0.629 -0.661 -0.362 -0.037 0.14 0.415 0.662 0.932 1.148 1.297 1.329 1.261 1.159 1.279 1.36 1.288 1.425 1.26 1.028 1.093 1.365 1.599 1.351 1.083 1.075 1.072 1.336 1.546 1.27 1.205 0.981 1.116 1.223 1.207 1.149 1.039 1.018 1.075 1.298 1.554 1.593 1.317 1.324 1.64 1.647 1.612 1.602 1.536 1.573 1.535 1.554 1.534 1.552 1.535 1.561 1.632 1.664 1.645 1.588 1.438 1.511 1.62 1.669 1.652 1.646 1.626 1.503 1.551 1.463 1.512 1.509 1.499 1.507 1.532 1.565 1.574 1.589 1.627 1.684 1.583 1.557 1.557 1.57 1.586 1.573 1.539 1.513 1.54 1.539 1.559 1.563 1.593 1.587 1.566 1.583 1.653 1.622 1.6 1.629 1.612 1.642 1.657 1.669 1.666 1.68 1.7 1.676 1.716 1.676 1.606 1.571 1.586 1.595 1.596 1.607 1.652 1.687 1.625 1.597 1.621 1.555 1.551 1.632 1.632 1.546 1.518 1.496 1.525 1.527 1.509 1.487 1.518 1.549 1.554 1.576 1.586 1.59 1.6 1.528 1.534 1.553 1.62 1.66 1.636 1.561 1.517 1.533 1.571 1.556 1.529 1.526 1.582 1.615 1.646 1.641 1.641 1.65 1.644 1.576 1.608 1.631 1.699 1.51 1.58 1.595 1.58 1.612 1.717 1.606 1.59 1.736 1.774 1.726 1.707 1.712 1.68 1.625 1.556 1.542 1.679 1.623 1.562 1.584 1.597 1.55 1.552 1.559 1.556 1.558 1.555 1.544 1.568 -9999 1.576 1.546 1.564 1.554 1.58 1.558 1.514 1.543 1.537 1.508 1.51 1.503 1.477 1.587 1.632 1.638 1.623 1.546 1.46 1.478 1.512 1.534 1.499 1.5 1.565 1.609 1.6 1.588 1.604 1.633 1.659 1.668 1.636 1.604 1.629 1.64 1.659 1.659 1.704 1.721 1.707 1.648 1.602 1.622 1.609 1.575 1.566 1.575 1.599 1.562 1.494 1.595 1.606 1.619 1.627 1.637 1.624 1.61 1.596 1.6 1.601 1.657 1.676 1.665 1.604 1.591 1.624 1.651 1.61 1.572 1.573 1.506 1.528 1.528 1.529 1.519 1.507 1.462 1.51 1.521 1.495 1.492 1.581 1.596 1.564 1.543 1.56 1.512 1.524 1.565 1.607 1.618 1.614 1.613 1.588 1.526 1.558 1.537 1.572 1.605 1.618 1.663 1.729 1.702 1.67 1.6 1.572 1.569 1.53 1.603 1.676 1.697 1.658 1.668 1.709 1.671 1.666 1.656 1.634 1.707 1.693 1.652 1.63 1.63 1.64 1.659 1.661 1.649 1.589 1.551 1.574 1.608 1.663 1.577 1.558 1.556 1.594 1.648 1.672 1.683 1.639 1.616 1.614 1.632 1.646 1.69 1.71 1.642 1.637 1.634 1.592 1.541 1.594 1.657 1.63 1.57 1.518 1.504 1.536 1.567 1.591 1.623 1.664 1.671 1.623 1.594 1.584 1.575 1.556 1.604 1.65 1.581 1.556 1.564 1.562 1.52 1.467 1.522 1.673 1.742 1.68 1.669 1.632 1.588 1.584 1.621 1.615 1.602 1.585 1.654 1.62 1.585 1.617 1.622 1.601 1.586 1.598 1.606 1.596 1.571 1.572 1.618 1.673 1.682 1.674 1.621 1.571 1.547 1.542 1.545 1.571 1.571 1.595 1.649
-0.397 -0.718 -0.969 -1.254 -1.454 -1.796 -1.997 -2.117 -1.964 -2.022 -2.052 -2.002 -2.092 -2.167 -1.939 -2.192 -2.074 -2.049 -1.984 -2.072 -2.024 -2.067 -2.089 -2.102 -2.109 -2.037 -2.027 -1.927 -2.121 -2.119 -2.117 -1.999 -2.062 -2.057 -1.924 -1.972 -2.029 -2.094 -2.037 -2.179 -1.827 -1.656 -1.363 -1.226 -0.937 -0.676 -0.447 -0.209 0.033 0.258 0.379 0.574 0.756 0.877 0.903 0.858 0.749 0.543 0.47 0.241 -0.046 -0.241 -0.436 -0.284 -0.076 0.012 0.136 0.258 0.473 0.572 0.839 0.917 0.93 0.922 0.777 0.671 0.479 0.25 0.015 -0.248 -0.469 -0.852 -0.68 -0.458 -0.141 0.011 0.261 0.552 0.819 1.013 1.155 1.097 0.946 1.123 1.364 1.576 1.363 1.145 1.089 0.925 1.075 1.24 1.36 1.276 1.059 0.869 1.121 1.388 1.607 1.609 1.317 1.06 1.03 1.052 1.05 0.992 0.871 1.07 1.333 1.406 1.636 1.629 1.371 1.25 1.39 1.646 1.616 1.615 1.615 1.633 1.667 1.697 1.621 1.566 1.553 1.616 1.713 1.74 1.742 1.666 1.551 1.553 1.612 1.638 1.653 1.619 1.622 1.589 1.604 1.562 1.543 1.516 1.467 1.511 1.549 1.581 1.585 1.592 1.615 1.609 1.564 1.515 1.516 1.52 1.548 1.563 1.555 1.476 1.508 1.584 1.617 1.581 1.56 1.572 1.596 1.623 1.627 1.599 1.6 1.598 1.581 1.626 1.626 1.657 1.681 1.734 1.689 1.588 1.543 1.616 1.588 1.581 1.599 1.586 1.57 1.583 1.652 1.689 1.631 1.531 1.519 1.534 1.573 1.607 1.561 1.548 1.532 1.535 1.546 1.545 1.513 1.466 1.482 1.502 1.472 1.487 1.497 1.556 1.604 1.573 1.527 1.562 1.634 1.646 1.624 1.539 1.508 1.547 1.568 1.541 1.518 1.506 1.548 1.593 1.611 1.62 1.637 1.651 1.652 1.599 1.643 1.647 1.62 1.569 1.58 1.521 1.561 1.627 1.674 1.671 1.683 1.775 1.788 1.742 1.706 1.678 1.612 1.582 1.553 1.535 1.641 1.624 1.591 1.622 1.639 1.594 1.584 1.549 1.517 1.519 1.535 1.54 1.58 1.599 1.582 1.583 1.589 1.479 1.528 1.554 1.543 1.548 1.542 1.528 1.515 1.538 1.565 1.46 1.485 1.483 1.533 1.55 1.31 1.388 1.487 1.424 1.461 1.481 1.527 1.582 1.573 1.517 1.571 1.647 1.686 1.685 1.716 1.661 1.681 1.756 1.719 1.701 1.685 1.743 1.695 1.651 1.654 1.647 -9999 1.548 1.551 1.548 1.553 1.554 1.568 1.681 1.643 1.631 1.632 1.658 1.651 1.624 1.594 1.591 1.602 1.652 1.676 1.678 1.614 1.606 1.644 1.64 1.618 1.551 1.478 1.389 1.539 1.544 1.485 1.512 1.542 1.569 1.597 1.528 1.513 1.531 1.593 1.618 1.576 1.536 1.636 1.582 1.558 1.559 1.6 1.64 1.649 1.623 1.582 1.489 1.531 1.552 1.627 1.616 1.607 1.633 1.725 1.682 1.65 1.551 1.627 1.543 1.458 1.605 1.686 1.702 1.651 1.647 1.715 1.638 1.652 1.666 1.676 1.702 1.695 1.675 1.652 1.638 1.657 1.656 1.671 1.646 1.567 1.52 1.565 1.583 1.61 1.626 1.582 1.482 1.548 1.609 1.648 1.67 1.643 1.62 1.617 1.617 1.608 1.646 1.671 1.659 1.645 1.629 1.61 -9999 1.6 1.613 1.612 1.58 1.531 1.501 1.525 1.576 1.626 1.665 1.702 1.708 1.65 1.624 1.611 1.616 1.592 1.585 1.578 1.587 1.596 1.573 1.57 1.551 1.537 1.571 1.628 1.641 1.654 1.645 1.601 1.574 1.536 1.576 1.583 1.572 1.556 1.642 1.634 1.604 1.601 1.605 1.562 1.584 1.617 1.636 1.622 1.594 1.578 1.64 1.692 1.651 1.622 1.599 1.588 1.556 1.579 1.583 1.551 1.561 1.605 1.667
-0.476 -0.788 -1.058 -1.296 -1.496 -1.699 -2.014 -2.002 -2.017 -2.104 -2.059 -1.972 -1.989 -2.059 -2.219 -2.144 -2.059 -2.044 -2.004 -2.042 -2.044 -2.149 -2.024 -2.059 -2.114 -2.077 -2.054 -1.942 -1.982 -2.122 -2.094 -2.077 -2.084 -2.024 -1.947 -1.964 -2.117 -2.067 -2.022 -2.176 -2.062 -1.68 -1.55 -1.175 -0.999 -0.718 -0.563 -0.3 -0.073 -0.017 0.214 0.415 0.552 0.641 0.694 0.662 0.55 0.401 0.286 0.096 -0.189 -0.357 -0.573 -0.544 -0.307 -0.181 -0.122 0.164 0.333 0.435 0.604 0.721 0.694 0.655 0.572 0.501 0.293 0.094 -0.135 -0.359 -0.616 -0.783 -0.668 -0.479 -0.286 -0.031 0.204 0.437 0.629 0.805 0.956 0.894 0.775 1.056 1.258 1.336 1.233 1.047 0.873 0.768 0.954 1.057 1.139 1.074 1.08 1.058 1.061 1.286 1.382 1.356 1.197 1.063 1.041 1.214 1.284 1.169 1.015 1.177 1.491 1.684 1.428 1.637 1.602 1.381 1.393 1.41 1.388 1.628 1.629 1.67 1.696 1.666 1.644 1.619 -9999 1.677 1.751 1.771 1.736 1.69 -9999 1.569 1.595 1.596 1.622 1.612 1.586 1.56 1.571 1.585 1.583 1.547 1.512 1.594 1.588 1.595 1.595 1.582 1.624 1.575 1.545 1.519 1.529 1.539 1.551 1.578 1.613 1.547 1.538 1.62 1.642 1.526 1.519 1.593 1.61 1.624 1.679 1.543 1.632 1.659 1.601 1.648 1.619 1.629 1.64 1.668 1.635 1.579 1.576 1.657 1.612 1.596 1.588 1.582 1.564 1.635 1.671 1.669 1.63 1.574 1.562 1.571 1.582 1.609 1.571 1.54 1.559 1.577 1.482 1.537 1.521 1.446 1.463 1.474 1.349 1.417 1.518 1.577 1.599 1.56 1.53 1.618 1.632 1.602 1.545 1.525 1.495 1.522 1.531 1.529 1.514 1.502 1.516 1.544 1.558 1.589 1.614 1.603 1.586 1.596 1.68 1.556 1.59 1.598 1.689 1.716 1.683 1.705 1.714 1.697 1.74 1.789 1.791 1.735 1.688 1.62 1.552 1.539 1.563 1.578 1.623 1.627 1.61 1.625 1.623 1.58 1.599 1.542 1.493 1.508 1.502 1.554 1.613 1.612 1.575 1.566 1.555 1.551 1.563 1.567 1.576 1.563 1.532 1.503 1.516 1.524 1.533 1.485 1.427 1.376 1.501 1.485 1.415 1.446 1.515 1.484 1.478 1.503 1.562 1.583 1.572 1.495 1.576 1.649 1.685 1.686 1.702 1.611 1.69 1.736 1.72 1.707 1.686 1.691 1.658 1.636 1.646 1.654 1.586 1.537 1.467 1.506 1.555 1.59 1.631 1.631 1.62 1.604 1.642 1.684 1.659 1.638 1.614 1.576 1.591 1.643 1.657 1.633 1.586 1.585 1.594 1.556 1.68 1.579 1.505 1.471 1.596 1.574 1.517 1.532 1.551 1.552 1.571 1.555 1.534 1.526 1.605 1.648 1.629 1.62 1.674 1.662 1.608 1.567 1.552 1.599 1.625 1.612 1.55 1.445 1.51 1.53 1.572 1.591 1.585 1.575 1.633 1.67 1.688 1.531 1.583 1.604 1.649 1.678 1.714 1.675 1.652 1.642 1.667 1.653 1.604 1.569 1.662 1.661 1.652 1.666 1.674 1.633 1.611 1.633 1.657 1.642 1.575 1.547 1.566 1.567 1.564 1.619 1.648 1.556 1.6 1.639 1.643 1.64 1.641 1.623 1.613 1.609 1.609 1.605 1.601 1.648 1.653 1.582 1.574 -9999 1.573 1.57 1.602 1.61 1.538 1.497 1.525 1.616 1.683 1.71 1.695 1.68 1.647 1.626 1.593 1.601 1.596 1.589 1.585 1.627 1.664 1.619 1.609 1.589 1.578 1.587 1.615 1.593 1.664 1.684 1.703 1.598 1.585 1.599 1.558 1.577 1.609 1.709 1.668 1.637 1.604 1.586 1.579 1.617 1.645 1.662 1.632 1.595 1.608 1.645 1.645 1.558 1.542 1.559 1.579 1.598 1.677 1.632 1.554 1.556 1.583 1.636
-0.478 -0.737 -0.939 -1.32 -1.451 -1.807 -2.052 -1.992 -2.097 -1.977 -1.987 -2.047 -1.969 -2.052 -1.959 -2.219 -2.134 -1.999 -1.994 -2.079 -2.004 -2.122 -2.154 -1.982 -1.979 -2.022 -2.067 -1.972 -1.979 -2.094 -1.979 -2.012 -1.982 -2.007 -2.029 -2.017 -2.124 -2.012 -2.077 -2.022 -2.038 -1.808 -1.571 -1.296 -1.034 -0.835 -0.623 -0.432 -0.257 -0.148 0.037 0.204 0.309 0.376 0.413 0.414 0.333 0.198 0.063 -0.046 -0.299 -0.463 -0.692 -0.71 -0.509 -0.354 -0.082 0.077 0.37 0.436 0.612 0.71 0.72 0.639 0.525 0.432 0.272 0.067 -0.122 -0.354 -0.557 -0.786 -0.697 -0.647 -0.393 -0.151 0.035 0.255 0.426 0.531 0.651 0.638 0.701 0.871 1.01 1.047 0.978 0.862 0.73 0.588 0.761 0.946 1.08 1.158 1.28 1.378 1.231 1.04 1.105 1.092 1.172 1.341 1.269 1.348 1.555 1.243 1.065 1.123 1.349 1.418 1.657 1.646 1.385 1.407 1.689 1.447 1.313 1.4 1.609 1.658 1.694 1.616 1.61 1.635 1.652 -9999 1.716 1.71 1.683 1.673 1.625 1.573 1.571 1.571 1.585 1.589 1.554 1.539 1.548 1.585 1.622 1.612 1.565 1.577 1.572 1.533 1.582 1.548 1.517 1.533 1.527 1.523 1.555 1.554 1.528 1.564 1.601 1.588 1.583 1.59 1.595 1.547 1.504 1.588 1.617 1.614 1.621 1.6 1.655 1.703 1.61 1.594 1.606 1.603 1.592 1.588 1.573 1.604 1.678 1.629 1.528 1.47 1.564 1.59 1.628 1.72 1.673 1.535 1.581 1.625 1.649 1.641 1.62 1.576 1.548 1.528 1.508 1.509 1.377 1.437 1.505 1.518 1.491 1.493 1.556 1.531 1.569 1.616 1.598 1.559 1.557 1.651 1.613 1.57 1.541 1.523 1.478 1.504 1.522 1.527 1.523 1.516 1.512 1.524 1.553 1.573 1.587 1.535 1.512 1.504 1.584 1.607 1.607 1.715 1.788 1.795 1.797 1.794 1.769 1.757 1.745 1.76 1.733 1.677 1.612 1.602 1.565 1.571 1.585 1.621 1.651 1.628 1.575 1.639 1.614 1.564 1.566 1.555 1.577 1.506 1.473 1.563 1.633 1.617 1.57 1.568 1.556 1.55 1.592 1.591 1.573 1.539 1.493 1.471 1.498 1.538 1.564 1.574 1.497 1.484 1.519 1.586 1.523 1.493 1.424 1.472 1.515 1.55 1.588 1.569 1.527 1.589 1.552 1.731 1.649 1.641 1.667 1.561 1.652 1.71 1.685 1.687 1.689 1.671 1.607 1.591 1.598 1.62 1.575 1.548 1.546 1.545 1.558 1.565 1.545 1.571 1.583 1.582 1.632 1.681 1.651 1.634 1.629 1.521 1.579 1.651 1.649 1.611 1.591 1.589 1.558 1.544 1.571 1.581 1.564 1.559 1.58 1.565 1.56 1.558 1.553 1.505 1.529 1.593 1.593 1.536 1.626 1.684 1.637 1.656 1.714 1.685 1.602 1.569 1.531 1.563 1.592 1.595 1.556 1.506 1.522 1.553 1.503 1.535 1.591 1.621 1.538 1.611 1.649 1.699 1.617 1.571 1.696 1.734 1.71 1.66 1.594 1.611 1.631 1.614 1.598 1.635 1.693 1.608 1.612 1.65 1.658 1.629 1.574 1.621 1.643 1.608 1.568 1.536 1.59 1.591 1.596 1.619 1.632 1.616 1.678 1.73 1.658 1.634 1.638 1.635 1.615 1.605 1.605 1.604 1.613 1.653 1.599 1.523 1.509 1.504 1.544 1.57 1.612 1.622 1.565 1.54 1.59 1.675 1.712 1.726 1.691 1.642 1.635 1.616 1.582 1.612 1.61 1.601 1.609 1.645 1.66 1.647 1.642 1.634 1.617 1.619 1.613 1.616 1.657 1.633 1.565 1.616 1.612 1.605 1.588 1.602 1.616 1.693 1.7 1.654 1.622 1.6 1.614 1.675 1.684 1.64 1.564 1.578 1.609 1.61 1.602 1.571 1.503 1.535 1.583 1.591 1.636 1.632 1.594 1.561 1.545 1.596
-0.427 -0.769 -1.008 -1.203 -1.485 -1.749 -2.057 -2.012 -1.937 -2.104 -2.024 -2.032 -1.984 -2.104 -2.109 -2.087 -2.144 -2.084 -1.964 -2.094 -1.989 -2.034 -2.039 -2.064 -2.012 -2.064 -2.114 -2.027 -2.009 -2.034 -1.969 -1.954 -2.062 -1.984 -2.109 -2.042 -2.149 -2.014 -2.082 -2.079 -2.079 -1.764 -1.741 -1.39 -1.117 -1.019 -0.846 -0.582 -0.464 -0.355 -0.137 -0.044 0.024 0.099 0.162 0.118 0.018 -0.011 -0.156 -0.235 -0.423 -0.691 -0.819 -0.658 -0.385 -0.183 0.066 0.244 0.509 0.653 0.748 0.8 0.916 0.866 0.684 0.577 0.43 0.197 -0.071 -0.244 -0.465 -0.739 -0.881 -0.734 -0.533 -0.307 -0.126 0.092 0.216 0.304 0.372 0.372 0.51 0.663 0.77 0.792 0.782 0.657 0.573 0.628 0.849 1.085 1.3 1.403 1.381 1.583 1.317 1.091 0.874 1.091 1.382 1.651 1.388 1.265 1.34 1.372 1.325 1.138 1.388 1.635 1.635 1.389 1.3 1.299 1.431 1.689 1.435 1.652 1.609 1.653 1.63 1.611 1.601 1.664 1.668 1.66 1.66 1.643 1.662 1.655 1.6 1.557 1.538 1.568 1.571 1.583 1.593 1.589 1.572 1.638 1.662 1.633 1.588 1.588 1.529 1.472 1.539 1.544 1.524 1.525 1.526 1.51 1.521 1.52 1.517 1.543 1.555 1.6 1.594 1.546 1.591 1.45 1.492 1.605 1.616 1.602 1.619 1.635 1.666 1.608 1.588 1.575 1.596 1.599 1.62 1.582 1.594 1.649 1.622 1.583 1.548 1.51 1.596 1.596 1.618 1.659 1.651 1.578 1.709 1.679 1.684 1.682 1.64 1.548 1.565 1.498 1.456 1.459 1.452 1.463 1.468 1.465 1.467 1.478 1.532 1.537 1.596 1.617 1.588 1.564 1.555 1.512 1.575 1.548 1.569 1.558 1.54 1.528 1.525 1.516 1.537 1.514 1.494 1.495 1.503 1.545 1.575 1.505 1.519 1.524 1.575 1.606 1.684 1.763 1.781 1.808 1.832 1.821 1.786 1.756 1.711 1.717 1.704 1.637 1.585 1.593 1.556 1.608 1.614 1.656 1.664 1.625 1.556 1.598 1.598 1.603 1.581 1.575 1.577 1.509 1.453 1.602 1.591 1.599 1.593 1.604 1.548 1.528 1.549 1.578 1.566 1.514 1.484 1.451 1.482 1.532 1.574 1.564 1.522 1.479 1.474 1.463 1.527 1.477 1.425 1.521 1.522 1.54 1.598 1.561 1.494 1.574 1.635 1.699 1.672 1.673 1.727 1.642 1.601 1.583 1.62 1.655 1.673 1.685 1.569 1.569 1.603 1.601 1.587 1.572 1.624 1.589 1.549 1.538 1.535 1.559 1.577 1.583 1.6 1.618 1.568 1.605 1.629 1.577 1.6 1.689 1.655 1.625 1.667 1.63 1.567 1.496 1.445 1.365 1.626 1.655 1.556 1.553 1.567 1.595 1.525 1.522 1.576 1.642 1.675 1.609 1.622 1.662 1.575 1.604 1.651 1.601 1.592 1.6 1.614 1.605 1.611 1.63 1.616 1.611 1.556 1.587 1.565 1.538 1.572 1.609 1.571 1.546 1.54 1.629 1.648 1.714 1.772 1.761 1.714 1.666 1.62 1.608 1.623 1.559 1.615 1.65 1.692 1.621 1.626 1.68 1.65 1.69 1.644 1.629 1.619 1.596 1.553 1.501 1.553 1.596 1.611 1.612 1.611 1.615 1.668 1.685 1.625 1.596 1.658 1.649 1.6 1.586 1.589 1.603 1.616 1.616 1.542 1.442 1.497 1.495 1.497 1.529 1.571 1.573 1.537 1.593 1.657 1.708 1.712 1.699 1.67 1.636 1.627 1.649 1.672 1.625 1.637 1.639 1.638 1.654 1.665 1.658 1.656 1.642 1.596 1.56 1.642 1.65 1.665 1.632 1.602 1.627 1.557 1.593 1.598 1.61 1.605 1.697 1.672 1.653 1.65 1.632 1.648 1.689 1.694 1.649 1.608 1.612 1.636 1.591 1.577 1.619 1.552 1.537 1.552 1.583 1.591 1.604 1.586 1.541 1.474 1.512
-0.459 -0.623 -0.958 -1.273 -1.515 -1.721 -2.012 -2.067 -2.089 -1.984 -1.979 -2.014 -2.044 -2.057 -1.999 -2.099 -2.089 -2.052 -2.109 -1.932 -2.104 -2.102 -2.107 -2.017 -2.034 -2.022 -2.109 -2.127 -2.117 -2.004 -2.074 -1.987 -1.979 -1.942 -2.067 -2.077 -2.059 -1.992 -1.987 -2.017 -2.167 -1.978 -1.746 -1.499 -1.293 -1.16 -0.982 -0.75 -0.644 -0.541 -0.416 -0.27 -0.219 -0.106 -0.121 -0.144 -0.26 -0.278 -0.315 -0.444 -0.65 -0.819 -0.796 -0.574 -0.331 -0.17 0.114 0.356 0.601 0.821 0.947 1.083 1.209 1.184 1.008 0.801 0.595 0.326 0.071 -0.15 -0.379 -0.616 -0.877 -0.991 -0.687 -0.527 -0.265 -0.142 -0.011 -0.014 0.094 0.198 0.342 0.467 0.55 0.565 0.577 0.47 0.45 0.699 0.84 1.086 1.373 1.63 1.369 1.358 1.26 1.089 0.85 1.042 1.336 1.472 1.621 1.368 1.36 1.653 1.472 1.394 1.279 1.351 1.596 1.614 1.411 1.154 1.393 1.648 1.369 1.615 1.591 1.37 1.631 1.594 1.578 1.651 1.663 1.642 1.638 1.606 1.595 1.633 1.607 1.589 1.575 1.575 1.579 1.582 1.649 1.654 1.583 1.676 1.682 1.615 1.582 1.568 1.565 1.548 1.571 1.582 1.583 1.563 1.534 1.517 1.488 1.485 1.491 1.538 1.525 1.608 1.621 1.567 1.548 1.544 1.563 1.647 1.637 1.613 1.626 1.644 1.677 1.638 1.603 1.59 1.598 1.589 1.587 1.566 1.579 1.618 1.602 1.568 1.547 1.599 1.628 1.597 1.604 1.624 1.631 1.636 1.581 1.673 1.697 1.695 1.692 1.628 1.569 1.481 1.428 1.496 1.528 1.496 1.459 1.412 1.415 1.429 1.368 1.47 1.565 1.628 1.588 1.579 1.561 1.535 1.537 1.539 1.581 1.573 1.567 1.561 1.553 1.534 1.557 1.566 1.507 1.486 1.461 1.457 1.521 1.486 1.6 1.574 1.615 1.639 1.715 1.75 1.706 1.766 1.818 1.836 1.81 1.725 1.67 1.656 1.652 1.6 1.571 1.594 1.601 1.617 1.652 1.672 1.676 1.623 1.507 1.581 1.6 1.593 1.551 1.569 1.577 1.539 1.576 1.659 1.609 1.608 1.614 1.605 1.572 1.478 1.53 1.567 1.567 1.515 1.506 1.568 1.527 1.466 1.45 1.48 1.445 1.453 1.464 1.468 1.48 1.466 1.456 1.495 1.478 1.521 1.529 1.576 1.635 1.572 1.697 1.657 1.697 1.704 1.692 1.652 1.593 1.59 1.61 1.631 1.671 1.651 1.581 1.574 1.61 1.598 1.598 1.595 1.607 1.537 1.563 1.514 1.546 1.601 1.592 1.564 1.568 1.585 1.58 1.614 1.641 1.641 1.667 1.635 1.641 1.643 1.602 1.579 1.571 1.571 1.48 1.48 1.634 1.642 1.514 1.504 1.537 1.585 1.53 1.527 1.586 1.62 1.635 1.607 1.576 1.546 1.566 1.583 1.617 1.543 1.581 1.62 1.607 1.613 1.626 1.645 1.634 1.59 1.583 1.595 1.582 1.567 1.569 1.578 1.566 1.551 1.544 1.585 1.65 1.675 1.712 1.735 1.696 1.658 1.624 1.617 1.609 1.615 1.642 1.652 1.659 1.655 1.686 1.742 1.661 1.692 1.696 1.708 1.694 1.677 1.538 1.442 1.539 1.604 1.613 1.604 1.61 1.625 1.68 1.635 1.518 1.594 1.7 1.671 1.569 1.56 1.567 1.582 1.612 1.618 1.551 1.517 1.543 1.517 1.486 1.474 1.518 1.525 1.517 1.661 1.662 1.707 1.694 1.648 1.647 1.637 1.621 1.655 1.677 1.676 1.671 1.661 1.641 1.659 1.688 1.699 1.686 1.655 1.61 1.598 1.691 1.653 1.656 1.684 1.664 1.602 1.576 1.605 1.609 1.574 1.541 1.609 1.615 1.629 1.648 1.635 1.637 1.661 1.667 1.65 1.644 1.637 1.658 1.602 1.578 1.571 1.544 1.519 1.52 1.516 1.535 1.569 1.588 1.561 1.509 1.508
-0.438 -0.668 -0.99 -1.274 -1.577 -1.73 -2.122 -1.959 -2.059 -2.057 -2.209 -2.029 -2.094 -1.962 -2.087 -2.089 -2.077 -2.109 -2.032 -2.049 -2.047 -2.082 -2.072 -2.009 -1.992 -2.019 -1.922 -2.004 -2.059 -2.137 -1.974 -1.909 -2.037 -1.954 -2.024 -2.114 -2.107 -2.012 -2.132 -2.037 -2.034 -2.097 -1.922 -1.63 -1.517 -1.312 -1.117 -0.978 -0.846 -0.723 -0.571 -0.509 -0.422 -0.322 -0.402 -0.387 -0.447 -0.508 -0.566 -0.687 -0.835 -0.932 -0.768 -0.54 -0.353 -0.028 0.229 0.376 0.639 0.926 1.223 1.406 1.465 1.381 1.194 0.866 0.609 0.394 0.154 -0.098 -0.37 -0.59 -0.86 -0.943 -0.779 -0.672 -0.485 -0.332 -0.254 -0.225 -0.182 -0.015 0.115 0.285 0.329 0.354 0.321 0.36 0.578 0.601 0.75 1.001 1.263 1.35 1.241 1.107 1.073 0.929 0.787 0.956 1.184 1.415 1.633 1.377 1.57 1.574 1.302 1.599 1.368 1.244 1.347 1.355 1.193 1.086 1.358 1.616 1.363 1.365 1.61 1.361 1.379 1.376 1.644 1.667 1.663 1.656 1.64 1.638 1.64 1.637 1.62 1.627 1.627 1.592 1.595 1.564 1.661 1.699 1.585 1.629 1.656 1.616 1.577 1.554 1.588 1.576 1.587 1.604 1.591 1.562 1.532 1.515 1.483 1.47 1.483 1.558 1.61 1.662 1.59 1.536 1.533 1.547 1.567 1.627 1.617 1.595 1.611 1.616 1.559 1.603 1.647 1.623 1.613 1.585 1.548 1.527 1.564 1.591 1.623 1.631 1.635 1.67 1.666 1.681 1.652 1.609 1.635 1.679 1.68 1.723 1.676 1.641 1.597 1.629 1.644 1.629 1.614 1.575 1.519 1.458 1.474 1.457 1.469 1.476 1.417 1.47 1.546 1.572 1.57 1.601 1.616 1.602 1.548 1.519 1.552 1.567 1.576 1.575 1.565 1.554 1.541 1.467 1.518 1.539 1.486 1.489 1.565 1.601 1.623 1.619 1.651 1.716 1.731 1.667 1.689 1.752 1.795 1.853 1.826 1.72 1.595 1.61 1.636 1.616 1.606 1.624 1.641 1.659 1.652 1.644 1.624 1.592 1.555 1.564 1.596 1.599 1.574 1.587 1.582 1.518 1.515 1.588 1.605 1.616 1.63 1.603 1.582 1.529 1.527 1.538 1.539 1.484 1.444 1.514 1.47 1.434 1.409 1.411 1.392 1.431 1.452 1.481 1.468 1.457 1.467 1.489 1.52 1.569 1.627 1.62 1.556 1.548 1.612 1.652 1.734 1.687 1.672 1.656 1.62 1.61 1.621 1.639 1.675 1.662 1.605 1.566 1.557 1.606 1.605 1.604 1.6 1.578 1.584 1.549 1.536 1.568 1.594 1.581 1.579 1.572 1.594 1.623 1.635 1.626 1.713 1.654 1.658 1.66 1.602 1.544 1.559 1.595 1.601 1.556 1.563 1.587 1.525 1.501 1.511 1.591 1.515 1.536 1.559 1.589 1.606 1.572 1.535 1.555 1.563 1.559 1.598 1.521 1.53 1.577 1.579 1.581 1.621 1.64 1.639 1.523 1.544 1.591 1.6 1.586 1.585 1.594 1.599 1.602 1.582 1.59 1.595 1.653 1.681 1.688 1.675 1.633 1.593 1.578 1.605 1.647 1.663 1.642 1.637 1.663 1.682 1.65 1.661 1.682 1.703 1.728 1.703 1.677 1.582 1.513 1.632 1.632 1.594 1.577 1.615 1.632 1.643 1.618 1.559 1.627 1.719 1.628 1.592 1.529 1.566 1.559 1.583 1.597 1.587 1.577 1.592 1.557 1.488 1.457 1.522 1.573 1.655 1.785 1.717 1.673 1.641 1.616 1.657 1.662 1.649 1.651 1.664 1.666 1.716 1.717 1.684 1.665 1.669 1.771 1.704 1.662 1.571 1.639 1.668 1.56 1.627 1.72 1.699 1.63 1.619 1.621 1.658 1.597 1.475 1.524 1.6 1.631 1.656 1.643 1.611 1.631 1.701 1.619 1.563 1.594 1.624 1.619 1.604 1.564 1.54 1.517 1.504 1.463 1.522 1.563 1.58 1.562 1.549 1.54
-0.45 -0.718 -0.94 -1.323 -1.497 -1.942 -2.004 -1.979 -2.044 -2.047 -2.089 -2.039 -2.097 -2.009 -2.107 -2.094 -2.084 -2.022 -1.962 -2.054 -2.034 -2.009 -2.019 -2.089 -2.097 -2.007 -2.132 -2.199 -1.947 -1.954 -2.044 -1.932 -1.927 -2.089 -2.032 -2.209 -2.029 -2.084 -2.079 -2.094 -2.037 -2.139 -2.067 -1.774 -1.637 -1.519 -1.286 -1.248 -1.059 -0.965 -0.835 -0.708 -0.629 -0.619 -0.577 -0.623 -0.657 -0.667 -0.833 -0.912 -1.112 -1.052 -0.728 -0.616 -0.295 0.03 0.337 0.441 0.701 0.987 1.331 1.52 1.721 1.416 1.2 0.926 0.679 0.438 0.194 -0.092 -0.349 -0.593 -0.851 -1.07 -1.097 -0.802 -0.657 -0.549 -0.464 -0.43 -0.355 -0.24 -0.039 0.105 0.13 0.189 0.368 0.576 0.752 0.829 0.839 0.901 1.027 1.087 1.021 0.896 0.845 0.74 0.69 0.898 1.126 1.28 1.351 1.65 1.246 1.259 1.175 1.333 1.275 1.101 1.141 1.147 1.046 1.049 1.257 1.361 1.256 1.365 1.624 1.355 1.38 1.301 1.46 1.729 1.672 1.661 1.628 1.644 1.698 1.659 1.578 1.644 1.673 1.583 1.583 1.62 1.635 1.593 1.525 1.638 1.652 1.632 1.607 1.606 1.594 1.585 1.594 1.584 1.588 1.576 1.563 1.525 1.448 1.474 1.499 1.523 1.57 1.583 1.564 1.481 1.519 1.554 1.558 1.594 1.596 1.587 1.621 1.611 1.595 1.664 1.689 1.658 1.646 -9999 1.559 1.553 1.562 1.596 1.658 1.736 1.723 1.716 1.658 1.632 1.64 1.644 1.679 1.718 1.638 1.577 1.666 1.638 1.595 1.615 1.627 1.536 1.562 1.57 1.493 1.497 1.551 1.505 1.496 1.496 1.481 1.495 1.523 1.52 1.538 1.587 1.655 1.676 1.554 1.515 1.528 1.553 1.57 1.58 1.591 1.563 1.558 1.553 1.567 1.581 1.571 1.551 1.637 1.725 1.716 1.717 1.76 1.797 1.84 1.749 1.727 1.735 1.758 1.794 1.84 1.761 1.652 1.631 1.611 1.612 1.617 1.63 1.647 1.662 1.635 1.62 1.584 1.537 1.558 1.576 1.609 1.634 1.603 1.595 1.551 1.477 1.43 1.547 1.598 1.604 1.604 1.604 1.582 1.546 1.524 1.517 1.514 1.445 1.391 1.46 1.435 1.435 1.402 1.406 1.42 1.454 1.449 1.458 1.468 1.484 1.531 1.539 1.583 1.597 1.657 1.636 1.55 1.454 1.54 1.617 1.648 1.654 1.647 1.605 1.579 1.582 1.593 1.566 1.611 1.658 1.663 1.608 1.55 1.543 1.568 1.616 1.612 1.613 1.637 1.563 1.517 1.555 1.65 1.622 1.603 1.61 1.611 1.622 1.613 1.634 1.653 1.664 1.677 1.689 1.627 1.53 1.492 1.55 1.586 1.517 1.466 1.519 1.511 1.504 1.488 1.577 1.616 1.587 1.579 1.588 1.632 1.567 1.504 1.564 1.56 1.55 1.534 1.488 1.465 1.537 1.541 1.554 1.562 1.603 1.649 1.555 1.553 1.604 1.628 1.603 -9999 1.613 1.626 1.623 1.61 1.59 1.539 1.59 1.653 1.67 1.675 1.6 1.581 1.573 1.601 1.65 1.651 1.607 1.584 1.646 1.696 1.67 1.657 1.636 1.653 1.678 1.686 1.677 1.631 1.608 1.629 1.621 1.597 1.616 1.622 1.62 1.626 1.617 1.574 1.489 1.599 1.6 1.583 1.571 1.622 1.6 1.594 1.607 1.61 1.593 1.588 1.564 1.549 1.57 1.601 1.594 1.679 1.756 1.688 1.581 1.617 1.633 1.689 1.671 1.656 1.651 1.671 1.641 1.71 1.733 1.674 1.669 1.695 1.73 1.703 1.656 1.65 1.722 1.648 1.574 1.603 1.62 1.638 1.658 1.672 1.687 1.703 1.648 1.548 1.59 1.622 1.668 1.696 1.657 1.596 1.574 1.607 1.528 1.588 1.607 1.634 1.654 1.629 1.593 1.548 1.521 1.509 1.515 1.571 1.567 1.572 1.566 1.562 1.555
-0.499 -0.665 -0.979 -1.207 -1.598 -1.799 -2.169 -2.004 -2.152 -2.017 -2.099 -1.962 -2.062 -2.029 -2.084 -1.989 -2.087 -1.989 -1.994 -2.074 -1.977 -2.059 -2.067 -2.129 -2.047 -2.004 -2.094 -2.054 -2.132 -2.052 -2.057 -1.922 -2.007 -2.132 -2.059 -2.102 -2.047 -2.169 -2.029 -2.049 -2.019 -2.219 -1.992 -1.948 -1.903 -1.611 -1.464 -1.449 -1.193 -1.127 -1.03 -0.98 -0.938 -0.82 -0.867 -0.84 -0.832 -0.849 -1.133 -1.088 -1.374 -1.096 -0.765 -0.54 -0.293 -0.004 0.187 0.484 0.723 0.962 1.18 1.323 1.44 1.359 1.146 0.912 0.67 0.366 0.109 -0.117 -0.403 -0.597 -0.908 -1.054 -1.235 -1.013 -0.871 -0.904 -0.696 -0.706 -0.493 -0.344 -0.251 -0.144 0.092 0.278 0.51 0.739 0.927 1.092 1.147 1.111 0.872 0.798 0.808 0.735 0.711 0.859 0.904 0.888 0.979 1.064 1.258 1.347 1.274 1.192 1.014 1.123 1.09 0.923 0.876 0.9 0.923 1.15 1.376 1.62 1.363 1.283 1.388 1.368 1.608 1.435 1.49 1.763 1.703 1.676 1.663 1.649 1.636 1.621 1.596 1.622 1.609 1.581 1.601 1.666 1.695 1.592 1.593 1.665 1.657 1.631 1.631 1.653 1.603 -9999 1.593 1.584 1.59 1.547 1.513 1.508 1.546 1.526 1.509 1.501 1.451 1.533 1.551 1.512 1.555 1.562 1.559 1.621 1.643 1.648 1.69 1.648 1.64 1.767 1.731 1.674 -9999 -9999 -9999 1.58 1.588 1.632 1.662 1.71 1.712 1.699 1.653 1.615 1.606 1.673 1.705 1.731 1.658 1.613 1.692 1.669 1.6 1.599 1.555 1.415 1.506 1.534 1.489 1.512 1.613 1.506 1.517 1.5 1.505 1.53 1.54 1.507 1.509 1.582 1.62 1.587 1.522 1.517 1.51 1.535 1.563 1.555 1.568 1.56 1.609 1.656 1.648 1.656 1.66 1.729 1.754 1.812 1.794 1.779 1.786 1.808 1.895 1.823 1.763 1.724 1.714 1.691 1.741 1.706 1.696 1.636 1.574 1.588 1.615 1.624 1.62 1.63 1.623 1.61 1.578 1.554 1.571 1.58 1.58 1.648 1.588 1.556 1.501 1.535 1.531 1.552 1.593 1.594 1.577 1.601 1.595 1.557 1.529 1.529 1.515 1.493 1.496 1.522 1.477 1.467 1.46 1.433 1.439 1.464 1.419 1.4 1.449 1.493 1.604 1.577 1.586 1.551 1.588 1.632 1.632 1.515 1.548 1.58 1.618 1.527 1.585 1.574 1.556 1.542 1.54 1.543 1.585 1.639 1.736 1.682 1.561 1.45 1.511 1.594 1.612 1.615 1.603 1.552 1.479 1.637 1.661 1.648 1.604 1.588 1.602 1.631 1.623 1.64 1.632 1.613 1.639 1.663 1.655 1.573 1.502 1.511 1.499 1.502 1.499 1.52 1.52 1.508 1.512 1.55 1.529 1.52 1.549 1.553 1.556 1.53 1.473 1.5 1.53 1.566 1.558 1.528 1.523 1.545 1.56 1.567 1.557 1.583 1.606 1.572 1.566 1.593 1.606 1.601 1.62 1.628 1.65 1.653 1.657 1.638 1.65 1.628 1.62 1.611 1.588 1.554 1.564 1.582 1.622 1.642 1.577 1.628 1.566 1.615 1.643 1.673 1.683 1.647 1.618 1.605 1.625 1.638 1.644 1.639 1.616 1.604 1.6 1.653 1.606 1.574 1.608 1.644 1.573 1.48 1.54 1.594 1.59 1.59 1.666 1.648 -9999 1.618 1.62 1.587 1.551 1.569 1.576 1.603 1.628 1.579 1.618 1.685 1.712 1.623 1.633 1.639 1.656 1.668 1.656 1.636 1.655 1.656 1.676 1.577 1.632 1.699 1.704 1.7 1.679 1.626 1.676 1.681 1.607 1.565 1.572 1.575 1.618 1.688 1.718 1.729 1.762 1.719 1.636 1.633 1.646 1.697 1.714 1.689 1.651 1.671 1.598 1.556 1.632 1.619 1.64 1.726 1.675 1.623 1.572 1.526 1.514 1.536 1.551 1.543 1.576 1.574 1.548 1.53
-0.392 -0.694 -1.011 -1.297 -1.642 -1.775 -2.002 -1.949 -2.069 -2.132 -2.042 -2.052 -2.129 -1.967 -2.084 -2.059 -2.042 -2.029 -1.927 -1.982 -2.097 -2.057 -2.154 -2.022 -2.027 -1.949 -2.102 -2.077 -2.077 -1.992 -1.987 -2.079 -2.117 -2.054 -2.049 -2.099 -2.174 -2.074 -2.059 -2.119 -2.077 -2.027 -2.007 -2.049 -1.977 -1.826 -1.723 -1.583 -1.462 -1.337 -1.276 -1.179 -1.078 -1.185 -1.085 -1.05 -1.123 -1.184 -1.242 -1.416 -1.364 -1.061 -0.835 -0.573 -0.33 -0.096 0.18 0.413 0.661 0.796 1.007 1.018 1.19 1.161 1.018 0.797 0.577 0.326 0.082 -0.146 -0.382 -0.657 -0.835 -1.127 -1.397 -1.292 -1.138 -1.058 -0.907 -0.797 -0.644 -0.571 -0.349 -0.159 0.081 0.342 0.59 0.827 1.055 1.317 1.446 1.362 1.105 0.859 0.626 0.771 0.959 1.124 1.192 1.147 0.991 0.972 1.144 1.392 1.58 1.334 1.121 0.865 0.815 0.701 0.617 0.861 1.056 1.291 1.397 1.633 1.374 1.371 1.277 1.271 1.391 1.352 1.353 1.446 1.682 1.683 1.701 1.66 1.591 1.599 1.586 1.58 1.547 1.58 1.608 1.646 1.63 1.566 1.584 1.616 1.634 1.623 1.58 1.546 1.578 -9999 1.578 1.579 1.58 1.542 1.483 1.445 1.499 1.536 1.515 1.521 1.506 1.585 1.554 1.482 1.522 1.599 1.666 1.697 1.704 1.691 1.709 1.668 1.676 1.693 1.638 1.596 1.571 1.546 1.568 1.593 1.596 1.598 1.656 1.683 1.684 1.678 1.636 1.586 1.607 1.704 1.699 1.649 1.558 1.652 1.693 1.663 1.621 1.615 1.575 1.55 1.697 1.564 1.393 1.452 1.457 1.507 1.547 1.514 1.519 1.546 1.557 1.505 1.487 1.611 1.617 1.54 1.503 1.525 1.486 1.517 1.603 1.607 1.579 1.579 1.64 1.683 1.689 1.72 1.75 1.785 1.766 1.747 1.761 1.785 1.779 1.766 1.781 1.746 1.739 1.728 1.699 1.633 1.641 1.628 1.563 1.558 1.543 1.544 1.648 1.619 1.618 1.627 1.65 1.64 1.604 1.589 1.603 1.6 1.604 1.587 1.533 1.515 1.55 1.632 1.622 1.626 1.628 1.597 1.592 1.58 1.583 1.57 1.514 1.506 1.533 1.529 1.548 1.56 1.515 1.483 1.464 1.435 1.423 1.425 1.387 1.389 1.479 1.497 1.533 1.545 1.513 1.468 1.497 1.57 1.575 1.61 1.647 1.573 1.526 1.386 1.628 1.548 1.489 1.514 1.527 1.529 1.572 1.622 1.67 1.654 1.587 1.529 1.577 1.577 1.591 1.575 1.56 1.535 1.539 1.607 1.628 1.637 1.584 1.571 1.598 1.61 1.559 1.583 1.576 1.528 1.571 1.616 1.63 1.577 1.511 1.475 1.5 1.509 1.541 1.567 1.538 1.525 1.536 1.553 1.463 1.467 1.483 1.517 1.532 1.504 1.515 1.526 1.49 1.595 1.58 1.609 1.611 1.618 1.61 1.578 1.536 1.582 1.563 1.546 1.551 1.572 1.586 1.595 1.596 1.59 1.628 1.64 1.638 1.648 1.746 1.688 1.618 1.598 1.554 1.525 1.58 1.593 1.624 1.633 1.656 1.671 1.598 1.577 1.59 1.648 1.651 1.633 1.608 1.593 1.599 1.633 1.664 1.674 1.631 1.574 1.596 1.623 1.564 1.432 1.558 1.61 1.568 1.515 1.555 1.593 1.602 1.596 1.593 1.61 1.629 1.621 1.613 1.595 1.558 1.549 1.544 1.569 1.601 1.576 1.546 1.575 1.655 1.661 1.643 1.616 1.644 1.674 1.677 1.657 1.65 1.649 1.641 1.623 1.653 1.725 1.728 1.698 1.709 1.723 1.654 1.618 1.504 1.528 1.558 1.584 1.64 1.696 1.723 1.725 1.684 1.684 1.672 1.658 1.646 1.699 1.714 1.681 1.653 1.653 1.6 1.59 1.582 1.557 1.634 1.692 1.67 1.62 1.56 1.531 1.54 1.577 1.558 1.55 1.568 1.578 1.526 1.547
-0.412 -0.785 -0.985 -1.272 -1.513 -1.733 -2.079 -1.994 -2.042 -1.977 -2.099 -1.997 -1.952 -2.057 -2.072 -2.049 -2.134 -2.137 -1.924 -2.077 -2.199 -2.007 -2.137 -2.089 -2.054 -2.099 -2.197 -2.004 -2.062 -1.974 -1.899 -2.064 -2.037 -2.019 -2.099 -2.037 -2.087 -2.024 -2.094 -2.102 -2.057 -1.962 -1.997 -2.042 -2.024 -2.082 -1.93 -1.877 -1.596 -1.507 -1.494 -1.439 -1.393 -1.34 -1.275 -1.335 -1.324 -1.382 -1.542 -1.635 -1.459 -1.166 -0.948 -0.608 -0.371 -0.225 0.081 0.306 0.511 0.709 0.848 0.959 1.054 0.944 0.812 0.628 0.429 0.207 -0.054 -0.248 -0.501 -0.752 -0.876 -1.258 -1.468 -1.457 -1.347 -1.244 -1.212 -1.063 -0.809 -0.566 -0.329 -0.08 0.127 0.422 0.617 0.883 1.121 1.402 1.693 1.451 1.163 0.934 0.681 0.86 1.114 1.343 1.463 1.362 1.148 0.869 1.073 1.314 1.379 1.27 1.056 0.831 0.756 0.543 0.638 0.907 1.126 1.386 1.654 1.656 1.374 1.605 1.353 1.399 1.295 1.091 1.096 1.286 1.395 1.415 1.684 1.686 1.758 1.59 1.569 1.606 1.602 1.607 1.591 1.583 1.565 1.575 1.586 1.612 1.624 1.596 1.58 1.557 1.559 -9999 1.55 1.555 1.552 1.54 1.476 1.442 1.487 1.564 1.502 1.519 1.563 1.565 1.533 1.511 1.569 1.672 1.777 1.752 1.755 1.739 1.705 1.661 1.662 1.61 1.532 1.574 1.556 1.496 1.561 1.61 1.597 1.63 1.683 1.658 1.659 1.662 1.66 1.657 1.62 1.671 1.681 1.631 1.603 1.645 1.682 1.682 1.655 1.612 1.575 1.582 1.573 1.574 1.453 1.465 1.444 1.413 1.505 1.51 1.515 1.553 1.579 1.498 1.443 1.668 1.633 1.541 1.477 1.475 1.479 1.483 1.657 1.708 1.585 1.551 1.624 1.692 1.674 1.711 1.805 1.764 1.714 1.678 1.715 1.75 1.704 1.659 1.724 1.728 1.727 1.716 1.699 1.679 1.651 1.599 1.526 1.5 1.545 1.565 1.598 1.606 1.616 1.624 1.692 1.673 1.627 1.604 1.614 1.627 1.636 1.564 1.472 1.511 1.597 1.606 1.621 1.629 1.669 1.6 1.525 1.532 1.54 1.523 1.475 1.475 1.543 1.534 1.54 1.526 1.501 1.472 1.44 1.397 1.403 1.424 1.438 1.507 1.512 1.469 1.483 1.499 1.485 1.478 1.512 1.554 1.579 1.606 1.617 1.588 1.543 1.508 1.572 1.569 1.532 1.604 1.49 1.572 1.681 1.537 1.6 1.609 1.623 1.584 1.588 1.582 1.58 1.573 1.532 1.545 1.571 1.544 1.516 1.607 1.622 1.605 1.545 1.64 1.598 1.586 1.567 1.532 1.522 1.513 1.606 1.576 1.522 1.49 1.499 1.539 1.578 1.578 1.509 1.531 1.597 1.565 1.505 1.486 1.506 1.494 1.552 1.543 1.549 1.586 1.567 1.661 1.615 1.64 1.679 1.639 1.633 1.615 1.589 1.583 1.559 1.506 1.473 1.533 1.556 1.68 1.615 1.562 1.595 1.615 1.625 1.659 1.7 1.682 1.624 1.612 1.585 1.572 1.604 1.625 1.646 1.642 1.627 1.713 1.628 1.58 1.591 1.639 1.618 1.614 1.624 1.591 1.579 1.636 1.708 1.708 1.657 1.632 1.649 1.632 1.648 1.574 1.579 1.606 1.593 1.586 1.626 1.59 1.649 1.59 1.572 1.581 1.596 1.63 1.611 1.598 1.542 1.529 1.502 1.55 1.58 1.531 1.516 1.544 1.676 1.691 1.618 1.596 1.618 1.68 1.704 1.692 1.666 1.655 1.639 1.638 1.673 1.707 1.698 1.663 1.648 1.611 1.626 1.637 1.584 1.605 1.587 1.601 1.632 1.668 1.689 1.691 1.649 1.671 1.661 1.659 1.664 1.636 1.656 1.631 1.613 1.58 1.598 1.635 1.631 1.612 1.63 1.642 1.631 1.596 1.536 1.526 1.555 1.595 1.571 1.556 1.567 1.613 1.599 1.566
-0.43 -0.735 -1.059 -1.204 -1.484 -1.86 -2.007 -2.077 -1.977 -1.954 -2.142 -2.087 -2.004 -2.032 -2.119 -2.117 -2.009 -1.997 -1.979 -2.024 -2.072 -2.019 -2.052 -2.077 -2.024 -2.044 -2.042 -2.064 -2.034 -1.967 -1.979 -2.082 -2.179 -2.034 -2.029 -2.074 -2.009 -1.992 -2.054 -2.114 -1.974 -2.201 -2.019 -2.007 -1.997 -2.077 -2.082 -2.033 -1.836 -1.715 -1.704 -1.563 -1.561 -1.684 -1.544 -1.499 -1.601 -1.693 -1.702 -1.774 -1.526 -1.22 -0.953 -0.801 -0.562 -0.306 -0.061 0.163 0.299 0.467 0.605 0.72 0.734 0.632 0.572 0.393 0.263 0.06 -0.173 -0.319 -0.528 -0.739 -0.954 -1.216 -1.6 -1.667 -1.576 -1.497 -1.301 -1.096 -0.83 -0.588 -0.401 -0.132 0.165 0.407 0.544 0.746 1.068 1.28 1.411 1.213 1.08 0.844 0.651 0.954 1.194 1.44 1.697 1.433 1.171 0.888 0.921 1.085 1.15 1.085 1.11 1.067 0.931 0.751 0.864 0.894 1.09 1.299 1.424 1.425 1.366 1.569 1.308 1.604 1.377 1.284 1.079 1.068 1.162 1.3 1.413 1.678 1.686 1.612 1.591 1.612 1.63 1.621 1.569 1.528 1.506 1.539 1.592 1.626 1.63 1.619 1.598 -9999 1.54 1.523 1.522 1.521 1.515 1.502 1.474 1.47 1.486 1.534 1.526 1.554 1.613 1.556 1.501 1.558 1.604 1.715 1.707 1.687 1.732 1.718 1.668 1.657 1.663 1.675 1.624 1.557 1.521 1.468 1.523 1.573 1.622 1.595 1.623 1.617 1.634 1.654 1.634 1.646 1.648 1.67 1.65 1.618 1.665 1.685 1.675 1.677 1.738 1.643 1.605 1.537 1.414 1.461 1.495 1.495 1.567 1.535 1.534 1.524 1.539 1.537 1.546 1.528 1.55 1.604 1.599 1.552 1.529 1.506 1.512 1.517 1.614 1.627 1.532 1.506 1.65 1.711 1.66 1.654 1.731 1.737 1.726 1.769 1.751 1.715 1.698 1.68 1.702 1.73 1.717 1.701 1.693 1.685 1.661 1.583 1.418 1.461 1.564 1.569 1.566 1.6 1.616 1.626 1.633 1.661 1.648 1.635 1.62 1.617 1.586 1.55 1.542 1.555 1.563 1.578 1.574 1.57 1.583 1.555 1.526 1.532 1.507 1.436 1.471 1.524 1.548 1.543 1.529 1.496 1.461 1.456 1.448 1.391 1.412 1.447 1.47 1.498 1.452 1.405 1.454 1.466 1.479 1.466 1.549 1.552 1.537 1.559 1.571 1.57 1.591 1.491 1.542 1.554 1.562 1.574 1.556 1.622 1.701 1.613 1.55 1.571 1.588 1.593 1.59 1.594 1.575 1.557 1.546 1.587 1.631 1.596 1.602 1.688 1.686 1.659 1.606 1.611 1.577 1.594 1.553 1.553 1.521 1.5 1.495 1.505 1.525 1.552 1.516 1.518 1.563 1.561 1.498 1.56 1.564 1.531 1.453 1.485 1.505 1.448 1.455 1.524 1.528 1.498 1.577 1.621 1.611 1.612 1.631 1.629 1.646 1.597 1.576 1.541 1.54 1.523 1.528 1.555 1.581 1.554 1.593 1.589 1.58 1.605 1.617 1.639 1.664 1.646 1.622 1.625 1.615 1.601 1.595 1.589 1.568 1.596 1.599 1.642 1.663 1.669 1.582 1.599 1.591 1.609 1.621 1.597 1.586 1.592 1.618 1.636 1.669 1.651 1.646 1.626 1.632 1.619 1.623 1.627 1.593 1.586 1.641 1.57 1.596 1.588 1.56 1.54 1.591 1.646 1.595 1.607 1.551 1.538 1.56 1.624 1.592 1.526 1.52 1.655 1.754 1.668 1.599 1.589 1.618 1.712 1.732 1.696 1.665 1.656 1.651 -9999 1.729 1.706 1.668 1.631 1.596 1.571 1.604 1.617 1.615 1.662 1.614 1.558 1.609 1.631 1.654 1.643 1.597 1.636 1.637 1.627 1.573 1.587 1.63 1.596 1.549 1.543 1.602 1.665 1.687 1.646 1.624 1.609 1.595 1.558 1.523 1.497 1.494 1.57 1.559 1.584 1.549 1.582 1.598 1.592
-0.395 -0.786 -1.011 -1.299 -1.547 -1.831 -1.974 -2.024 -2.032 -2.094 -2.014 -1.992 -2.097 -2.017 -2.159 -2.099 -2.074 -2.052 -2.022 -2.049 -2.072 -2.124 -2.034 -2.049 -2.084 -2.129 -2.037 -2.127 -2.007 -2.024 -2.024 -2.127 -2.134 -2.029 -2.057 -2.032 -2.022 -1.977 -2.052 -2.142 -2.089 -2.017 -2.084 -2.052 -2.137 -2.032 -2.122 -2.049 -1.977 -1.972 -1.913 -1.941 -1.864 -1.76 -1.746 -1.84 -1.804 -1.894 -1.924 -1.677 -1.556 -1.315 -0.987 -0.82 -0.656 -0.518 -0.151 -0.04 0.102 0.296 0.341 0.437 0.463 0.349 0.269 0.252 0.107 -0.113 -0.318 -0.396 -0.676 -0.938 -1.059 -1.413 -1.578 -1.739 -1.958 -1.632 -1.254 -1.13 -0.843 -0.655 -0.421 -0.202 0.017 0.235 0.473 0.71 0.973 1.098 1.138 1.07 0.907 0.768 0.634 0.91 1.098 1.317 1.402 1.269 1.089 0.898 1.079 1.164 1.126 1.286 1.354 1.25 1.08 0.963 1.095 1.172 1.118 1.11 1.184 1.152 1.285 1.342 1.224 1.324 1.596 1.373 1.141 1.076 1.158 1.14 1.296 1.402 1.6 1.607 1.628 1.661 1.643 1.609 1.555 1.518 1.496 1.555 1.605 1.637 1.647 1.651 1.615 1.568 1.539 1.525 1.513 1.512 1.505 1.505 1.475 1.477 1.486 1.493 1.47 1.533 1.654 1.562 1.527 1.607 1.671 1.68 1.638 1.655 1.685 1.701 1.651 1.629 1.621 1.63 1.587 1.485 1.511 1.55 1.548 1.535 1.56 1.566 1.58 1.591 1.625 1.666 1.613 1.633 1.649 1.671 1.616 1.634 1.683 1.637 1.58 1.63 1.667 1.643 1.61 1.538 1.506 1.494 1.517 1.541 1.598 1.645 1.616 1.618 1.602 1.564 1.529 1.553 1.562 1.595 1.578 1.557 1.542 1.506 1.491 1.52 1.57 1.539 1.459 1.561 1.7 1.733 1.652 1.615 1.685 1.709 1.729 1.762 1.759 1.718 1.73 1.747 1.791 1.765 1.679 1.678 1.663 1.676 1.659 1.642 1.545 1.514 1.536 1.548 1.563 1.587 1.596 1.595 1.629 1.657 1.67 1.679 1.635 1.598 1.536 1.516 1.593 1.607 1.57 1.547 1.525 1.501 1.505 1.514 1.536 1.536 1.491 1.482 1.534 1.605 1.578 1.541 1.543 1.517 1.462 1.47 1.507 1.5 1.506 1.526 1.516 1.472 1.408 1.421 1.48 1.481 1.492 1.513 1.561 1.552 1.473 1.52 1.561 1.645 1.601 1.471 1.531 1.548 1.569 1.568 1.59 1.672 1.783 1.696 1.583 1.587 1.599 1.59 1.605 1.605 1.584 1.568 1.633 1.659 1.636 1.626 1.693 1.725 1.654 1.605 1.611 1.608 1.519 1.58 1.513 1.604 1.557 1.506 1.455 1.482 1.51 1.519 1.48 1.488 1.634 1.575 1.575 1.588 1.504 1.539 1.528 1.517 1.539 1.471 1.467 1.523 1.535 1.479 1.518 1.614 1.624 1.551 1.584 1.635 1.65 1.615 1.559 1.542 1.561 1.556 1.59 1.585 1.604 1.623 1.635 1.593 1.577 1.579 1.613 1.638 1.634 1.605 1.569 1.56 1.632 1.612 1.546 1.559 1.586 1.571 1.571 1.655 1.669 1.659 1.614 1.592 1.586 1.579 1.606 1.59 1.596 1.542 1.584 1.618 1.626 1.533 1.63 1.617 1.656 1.662 1.671 1.66 1.614 1.584 1.587 1.54 1.599 1.603 1.581 1.505 1.554 1.604 1.634 1.651 1.554 1.533 1.576 1.663 1.569 1.53 1.513 1.65 1.666 1.675 1.679 1.639 1.685 1.717 1.66 1.597 1.647 1.674 1.667 1.672 1.725 1.727 1.712 1.587 1.593 1.61 1.638 1.602 1.641 1.658 1.651 1.546 1.666 1.675 1.683 1.682 1.625 1.613 1.614 1.664 1.635 1.655 1.672 1.628 1.561 1.592 1.652 1.619 1.549 1.492 1.588 1.578 1.563 1.538 1.527 1.53 1.531 1.535 1.511 1.574 1.562 1.571 1.578 1.624
-0.442 -0.715 -0.965 -1.286 -1.504 -1.852 -2.002 -2.014 -1.942 -2.019 -2.012 -2.052 -1.994 -1.992 -2.062 -2.052 -2.152 -2.039 -2.014 -2.029 -2.054 -2.042 -2.137 -2.107 -2.032 -2.099 -2.062 -2.069 -1.989 -1.917 -1.944 -2.032 -2.089 -1.987 -1.989 -1.997 -2.106 -2.029 -2.129 -2.139 -2.057 -1.924 -2.012 -2.044 -2.144 -2.049 -1.957 -2.072 -1.982 -2.024 -2.074 -2.092 -2.177 -2.099 -2.074 -2.002 -1.967 -1.997 -1.972 -1.941 -1.772 -1.372 -1.175 -0.998 -0.782 -0.596 -0.383 -0.238 -0.04 0.03 0.152 0.196 0.199 0.147 0.03 0.055 -0.072 -0.277 -0.475 -0.703 -0.848 -0.982 -1.193 -1.481 -1.664 -1.77 -1.889 -1.706 -1.485 -1.232 -0.923 -0.764 -0.439 -0.28 -0.093 0.156 0.358 0.571 0.787 0.865 0.878 0.862 0.76 0.606 0.559 0.802 1.012 1.123 1.147 1.05 0.919 1.059 1.281 1.409 1.318 1.416 1.637 1.391 1.163 1.136 1.321 1.427 1.309 1.131 0.977 0.965 1.124 1.14 1.081 1.263 1.362 1.276 1.066 1.242 1.353 1.376 1.265 1.292 1.375 1.376 1.635 1.677 1.651 1.609 1.554 1.497 1.479 1.57 1.622 1.644 1.655 1.65 1.612 1.575 1.53 1.533 1.532 1.544 1.558 1.55 1.499 1.485 1.5 1.492 1.483 1.531 1.6 1.588 1.576 1.623 1.654 1.628 1.609 1.605 1.621 1.692 1.636 1.602 1.557 1.568 1.565 1.545 1.624 1.675 1.612 1.568 1.554 1.54 1.567 1.635 1.67 1.64 1.613 1.613 1.7 1.58 1.585 1.61 1.606 1.599 1.603 1.651 1.611 1.587 1.577 1.575 1.558 1.545 1.561 1.575 1.62 1.641 1.614 1.703 1.646 1.582 1.496 1.515 1.534 1.584 1.569 1.493 1.561 1.469 1.443 1.482 1.527 1.547 1.588 1.624 1.663 1.659 1.659 1.648 1.68 1.704 1.711 1.755 1.777 1.791 1.79 1.816 1.751 1.656 1.6 1.674 1.59 1.54 1.662 1.653 1.588 1.558 1.556 1.526 1.539 1.575 1.581 1.58 1.636 1.669 1.681 1.662 1.641 1.589 1.555 1.543 1.606 1.603 1.571 1.562 1.5 1.465 1.487 1.514 1.563 1.553 1.462 1.501 1.596 1.642 1.57 1.546 1.578 1.595 1.462 1.497 1.614 1.597 1.564 1.583 1.545 1.503 1.393 1.409 1.462 1.486 1.519 1.541 1.531 1.532 1.555 1.539 1.57 1.594 1.588 1.526 1.525 1.552 1.574 1.604 1.663 1.716 1.723 1.684 1.646 1.629 1.61 1.596 1.622 1.631 1.621 1.63 1.694 1.67 1.629 1.623 1.659 1.639 1.622 1.613 1.604 1.58 1.569 1.552 1.55 1.55 1.539 1.518 1.566 1.532 1.502 1.5 1.511 1.569 1.595 1.58 1.592 1.571 1.554 1.554 1.526 1.563 1.51 1.481 1.513 1.572 1.577 1.505 1.549 1.624 1.646 1.611 1.628 1.638 1.634 1.628 1.589 1.567 1.587 1.596 1.62 1.619 1.68 1.716 1.702 1.683 1.594 1.58 1.627 1.663 1.633 1.591 1.572 1.578 1.657 1.604 1.566 1.569 1.589 1.586 1.585 1.645 1.658 1.627 1.603 1.602 1.591 1.535 1.482 1.565 1.596 1.538 1.512 1.582 1.607 1.612 1.605 1.64 1.686 1.679 1.679 1.651 1.623 1.584 1.563 1.585 1.661 1.644 1.627 1.562 1.538 1.578 1.599 1.634 1.581 1.54 1.54 1.533 1.486 1.492 1.547 1.675 1.682 1.657 1.642 1.696 1.693 1.72 1.65 1.627 1.649 1.678 1.622 1.658 1.731 1.771 1.695 1.622 1.612 1.617 1.634 1.63 1.65 1.695 1.702 1.711 1.737 1.729 1.713 1.672 1.625 1.636 1.681 1.712 1.672 1.655 1.659 1.645 1.576 1.548 1.588 1.582 1.537 1.504 1.54 1.513 1.538 1.531 1.55 1.576 1.671 1.569 1.491 1.546 1.569 1.539 1.574 1.611
-0.538 -0.766 -1.083 -1.278 -1.484 -1.823 -2.042 -2.049 -1.947 -2.132 -2.009 -2.024 -2.094 -2.107 -2.132 -2.074 -2.082 -2.069 -1.954 -2.002 -2.079 -2.022 -2.087 -2.087 -2.082 -2.049 -2.087 -2.037 -1.917 -2.064 -1.987 -2.117 -2.072 -2.047 -2.079 -1.979 -2.019 -1.989 -2.087 -1.999 -2.079 -2.084 -2.102 -2.109 -2.089 -2.019 -2.004 -1.904 -1.917 -2.107 -2.044 -2.032 -2.129 -2.107 -2.174 -1.972 -1.964 -2.054 -1.959 -1.935 -1.848 -1.533 -1.271 -1.186 -0.88 -0.732 -0.547 -0.431 -0.258 -0.202 -0.109 -0.087 -0.075 -0.087 -0.176 -0.161 -0.325 -0.468 -0.552 -0.767 -0.992 -1.126 -1.357 -1.598 -1.776 -1.723 -1.786 -1.473 -1.484 -1.247 -1.152 -0.797 -0.581 -0.426 -0.252 0.02 0.185 0.339 0.539 0.638 0.604 0.609 0.564 0.462 0.504 0.678 0.843 0.956 0.944 0.809 0.894 1.179 1.411 1.681 1.465 1.355 1.434 1.346 1.159 1.182 1.412 1.674 1.408 1.305 1.13 0.91 0.95 0.992 1.076 1.144 1.147 1.09 1.129 1.364 1.601 1.624 1.388 1.172 1.14 1.397 1.651 1.693 1.687 1.605 1.56 1.522 1.536 1.622 1.665 1.662 1.666 1.651 1.613 1.587 1.56 1.569 1.594 1.605 1.619 1.601 1.551 1.514 1.501 1.502 1.515 1.531 1.566 1.607 1.626 1.647 1.621 1.577 1.582 1.574 1.543 1.554 1.616 1.521 1.504 1.572 1.622 1.668 1.66 1.695 1.678 1.629 1.596 1.588 1.604 1.636 1.66 1.632 1.619 1.611 1.613 1.587 1.582 1.608 1.616 1.619 1.61 1.641 1.63 1.538 1.551 1.589 1.576 1.578 1.606 1.607 1.685 1.665 1.646 1.663 1.621 1.588 1.517 1.481 1.476 1.565 1.547 1.504 1.521 1.485 1.454 1.452 1.462 1.496 1.576 1.654 1.641 1.647 1.65 1.675 1.71 1.734 1.74 1.769 1.78 1.833 1.77 1.746 1.679 1.579 1.662 1.707 1.62 1.609 1.718 1.673 1.585 1.574 1.575 1.55 1.556 1.596 1.6 1.605 1.674 1.687 1.671 1.652 1.646 1.589 1.581 1.574 1.555 1.554 1.538 1.501 1.427 1.428 1.513 1.539 1.538 1.465 1.514 1.493 1.57 1.557 1.499 1.532 1.555 1.548 1.482 1.515 1.588 1.588 1.558 1.545 1.511 1.518 1.494 1.471 1.459 1.484 1.541 1.558 1.499 1.495 1.543 1.537 1.563 1.599 1.575 1.551 1.551 1.599 1.6 1.679 1.733 1.736 1.69 1.637 1.669 1.646 1.598 1.571 1.656 1.65 1.651 1.644 1.643 1.636 1.603 1.589 1.611 1.634 1.611 1.618 1.562 1.531 1.492 1.497 1.494 1.51 1.515 1.531 1.556 1.536 1.511 1.484 1.539 1.599 1.613 1.625 1.607 1.568 1.524 1.542 1.528 1.561 1.581 1.562 1.641 1.596 1.535 1.529 1.594 1.63 1.667 1.663 1.666 1.637 1.61 1.603 1.59 1.601 1.608 1.585 1.56 1.57 1.716 1.761 1.75 1.727 1.689 1.688 1.649 1.651 1.626 1.59 1.588 1.635 1.645 1.617 1.597 1.607 1.601 1.636 1.566 1.602 1.629 1.625 1.64 1.669 1.618 1.536 1.524 1.601 1.64 1.603 1.57 1.598 1.608 1.603 1.696 1.674 1.681 1.658 1.643 1.599 1.634 1.596 1.559 1.588 1.62 1.619 1.639 1.579 1.523 1.575 1.602 1.639 1.604 1.514 1.5 1.488 1.418 1.444 1.487 1.657 1.708 1.679 1.682 1.701 1.618 1.583 1.649 1.673 1.655 1.602 1.59 1.649 1.676 1.699 1.662 1.637 1.646 1.626 1.622 1.628 1.669 1.712 1.709 1.766 1.773 1.752 1.702 1.663 1.631 1.661 1.653 1.631 1.635 1.629 1.634 1.621 1.592 1.537 1.554 1.565 1.564 1.539 1.539 1.481 1.479 1.503 1.547 1.566 1.593 1.52 1.541 1.563 1.462 1.51 1.546 1.627
-0.47 -0.745 -1.004 -1.284 -1.429 -1.782 -2.152 -2.042 -2.044 -2.007 -1.989 -2.022 -2.022 -1.964 -2.074 -2.114 -2.064 -1.967 -2.089 -1.972 -2.137 -2.087 -2.039 -2.102 -2.017 -2.057 -2.067 -2.029 -1.919 -2.067 -2.017 -2.007 -2.094 -2.064 -1.969 -2.007 -1.994 -1.974 -2.029 -2.146 -1.952 -2.057 -2.159 -2.044 -2.164 -2.054 -1.969 -1.894 -1.929 -2.047 -2.044 -2.199 -2.184 -2.124 -1.957 -2.069 -1.964 -2.104 -2.039 -2.049 -1.94 -1.766 -1.411 -1.352 -1.111 -1.005 -0.868 -0.616 -0.551 -0.4 -0.392 -0.308 -0.303 -0.362 -0.375 -0.46 -0.575 -0.684 -0.782 -0.927 -1.115 -1.248 -1.467 -1.714 -1.798 -1.505 -1.376 -1.423 -1.235 -1.087 -0.924 -0.92 -0.717 -0.464 -0.328 -0.123 0.055 0.266 0.336 0.37 0.361 0.326 0.342 0.241 0.341 0.526 0.589 0.76 0.677 0.589 0.894 1.169 1.306 1.464 1.384 1.163 1.214 1.147 1.004 1.191 1.386 1.678 1.621 1.383 1.147 1.163 1.181 1.105 1.269 1.382 1.295 1.127 1.171 1.325 1.615 1.642 1.385 1.422 1.295 1.424 1.669 1.442 1.509 1.673 1.599 1.544 1.606 1.637 1.653 1.654 1.662 1.675 1.647 1.616 1.601 1.601 1.649 1.653 1.643 1.638 1.589 1.504 1.489 1.504 1.553 1.536 1.604 1.629 1.65 1.646 1.633 1.624 1.606 1.606 1.593 1.605 1.669 1.581 1.518 1.544 1.598 1.611 1.644 1.684 1.672 1.667 1.639 1.615 1.619 1.629 1.642 1.622 1.616 1.61 1.604 1.601 1.603 1.581 1.61 1.664 1.665 1.615 1.603 1.575 1.574 1.483 1.53 1.593 1.619 1.649 1.681 1.668 1.648 1.633 1.625 1.59 1.516 1.494 1.498 1.541 1.545 1.538 1.494 1.478 1.492 1.457 1.423 1.458 1.537 1.588 1.574 1.588 1.633 1.677 1.693 1.754 1.763 1.789 1.774 1.771 1.704 1.694 1.674 1.665 1.668 1.668 -9999 1.709 1.806 1.729 1.631 1.587 1.596 1.558 1.57 1.616 1.612 1.616 1.646 1.646 1.645 1.613 1.599 1.588 1.608 1.635 1.578 1.541 1.527 1.491 1.446 1.475 1.54 1.548 1.546 1.519 1.54 1.56 1.601 1.531 1.473 1.487 1.499 1.52 1.511 1.548 1.589 1.554 1.516 1.508 1.49 1.45 1.536 1.525 1.495 1.506 1.544 1.554 1.521 1.524 1.527 1.515 1.508 1.562 1.542 1.521 1.598 1.705 1.754 1.741 1.769 1.776 1.703 1.661 1.652 1.615 1.571 1.648 1.732 1.696 1.651 1.621 1.624 1.619 1.585 1.51 1.545 1.598 1.563 1.565 1.559 1.505 1.455 1.48 1.471 1.445 1.478 1.516 1.514 1.519 1.534 1.52 1.573 1.599 1.623 1.649 1.594 1.571 1.527 1.434 1.483 1.55 1.574 1.55 1.562 1.551 1.439 1.496 1.621 1.646 1.613 1.656 1.676 1.6 1.573 1.583 1.584 1.599 1.618 1.653 1.531 1.632 1.742 1.747 1.754 1.726 1.714 1.676 1.642 1.624 1.626 1.603 1.61 1.643 1.643 1.598 1.593 1.631 1.57 1.619 1.613 1.614 1.642 1.627 1.629 1.643 1.649 1.584 1.579 1.626 1.644 1.629 1.644 1.651 1.658 1.665 1.668 1.685 1.683 1.627 1.594 1.62 1.617 1.595 1.581 1.575 1.575 1.568 1.589 1.577 1.554 1.562 1.64 1.661 1.601 1.543 1.527 1.505 1.489 1.516 1.541 1.627 1.675 1.693 1.683 1.663 1.596 1.61 1.673 1.722 1.65 1.615 1.634 1.642 1.638 1.647 1.645 1.628 1.621 1.564 1.639 1.638 1.701 1.794 1.705 1.737 1.74 1.707 1.686 1.718 1.758 1.698 1.646 1.619 1.624 1.627 1.621 1.593 1.577 1.562 1.578 1.582 1.576 1.56 1.544 1.487 1.441 1.477 1.537 1.558 1.565 1.538 1.565 1.564 1.503 1.494 1.565 1.566
-0.492 -0.782 -0.99 -1.235 -1.461 -1.781 -2.122 -2.022 -2.097 -2.094 -2.039 -2.074 -2.059 -2.029 -2.107 -2.142 -2.222 -1.999 -2.077 -1.992 -2.057 -2.022 -2.162 -2.119 -2.122 -1.994 -2.097 -2.004 -2.009 -2.002 -1.962 -2.004 -2.097 -2.084 -1.927 -2.039 -2.104 -2.167 -2.072 -2.104 -2.032 -2.094 -2.084 -2.097 -2.169 -2.017 -2.034 -1.977 -1.902 -2.034 -2.082 -2.084 -2.137 -2.104 -1.972 -2.104 -1.962 -1.989 -2.069 -2.124 -2.159 -1.843 -1.56 -1.537 -1.33 -1.089 -0.97 -0.895 -0.709 -0.663 -0.64 -0.635 -0.559 -0.573 -0.682 -0.652 -0.783 -0.906 -0.97 -1.155 -1.196 -1.421 -1.641 -1.644 -1.674 -1.327 -1.208 -1.085 -1.038 -0.899 -0.835 -0.909 -0.864 -0.623 -0.48 -0.213 -0.067 0.031 0.093 0.13 0.19 0.14 0.123 0.296 0.511 0.706 0.803 0.94 0.92 0.819 0.742 0.993 1.164 1.221 1.203 1.005 0.949 0.912 0.979 1.119 1.305 1.41 1.374 1.255 1.147 1.327 1.389 1.308 1.369 1.626 1.425 1.203 1.185 1.363 1.638 1.394 1.43 1.666 1.378 1.285 1.421 1.654 1.677 1.694 1.701 1.678 1.671 1.636 1.617 1.63 1.642 1.669 1.663 1.63 1.647 1.681 1.678 1.653 1.653 1.695 1.577 1.466 1.491 1.463 1.535 1.565 1.599 1.591 1.61 1.632 1.65 1.639 1.618 1.616 1.683 1.607 1.629 1.572 1.477 1.488 1.54 1.581 1.563 1.551 1.655 1.701 1.613 1.612 1.633 1.641 1.632 1.621 1.62 1.613 1.598 1.623 1.624 1.551 1.589 1.675 1.65 1.659 1.575 1.559 1.612 1.533 1.541 1.613 1.63 1.632 1.66 1.678 1.673 1.652 1.615 1.578 1.564 1.539 1.509 1.476 1.523 1.543 1.475 1.424 1.49 1.48 1.484 1.479 1.517 1.571 1.53 1.536 1.601 1.66 1.694 1.756 1.792 1.802 1.779 1.759 1.732 1.723 1.723 1.693 1.688 1.686 1.669 1.675 1.742 1.691 1.64 1.574 1.564 1.568 1.587 1.606 1.609 1.619 1.626 1.604 1.631 1.612 1.569 1.554 1.605 1.648 1.591 1.55 1.5 1.488 1.473 1.485 1.514 1.542 1.549 1.564 1.571 1.588 1.515 1.477 1.459 1.513 1.482 1.535 1.578 1.597 1.599 1.547 1.513 1.508 1.513 1.54 1.573 1.531 1.504 1.533 1.563 1.56 1.537 1.511 1.486 1.507 1.54 1.574 1.558 1.547 1.624 1.696 1.714 1.728 1.782 1.774 1.724 1.672 1.631 1.625 1.646 1.722 1.715 1.657 1.651 1.607 1.62 1.624 1.611 1.486 1.476 1.536 1.545 1.539 1.548 1.538 1.498 1.502 1.495 1.463 1.492 1.521 1.451 1.487 1.543 1.552 1.537 1.489 1.577 1.589 1.558 1.569 1.507 1.487 1.504 1.49 1.536 1.528 1.477 1.493 1.489 1.544 1.633 1.668 1.481 1.592 1.692 1.618 1.592 1.589 1.602 1.612 1.675 1.653 1.648 1.651 1.694 1.713 1.704 1.664 1.654 1.649 1.631 1.631 1.623 1.613 1.629 1.656 1.634 1.569 1.536 1.501 1.508 1.619 1.611 1.592 1.651 1.605 1.567 1.627 1.656 1.637 1.61 1.589 1.588 1.602 1.671 1.67 1.679 1.663 1.615 1.653 1.679 1.61 1.545 1.644 1.59 1.607 1.627 1.587 1.565 1.558 1.587 1.581 1.526 1.577 1.663 1.636 1.571 1.556 1.557 1.553 1.614 1.584 1.59 1.608 1.67 1.689 1.684 1.644 1.59 1.62 1.669 1.7 1.699 1.698 1.694 1.654 1.635 1.631 1.642 1.665 1.646 1.62 1.681 1.781 1.774 1.761 1.693 1.693 1.698 1.683 1.676 1.703 1.734 1.7 1.642 1.617 1.619 1.634 1.615 1.581 1.588 1.627 1.638 1.606 1.586 1.573 1.527 1.476 1.495 1.536 1.543 1.557 1.562 1.573 1.574 1.569 1.512 1.481 1.506 1.543
