ncols 443
nrows 32
xllcorner    463018
yllcorner    86860
cellsize     2
NODATA_value -9999
7.824 7.751 7.739 7.694 7.611 7.599 7.581 7.549 7.456 7.359 7.309 7.264 7.196 7.184 7.179 7.139 7.094 7.084 7.009 6.991 6.894 6.901 6.831 6.816 6.786 6.764 6.724 6.626 6.596 6.564 6.581 6.591 6.564 6.531 6.504 6.469 6.409 6.311 6.279 6.234 6.221 6.144 6.089 5.994 5.942 5.904 5.882 5.894 5.872 5.857 5.867 5.949 5.944 5.912 5.909 5.904 5.924 5.964 5.992 6.034 6.042 6.052 6.032 6.074 6.097 6.099 6.132 6.172 6.199 6.239 6.232 6.254 6.297 6.319 6.309 6.327 6.347 6.354 6.307 6.284 6.334 6.302 6.269 6.254 6.282 6.267 6.242 6.232 6.202 6.177 6.169 6.152 6.109 6.092 6.117 6.117 6.039 6.019 5.992 5.987 5.959 5.952 5.949 5.939 5.919 5.889 5.839 5.799 5.762 5.782 5.814 5.812 5.774 5.804 5.792 5.754 5.714 5.679 5.709 5.669 5.652 5.647 5.617 5.609 5.574 5.564 5.572 5.547 5.514 5.497 5.474 5.454 5.412 5.367 5.344 5.342 5.289 5.237 5.239 5.207 5.174 5.179 5.184 5.164 5.107 5.047 5.002 4.972 4.929 4.907 4.909 4.929 4.899 4.834 4.777 4.739 4.694 4.599 4.564 4.547 4.507 4.439 4.417 4.387 4.364 4.294 4.224 4.187 4.167 4.134 4.062 4.029 3.984 3.927 3.822 3.752 3.739 3.714 3.654 3.587 3.584 3.582 3.587 3.589 3.552 3.522 3.459 3.434 3.434 3.394 3.339 3.317 3.304 3.294 3.257 3.254 3.272 3.282 3.772 3.654 3.732 3.789 3.887 4.007 4.142 4.282 4.514 4.667 4.702 4.699 4.704 5.417 5.369 5.557 5.259 5.464 6.747 8.804 9.437 9.289 8.779 8.734 8.784 7.564 5.827 5.572 5.644 5.692 5.749 5.787 5.862 5.934 5.987 6.069 6.122 6.197 6.242 6.327 6.397 6.499 6.582 6.687 6.865 6.95 7.037 7.13 7.277 7.42 7.537 7.63 7.657 7.677 7.735 7.785 7.845 7.917 7.957 8.015 8.107 8.212 8.27 8.395 8.485 8.577 8.67 8.75 8.825 8.872 8.961 9.01 9.041 9.077 9.165 9.668 9.308 9.522 9.576 9.337 9.357 9.344 9.369 9.359 9.443 9.44 9.467 9.438 9.46 10.018 12.166 14.184 12.57 9.707 9.462 9.461 9.443 9.418 9.405 9.336 9.337 9.295 9.265 9.182 9.015 8.902 8.812 8.727 8.657 8.602 8.502 8.407 8.335 8.25 8.147 8.027 8.567 9.497 9.507 9.397 9.34 8.38 8.37 8.72 8.265 8.177 8.632 8.307 6.62 6.072 5.39 5.33 6.197 5.42 5.597 5.51 5.622 5.592 5.73 5.845 6.5 6.632 6.275 6.352 6.725 6.797 6.9 7.107 7.265 7.47 8.507 7.915 8.12 8.452 8.625 8.89 9.11 9.272 9.497 9.74 10.212 10.332 10.102 10.082 12.54 13.207 10.972 11.055 11.232 11.472 11.722 11.787 13.385 12.71 12.46 13.89 12.92 12.92 12.937 13.072 13.46 13.602 13.835 14.187 14.36 14.277 14.38 14.652 15.835 18.672 15.752 16.652 19.677 16.68 16.285 16.505 17.45 17.965 21.967 24.245 22.542 20.15 18.127 17.96 18.097 18.302 18.612 18.795 18.917 19.65 19.317 19.5 20.385 20.737 21.937 20.287 20.417 20.68 20.89 21.422 21.582 21.647 21.842 22.085 22.315 22.48 22.737 23.05 23.282 23.54 23.87 24.37 24.347 25.765 24.57 24.597 24.927 25.065 25.262 25.585 29.935 26.265 26.515 26.615 26.808
7.861 7.816 7.776 7.721 7.679 7.611 7.579 7.496 7.439 7.369 7.319 7.271 7.244 7.246 7.219 7.201 7.131 7.111 7.044 7.014 6.926 6.879 6.864 6.846 6.816 6.831 6.786 6.741 6.679 6.651 6.646 6.651 6.641 6.634 6.601 6.521 6.461 6.384 6.334 6.321 6.314 6.259 6.189 6.079 6.014 5.937 5.944 5.947 5.932 5.919 5.939 6.017 5.999 6.002 5.974 5.984 6.012 6.047 6.077 6.092 6.109 6.129 6.122 6.149 6.164 6.182 6.204 6.219 6.254 6.329 6.319 6.304 6.357 6.389 6.382 6.379 6.394 6.404 6.384 6.334 6.389 6.359 6.347 6.304 6.322 6.327 6.312 6.279 6.254 6.234 6.212 6.172 6.149 6.124 6.117 6.119 6.097 6.059 6.072 6.047 6.004 6.014 5.992 5.942 5.947 5.867 5.877 5.867 5.852 5.814 5.859 5.852 5.862 5.817 5.807 5.769 5.764 5.722 5.719 5.704 5.684 5.659 5.657 5.639 5.599 5.589 5.587 5.574 5.542 5.529 5.509 5.479 5.434 5.384 5.369 5.359 5.319 5.269 5.254 5.259 5.197 5.194 5.212 5.177 5.154 5.084 5.049 4.989 4.964 4.924 4.899 4.922 4.879 4.817 4.789 4.749 4.707 4.639 4.592 4.587 4.564 4.507 4.447 4.414 4.417 4.359 4.269 4.237 4.217 4.187 4.124 4.069 4.062 4.002 3.899 3.809 3.784 3.767 3.712 3.664 3.692 3.687 3.674 3.634 3.584 3.529 3.467 3.472 3.482 3.467 3.434 3.384 3.357 3.332 3.262 3.299 3.337 3.154 3.714 3.667 3.737 3.832 3.919 4.012 4.144 4.279 4.452 4.627 4.697 4.662 4.672 5.157 5.312 5.342 5.327 5.409 6.429 8.724 9.582 10.564 10.164 9.462 9.114 8.529 7.712 5.487 5.622 5.712 5.774 5.817 5.869 5.947 6.037 6.099 6.169 6.239 6.314 6.357 6.434 6.552 6.609 6.732 6.807 6.975 7.07 7.197 7.272 7.42 7.532 7.602 7.677 7.72 7.77 7.805 7.867 7.942 7.96 8.047 8.167 8.285 8.355 8.422 8.495 8.595 8.68 8.76 8.857 8.87 8.949 9.005 9.033 9.058 9.331 9.785 9.944 9.98 9.47 9.324 9.375 9.401 9.469 9.478 9.528 9.611 9.671 9.678 9.852 13.063 18.18 20.673 17.155 11.302 9.801 9.663 9.521 9.473 9.443 9.437 9.392 9.352 9.257 9.187 9.122 9.042 8.94 8.87 8.81 8.727 8.667 8.577 8.492 8.452 8.62 8.62 9.3 9.775 9.52 10.025 10.135 9.322 8.735 8.63 8.667 8.857 11.067 10.64 5.742 5.482 5.507 6 7.227 5.307 5.435 5.517 5.825 5.55 5.447 5.612 5.945 6.14 6.127 6.4 6.532 6.602 6.835 7.025 7.2 7.352 7.57 7.817 8.042 8.52 8.537 9.335 9.167 9.325 9.392 9.675 12.365 9.79 9.74 11.71 11.602 10.627 10.935 11.027 11.23 11.75 11.58 12.51 13.252 12.242 12.395 12.635 12.867 12.822 12.862 13.102 13.36 13.562 13.897 14.025 13.977 14.077 15.64 15.24 14.937 19.165 15.517 15.687 16.627 16.102 16.32 16.47 16.735 19.002 18.435 19.56 18.015 17.977 17.895 17.932 18.107 18.312 18.535 18.825 18.86 19.095 19.285 19.43 19.677 19.937 20.972 20.642 20.467 20.6 20.852 21.14 22.52 21.927 22.542 22.06 22.317 22.495 22.732 23.027 23.25 23.5 24.267 24.935 24.25 24.915 24.442 24.645 24.89 25.062 25.312 25.685 25.857 26.215 26.437 26.578 26.725
7.914 7.881 7.831 7.799 7.726 7.629 7.566 7.459 7.384 7.371 7.341 7.344 7.331 7.261 7.216 7.194 7.171 7.154 7.079 7.024 6.931 6.894 6.856 6.851 6.824 6.839 6.884 6.839 6.801 6.761 6.751 6.726 6.684 6.674 6.666 6.589 6.514 6.436 6.414 6.391 6.361 6.292 6.229 6.142 6.099 6.039 6.054 6.032 5.994 5.997 6.039 6.079 6.059 6.069 6.079 6.069 6.084 6.079 6.142 6.174 6.194 6.182 6.212 6.237 6.242 6.262 6.267 6.302 6.352 6.389 6.382 6.409 6.424 6.442 6.417 6.439 6.434 6.469 6.442 6.407 6.429 6.462 6.414 6.379 6.377 6.387 6.364 6.322 6.299 6.294 6.259 6.187 6.157 6.179 6.202 6.199 6.192 6.164 6.132 6.094 6.052 6.009 6.004 6.014 6.039 5.954 5.937 5.922 5.879 5.847 5.852 5.884 5.889 5.862 5.864 5.824 5.789 5.744 5.764 5.754 5.692 5.654 5.644 5.667 5.654 5.627 5.627 5.594 5.584 5.559 5.517 5.509 5.474 5.417 5.387 5.369 5.374 5.309 5.304 5.284 5.217 5.214 5.217 5.217 5.169 5.119 5.052 4.994 4.964 4.932 4.917 4.917 4.897 4.847 4.832 4.812 4.742 4.694 4.627 4.622 4.617 4.562 4.514 4.504 4.482 4.427 4.327 4.282 4.249 4.229 4.162 4.122 4.092 4.047 3.939 3.884 3.822 3.814 3.789 3.754 3.739 3.752 3.732 3.689 3.629 3.564 3.519 3.514 3.522 3.519 3.472 3.429 3.409 3.349 3.297 3.299 3.334 3.194 3.602 3.674 3.737 3.824 3.939 4.047 4.154 4.279 4.444 4.582 4.649 4.654 4.677 5.214 5.317 5.254 5.292 7.237 8.207 9.144 11.529 11.742 11.704 9.929 9.129 8.622 6.977 5.422 5.599 5.744 5.809 5.864 5.914 5.974 6.042 6.107 6.192 6.232 6.317 6.394 6.469 6.604 6.697 6.775 6.872 7.025 7.102 7.237 7.342 7.432 7.492 7.562 7.667 7.72 7.77 7.837 7.877 7.927 7.94 8.05 8.16 8.262 8.342 8.45 8.5 8.62 8.68 8.732 8.792 8.837 8.94 8.999 9.011 9.047 9.406 10.298 10.206 10.558 9.703 9.469 10.193 10.035 9.548 9.533 9.583 9.647 9.698 9.72 9.842 14.817 20.456 21.688 20.472 14.056 10.605 10.193 9.88 9.575 9.495 9.475 9.392 9.37 9.302 9.255 9.197 9.137 9.052 8.962 8.897 8.802 8.777 8.697 8.857 9.245 9.832 9.607 9.85 9.61 9.985 10.63 10.572 10.257 9.672 9.357 9.357 9.382 10.535 10.042 5.655 5.49 5.407 5.505 5.35 5.497 5.507 5.585 5.677 5.885 5.572 5.56 5.59 5.782 6.007 6.192 6.377 6.577 7.34 7.66 7.232 7.337 7.582 7.742 8.297 8.355 8.57 9.545 8.955 9.325 9.34 9.485 9.42 13.102 10.38 16.962 13.077 10.645 13.487 12.752 11.557 11.742 12.812 16.832 17.882 14.01 12.25 12.43 12.63 12.787 13.112 13.102 13.345 13.747 13.647 13.605 13.815 14.105 15.845 14.58 15.092 19.27 16.122 17.942 16.167 16.125 17.037 16.92 17.045 16.895 17.095 17.227 17.755 17.877 17.752 17.905 18.095 18.29 18.495 18.76 18.835 19.027 19.19 19.402 19.65 19.84 19.872 20.155 20.355 20.627 20.805 21.137 21.327 21.622 22.782 22.165 22.342 22.472 22.687 22.987 23.23 23.432 23.722 25.527 24.065 24.32 24.425 24.63 24.82 25.102 25.422 25.685 25.96 26.205 26.41 26.688 27.205
7.931 7.931 7.926 7.876 7.789 7.656 7.559 7.454 7.406 7.404 7.396 7.386 7.409 7.324 7.241 7.249 7.231 7.186 7.136 7.094 7.026 6.946 6.911 6.874 6.874 6.884 6.936 6.896 6.854 6.834 6.846 6.809 6.774 6.756 6.731 6.691 6.621 6.531 6.449 6.381 6.344 6.292 6.264 6.204 6.147 6.122 6.127 6.087 6.079 6.117 6.109 6.132 6.139 6.132 6.162 6.159 6.167 6.177 6.202 6.244 6.267 6.257 6.274 6.284 6.324 6.329 6.344 6.374 6.414 6.464 6.484 6.479 6.502 6.517 6.489 6.489 6.492 6.522 6.509 6.477 6.467 6.497 6.472 6.459 6.442 6.444 6.404 6.352 6.324 6.327 6.342 6.277 6.279 6.272 6.277 6.254 6.232 6.209 6.179 6.147 6.132 6.102 6.084 6.067 6.059 6.017 5.997 5.947 5.892 5.879 5.902 5.937 5.947 5.922 5.899 5.894 5.847 5.817 5.812 5.789 5.709 5.709 5.702 5.717 5.679 5.659 5.652 5.642 5.607 5.587 5.567 5.544 5.489 5.459 5.434 5.417 5.402 5.347 5.319 5.299 5.239 5.207 5.229 5.227 5.154 5.124 5.072 5.049 5.017 4.984 4.964 4.974 4.952 4.912 6.017 4.862 4.829 4.709 4.669 4.664 4.644 4.619 4.559 4.517 4.494 4.454 4.367 4.319 4.299 4.272 4.214 4.167 4.144 4.099 3.997 3.937 3.899 3.897 3.882 3.819 3.842 3.774 3.737 3.719 3.647 3.612 3.584 3.569 3.592 3.587 3.534 3.474 3.434 3.379 3.337 3.359 3.319 3.227 3.414 3.682 3.739 3.832 3.944 4.079 4.192 4.377 4.517 4.702 4.632 4.649 4.624 4.639 4.827 4.952 5.117 7.632 8.299 8.804 11.287 10.744 10.654 9.049 8.562 8.292 5.917 5.437 5.629 5.752 5.822 5.879 5.922 5.992 6.029 6.099 6.184 6.269 6.344 6.447 6.564 6.647 6.724 6.807 6.917 7.022 7.117 7.227 7.382 7.485 7.532 7.567 7.63 7.712 7.762 7.832 7.877 7.922 7.997 8.062 8.152 8.242 8.332 8.45 8.532 8.587 8.657 8.747 8.81 8.872 8.935 8.99 9.017 9.048 9.18 9.795 10.242 9.716 9.38 9.502 10.335 9.951 9.538 9.563 9.605 9.654 9.716 9.752 9.745 11.56 17.932 19.394 20.813 17.281 11.316 10.203 10.72 11.215 10.17 10.022 10.172 9.51 9.355 9.327 9.237 9.197 9.125 9.055 8.98 8.93 9.017 9.25 10.297 9.87 9.692 9.73 9.907 10.085 10.782 11.775 11.237 11.185 10.31 10.145 10.022 9.107 9.515 5.932 5.565 5.69 6.32 6.52 5.51 5.637 5.592 5.545 5.84 5.875 7.495 5.647 5.642 5.795 6.025 6.2 6.402 6.55 6.845 7.09 7.252 7.407 7.587 7.782 8.092 8.225 8.412 8.83 8.727 8.852 11.075 15.722 11.442 11.342 12.08 17.21 10.117 12.447 13.262 16.23 13.927 11.105 13.74 16.182 17.817 14.457 12.287 12.285 12.617 14.752 13.39 13.152 13.25 13.242 13.25 13.49 13.79 14.04 14.322 14.727 15.257 15.357 16.967 16.067 15.837 15.972 16.27 16.485 16.647 16.76 17.002 17.17 17.3 17.55 17.72 17.897 18.06 18.247 18.445 18.615 18.73 18.95 19.135 19.375 19.6 19.892 19.875 20.052 20.305 20.52 20.815 21.06 21.35 21.485 21.722 21.97 22.325 23.272 22.717 23 23.247 23.465 23.665 23.807 23.962 24.175 24.347 24.542 24.822 25.125 25.377 25.712 26 26.215 26.285 27.103 27.273
7.954 7.954 7.959 7.889 7.786 7.669 7.584 7.496 7.446 7.454 7.471 7.471 7.446 7.349 7.341 7.279 7.254 7.244 7.196 7.129 7.081 7.014 6.984 6.941 6.914 6.909 6.921 6.946 6.911 6.899 6.881 6.909 6.889 6.829 6.814 6.799 6.726 6.596 6.499 6.406 6.386 6.327 6.289 6.232 6.184 6.142 6.167 6.159 6.184 6.224 6.219 6.174 6.199 6.227 6.229 6.244 6.239 6.257 6.274 6.312 6.307 6.317 6.322 6.354 6.397 6.394 6.417 6.442 6.479 6.534 6.534 6.554 6.554 6.572 6.574 6.554 6.564 6.564 6.572 6.517 6.509 6.494 6.479 6.464 6.454 6.464 6.457 6.384 6.369 6.389 6.394 6.357 6.359 6.317 6.324 6.339 6.309 6.264 6.229 6.219 6.172 6.142 6.132 6.099 6.079 6.057 6.042 6.014 5.947 5.934 5.949 5.954 5.987 5.949 5.919 5.922 5.889 5.879 5.857 5.829 5.772 5.782 5.762 5.739 5.759 5.707 5.664 5.687 5.659 5.614 5.572 5.564 5.537 5.484 5.457 5.457 5.412 5.357 5.332 5.314 5.277 5.237 5.262 5.267 5.229 5.192 5.119 5.097 5.074 5.019 5.012 5.004 4.999 4.954 6.149 4.894 4.874 4.762 4.702 4.707 4.679 4.637 4.587 4.552 4.534 4.494 4.404 4.377 4.349 4.327 4.269 4.194 4.162 4.154 4.062 3.977 3.947 3.952 3.927 3.882 3.852 3.839 3.792 3.722 3.679 3.662 3.642 3.632 3.632 3.624 3.587 3.534 3.499 3.427 3.384 3.349 3.359 3.302 3.309 3.734 3.732 3.842 3.942 4.149 4.159 4.257 4.354 4.509 4.599 4.617 4.602 4.639 4.762 4.887 5.037 5.834 5.487 7.764 8.977 9.059 8.907 8.484 6.257 5.717 5.474 5.579 5.674 5.742 5.819 5.877 5.909 5.997 6.067 6.129 6.214 6.317 6.434 6.562 6.667 6.689 6.774 6.862 6.937 7.057 7.162 7.297 7.442 7.52 7.53 7.565 7.67 7.725 7.787 7.845 7.887 7.94 8.01 8.1 8.182 8.27 8.37 8.475 8.555 8.615 8.655 8.757 8.837 8.92 8.975 8.997 9.04 9.09 9.141 9.268 9.325 9.274 9.343 9.39 9.442 9.493 9.519 9.589 9.661 9.714 9.771 9.807 9.799 11.716 16.95 19.819 21.135 20.492 12.402 11.442 14.375 14.247 13.995 11.567 10.42 9.797 9.51 9.392 9.395 9.912 10.285 10.425 10.34 10.222 10.742 10.67 10.51 10.185 10.055 10.072 10.637 10.752 11.435 12.09 11.845 11.837 11.012 10.507 9.505 7.607 8.057 6.085 6.137 6.705 6.682 6.32 5.515 5.93 5.967 5.505 6.385 6.17 6.04 5.525 5.572 5.92 6.04 6.19 6.435 6.605 6.762 9.17 6.99 7.115 7.587 7.482 7.51 7.62 7.857 8.02 8.207 8.312 15.105 12.205 8.767 9.352 9.175 12.555 10.21 13.747 12.74 11.312 11.63 11.595 12.325 12.717 14.502 13.595 12.565 12.552 14.297 13.582 12.847 13.46 12.987 13.052 13.325 13.545 13.857 14.085 14.565 14.717 15.087 15.407 15.475 15.58 15.792 17.607 16.402 16.452 16.665 16.717 17.527 17.197 17.38 18.02 17.752 18.117 18.05 18.205 18.56 18.785 18.81 18.952 19.132 19.36 19.592 19.737 19.842 19.99 20.225 20.47 20.72 21.042 21.302 21.455 21.735 21.957 22.345 26.695 23.402 23.867 23.182 23.395 23.542 23.842 24.23 26.395 25.097 24.462 24.722 25.095 25.36 25.702 26.107 26.14 26.415 26.64 26.76
8.034 8.011 7.991 7.899 7.809 7.706 7.641 7.571 7.546 7.546 7.541 7.529 7.489 7.404 7.396 7.341 7.291 7.316 7.224 7.161 7.114 7.086 7.031 6.984 6.936 6.924 6.949 6.956 6.949 6.961 6.949 6.966 6.964 6.931 6.914 6.881 6.764 6.641 6.551 6.476 6.416 6.372 6.309 6.239 6.219 6.232 6.252 6.259 6.272 6.327 6.342 6.252 6.264 6.319 6.317 6.309 6.319 6.347 6.342 6.382 6.394 6.407 6.412 6.442 6.439 6.484 6.489 6.497 6.539 6.587 6.594 6.597 6.622 6.627 6.624 6.592 6.589 6.612 6.614 6.552 6.562 6.587 6.589 6.549 6.547 6.539 6.492 6.434 6.407 6.414 6.419 6.432 6.404 6.354 6.342 6.357 6.314 6.262 6.257 6.219 6.174 6.162 6.157 6.172 6.162 6.122 6.097 6.072 6.019 5.982 5.984 6.007 6.014 5.989 5.962 5.957 5.914 5.909 5.892 5.909 5.849 5.839 5.809 5.799 5.799 5.757 5.729 5.724 5.672 5.644 5.602 5.587 5.544 5.499 5.472 5.462 5.467 5.402 5.377 5.349 5.334 5.307 5.284 5.299 5.284 5.247 5.174 5.139 5.109 5.064 5.034 5.024 5.037 5.929 6.414 5.324 5.584 4.797 4.709 4.702 4.699 4.682 4.617 4.569 4.562 4.532 4.442 4.374 4.362 4.339 4.294 4.247 4.207 4.172 4.109 4.034 3.997 4.007 4.022 3.954 3.919 3.892 3.837 3.744 3.722 3.672 3.669 3.669 3.662 3.652 3.637 3.572 3.544 3.482 3.429 3.387 3.389 3.539 3.622 3.504 3.582 3.722 3.862 3.974 4.069 4.177 4.272 4.402 4.549 4.577 4.592 4.604 4.672 4.929 5.232 4.869 5.032 6.712 7.242 6.994 6.147 5.719 5.534 5.477 5.577 5.649 5.719 5.742 5.752 5.827 5.932 6.032 6.087 6.162 6.257 6.362 6.474 6.562 6.657 6.719 6.789 6.877 6.96 7.127 7.217 7.455 7.455 7.5 7.502 7.582 7.717 7.812 7.86 7.897 7.93 7.97 8.037 8.127 8.21 8.322 8.387 8.435 8.54 8.61 8.682 8.717 8.817 8.922 8.982 9.02 9.067 9.107 9.157 9.227 9.269 9.317 9.365 9.402 9.465 9.546 9.576 9.622 9.713 9.777 9.838 9.867 9.83 13.835 18.959 21.926 22.385 18.382 12.112 12.762 10.632 13.677 12.972 12.785 10.597 9.8 9.675 9.62 10.092 10.4 10.997 11.052 11.042 11.255 11.157 10.895 11.012 10.685 10.475 10.615 11.1 11.382 12.032 12.087 11.71 11.19 9.962 9.022 7.385 6.36 6.09 5.905 5.7 5.602 5.76 5.797 5.86 5.51 6.302 5.605 6.412 6.595 5.947 5.44 5.685 6.525 6.472 6.28 6.45 6.46 6.667 7.172 6.825 6.925 7.03 7.03 7.295 7.51 7.58 8.337 8.042 8.18 12.825 8.6 8.772 10.095 11.697 14.56 11.375 11.622 10.9 13.202 12.517 12.61 11.915 11.705 11.712 11.682 11.992 12.412 13.267 12.062 17.792 19.775 15.125 13.057 13.285 13.557 13.892 14.347 14.767 14.637 14.79 15.08 15.192 15.555 15.747 18.835 17.677 16.297 16.535 16.72 16.95 17.212 17.612 17.48 17.687 17.905 18.09 18.235 18.435 18.71 18.8 18.905 19.192 19.337 19.595 19.702 19.795 20.012 20.235 20.457 20.74 21.095 21.197 21.412 21.71 21.92 22.257 24.667 25.257 24.03 23.08 23.352 23.56 25.675 27.107 26.272 24.962 24.51 25.19 25.022 25.945 25.707 25.835 26.147 26.472 26.475 26.703
8.139 8.126 8.046 7.951 7.861 7.759 7.694 7.664 7.666 7.699 7.654 7.609 7.536 7.489 7.469 7.381 7.366 7.366 7.279 7.221 7.176 7.151 7.109 7.039 6.966 6.961 7.001 7.004 7.011 6.991 7.011 7.004 7.014 6.971 6.941 6.949 6.814 6.699 6.589 6.509 6.464 6.409 6.347 6.297 6.307 6.309 6.324 6.329 6.357 6.437 6.409 6.362 6.334 6.392 6.389 6.407 6.414 6.432 6.447 6.452 6.482 6.482 6.479 6.512 6.552 6.549 6.552 6.559 6.577 6.617 6.644 6.652 6.674 6.664 6.687 6.637 6.627 6.692 6.689 6.667 6.657 6.657 6.642 6.602 6.619 6.607 6.572 6.537 6.507 6.462 6.507 6.477 6.457 6.417 6.382 6.404 6.344 6.309 6.327 6.287 6.247 6.209 6.209 6.204 6.204 6.147 6.162 6.117 6.077 6.032 6.019 6.049 6.079 6.037 6.042 6.029 5.979 5.969 5.952 5.949 5.904 5.872 5.862 5.832 5.822 5.799 5.757 5.752 5.712 5.662 5.644 5.647 5.619 5.572 5.544 5.532 5.487 5.454 5.409 5.412 5.384 5.332 5.337 5.347 5.317 5.259 5.202 5.177 5.147 5.112 5.072 5.079 5.054 5.449 5.819 4.969 5.152 4.834 4.739 4.737 4.747 4.709 4.682 4.612 4.577 4.569 4.487 4.417 4.392 4.357 4.319 4.284 4.242 4.232 4.164 4.089 4.087 4.099 4.039 4.002 3.984 3.939 3.879 3.807 3.752 3.749 3.734 3.712 3.724 3.709 3.674 3.614 3.557 3.497 3.434 3.414 3.397 3.459 3.639 3.664 3.612 3.642 3.799 3.914 4.022 4.127 4.219 4.324 4.499 4.552 4.544 4.577 4.607 5.542 5.352 4.832 4.972 5.469 5.382 5.314 5.267 5.317 5.382 5.442 5.522 5.592 5.684 5.727 5.747 5.822 5.892 5.994 6.097 6.162 6.257 6.352 6.452 6.554 6.642 6.734 6.844 6.94 6.995 7.1 7.18 7.277 7.392 7.45 7.512 7.62 7.727 7.787 7.84 7.88 7.935 8.04 8.095 8.17 8.26 8.337 8.405 8.452 8.537 8.6 8.675 8.71 8.767 8.847 8.93 8.967 9.032 9.085 9.172 9.22 9.287 9.36 9.41 9.472 9.525 9.58 9.62 9.677 9.737 9.83 9.872 9.907 9.885 13.567 19.34 22.565 22.097 17.49 11.61 11.465 10.592 10.29 11.987 13.14 10.317 9.89 9.82 9.85 10.207 10.557 10.445 10.467 10.88 11.005 11.067 10.977 10.955 10.647 10.09 9.695 9.597 9.375 9.522 9.42 7.96 7.347 7.847 8.02 6.935 6.907 6.145 5.887 8.4 6.91 5.825 6.895 6.697 5.567 5.795 5.672 5.817 6.465 7.29 5.955 5.982 6.037 6.012 6.03 6.1 6.185 6.205 6.307 6.35 6.495 6.687 6.817 6.827 6.922 7.14 7.26 7.507 7.587 7.777 7.977 8.177 8.76 8.54 10.635 14.937 9.975 12.48 10.462 10.435 10.022 10.335 10.557 10.79 11.05 11.297 11.507 11.785 15.747 17.512 14.372 12.862 12.982 13.31 13.722 14.132 14.45 14.54 14.712 14.895 15.01 15.202 15.442 15.71 16.312 16.095 16.297 16.5 16.702 17.84 17.817 17.425 17.457 17.612 17.8 18.077 18.232 18.36 18.517 18.747 18.927 19.325 19.54 19.565 19.677 19.812 19.98 20.237 20.457 20.695 20.917 21.137 21.397 21.55 21.86 22.135 30.435 27.335 22.815 23.03 23.315 23.542 24.185 23.867 23.992 24.215 24.457 24.72 24.97 25.315 25.585 26.002 25.99 26.195 26.37 26.648
8.216 8.181 8.111 8.039 7.931 7.861 7.806 7.764 7.769 7.741 7.721 7.684 7.599 7.546 7.494 7.466 7.431 7.386 7.326 7.291 7.264 7.229 7.204 7.121 7.061 7.034 7.041 7.061 7.046 7.064 7.081 7.076 7.059 7.031 7.039 7.011 6.891 6.779 6.684 6.589 6.516 6.439 6.397 6.369 6.379 6.402 6.409 6.397 6.457 6.499 6.482 6.439 6.402 6.479 6.449 6.477 6.499 6.484 6.517 6.507 6.552 6.572 6.552 6.582 6.597 6.604 6.599 6.589 6.627 6.654 6.684 6.699 6.677 6.702 6.732 6.719 6.739 6.774 6.762 6.722 6.704 6.682 6.677 6.679 6.682 6.654 6.629 6.604 6.554 6.524 6.524 6.507 6.494 6.467 6.432 6.434 6.424 6.382 6.374 6.324 6.279 6.284 6.259 6.264 6.254 6.222 6.209 6.179 6.149 6.112 6.104 6.102 6.114 6.119 6.102 6.079 6.049 6.019 6.004 5.989 5.954 5.902 5.889 5.877 5.857 5.797 5.777 5.769 5.779 5.722 5.714 5.704 5.672 5.619 5.587 5.572 5.544 5.497 5.517 5.527 5.432 5.379 5.362 5.384 5.347 5.312 5.247 5.187 5.172 5.144 5.112 5.084 5.099 6.177 5.639 4.982 4.952 4.884 4.819 4.777 4.784 4.749 4.714 4.679 4.627 4.587 4.514 4.452 4.427 4.409 4.362 4.294 4.279 4.242 4.229 4.169 4.132 4.137 4.087 4.084 4.019 3.969 3.939 3.884 3.822 3.807 3.799 3.777 3.777 3.769 3.742 3.694 3.639 3.579 3.547 3.454 3.424 3.402 3.202 3.599 3.649 3.652 3.717 3.884 4.007 4.094 4.162 4.254 4.447 4.524 4.514 4.554 4.564 4.639 4.719 4.769 4.874 5.067 5.094 5.139 5.207 5.277 5.339 5.377 5.434 5.514 5.582 5.667 5.737 5.839 5.879 5.962 6.094 6.172 6.249 6.374 6.477 6.549 6.607 6.714 6.847 6.945 6.982 7.102 7.187 7.25 7.335 7.4 7.505 7.612 7.662 7.727 7.792 7.837 7.932 8.005 8.07 8.172 8.257 8.33 8.355 8.427 8.5 8.577 8.642 8.7 8.74 8.805 8.887 8.937 9.025 9.085 9.187 9.255 9.332 9.415 9.465 9.517 9.577 9.63 9.657 9.675 9.742 9.832 9.895 9.932 9.9 13.082 18.702 21.577 21.642 16.76 12.982 13.762 13.332 11.29 10.917 10.85 10.4 9.95 9.882 10.01 9.96 9.982 9.977 9.98 10.337 10.397 10.297 10.08 9.742 9.45 9.127 9.412 8.962 9.355 8.902 9.105 9.365 8.885 9.905 9.422 8.207 6.955 6.33 6.275 11.565 8.955 7.35 7.617 6.33 5.757 5.647 5.637 5.69 5.697 5.727 5.745 5.822 5.91 5.977 6.027 6.062 6.19 6.272 6.33 6.432 9.105 9.477 8.15 6.89 7 7.165 7.265 7.347 7.527 7.725 7.932 9.33 13.022 12.757 10.9 11.637 11.712 12.987 10.857 9.912 10.125 10.432 10.682 10.877 11.15 11.372 11.597 11.907 12.152 12.387 12.59 14.312 13.272 13.815 14.05 14.02 14.2 14.597 14.552 14.75 14.92 15.14 15.51 15.807 15.792 16.125 16.27 16.475 16.665 17.207 17.022 17.152 17.405 17.56 17.892 18.092 18.212 18.332 18.5 18.69 18.922 19.135 19.34 19.505 19.67 19.79 19.985 20.317 20.522 20.652 20.857 21.092 21.365 21.615 21.827 22.12 26.022 22.57 22.795 23 23.35 23.505 23.645 24.115 23.955 24.57 25.04 24.682 24.887 25.217 25.595 25.775 26.067 28.217 27.555 26.63
8.311 8.254 8.161 8.096 8.016 7.944 7.874 7.854 7.854 7.821 7.794 7.746 7.661 7.579 7.529 7.476 7.444 7.421 7.354 7.331 7.306 7.284 7.259 7.206 7.134 7.141 7.136 7.109 7.109 7.114 7.111 7.091 7.086 7.086 7.061 7.029 6.931 6.839 6.761 6.654 6.576 6.497 6.434 6.429 6.439 6.482 6.472 6.442 6.549 6.564 6.554 6.519 6.487 6.532 6.527 6.537 6.552 6.564 6.597 6.577 6.589 6.602 6.594 6.627 6.654 6.659 6.662 6.657 6.674 6.697 6.744 6.757 6.762 6.794 6.807 6.794 6.817 6.789 6.787 6.764 6.742 6.714 6.717 6.722 6.714 6.687 6.689 6.627 6.577 6.552 6.577 6.567 6.557 6.519 6.487 6.477 6.477 6.439 6.424 6.379 6.339 6.339 6.299 6.314 6.287 6.287 6.254 6.237 6.179 6.179 6.157 6.157 6.152 6.149 6.157 6.137 6.114 6.069 6.052 6.024 5.997 5.947 5.952 5.932 5.897 5.877 5.857 5.842 5.824 5.767 5.767 5.734 5.709 5.659 5.627 5.614 5.592 5.549 5.547 6.117 5.467 5.419 5.404 5.394 5.382 5.344 5.284 5.242 5.207 5.169 5.154 5.124 5.139 5.107 5.059 5.004 4.984 4.932 4.849 4.807 4.787 4.777 4.749 4.687 4.667 4.647 4.552 4.502 4.457 4.452 4.409 4.347 4.314 4.299 4.272 4.262 4.232 4.189 4.154 4.142 4.052 4.027 3.989 3.934 3.879 3.867 3.854 3.834 3.832 3.827 3.802 3.772 3.692 3.642 3.614 3.532 3.444 3.417 3.207 3.567 3.714 3.702 3.739 3.822 3.972 4.072 4.142 4.234 4.404 4.492 4.534 4.524 4.547 4.632 4.704 4.729 4.847 4.939 5.017 5.079 5.137 5.189 5.247 5.314 5.372 5.459 5.539 5.654 5.737 5.827 5.917 5.987 6.109 6.199 6.294 6.394 6.484 6.587 6.634 6.722 6.859 6.947 7.035 7.127 7.217 7.287 7.337 7.395 7.52 7.632 7.667 7.727 7.787 7.827 7.925 8.03 8.062 8.14 8.235 8.272 8.362 8.392 8.462 8.542 8.61 8.697 8.747 8.802 8.885 8.967 9.027 9.105 9.16 9.247 9.352 9.43 9.472 9.547 9.6 9.642 9.67 9.695 9.76 9.84 9.895 9.942 9.927 12.837 17.297 19.95 20.205 17.445 15.702 13.39 13.49 12.83 11.12 10.572 10.237 9.982 9.977 9.97 9.887 9.8 9.782 9.755 9.675 9.627 9.665 9.562 9.6 10.12 11.012 11.435 11.042 11.085 11.47 11.23 10.94 10.05 9.947 8.305 7.965 7.65 7.42 6.127 8.495 5.902 5.795 5.73 5.692 5.725 5.667 5.692 5.71 5.755 5.747 5.867 5.867 5.897 5.897 6 6.052 6.392 7.285 6.44 6.667 8.317 8.547 10.68 7.71 8.662 8.285 7.82 9.34 8.382 10.06 8.38 10.932 10.22 9.232 9.2 9.677 9.65 13.83 9.852 10.057 10.322 10.58 10.73 11.032 11.237 11.467 11.752 13.95 14.017 12.58 13.057 13.477 13.647 13.627 13.745 13.922 14.08 14.35 14.557 15.472 14.875 15.147 15.342 15.537 16.277 16.402 16.115 16.285 16.95 16.767 16.89 17.135 17.687 17.562 17.817 18.077 18.187 18.317 18.44 18.65 18.815 19.07 19.25 19.44 19.67 19.757 19.995 20.255 20.55 20.677 20.81 21.087 21.347 21.957 21.947 22.775 22.22 22.465 22.72 22.907 23.147 23.382 23.495 23.675 23.945 26.015 25.647 24.587 24.947 25.237 25.505 25.63 26.28 33.392 30.42 27.24
8.401 8.291 8.214 8.166 8.116 8.044 7.944 7.921 7.929 7.906 7.871 7.786 7.739 7.709 7.626 7.514 7.499 7.449 7.406 7.354 7.311 7.286 7.284 7.254 7.196 7.186 7.174 7.144 7.144 7.169 7.151 7.141 7.139 7.131 7.079 7.041 6.986 6.894 6.809 6.709 6.611 6.542 6.497 6.484 6.522 6.579 6.554 6.549 6.632 6.637 6.609 6.582 6.554 6.534 6.569 6.592 6.644 6.652 6.644 6.632 6.632 6.657 6.624 6.647 6.704 6.709 6.719 6.717 6.749 6.774 6.849 6.847 6.837 6.839 6.827 6.844 6.834 6.832 6.799 6.799 6.739 6.742 6.732 6.732 6.714 6.704 6.694 6.672 6.634 6.609 6.609 6.624 6.589 6.589 6.569 6.564 6.539 6.504 6.502 6.447 6.387 6.377 6.377 6.372 6.352 6.349 6.314 6.267 6.259 6.222 6.199 6.207 6.214 6.199 6.229 6.207 6.167 6.114 6.084 6.099 6.052 5.984 6.022 6.004 5.962 5.962 5.917 5.879 5.877 5.857 5.817 5.802 5.767 5.724 5.659 5.652 5.634 5.597 6.199 6.347 5.624 5.454 5.442 5.452 5.454 5.387 5.327 5.282 5.257 5.227 5.182 5.164 5.184 5.159 5.112 5.057 5.032 4.984 4.902 4.839 4.827 4.834 4.799 4.727 4.689 4.669 4.607 4.527 4.514 4.487 4.462 4.412 4.372 4.352 4.347 4.307 4.274 4.224 4.172 4.147 4.087 4.072 4.037 4.002 3.939 3.934 3.922 3.907 3.877 3.877 3.842 3.804 3.739 3.707 3.647 3.552 3.462 3.429 3.319 3.577 3.724 3.727 3.769 3.837 3.894 3.982 4.099 4.214 4.369 4.479 4.522 4.519 4.529 4.589 4.659 4.692 4.812 4.902 4.967 5.012 5.064 5.124 5.187 5.229 5.334 5.397 5.499 5.592 5.674 5.792 5.899 6.009 6.112 6.214 6.302 6.399 6.507 6.584 6.687 6.777 6.847 6.925 7.055 7.162 7.237 7.307 7.382 7.437 7.51 7.617 7.672 7.74 7.802 7.882 7.977 8.072 8.11 8.162 8.23 8.292 8.342 8.4 8.44 8.517 8.6 8.69 8.78 8.817 8.85 8.937 9.017 9.077 9.182 9.25 9.317 9.395 9.472 9.53 9.592 9.65 9.68 9.717 9.77 9.847 9.882 9.947 9.957 10.787 14.202 18.197 19.162 17.375 15.505 13.355 10.977 12.725 14.597 11.16 10.05 10.005 9.995 9.95 9.92 9.892 9.937 9.927 10.045 10.047 10.25 10.945 11.367 10.425 10.98 11.257 10.93 10.69 10.192 9.512 9.21 8.315 8.602 7.1 6.695 6.332 6.072 5.99 5.917 5.855 5.8 5.777 5.717 5.705 5.697 5.755 5.742 6.022 9.465 9.93 5.762 5.847 5.882 5.982 6.162 6.92 7.825 7.727 9.362 7.24 8.005 7.485 7.93 7.86 8.297 8.405 9.862 10.335 9.007 9.86 9.865 9.847 10.607 10.58 10.375 10.582 11.56 10.67 10.885 10.855 11.175 11.37 11.515 11.83 12.147 13.712 14.087 14.982 13.055 13.19 13.19 13.407 13.485 13.705 13.907 14.135 14.282 14.485 15.06 14.777 14.967 15.157 15.495 15.627 16.002 16.06 16.252 16.422 16.557 16.83 17.217 17.53 17.632 17.807 18.635 18.08 18.222 18.37 18.647 18.805 18.98 19.202 19.477 19.647 20.365 21.057 20.237 20.452 20.64 20.732 21.01 21.3 24.17 23.555 23.395 22.102 22.357 22.6 22.865 23.1 23.26 23.467 23.752 24.01 24.14 24.315 24.487 25.062 25.242 25.312 25.545 28.442 29.105 29.678 29.83
8.456 8.364 8.304 8.301 8.174 8.106 8.014 7.996 7.994 7.991 7.931 7.854 7.796 7.756 7.754 7.656 7.551 7.486 7.491 7.426 7.374 7.354 7.346 7.296 7.259 7.254 7.226 7.224 7.249 7.231 7.191 7.181 7.194 7.171 7.131 7.089 7.036 6.949 6.856 6.759 6.689 6.632 6.569 6.587 6.619 6.669 6.642 6.674 6.722 6.704 6.664 6.667 6.619 6.597 6.629 6.632 6.649 6.687 6.719 6.689 6.689 6.714 6.737 6.734 6.764 6.809 6.797 6.799 6.857 6.862 6.877 6.912 6.859 6.867 6.874 6.869 6.859 6.852 6.839 6.809 6.779 6.774 6.804 6.799 6.759 6.767 6.759 6.717 6.684 6.667 6.652 6.664 6.654 6.624 6.604 6.602 6.607 6.572 6.534 6.514 6.454 6.417 6.434 6.409 6.412 6.389 6.387 6.359 6.322 6.284 6.252 6.262 6.264 6.257 6.272 6.229 6.174 6.142 6.117 6.137 6.114 6.049 6.042 6.049 6.017 6.027 5.964 5.909 5.917 5.889 5.847 5.849 5.832 5.792 5.722 5.697 5.699 5.672 6.137 6.192 6.139 5.557 5.494 5.507 5.512 5.454 5.414 5.367 5.324 5.299 5.237 5.222 5.214 5.194 5.137 5.117 5.077 5.042 4.962 4.902 4.902 4.884 4.824 4.782 4.742 4.712 4.659 4.594 4.554 4.529 4.497 4.457 4.439 4.419 4.419 4.354 4.317 4.287 4.264 4.204 4.159 4.132 4.107 4.067 4.002 3.984 3.979 3.944 3.919 3.902 3.894 3.839 3.792 3.759 3.674 3.592 3.499 3.477 3.307 3.484 3.804 3.747 3.769 3.859 3.939 3.957 4.052 4.167 4.329 4.469 4.479 4.499 4.499 4.557 4.632 4.687 4.772 4.864 4.899 4.972 5.064 5.127 5.177 5.234 5.294 5.369 5.449 5.539 5.632 5.729 5.839 5.977 6.114 6.212 6.327 6.394 6.474 6.577 6.679 6.784 6.854 6.962 7.047 7.15 7.235 7.317 7.372 7.46 7.53 7.607 7.662 7.75 7.845 7.93 8.005 8.077 8.117 8.172 8.23 8.29 8.36 8.422 8.46 8.537 8.597 8.692 8.752 8.82 8.857 8.91 9.02 9.087 9.19 9.252 9.332 9.39 9.455 9.53 9.605 9.657 9.672 9.71 9.785 9.837 9.88 9.952 9.952 9.962 11.072 14.965 14.082 12.027 10.792 12.657 11.877 15.062 13.04 10.24 10.062 10.037 10.022 10.055 10.265 10.57 10.88 10.572 10.67 11.592 11.905 11.927 10.06 8.957 9.13 9.015 9.792 9.332 8.617 7.477 6.975 6.687 6.527 6.437 6.337 6.187 6.085 5.997 5.885 5.842 5.94 6.25 6.455 6.457 6.225 6.265 7.5 8.832 8.752 7.422 5.847 5.912 5.99 6.755 8.142 8.51 6.695 6.857 8.392 7.355 7.407 7.5 7.722 7.82 7.982 8.235 8.452 8.862 9.237 11.615 10.007 10.27 10.38 11.205 11.035 10.952 12.557 11.767 11.45 11.532 12.055 12.045 12.29 12.467 12.615 12.63 12.76 12.715 12.895 12.872 13.082 13.392 13.442 14.097 13.842 14.11 14.197 14.34 14.45 14.74 15 15.43 15.552 15.615 16.12 16.04 16.152 16.342 16.605 16.767 17.552 18.852 18.075 18.682 19.255 18.54 18.25 18.36 18.535 18.675 18.947 19.2 19.422 19.532 19.922 20.66 20.182 20.33 20.51 20.672 20.91 21.215 22.275 23.985 22.992 22.08 22.365 22.537 22.852 23.05 23.16 24.542 23.522 23.81 24.16 24.202 24.635 25.05 25.077 25.292 25.96 29.075 27.695 26.783 28.04
8.544 8.489 8.426 8.374 8.284 8.216 8.166 8.124 8.074 8.051 7.969 7.904 7.834 7.806 7.826 7.734 7.611 7.524 7.524 7.491 7.439 7.431 7.399 7.371 7.336 7.341 7.336 7.311 7.334 7.319 7.249 7.251 7.244 7.194 7.149 7.106 7.039 6.964 6.889 6.839 6.764 6.744 6.674 6.699 6.729 6.732 6.712 6.759 6.787 6.757 6.749 6.697 6.657 6.692 6.729 6.699 6.737 6.727 6.742 6.747 6.769 6.802 6.794 6.777 6.817 6.822 6.827 6.869 6.912 6.902 6.897 6.944 6.924 6.902 6.909 6.882 6.869 6.864 6.882 6.859 6.839 6.802 6.819 6.829 6.799 6.792 6.804 6.794 6.757 6.714 6.707 6.707 6.704 6.699 6.667 6.652 6.632 6.612 6.582 6.559 6.532 6.474 6.474 6.472 6.472 6.444 6.422 6.427 6.369 6.329 6.292 6.279 6.314 6.304 6.294 6.239 6.207 6.169 6.164 6.182 6.149 6.109 6.069 6.077 6.072 6.062 6.029 5.952 5.964 5.907 5.874 5.857 5.864 5.832 5.769 5.757 5.732 5.714 6.232 5.884 5.657 5.602 5.549 5.549 5.547 5.522 5.477 5.414 5.374 5.349 5.302 5.272 5.259 5.307 5.169 5.147 5.122 5.094 4.992 4.924 4.907 4.919 4.869 4.824 4.814 4.759 4.719 4.629 4.597 4.562 4.547 4.529 4.507 4.529 4.457 4.432 4.387 4.362 4.289 4.227 4.194 4.169 4.144 4.107 4.039 4.037 4.017 4.007 3.952 3.954 3.929 3.907 3.854 3.782 3.717 3.659 3.577 3.517 3.314 3.472 3.794 3.764 3.809 3.874 3.989 4.049 4.047 4.137 4.269 4.424 4.487 4.497 4.469 4.514 4.594 4.634 4.727 4.852 4.917 4.972 5.044 5.107 5.182 5.242 5.299 5.372 5.429 5.499 5.582 5.684 5.749 5.919 6.079 6.177 6.309 6.384 6.467 6.557 6.674 6.769 6.862 6.957 7.047 7.157 7.215 7.312 7.387 7.49 7.542 7.652 7.712 7.767 7.867 7.935 8.017 8.067 8.12 8.172 8.225 8.305 8.365 8.427 8.462 8.545 8.615 8.67 8.74 8.827 8.895 8.95 9.007 9.087 9.205 9.265 9.322 9.37 9.452 9.502 9.57 9.642 9.677 9.735 9.78 9.847 9.9 9.957 9.952 9.98 10.125 10.192 10.74 12.445 10.66 12.687 11.185 11.552 12.74 12.602 10.065 10.05 10.082 10.41 10.547 10.795 11.455 11.67 11.517 11.652 10.275 9.705 9.91 10.172 8.275 7.802 7.542 7.317 7.167 7.042 6.89 6.757 6.635 6.467 6.32 6.38 6.242 6.305 6.672 6.325 6.972 6.857 6.625 6.91 8.817 9.305 7.467 5.877 5.902 6.005 6.007 6.037 6.172 7.567 9.73 7.905 7.22 7.017 7.352 7.872 7.995 7.762 7.827 8.475 8.282 9.105 11.955 9.055 9.212 9.357 9.852 10.07 10.232 10.53 11.052 10.86 11.19 11.365 11.365 11.657 11.81 12.062 12.302 12.825 12.6 12.407 12.552 13.362 12.727 12.895 13.12 13.322 13.405 14.487 13.767 14.062 14.145 14.257 14.555 14.742 15.317 16.815 16.1 15.47 15.647 15.882 16.11 16.605 16.515 17.072 17.732 17.755 18.427 18.035 19.145 20.697 22.18 18.312 19.17 21.252 19.26 19.127 19.352 19.435 19.62 19.785 20.022 20.215 20.427 20.657 20.95 21.2 21.347 21.672 21.865 22.032 22.27 22.485 22.632 22.832 23.08 23.217 23.407 23.65 23.9 24.167 24.595 24.772 25.262 25.752 26.007 27.475 26.977 26.633 27.253
8.606 8.599 8.526 8.469 8.354 8.324 8.296 8.239 8.174 8.079 8.021 7.974 7.931 7.896 7.869 7.804 7.689 7.621 7.586 7.604 7.556 7.524 7.471 7.419 7.421 7.409 7.394 7.399 7.421 7.381 7.316 7.294 7.259 7.201 7.156 7.071 7.049 6.981 6.914 6.846 6.819 6.769 6.762 6.804 6.832 6.767 6.769 6.849 6.859 6.817 6.814 6.817 6.764 6.734 6.807 6.789 6.814 6.792 6.807 6.852 6.849 6.869 6.867 6.864 6.889 6.874 6.864 6.859 6.877 6.914 6.937 6.964 6.967 6.944 6.957 6.929 6.894 6.904 6.907 6.894 6.872 6.829 6.827 6.849 6.827 6.827 6.854 6.832 6.779 6.712 6.767 6.752 6.754 6.714 6.687 6.682 6.672 6.659 6.637 6.624 6.574 6.517 6.514 6.512 6.492 6.489 6.474 6.462 6.409 6.367 6.312 6.324 6.344 6.344 6.317 6.317 6.264 6.227 6.229 6.189 6.199 6.154 6.109 6.092 6.114 6.084 6.042 6.014 5.994 5.954 5.907 5.914 5.947 5.899 5.817 5.774 5.779 5.742 5.697 5.664 5.662 5.642 5.562 5.572 5.577 5.564 5.502 5.454 5.407 5.367 5.327 5.284 5.384 5.927 5.239 5.192 5.149 5.144 5.054 4.979 4.954 4.967 4.927 4.879 4.814 4.794 4.764 4.697 4.654 4.622 4.619 4.622 4.582 4.539 4.487 4.472 4.479 4.399 4.344 4.287 4.242 4.202 4.204 4.159 4.117 4.089 4.082 4.062 4.022 4.012 4.012 3.972 3.914 3.842 3.777 3.707 3.614 3.552 3.417 3.414 3.844 3.807 3.844 3.964 4.044 4.079 4.139 4.172 4.262 4.402 4.449 4.479 4.457 4.509 4.579 4.637 4.699 4.849 4.899 4.962 5.044 5.117 5.174 5.244 5.282 5.342 5.404 5.502 5.599 5.657 5.759 5.869 6.037 6.169 6.274 6.349 6.452 6.552 6.634 6.719 6.822 6.925 7.017 7.135 7.215 7.292 7.372 7.46 7.547 7.662 7.752 7.81 7.865 7.95 8.017 8.08 8.127 8.162 8.21 8.287 8.35 8.425 8.48 8.537 8.625 8.7 8.772 8.855 8.935 9.012 9.07 9.11 9.167 9.242 9.33 9.41 9.447 9.507 9.562 9.642 9.702 9.757 9.827 9.887 9.932 9.962 9.965 9.985 10.052 10.205 10.35 11.76 11.787 11.62 11.075 12.387 11.592 11.33 9.995 10.007 10.917 11.555 11.635 11.955 11.855 11.735 10.617 10.227 9.645 12.712 12.285 15.587 9.655 7.707 7.515 7.385 7.25 7.097 6.922 6.982 7.37 7.255 7.655 9.402 7.08 6.82 6.69 6.61 6.64 6.652 6.652 6.672 7.922 8.795 8.957 7.495 6.1 6.092 6.05 6.095 6.247 6.34 6.48 6.907 7.382 8.465 8.142 8.387 8.522 8.567 8.712 9.39 8.822 11.912 13.522 10.227 9.86 10.49 15.49 10.365 10.4 10.612 10.88 10.86 11.02 11.165 11.34 11.632 11.807 11.887 12.16 12.642 12.607 12.847 12.885 13.112 12.797 12.897 13.06 13.332 13.475 13.612 14.022 14.262 14.125 14.247 14.552 14.785 14.965 15.737 15.812 15.397 15.595 15.79 16.3 16.482 16.397 17.195 17.945 17.847 17.875 17.682 22.657 24.287 22.21 23.247 20.507 28.595 21.27 25.552 22.307 19.39 19.632 19.725 19.92 20.227 20.402 20.602 20.807 21.12 21.32 21.547 21.765 22.065 22.252 22.41 22.665 23.93 24.412 23.302 23.34 23.652 23.96 24.372 25.09 25.77 26.69 25.985 25.637 25.942 25.88 26.65 28.3
8.669 8.629 8.571 8.501 8.436 8.444 8.401 8.349 8.229 8.151 8.109 8.081 8.001 7.976 7.946 7.861 7.784 7.709 7.636 7.596 7.586 7.589 7.566 7.541 7.486 7.471 7.474 7.479 7.471 7.449 7.376 7.336 7.289 7.211 7.151 7.096 7.051 7.034 7.009 6.936 6.869 6.877 6.857 6.909 6.917 6.862 6.829 6.892 6.894 6.887 6.894 6.902 6.877 6.852 6.877 6.892 6.862 6.822 6.869 6.904 6.947 6.949 6.927 6.919 6.949 6.932 6.897 6.914 6.929 6.944 6.969 7.019 7.012 7.002 6.997 6.954 6.947 6.934 6.927 6.932 6.902 6.859 6.882 6.892 6.889 6.879 6.899 6.857 6.852 6.814 6.797 6.804 6.799 6.789 6.754 6.757 6.739 6.712 6.687 6.662 6.612 6.519 6.584 6.579 6.529 6.527 6.497 6.499 6.464 6.412 6.352 6.364 6.384 6.367 6.389 6.339 6.304 6.274 6.262 6.242 6.247 6.202 6.139 6.159 6.124 6.117 6.064 6.064 6.024 6.017 5.949 5.962 5.972 5.929 5.854 5.832 5.824 5.792 5.754 5.712 5.702 5.674 5.612 5.607 5.617 5.592 5.519 5.482 5.434 5.407 5.362 5.379 6.374 5.767 5.274 5.402 5.202 5.167 5.099 5.042 5.014 5.022 4.969 4.909 4.879 4.859 4.829 4.739 4.702 4.689 4.669 4.647 4.624 4.609 4.549 4.522 4.522 4.447 4.372 4.357 4.304 4.257 4.269 4.257 4.174 4.134 4.129 4.124 4.107 4.094 4.069 4.029 3.957 3.889 3.817 3.759 3.687 3.604 3.477 3.337 3.924 3.862 3.902 3.999 4.087 4.132 4.169 4.227 4.284 4.409 4.432 4.484 4.454 4.489 4.612 4.654 4.729 4.802 4.892 4.957 5.029 5.082 5.164 5.239 5.299 5.364 5.454 5.544 5.624 5.709 5.794 5.902 6.024 6.147 6.262 6.367 6.447 6.539 6.604 6.704 6.804 6.907 6.997 7.092 7.19 7.285 7.387 7.462 7.56 7.652 7.732 7.795 7.88 7.942 8.015 8.075 8.135 8.157 8.21 8.277 8.352 8.42 8.495 8.572 8.635 8.732 8.802 8.862 8.93 9.03 9.105 9.182 9.157 9.272 9.365 9.425 9.482 9.542 9.61 9.68 9.722 9.795 9.837 9.905 9.955 9.975 10.01 10.027 10.035 10.062 10.205 11.257 11.415 13.035 11.415 11.345 11.445 13.327 10.097 10.195 12.17 12.102 11.822 10.692 9.872 9.457 8.865 8.7 12.187 16.472 16.885 17.492 13.875 11.242 7.632 7.845 7.845 8.375 8.205 8.087 9.055 8.527 7.71 7.145 7.017 6.98 6.765 6.647 6.66 6.665 6.665 6.652 6.865 7.312 7.225 7.487 6.097 6.157 6.105 6.155 6.287 6.367 6.537 6.677 7.03 7.617 8.385 8.415 8.442 8.93 8.765 9 10.357 12.132 10.81 10.06 12.455 10.695 11.375 10.722 10.932 11.055 11.1 11.29 11.437 11.385 11.527 11.502 11.645 11.82 12.027 12.272 12.45 12.85 13.16 13.212 13.217 13.007 13.13 13.627 13.53 14.492 13.857 14.057 14.2 14.195 14.482 15.245 16.16 15.082 15.3 15.472 15.555 15.747 15.982 16.22 17.292 18.595 17.49 18.027 17.53 17.9 19.182 21.107 19.212 18.282 18.417 22.54 24.705 23.635 21.42 19.797 19.48 19.747 19.91 20.215 20.45 20.555 20.85 20.985 21.217 21.462 21.92 22.262 22.292 22.255 22.505 26.665 29.1 24.125 25.317 25.51 24.615 24.937 27.042 25.222 26.532 25.732 25.562 25.625 25.81 26.3 28.065
8.716 8.681 8.651 8.574 8.534 8.546 8.464 8.399 8.324 8.226 8.216 8.146 8.056 8.061 7.989 7.886 7.841 7.729 7.669 7.596 7.606 7.609 7.641 7.671 7.616 7.564 7.499 7.496 7.491 7.471 7.414 7.404 7.354 7.251 7.166 7.139 7.091 7.064 7.039 7.009 6.994 6.954 6.977 7.004 6.994 6.949 6.957 6.987 6.999 6.962 6.957 6.962 6.969 6.954 6.907 6.932 6.909 6.889 6.914 6.952 6.982 6.972 6.954 6.967 6.987 6.979 6.962 6.972 6.969 6.992 7.044 7.064 7.072 7.069 7.047 7.022 6.997 6.972 6.977 6.959 6.947 6.927 6.939 6.954 6.944 6.937 6.922 6.919 6.889 6.884 6.852 6.867 6.864 6.832 6.812 6.807 6.782 6.754 6.729 6.694 6.659 6.619 6.619 6.614 6.599 6.584 6.554 6.542 6.517 6.472 6.419 6.427 6.419 6.417 6.434 6.389 6.362 6.317 6.297 6.289 6.294 6.242 6.197 6.187 6.177 6.154 6.127 6.104 6.067 6.067 6.012 6.009 6.012 5.977 5.909 5.849 5.852 5.824 5.777 5.767 5.789 5.719 5.654 5.652 5.654 5.642 5.574 5.522 5.474 5.459 5.422 5.887 6.667 6.529 5.437 5.622 5.229 5.202 5.137 5.092 5.072 5.059 5.024 4.969 4.924 4.899 4.872 4.819 4.779 4.764 4.737 4.694 4.659 4.604 4.632 4.604 4.552 4.474 4.399 4.417 4.347 4.317 4.317 4.284 4.239 4.194 4.184 4.167 4.149 4.134 4.109 4.074 4.032 3.934 3.854 3.814 3.739 3.627 3.554 3.317 3.912 3.957 3.909 3.994 4.054 4.119 4.179 4.232 4.317 4.437 4.422 4.452 4.479 4.532 4.599 4.629 4.709 4.787 4.852 4.934 5.024 5.077 5.182 5.269 5.322 5.397 5.482 5.567 5.637 5.742 5.829 5.919 6.012 6.142 6.264 6.362 6.419 6.494 6.557 6.672 6.752 6.867 6.97 7.072 7.185 7.267 7.357 7.43 7.52 7.612 7.717 7.787 7.865 7.902 7.977 8.07 8.132 8.172 8.217 8.287 8.352 8.445 8.52 8.607 8.672 8.74 8.8 8.862 8.942 9.035 9.135 9.21 9.252 9.295 9.357 9.455 9.537 9.59 9.637 9.715 9.792 9.825 9.877 9.945 9.992 10.025 10.037 10.065 10.027 10.075 10.48 10.88 12.102 10.755 10.83 10.905 12.08 12.672 10.33 10 10.747 10.087 9.545 9.29 9.182 9.032 8.93 8.777 14.712 17.677 19.777 18.692 18.055 15.677 8.51 8.677 8.407 8.065 7.972 7.897 7.812 7.58 7.285 7.155 7.155 7.07 6.905 6.667 6.632 6.647 6.612 6.64 6.852 5.925 7.18 8.14 6.157 6.172 6.185 6.21 6.36 6.38 6.495 6.615 7.102 7.84 8.28 8.38 8.452 8.537 8.657 9.187 10.177 10.79 10.51 12.135 13.627 12.727 11.095 11.062 11.142 11.492 11.462 11.567 11.762 11.805 11.9 11.97 11.987 12.447 13.017 15.455 12.652 12.892 13.117 15.36 13.085 15.137 13.21 13.345 13.43 13.665 13.902 13.915 14.035 14.21 14.457 14.67 14.842 14.987 15.17 15.365 15.507 15.735 15.9 16.167 16.917 16.93 17.26 17.397 17.392 18.045 17.562 17.72 17.96 18 18.342 18.62 25.167 23.182 19.337 19.242 19.395 19.635 19.875 20.167 20.477 20.547 20.742 20.907 21.2 21.385 21.622 21.902 21.985 22.11 22.432 22.87 24.492 23.772 25.397 27.137 25.59 25.67 24.35 24.622 26.247 25.925 25.557 25.652 25.762 26.06 26.95
8.751 8.756 8.739 8.694 8.656 8.616 8.579 8.469 8.399 8.354 8.276 8.189 8.151 8.094 8.049 7.939 7.836 7.774 7.734 7.691 7.684 7.654 7.669 7.684 7.666 7.646 7.571 7.544 7.546 7.556 7.506 7.469 7.429 7.356 7.236 7.211 7.164 7.116 7.094 7.066 7.084 7.067 7.102 7.119 7.099 7.054 7.074 7.087 7.027 7.022 7.009 7.009 7.022 7.019 6.977 6.997 6.994 6.979 7.012 6.992 7.017 7.022 7.022 7.027 7.024 7.027 7.022 7.049 7.037 7.059 7.104 7.117 7.119 7.099 7.097 7.072 7.047 7.002 7.019 7.022 6.999 6.994 6.974 7.004 7.007 6.994 6.984 6.984 6.969 6.924 6.917 6.922 6.914 6.894 6.877 6.847 6.819 6.802 6.754 6.732 6.719 6.662 6.637 6.652 6.647 6.629 6.592 6.594 6.564 6.524 6.469 6.442 6.464 6.482 6.482 6.437 6.399 6.347 6.339 6.314 6.309 6.289 6.224 6.217 6.194 6.209 6.199 6.147 6.099 6.107 6.047 6.032 6.054 6.012 5.952 5.899 5.884 5.879 5.842 5.819 5.802 5.757 5.682 5.677 5.694 5.669 5.619 5.569 5.524 5.504 5.474 5.489 6.217 5.564 5.359 5.822 5.274 5.247 5.204 5.127 5.099 5.089 5.042 5.009 4.972 4.947 4.942 4.884 4.844 4.797 4.777 4.744 4.714 4.699 4.697 4.617 4.557 4.464 4.472 4.459 4.422 4.362 4.347 4.354 4.302 4.237 4.232 4.224 4.192 4.164 4.154 4.129 4.087 3.999 3.917 3.829 3.734 3.689 3.614 3.337 3.764 4.112 3.959 3.989 4.057 4.094 4.147 4.182 4.287 4.432 4.419 4.462 4.494 4.509 4.552 4.652 4.729 4.799 4.917 4.987 5.077 5.137 5.254 5.307 5.374 5.452 5.497 5.584 5.617 5.737 5.817 5.887 5.967 6.112 6.237 6.317 6.389 6.479 6.544 6.624 6.717 6.8 6.915 7.025 7.14 7.21 7.297 7.372 7.47 7.55 7.64 7.73 7.817 7.897 7.987 8.09 8.14 8.155 8.242 8.325 8.39 8.47 8.52 8.585 8.675 8.74 8.835 8.907 8.982 9.07 9.142 9.235 9.307 9.33 9.397 9.505 9.575 9.627 9.68 9.737 9.81 9.845 9.915 9.952 10.005 10.045 10.065 10.092 10.142 10.165 10.207 10.505 12.77 11.417 11.262 12.607 11.067 10.01 9.835 9.717 9.665 9.542 9.452 9.352 9.235 9.092 8.942 9.22 17.127 19.227 20.937 21.025 19.367 14.045 8.5 8.4 8.265 8.177 8.067 8.015 7.932 7.727 7.43 7.312 7.237 7.16 7.035 6.702 6.607 6.582 6.585 6.61 6.842 6.067 7.385 8.74 6.21 6.217 6.255 6.307 6.367 6.35 6.357 6.63 7.6 9.915 8.345 8.422 8.53 8.545 8.667 9.2 9.642 9.732 9.767 10.102 11.56 11.647 11.74 11.615 11.597 11.887 11.885 12.2 12.09 11.957 13.852 12.97 13.137 13.77 15.48 15.842 14.292 13.072 12.95 13.317 13.177 14.985 14.102 13.695 13.592 13.822 13.972 13.975 14.08 15.455 16.02 14.632 14.707 14.905 15.077 15.29 15.455 15.69 15.872 16.26 16.355 16.557 16.822 16.995 17.187 17.395 17.567 17.69 17.91 18.022 18.63 23.597 25.907 18.915 22.472 19.527 19.477 19.642 19.88 20.112 20.277 20.49 21.445 21.01 21.372 21.26 22.877 21.765 21.935 22.537 22.737 22.84 23.635 25.705 25.01 24.047 23.93 24.057 24.262 24.537 25.817 26.475 25.56 25.652 25.745 25.927 26.465
8.799 8.786 8.784 8.739 8.761 8.699 8.659 8.556 8.486 8.426 8.371 8.299 8.249 8.176 8.089 8.011 7.926 7.829 7.786 7.756 7.744 7.741 7.714 7.706 7.671 7.646 7.634 7.624 7.609 7.596 7.551 7.544 7.531 7.466 7.371 7.351 7.301 7.241 7.181 7.131 7.134 7.184 7.202 7.224 7.144 7.112 7.134 7.124 7.092 7.079 7.089 7.077 7.099 7.084 7.079 7.064 7.024 7.022 7.037 7.059 7.034 7.069 7.092 7.079 7.082 7.087 7.077 7.082 7.122 7.109 7.152 7.179 7.187 7.157 7.137 7.122 7.104 7.089 7.049 7.044 7.029 7.017 7.037 7.042 7.062 7.062 7.069 7.079 7.027 6.979 6.987 6.972 6.944 6.952 6.927 6.917 6.872 6.854 6.792 6.787 6.762 6.709 6.687 6.677 6.687 6.667 6.644 6.624 6.627 6.599 6.537 6.487 6.522 6.512 6.517 6.482 6.432 6.394 6.357 6.352 6.357 6.329 6.262 6.257 6.249 6.279 6.252 6.209 6.149 6.127 6.082 6.082 6.077 6.052 5.992 5.934 5.914 5.907 5.887 5.834 5.832 5.789 5.732 5.709 5.727 5.717 5.672 5.607 5.567 5.549 5.507 5.467 6.257 5.517 5.412 5.362 5.317 5.292 5.257 5.169 5.137 5.127 5.109 5.059 5.037 5.009 4.974 4.962 4.884 4.842 4.794 4.789 4.747 4.742 4.684 4.679 4.584 4.492 4.482 4.482 4.444 4.407 4.402 4.387 4.332 4.287 4.287 4.257 4.244 4.194 4.164 4.149 4.089 4.037 3.977 3.899 3.817 3.734 3.647 3.289 3.634 4.119 4.007 4.007 4.024 4.089 4.122 4.187 4.237 4.387 4.439 4.452 4.502 4.562 4.579 4.674 4.754 4.834 4.954 5.019 5.094 5.172 5.249 5.342 5.392 5.439 5.512 5.574 5.622 5.717 5.792 5.864 5.947 6.062 6.164 6.262 6.339 6.429 6.504 6.577 6.632 6.745 6.837 6.94 7.05 7.125 7.217 7.31 7.395 7.49 7.572 7.69 7.767 7.86 7.97 8.057 8.117 8.162 8.235 8.322 8.405 8.495 8.542 8.617 8.695 8.79 8.88 8.937 9.015 9.085 9.182 9.267 9.355 9.427 9.467 9.517 9.6 9.627 9.687 9.71 9.795 9.855 9.915 9.99 10.042 10.075 10.095 10.125 10.165 10.185 10.225 10.637 11.5 12.2 12.362 12.19 10.137 9.92 9.872 9.797 9.745 9.645 9.525 9.405 9.232 9.112 9.192 10.602 15.11 18.31 19.627 18.977 18.392 13.44 8.612 8.51 8.387 8.282 8.167 8.057 7.972 7.815 7.505 7.35 7.252 7.117 7 6.73 6.617 6.56 6.555 6.62 6.535 7.555 10.48 10.207 6.327 6.347 6.337 6.347 6.342 6.277 6.172 6.275 6.962 9.872 8.302 8.45 8.545 8.6 8.76 9.262 9.642 9.72 9.78 9.895 10.095 10.605 11.002 11.31 11.452 11.545 12.21 12.785 14.395 14.007 14.007 13.01 12.78 13.84 14.12 13.607 16.182 13.05 13.895 13.15 13.045 13.217 13.467 13.68 14.075 14.23 14.057 14.002 14.165 15.122 15.752 14.625 14.625 14.962 15.57 15.722 15.375 15.632 15.82 16.052 16.84 16.53 16.702 17.302 17.072 17.25 17.422 17.662 17.875 18.097 18.36 18.447 18.627 18.97 18.99 19.2 19.365 19.65 19.792 20.022 20.187 20.475 21.045 20.83 21.015 21.422 25.447 22.64 23.135 22.732 23.395 23.61 23.11 23.442 24.767 24.48 23.942 24.025 24.155 24.435 25.205 26.527 25.582 25.72 25.77 25.882 26.245
8.871 8.851 8.836 8.794 8.791 8.776 8.729 8.644 8.584 8.536 8.464 8.401 8.336 8.261 8.191 8.091 8.029 7.946 7.896 7.841 7.801 7.811 7.804 7.789 7.746 7.671 7.674 7.694 7.714 7.704 7.669 7.616 7.579 7.526 7.471 7.431 7.384 7.371 7.311 7.266 7.246 7.252 7.292 7.287 7.237 7.197 7.184 7.177 7.199 7.174 7.172 7.182 7.182 7.179 7.152 7.104 7.097 7.109 7.112 7.094 7.097 7.124 7.162 7.162 7.137 7.142 7.127 7.122 7.167 7.167 7.219 7.219 7.247 7.192 7.192 7.177 7.149 7.102 7.092 7.097 7.082 7.079 7.119 7.112 7.102 7.109 7.079 7.079 7.064 7.034 7.007 7.002 6.997 6.989 6.987 6.969 6.942 6.912 6.869 6.834 6.794 6.762 6.752 6.759 6.744 6.732 6.719 6.684 6.682 6.647 6.599 6.529 6.544 6.557 6.587 6.539 6.454 6.457 6.417 6.407 6.394 6.364 6.309 6.297 6.299 6.317 6.277 6.234 6.194 6.167 6.134 6.119 6.107 6.104 6.029 5.989 5.944 5.954 5.929 5.867 5.874 5.852 5.782 5.747 5.754 5.757 5.712 5.654 5.609 5.582 5.537 5.517 5.704 5.472 5.452 5.397 5.344 5.324 5.287 5.207 5.164 5.169 5.164 5.129 5.102 5.024 5.032 4.972 4.914 4.892 4.844 4.842 4.824 4.764 4.747 4.677 4.612 4.509 4.499 4.527 4.487 4.459 4.434 4.429 4.379 4.354 4.322 4.327 4.272 4.232 4.229 4.212 4.147 4.067 4.007 3.942 3.867 3.837 3.794 3.684 3.859 4.152 4.067 3.994 4.022 4.117 4.144 4.189 4.242 4.339 4.452 4.479 4.527 4.559 4.634 4.714 4.774 4.832 4.969 5.047 5.079 5.124 5.232 5.312 5.379 5.422 5.484 5.567 5.649 5.744 5.804 5.909 5.984 6.062 6.107 6.162 6.252 6.349 6.434 6.507 6.579 6.675 6.78 6.867 6.982 7.08 7.162 7.25 7.37 7.455 7.545 7.655 7.73 7.827 7.947 8.035 8.11 8.175 8.27 8.357 8.447 8.52 8.587 8.657 8.742 8.817 8.922 9 9.097 9.177 9.227 9.31 9.365 9.437 9.462 9.51 9.595 9.667 9.695 9.75 9.827 9.88 9.95 10.015 10.07 10.1 10.147 10.157 10.205 10.237 10.297 10.337 10.815 11.105 11.012 10.45 10.025 10.655 9.955 9.882 9.79 10.107 10.817 9.825 9.427 9.985 10.707 9.917 14.595 18.58 17.797 17.545 14.152 8.902 8.782 8.702 8.605 8.462 8.327 8.142 7.94 7.752 7.525 7.35 7.22 7.052 6.9 6.792 6.66 6.592 6.597 6.612 6.552 7.447 10.885 9.907 6.66 6.425 6.415 6.402 6.312 6.192 6.06 6.022 6.757 7.662 8.26 8.507 8.585 8.692 8.827 9.305 9.645 9.707 9.825 9.97 10.192 10.6 11.19 11.347 11.387 11.465 11.542 11.695 12.42 12.972 13.215 14.157 14.1 13.832 13.207 13.212 13.28 13.61 13.587 13.61 13.977 14.222 13.957 14.012 14.11 13.937 13.942 14.06 14.187 14.327 14.665 14.45 14.717 15.095 18.557 18.867 15.805 15.565 15.732 15.927 17.137 16.417 18.792 20.315 18.087 18.44 18.157 17.617 17.825 18.012 18.22 18.405 18.58 18.732 18.987 19.12 19.35 19.56 19.687 19.967 20.105 20.375 21.905 21.627 21.775 21.697 22.165 22.542 23.562 22.88 23.237 22.63 22.625 22.835 23.475 25.535 24.14 24.007 24.092 24.35 24.67 25.377 25.602 25.732 25.817 25.885 26.125
8.909 8.889 8.881 8.841 8.791 8.796 8.776 8.716 8.676 8.624 8.564 8.499 8.436 8.334 8.291 8.201 8.129 8.044 7.999 7.936 7.884 7.884 7.879 7.886 7.819 7.739 7.736 7.789 7.806 7.799 7.754 7.681 7.656 7.581 7.504 7.496 7.509 7.436 7.419 7.369 7.354 7.329 7.369 7.364 7.327 7.327 7.329 7.274 7.259 7.247 7.272 7.264 7.244 7.259 7.232 7.182 7.204 7.172 7.154 7.154 7.142 7.167 7.219 7.219 7.189 7.197 7.189 7.192 7.194 7.222 7.257 7.269 7.292 7.252 7.222 7.197 7.189 7.184 7.144 7.157 7.147 7.119 7.129 7.144 7.147 7.162 7.127 7.112 7.099 7.089 7.047 7.034 7.059 7.052 7.049 7.032 6.979 6.967 6.912 6.879 6.849 6.822 6.814 6.819 6.809 6.797 6.772 6.752 6.737 6.692 6.632 6.612 6.619 6.589 6.624 6.589 6.547 6.494 6.447 6.457 6.447 6.422 6.377 6.352 6.334 6.347 6.317 6.302 6.259 6.224 6.182 6.174 6.159 6.167 6.094 6.027 6.002 6.012 5.974 5.924 5.922 5.902 5.824 5.777 5.787 5.797 5.747 5.679 5.647 5.614 5.572 5.537 5.499 5.519 5.472 5.419 5.387 5.367 5.307 5.264 5.207 5.194 5.184 5.174 5.134 5.049 5.027 4.997 4.944 4.884 4.887 4.859 4.857 4.822 4.762 4.709 4.657 4.597 4.539 4.549 4.532 4.482 4.447 4.459 4.454 4.404 4.357 4.347 4.304 4.264 4.239 4.202 4.159 4.104 4.044 3.969 3.942 3.979 4.162 4.054 4.049 4.259 4.089 4.039 4.049 4.147 4.212 4.244 4.284 4.364 4.447 4.492 4.547 4.584 4.622 4.682 4.757 4.852 4.914 5.179 5.059 5.139 5.224 5.319 5.399 5.457 5.517 5.619 5.694 5.784 5.824 5.939 6.007 6.062 6.122 6.212 6.277 6.339 6.434 6.492 6.552 6.662 6.782 6.875 6.962 7.077 7.192 7.255 7.357 7.445 7.557 7.662 7.752 7.832 7.935 8.032 8.125 8.227 8.33 8.415 8.505 8.587 8.655 8.727 8.8 8.87 8.957 9.022 9.097 9.182 9.227 9.31 9.39 9.437 9.512 9.562 9.55 9.662 9.745 9.772 9.832 9.915 9.99 10.035 10.097 10.175 10.215 10.23 10.262 10.267 10.412 10.377 10.412 10.392 10.345 10.16 10.095 10.057 10.002 9.905 9.777 14.422 17.137 16.122 11.712 10.02 10.14 9.662 12.185 17.205 13.89 12.512 9.675 9.082 8.965 8.872 8.745 8.592 8.455 8.257 8.017 7.81 7.62 7.46 7.312 7.185 7.02 6.91 6.772 6.675 6.637 6.612 6.53 6.317 7.067 8.597 7.005 6.467 6.492 6.455 6.697 7.682 7.892 6.715 6.605 7.345 8.087 8.517 8.625 8.717 8.872 9.317 9.602 9.71 9.865 10.075 10.312 10.84 11.275 11.382 11.437 11.515 11.617 11.785 11.925 12.075 12.18 12.342 12.56 12.807 13.892 17.072 13.917 14.585 16.125 14.437 13.932 13.932 13.777 14.015 13.91 13.847 13.925 14.07 14.192 15.217 14.53 14.592 14.745 14.847 17.777 15.827 15.292 15.435 15.64 15.852 16.077 16.242 16.512 16.792 20.5 20.947 20.05 17.655 17.81 18.212 18.185 18.345 18.502 18.69 18.917 19.327 19.27 19.467 19.592 19.835 20.182 20.455 25.942 23.992 24.795 26.147 21.595 21.595 21.577 21.852 23.935 22.932 22.595 22.747 23.14 25.202 24.365 24.012 24.08 24.257 24.532 25.15 25.572 25.715 25.79 25.857 26.045
8.951 8.929 8.874 8.839 8.814 8.809 8.806 8.754 8.736 8.719 8.629 8.591 8.504 8.424 8.369 8.271 8.216 8.146 8.109 8.044 8.011 7.956 7.951 7.931 7.874 7.826 7.821 7.829 7.851 7.876 7.826 7.746 7.736 7.639 7.619 7.564 7.561 7.546 7.491 7.464 7.474 7.482 7.502 7.457 7.392 7.409 7.439 7.374 7.319 7.364 7.349 7.309 7.254 7.252 7.262 7.204 7.237 7.224 7.212 7.217 7.219 7.237 7.269 7.279 7.249 7.214 7.244 7.244 7.279 7.284 7.324 7.324 7.339 7.322 7.302 7.272 7.264 7.222 7.207 7.182 7.192 7.157 7.157 7.187 7.182 7.202 7.172 7.142 7.152 7.129 7.104 7.097 7.112 7.097 7.089 7.077 7.037 6.999 6.977 6.937 6.914 6.894 6.884 6.909 6.867 6.832 6.819 6.799 6.799 6.739 6.702 6.669 6.657 6.664 6.654 6.622 6.587 6.547 6.502 6.507 6.497 6.479 6.452 6.399 6.389 6.384 6.364 6.357 6.304 6.269 6.229 6.234 6.237 6.222 6.157 6.069 6.044 6.049 6.009 5.957 5.914 5.909 5.862 5.819 5.814 5.817 5.787 5.729 5.677 5.667 5.632 5.567 5.537 5.524 5.502 5.449 5.387 5.392 5.364 5.294 5.282 5.287 5.272 5.209 5.154 5.082 5.064 5.042 5.004 4.947 4.907 4.859 4.877 4.864 4.759 4.759 4.699 4.629 4.554 4.552 4.552 4.512 4.499 4.497 4.502 4.444 4.389 4.369 4.329 4.294 4.269 4.249 4.204 4.152 4.079 4.047 3.989 4.114 4.612 4.219 4.102 4.199 4.147 4.104 4.142 4.179 4.237 4.267 4.287 4.369 4.479 4.512 4.572 4.582 4.587 4.667 4.724 4.824 4.882 5.222 5.082 5.167 5.257 5.357 5.409 5.472 5.529 5.614 5.694 5.772 5.837 5.917 6.007 6.082 6.142 6.209 6.274 6.354 6.417 6.514 6.604 6.712 6.795 6.885 6.975 7.085 7.17 7.275 7.365 7.465 7.585 7.71 7.792 7.872 7.99 8.085 8.177 8.29 8.402 8.457 8.562 8.655 8.712 8.79 8.85 8.897 8.942 9.005 9.082 9.157 9.232 9.32 9.44 9.485 9.53 9.6 9.617 9.612 9.707 9.785 9.88 9.977 9.975 10.065 10.14 10.207 10.255 10.267 10.277 10.342 10.585 10.415 10.447 10.42 10.252 10.202 10.142 10.1 10.027 9.895 12.162 17.225 19.582 18.685 12.387 9.927 9.847 9.772 10.315 10.162 9.607 9.52 9.39 9.202 9.092 8.96 8.832 8.69 8.547 8.372 8.147 7.952 7.77 7.612 7.45 7.307 7.182 7.055 6.91 6.822 6.732 6.632 6.542 6.487 8.445 9.322 7.515 6.527 6.54 6.57 6.815 8.865 8.86 6.222 6.445 7.595 7.895 8.335 8.58 8.715 8.95 9.26 9.522 9.725 9.935 10.172 10.432 10.84 11.212 11.362 11.48 11.545 11.642 11.847 12.03 12.192 12.322 12.452 12.552 12.63 12.777 13.9 14.485 13.722 13.932 13.957 13.972 14.027 13.935 14.162 14.085 13.977 14.207 14.345 14.402 14.505 14.465 14.962 14.782 14.885 15.015 15.302 15.282 15.467 15.587 15.827 17.845 16.39 16.475 17.685 16.99 17.967 17.98 17.515 17.832 17.93 18.035 18.252 18.45 18.63 18.802 19.13 19.252 19.465 19.655 20.035 20.26 20.71 20.99 20.575 20.97 26.645 21.775 21.337 21.477 21.737 23.305 23.277 22.577 22.69 22.955 23.787 23.925 23.995 24.107 24.25 24.472 24.965 25.53 25.67 25.78 25.792 26.002
8.969 8.921 8.891 8.856 8.844 8.846 8.846 8.794 8.799 8.766 8.679 8.651 8.556 8.486 8.444 8.379 8.346 8.286 8.191 8.151 8.089 8.031 8.019 8.009 7.956 7.906 7.909 7.926 7.946 7.949 7.856 7.819 7.751 7.691 7.659 7.606 7.609 7.596 7.601 7.574 7.591 7.597 7.577 7.527 7.529 7.514 7.504 7.439 7.392 7.379 7.359 7.349 7.302 7.317 7.352 7.312 7.264 7.304 7.292 7.272 7.287 7.284 7.292 7.309 7.339 7.282 7.292 7.327 7.319 7.369 7.384 7.382 7.422 7.399 7.367 7.339 7.302 7.254 7.242 7.207 7.204 7.214 7.182 7.227 7.247 7.219 7.214 7.209 7.219 7.184 7.149 7.157 7.164 7.162 7.142 7.109 7.087 7.049 7.014 7.007 7.007 6.964 6.957 6.929 6.909 6.887 6.872 6.829 6.839 6.802 6.744 6.724 6.719 6.709 6.714 6.669 6.637 6.594 6.547 6.534 6.532 6.509 6.494 6.462 6.434 6.412 6.389 6.362 6.309 6.304 6.282 6.264 6.242 6.224 6.169 6.099 6.109 6.074 6.032 5.979 5.982 5.974 5.924 5.887 5.869 5.862 5.819 5.769 5.737 5.712 5.699 5.614 5.567 5.554 5.544 5.497 5.434 5.447 5.424 5.379 5.337 5.332 5.292 5.227 5.182 5.147 5.124 5.064 5.014 4.999 5.004 4.924 4.877 4.867 4.804 4.764 4.694 4.622 4.574 4.579 4.587 4.577 4.554 4.539 4.519 4.467 4.432 4.414 4.374 4.347 4.317 4.292 4.247 4.197 4.129 4.094 4.049 4.077 4.237 4.169 4.144 4.212 4.234 4.179 4.197 4.224 4.249 4.299 4.309 4.357 4.464 4.534 4.552 4.614 4.589 4.672 4.739 4.829 4.897 5.022 5.097 5.177 5.259 5.329 5.424 5.494 5.534 5.624 5.712 5.802 5.867 5.934 6.007 6.074 6.129 6.217 6.304 6.392 6.469 6.529 6.624 6.71 6.805 6.897 6.997 7.11 7.215 7.312 7.41 7.51 7.645 7.767 7.865 7.94 8.045 8.132 8.245 8.337 8.437 8.5 8.6 8.682 8.73 8.802 8.857 8.867 8.967 9.065 9.115 9.182 9.272 9.35 9.437 9.492 9.542 9.595 9.667 9.682 9.687 9.825 9.902 9.99 10.032 10.137 10.167 10.227 10.25 10.312 10.342 10.502 10.5 10.477 10.407 10.282 10.26 10.225 10.197 10.11 10.017 10.025 12.957 17.427 19.317 19.415 15.972 10.012 9.92 9.892 9.812 9.735 9.652 9.552 9.45 9.292 9.18 9.04 8.92 8.782 8.637 8.43 8.247 8.067 7.922 7.737 7.58 7.442 7.287 7.12 6.977 6.935 6.82 6.702 6.622 6.58 7.085 7.62 8.535 6.825 6.6 6.635 6.722 7.162 6.33 6.447 6.695 8.215 8.03 8.195 8.44 8.785 9.075 9.31 9.5 9.71 9.98 10.272 10.492 10.72 10.965 11.167 11.425 11.61 11.78 11.97 12.127 12.255 12.4 12.517 12.632 12.747 12.845 12.98 13.045 13.132 13.22 13.805 14.072 13.96 14.562 14.695 14.315 14.4 14.36 14.395 14.57 14.602 14.775 15.002 15.032 15.27 15.207 15.175 15.312 15.57 15.51 15.75 16.362 16.277 16.452 16.612 16.812 17.122 17.242 17.375 18.067 18.065 18.01 18.165 18.877 18.982 18.802 19.007 19.55 19.507 19.807 19.937 20.032 20.292 20.13 20.327 20.67 21.957 22.155 21.395 21.472 21.697 22.3 23.385 22.647 22.72 22.885 23.287 23.85 23.997 24.14 24.26 24.442 24.832 25.435 25.595 25.705 25.785 26.022
9.046 8.964 8.926 8.894 8.861 8.881 8.886 8.844 8.821 8.809 8.736 8.651 8.586 8.541 8.526 8.486 8.454 8.389 8.301 8.261 8.201 8.129 8.106 8.076 8.049 8.009 8.024 8.034 8.011 7.981 7.919 7.859 7.801 7.759 7.716 7.666 7.641 7.651 7.631 7.646 7.639 7.664 7.652 7.649 7.642 7.607 7.579 7.494 7.452 7.419 7.419 7.414 7.399 7.442 7.422 7.409 7.349 7.364 7.329 7.317 7.327 7.339 7.349 7.352 7.367 7.347 7.352 7.377 7.384 7.427 7.419 7.429 7.454 7.439 7.434 7.387 7.337 7.324 7.304 7.279 7.279 7.259 7.267 7.282 7.317 7.269 7.274 7.294 7.264 7.242 7.229 7.222 7.244 7.232 7.219 7.187 7.142 7.109 7.054 7.042 7.052 7.017 6.979 6.952 6.937 6.914 6.892 6.842 6.854 6.819 6.769 6.749 6.737 6.724 6.724 6.694 6.674 6.614 6.599 6.579 6.574 6.567 6.539 6.502 6.472 6.449 6.417 6.394 6.372 6.357 6.329 6.307 6.294 6.272 6.229 6.162 6.144 6.114 6.099 6.044 6.037 6.032 5.984 5.942 5.902 5.944 5.877 5.839 5.787 5.779 5.739 5.664 5.617 5.602 5.592 5.572 5.502 5.504 5.469 5.424 5.389 5.377 5.329 5.264 5.259 5.184 5.144 5.089 5.049 5.047 4.992 4.959 4.919 4.879 4.847 4.759 4.737 4.664 4.619 4.604 4.609 4.609 4.579 4.569 4.544 4.527 4.469 4.439 4.409 4.359 4.329 4.314 4.284 4.212 4.149 4.112 4.072 4.072 4.152 4.447 4.212 4.259 4.292 4.222 4.237 4.279 4.324 4.307 4.322 4.349 4.462 4.537 4.564 4.644 4.632 4.684 4.752 4.832 4.889 4.994 5.077 5.162 5.252 5.349 5.417 5.479 5.554 5.617 5.747 5.797 5.892 5.964 6.054 6.127 6.179 6.267 6.329 6.384 6.457 6.542 6.627 6.737 6.842 6.947 7.055 7.187 7.292 7.4 7.492 7.61 7.74 7.822 7.935 7.997 8.117 8.212 8.267 8.367 8.435 8.522 8.635 8.702 8.767 8.855 8.925 8.94 9.015 9.095 9.137 9.197 9.275 9.362 9.447 9.512 9.582 9.63 9.692 9.717 9.727 9.805 9.895 9.98 10.095 10.17 10.195 10.252 10.287 10.347 10.42 10.51 10.507 10.44 10.297 10.237 10.272 10.22 10.147 10.182 10.187 10.317 12.175 16.59 18.527 18.415 15.535 10.08 10.015 9.97 9.895 9.792 9.71 9.617 9.515 9.36 9.247 9.132 8.99 8.88 8.737 8.555 8.345 8.182 8.03 7.845 7.665 7.49 7.302 7.127 7.035 6.97 6.87 6.77 6.652 6.457 6.687 7.472 7.792 6.735 6.67 6.685 6.695 6.702 7.045 6.87 6.99 7.45 7.917 8.205 8.517 8.842 9.122 9.32 9.657 9.957 10.175 10.382 10.6 10.802 11.042 11.25 11.51 11.697 11.92 12.09 12.242 12.407 12.542 12.632 12.727 12.795 12.92 13.032 13.14 13.26 13.367 13.432 13.53 13.64 13.84 13.882 14.405 14.975 14.235 14.465 14.56 14.692 14.772 14.907 15.427 15.97 16.032 15.352 15.145 15.327 15.512 15.785 15.975 16.182 16.39 17.225 16.952 18.015 17.11 17.67 17.702 17.702 17.815 18.087 18.342 18.75 19.007 19.167 19.43 19.402 19.64 20.195 19.935 19.967 20.075 20.252 20.497 21.44 22.675 21.472 21.51 21.672 21.945 22.447 22.63 22.742 22.857 23.132 23.672 24.005 24.17 24.275 24.402 24.687 25.125 25.295 25.505 25.72 25.95
9.074 9.059 9.006 8.964 8.926 8.924 8.941 8.904 8.869 8.834 8.751 8.691 8.636 8.596 8.599 8.569 8.556 8.519 8.419 8.389 8.306 8.221 8.199 8.129 8.106 8.114 8.134 8.114 8.091 8.044 7.981 7.919 7.849 7.789 7.756 7.724 7.699 7.701 7.709 7.716 7.721 7.702 7.717 7.742 7.769 7.719 7.652 7.579 7.559 7.504 7.474 7.449 7.462 7.442 7.409 7.444 7.439 7.434 7.387 7.372 7.394 7.399 7.419 7.434 7.392 7.387 7.394 7.429 7.467 7.462 7.464 7.467 7.477 7.454 7.442 7.424 7.377 7.374 7.329 7.334 7.307 7.297 7.312 7.302 7.319 7.312 7.294 7.282 7.292 7.272 7.229 7.214 7.254 7.247 7.234 7.199 7.159 7.142 7.092 7.072 7.042 7.029 6.974 6.952 6.944 6.939 6.919 6.922 6.884 6.849 6.807 6.792 6.777 6.757 6.739 6.729 6.722 6.697 6.652 6.647 6.629 6.627 6.599 6.547 6.524 6.492 6.489 6.462 6.457 6.447 6.404 6.399 6.367 6.334 6.309 6.239 6.207 6.154 6.142 6.109 6.072 6.094 6.044 6.002 5.969 5.944 5.937 5.882 5.842 5.829 5.774 5.749 5.707 5.694 5.639 5.622 5.557 5.524 5.509 5.454 5.429 5.417 5.342 5.314 5.237 5.229 5.167 5.139 5.082 5.069 5.009 4.994 4.937 4.907 4.847 4.799 4.727 4.702 4.669 4.647 4.659 4.634 4.594 4.582 4.587 4.539 4.484 4.462 4.434 4.384 4.362 4.339 4.284 4.237 4.179 4.127 4.082 4.084 4.299 4.834 4.464 4.347 4.327 4.287 4.324 4.359 4.379 4.377 4.372 4.407 4.497 4.547 4.584 4.644 4.652 4.662 4.742 4.807 4.864 4.992 5.064 5.154 5.252 5.367 5.429 5.507 5.584 5.659 5.742 5.797 5.894 5.954 6.039 6.069 6.159 6.249 6.319 6.434 6.494 6.579 6.669 6.795 6.91 7.005 7.137 7.255 7.387 7.492 7.595 7.692 7.802 7.917 7.977 8.057 8.147 8.25 8.322 8.41 8.5 8.602 8.655 8.735 8.825 8.862 8.91 8.965 9.025 9.107 9.165 9.237 9.292 9.362 9.457 9.527 9.587 9.652 9.745 9.757 9.775 9.822 9.912 10.017 10.107 10.172 10.215 10.277 10.347 10.417 10.422 10.467 10.442 10.282 10.275 10.27 10.275 10.245 10.272 10.402 10.535 14.42 15.27 12.73 13.335 11.675 11.185 10.137 10.062 10.03 9.955 9.845 9.762 9.672 9.565 9.43 9.332 9.212 9.105 8.952 8.812 8.64 8.462 8.29 8.13 7.967 7.765 7.56 7.362 7.185 7.065 6.99 6.887 6.785 6.652 6.475 6.325 7.235 7.88 6.75 6.715 6.75 6.78 6.82 7.795 6.952 6.987 7.73 8.017 8.307 8.61 8.937 9.13 9.435 9.992 10.197 10.335 10.462 10.687 10.91 11.157 11.497 11.685 11.837 11.997 12.19 12.372 12.51 12.652 12.747 12.86 12.952 13.047 13.145 13.242 13.327 13.442 13.542 13.642 13.747 13.862 13.95 14.037 14.1 14.202 14.477 14.657 15.202 15.33 15.157 15.457 16.167 16.49 16.095 15.4 15.527 15.562 15.712 16.025 16.162 16.365 16.577 16.902 16.992 17.917 17.902 17.565 17.69 17.922 18.105 18.41 18.745 18.98 19.065 19.36 19.385 19.44 20.697 19.932 19.995 20.02 20.205 20.415 20.877 22.562 21.597 21.57 21.635 21.835 22.35 22.612 22.692 22.842 23.032 23.47 23.935 24.11 24.257 24.447 24.702 24.905 25.162 25.387 25.595 25.822
9.059 9.056 9.009 9.011 9.001 8.999 8.984 8.949 8.919 8.884 8.786 8.731 8.679 8.666 8.631 8.594 8.609 8.589 8.526 8.476 8.374 8.319 8.259 8.239 8.184 8.196 8.219 8.179 8.141 8.114 8.039 7.919 7.879 7.829 7.794 7.779 7.796 7.831 7.834 7.811 7.799 7.772 7.779 7.839 7.862 7.864 7.749 7.659 7.584 7.574 7.534 7.492 7.517 7.504 7.474 7.472 7.487 7.462 7.449 7.429 7.407 7.422 7.449 7.437 7.432 7.459 7.409 7.444 7.454 7.477 7.499 7.464 7.489 7.474 7.462 7.437 7.412 7.377 7.354 7.342 7.334 7.344 7.327 7.319 7.334 7.334 7.309 7.302 7.329 7.294 7.267 7.269 7.279 7.292 7.287 7.262 7.242 7.232 7.192 7.142 7.127 7.069 7.034 7.027 7.014 6.994 7.009 6.987 6.974 6.932 6.887 6.842 6.839 6.789 6.779 6.794 6.802 6.777 6.734 6.692 6.677 6.664 6.649 6.609 6.574 6.582 6.549 6.517 6.532 6.502 6.474 6.462 6.422 6.417 6.357 6.349 6.292 6.274 6.212 6.182 6.177 6.154 6.134 6.077 6.027 6.009 5.999 5.954 5.904 5.867 5.829 5.827 5.797 5.757 5.709 5.682 5.617 5.584 5.544 5.499 5.469 5.427 5.374 5.339 5.294 5.252 5.244 5.174 5.139 5.069 5.037 5.014 4.949 4.957 4.879 4.837 4.767 4.732 4.682 4.669 4.687 4.659 4.632 4.592 4.604 4.567 4.509 4.489 4.452 4.402 4.379 4.362 4.314 4.259 4.199 4.147 4.109 4.122 4.209 4.654 4.392 4.229 4.272 4.297 4.432 4.449 4.439 4.389 4.399 4.444 4.509 4.584 4.612 4.657 4.674 4.662 4.744 4.822 4.857 4.999 5.059 5.154 5.259 5.367 5.424 5.524 5.597 5.667 5.752 5.817 5.902 5.974 6.032 6.107 6.194 6.279 6.372 6.452 6.559 6.634 6.739 6.877 6.97 7.095 7.212 7.345 7.442 7.532 7.647 7.73 7.847 7.935 8.02 8.127 8.225 8.307 8.395 8.445 8.53 8.592 8.68 8.765 8.817 8.88 8.922 9.007 9.035 9.097 9.152 9.22 9.305 9.385 9.482 9.537 9.625 9.687 9.747 9.82 9.817 9.88 9.94 10.045 10.155 10.195 10.297 10.347 10.407 10.425 10.48 10.407 10.295 10.285 10.28 10.31 10.29 10.447 10.587 10.67 11.347 16.8 18.012 15.322 10.492 10.295 10.245 10.17 10.135 10.082 9.995 9.892 9.8 9.727 9.622 9.492 9.38 9.27 9.165 9.037 8.872 8.705 8.557 8.357 8.18 8.002 7.817 7.622 7.432 7.23 7.117 6.99 6.897 6.765 6.64 6.512 6.487 7.077 8.245 6.762 6.742 6.782 6.825 6.857 6.887 6.9 7.01 7.995 8.38 8.455 8.657 8.96 9.137 9.615 10.145 10.367 10.502 10.6 10.77 10.977 11.312 11.872 12.087 12.115 12.157 12.297 12.447 12.58 12.73 12.86 12.957 13.055 13.145 13.27 13.347 13.47 13.595 13.677 13.757 13.845 13.95 14.042 14.12 14.22 14.305 14.417 14.492 14.592 14.732 15.067 16.295 16.58 17.272 15.685 16.152 16.105 16.012 15.762 16.157 16.167 16.33 16.605 16.947 16.907 20.157 17.915 17.572 17.772 18.482 18.342 18.487 19.105 19.082 19.112 19.187 19.23 19.33 20.672 20.162 20.01 20.055 20.155 20.342 20.627 21.205 21.477 21.567 21.64 21.787 22.2 22.582 22.697 22.847 23 23.31 23.71 23.882 24.16 24.395 24.63 24.79 25.027 25.31 25.542 25.727
9.056 9.021 8.961 8.966 8.996 9.014 9.004 8.999 8.966 8.909 8.831 8.794 8.751 8.734 8.676 8.611 8.631 8.604 8.634 8.589 8.504 8.464 8.404 8.334 8.261 8.256 8.261 8.231 8.226 8.174 8.074 7.944 7.906 7.849 7.816 7.836 7.876 7.914 7.899 7.909 7.891 7.862 7.872 7.894 7.919 7.899 7.827 7.732 7.657 7.639 7.622 7.584 7.602 7.559 7.532 7.527 7.527 7.502 7.517 7.529 7.497 7.479 7.469 7.439 7.487 7.477 7.482 7.492 7.514 7.527 7.537 7.519 7.532 7.517 7.517 7.477 7.469 7.422 7.404 7.399 7.424 7.399 7.394 7.392 7.382 7.377 7.379 7.397 7.364 7.347 7.314 7.347 7.332 7.347 7.344 7.322 7.277 7.232 7.269 7.192 7.162 7.144 7.092 7.082 7.082 7.059 7.047 7.022 7.019 7.007 6.954 6.919 6.879 6.847 6.824 6.824 6.804 6.782 6.807 6.774 6.712 6.702 6.697 6.649 6.664 6.622 6.632 6.609 6.597 6.567 6.562 6.522 6.489 6.477 6.459 6.414 6.392 6.329 6.302 6.254 6.254 6.214 6.169 6.139 6.124 6.067 6.034 6.012 5.984 5.917 5.899 5.882 5.834 5.792 5.772 5.712 5.679 5.664 5.614 5.559 5.469 5.437 5.367 5.352 5.309 5.279 5.257 5.184 5.142 5.104 5.054 5.032 5.027 4.957 4.942 4.867 4.784 4.719 4.707 4.674 4.692 4.667 4.629 4.602 4.614 4.584 4.522 4.502 4.457 4.429 4.387 4.367 4.347 4.304 4.222 4.169 4.144 4.144 4.219 4.627 4.429 4.244 4.297 4.322 4.444 4.509 4.474 4.427 4.422 4.442 4.517 4.619 4.624 4.662 4.727 4.664 4.744 4.817 4.867 5.027 5.092 5.144 5.264 5.347 5.422 5.502 5.587 5.669 5.724 5.817 5.892 5.977 6.067 6.149 6.229 6.322 6.417 6.492 6.609 6.719 6.824 6.94 7.05 7.137 7.265 7.365 7.497 7.57 7.7 7.812 7.917 8.015 8.112 8.202 8.272 8.327 8.432 8.495 8.542 8.612 8.705 8.777 8.847 8.897 8.935 9.012 9.06 9.115 9.182 9.265 9.342 9.425 9.495 9.555 9.6 9.687 9.73 9.81 9.845 9.935 10.032 10.065 10.21 10.315 10.35 10.38 10.387 10.435 10.345 10.285 10.325 10.332 10.335 10.367 10.532 10.847 10.822 10.792 10.962 15.29 17.142 13.81 10.41 10.362 10.307 10.255 10.212 10.13 10.04 9.935 9.855 9.77 9.667 9.55 9.445 9.337 9.225 9.075 8.935 8.787 8.63 8.415 8.24 8.055 7.872 7.677 7.475 7.285 7.152 6.985 6.902 6.777 6.642 6.552 6.53 6.972 7.937 7.087 6.8 6.822 6.857 6.897 6.925 6.92 7.03 7.872 8.527 8.557 8.717 9.007 9.245 9.66 10.27 10.512 10.66 10.76 10.852 11.052 11.392 12.002 12.237 12.282 12.305 12.352 12.497 12.66 12.815 12.96 13.077 13.187 13.277 13.36 13.457 13.557 13.692 13.785 13.872 13.98 14.057 14.122 14.197 14.282 14.362 14.477 14.612 14.707 14.822 14.892 15.057 15.342 16.015 17.065 15.975 16.3 16.135 16.197 16.872 16.21 16.18 16.715 16.975 17.017 17.665 18.697 17.79 17.82 17.912 17.93 17.977 18.132 19.777 19.522 19.165 19.2 19.272 20.037 20.425 20.047 20.085 20.137 20.297 20.535 21.072 21.495 21.612 21.662 21.73 22.045 22.5 22.7 22.885 23.07 23.312 23.55 23.79 24.08 24.33 24.497 24.745 25.157 25.39 25.525 25.655
9.104 9.074 8.999 8.961 8.984 8.989 9.001 9.019 9.029 8.969 8.906 8.859 8.801 8.754 8.726 8.694 8.689 8.664 8.681 8.661 8.616 8.584 8.524 8.479 8.429 8.349 8.311 8.329 8.291 8.216 8.129 8.019 7.964 7.934 7.944 7.944 7.986 7.996 7.974 7.971 7.991 7.997 7.974 7.944 7.954 7.919 7.867 7.799 7.754 7.732 7.719 7.664 7.642 7.592 7.582 7.609 7.594 7.554 7.569 7.552 7.534 7.519 7.499 7.499 7.539 7.547 7.529 7.524 7.549 7.537 7.542 7.532 7.552 7.504 7.514 7.494 7.484 7.457 7.437 7.439 7.422 7.422 7.404 7.407 7.412 7.394 7.402 7.407 7.387 7.364 7.347 7.369 7.372 7.342 7.332 7.322 7.289 7.277 7.237 7.217 7.187 7.172 7.134 7.122 7.117 7.104 7.092 7.082 7.047 7.054 6.982 6.947 6.927 6.912 6.874 6.852 6.859 6.802 6.842 6.799 6.754 6.769 6.747 6.712 6.712 6.699 6.702 6.684 6.674 6.644 6.604 6.572 6.534 6.514 6.494 6.462 6.449 6.417 6.387 6.322 6.304 6.287 6.247 6.212 6.192 6.162 6.134 6.092 6.032 5.982 5.947 5.902 5.849 5.834 5.802 5.769 5.742 5.674 5.624 5.579 5.539 5.489 5.464 5.379 5.369 5.352 5.247 5.217 5.184 5.122 5.089 5.057 5.032 4.992 4.939 4.872 4.817 4.787 4.727 4.692 4.682 4.682 4.639 4.617 4.619 4.584 4.522 4.512 4.484 4.439 4.407 4.407 4.364 4.314 4.252 4.182 4.137 4.152 4.229 4.792 4.349 4.277 4.334 4.352 4.454 4.489 4.474 4.437 4.462 4.487 4.534 4.614 4.667 4.684 4.732 4.694 4.749 4.802 4.832 4.937 5.087 5.132 5.267 5.342 5.442 5.512 5.609 5.672 5.739 5.844 5.934 6.032 6.102 6.154 6.272 6.389 6.479 6.604 6.694 6.792 6.887 6.98 7.087 7.222 7.337 7.457 7.567 7.672 7.77 7.867 7.94 8.05 8.16 8.23 8.295 8.375 8.452 8.522 8.565 8.627 8.7 8.81 8.855 8.912 8.962 9.04 9.092 9.162 9.222 9.272 9.33 9.422 9.492 9.567 9.647 9.72 9.822 9.915 9.965 10.01 10.105 10.17 10.242 10.362 10.375 10.387 10.347 10.29 10.317 10.305 10.312 10.312 10.47 10.635 10.69 10.795 10.865 10.77 11.21 11.23 11.595 11.107 10.47 10.42 10.365 10.347 10.295 10.172 10.075 9.997 9.91 9.825 9.717 9.627 9.492 9.387 9.265 9.13 8.985 8.84 8.635 8.447 8.29 8.102 7.962 7.737 7.535 7.347 7.175 7.037 6.935 6.805 6.675 6.602 6.56 6.742 7.802 6.977 6.89 6.86 6.9 6.912 6.907 6.927 7.052 7.787 8.415 8.592 8.832 9.082 9.35 9.72 10.375 10.645 10.785 10.877 10.945 11.115 11.435 12.025 12.322 12.357 12.42 12.487 12.617 12.727 12.855 13.03 13.14 13.272 13.355 13.465 13.585 13.66 13.79 13.905 13.985 14.052 14.165 14.24 14.342 14.422 14.497 14.572 14.665 14.78 14.902 15.032 15.125 15.242 15.665 17.495 17.972 16.245 16.672 16.855 17.08 17.75 17.175 18.042 17.99 18.845 18.282 19.535 19.862 17.64 17.76 17.91 17.887 18.09 18.837 20.175 19.155 19.19 19.222 19.45 20.035 20.047 20.13 20.175 20.29 20.527 20.902 21.415 21.59 21.63 21.712 21.975 22.33 22.547 22.74 22.952 23.252 23.487 23.732 23.965 24.19 24.382 24.815 25.247 25.375 25.502 25.612
9.136 9.106 9.061 9.046 9.009 8.964 8.969 9.004 9.004 8.999 8.981 8.939 8.899 8.844 8.806 8.764 8.759 8.761 8.756 8.704 8.661 8.616 8.589 8.591 8.576 8.484 8.416 8.404 8.334 8.286 8.206 8.116 8.054 8.049 8.041 8.056 8.099 8.091 8.086 8.096 8.079 8.074 8.077 8.032 8.019 7.949 7.899 7.849 7.812 7.759 7.747 7.714 7.699 7.662 7.677 7.614 7.634 7.614 7.624 7.614 7.609 7.549 7.552 7.554 7.579 7.599 7.599 7.589 7.609 7.607 7.589 7.584 7.557 7.557 7.532 7.539 7.492 7.512 7.479 7.467 7.467 7.474 7.467 7.447 7.457 7.444 7.432 7.437 7.452 7.412 7.397 7.387 7.404 7.372 7.352 7.342 7.307 7.312 7.272 7.277 7.262 7.217 7.217 7.184 7.154 7.142 7.112 7.122 7.084 7.077 7.012 6.977 6.944 6.927 6.914 6.884 6.904 6.874 6.862 6.834 6.812 6.797 6.784 6.779 6.777 6.759 6.734 6.727 6.734 6.672 6.667 6.602 6.589 6.572 6.544 6.522 6.499 6.452 6.407 6.384 6.374 6.339 6.294 6.264 6.217 6.182 6.157 6.127 6.064 6.002 5.954 5.894 5.877 5.857 5.842 5.789 5.749 5.682 5.642 5.612 5.527 5.479 5.419 5.417 5.384 5.362 5.307 5.254 5.207 5.162 5.124 5.079 5.047 5.009 4.964 4.892 4.829 4.802 4.752 4.694 4.697 4.694 4.647 4.632 4.617 4.602 4.549 4.512 4.479 4.454 4.447 4.439 4.419 4.354 4.297 4.232 4.199 4.169 4.227 4.752 4.349 4.304 4.387 4.392 4.452 4.489 4.479 4.502 4.504 4.532 4.574 4.642 4.652 4.714 4.747 4.657 4.712 4.739 4.807 4.889 5.002 5.114 5.232 5.344 5.444 5.537 5.609 5.694 5.777 5.869 5.977 6.067 6.159 6.232 6.344 6.432 6.522 6.639 6.739 6.849 6.952 7.075 7.197 7.3 7.41 7.505 7.62 7.737 7.83 7.932 7.995 8.092 8.197 8.265 8.327 8.417 8.515 8.57 8.625 8.68 8.717 8.82 8.892 8.935 8.98 9.02 9.097 9.19 9.257 9.31 9.39 9.482 9.555 9.637 9.707 9.772 9.832 9.937 10.047 10.087 10.147 10.24 10.322 10.367 10.422 10.38 10.3 10.35 10.377 10.34 10.342 10.542 10.757 10.77 10.7 10.802 10.927 11.297 11.632 10.722 10.607 10.572 10.535 10.505 10.482 10.41 10.325 10.225 10.125 10.037 9.922 9.86 9.757 9.67 9.537 9.42 9.317 9.177 9.025 8.862 8.682 8.51 8.342 8.162 7.99 7.797 7.6 7.407 7.235 7.102 6.975 6.847 6.747 6.637 6.562 6.577 8.01 7.215 6.987 6.975 6.922 6.922 6.952 6.962 7.102 7.92 8.552 8.737 8.94 9.177 9.415 9.78 10.44 10.732 10.855 10.95 11.025 11.18 11.487 12.05 12.367 12.405 12.497 12.535 12.655 12.805 12.942 13.105 13.222 13.345 13.465 13.582 13.687 13.785 13.905 14.032 14.115 14.195 14.282 14.36 14.445 14.53 14.635 14.742 14.822 14.935 15.032 15.132 15.242 15.427 15.462 15.795 17.822 17.41 16.977 19.407 17.127 17.38 17.665 17.262 17.415 18.632 17.352 17.48 17.615 17.675 18.12 18.122 18.085 18.142 18.462 21.082 19.25 19.175 19.23 19.345 19.767 20.045 20.127 20.25 20.345 20.522 20.807 21.272 21.497 21.597 21.78 21.972 22.19 22.405 22.682 22.995 23.287 23.512 23.692 23.882 24.125 24.32 24.687 25.197 25.34 25.45 25.557
9.169 9.136 9.089 9.076 9.051 9.031 8.989 8.981 9.001 9.019 9.031 9.001 8.936 8.909 8.884 8.851 8.831 8.824 8.804 8.751 8.684 8.656 8.651 8.654 8.621 8.559 8.539 8.496 8.424 8.356 8.269 8.189 8.149 8.126 8.144 8.161 8.191 8.184 8.191 8.209 8.211 8.184 8.154 8.122 8.084 7.999 7.972 7.902 7.869 7.872 7.824 7.794 7.787 7.737 7.749 7.704 7.689 7.654 7.679 7.667 7.634 7.642 7.634 7.619 7.622 7.634 7.634 7.634 7.609 7.599 7.599 7.617 7.577 7.567 7.554 7.554 7.542 7.544 7.527 7.534 7.557 7.519 7.507 7.517 7.492 7.472 7.472 7.454 7.479 7.469 7.442 7.449 7.449 7.427 7.422 7.382 7.347 7.334 7.317 7.292 7.274 7.247 7.252 7.204 7.184 7.157 7.147 7.142 7.112 7.097 7.062 7.009 6.979 6.984 6.932 6.927 6.944 6.937 6.909 6.889 6.869 6.857 6.844 6.829 6.817 6.807 6.794 6.779 6.739 6.707 6.709 6.639 6.629 6.612 6.594 6.567 6.532 6.494 6.487 6.444 6.404 6.407 6.354 6.327 6.257 6.224 6.217 6.179 6.117 6.049 6.009 5.977 5.917 5.844 5.852 5.809 5.787 5.719 5.674 5.652 5.547 5.482 5.439 5.434 5.424 5.402 5.334 5.292 5.229 5.204 5.132 5.102 5.059 5.014 4.934 4.894 4.862 4.812 4.769 4.722 4.709 4.684 4.659 4.647 4.632 4.622 4.567 4.522 4.514 4.504 4.467 4.459 4.432 4.397 4.324 4.284 4.227 4.177 4.174 4.199 4.112 3.957 4.302 4.487 4.482 4.507 4.524 4.532 4.547 4.572 4.587 4.644 4.692 4.712 4.729 4.664 4.692 4.742 4.787 4.872 4.979 5.084 5.239 5.352 5.462 5.552 5.657 5.729 5.802 5.902 6.004 6.087 6.169 6.274 6.344 6.472 6.599 6.712 6.839 6.947 7.047 7.157 7.285 7.392 7.505 7.62 7.712 7.822 7.892 7.99 8.06 8.147 8.222 8.312 8.372 8.452 8.532 8.587 8.635 8.697 8.765 8.85 8.925 8.97 9.02 9.085 9.147 9.222 9.295 9.357 9.455 9.545 9.662 9.747 9.805 9.877 9.95 10.002 10.042 10.085 10.27 10.442 10.38 10.402 10.355 10.347 10.325 10.342 10.375 10.427 10.632 10.825 10.817 10.757 10.752 11.177 11.477 11.917 11.02 10.682 10.632 10.63 10.61 10.577 10.547 10.455 10.402 10.272 10.185 10.08 9.975 9.887 9.79 9.68 9.555 9.452 9.347 9.227 9.07 8.91 8.752 8.585 8.397 8.212 8.055 7.857 7.672 7.47 7.302 7.162 7.027 6.89 6.792 6.7 6.585 6.61 7.86 8.35 7.407 7.577 7.215 7.225 7.467 7.242 8.377 8.535 8.762 8.855 9.017 9.222 9.467 9.827 10.497 10.812 10.922 11.002 11.097 11.247 11.525 12.097 12.452 12.522 12.567 12.61 12.75 12.87 13.002 13.145 13.305 13.422 13.557 13.682 13.795 13.897 14.017 14.117 14.197 14.3 14.39 14.492 14.575 14.67 14.77 14.845 14.965 15.07 15.19 15.305 16.487 17.437 16.475 15.765 18.172 18.675 16.712 16.962 16.88 16.952 17.042 17.13 17.325 17.61 17.587 17.487 17.64 17.74 18.042 18.12 18.117 18.177 18.325 18.89 19.19 19.18 19.232 19.257 19.655 20.015 20.185 20.297 20.395 20.575 20.825 21.087 21.302 21.492 21.655 21.862 22.16 22.46 22.682 23.045 23.367 23.545 23.662 23.847 24.077 24.267 24.545 25.065 25.295 25.382 25.502
9.201 9.159 9.146 9.114 9.074 9.061 9.036 9.019 9.034 9.026 9.019 9.026 9.014 8.999 8.946 8.921 8.901 8.846 8.786 8.764 8.714 8.696 8.686 8.669 8.631 8.606 8.614 8.564 8.511 8.414 8.326 8.271 8.251 8.264 8.256 8.289 8.301 8.311 8.314 8.304 8.296 8.294 8.232 8.194 8.169 8.102 8.017 7.972 7.924 7.919 7.912 7.872 7.847 7.842 7.814 7.784 7.804 7.712 7.719 7.712 7.727 7.639 7.662 7.649 7.654 7.649 7.627 7.644 7.639 7.627 7.602 7.619 7.584 7.589 7.559 7.582 7.544 7.552 7.557 7.562 7.549 7.547 7.552 7.542 7.517 7.509 7.514 7.512 7.512 7.534 7.497 7.482 7.472 7.477 7.472 7.452 7.412 7.362 7.347 7.314 7.294 7.244 7.242 7.224 7.209 7.189 7.187 7.197 7.187 7.159 7.117 7.054 7.014 7.017 7.012 6.997 6.969 7.002 6.982 6.954 6.912 6.924 6.929 6.892 6.842 6.809 6.812 6.827 6.784 6.739 6.714 6.689 6.684 6.677 6.647 6.627 6.564 6.552 6.527 6.494 6.464 6.417 6.424 6.377 6.322 6.282 6.264 6.242 6.187 6.159 6.102 6.057 5.987 5.934 5.909 5.892 5.847 5.772 5.719 5.684 5.612 5.549 5.489 5.462 5.439 5.387 5.377 5.314 5.252 5.219 5.164 5.159 5.087 4.982 4.924 4.897 4.889 4.822 4.777 4.734 4.724 4.702 4.662 4.649 4.642 4.624 4.587 4.504 4.514 4.507 4.454 4.432 4.454 4.427 4.362 4.299 4.242 4.199 4.174 4.049 4.027 3.699 4.144 4.522 4.524 4.537 4.539 4.554 4.552 4.564 4.592 4.644 4.682 4.714 4.727 4.707 4.702 4.737 4.784 4.877 4.987 5.114 5.232 5.354 5.459 5.574 5.662 5.722 5.824 5.904 6.017 6.122 6.239 6.349 6.469 6.574 6.677 6.809 6.942 6.999 7.129 7.25 7.362 7.48 7.565 7.662 7.772 7.855 7.935 8.035 8.107 8.197 8.265 8.362 8.42 8.472 8.547 8.617 8.662 8.717 8.79 8.847 8.93 8.987 9.052 9.145 9.215 9.27 9.377 9.45 9.525 9.635 9.702 9.79 9.875 9.97 10.047 10.097 10.115 10.23 10.39 10.385 10.365 10.332 10.377 10.362 10.32 10.36 10.457 10.725 11.115 11.207 10.812 10.617 10.755 11.337 11.59 12.02 10.76 10.72 10.707 10.69 10.64 10.607 10.585 10.475 10.402 10.315 10.217 10.137 10 9.902 9.795 9.712 9.61 9.502 9.372 9.26 9.11 8.955 8.792 8.6 8.472 8.297 8.14 7.94 7.732 7.572 7.412 7.222 7.072 6.952 6.855 6.775 6.61 6.45 7.585 8.195 7.42 7.68 8.915 8.177 8.272 8.052 8.617 8.707 9.195 9.057 9.135 9.317 9.522 9.867 10.515 10.867 10.975 11.067 11.16 11.33 11.565 12.062 12.522 12.585 12.615 12.702 12.805 12.955 13.092 13.235 13.395 13.512 13.617 13.762 13.882 14.02 14.145 14.26 14.33 14.415 14.502 14.59 14.652 14.755 14.852 14.967 15.037 15.167 15.31 15.455 17.057 17.16 15.732 15.807 16.062 17.465 16.737 16.885 16.952 17.072 17.147 17.202 17.395 17.642 17.61 17.557 17.682 17.77 17.865 18.13 18.095 18.175 18.26 18.642 19.11 19.242 19.255 19.302 19.535 19.965 20.147 20.315 20.485 20.652 20.827 20.997 21.195 21.332 21.482 21.727 22.217 22.48 22.637 22.917 23.39 23.545 23.655 23.775 24.02 24.207 24.407 24.867 25.247 25.367 25.455
9.226 9.211 9.164 9.144 9.114 9.076 9.099 9.071 9.061 9.041 9.039 9.036 9.029 8.999 8.976 8.984 8.994 8.919 8.849 8.801 8.734 8.721 8.696 8.679 8.656 8.656 8.641 8.616 8.566 8.464 8.414 8.374 8.371 8.386 8.419 8.424 8.441 8.434 8.389 8.401 8.381 8.364 8.309 8.297 8.252 8.177 8.097 8.047 8.047 8.009 7.959 7.964 7.954 7.914 7.867 7.869 7.822 7.859 7.779 7.792 7.747 7.692 7.709 7.682 7.684 7.664 7.664 7.657 7.649 7.654 7.652 7.692 7.642 7.659 7.652 7.629 7.592 7.584 7.577 7.584 7.589 7.557 7.572 7.584 7.579 7.587 7.559 7.552 7.562 7.554 7.529 7.517 7.512 7.492 7.474 7.474 7.449 7.412 7.362 7.317 7.309 7.282 7.254 7.227 7.232 7.239 7.227 7.219 7.204 7.197 7.149 7.104 7.057 7.052 7.042 7.034 7.039 7.054 7.044 7.012 6.967 6.974 6.997 6.942 6.897 6.857 6.864 6.874 6.847 6.814 6.804 6.777 6.732 6.739 6.692 6.672 6.612 6.582 6.604 6.567 6.557 6.544 6.512 6.464 6.409 6.407 6.354 6.339 6.292 6.229 6.172 6.137 6.067 5.989 5.962 5.967 5.909 5.854 5.794 5.732 5.667 5.612 5.554 5.527 5.457 5.399 5.377 5.354 5.282 5.227 5.167 5.137 5.029 4.999 4.954 4.929 4.902 4.857 4.789 4.722 4.707 4.692 4.644 4.607 4.577 4.589 4.572 4.514 4.499 4.474 4.464 4.467 4.467 4.442 4.412 4.354 4.287 4.229 4.189 4.062 4.032 3.824 4.004 4.549 4.539 4.537 4.537 4.572 4.569 4.599 4.604 4.652 4.709 4.707 4.747 4.729 4.692 4.737 4.787 4.859 4.962 5.092 5.204 5.334 5.434 5.549 5.654 5.742 5.867 5.964 6.069 6.184 6.312 6.419 6.552 6.662 6.764 6.884 6.999 7.107 7.214 7.315 7.43 7.525 7.612 7.712 7.79 7.88 7.987 8.042 8.12 8.232 8.315 8.367 8.43 8.47 8.535 8.605 8.68 8.712 8.842 8.88 8.967 9.07 9.147 9.192 9.252 9.347 9.432 9.512 9.595 9.69 9.767 9.857 9.972 10.067 10.162 10.212 10.382 10.305 10.375 10.327 10.227 10.34 10.345 10.355 10.36 10.4 10.742 11.057 11.805 11.507 10.815 10.812 10.772 10.71 11.42 12.082 10.932 10.785 10.75 10.76 10.675 10.68 10.635 10.542 10.412 10.36 10.257 10.202 10.09 9.957 9.857 9.755 9.657 9.507 9.427 9.297 9.175 9.012 8.852 8.682 8.527 8.365 8.18 8.005 7.812 7.627 7.445 7.285 7.13 7 6.925 6.847 6.667 6.627 6.945 6.9 6.997 7.18 7.34 7.445 7.587 7.78 8.237 8.712 8.997 9.14 9.212 9.352 9.565 9.875 10.467 10.9 11.035 11.115 11.207 11.357 11.59 11.982 12.552 12.662 12.7 12.742 12.855 13.002 13.157 13.31 13.452 13.62 13.755 13.89 14.02 14.117 14.235 14.342 14.45 14.55 14.637 14.72 14.785 14.857 14.967 15.07 15.17 15.27 15.475 15.59 15.82 15.842 15.847 15.895 16.325 17.962 16.752 16.897 17.007 17.097 17.2 17.27 17.372 17.615 17.627 17.637 17.715 17.812 17.875 18.027 18.09 18.182 18.27 18.5 19.057 19.262 19.31 19.38 19.492 19.82 20.052 20.24 20.405 20.597 20.725 20.865 20.992 21.185 21.36 21.62 22.177 22.48 22.63 22.835 23.312 23.557 23.635 23.732 23.925 24.14 24.315 24.667 25.137 25.32 25.42
9.266 9.241 9.211 9.166 9.156 9.131 9.131 9.109 9.101 9.074 9.031 9.039 9.014 8.999 9.001 8.981 8.981 8.976 8.961 8.934 8.856 8.791 8.764 8.731 8.694 8.696 8.704 8.701 8.634 8.551 8.519 8.474 8.466 8.491 8.476 8.516 8.521 8.506 8.481 8.461 8.459 8.427 8.369 8.337 8.297 8.282 8.199 8.157 8.092 8.072 8.054 8.034 7.992 7.944 7.914 7.927 7.902 7.862 7.869 7.839 7.807 7.734 7.729 7.704 7.714 7.699 7.702 7.699 7.687 7.682 7.692 7.732 7.707 7.707 7.689 7.659 7.627 7.637 7.584 7.594 7.607 7.619 7.639 7.607 7.607 7.619 7.614 7.587 7.612 7.582 7.557 7.559 7.532 7.527 7.542 7.539 7.477 7.467 7.447 7.387 7.392 7.349 7.349 7.294 7.274 7.284 7.262 7.274 7.274 7.247 7.222 7.159 7.124 7.122 7.112 7.119 7.094 7.119 7.102 7.062 7.012 7.012 7.029 7.009 6.967 6.949 6.917 6.927 6.917 6.877 6.869 6.852 6.817 6.789 6.764 6.717 6.694 6.642 6.642 6.652 6.617 6.594 6.579 6.542 6.474 6.452 6.437 6.409 6.382 6.324 6.239 6.199 6.137 6.079 6.029 6.007 5.949 5.922 5.849 5.804 5.732 5.662 5.594 5.549 5.527 5.422 5.359 5.329 5.274 5.239 5.169 5.127 5.084 5.049 4.969 4.922 4.904 4.839 4.767 4.719 4.709 4.707 4.647 4.592 4.582 4.582 4.577 4.512 4.504 4.499 4.472 4.479 4.509 4.489 4.434 4.377 4.312 4.274 4.234 4.094 4.042 3.934 3.939 4.562 4.529 4.562 4.562 4.592 4.594 4.632 4.649 4.662 4.712 4.729 4.754 4.784 4.732 4.727 4.777 4.829 4.917 5.054 5.164 5.324 5.467 5.587 5.687 5.797 5.902 6.042 6.109 6.262 6.372 6.509 6.644 6.734 6.829 6.962 7.057 7.164 7.267 7.36 7.477 7.597 7.675 7.735 7.825 7.905 8.007 8.057 8.122 8.205 8.295 8.367 8.447 8.525 8.587 8.667 8.742 8.807 8.87 8.96 9.062 9.125 9.212 9.275 9.342 9.417 9.5 9.587 9.667 9.745 9.845 9.952 10.037 10.165 10.24 10.25 10.35 10.325 10.222 10.27 10.287 10.332 10.385 10.352 10.387 10.667 10.87 10.985 11.242 11.047 10.665 10.697 10.677 10.675 11.942 11.297 10.825 10.815 10.802 10.805 10.76 10.73 10.665 10.585 10.497 10.425 10.365 10.29 10.157 10.002 9.887 9.782 9.697 9.587 9.48 9.362 9.225 9.035 8.895 8.747 8.562 8.407 8.24 8.082 7.862 7.662 7.53 7.315 7.177 7.057 6.985 6.88 6.762 6.73 6.822 6.862 7.002 7.22 7.437 7.535 7.652 7.805 8.337 8.89 9.125 9.28 9.317 9.43 9.642 9.872 10.447 10.93 11.105 11.192 11.275 11.422 11.635 11.977 12.56 12.705 12.745 12.797 12.902 13.08 13.217 13.382 13.545 13.695 13.832 13.97 14.125 14.245 14.37 14.482 14.575 14.667 14.727 14.81 14.9 15.002 15.115 15.205 15.31 15.407 15.557 15.702 15.78 15.86 15.985 16.022 16.337 18.52 16.88 16.952 17.09 17.177 17.242 17.317 17.432 17.575 17.617 17.682 17.767 17.87 17.967 18.067 18.175 18.262 18.34 18.51 18.86 19.315 19.392 19.515 19.66 19.86 20.002 20.16 20.3 20.415 20.545 20.7 20.87 21.085 21.27 21.5 22.012 22.48 22.61 22.747 23.112 23.53 23.647 23.722 23.81 24.032 24.235 24.447 24.982 25.295 25.42
9.286 9.271 9.251 9.199 9.194 9.186 9.149 9.131 9.106 9.079 9.084 9.056 9.056 9.031 9.024 8.969 8.986 9.001 9.009 9.004 8.979 8.916 8.864 8.836 8.786 8.774 8.759 8.739 8.711 8.646 8.594 8.564 8.579 8.579 8.561 8.591 8.586 8.594 8.586 8.551 8.536 8.507 8.424 8.414 8.382 8.364 8.314 8.262 8.174 8.159 8.132 8.102 8.077 8.074 8.029 8.017 8.009 7.957 7.954 7.927 7.877 7.824 7.794 7.772 7.764 7.777 7.769 7.789 7.779 7.752 7.784 7.784 7.787 7.767 7.764 7.732 7.707 7.687 7.657 7.657 7.674 7.669 7.662 7.679 7.694 7.687 7.684 7.637 7.644 7.642 7.652 7.597 7.582 7.597 7.624 7.579 7.564 7.554 7.499 7.489 7.437 7.427 7.392 7.357 7.314 7.319 7.317 7.319 7.294 7.299 7.259 7.199 7.162 7.139 7.154 7.154 7.129 7.159 7.157 7.109 7.072 7.059 7.062 7.069 7.044 6.989 6.994 6.974 6.964 6.959 6.959 6.927 6.914 6.874 6.839 6.814 6.772 6.727 6.712 6.719 6.692 6.657 6.637 6.614 6.544 6.512 6.504 6.484 6.437 6.382 6.324 6.264 6.184 6.147 6.089 6.057 6.012 5.949 5.867 5.852 5.787 5.707 5.664 5.594 5.567 5.497 5.412 5.334 5.319 5.259 5.189 5.147 5.129 5.044 4.967 4.919 4.872 4.857 4.784 4.699 4.684 4.697 4.672 4.597 4.562 4.572 4.572 4.524 4.517 4.534 4.534 4.519 4.537 4.519 4.462 4.397 4.337 4.309 4.277 4.164 4.084 4.002 3.944 4.574 4.549 4.562 4.572 4.614 4.627 4.664 4.674 4.687 4.747 4.712 4.757 4.747 4.694 4.747 4.789 4.832 4.937 5.079 5.222 5.384 5.509 5.607 5.732 5.819 5.957 6.072 6.184 6.312 6.429 6.562 6.707 6.807 6.882 6.997 7.114 7.237 7.327 7.435 7.535 7.615 7.71 7.775 7.865 7.935 7.992 8.09 8.17 8.272 8.347 8.437 8.505 8.57 8.632 8.71 8.772 8.847 8.945 9.027 9.105 9.167 9.275 9.332 9.395 9.48 9.555 9.642 9.735 9.82 9.91 10.087 10.132 10.24 10.26 10.27 10.217 10.172 10.235 10.285 10.332 10.317 10.355 10.362 10.497 10.837 10.892 10.922 10.975 10.847 10.632 10.62 10.662 10.762 11.912 10.91 10.852 10.867 10.805 10.807 10.83 10.765 10.69 10.572 10.515 10.442 10.382 10.295 10.205 10.072 9.937 9.835 9.722 9.64 9.52 9.407 9.272 9.095 8.962 8.795 8.625 8.47 8.292 8.117 7.932 7.752 7.575 7.402 7.265 7.16 7.062 6.962 6.827 6.677 6.712 6.935 7.077 7.245 7.432 7.65 7.777 7.875 8.287 8.94 9.235 9.362 9.362 9.472 9.667 9.862 10.412 10.942 11.155 11.27 11.362 11.452 11.645 11.955 12.51 12.752 12.772 12.83 12.937 13.107 13.257 13.402 13.587 13.77 13.925 14.075 14.217 14.337 14.455 14.577 14.7 14.797 14.885 14.982 15.057 15.137 15.24 15.345 15.465 15.58 15.637 15.822 15.895 15.992 16.105 16.222 16.275 18.76 17.225 17.007 17.15 17.267 17.327 17.41 17.5 17.577 17.675 17.752 17.805 17.88 18.012 18.155 18.275 18.402 18.502 18.63 18.945 19.287 19.455 19.592 19.705 19.817 19.912 20.027 20.147 20.3 20.475 20.622 20.787 21.022 21.242 21.437 21.85 22.435 22.605 22.71 22.965 23.457 23.655 23.69 23.737 23.932 24.185 24.38 24.8 25.245 25.397
