ncols 484
nrows 31
xllcorner    463008
yllcorner    88362
cellsize     2
NODATA_value -9999
-0.836 -0.796 -0.773 -0.749 -0.692 -0.658 -0.575 -0.535 -0.502 -0.422 -0.455 -0.435 -0.385 -0.35 -0.352 -0.33 -0.35 -0.327 -0.335 -0.32 -0.332 -0.295 -0.287 -0.292 -0.272 -0.247 -0.257 -0.242 -0.262 -0.277 -0.242 -0.227 -0.207 -0.28 -0.265 -0.217 -0.145 -0.08 -0.09 -0.095 -0.095 -0.107 -0.13 -0.117 -0.085 -0.052 -0.028 0.005 -0.003 -0.033 -0.063 -0.028 0.017 0.015 0.02 -0.035 -0.033 -0.01 -0.043 -0.093 -0.095 -0.075 -0.028 0.01 0.06 0.047 0.075 0.082 0.107 0.112 0.09 0.13 0.135 0.15 0.092 0.042 0.077 0.147 0.235 0.272 0.335 0.257 0.217 0.27 0.402 0.837 1.622 2.185 1.757 1.14 0.827 0.915 1.1 1.275 1.482 1.985 1.727 1.932 1.925 1.975 1.885 1.795 2.04 2.762 2.065 2.43 1.845 1.772 2.12 2.225 1.617 1.457 1.462 1.427 1.402 1.347 1.222 1.297 1.272 1.307 1.387 1.487 1.585 1.497 1.565 1.522 1.53 1.605 1.607 1.56 1.535 1.517 1.497 1.517 1.52 1.527 1.567 1.57 1.52 1.552 1.54 1.505 1.495 1.452 1.57 1.537 1.567 1.587 1.54 1.55 1.557 1.557 1.542 1.542 1.575 1.51 1.487 1.515 1.517 1.477 1.437 1.467 1.542 1.575 1.547 1.522 1.57 1.597 1.617 1.662 1.672 1.69 1.712 1.735 1.79 1.772 1.777 1.845 1.535 1.382 1.46 1.387 1.332 1.27 1.262 1.292 1.377 1.427 1.417 1.392 1.402 1.387 1.365 1.35 1.33 1.32 1.307 1.292 1.282 1.27 1.27 1.287 1.277 1.277 1.257 1.257 1.245 1.215 1.217 1.227 1.215 1.207 1.202 1.202 1.167 1.17 1.147 1.142 1.132 1.127 1.11 1.09 1.092 1.072 1.07 1.057 1.032 1.035 1.032 1.042 1.062 1.046 1.042 1.039 1.058 1.048 1.028 1.006 0.946 0.869 0.859 0.859 0.948 1.446 1.368 1.921 2.577 2.919 3.955 4.67 4.818 4.332 3.702 3.509 3.533 3.625 3.64 3.612 3.58 3.528 3.544 3.587 3.611 3.364 2.837 2.58 2.105 1.814 1.597 1.515 1.398 1.331 1.204 1.083 0.974 0.763 0.75 0.655 0.632 0.443 0.416 0.35 0.287 0.212 0.214 0.144 0.013 -0.019 -0.015 -0.031 -0.159 -0.149 -0.144 -0.24 -0.322 -0.342 -0.342 -0.381 -0.46 -0.498 -0.57 -0.523 -0.542 -0.55 -0.561 -0.551 -0.575 -0.558 -0.579 -0.611 -0.614 -0.647 -0.645 -0.631 -0.647 -0.66 -0.639 -0.612 -0.651 -0.629 -0.65 -0.65 -0.674 -0.704 -0.73 -0.766 -0.781 -0.749 -0.731 -0.786 -0.728 -0.785 -0.817 -0.771 -0.767 -0.757 -0.721 -0.809 -0.813 -0.794 -0.829 -0.889 -0.888 -0.89 -0.766 -0.766 -0.807 -0.897 -0.816 -0.765 -0.707 -0.684 -0.659 -0.663 -0.728 -0.743 -0.647 -0.689 -0.665 -0.672 -0.686 -0.611 -0.656 -0.687 -0.727 -0.791 -0.735 -0.753 -0.673 -0.704 -0.67 -0.669 -0.631 -0.602 -0.615 -0.682 -0.647 -0.716 -0.672 -0.695 -0.653 -0.701 -0.697 -0.643 -0.678 -0.642 -0.601 -0.634 -0.763 -0.697 -0.673 -0.681 -0.621 -0.645 -0.656 -0.665 -0.633 -0.705 -0.696 -0.748 -0.679 -0.696 -0.731 -0.73 -0.741 -0.709 -0.706 -0.724 -0.72 -0.752 -0.73 -0.793 -0.699 -0.699 -0.739 -0.709 -0.772 -0.697 -0.795 -0.834 -0.722 -0.718 -0.807 -0.746 -0.76 -0.755 -0.789 -0.8 -0.792 -0.813 -0.809 -0.877 -0.879 -0.921 -0.902 -0.901 -0.903 -0.877 -0.908 -0.923 -0.896 -0.893 -0.914 -0.912 -0.901 -0.965 -0.955 -0.935 -0.916 -0.894 -0.931 -0.9 -0.959 -0.983 -0.989 -0.963 -0.993 -1.032 -1.014 -1.024 -1.03 -1.034 -1.053 -1.046 -1.072 -1.087 -1.099 -1.055 -1.094 -1.122 -1.046 -1.052 -1.059 -1.106 -1.098 -1.107 -1.076 -1.054 -1.076 -1.124 -1.033 -1.004 -0.198 -0.374
-0.792 -0.797 -0.765 -0.797 -0.75 -0.692 -0.605 -0.587 -0.545 -0.502 -0.457 -0.435 -0.412 -0.367 -0.39 -0.37 -0.36 -0.34 -0.33 -0.327 -0.327 -0.322 -0.282 -0.282 -0.29 -0.257 -0.24 -0.247 -0.26 -0.275 -0.24 -0.197 -0.195 -0.24 -0.222 -0.217 -0.137 -0.097 -0.107 -0.102 -0.11 -0.14 -0.142 -0.105 -0.095 -0.057 -0.058 -0.035 -0.05 -0.045 -0.065 -0.013 0.022 0.04 0.037 0.005 -0.038 -0.013 -0.065 -0.103 -0.033 -0.02 -0.01 0.03 0.055 0.072 0.09 0.135 0.087 0.082 0.13 0.177 0.235 0.247 0.225 0.25 0.187 0.132 0.155 0.245 0.385 0.485 0.465 0.415 0.332 0.317 0.797 1.485 1.65 1.827 1.35 0.917 0.835 0.875 1.075 1.417 1.542 1.582 2.542 1.925 1.705 1.585 1.837 1.965 2.272 1.707 1.622 2.025 2.502 2.177 1.76 1.5 1.375 1.41 1.395 1.485 1.542 1.39 1.347 1.357 1.27 1.317 1.305 1.387 1.44 1.577 1.565 1.617 1.56 1.512 1.482 1.512 1.562 1.565 1.45 1.557 1.547 1.615 1.557 1.567 1.557 1.58 1.55 1.497 1.5 1.517 1.552 1.577 1.535 1.51 1.527 1.565 1.532 1.47 1.582 1.505 1.505 1.482 1.505 1.492 1.447 1.497 1.56 1.542 1.555 1.542 1.555 1.575 1.557 1.61 1.702 1.675 1.725 1.725 1.73 1.725 1.792 1.782 1.432 1.35 1.41 1.345 1.31 1.225 1.255 1.292 1.347 1.35 1.375 1.352 1.385 1.325 1.355 1.297 1.282 1.285 1.292 1.277 1.275 1.29 1.292 1.277 1.255 1.28 1.282 1.232 1.205 1.165 1.207 1.192 1.177 1.187 1.16 1.172 1.177 1.157 1.147 1.13 1.132 1.12 1.127 1.09 1.122 1.1 1.077 1.06 1.035 1.032 1.037 1.002 1.024 1.029 1.033 1.038 1.053 1.028 1.038 1.009 0.911 0.881 0.888 0.905 1.073 1.357 1.141 0.604 1.937 2.287 2.911 4.48 4.753 4.564 4.179 3.507 3.455 3.533 3.642 3.616 3.588 3.724 3.535 3.494 3.51 3.552 3.459 3.362 3.042 2.456 1.984 1.82 1.655 1.51 1.377 1.263 1.178 0.995 0.951 0.828 0.736 0.577 0.55 0.457 0.382 0.311 0.29 0.221 0.106 0.094 0.045 0.026 -0.052 -0.078 -0.092 -0.165 -0.254 -0.268 -0.288 -0.312 -0.393 -0.399 -0.493 -0.487 -0.528 -0.551 -0.522 -0.532 -0.556 -0.575 -0.575 -0.596 -0.578 -0.605 -0.603 -0.603 -0.611 -0.624 -0.624 -0.616 -0.685 -0.598 -0.64 -0.637 -0.631 -0.65 -0.663 -0.705 -0.752 -0.736 -0.724 -0.786 -0.787 -0.782 -0.797 -0.657 -0.75 -0.736 -0.78 -0.86 -0.794 -0.779 -0.904 -0.91 -0.874 -0.849 -0.804 -0.782 -0.867 -0.891 -0.859 -0.822 -0.728 -0.713 -0.642 -0.648 -0.658 -0.665 -0.721 -0.711 -0.665 -0.68 -0.671 -0.662 -0.695 -0.671 -0.681 -0.745 -0.744 -0.711 -0.604 -0.633 -0.67 -0.655 -0.643 -0.65 -0.624 -0.604 -0.707 -0.638 -0.684 -0.658 -0.658 -0.731 -0.665 -0.632 -0.666 -0.691 -0.692 -0.648 -0.734 -0.665 -0.626 -0.695 -0.625 -0.611 -0.601 -0.66 -0.661 -0.692 -0.669 -0.686 -0.673 -0.7 -0.716 -0.638 -0.741 -0.651 -0.719 -0.662 -0.717 -0.723 -0.756 -0.752 -0.795 -0.703 -0.705 -0.731 -0.724 -0.728 -0.742 -0.777 -0.733 -0.696 -0.828 -0.8 -0.79 -0.824 -0.737 -0.801 -0.785 -0.912 -0.889 -0.878 -0.919 -0.858 -0.843 -0.904 -0.819 -0.859 -0.901 -0.874 -0.875 -0.902 -0.863 -0.893 -0.914 -0.901 -0.915 -0.875 -0.89 -0.904 -0.947 -0.976 -0.943 -0.995 -0.99 -1.023 -1.039 -1.021 -0.977 -1.006 -1.018 -1.057 -1.054 -1.028 -1.039 -1.046 -1.028 -1.015 -1.06 -0.995 -1.057 -1.051 -1.039 -1.026 -1.055 -1.034 -1.026 -1.023 -1.018 -0.807 -0.808 -0.755 -0.636 -0.111
-0.757 -0.851 -0.736 -0.751 -0.741 -0.701 -0.62 -0.587 -0.515 -0.532 -0.485 -0.445 -0.44 -0.38 -0.41 -0.355 -0.37 -0.355 -0.327 -0.325 -0.345 -0.317 -0.295 -0.292 -0.262 -0.252 -0.257 -0.237 -0.27 -0.262 -0.212 -0.167 -0.162 -0.222 -0.252 -0.22 -0.155 -0.13 -0.075 -0.115 -0.14 -0.187 -0.187 -0.147 -0.107 -0.097 -0.053 -0.038 -0.03 -0.065 -0.04 -0.018 -0.015 0.027 0.02 -0 -0.038 -0.048 -0.065 -0.01 0.017 -0.005 -0.01 0.015 0.032 0.075 0.132 0.117 0.085 0.085 0.172 0.237 0.292 0.327 0.33 0.352 0.37 0.32 0.235 0.247 0.297 0.387 0.437 0.522 0.557 0.412 0.617 0.317 0.525 0.997 1.24 1.422 1.21 0.837 0.82 0.962 1.265 1.462 1.527 1.622 1.495 1.432 1.325 2.352 1.367 1.382 1.392 1.727 2.117 2.362 2.225 1.852 1.502 1.46 1.437 1.485 1.39 1.542 1.577 1.52 1.427 1.367 1.282 1.31 1.452 1.415 1.46 1.557 1.565 1.575 1.542 1.52 1.527 1.465 1.515 1.567 1.587 1.612 1.54 1.555 1.512 1.555 1.552 1.53 1.507 1.502 1.497 1.525 1.492 1.495 1.492 1.537 1.535 1.48 1.51 1.49 1.512 1.495 1.465 1.45 1.477 1.487 1.555 1.555 1.572 1.575 1.537 1.63 1.582 1.615 1.662 1.65 1.705 1.725 1.742 1.74 1.852 1.647 1.385 1.332 1.347 1.27 1.23 1.215 1.25 1.34 1.362 1.342 1.327 1.345 1.38 1.337 1.287 1.292 1.287 1.285 1.295 1.275 1.285 1.29 1.297 1.252 1.225 1.23 1.27 1.25 1.227 1.225 1.172 1.187 1.177 1.157 1.145 1.152 1.187 1.14 1.147 1.132 1.127 1.13 1.107 1.092 1.09 1.062 1.1 1.037 1.042 1.03 1.032 1.025 1.034 1.024 1.025 1.017 1.031 1.03 1.014 0.975 0.926 0.912 0.929 0.999 1.238 1.395 0.753 0.387 0.376 0.928 1.204 2.154 2.77 4.188 3.927 4.081 3.641 3.506 3.681 3.672 3.815 3.59 3.522 3.496 3.488 3.42 3.501 3.61 3.51 3.089 2.714 2.304 2.106 1.749 1.567 1.458 1.375 1.194 1.108 0.955 0.894 0.751 0.681 0.582 0.567 0.441 0.369 0.282 0.155 0.179 0.127 0.102 0.021 0.037 -0.004 -0.105 -0.148 -0.196 -0.272 -0.277 -0.315 -0.316 -0.398 -0.47 -0.475 -0.46 -0.475 -0.461 -0.506 -0.553 -0.572 -0.582 -0.576 -0.558 -0.511 -0.623 -0.594 -0.543 -0.597 -0.587 -0.65 -0.58 -0.622 -0.633 -0.629 -0.684 -0.712 -0.733 -0.681 -0.728 -0.737 -0.732 -0.735 -0.868 -0.741 -0.741 -0.696 -0.65 -0.813 -0.808 -0.84 -0.853 -0.861 -0.863 -0.922 -0.76 -0.779 -0.671 -0.807 -0.805 -0.879 -0.77 -0.789 -0.663 -0.697 -0.645 -0.644 -0.703 -0.723 -0.701 -0.598 -0.661 -0.626 -0.686 -0.629 -0.725 -0.674 -0.728 -0.675 -0.704 -0.636 -0.578 -0.677 -0.628 -0.641 -0.624 -0.561 -0.626 -0.632 -0.674 -0.602 -0.65 -0.712 -0.594 -0.554 -0.602 -0.616 -0.624 -0.638 -0.603 -0.716 -0.637 -0.643 -0.652 -0.687 -0.679 -0.624 -0.631 -0.643 -0.67 -0.629 -0.707 -0.646 -0.651 -0.714 -0.643 -0.716 -0.663 -0.672 -0.689 -0.772 -0.675 -0.685 -0.732 -0.677 -0.742 -0.788 -0.783 -0.717 -0.668 -0.681 -0.765 -0.758 -0.75 -0.719 -0.729 -0.744 -0.773 -0.824 -0.825 -0.829 -0.825 -0.804 -0.886 -0.822 -0.892 -0.838 -0.883 -0.853 -0.846 -0.844 -0.894 -0.928 -0.86 -0.922 -0.833 -0.93 -0.885 -0.899 -0.888 -0.967 -0.905 -0.891 -0.918 -1.008 -1.038 -0.976 -0.969 -0.998 -1.036 -1.054 -1.042 -1.035 -1.002 -1.028 -1.082 -1.067 -1.013 -1.046 -1.084 -0.985 -1.018 -1.033 -1.02 -1.052 -1.029 -1.032 -0.979 -0.977 -0.956 -0.778 -0.547 -0.748 -0.573 -0.006 -0.127
-0.773 -0.828 -0.703 -0.704 -0.728 -0.693 -0.632 -0.597 -0.567 -0.525 -0.507 -0.452 -0.427 -0.407 -0.377 -0.352 -0.39 -0.382 -0.35 -0.347 -0.342 -0.332 -0.312 -0.3 -0.262 -0.267 -0.237 -0.22 -0.225 -0.225 -0.21 -0.162 -0.172 -0.155 -0.202 -0.225 -0.167 -0.105 -0.095 -0.137 -0.142 -0.197 -0.197 -0.147 -0.125 -0.112 -0.073 -0.035 -0.025 -0.038 -0.045 -0.02 -0.025 -0.015 -0.04 -0.025 -0.04 -0.04 -0.053 0.01 0.005 -0.013 0.012 0.06 0.067 0.067 0.1 0.095 0.08 0.147 0.195 0.302 0.352 0.38 0.38 0.42 0.457 0.455 0.405 0.35 0.325 0.362 0.442 0.442 0.467 0.515 0.497 0.377 0.355 0.292 0.61 0.855 1.14 1.262 1.287 1 0.89 1.005 1.105 1.247 1.347 1.275 1.042 0.982 0.972 0.977 1.185 1.382 1.37 1.755 2.155 2.32 2.002 1.805 1.61 1.582 1.502 1.527 1.545 1.535 1.5 1.467 1.415 1.347 1.382 1.242 1.357 1.465 1.472 1.542 1.602 1.59 1.542 1.502 1.517 1.547 1.605 1.59 1.537 1.542 1.525 1.54 1.535 1.53 1.497 1.497 1.485 1.462 1.43 1.46 1.46 1.48 1.495 1.455 1.465 1.45 1.45 1.485 1.49 1.455 1.512 1.522 1.567 1.517 1.525 1.547 1.575 1.557 1.577 1.637 1.655 1.645 1.697 1.705 1.737 1.812 1.872 1.547 1.402 1.327 1.337 1.247 1.225 1.235 1.255 1.325 1.342 1.36 1.342 1.332 1.327 1.32 1.29 1.3 1.287 1.27 1.29 1.315 1.277 1.287 1.285 1.267 1.295 1.272 1.26 1.24 1.222 1.202 1.202 1.195 1.177 1.157 1.157 1.155 1.16 1.152 1.142 1.127 1.132 1.115 1.075 1.072 1.072 1.065 1.067 1.037 1.047 1.037 1.032 1.031 1.013 1.016 1.001 1.018 1.022 1.018 0.979 0.92 0.931 0.932 0.969 1.123 1.515 0.959 0.372 0.242 0.26 0.232 0.342 0.518 1.042 2.223 2.954 3.496 3.289 3.99 4.751 4.9 4.778 3.62 3.545 3.561 3.566 3.527 3.485 3.467 3.476 3.496 3.512 3.497 2.997 2.267 1.811 1.691 1.59 1.435 1.293 1.142 1.125 0.911 0.866 0.79 0.712 0.565 0.452 0.43 0.249 0.235 0.131 0.094 0.111 0.083 0.078 -0.04 -0.115 -0.192 -0.236 -0.249 -0.244 -0.287 -0.328 -0.399 -0.428 -0.4 -0.449 -0.491 -0.502 -0.544 -0.522 -0.528 -0.555 -0.617 -0.498 -0.569 -0.555 -0.557 -0.589 -0.588 -0.6 -0.599 -0.604 -0.614 -0.613 -0.693 -0.709 -0.68 -0.736 -0.754 -0.761 -0.797 -0.803 -0.717 -0.78 -0.764 -0.671 -0.743 -0.705 -0.811 -0.815 -0.794 -0.821 -0.744 -0.789 -0.885 -0.805 -0.746 -0.794 -0.835 -0.795 -0.78 -0.757 -0.711 -0.611 -0.691 -0.708 -0.758 -0.811 -0.731 -0.707 -0.631 -0.612 -0.666 -0.665 -0.695 -0.699 -0.639 -0.648 -0.627 -0.608 -0.598 -0.6 -0.562 -0.648 -0.61 -0.544 -0.565 -0.642 -0.594 -0.596 -0.631 -0.611 -0.634 -0.633 -0.589 -0.654 -0.663 -0.608 -0.684 -0.619 -0.661 -0.644 -0.648 -0.67 -0.594 -0.601 -0.627 -0.626 -0.572 -0.687 -0.666 -0.626 -0.683 -0.661 -0.702 -0.616 -0.681 -0.659 -0.723 -0.716 -0.721 -0.71 -0.763 -0.687 -0.753 -0.713 -0.72 -0.688 -0.683 -0.796 -0.734 -0.713 -0.772 -0.74 -0.746 -0.738 -0.764 -0.811 -0.809 -0.843 -0.865 -0.854 -0.868 -0.855 -0.853 -0.824 -0.891 -0.795 -0.8 -0.821 -0.792 -0.897 -0.881 -0.933 -0.873 -0.804 -0.853 -0.899 -0.919 -0.93 -0.914 -0.886 -0.976 -0.933 -0.934 -0.989 -1.008 -1.007 -1.068 -1.072 -1.04 -0.967 -1.021 -1.003 -1.026 -1.003 -0.996 -1.028 -0.974 -0.973 -0.956 -0.982 -1.006 -1.011 -1.004 -0.984 -0.971 -1.023 -1.042 -0.355 -0.244 -0.264 0.064 -0.083 -0.511
-0.798 -0.788 -0.706 -0.731 -0.688 -0.678 -0.627 -0.63 -0.595 -0.562 -0.51 -0.455 -0.47 -0.392 -0.365 -0.377 -0.375 -0.395 -0.35 -0.332 -0.305 -0.312 -0.295 -0.267 -0.28 -0.29 -0.26 -0.21 -0.2 -0.197 -0.192 -0.157 -0.205 -0.235 -0.14 -0.24 -0.147 -0.135 -0.117 -0.13 -0.165 -0.227 -0.195 -0.135 -0.1 -0.112 -0.1 -0.075 -0.045 -0.035 -0.01 0.02 -0 -0.03 -0.023 -0.04 -0.063 -0.093 -0.058 -0.025 -0.003 0.01 0.052 0.057 0.11 0.102 0.11 0.1 0.102 0.15 0.215 0.355 0.405 0.437 0.42 0.44 0.452 0.477 0.47 0.477 0.47 0.427 0.45 0.442 0.387 0.407 0.465 0.555 0.62 0.592 0.6 0.442 0.57 0.75 1.115 1.492 1.097 0.86 0.897 0.937 0.94 0.977 0.907 0.792 0.82 0.952 1.14 1.187 1.255 1.232 1.517 1.885 2.36 2.492 2.26 1.98 1.745 1.607 1.562 1.56 1.61 1.512 1.562 1.502 1.367 1.307 1.262 1.372 1.372 1.5 1.642 1.552 1.522 1.555 1.547 1.515 1.555 1.522 1.547 1.567 1.515 1.492 1.567 1.505 1.502 1.477 1.475 1.412 1.38 1.432 1.452 1.447 1.43 1.435 1.452 1.435 1.47 1.467 1.48 1.455 1.477 1.53 1.537 1.53 1.495 1.537 1.512 1.532 1.602 1.617 1.642 1.65 1.68 1.702 1.807 1.885 1.677 1.455 1.332 1.365 1.32 1.247 1.222 1.262 1.277 1.335 1.315 1.36 1.335 1.31 1.317 1.325 1.307 1.322 1.305 1.272 1.292 1.272 1.272 1.29 1.28 1.332 1.265 1.262 1.277 1.265 1.222 1.192 1.18 1.2 1.185 1.142 1.15 1.142 1.135 1.132 1.122 1.12 1.122 1.112 1.112 1.095 1.062 1.062 1.052 1.04 1.025 1.047 1.026 1.023 1.02 1.006 0.993 1.016 1.004 0.995 0.933 0.916 0.935 0.966 1.073 1.489 1.403 0.461 0.282 0.214 0.206 0.222 0.246 0.269 0.527 1.342 2.131 2.256 2.791 3.241 4.245 4.958 4.959 4.827 4.228 3.604 3.514 3.529 3.547 3.499 3.501 3.469 3.666 3.612 3.779 3.377 2.623 1.985 1.788 1.598 1.522 1.331 1.258 1.124 1.069 0.968 0.85 0.683 0.608 0.515 0.345 0.314 0.231 0.205 0.215 0.189 0.147 -0.008 -0.079 -0.142 -0.167 -0.231 -0.216 -0.252 -0.27 -0.35 -0.421 -0.444 -0.435 -0.471 -0.463 -0.447 -0.522 -0.524 -0.507 -0.586 -0.522 -0.58 -0.527 -0.526 -0.569 -0.574 -0.629 -0.592 -0.603 -0.617 -0.649 -0.611 -0.677 -0.652 -0.724 -0.705 -0.721 -0.761 -0.846 -0.716 -0.792 -0.726 -0.696 -0.65 -0.75 -0.735 -0.813 -0.795 -0.736 -0.725 -0.794 -0.846 -0.867 -0.778 -0.801 -0.78 -0.768 -0.762 -0.681 -0.631 -0.636 -0.638 -0.689 -0.645 -0.738 -0.738 -0.688 -0.606 -0.607 -0.654 -0.629 -0.565 -0.608 -0.67 -0.6 -0.603 -0.607 -0.621 -0.652 -0.611 -0.647 -0.535 -0.576 -0.564 -0.608 -0.653 -0.572 -0.589 -0.574 -0.676 -0.695 -0.596 -0.609 -0.631 -0.611 -0.65 -0.68 -0.663 -0.58 -0.583 -0.595 -0.646 -0.588 -0.678 -0.652 -0.619 -0.583 -0.645 -0.663 -0.682 -0.747 -0.661 -0.578 -0.647 -0.686 -0.683 -0.698 -0.747 -0.73 -0.735 -0.707 -0.756 -0.684 -0.728 -0.774 -0.785 -0.691 -0.724 -0.71 -0.749 -0.742 -0.796 -0.753 -0.759 -0.838 -0.818 -0.738 -0.847 -0.835 -0.824 -0.778 -0.776 -0.858 -0.831 -0.832 -0.822 -0.821 -0.858 -0.777 -0.798 -0.881 -0.845 -0.868 -0.777 -0.884 -0.917 -0.884 -0.862 -0.942 -0.928 -1.009 -0.982 -0.934 -0.954 -0.967 -0.972 -1.004 -0.933 -0.99 -1.036 -0.886 -0.985 -1.021 -1.005 -0.942 -0.928 -0.941 -0.987 -0.952 -0.952 -0.994 -0.947 -0.974 -0.975 -0.839 0.511 -0.207 -0.032 0.142 -0.145 -0.348 -0.477
-0.723 -0.777 -0.757 -0.754 -0.687 -0.705 -0.627 -0.602 -0.595 -0.54 -0.53 -0.475 -0.47 -0.472 -0.38 -0.372 -0.377 -0.392 -0.352 -0.36 -0.312 -0.292 -0.29 -0.285 -0.26 -0.255 -0.217 -0.19 -0.197 -0.187 -0.182 -0.17 -0.28 -0.28 -0.21 -0.257 -0.155 -0.147 -0.155 -0.155 -0.175 -0.2 -0.167 -0.11 -0.107 -0.087 -0.078 -0.073 -0.065 -0.025 0.025 0.005 -0 0.002 -0.013 -0.033 -0.11 -0.118 -0.053 -0.005 0.017 0.04 0.047 0.065 0.09 0.125 0.095 0.067 0.125 0.165 0.222 0.365 0.44 0.447 0.44 0.445 0.47 0.49 0.492 0.507 0.532 0.5 0.475 0.432 0.415 0.422 0.445 0.617 0.74 0.775 0.635 0.47 0.53 0.565 0.59 0.805 1.167 1.155 0.997 0.857 0.85 0.84 0.86 0.805 0.74 0.85 1.012 1.112 1.142 1.115 1.12 1.36 1.682 2.43 2.432 2.585 2.397 2.102 1.865 1.765 1.677 1.587 1.52 1.507 1.502 1.44 1.345 1.345 1.372 1.387 1.432 1.527 1.505 1.542 1.532 1.507 1.495 1.51 1.532 1.605 1.505 1.497 1.6 1.527 1.485 1.487 1.447 1.437 1.402 1.455 1.477 1.455 1.437 1.492 1.477 1.467 1.46 1.5 1.477 1.46 1.477 1.517 1.542 1.515 1.547 1.52 1.535 1.507 1.575 1.657 1.65 1.657 1.657 1.665 1.777 1.932 1.597 1.402 1.36 1.357 1.28 1.21 1.217 1.282 1.312 1.295 1.335 1.352 1.315 1.295 1.322 1.327 1.317 1.357 1.3 1.282 1.295 1.26 1.295 1.255 1.265 1.262 1.267 1.25 1.267 1.267 1.23 1.215 1.2 1.215 1.182 1.17 1.16 1.137 1.112 1.125 1.127 1.122 1.12 1.127 1.097 1.067 1.06 1.075 1.065 1.035 1.017 1.032 1.018 1.004 1.006 0.999 0.998 1 0.99 0.958 0.916 0.928 0.956 1.056 1.309 1.653 0.804 0.238 0.241 0.21 0.187 0.236 0.247 0.243 0.328 1.165 1.567 1.696 2.163 2.347 3.739 4.447 4.522 4.905 4.455 4.411 4.232 3.68 3.589 3.738 3.527 3.505 3.447 3.444 3.551 3.787 3.83 3.082 2.565 1.869 1.713 1.532 1.443 1.352 1.301 1.115 0.982 0.851 0.728 0.62 0.411 0.41 0.333 0.343 0.287 0.205 0.176 0.061 0.024 -0.068 -0.118 -0.105 -0.152 -0.184 -0.244 -0.307 -0.34 -0.4 -0.434 -0.258 -0.457 -0.486 -0.476 -0.504 -0.496 -0.497 -0.463 -0.537 -0.525 -0.519 -0.568 -0.59 -0.604 -0.594 -0.587 -0.633 -0.678 -0.642 -0.664 -0.665 -0.658 -0.69 -0.719 -0.73 -0.803 -0.758 -0.759 -0.729 -0.734 -0.715 -0.665 -0.745 -0.832 -0.76 -0.769 -0.712 -0.833 -0.818 -0.861 -0.848 -0.774 -0.696 -0.762 -0.717 -0.716 -0.692 -0.746 -0.677 -0.649 -0.702 -0.643 -0.657 -0.729 -0.626 -0.644 -0.582 -0.632 -0.614 -0.603 -0.557 -0.582 -0.66 -0.617 -0.539 -0.545 -0.632 -0.623 -0.549 -0.599 -0.562 -0.588 -0.62 -0.584 -0.596 -0.646 -0.612 -0.635 -0.61 -0.595 -0.529 -0.589 -0.713 -0.728 -0.602 -0.584 -0.625 -0.591 -0.586 -0.622 -0.65 -0.646 -0.628 -0.59 -0.619 -0.611 -0.683 -0.698 -0.675 -0.714 -0.621 -0.685 -0.658 -0.674 -0.732 -0.723 -0.699 -0.699 -0.696 -0.703 -0.732 -0.743 -0.713 -0.706 -0.792 -0.705 -0.719 -0.752 -0.734 -0.762 -0.826 -0.833 -0.758 -0.844 -0.849 -0.795 -0.781 -0.769 -0.823 -0.877 -0.824 -0.859 -0.816 -0.833 -0.83 -0.885 -0.865 -0.842 -0.817 -0.843 -0.883 -0.943 -0.901 -0.894 -0.912 -0.976 -0.981 -0.971 -0.916 -0.894 -0.908 -0.928 -0.958 -1.011 -0.965 -0.91 -0.918 -0.994 -0.849 -0.954 -0.962 -0.932 -0.936 -0.942 -0.907 -0.861 -0.937 -0.954 -0.974 -0.975 -0.466 0.181 -0.109 0.05 0.045 0.419 -0.323 -0.858 -0.776
-0.719 -0.702 -0.737 -0.716 -0.664 -0.667 -0.62 -0.622 -0.61 -0.57 -0.537 -0.5 -0.505 -0.477 -0.437 -0.427 -0.405 -0.392 -0.352 -0.335 -0.31 -0.295 -0.29 -0.277 -0.285 -0.282 -0.23 -0.177 -0.177 -0.17 -0.187 -0.172 -0.247 -0.175 -0.24 -0.217 -0.165 -0.155 -0.112 -0.17 -0.177 -0.22 -0.152 -0.12 -0.117 -0.11 -0.103 -0.075 0.007 -0.02 -0.03 -0.015 -0.01 -0.003 0.01 -0.055 -0.085 -0.05 -0.003 0.005 0.007 0.055 0.062 0.072 0.092 0.117 0.102 0.097 0.122 0.175 0.262 0.377 0.485 0.442 0.442 0.455 0.492 0.47 0.51 0.547 0.532 0.535 0.472 0.442 0.397 0.435 0.475 0.575 0.695 0.735 0.667 0.552 0.537 0.535 0.487 0.487 0.625 0.75 0.945 0.967 0.895 0.84 0.842 0.855 0.842 0.85 0.91 0.922 0.945 0.98 0.992 1.2 1.525 1.597 1.592 1.857 2.335 2.585 2.432 2.232 1.945 1.857 1.66 1.72 1.52 1.535 1.492 1.422 1.367 1.392 1.28 1.36 1.4 1.495 1.542 1.447 1.512 1.5 1.57 1.475 1.495 1.527 1.545 1.472 1.49 1.472 1.432 1.427 1.435 1.485 1.452 1.425 1.45 1.452 1.452 1.475 1.465 1.46 1.465 1.492 1.43 1.482 1.495 1.532 1.537 1.512 1.56 1.547 1.545 1.637 1.637 1.665 1.68 1.682 1.922 1.812 1.452 1.342 1.317 1.322 1.265 1.195 1.235 1.31 1.327 1.337 1.325 1.345 1.32 1.307 1.31 1.362 1.33 1.305 1.297 1.29 1.295 1.305 1.262 1.29 1.257 1.272 1.247 1.302 1.252 1.257 1.25 1.187 1.177 1.202 1.175 1.17 1.17 1.145 1.152 1.127 1.13 1.112 1.105 1.095 1.092 1.06 1.06 1.072 1.07 1.057 1.027 1.042 1.025 1.018 1.003 0.995 0.98 0.977 0.975 0.909 0.909 0.922 0.982 1.226 1.643 1.305 0.264 0.191 0.18 0.178 0.175 0.196 0.18 0.19 0.327 1.187 1.411 1.401 1.564 1.806 3.824 4.408 4.439 3.983 3.938 4.36 4.499 4.477 4.116 4.539 3.643 3.603 3.509 3.501 3.473 3.427 3.562 3.771 4.057 3.311 3.029 1.855 1.605 1.522 1.47 1.342 1.192 1.065 0.921 0.784 0.528 0.517 0.43 0.427 0.339 0.268 0.244 0.142 0.058 0.007 -0.033 -0.069 -0.085 -0.079 -0.136 -0.169 -0.185 -0.134 -0.175 -0.196 -0.407 -0.403 -0.441 -0.219 -0.463 -0.451 -0.47 -0.504 -0.521 -0.522 -0.517 -0.475 -0.506 -0.571 -0.633 -0.646 -0.639 -0.592 -0.674 -0.661 -0.697 -0.689 -0.722 -0.72 -0.76 -0.735 -0.753 -0.753 -0.751 -0.717 -0.692 -0.743 -0.73 -0.725 -0.772 -0.788 -0.873 -0.736 -0.823 -0.789 -0.735 -0.7 -0.696 -0.685 -0.668 -0.664 -0.62 -0.676 -0.66 -0.646 -0.637 -0.645 -0.657 -0.639 -0.648 -0.598 -0.587 -0.57 -0.562 -0.557 -0.569 -0.585 -0.648 -0.58 -0.563 -0.575 -0.541 -0.558 -0.591 -0.625 -0.589 -0.564 -0.58 -0.615 -0.61 -0.566 -0.613 -0.556 -0.65 -0.598 -0.616 -0.716 -0.626 -0.622 -0.529 -0.612 -0.601 -0.599 -0.546 -0.632 -0.697 -0.618 -0.577 -0.666 -0.684 -0.616 -0.663 -0.615 -0.657 -0.694 -0.657 -0.737 -0.732 -0.727 -0.713 -0.662 -0.733 -0.701 -0.69 -0.748 -0.71 -0.726 -0.716 -0.751 -0.746 -0.756 -0.736 -0.758 -0.772 -0.838 -0.857 -0.797 -0.775 -0.733 -0.802 -0.826 -0.784 -0.818 -0.834 -0.852 -0.798 -0.834 -0.868 -0.874 -0.791 -0.777 -0.869 -0.888 -0.864 -0.843 -0.862 -0.936 -0.892 -0.869 -0.951 -0.961 -0.922 -0.928 -0.91 -0.979 -0.965 -0.966 -0.906 -0.881 -0.873 -0.984 -0.901 -0.892 -0.909 -0.86 -0.869 -0.901 -0.939 -0.91 -0.882 -0.874 -0.902 -0.978 -0.774 0.501 0.67 0.235 0.08 -0.505 -0.892 1.004 -0.724 -0.727
-0.673 -0.659 -0.739 -0.723 -0.662 -0.677 -0.61 -0.622 -0.635 -0.577 -0.52 -0.53 -0.537 -0.52 -0.497 -0.447 -0.435 -0.415 -0.382 -0.36 -0.325 -0.322 -0.295 -0.295 -0.282 -0.267 -0.275 -0.24 -0.18 -0.19 -0.202 -0.195 -0.225 -0.22 -0.292 -0.237 -0.157 -0.145 -0.147 -0.18 -0.18 -0.19 -0.142 -0.127 -0.097 -0.07 -0.09 -0.058 -0.048 -0.063 -0.058 -0.035 -0.025 -0 -0.025 -0.065 -0.04 -0.028 -0 -0.033 -0.003 0.037 0.055 0.095 0.092 0.13 0.11 0.095 0.13 0.19 0.317 0.425 0.482 0.452 0.467 0.485 0.472 0.492 0.502 0.515 0.52 0.502 0.462 0.422 0.425 0.44 0.475 0.547 0.595 0.555 0.535 0.527 0.542 0.532 0.492 0.457 0.492 0.547 0.617 0.8 0.89 0.897 0.832 0.827 0.85 0.872 0.855 0.835 0.845 0.862 0.655 0.485 1.032 1.357 1.437 1.45 1.585 1.815 2.217 2.425 2.42 2.182 1.92 1.847 1.69 1.637 1.492 1.54 1.505 1.4 1.385 1.41 1.425 1.622 1.567 1.505 1.532 1.507 1.525 1.51 1.467 1.502 1.475 1.517 1.6 1.49 1.497 1.402 1.46 1.442 1.44 1.407 1.427 1.43 1.447 1.47 1.437 1.457 1.472 1.465 1.412 1.475 1.512 1.53 1.512 1.515 1.542 1.542 1.557 1.615 1.662 1.657 1.702 1.767 1.952 1.687 1.405 1.33 1.307 1.282 1.242 1.207 1.27 1.347 1.345 1.317 1.3 1.297 1.32 1.35 1.35 1.322 1.357 1.312 1.315 1.292 1.325 1.292 1.26 1.265 1.235 1.25 1.245 1.265 1.235 1.19 1.202 1.215 1.195 1.145 1.17 1.185 1.18 1.167 1.13 1.142 1.122 1.1 1.115 1.11 1.082 1.052 1.042 1.057 1.065 1.035 1.035 1.029 1.016 1.004 1.017 1.009 0.989 0.985 0.938 0.898 0.911 0.954 1.094 1.524 1.558 0.637 0.162 0.169 0.175 0.197 0.21 0.205 0.207 0.23 0.463 1.239 1.31 1.4 1.348 1.635 3.37 4.159 3.925 3.416 3.217 3.754 3.351 4.42 4.732 5.867 5.794 3.952 3.537 3.503 3.527 3.499 3.43 3.454 3.612 4.161 3.968 2.651 2.685 1.929 1.612 1.477 1.385 1.284 1.063 0.913 0.705 0.704 0.515 0.452 0.393 0.379 0.299 0.209 0.163 0.092 0.047 -0.075 -0.02 -0.04 -0.053 -0.075 0.093 0.62 0.144 -0.196 -0.407 -0.418 -0.154 -0.25 -0.454 -0.416 -0.486 -0.448 -0.524 -0.543 -0.513 -0.531 -0.51 -0.558 -0.535 -0.591 -0.622 -0.611 -0.667 -0.707 -0.666 -0.673 -0.692 -0.678 -0.674 -0.709 -0.723 -0.718 -0.745 -0.785 -0.731 -0.75 -0.726 -0.659 -0.688 -0.762 -0.796 -0.842 -0.79 -0.76 -0.768 -0.755 -0.688 -0.664 -0.651 -0.659 -0.661 -0.672 -0.642 -0.591 -0.653 -0.63 -0.666 -0.612 -0.551 -0.572 -0.579 -0.576 -0.558 -0.529 -0.586 -0.597 -0.578 -0.589 -0.532 -0.557 -0.558 -0.548 -0.597 -0.63 -0.524 -0.546 -0.63 -0.531 -0.599 -0.605 -0.579 -0.572 -0.51 -0.627 -0.711 -0.58 -0.559 -0.591 -0.55 -0.586 -0.577 -0.604 -0.558 -0.604 -0.627 -0.586 -0.552 -0.65 -0.65 -0.619 -0.625 -0.644 -0.644 -0.692 -0.667 -0.693 -0.667 -0.704 -0.672 -0.686 -0.673 -0.684 -0.672 -0.69 -0.711 -0.773 -0.741 -0.775 -0.721 -0.767 -0.801 -0.829 -0.757 -0.76 -0.831 -0.811 -0.748 -0.783 -0.768 -0.786 -0.811 -0.797 -0.839 -0.84 -0.785 -0.822 -0.849 -0.818 -0.798 -0.868 -0.867 -0.812 -0.872 -0.883 -0.856 -0.818 -0.878 -0.924 -0.98 -0.967 -0.952 -0.882 -0.877 -0.86 -0.975 -0.908 -0.961 -0.919 -0.909 -0.84 -0.849 -0.932 -0.893 -0.861 -0.91 -0.858 -0.895 -0.949 -0.875 -0.82 -0.92 -1 -0.524 0.193 0.234 0.097 -0.476 -0.696 -0.813 -0.669 1.402 -0.487
-0.695 -0.655 -0.638 -0.616 -0.694 -0.662 -0.632 -0.6 -0.62 -0.595 -0.567 -0.542 -0.575 -0.527 -0.52 -0.512 -0.475 -0.427 -0.392 -0.35 -0.35 -0.307 -0.312 -0.307 -0.295 -0.287 -0.28 -0.237 -0.175 -0.18 -0.197 -0.185 -0.252 -0.242 -0.225 -0.235 -0.18 -0.15 -0.122 -0.137 -0.175 -0.182 -0.15 -0.127 -0.13 -0.102 -0.088 -0.1 -0.08 -0.1 -0.083 -0.083 -0.053 -0.038 -0.06 -0.04 -0.003 -0.005 -0.028 -0.023 0.005 0.057 0.08 0.077 0.092 0.112 0.117 0.092 0.142 0.227 0.35 0.445 0.505 0.492 0.475 0.5 0.505 0.532 0.535 0.522 0.515 0.49 0.467 0.447 0.412 0.435 0.425 0.495 0.49 0.5 0.507 0.647 0.867 0.82 0.677 0.522 0.45 0.487 0.547 0.612 0.707 0.775 0.92 0.905 0.855 0.855 0.86 0.81 0.85 0.847 0.835 0.502 0.2 0.625 0.592 0.797 1.135 1.415 1.625 1.717 2.087 2.347 2.45 2.232 1.837 1.812 1.552 1.505 1.492 1.5 1.482 1.405 1.43 1.51 1.565 1.662 1.585 1.462 1.502 1.487 1.482 1.505 1.497 1.562 1.47 1.437 1.487 1.395 1.42 1.452 1.47 1.44 1.437 1.435 1.437 1.417 1.462 1.465 1.46 1.437 1.442 1.465 1.56 1.54 1.502 1.487 1.492 1.5 1.512 1.582 1.677 1.662 1.682 1.762 1.927 1.577 1.38 1.305 1.297 1.262 1.212 1.22 1.28 1.355 1.332 1.332 1.307 1.332 1.367 1.357 1.345 1.34 1.35 1.362 1.332 1.287 1.312 1.28 1.255 1.212 1.212 1.257 1.212 1.227 1.202 1.192 1.195 1.22 1.207 1.177 1.172 1.15 1.182 1.16 1.115 1.12 1.112 1.102 1.112 1.11 1.112 1.067 1.05 1.055 1.042 1.04 1.047 1.01 1.016 1.019 0.998 1.001 0.991 0.971 0.893 0.901 0.945 1.057 1.315 1.774 1.307 0.246 0.194 0.151 0.148 0.196 0.205 0.211 0.211 0.258 0.684 1.216 1.266 1.274 1.384 1.297 1.981 1.633 2.03 2.858 2.309 2.961 3.627 3.926 4.025 5.393 5.39 4.782 4.417 3.819 3.582 3.488 3.474 3.498 3.487 3.506 3.54 3.685 3.709 2.765 1.951 1.72 1.565 1.411 1.215 1.111 0.848 0.895 0.625 0.49 0.457 0.461 0.41 0.311 0.257 0.182 0.16 0.016 0.021 -0.053 -0.014 -0.113 -0.105 0.447 0.805 0.52 -0.03 -0.146 -0.127 -0.364 -0.387 -0.347 -0.405 -0.462 -0.509 -0.482 -0.544 -0.524 -0.504 -0.546 -0.561 -0.62 -0.642 -0.63 -0.656 -0.679 -0.692 -0.679 -0.667 -0.687 -0.685 -0.702 -0.7 -0.742 -0.734 -0.754 -0.664 -0.699 -0.723 -0.704 -0.701 -0.727 -0.772 -0.798 -0.742 -0.679 -0.677 -0.619 -0.657 -0.627 -0.638 -0.662 -0.656 -0.596 -0.565 -0.645 -0.644 -0.65 -0.66 -0.599 -0.608 -0.578 -0.561 -0.553 -0.591 -0.582 -0.582 -0.536 -0.576 -0.532 -0.506 -0.58 -0.57 -0.612 -0.561 -0.555 -0.564 -0.543 -0.579 -0.619 -0.566 -0.528 -0.583 -0.614 -0.633 -0.646 -0.674 -0.589 -0.589 -0.565 -0.557 -0.568 -0.58 -0.545 -0.614 -0.533 -0.599 -0.597 -0.579 -0.58 -0.591 -0.643 -0.604 -0.659 -0.661 -0.646 -0.659 -0.642 -0.682 -0.682 -0.698 -0.699 -0.759 -0.673 -0.722 -0.719 -0.8 -0.776 -0.778 -0.746 -0.761 -0.781 -0.784 -0.782 -0.771 -0.733 -0.781 -0.732 -0.828 -0.802 -0.743 -0.785 -0.799 -0.773 -0.849 -0.823 -0.787 -0.779 -0.779 -0.783 -0.824 -0.763 -0.845 -0.874 -0.851 -0.805 -0.837 -0.895 -0.843 -0.897 -0.959 -0.906 -0.863 -0.884 -0.863 -0.896 -0.834 -0.918 -0.903 -0.894 -0.855 -0.902 -0.893 -0.853 -0.865 -0.866 -0.892 -0.886 -0.82 -0.857 -0.856 -0.886 -0.991 -0.728 -0.089 0.304 0.081 -0.405 -0.63 -0.747 -0.786 -0.817 -0.711 2.075
-0.647 -0.521 -0.48 -0.192 -0.473 -0.606 -0.31 -0.18 -0.425 -0.582 -0.577 -0.56 -0.535 -0.557 -0.537 -0.512 -0.485 -0.462 -0.445 -0.405 -0.372 -0.352 -0.33 -0.312 -0.295 -0.29 -0.27 -0.245 -0.192 -0.202 -0.202 -0.197 -0.202 -0.242 -0.26 -0.23 -0.185 -0.147 -0.115 -0.135 -0.13 -0.177 -0.145 -0.12 -0.13 -0.095 -0.12 -0.11 -0.125 -0.108 -0.093 -0.08 -0.055 -0.043 -0.053 -0.038 -0.035 -0.045 -0.018 0.002 0.08 0.085 0.09 0.07 0.092 0.105 0.142 0.13 0.182 0.297 0.392 0.507 0.57 0.547 0.547 0.53 0.515 0.512 0.512 0.535 0.497 0.512 0.477 0.472 0.422 0.445 0.43 0.455 0.477 0.487 0.517 0.6 0.802 0.822 0.69 0.585 0.497 0.47 0.49 0.565 0.652 0.705 0.81 0.867 0.87 0.907 0.837 0.837 0.837 0.805 0.862 0.86 0.72 0.5 0.255 0.237 0.345 0.61 1.317 1.432 1.547 1.762 2.087 2.497 2.507 2.207 1.757 1.562 1.545 1.52 1.41 1.42 1.42 1.45 1.35 1.352 1.485 1.467 1.47 1.47 1.46 1.51 1.502 1.47 1.475 1.45 1.477 1.397 1.442 1.467 1.44 1.427 1.402 1.43 1.43 1.405 1.432 1.462 1.455 1.432 1.405 1.492 1.517 1.482 1.492 1.502 1.495 1.485 1.507 1.545 1.615 1.665 1.695 1.885 1.65 1.392 1.367 1.327 1.32 1.237 1.212 1.217 1.365 1.355 1.36 1.37 1.35 1.347 1.372 1.327 1.31 1.312 1.33 1.355 1.327 1.285 1.302 1.267 1.212 1.25 1.217 1.217 1.255 1.217 1.197 1.2 1.17 1.197 1.197 1.207 1.16 1.147 1.15 1.13 1.112 1.095 1.092 1.082 1.097 1.047 1.08 1.06 1.045 1.037 1.017 0.997 1.017 1.033 1.019 1.017 0.983 0.977 0.99 0.922 0.893 0.924 1.013 1.237 1.857 1.487 0.341 0.165 0.147 0.147 0.169 0.207 0.195 0.208 0.202 0.292 0.71 1.24 1.281 1.223 0.913 0.796 0.597 0.127 0.208 0.539 1.248 2.857 3.924 4.677 3.248 4.029 4.879 5.88 5.278 4.828 4.158 3.905 3.631 3.53 3.51 3.466 3.367 3.522 3.532 3.308 3.055 2.371 1.859 1.618 1.463 1.333 1.081 1.104 0.82 0.71 0.582 0.505 0.446 0.38 0.374 0.273 0.185 0.123 0.13 0.023 -0.009 -0.022 -0.126 0.199 0.496 0.739 0.198 -0.061 -0.312 -0.313 -0.321 -0.323 -0.367 -0.388 -0.462 -0.467 -0.548 -0.536 -0.575 -0.56 -0.585 -0.589 -0.627 -0.66 -0.661 -0.649 -0.661 -0.645 -0.634 -0.64 -0.659 -0.622 -0.619 -0.744 -0.739 -0.722 -0.727 -0.707 -0.681 -0.694 -0.739 -0.715 -0.694 -0.752 -0.779 -0.683 -0.729 -0.678 -0.631 -0.668 -0.577 -0.606 -0.619 -0.609 -0.686 -0.569 -0.597 -0.573 -0.595 -0.605 -0.571 -0.587 -0.572 -0.577 -0.57 -0.518 -0.562 -0.571 -0.601 -0.521 -0.523 -0.551 -0.583 -0.595 -0.518 -0.589 -0.565 -0.558 -0.613 -0.6 -0.534 -0.551 -0.544 -0.491 -0.584 -0.692 -0.597 -0.602 -0.563 -0.57 -0.585 -0.539 -0.546 -0.541 -0.576 -0.492 -0.628 -0.583 -0.655 -0.602 -0.64 -0.657 -0.644 -0.658 -0.667 -0.683 -0.696 -0.63 -0.692 -0.716 -0.735 -0.688 -0.673 -0.742 -0.728 -0.729 -0.733 -0.773 -0.745 -0.708 -0.739 -0.728 -0.726 -0.77 -0.755 -0.795 -0.798 -0.779 -0.72 -0.795 -0.725 -0.815 -0.778 -0.79 -0.817 -0.76 -0.764 -0.849 -0.758 -0.835 -0.77 -0.784 -0.783 -0.85 -0.864 -0.828 -0.838 -0.853 -0.915 -0.89 -0.856 -0.884 -0.816 -0.868 -0.847 -0.954 -0.854 -0.883 -0.854 -0.871 -0.893 -0.886 -0.87 -0.838 -0.807 -0.824 -0.822 -0.787 -0.823 -0.917 -0.899 -0.949 -0.675 -0.025 0.329 -0.142 -0.335 -0.57 -0.715 -0.714 -0.726 -0.695 -0.289 2.407
-0.625 -0.472 -0.388 -0.09 -0.478 -0.553 -0.112 -0.027 -0.14 -0.505 -0.605 -0.557 -0.567 -0.562 -0.565 -0.537 -0.49 -0.492 -0.47 -0.427 -0.435 -0.345 -0.357 -0.325 -0.325 -0.292 -0.29 -0.27 -0.22 -0.187 -0.205 -0.217 -0.16 -0.227 -0.26 -0.215 -0.175 -0.135 -0.122 -0.125 -0.137 -0.152 -0.175 -0.16 -0.155 -0.1 -0.12 -0.125 -0.088 -0.073 -0.09 -0.045 -0.038 -0.02 -0.005 -0.01 -0.013 -0.018 0.002 0.055 0.115 0.12 0.092 0.105 0.105 0.122 0.14 0.2 0.252 0.395 0.465 0.555 0.59 0.615 0.6 0.545 0.507 0.515 0.517 0.515 0.512 0.525 0.522 0.467 0.47 0.46 0.445 0.442 0.432 0.475 0.467 0.535 0.595 0.63 0.66 0.57 0.555 0.527 0.515 0.505 0.585 0.597 0.612 0.657 0.742 0.742 0.772 0.785 0.825 0.862 0.847 0.825 0.877 0.952 1.392 0.695 0.652 0.422 0.502 0.847 1.292 1.505 1.51 1.675 2.17 2.447 2.262 1.935 1.682 1.532 1.442 1.475 1.577 1.425 1.305 1.4 1.445 1.465 1.422 1.452 1.485 1.48 1.452 1.507 1.47 1.427 1.412 1.445 1.442 1.47 1.46 1.437 1.372 1.41 1.432 1.422 1.44 1.422 1.477 1.475 1.445 1.46 1.467 1.512 1.51 1.492 1.46 1.487 1.51 1.537 1.607 1.672 1.767 1.91 1.485 1.372 1.365 1.362 1.28 1.207 1.23 1.262 1.375 1.39 1.387 1.387 1.357 1.395 1.367 1.332 1.31 1.302 1.31 1.287 1.307 1.277 1.297 1.242 1.255 1.265 1.227 1.222 1.235 1.222 1.202 1.182 1.215 1.19 1.15 1.165 1.132 1.167 1.152 1.145 1.092 1.1 1.09 1.072 1.065 1.067 1.047 1.035 1.047 1.047 1.032 1.027 1.02 1.026 1.008 1.011 0.997 1.003 0.958 0.885 0.898 0.947 1.099 1.63 1.852 0.931 0.186 0.167 0.142 0.117 0.191 0.206 0.211 0.214 0.209 0.35 0.841 1.271 1.283 1.256 0.854 0.208 0.033 0.155 0.681 0.725 1.144 3.177 4.853 4.395 3.646 3.424 6.205 7.106 6.074 4.435 4.39 4.824 4.323 3.632 3.51 3.492 3.447 3.447 3.519 3.523 3.501 3.193 2.701 2.087 1.669 1.535 1.325 1.276 0.968 0.783 0.707 0.626 0.522 0.44 0.527 0.356 0.274 0.202 0.189 0.119 0.102 0.018 -0.06 0.12 0.362 0.524 0.656 0.123 -0.308 -0.376 -0.281 -0.261 -0.362 -0.383 -0.455 -0.412 -0.479 -0.494 -0.513 -0.509 -0.54 -0.599 -0.627 -0.649 -0.605 -0.662 -0.648 -0.611 -0.594 -0.644 -0.663 -0.601 -0.62 -0.635 -0.687 -0.643 -0.616 -0.729 -0.673 -0.668 -0.699 -0.665 -0.695 -0.741 -0.655 -0.642 -0.681 -0.62 -0.654 -0.576 -0.63 -0.55 -0.588 -0.599 -0.583 -0.619 -0.538 -0.517 -0.556 -0.538 -0.523 -0.591 -0.58 -0.576 -0.577 -0.542 -0.57 -0.499 -0.541 -0.553 -0.479 -0.544 -0.544 -0.536 -0.508 -0.519 -0.575 -0.54 -0.597 -0.52 -0.536 -0.545 -0.564 -0.544 -0.703 -0.744 -0.665 -0.581 -0.538 -0.567 -0.575 -0.582 -0.613 -0.558 -0.519 -0.575 -0.546 -0.495 -0.624 -0.543 -0.648 -0.606 -0.624 -0.639 -0.663 -0.637 -0.6 -0.596 -0.666 -0.725 -0.637 -0.657 -0.697 -0.681 -0.737 -0.714 -0.722 -0.723 -0.725 -0.782 -0.752 -0.72 -0.727 -0.658 -0.714 -0.772 -0.781 -0.725 -0.754 -0.797 -0.721 -0.738 -0.69 -0.729 -0.763 -0.754 -0.708 -0.762 -0.799 -0.755 -0.776 -0.799 -0.771 -0.793 -0.838 -0.827 -0.836 -0.827 -0.874 -0.846 -0.859 -0.889 -0.872 -0.859 -0.912 -0.902 -0.827 -0.838 -0.794 -0.779 -0.809 -0.891 -0.831 -0.765 -0.78 -0.823 -0.772 -0.781 -0.906 -0.863 -0.795 -0.592 0.228 0.248 -0.35 -0.782 -0.805 -0.731 -0.691 -0.686 -0.544 -0.35 -0.2 0.501
-0.544 -0.447 -0.345 -0.286 -0.54 -0.592 -0.412 -0.507 -0.35 -0.482 -0.635 -0.6 -0.58 -0.595 -0.577 -0.537 -0.515 -0.505 -0.475 -0.452 -0.402 -0.362 -0.337 -0.31 -0.327 -0.307 -0.297 -0.277 -0.192 -0.162 -0.202 -0.192 -0.172 -0.212 -0.247 -0.155 -0.145 -0.142 -0.15 -0.137 -0.13 -0.112 -0.15 -0.177 -0.18 -0.175 -0.15 -0.113 -0.095 -0.103 -0.08 -0.055 0.012 0.03 0.03 -0.003 -0.015 0.012 0.065 0.087 0.115 0.12 0.117 0.142 0.142 0.14 0.175 0.25 0.367 0.467 0.56 0.64 0.64 0.622 0.62 0.59 0.567 0.532 0.54 0.532 0.53 0.562 0.54 0.5 0.457 0.427 0.442 0.442 0.457 0.48 0.477 0.477 0.475 0.61 0.657 0.682 0.68 0.627 0.582 0.53 0.52 0.537 0.55 0.6 0.54 0.557 0.697 0.67 0.717 0.817 0.872 0.85 0.822 0.852 1.11 1.38 1.277 1.06 0.697 0.537 0.467 0.825 1.085 1.26 1.322 1.737 2.292 2.375 2.132 1.795 1.63 1.557 1.52 1.45 1.432 1.515 1.39 1.375 1.37 1.442 1.467 1.437 1.422 1.48 1.457 1.417 1.43 1.432 1.445 1.43 1.44 1.432 1.422 1.412 1.432 1.405 1.42 1.397 1.45 1.47 1.455 1.45 1.417 1.472 1.487 1.475 1.455 1.485 1.522 1.545 1.617 1.63 1.74 1.677 1.495 1.382 1.385 1.342 1.29 1.27 1.25 1.325 1.407 1.427 1.4 1.375 1.357 1.375 1.34 1.305 1.29 1.302 1.275 1.275 1.27 1.28 1.27 1.247 1.267 1.267 1.225 1.25 1.227 1.247 1.19 1.182 1.147 1.187 1.172 1.167 1.132 1.135 1.127 1.13 1.09 1.092 1.072 1.082 1.052 1.052 1.045 1.032 1.047 1.037 1.02 1.02 1.017 1.026 0.997 1.01 0.981 0.98 0.887 0.885 0.928 1.024 1.473 1.909 1.506 0.239 0.188 0.172 0.155 0.16 0.196 0.197 0.202 0.19 0.244 0.437 0.913 1.378 1.373 1.25 0.395 0.568 0.507 0.706 0.844 0.744 0.133 2.554 3.379 3.235 2.151 2.053 5.468 6.71 5.787 3.83 4.026 3.966 4.575 4.144 3.56 3.502 3.481 3.47 3.584 3.53 3.51 3.48 3.151 2.47 1.89 1.691 1.452 1.4 1.165 1.028 0.846 0.731 0.636 0.545 0.569 0.412 0.383 0.26 0.265 0.157 0.1 0.071 0.026 0.272 0.287 0.277 0.291 0.216 -0.252 -0.378 -0.247 -0.235 -0.302 -0.337 -0.377 -0.428 -0.424 -0.44 -0.462 -0.548 -0.536 -0.482 -0.576 -0.614 -0.61 -0.608 -0.618 -0.623 -0.626 -0.615 -0.626 -0.597 -0.607 -0.622 -0.665 -0.645 -0.691 -0.646 -0.662 -0.678 -0.719 -0.739 -0.736 -0.695 -0.653 -0.645 -0.682 -0.648 -0.618 -0.582 -0.589 -0.609 -0.571 -0.614 -0.5 -0.541 -0.526 -0.566 -0.529 -0.53 -0.555 -0.539 -0.505 -0.514 -0.528 -0.561 -0.561 -0.54 -0.573 -0.544 -0.501 -0.568 -0.536 -0.461 -0.551 -0.543 -0.565 -0.571 -0.569 -0.533 -0.497 -0.57 -0.554 -0.63 -0.735 -0.748 -0.641 -0.575 -0.593 -0.635 -0.572 -0.521 -0.565 -0.534 -0.567 -0.594 -0.537 -0.599 -0.554 -0.642 -0.664 -0.591 -0.607 -0.572 -0.629 -0.673 -0.616 -0.595 -0.598 -0.67 -0.657 -0.674 -0.755 -0.69 -0.726 -0.678 -0.715 -0.78 -0.68 -0.671 -0.72 -0.754 -0.724 -0.707 -0.715 -0.788 -0.748 -0.77 -0.778 -0.73 -0.76 -0.695 -0.685 -0.772 -0.714 -0.684 -0.763 -0.739 -0.778 -0.715 -0.794 -0.8 -0.795 -0.789 -0.812 -0.897 -0.732 -0.842 -0.864 -0.894 -0.882 -0.836 -0.88 -0.868 -0.91 -0.838 -0.812 -0.775 -0.852 -0.772 -0.745 -0.799 -0.791 -0.794 -0.754 -0.831 -0.836 -0.821 -0.5 0.679 0.46 0.313 0.267 -0.631 -0.787 -0.657 -0.695 -0.729 -0.576 -0.39 -0.262 -0.058 0.138 0.236
-0.453 -0.362 -0.336 -0.382 -0.032 -0.478 -0.625 -0.61 -0.575 -0.615 -0.623 -0.593 -0.625 -0.645 -0.625 -0.56 -0.548 -0.533 -0.523 -0.488 -0.465 -0.408 -0.323 -0.343 -0.348 -0.32 -0.29 -0.258 -0.175 -0.135 -0.185 -0.173 -0.19 -0.215 -0.25 -0.155 -0.17 -0.148 -0.148 -0.143 -0.13 -0.123 -0.155 -0.175 -0.155 -0.215 -0.17 -0.15 -0.123 -0.098 -0.088 -0.033 0.03 0.075 0.045 0.025 0.015 0.055 0.047 0.09 0.105 0.115 0.157 0.16 0.16 0.157 0.215 0.307 0.437 0.545 0.615 0.637 0.635 0.62 0.612 0.605 0.575 0.557 0.532 0.55 0.585 0.572 0.555 0.517 0.45 0.377 0.402 0.415 0.45 0.49 0.482 0.47 0.46 0.472 0.665 0.937 1.03 0.75 0.665 0.62 0.557 0.532 0.545 0.527 0.545 0.572 0.56 0.54 0.645 0.805 0.877 0.9 0.847 0.865 0.837 0.815 0.99 1.482 1.322 0.772 0.695 0.697 0.475 0.642 0.877 1.16 1.46 2.007 2.4 2.172 1.86 1.657 1.517 1.53 1.522 1.437 1.38 1.31 1.295 1.337 1.41 1.43 1.427 1.427 1.472 1.467 1.462 1.435 1.38 1.372 1.447 1.412 1.437 1.452 1.48 1.442 1.427 1.402 1.457 1.437 1.452 1.447 1.415 1.442 1.49 1.485 1.517 1.47 1.472 1.57 1.557 1.607 1.582 1.535 1.49 1.45 1.425 1.362 1.325 1.287 1.29 1.382 1.405 1.395 1.385 1.352 1.375 1.345 1.35 1.345 1.312 1.31 1.28 1.287 1.27 1.252 1.265 1.237 1.227 1.227 1.24 1.24 1.205 1.225 1.232 1.2 1.182 1.162 1.182 1.145 1.152 1.13 1.137 1.115 1.097 1.09 1.08 1.057 1.06 1.06 1.057 1.047 1.037 1.025 1.03 1.007 1.022 1.002 0.984 0.992 0.981 0.938 0.865 0.888 0.967 1.189 1.876 1.818 0.596 0.177 0.163 0.176 0.178 0.205 0.202 0.189 0.197 0.199 0.246 0.504 1.034 1.305 1.484 1.949 0.253 0.647 0.76 0.771 0.98 0.248 0.495 -0.047 0.039 0.547 0.278 1.152 2.173 2.84 3.216 3.872 3.823 3.386 3.567 4.55 4.342 3.643 3.494 3.459 3.555 3.556 3.511 3.489 3.448 3.29 2.635 2.224 1.638 1.471 1.36 1.152 0.987 0.865 0.822 0.698 0.626 0.45 0.406 0.332 0.279 0.186 0.115 0.12 0.077 0.374 0.813 0.412 0.04 0.088 -0.18 -0.29 -0.26 -0.251 -0.294 -0.311 -0.371 -0.404 -0.401 -0.434 -0.454 -0.521 -0.509 -0.483 -0.524 -0.523 -0.549 -0.501 -0.546 -0.593 -0.572 -0.549 -0.576 -0.575 -0.567 -0.604 -0.623 -0.627 -0.658 -0.661 -0.681 -0.696 -0.646 -0.728 -0.645 -0.654 -0.595 -0.61 -0.61 -0.596 -0.636 -0.591 -0.682 -0.567 -0.555 -0.525 -0.53 -0.554 -0.516 -0.546 -0.55 -0.615 -0.491 -0.521 -0.553 -0.572 -0.499 -0.495 -0.511 -0.524 -0.52 -0.447 -0.499 -0.501 -0.439 -0.509 -0.543 -0.51 -0.53 -0.503 -0.556 -0.536 -0.563 -0.541 -0.615 -0.591 -0.696 -0.692 -0.688 -0.692 -0.669 -0.607 -0.587 -0.54 -0.508 -0.568 -0.542 -0.571 -0.569 -0.588 -0.563 -0.64 -0.599 -0.638 -0.59 -0.593 -0.585 -0.633 -0.644 -0.579 -0.61 -0.608 -0.695 -0.655 -0.634 -0.663 -0.639 -0.689 -0.724 -0.633 -0.674 -0.656 -0.657 -0.692 -0.689 -0.749 -0.716 -0.718 -0.725 -0.734 -0.732 -0.804 -0.817 -0.68 -0.727 -0.724 -0.753 -0.678 -0.754 -0.774 -0.743 -0.808 -0.756 -0.795 -0.819 -0.819 -0.839 -0.745 -0.787 -0.838 -0.772 -0.846 -0.86 -0.831 -0.87 -0.859 -0.863 -0.752 -0.792 -0.78 -0.83 -0.794 -0.747 -0.739 -0.8 -0.803 -0.802 -0.802 -0.8 -0.619 0.226 0.734 0.334 0.16 -0.536 -0.608 -0.568 -0.637 -0.613 -0.582 -0.348 -0.061 0.294 2.542 2.401 0.877
-0.379 -0.311 -0.264 -0.289 -0.093 -0.283 -0.33 -0.358 -0.563 -0.335 -0.433 -0.51 -0.62 -0.643 -0.598 -0.603 -0.565 -0.538 -0.523 -0.508 -0.525 -0.478 -0.42 -0.393 -0.348 -0.348 -0.275 -0.218 -0.178 -0.155 -0.143 -0.173 -0.203 -0.193 -0.215 -0.173 -0.168 -0.135 -0.153 -0.163 -0.145 -0.135 -0.138 -0.198 -0.095 -0.098 -0.18 -0.165 -0.13 -0.105 -0.103 -0.035 0.057 0.1 0.045 0.035 0.065 0.06 0.082 0.09 0.117 0.11 0.21 0.162 0.177 0.197 0.267 0.38 0.512 0.66 0.72 0.677 0.65 0.625 0.62 0.617 0.6 0.572 0.547 0.6 0.605 0.57 0.555 0.505 0.382 0.41 0.392 0.42 0.447 0.482 0.465 0.482 0.425 0.407 0.45 0.59 0.792 0.79 0.78 0.75 0.662 0.607 0.592 0.592 0.6 0.562 0.555 0.555 0.53 0.617 0.865 1.187 1.28 1.137 1.145 0.957 0.792 0.832 0.937 1.107 1.317 1.315 1.215 1.12 0.682 0.42 0.807 1.292 1.817 2.242 2.295 1.95 1.652 1.54 1.455 1.477 1.465 1.38 1.322 1.295 1.27 1.317 1.355 1.435 1.467 1.492 1.525 1.457 1.452 1.417 1.422 1.38 1.4 1.417 1.432 1.44 1.445 1.42 1.4 1.445 1.477 1.452 1.447 1.442 1.445 1.477 1.465 1.47 1.465 1.507 1.512 1.55 1.562 1.572 1.505 1.495 1.445 1.3 1.267 1.245 1.32 1.405 1.385 1.402 1.382 1.355 1.362 1.36 1.357 1.367 1.325 1.3 1.3 1.282 1.28 1.247 1.237 1.232 1.195 1.22 1.235 1.232 1.242 1.23 1.235 1.222 1.187 1.172 1.157 1.152 1.122 1.157 1.142 1.095 1.1 1.1 1.072 1.08 1.072 1.065 1.04 1.045 1.047 1.015 1.002 0.985 1.032 0.995 0.964 0.959 0.986 0.926 0.884 0.902 1.074 1.396 1.96 1.412 0.296 0.202 0.186 0.18 0.306 0.23 0.228 0.217 0.223 0.244 0.287 0.729 1.252 1.36 1.508 1.571 0.047 0.494 0.648 0.943 0.555 0.32 0.388 0.417 0.013 0.092 -0.009 -0.037 0.237 1.846 3.302 4.226 4.171 3.412 3.328 4.033 4.232 3.841 3.553 3.434 3.475 3.5 3.519 3.52 3.469 3.444 3.37 3.11 2.357 1.717 1.522 1.325 1.161 1.033 0.978 0.876 0.775 0.599 0.568 0.454 0.371 0.308 0.253 0.238 0.311 0.52 0.819 0.727 0.229 0.15 -0.05 -0.149 -0.248 -0.202 -0.283 -0.338 -0.339 -0.359 -0.377 -0.4 -0.452 -0.516 -0.545 -0.451 -0.439 -0.459 -0.466 -0.493 -0.541 -0.546 -0.543 -0.513 -0.564 -0.564 -0.583 -0.584 -0.595 -0.62 -0.624 -0.584 -0.62 -0.627 -0.678 -0.656 -0.609 -0.574 -0.586 -0.637 -0.602 -0.601 -0.625 -0.61 -0.596 -0.586 -0.559 -0.531 -0.538 -0.527 -0.51 -0.507 -0.501 -0.535 -0.515 -0.504 -0.525 -0.46 -0.491 -0.448 -0.464 -0.451 -0.413 -0.536 -0.539 -0.426 -0.541 -0.509 -0.548 -0.558 -0.554 -0.496 -0.507 -0.495 -0.521 -0.659 -0.659 -0.615 -0.607 -0.663 -0.644 -0.717 -0.676 -0.564 -0.544 -0.507 -0.514 -0.563 -0.649 -0.509 -0.611 -0.595 -0.6 -0.651 -0.553 -0.614 -0.609 -0.654 -0.601 -0.601 -0.634 -0.546 -0.591 -0.594 -0.674 -0.62 -0.673 -0.659 -0.673 -0.625 -0.688 -0.737 -0.717 -0.651 -0.681 -0.713 -0.649 -0.734 -0.662 -0.67 -0.726 -0.665 -0.695 -0.786 -0.77 -0.69 -0.722 -0.731 -0.779 -0.74 -0.794 -0.789 -0.732 -0.78 -0.783 -0.794 -0.762 -0.804 -0.814 -0.793 -0.771 -0.781 -0.768 -0.793 -0.785 -0.784 -0.829 -0.813 -0.763 -0.726 -0.759 -0.794 -0.745 -0.762 -0.827 -0.767 -0.792 -0.777 -0.828 -0.792 -0.738 -0.433 0.142 0.345 0.179 -0.338 -0.581 -0.514 -0.472 -0.517 -0.5 -0.321 -0.062 0.3 1.203 3.555 3.768 4.95
-0.382 -0.26 -0.246 -0.08 -0.085 0.022 -0.138 -0.205 -0.058 -0.043 -0.1 -0.313 -0.343 -0.563 -0.633 -0.59 -0.583 -0.57 -0.575 -0.535 -0.508 -0.495 -0.45 -0.418 -0.34 -0.335 -0.34 -0.218 -0.21 -0.133 -0.123 -0.143 -0.175 -0.19 -0.21 -0.17 -0.16 -0.16 -0.135 -0.145 -0.16 -0.148 -0.145 -0.16 -0.123 -0.148 -0.138 -0.185 -0.153 -0.105 -0.075 -0.028 0.032 0.065 0.06 0.052 0.072 0.085 0.072 0.107 0.102 0.112 0.17 0.172 0.235 0.275 0.332 0.427 0.632 0.762 0.76 0.762 0.712 0.725 0.662 0.645 0.58 0.575 0.567 0.615 0.597 0.585 0.575 0.46 0.39 0.41 0.43 0.417 0.43 0.455 0.467 0.465 0.442 0.432 0.44 0.465 0.535 0.672 0.777 0.75 0.755 0.682 0.67 0.65 0.58 0.527 0.532 0.58 0.587 0.61 0.602 1.127 1.5 1.59 1.692 2.03 1.902 1.202 0.847 0.82 1.037 1.15 1.365 1.312 1 0.91 0.697 0.487 1.147 1.56 2.132 2.387 2.002 1.732 1.5 1.43 1.455 1.492 1.43 1.377 1.27 1.267 1.242 1.312 1.345 1.427 1.482 1.427 1.447 1.45 1.445 1.425 1.432 1.422 1.437 1.437 1.447 1.43 1.43 1.447 1.437 1.46 1.417 1.41 1.46 1.472 1.45 1.47 1.467 1.495 1.545 1.522 1.55 1.57 1.48 1.495 1.417 1.272 1.205 1.237 1.372 1.45 1.357 1.417 1.357 1.342 1.325 1.335 1.34 1.327 1.307 1.307 1.272 1.255 1.247 1.24 1.24 1.217 1.23 1.235 1.227 1.202 1.227 1.205 1.212 1.247 1.24 1.245 1.205 1.142 1.157 1.177 1.125 1.12 1.112 1.107 1.095 1.092 1.045 1.037 1.03 1.045 1.022 1.017 1.027 1.007 1.02 0.995 0.974 0.97 0.969 0.935 0.889 0.955 1.172 1.802 1.854 0.736 0.213 0.198 0.172 0.205 0.387 0.239 0.241 0.242 0.221 0.234 0.349 1.049 1.448 1.5 1.792 0.541 0.144 0.09 0.656 0.677 0.055 -0.13 -0.087 0.157 0.022 -0.028 -0.031 0.022 0.115 0.755 3.186 3.403 2.932 2.513 2.374 3.586 4.137 3.324 3.771 3.576 3.447 3.438 3.495 3.529 3.502 3.46 3.441 3.434 3.306 2.793 2.126 1.587 1.493 1.223 1.154 1.133 0.989 0.732 0.672 0.509 0.445 0.534 0.349 0.517 0.997 0.823 0.736 0.662 0.402 0.27 -0.001 0.014 -0.159 -0.105 -0.271 -0.311 -0.299 -0.321 -0.364 -0.424 -0.41 -0.473 -0.557 -0.484 -0.441 -0.451 -0.501 -0.511 -0.534 -0.532 -0.507 -0.531 -0.543 -0.551 -0.548 -0.58 -0.607 -0.631 -0.62 -0.615 -0.641 -0.695 -0.621 -0.574 -0.557 -0.609 -0.547 -0.57 -0.554 -0.555 -0.494 -0.59 -0.568 -0.547 -0.545 -0.526 -0.543 -0.515 -0.499 -0.45 -0.516 -0.428 -0.489 -0.532 -0.472 -0.434 -0.559 -0.404 -0.459 -0.483 -0.434 -0.471 -0.457 -0.498 -0.51 -0.534 -0.512 -0.498 -0.517 -0.57 -0.505 -0.562 -0.624 -0.632 -0.635 -0.621 -0.628 -0.613 -0.625 -0.681 -0.623 -0.569 -0.547 -0.539 -0.512 -0.607 -0.599 -0.565 -0.544 -0.606 -0.624 -0.604 -0.555 -0.536 -0.593 -0.538 -0.532 -0.615 -0.586 -0.598 -0.536 -0.618 -0.601 -0.651 -0.694 -0.666 -0.667 -0.617 -0.613 -0.607 -0.628 -0.66 -0.68 -0.697 -0.701 -0.667 -0.679 -0.737 -0.702 -0.763 -0.701 -0.697 -0.707 -0.726 -0.722 -0.782 -0.671 -0.734 -0.747 -0.722 -0.735 -0.738 -0.736 -0.823 -0.825 -0.753 -0.781 -0.695 -0.749 -0.782 -0.799 -0.759 -0.799 -0.798 -0.836 -0.784 -0.706 -0.721 -0.716 -0.728 -0.756 -0.741 -0.734 -0.743 -0.758 -0.782 -0.725 -0.836 -0.709 0.112 0.505 0.839 0.767 -0.544 -0.529 -0.493 -0.433 -0.371 -0.312 -0.117 0.266 0.396 1.434 4.224 6.188 6.411
-0.232 -0.041 -0.205 -0.148 -0.168 0.035 -0.093 -0.033 -0.1 0.042 -0.018 -0.143 -0.225 -0.383 -0.523 -0.628 -0.633 -0.603 -0.54 -0.55 -0.523 -0.503 -0.48 -0.453 -0.4 -0.373 -0.318 -0.293 -0.19 -0.155 -0.155 -0.155 -0.193 -0.205 -0.22 -0.18 -0.155 -0.153 -0.163 -0.193 -0.203 -0.183 -0.15 -0.128 -0.13 -0.103 -0.15 -0.208 -0.15 -0.113 -0.063 -0.04 -0 0.052 0.06 0.06 0.09 0.09 0.102 0.105 0.105 0.11 0.167 0.182 0.255 0.297 0.382 0.537 0.732 0.802 0.802 0.802 0.757 0.74 0.687 0.66 0.615 0.597 0.585 0.617 0.607 0.595 0.527 0.395 0.352 0.435 0.43 0.442 0.475 0.457 0.467 0.467 0.48 0.46 0.475 0.46 0.457 0.477 0.552 0.625 0.71 0.76 0.715 0.66 0.575 0.51 0.54 0.54 0.507 0.53 0.8 1.245 0.785 0.645 1.315 2.102 1.81 1.792 1.545 1.202 0.817 0.81 0.8 1.13 1.147 1.645 1.327 0.775 0.345 0.932 1.537 2.267 2.387 1.932 1.58 1.505 1.432 1.457 1.467 1.432 1.345 1.337 1.24 1.205 1.195 1.277 1.32 1.39 1.405 1.43 1.415 1.455 1.477 1.397 1.412 1.467 1.422 1.45 1.447 1.46 1.415 1.455 1.467 1.427 1.42 1.47 1.475 1.487 1.432 1.457 1.525 1.52 1.532 1.517 1.52 1.48 1.42 1.425 1.355 1.297 1.38 1.397 1.385 1.4 1.387 1.35 1.322 1.337 1.3 1.27 1.29 1.267 1.232 1.242 1.242 1.26 1.235 1.23 1.23 1.205 1.212 1.187 1.212 1.192 1.21 1.24 1.22 1.215 1.187 1.187 1.15 1.15 1.157 1.12 1.117 1.105 1.095 1.082 1.077 1.047 1.065 1.027 1.04 1.015 0.997 0.997 1 0.982 0.976 0.977 0.996 0.936 0.878 0.966 1.171 1.821 1.963 0.903 0.214 0.225 0.197 0.213 0.324 0.245 0.24 0.236 0.231 0.264 0.634 1.32 1.348 1.458 0.91 0.337 0.179 0.048 0.323 -0.085 -0.138 -0.118 -0.12 0.057 -0.096 0.035 -0.042 0.076 0.441 0.269 2.33 2.409 2.702 1.987 1.657 2.75 4.245 4.387 3.559 3.576 4.221 4.367 4.902 3.557 3.508 3.477 3.464 3.413 3.456 3.473 3.078 2.404 1.983 1.561 1.383 1.335 1.169 0.837 0.771 0.635 0.573 0.541 0.706 0.924 1.159 1.163 0.866 0.763 0.601 0.399 0.053 0.026 -0.18 -0.196 -0.193 -0.239 -0.268 -0.338 -0.328 -0.384 -0.366 -0.406 -0.466 -0.457 -0.514 -0.487 -0.479 -0.506 -0.492 -0.47 -0.533 -0.517 -0.512 -0.508 -0.476 -0.556 -0.568 -0.622 -0.608 -0.601 -0.637 -0.649 -0.59 -0.555 -0.556 -0.588 -0.555 -0.506 -0.515 -0.471 -0.546 -0.553 -0.497 -0.534 -0.55 -0.481 -0.483 -0.467 -0.511 -0.451 -0.508 -0.449 -0.433 -0.506 -0.472 -0.475 -0.454 -0.488 -0.413 -0.456 -0.442 -0.398 -0.402 -0.433 -0.517 -0.454 -0.47 -0.511 -0.513 -0.553 -0.541 -0.631 -0.641 -0.571 -0.599 -0.573 -0.581 -0.593 -0.624 -0.666 -0.597 -0.535 -0.507 -0.55 -0.566 -0.63 -0.547 -0.596 -0.561 -0.617 -0.565 -0.508 -0.568 -0.559 -0.548 -0.603 -0.569 -0.583 -0.578 -0.576 -0.65 -0.607 -0.648 -0.574 -0.649 -0.657 -0.654 -0.596 -0.623 -0.59 -0.596 -0.593 -0.628 -0.68 -0.679 -0.663 -0.612 -0.666 -0.69 -0.702 -0.706 -0.646 -0.705 -0.694 -0.734 -0.687 -0.679 -0.687 -0.742 -0.722 -0.741 -0.767 -0.739 -0.856 -0.73 -0.756 -0.772 -0.714 -0.745 -0.774 -0.822 -0.783 -0.818 -0.725 -0.782 -0.783 -0.763 -0.749 -0.782 -0.72 -0.721 -0.712 -0.704 -0.722 -0.8 -0.787 -0.828 -0.486 0.306 0.486 0.027 0.609 -0.308 -0.526 -0.501 -0.447 -0.328 -0.269 -0.251 -0.106 0.292 0.542 0.75 5.747 6.509 6.61
-0.251 0.05 0.055 -0.198 0.025 -0.113 -0.163 0.032 0.052 -0.023 -0.03 -0.015 -0.048 -0.063 -0.245 -0.553 -0.605 -0.62 -0.593 -0.63 -0.55 -0.533 -0.485 -0.48 -0.433 -0.395 -0.36 -0.35 -0.255 -0.178 -0.153 -0.145 -0.208 -0.193 -0.208 -0.22 -0.153 -0.148 -0.123 -0.188 -0.203 -0.193 -0.153 -0.163 -0.133 -0.08 -0.155 -0.175 -0.13 -0.105 -0.08 -0.053 -0.02 0.045 0.027 0.065 0.09 0.085 0.11 0.15 0.137 0.14 0.142 0.187 0.25 0.327 0.472 0.59 0.69 0.745 0.772 0.8 0.785 0.745 0.725 0.705 0.632 0.637 0.587 0.602 0.61 0.58 0.492 0.405 0.42 0.467 0.497 0.505 0.502 0.49 0.497 0.5 0.497 0.5 0.515 0.497 0.492 0.445 0.425 0.465 0.482 0.565 0.66 0.66 0.685 0.637 0.61 0.635 0.532 0.647 0.735 0.775 0.462 0.48 0.877 1.145 0.95 0.987 1.562 2.062 1.44 1.062 0.755 0.707 0.835 1.377 1.54 1.57 1.135 0.287 0.887 1.562 2.17 2.407 2.092 1.84 1.587 1.58 1.45 1.38 1.382 1.385 1.292 1.292 1.24 1.19 1.187 1.23 1.327 1.377 1.42 1.4 1.482 1.4 1.375 1.462 1.48 1.427 1.397 1.415 1.42 1.39 1.447 1.44 1.435 1.427 1.43 1.427 1.427 1.447 1.477 1.492 1.482 1.485 1.495 1.485 1.485 1.417 1.437 1.392 1.4 1.395 1.412 1.355 1.337 1.322 1.305 1.287 1.312 1.277 1.297 1.317 1.27 1.25 1.25 1.235 1.212 1.225 1.22 1.207 1.205 1.205 1.175 1.187 1.197 1.197 1.192 1.197 1.212 1.192 1.17 1.175 1.147 1.127 1.1 1.085 1.072 1.055 1.1 1.065 1.052 1.04 1.025 1.017 1.017 1.012 1.002 1.022 0.997 0.976 0.975 0.945 0.876 0.962 1.163 1.692 2.08 1.245 0.345 0.236 0.191 0.224 0.309 0.258 0.255 0.243 0.258 0.32 0.848 1.433 1.362 1.491 0.377 0.301 0.184 0.174 0.069 -0.14 -0.133 -0.133 -0.105 0.119 0.045 0.172 0.052 0.199 -0.005 0.397 0.425 1.552 0.536 0.727 1.687 2.399 3.311 3.653 3.093 3.679 4.662 5.89 5.755 4.791 3.828 3.464 3.481 3.48 3.484 3.533 3.425 3.101 2.607 1.826 1.585 1.44 1.309 1.117 1.069 0.833 0.712 0.759 1.054 1.115 1.144 1.3 1.007 0.883 0.572 0.452 0.156 0.089 -0.116 -0.083 -0.151 -0.226 -0.216 -0.295 -0.341 -0.413 -0.311 -0.348 -0.422 -0.432 -0.439 -0.45 -0.486 -0.493 -0.481 -0.458 -0.495 -0.476 -0.517 -0.513 -0.539 -0.56 -0.603 -0.565 -0.624 -0.586 -0.565 -0.581 -0.588 -0.523 -0.565 -0.521 -0.517 -0.505 -0.533 -0.482 -0.51 -0.49 -0.437 -0.555 -0.561 -0.471 -0.508 -0.48 -0.441 -0.445 -0.434 -0.447 -0.465 -0.508 -0.444 -0.407 -0.478 -0.422 -0.404 -0.427 -0.355 -0.428 -0.5 -0.452 -0.421 -0.468 -0.486 -0.556 -0.468 -0.544 -0.616 -0.583 -0.568 -0.551 -0.583 -0.624 -0.591 -0.557 -0.628 -0.588 -0.546 -0.53 -0.523 -0.535 -0.52 -0.573 -0.519 -0.577 -0.539 -0.517 -0.503 -0.523 -0.56 -0.567 -0.605 -0.551 -0.617 -0.598 -0.523 -0.549 -0.539 -0.622 -0.574 -0.559 -0.622 -0.572 -0.598 -0.597 -0.627 -0.624 -0.614 -0.592 -0.563 -0.667 -0.671 -0.621 -0.653 -0.642 -0.654 -0.65 -0.64 -0.664 -0.757 -0.801 -0.733 -0.726 -0.672 -0.677 -0.727 -0.743 -0.754 -0.702 -0.83 -0.751 -0.686 -0.754 -0.769 -0.768 -0.714 -0.735 -0.742 -0.718 -0.744 -0.712 -0.69 -0.741 -0.73 -0.685 -0.788 -0.746 -0.72 -0.734 -0.731 -0.761 -0.649 -0.121 -0.28 0.472 0.424 -0.155 -0.557 -0.465 -0.515 -0.406 -0.38 -0.352 -0.216 -0.162 -0.174 -0.105 0.117 0.515 0.54 2.174 6.093 6.601
-0.321 -0.028 -0.093 -0.018 0.127 -0.098 -0.178 -0.06 -0.098 -0.125 -0.15 -0.06 0.045 0.047 -0.085 -0.218 -0.423 -0.603 -0.645 -0.618 -0.555 -0.535 -0.508 -0.475 -0.453 -0.458 -0.433 -0.35 -0.34 -0.225 -0.183 -0.22 -0.215 -0.225 -0.213 -0.19 -0.183 -0.178 -0.178 -0.225 -0.228 -0.22 -0.173 -0.14 -0.14 -0.17 -0.193 -0.143 -0.11 -0.093 -0.07 -0.053 -0.035 -0 -0.008 0.052 0.09 0.107 0.132 0.14 0.157 0.165 0.167 0.21 0.295 0.42 0.597 0.727 0.765 0.765 0.807 0.825 0.86 0.782 0.745 0.7 0.657 0.657 0.605 0.595 0.53 0.552 0.49 0.447 0.5 0.517 0.537 0.497 0.492 0.527 0.532 0.507 0.522 0.535 0.575 0.562 0.515 0.505 0.43 0.387 0.43 0.425 0.457 0.56 0.692 0.815 0.797 0.805 0.565 0.587 0.46 0.56 0.427 0.415 0.45 0.512 0.447 0.602 0.927 1.335 1.492 1.732 1.385 0.835 0.73 0.79 1.012 1.402 1.445 0.725 0.217 0.917 1.52 2.07 2.367 2.212 1.967 1.64 1.582 1.405 1.427 1.402 1.375 1.357 1.337 1.272 1.22 1.215 1.175 1.22 1.292 1.375 1.41 1.39 1.38 1.43 1.367 1.422 1.397 1.42 1.38 1.35 1.49 1.43 1.422 1.435 1.41 1.495 1.447 1.407 1.455 1.477 1.432 1.45 1.457 1.48 1.462 1.46 1.447 1.397 1.387 1.362 1.357 1.375 1.337 1.315 1.342 1.287 1.31 1.315 1.285 1.267 1.257 1.252 1.267 1.255 1.245 1.235 1.255 1.205 1.255 1.2 1.185 1.237 1.207 1.197 1.177 1.19 1.192 1.202 1.192 1.18 1.147 1.147 1.092 1.067 1.095 1.097 1.08 1.06 1.045 1.032 1.052 1.025 1.022 1.025 1.002 1.002 0.999 0.992 0.965 0.951 0.861 0.905 1.068 1.381 1.977 1.865 0.823 0.262 0.208 0.247 0.284 0.274 0.264 0.272 0.286 0.342 1.086 1.357 1.366 1.076 0.198 0.839 0.042 0.015 0.174 -0.104 -0.125 -0.105 -0.085 -0.073 0.126 0.072 -0.002 0.078 0.014 0.447 0.604 0.522 0.506 1.188 2.388 3.431 2.536 3.008 4.598 6.494 5.943 5.044 6.057 5.712 5.345 5.114 3.465 3.485 3.606 3.954 3.596 3.459 3.285 2.364 1.94 1.622 1.633 1.392 1.231 1.008 0.904 1.345 1.588 1.433 1.394 1.325 1.159 0.996 0.408 0.267 0.125 0.028 -0.094 -0.053 -0.115 -0.191 -0.199 -0.25 -0.319 -0.34 -0.279 -0.3 -0.405 -0.36 -0.395 -0.413 -0.396 -0.474 -0.465 -0.435 -0.47 -0.464 -0.51 -0.54 -0.543 -0.553 -0.533 -0.532 -0.576 -0.529 -0.49 -0.516 -0.526 -0.557 -0.533 -0.465 -0.542 -0.484 -0.495 -0.51 -0.52 -0.524 -0.454 -0.51 -0.551 -0.562 -0.508 -0.458 -0.471 -0.481 -0.483 -0.439 -0.493 -0.453 -0.448 -0.514 -0.38 -0.437 -0.369 -0.407 -0.458 -0.437 -0.433 -0.502 -0.512 -0.499 -0.522 -0.46 -0.568 -0.638 -0.472 -0.52 -0.559 -0.543 -0.528 -0.47 -0.589 -0.595 -0.572 -0.517 -0.543 -0.489 -0.541 -0.522 -0.516 -0.517 -0.497 -0.519 -0.543 -0.551 -0.531 -0.503 -0.59 -0.53 -0.483 -0.517 -0.553 -0.569 -0.557 -0.556 -0.634 -0.573 -0.573 -0.547 -0.625 -0.626 -0.597 -0.635 -0.606 -0.61 -0.651 -0.638 -0.642 -0.702 -0.644 -0.64 -0.6 -0.719 -0.68 -0.662 -0.659 -0.627 -0.672 -0.658 -0.68 -0.654 -0.701 -0.74 -0.698 -0.692 -0.687 -0.664 -0.766 -0.645 -0.691 -0.765 -0.75 -0.704 -0.711 -0.771 -0.704 -0.763 -0.723 -0.741 -0.775 -0.756 -0.712 -0.759 -0.724 -0.733 -0.735 -0.532 -0.477 -0.412 -0.093 0.4 0.447 0.431 0.1 -0.377 -0.439 -0.495 -0.405 -0.28 -0.281 -0.207 -0.186 -0.138 -0.1 -0.036 0.031 0.213 0.649 0.817 3.611 6.235
-0.395 -0.128 -0.115 0.1 0.125 -0.08 -0.178 -0.105 -0.078 -0.128 -0.17 -0.11 -0.09 -0.02 -0.14 -0.103 -0.22 -0.42 -0.625 -0.638 -0.59 -0.545 -0.503 -0.493 -0.483 -0.475 -0.42 -0.408 -0.353 -0.3 -0.283 -0.28 -0.228 -0.243 -0.198 -0.19 -0.183 -0.173 -0.19 -0.225 -0.17 -0.195 -0.155 -0.143 -0.133 -0.183 -0.15 -0.123 -0.115 -0.075 -0.065 -0.055 -0.04 -0.05 -0.015 0.062 0.077 0.122 0.135 0.13 0.152 0.192 0.212 0.272 0.357 0.447 0.627 0.8 0.715 0.747 0.82 0.787 0.775 0.74 0.73 0.715 0.68 0.642 0.607 0.555 0.505 0.462 0.422 0.487 0.537 0.527 0.562 0.525 0.502 0.522 0.525 0.522 0.545 0.535 0.585 0.61 0.555 0.522 0.49 0.475 0.447 0.425 0.447 0.46 0.542 0.642 0.715 0.6 0.487 0.45 0.47 0.512 0.452 0.435 0.447 0.455 0.482 0.53 0.61 0.68 0.867 1.08 1.42 1.422 1.567 0.935 0.762 0.822 1.005 1.155 0.532 0.43 1.257 1.525 1.982 2.295 2.365 2.22 1.875 1.657 1.532 1.43 1.42 1.397 1.382 1.352 1.35 1.292 1.245 1.22 1.2 1.267 1.322 1.34 1.387 1.43 1.407 1.427 1.38 1.452 1.42 1.417 1.375 1.392 1.357 1.387 1.402 1.425 1.435 1.452 1.417 1.445 1.417 1.405 1.41 1.417 1.452 1.462 1.465 1.445 1.44 1.385 1.382 1.322 1.352 1.31 1.332 1.287 1.272 1.28 1.262 1.272 1.262 1.242 1.255 1.255 1.25 1.22 1.222 1.257 1.235 1.207 1.207 1.2 1.202 1.187 1.185 1.185 1.177 1.192 1.192 1.167 1.167 1.132 1.11 1.09 1.097 1.07 1.082 1.055 1.05 1.035 1.032 1.032 1.025 1.012 1.017 0.98 0.992 0.977 0.987 0.955 0.894 0.854 0.936 1.155 1.451 1.95 1.575 0.525 0.272 0.21 0.252 0.266 0.277 0.304 0.312 0.404 1.219 1.428 1.388 0.715 0.341 0.468 0.207 0.217 0.054 -0.098 -0.078 0.073 0.202 0.125 -0.021 0.013 0.06 0.029 0.191 0.579 0.607 0.531 1.468 2.72 3.949 6.122 5.005 3.062 5.675 6.969 6.117 5.843 4.181 6.046 6.816 5.389 3.632 3.467 3.541 3.662 3.639 3.453 3.444 3.243 2.608 1.967 1.702 1.629 1.507 1.303 1.122 1.755 1.874 1.784 1.602 1.469 1.069 0.994 0.477 0.33 0.212 0.17 -0.02 -0.037 -0.058 -0.088 -0.102 -0.184 -0.251 -0.254 -0.264 -0.301 -0.373 -0.338 -0.387 -0.412 -0.382 -0.43 -0.378 -0.393 -0.435 -0.427 -0.483 -0.497 -0.536 -0.525 -0.471 -0.574 -0.537 -0.468 -0.51 -0.478 -0.453 -0.465 -0.457 -0.487 -0.501 -0.539 -0.455 -0.512 -0.494 -0.536 -0.459 -0.546 -0.483 -0.54 -0.566 -0.436 -0.503 -0.436 -0.447 -0.389 -0.454 -0.388 -0.444 -0.415 -0.38 -0.42 -0.439 -0.388 -0.372 -0.361 -0.496 -0.496 -0.484 -0.454 -0.481 -0.494 -0.612 -0.524 -0.516 -0.47 -0.527 -0.502 -0.556 -0.538 -0.513 -0.526 -0.523 -0.568 -0.503 -0.545 -0.577 -0.524 -0.568 -0.522 -0.468 -0.496 -0.521 -0.519 -0.529 -0.525 -0.541 -0.519 -0.513 -0.567 -0.547 -0.574 -0.58 -0.581 -0.527 -0.551 -0.555 -0.565 -0.604 -0.639 -0.572 -0.583 -0.565 -0.615 -0.666 -0.57 -0.593 -0.652 -0.59 -0.559 -0.589 -0.604 -0.673 -0.687 -0.697 -0.64 -0.632 -0.678 -0.697 -0.576 -0.697 -0.672 -0.755 -0.687 -0.74 -0.752 -0.689 -0.694 -0.735 -0.707 -0.733 -0.714 -0.743 -0.718 -0.687 -0.711 -0.744 -0.738 -0.706 -0.628 -0.665 -0.698 -0.694 -0.714 -0.693 -0.526 -0.201 -0.207 0.277 0.418 -0.007 -0.188 -0.211 -0.458 -0.393 -0.396 -0.332 -0.284 -0.249 -0.116 -0.086 -0.089 -0.037 -0.129 1.373 0.734 1.225 1.194 1.34 4.523
-0.45 -0.26 -0.228 0.015 0.03 -0.078 -0.235 -0.248 -0.21 -0.12 -0.08 -0.048 -0.138 -0.13 -0.155 -0.038 -0.265 -0.253 -0.413 -0.623 -0.635 -0.59 -0.528 -0.495 -0.503 -0.453 -0.44 -0.425 -0.4 -0.35 -0.303 -0.295 -0.29 -0.238 -0.19 -0.175 -0.173 -0.2 -0.21 -0.198 -0.175 -0.178 -0.158 -0.148 -0.15 -0.138 -0.135 -0.11 -0.113 -0.07 -0.06 -0.045 -0.033 -0.063 -0.013 0.03 0.085 0.09 0.15 0.15 0.157 0.212 0.262 0.3 0.365 0.44 0.615 0.79 0.707 0.762 0.8 0.785 0.737 0.725 0.757 0.78 0.727 0.635 0.612 0.562 0.49 0.39 0.38 0.527 0.542 0.54 0.557 0.567 0.505 0.487 0.54 0.555 0.567 0.535 0.552 0.592 0.567 0.56 0.552 0.545 0.512 0.477 0.492 0.495 0.482 0.472 0.497 0.472 0.48 0.48 0.472 0.49 0.462 0.45 0.447 0.422 0.437 0.487 0.545 0.57 0.602 0.602 0.755 0.92 1.56 1.665 1.425 0.947 0.79 0.852 1.002 0.692 0.88 1.1 1.282 1.482 1.795 2.125 2.217 2.105 1.862 1.625 1.535 1.422 1.392 1.392 1.367 1.367 1.327 1.297 1.202 1.21 1.212 1.2 1.277 1.297 1.39 1.37 1.39 1.432 1.43 1.417 1.412 1.385 1.372 1.427 1.432 1.432 1.422 1.447 1.417 1.415 1.405 1.38 1.425 1.407 1.382 1.392 1.437 1.435 1.445 1.395 1.402 1.395 1.38 1.327 1.335 1.322 1.3 1.292 1.295 1.315 1.267 1.272 1.27 1.252 1.245 1.232 1.22 1.262 1.237 1.215 1.212 1.205 1.202 1.192 1.177 1.157 1.17 1.187 1.212 1.172 1.15 1.105 1.072 1.09 1.072 1.072 1.08 1.075 1.05 1.04 1.03 1.042 1.012 1.022 0.995 0.997 1.002 0.982 0.983 0.968 0.926 0.866 0.854 0.919 1.095 1.706 1.972 1.415 0.633 0.291 0.253 0.25 0.294 0.337 0.346 0.517 1.365 1.453 1.297 0.69 0.2 0.126 0.185 0.167 -0.039 -0.075 0.128 -0.019 -0.064 0.164 -0.003 -0.037 -0.036 0.092 0.196 0.086 0.18 0.637 1.964 3.593 5.765 6.251 4.705 2.56 3.154 3.613 5.713 5.968 6.972 4.95 5.379 5.509 4.439 3.482 3.398 3.473 3.505 3.464 3.455 3.454 3.398 2.703 2.044 1.869 1.65 1.616 1.758 1.79 2.285 1.987 1.799 1.624 0.789 0.647 0.461 0.4 0.266 0.207 0.087 0.034 0.027 0.006 0.006 -0.148 -0.219 -0.188 -0.24 -0.284 -0.314 -0.297 -0.349 -0.37 -0.338 -0.405 -0.402 -0.37 -0.394 -0.407 -0.423 -0.444 -0.522 -0.508 -0.431 -0.48 -0.449 -0.465 -0.468 -0.43 -0.42 -0.449 -0.47 -0.386 -0.506 -0.409 -0.473 -0.487 -0.476 -0.473 -0.418 -0.498 -0.553 -0.548 -0.494 -0.501 -0.445 -0.486 -0.38 -0.4 -0.422 -0.412 -0.418 -0.411 -0.382 -0.374 -0.347 -0.376 -0.403 -0.356 -0.423 -0.417 -0.492 -0.42 -0.472 -0.593 -0.586 -0.479 -0.447 -0.564 -0.516 -0.551 -0.431 -0.561 -0.538 -0.551 -0.549 -0.506 -0.506 -0.566 -0.505 -0.564 -0.473 -0.513 -0.456 -0.532 -0.529 -0.53 -0.525 -0.468 -0.516 -0.575 -0.543 -0.518 -0.569 -0.568 -0.562 -0.562 -0.523 -0.549 -0.563 -0.594 -0.606 -0.595 -0.573 -0.599 -0.52 -0.594 -0.6 -0.586 -0.562 -0.647 -0.649 -0.598 -0.565 -0.598 -0.646 -0.659 -0.623 -0.625 -0.623 -0.708 -0.674 -0.701 -0.69 -0.634 -0.671 -0.603 -0.686 -0.784 -0.674 -0.742 -0.651 -0.657 -0.635 -0.727 -0.676 -0.692 -0.663 -0.671 -0.725 -0.699 -0.704 -0.685 -0.673 -0.694 -0.66 -0.708 -0.57 0.621 0.563 0.42 0.453 0.136 -0.421 -0.348 -0.404 -0.411 -0.38 -0.357 -0.257 -0.236 -0.172 -0.094 -0.101 -0.029 0.007 0.063 2.912 2.801 2.192 1.557 1.414 1.457
-0.498 0.095 -0.153 0.062 0.015 -0.123 -0.173 -0.1 -0.24 -0.078 -0.235 -0.13 -0.033 -0.245 -0.103 -0.185 -0.115 -0.25 -0.12 -0.48 -0.598 -0.648 -0.58 -0.508 -0.478 -0.415 -0.398 -0.39 -0.4 -0.383 -0.348 -0.325 -0.293 -0.253 -0.198 -0.18 -0.183 -0.213 -0.213 -0.188 -0.168 -0.165 -0.153 -0.135 -0.118 -0.123 -0.13 -0.093 -0.085 -0.063 -0.068 -0.035 -0.05 -0.035 0.005 0.035 0.08 0.1 0.12 0.137 0.172 0.212 0.255 0.302 0.365 0.45 0.547 0.61 0.625 0.71 0.755 0.712 0.617 0.612 0.715 0.777 0.737 0.607 0.592 0.57 0.465 0.402 0.465 0.542 0.55 0.565 0.58 0.537 0.537 0.485 0.512 0.53 0.54 0.512 0.53 0.565 0.532 0.53 0.56 0.59 0.505 0.472 0.485 0.472 0.48 0.467 0.465 0.457 0.467 0.477 0.455 0.455 0.45 0.415 0.437 0.45 0.45 0.472 0.485 0.515 0.5 0.405 0.462 0.512 0.787 1.177 1.565 1.735 1.345 0.985 0.805 0.78 0.665 0.535 0.617 1.005 1.295 1.447 1.677 2.035 2.22 2.142 1.862 1.612 1.45 1.48 1.415 1.39 1.315 1.3 1.277 1.305 1.217 1.212 1.21 1.232 1.337 1.412 1.407 1.415 1.43 1.367 1.352 1.385 1.342 1.405 1.425 1.4 1.41 1.425 1.35 1.402 1.417 1.36 1.362 1.39 1.36 1.347 1.367 1.39 1.405 1.407 1.412 1.4 1.392 1.367 1.312 1.305 1.29 1.305 1.307 1.287 1.27 1.242 1.25 1.272 1.25 1.21 1.192 1.207 1.235 1.202 1.195 1.19 1.182 1.185 1.177 1.167 1.162 1.172 1.182 1.14 1.105 1.105 1.092 1.077 1.082 1.07 1.08 1.07 1.045 1.047 1.012 1.032 1.03 1.01 0.995 0.987 1.002 0.982 0.947 0.939 0.955 0.9 0.823 0.819 0.879 1.116 1.718 1.836 1.538 1.02 0.427 0.298 0.303 0.339 0.349 0.638 1.479 1.505 0.81 0.418 0.379 0.151 0.128 0.539 0.129 -0.04 -0.053 -0.028 -0.066 -0.102 -0.071 0.002 0.208 0.252 0.108 -0.02 0.199 0.837 1.894 4.293 5.777 6.397 4.221 2.609 4.02 3.426 2.995 6.868 6.798 6.701 7.091 6.177 4.897 3.965 3.427 3.362 3.414 3.551 3.497 3.461 3.429 3.266 3.309 2.248 1.859 2.26 2.615 2.619 2.324 2.166 1.887 1.099 0.724 0.645 0.485 0.442 0.354 0.289 0.218 0.117 0.084 0.01 -0.038 -0.086 -0.179 -0.201 -0.154 -0.21 -0.264 -0.273 -0.297 -0.362 -0.338 -0.385 -0.392 -0.393 -0.403 -0.425 -0.434 -0.424 -0.443 -0.455 -0.413 -0.445 -0.388 -0.415 -0.397 -0.387 -0.388 -0.477 -0.403 -0.39 -0.444 -0.426 -0.448 -0.423 -0.463 -0.46 -0.496 -0.439 -0.5 -0.468 -0.503 -0.421 -0.433 -0.413 -0.343 -0.402 -0.391 -0.363 -0.439 -0.426 -0.364 -0.342 -0.428 -0.401 -0.376 -0.4 -0.404 -0.51 -0.476 -0.472 -0.485 -0.598 -0.481 -0.512 -0.566 -0.519 -0.487 -0.471 -0.54 -0.509 -0.468 -0.489 -0.513 -0.489 -0.503 -0.498 -0.508 -0.48 -0.521 -0.48 -0.429 -0.504 -0.489 -0.49 -0.483 -0.528 -0.487 -0.548 -0.497 -0.492 -0.523 -0.533 -0.593 -0.598 -0.611 -0.624 -0.546 -0.519 -0.52 -0.489 -0.546 -0.531 -0.539 -0.554 -0.621 -0.656 -0.594 -0.632 -0.643 -0.616 -0.568 -0.568 -0.63 -0.546 -0.603 -0.672 -0.642 -0.66 -0.648 -0.635 -0.631 -0.689 -0.67 -0.649 -0.747 -0.704 -0.669 -0.754 -0.692 -0.673 -0.636 -0.63 -0.704 -0.659 -0.755 -0.682 -0.72 -0.713 -0.668 -0.694 -0.673 -0.671 -0.657 -0.583 0.675 0.807 0.553 0.639 1.198 1.404 -0.316 -0.416 -0.371 -0.34 -0.327 -0.301 -0.198 -0.198 -0.15 -0.071 -0.018 0.051 0.05 0.106 2.052 4.503 5.911 2.822 2.253 1.458
-0.53 -0.225 -0.11 0.025 -0.093 -0.17 -0.143 -0.18 -0.153 -0.28 -0.218 -0.26 -0.095 -0.085 -0.19 -0.195 -0.243 -0.248 -0.038 -0.23 -0.595 -0.603 -0.585 -0.56 -0.428 -0.435 -0.438 -0.398 -0.385 -0.343 -0.328 -0.333 -0.273 -0.26 -0.213 -0.205 -0.21 -0.185 -0.213 -0.193 -0.168 -0.178 -0.143 -0.118 -0.123 -0.1 -0.108 -0.07 -0.085 -0.053 -0.033 0.01 -0.008 -0.035 0.01 0.04 0.105 0.125 0.14 0.135 0.17 0.217 0.265 0.33 0.357 0.417 0.505 0.587 0.585 0.73 0.74 0.592 0.525 0.567 0.655 0.767 0.755 0.63 0.592 0.537 0.45 0.412 0.517 0.535 0.537 0.555 0.582 0.567 0.55 0.547 0.527 0.527 0.495 0.507 0.525 0.54 0.515 0.52 0.582 0.542 0.495 0.46 0.462 0.442 0.452 0.442 0.45 0.457 0.45 0.437 0.452 0.472 0.447 0.452 0.46 0.445 0.445 0.457 0.475 0.472 0.46 0.44 0.4 0.437 0.51 0.655 1.06 1.337 1.695 1.465 1.177 0.77 0.77 0.82 0.612 0.485 0.72 0.975 1.272 1.38 1.635 1.98 2.207 2.13 1.912 1.612 1.49 1.385 1.372 1.327 1.352 1.297 1.285 1.285 1.277 1.27 1.225 1.247 1.355 1.387 1.455 1.39 1.36 1.422 1.365 1.44 1.372 1.382 1.355 1.415 1.402 1.382 1.377 1.367 1.352 1.36 1.385 1.387 1.37 1.392 1.377 1.367 1.345 1.372 1.425 1.377 1.345 1.305 1.272 1.272 1.245 1.307 1.237 1.24 1.22 1.24 1.227 1.195 1.185 1.18 1.187 1.185 1.202 1.202 1.21 1.195 1.17 1.17 1.172 1.172 1.162 1.142 1.147 1.105 1.095 1.087 1.087 1.07 1.082 1.055 1.022 1.052 1.032 1.022 1.007 0.977 0.995 0.977 0.975 0.977 0.967 0.947 0.934 0.888 0.831 0.803 0.825 0.864 1.041 1.486 1.809 1.767 1.336 0.683 0.305 0.351 0.366 0.892 1.596 1.396 0.556 0.468 0.468 0.286 0.184 0.418 0.206 0.235 -0.012 0.105 -0.06 -0.082 -0.076 -0.005 0.226 0.371 0.178 1.496 1.323 1.919 3.85 4.051 6.909 6.441 3.026 2.885 2.768 3.93 2.894 3.753 5.892 6.547 6.959 7.298 6.501 3.847 3.327 3.302 3.347 3.782 3.52 3.484 3.455 3.414 3.436 3.241 2.494 2.785 2.828 2.69 2.5 2.29 1.318 0.915 0.773 0.692 0.582 0.492 0.446 0.394 0.37 0.264 0.161 0.057 -0.032 -0.071 -0.175 -0.19 -0.227 -0.209 -0.225 -0.259 -0.296 -0.309 -0.291 -0.365 -0.361 -0.363 -0.387 -0.394 -0.45 -0.389 -0.463 -0.42 -0.365 -0.402 -0.367 -0.404 -0.398 -0.362 -0.428 -0.427 -0.426 -0.439 -0.48 -0.376 -0.366 -0.422 -0.385 -0.408 -0.48 -0.453 -0.477 -0.427 -0.404 -0.369 -0.421 -0.39 -0.331 -0.375 -0.352 -0.328 -0.346 -0.353 -0.341 -0.35 -0.344 -0.409 -0.394 -0.474 -0.455 -0.443 -0.505 -0.543 -0.559 -0.51 -0.411 -0.495 -0.494 -0.512 -0.499 -0.421 -0.494 -0.516 -0.474 -0.453 -0.462 -0.453 -0.517 -0.48 -0.529 -0.488 -0.414 -0.477 -0.469 -0.461 -0.468 -0.467 -0.531 -0.519 -0.554 -0.519 -0.495 -0.521 -0.517 -0.516 -0.554 -0.538 -0.461 -0.523 -0.504 -0.57 -0.552 -0.585 -0.586 -0.608 -0.608 -0.553 -0.543 -0.614 -0.613 -0.53 -0.603 -0.582 -0.636 -0.635 -0.573 -0.633 -0.698 -0.587 -0.629 -0.663 -0.706 -0.708 -0.663 -0.713 -0.77 -0.718 -0.626 -0.652 -0.738 -0.676 -0.727 -0.683 -0.617 -0.71 -0.689 -0.67 -0.675 -0.679 -0.711 -0.621 -0.611 -0.62 -0.69 -0.639 -0.612 -0.308 0.061 0.483 0.491 1.358 1.376 -0.052 -0.384 -0.301 -0.297 -0.308 -0.277 -0.216 -0.182 -0.071 -0.087 -0.002 0.131 0.172 0.159 0.191 0.461 5.555 7.185 6.935 3.203 2.649
-0.458 -0.028 -0.223 0.027 -0.1 -0.038 0.037 -0.118 0.015 -0.225 -0.388 -0.43 -0.308 -0.228 -0.313 -0.413 -0.313 -0.283 -0.128 -0.1 -0.52 -0.603 -0.56 -0.558 -0.49 -0.44 -0.42 -0.405 -0.343 -0.298 -0.28 -0.285 -0.253 -0.248 -0.213 -0.22 -0.223 -0.215 -0.235 -0.193 -0.178 -0.15 -0.145 -0.125 -0.115 -0.098 -0.08 -0.063 -0.078 -0.038 0.015 0.047 0.03 0.04 0.04 0.067 0.117 0.127 0.152 0.155 0.197 0.215 0.272 0.322 0.357 0.437 0.517 0.582 0.585 0.632 0.702 0.597 0.605 0.587 0.667 0.712 0.715 0.667 0.617 0.54 0.475 0.49 0.542 0.555 0.547 0.545 0.567 0.575 0.58 0.562 0.575 0.562 0.59 0.552 0.562 0.54 0.552 0.505 0.485 0.485 0.475 0.462 0.462 0.447 0.462 0.47 0.47 0.45 0.457 0.462 0.485 0.49 0.44 0.417 0.472 0.495 0.457 0.465 0.482 0.437 0.465 0.487 0.497 0.5 0.46 0.48 0.575 0.697 1.117 1.665 1.675 1.47 1.122 0.795 0.765 0.73 0.567 0.422 0.705 1.027 1.222 1.297 1.567 2.03 2.26 2.147 1.875 1.57 1.575 1.345 1.33 1.34 1.352 1.352 1.327 1.325 1.257 1.247 1.24 1.3 1.442 1.37 1.387 1.41 1.39 1.375 1.38 1.35 1.355 1.387 1.377 1.392 1.382 1.377 1.345 1.317 1.33 1.375 1.342 1.372 1.365 1.357 1.335 1.375 1.38 1.347 1.305 1.325 1.34 1.31 1.255 1.272 1.247 1.225 1.24 1.225 1.197 1.21 1.175 1.187 1.197 1.18 1.195 1.195 1.172 1.19 1.175 1.167 1.14 1.1 1.122 1.117 1.122 1.097 1.082 1.087 1.075 1.08 1.045 1.055 1.032 1.035 1.032 0.992 1.027 1.005 1.005 0.987 0.987 0.97 0.942 0.95 0.927 0.893 0.88 0.843 0.779 0.805 0.834 0.939 1.207 1.56 1.782 1.803 1.212 0.665 0.648 1.427 1.573 0.892 0.499 0.361 0.22 0.133 0.575 0.121 -0.002 -0.02 -0.015 -0.033 0.168 -0.056 -0.08 -0.036 0.159 0.249 1.866 1.792 2.636 2.78 4.406 6.498 6.578 2.948 3.199 3.454 2.745 2.847 2.828 3.078 2.875 4.164 6.266 7.357 5.016 3.055 3.115 3.201 3.283 3.511 3.505 3.487 3.512 3.462 3.391 3.387 3.298 3.217 4.186 2.836 2.588 1.725 1.234 1.022 0.88 0.764 0.669 0.6 0.594 0.54 0.446 0.378 0.244 0.203 0.016 -0.036 -0.143 -0.133 -0.178 -0.187 -0.217 -0.276 -0.274 -0.287 -0.266 -0.312 -0.321 -0.319 -0.342 -0.356 -0.379 -0.395 -0.445 -0.428 -0.402 -0.352 -0.384 -0.4 -0.415 -0.378 -0.375 -0.343 -0.334 -0.381 -0.389 -0.335 -0.357 -0.41 -0.432 -0.466 -0.442 -0.41 -0.438 -0.385 -0.398 -0.431 -0.384 -0.374 -0.352 -0.34 -0.3 -0.319 -0.356 -0.392 -0.394 -0.365 -0.37 -0.439 -0.419 -0.35 -0.439 -0.449 -0.467 -0.587 -0.543 -0.484 -0.518 -0.463 -0.474 -0.456 -0.43 -0.469 -0.525 -0.398 -0.448 -0.417 -0.485 -0.508 -0.474 -0.537 -0.488 -0.514 -0.48 -0.431 -0.539 -0.48 -0.441 -0.477 -0.481 -0.514 -0.491 -0.487 -0.495 -0.491 -0.496 -0.521 -0.511 -0.525 -0.518 -0.52 -0.511 -0.533 -0.494 -0.532 -0.609 -0.562 -0.547 -0.579 -0.593 -0.598 -0.568 -0.603 -0.537 -0.568 -0.629 -0.551 -0.592 -0.499 -0.655 -0.632 -0.64 -0.681 -0.689 -0.746 -0.743 -0.712 -0.794 -0.81 -0.676 -0.746 -0.65 -0.651 -0.676 -0.669 -0.647 -0.708 -0.694 -0.655 -0.655 -0.634 -0.639 -0.627 -0.655 -0.705 -0.143 0.453 -0.087 0.013 0.496 0.323 0.395 0.87 -0.199 -0.381 -0.343 -0.269 -0.261 -0.258 -0.217 -0.135 -0.084 -0.084 -0.012 0.146 0.296 0.284 0.359 0.306 0.53 1.251 6.977 7.337 6.209 2.761
-0.383 0.105 -0.02 -0.26 -0.248 -0.148 -0.018 -0.053 -0.045 -0.243 -0.393 -0.543 -0.303 -0.155 -0.405 -0.393 -0.433 -0.295 -0.08 -0.26 -0.613 -0.625 -0.525 -0.498 -0.493 -0.443 -0.445 -0.423 -0.348 -0.3 -0.265 -0.288 -0.273 -0.273 -0.235 -0.23 -0.208 -0.233 -0.24 -0.22 -0.198 -0.158 -0.155 -0.113 -0.118 -0.11 -0.075 -0.065 -0.04 -0 0.035 0.06 0.07 0.09 0.097 0.08 0.115 0.11 0.15 0.165 0.195 0.227 0.26 0.327 0.397 0.442 0.502 0.525 0.555 0.622 0.645 0.627 0.615 0.597 0.637 0.735 0.7 0.692 0.592 0.502 0.517 0.565 0.57 0.565 0.562 0.557 0.535 0.567 0.595 0.6 0.6 0.587 0.582 0.502 0.58 0.522 0.56 0.487 0.435 0.432 0.44 0.477 0.452 0.477 0.472 0.495 0.5 0.505 0.49 0.465 0.48 0.465 0.427 0.467 0.432 0.482 0.462 0.505 0.495 0.427 0.445 0.475 0.52 0.527 0.465 0.475 0.487 0.45 0.565 0.762 0.967 1.2 1.565 1.405 1.052 0.78 0.735 0.662 0.627 0.645 0.79 0.965 1.18 1.397 1.715 1.95 2.157 2.105 2 1.612 1.53 1.407 1.51 1.415 1.367 1.317 1.307 1.305 1.255 1.317 1.275 1.312 1.36 1.402 1.357 1.372 1.36 1.41 1.385 1.362 1.382 1.372 1.32 1.35 1.332 1.31 1.375 1.345 1.335 1.305 1.365 1.38 1.347 1.322 1.262 1.335 1.317 1.29 1.33 1.317 1.337 1.285 1.262 1.29 1.247 1.252 1.217 1.21 1.202 1.19 1.182 1.2 1.147 1.155 1.152 1.177 1.165 1.165 1.157 1.175 1.117 1.112 1.087 1.095 1.105 1.092 1.075 1.065 1.055 1.047 1.05 1.047 1.055 1.032 1.01 0.99 0.997 0.995 0.965 0.977 0.962 0.94 0.907 0.892 0.875 0.854 0.816 0.778 0.762 0.704 0.71 0.886 1.179 1.567 1.797 1.859 1.612 1.697 1.335 0.386 0.287 0.357 0.203 0.169 0.287 0.085 0.027 0.142 0.112 0.043 -0.048 0.13 -0.062 -0.03 0.131 3.426 6.446 7.833 7.341 5.226 2.414 5.099 6.149 2.369 2.62 2.638 3.021 2.502 2.551 3.268 2.699 2.808 3.442 5.568 2.878 2.895 3.042 3.185 3.287 3.409 3.394 3.434 3.481 3.518 3.477 3.428 3.415 3.432 3.241 3.046 2.15 1.635 1.353 1.166 1.012 0.865 0.772 0.719 0.726 0.638 0.543 0.42 0.239 0.278 0.059 -0.015 -0.104 -0.053 -0.107 -0.132 -0.19 -0.288 -0.328 -0.229 -0.261 -0.276 -0.307 -0.344 -0.34 -0.353 -0.385 -0.397 -0.374 -0.409 -0.38 -0.344 -0.36 -0.361 -0.357 -0.308 -0.344 -0.319 -0.32 -0.38 -0.334 -0.355 -0.36 -0.35 -0.407 -0.427 -0.389 -0.417 -0.405 -0.355 -0.39 -0.421 -0.396 -0.377 -0.388 -0.381 -0.36 -0.32 -0.34 -0.402 -0.372 -0.365 -0.334 -0.321 -0.396 -0.448 -0.384 -0.449 -0.49 -0.495 -0.521 -0.446 -0.455 -0.469 -0.402 -0.463 -0.474 -0.459 -0.476 -0.495 -0.446 -0.508 -0.462 -0.499 -0.524 -0.503 -0.48 -0.462 -0.485 -0.451 -0.477 -0.437 -0.478 -0.468 -0.422 -0.465 -0.477 -0.461 -0.452 -0.477 -0.464 -0.481 -0.461 -0.506 -0.453 -0.555 -0.462 -0.482 -0.506 -0.562 -0.537 -0.533 -0.553 -0.586 -0.579 -0.546 -0.544 -0.534 -0.498 -0.571 -0.569 -0.578 -0.555 -0.607 -0.593 -0.635 -0.657 -0.7 -0.761 -0.769 -0.8 -0.794 -0.67 -0.327 -0.634 -0.626 -0.617 -0.602 -0.63 -0.604 -0.641 -0.588 -0.651 -0.596 -0.603 -0.605 -0.577 -0.611 -0.695 -0.237 1.381 0.902 0.306 0.518 -0.036 -0.425 -0.398 -0.356 -0.277 -0.252 -0.292 -0.24 -0.254 -0.195 -0.184 -0.065 0.01 -0.035 -0.021 0.152 0.368 0.319 0.362 0.502 0.741 0.761 2.904 7.281 5.82 3.892
-0.46 -0.065 -0.243 -0.183 -0.248 -0.14 -0.163 -0.185 -0.138 -0.068 -0.29 -0.448 -0.305 0.035 -0.253 -0.185 -0.318 -0.255 -0.003 -0.16 -0.583 -0.625 -0.603 -0.538 -0.508 -0.45 -0.448 -0.418 -0.353 -0.335 -0.318 -0.318 -0.318 -0.303 -0.233 -0.173 -0.228 -0.243 -0.253 -0.22 -0.213 -0.155 -0.125 -0.105 -0.125 -0.115 -0.073 -0.055 -0.04 0.002 0.047 0.112 0.105 0.117 0.117 0.122 0.147 0.127 0.152 0.17 0.202 0.24 0.28 0.342 0.407 0.45 0.475 0.502 0.58 0.652 0.632 0.597 0.572 0.62 0.627 0.717 0.76 0.645 0.55 0.492 0.515 0.572 0.577 0.56 0.572 0.567 0.6 0.6 0.6 0.577 0.585 0.617 0.632 0.565 0.512 0.555 0.557 0.512 0.455 0.44 0.455 0.465 0.455 0.48 0.485 0.5 0.497 0.522 0.505 0.455 0.475 0.515 0.442 0.415 0.415 0.46 0.46 0.485 0.507 0.44 0.43 0.485 0.497 0.467 0.442 0.447 0.435 0.382 0.397 0.427 0.5 0.647 1.03 1.42 1.615 1.355 1.057 0.735 0.7 0.66 0.695 0.705 0.585 0.83 1.065 1.29 1.667 1.967 2.172 2.14 2.012 1.742 1.635 1.452 1.452 1.425 1.335 1.397 1.297 1.327 1.28 1.242 1.215 1.3 1.36 1.347 1.36 1.395 1.352 1.36 1.355 1.34 1.392 1.37 1.38 1.372 1.337 1.42 1.375 1.342 1.385 1.312 1.35 1.34 1.33 1.302 1.235 1.262 1.312 1.322 1.345 1.31 1.305 1.277 1.245 1.225 1.222 1.187 1.222 1.235 1.167 1.172 1.16 1.167 1.15 1.177 1.165 1.14 1.165 1.117 1.13 1.085 1.097 1.08 1.102 1.07 1.11 1.082 1.052 1.065 1.077 1.062 1.037 1.005 1.032 1.025 0.985 0.985 0.977 0.97 0.947 0.942 0.902 0.88 0.87 0.84 0.845 0.85 0.781 0.632 0.596 0.636 0.674 0.923 1.367 1.699 1.8 1.625 0.819 0.364 0.252 0.268 0.21 0.438 0.239 0.392 0.088 0.148 0.103 0.084 -0.066 -0.069 -0.036 -0.034 0.142 2.09 6.854 10.307 11.666 7.618 6.507 7.586 7.212 2.364 2.391 2.515 2.495 2.471 2.488 2.541 2.604 2.637 2.673 2.718 2.749 2.896 3.313 3.903 5.698 3.528 3.355 3.373 3.433 3.484 3.51 3.518 3.49 3.424 3.359 3.183 1.964 1.697 1.502 1.318 1.141 0.981 0.891 0.841 0.81 0.703 0.572 0.412 0.293 0.251 0.155 0.099 0.033 0.001 -0.048 -0.113 -0.176 -0.233 -0.277 -0.231 -0.279 -0.237 -0.261 -0.3 -0.28 -0.344 -0.389 -0.332 -0.394 -0.372 -0.368 -0.369 -0.308 -0.344 -0.312 -0.354 -0.289 -0.276 -0.355 -0.347 -0.291 -0.352 -0.348 -0.292 -0.328 -0.373 -0.347 -0.363 -0.345 -0.352 -0.353 -0.288 -0.264 -0.353 -0.355 -0.333 -0.323 -0.381 -0.334 -0.391 -0.379 -0.411 -0.374 -0.408 -0.469 -0.494 -0.464 -0.533 -0.552 -0.443 -0.443 -0.439 -0.42 -0.419 -0.432 -0.462 -0.421 -0.475 -0.471 -0.436 -0.432 -0.437 -0.454 -0.525 -0.485 -0.535 -0.455 -0.427 -0.419 -0.42 -0.513 -0.481 -0.454 -0.47 -0.48 -0.545 -0.436 -0.438 -0.48 -0.504 -0.497 -0.478 -0.452 -0.426 -0.48 -0.534 -0.498 -0.504 -0.517 -0.443 -0.44 -0.53 -0.603 -0.55 -0.523 -0.58 -0.618 -0.517 -0.577 -0.562 -0.607 -0.618 -0.587 -0.571 -0.547 -0.547 -0.671 -0.731 -0.717 -0.783 -0.695 -0.175 -0.013 -0.214 -0.632 -0.644 -0.615 -0.611 -0.59 -0.652 -0.633 -0.633 -0.636 -0.585 -0.646 -0.61 -0.616 -0.678 -0.587 0.838 1.217 0.642 0.526 0.749 0.13 -0.323 -0.311 -0.289 -0.22 -0.214 -0.215 -0.206 -0.167 -0.145 -0.058 -0.098 -0.036 -0.019 -0.023 0.04 0.151 0.222 0.313 0.534 0.832 0.967 0.998 3.407 5.433 3.434
-0.283 -0.128 -0.228 -0.208 -0.13 0.057 -0.038 -0.073 -0.1 -0.253 -0.413 -0.355 -0.395 -0.313 -0.083 -0.175 -0.223 -0.153 0.02 -0.193 -0.613 -0.628 -0.585 -0.53 -0.498 -0.498 -0.425 -0.398 -0.368 -0.355 -0.333 -0.313 -0.318 -0.28 -0.255 -0.23 -0.278 -0.288 -0.268 -0.22 -0.195 -0.14 -0.118 -0.108 -0.098 -0.113 -0.063 -0.055 -0.045 -0.005 0.05 0.105 0.127 0.182 0.195 0.15 0.165 0.17 0.15 0.17 0.212 0.282 0.29 0.347 0.43 0.477 0.48 0.517 0.602 0.63 0.582 0.532 0.577 0.68 0.682 0.727 0.747 0.66 0.532 0.512 0.575 0.577 0.592 0.582 0.59 0.612 0.627 0.61 0.56 0.58 0.59 0.63 0.63 0.537 0.542 0.52 0.497 0.495 0.47 0.457 0.477 0.505 0.502 0.49 0.492 0.517 0.497 0.515 0.505 0.457 0.502 0.52 0.545 0.497 0.452 0.44 0.427 0.41 0.457 0.44 0.405 0.427 0.487 0.455 0.43 0.45 0.435 0.425 0.395 0.425 0.452 0.467 0.537 0.702 1.082 1.37 1.385 1.425 1.01 0.75 0.69 0.732 0.61 0.49 0.48 0.652 0.837 1.235 1.592 1.885 2.077 2.172 2.042 1.787 1.612 1.447 1.457 1.412 1.402 1.412 1.332 1.26 1.255 1.232 1.245 1.297 1.297 1.37 1.427 1.397 1.362 1.377 1.38 1.37 1.362 1.375 1.39 1.34 1.325 1.355 1.29 1.31 1.325 1.285 1.28 1.3 1.355 1.292 1.285 1.342 1.312 1.275 1.282 1.26 1.225 1.237 1.237 1.23 1.232 1.22 1.2 1.212 1.182 1.162 1.15 1.175 1.172 1.147 1.135 1.145 1.122 1.117 1.102 1.15 1.112 1.08 1.085 1.092 1.075 1.055 1.047 1.05 1.02 1.005 1.037 1.025 1.005 0.99 0.957 0.957 0.98 0.962 0.925 0.882 0.85 0.855 0.905 0.907 0.797 0.672 0.665 0.655 0.617 0.682 0.917 1.242 1.753 1.472 0.566 0.275 0.242 0.227 0.305 0.283 0.316 0.218 0.168 0.181 0.127 -0.038 -0.052 -0.081 -0.061 -0.064 0.34 2.549 8.765 10.972 10.865 8.983 7.708 7.942 6.228 2.74 3.276 3.343 3.09 2.451 2.461 2.662 2.594 2.61 2.648 2.73 2.827 3.129 4.035 7.246 7.302 5.647 3.359 3.373 3.836 3.437 3.455 3.535 3.53 3.503 3.441 3.407 2.852 1.879 1.651 1.481 1.303 1.147 0.989 0.91 0.876 0.731 0.602 0.506 0.388 0.321 0.271 0.177 0.116 0.092 0.028 -0.077 -0.157 -0.173 -0.208 -0.215 -0.205 -0.254 -0.209 -0.216 -0.242 -0.271 -0.293 -0.302 -0.284 -0.377 -0.303 -0.351 -0.329 -0.338 -0.341 -0.301 -0.336 -0.382 -0.311 -0.347 -0.3 -0.293 -0.345 -0.327 -0.356 -0.399 -0.354 -0.368 -0.298 -0.374 -0.334 -0.336 -0.332 -0.361 -0.293 -0.37 -0.334 -0.341 -0.351 -0.385 -0.38 -0.383 -0.392 -0.407 -0.353 -0.435 -0.432 -0.598 -0.487 -0.471 -0.402 -0.45 -0.447 -0.395 -0.441 -0.447 -0.461 -0.445 -0.41 -0.473 -0.472 -0.438 -0.434 -0.529 -0.465 -0.498 -0.468 -0.453 -0.456 -0.473 -0.441 -0.398 -0.47 -0.502 -0.493 -0.496 -0.442 -0.464 -0.48 -0.45 -0.491 -0.507 -0.456 -0.48 -0.47 -0.5 -0.496 -0.48 -0.464 -0.435 -0.504 -0.55 -0.486 -0.479 -0.498 -0.537 -0.558 -0.541 -0.515 -0.565 -0.608 -0.542 -0.591 -0.607 -0.587 -0.582 -0.636 -0.754 -0.594 -0.248 -0.045 -0.358 -0.646 -0.567 -0.597 -0.59 -0.623 -0.594 -0.571 -0.669 -0.631 -0.614 -0.617 -0.603 -0.627 -0.631 -0.645 -0.564 -0.006 0.444 0.444 0.472 0.205 0.51 -0.297 -0.34 -0.289 -0.257 -0.183 -0.143 -0.196 -0.102 -0.132 -0.134 -0.049 0.042 0.08 -0.029 -0.023 -0.018 0.111 0.377 0.43 0.609 0.811 1.017 1.052 1.185 2.653 3.433
-0.075 0.19 -0.228 -0.138 -0.075 -0.04 -0.073 -0.105 -0.063 -0.195 -0.118 -0.205 -0.193 -0.185 -0.283 -0.338 -0.275 -0.388 -0.053 -0.388 -0.595 -0.63 -0.585 -0.56 -0.47 -0.483 -0.45 -0.428 -0.38 -0.375 -0.34 -0.32 -0.313 -0.3 -0.28 -0.285 -0.305 -0.29 -0.24 -0.208 -0.173 -0.14 -0.125 -0.12 -0.098 -0.085 -0.073 -0.063 -0.03 0.037 0.097 0.157 0.162 0.192 0.225 0.195 0.162 0.162 0.175 0.195 0.237 0.247 0.292 0.345 0.432 0.45 0.495 0.55 0.612 0.582 0.505 0.515 0.627 0.662 0.702 0.757 0.68 0.625 0.54 0.542 0.605 0.592 0.612 0.637 0.64 0.637 0.682 0.605 0.625 0.625 0.59 0.575 0.562 0.547 0.512 0.47 0.502 0.517 0.487 0.507 0.52 0.525 0.537 0.492 0.47 0.522 0.517 0.55 0.487 0.547 0.505 0.487 0.527 0.542 0.53 0.452 0.417 0.417 0.387 0.432 0.417 0.402 0.43 0.392 0.405 0.445 0.462 0.46 0.402 0.377 0.432 0.457 0.41 0.427 0.575 0.75 0.985 1.475 1.722 1.622 1.195 0.715 0.667 0.642 0.55 0.36 0.375 0.607 0.897 1.272 1.607 1.837 2.13 2.207 1.937 1.607 1.485 1.442 1.397 1.365 1.365 1.362 1.28 1.27 1.257 1.2 1.212 1.327 1.332 1.36 1.317 1.33 1.36 1.315 1.37 1.377 1.4 1.385 1.372 1.335 1.325 1.317 1.305 1.257 1.267 1.275 1.257 1.317 1.252 1.267 1.285 1.265 1.225 1.247 1.245 1.23 1.24 1.245 1.26 1.257 1.22 1.25 1.17 1.187 1.162 1.14 1.145 1.117 1.127 1.132 1.127 1.107 1.072 1.1 1.08 1.082 1.095 1.042 1.057 1.047 1.04 1.042 1.032 1.042 1.032 1.007 0.992 0.985 0.98 0.957 0.965 0.965 0.98 0.93 0.937 0.94 0.967 0.91 0.785 0.7 0.69 0.715 0.667 0.742 1.06 1.445 1.752 1.212 0.401 0.206 0.247 0.222 0.225 0.22 0.223 0.244 0.086 0.116 0.155 0.04 -0.001 -0.09 -0.082 -0.084 0.303 4.553 9.334 10.701 11.88 8.661 5.236 6.658 6.887 2.393 2.4 2.683 2.957 2.673 2.917 2.992 2.7 2.582 2.648 2.758 3.101 4.333 7.497 7.916 7.77 7.432 5.726 3.579 3.583 3.433 3.412 3.45 3.511 3.527 3.497 3.465 3.467 2.93 1.898 1.634 1.454 1.298 1.124 0.996 0.909 0.768 0.676 0.609 0.501 0.43 0.374 0.251 0.129 0.075 -0.015 -0.099 -0.153 -0.089 -0.084 -0.169 -0.216 -0.205 -0.161 -0.148 -0.209 -0.246 -0.228 -0.25 -0.266 -0.295 -0.3 -0.285 -0.309 -0.32 -0.324 -0.326 -0.292 -0.311 -0.31 -0.293 -0.317 -0.276 -0.28 -0.311 -0.343 -0.36 -0.32 -0.333 -0.327 -0.323 -0.353 -0.308 -0.329 -0.32 -0.274 -0.34 -0.328 -0.274 -0.275 -0.319 -0.383 -0.351 -0.385 -0.37 -0.365 -0.446 -0.522 -0.532 -0.432 -0.473 -0.42 -0.418 -0.406 -0.401 -0.392 -0.39 -0.437 -0.411 -0.386 -0.379 -0.472 -0.487 -0.447 -0.458 -0.422 -0.449 -0.394 -0.414 -0.464 -0.402 -0.414 -0.477 -0.461 -0.479 -0.452 -0.464 -0.485 -0.503 -0.498 -0.52 -0.498 -0.462 -0.469 -0.493 -0.422 -0.503 -0.461 -0.529 -0.47 -0.434 -0.45 -0.427 -0.487 -0.487 -0.497 -0.544 -0.489 -0.567 -0.559 -0.5 -0.606 -0.612 -0.601 -0.557 -0.608 -0.562 -0.419 -0.146 0.025 -0.368 -0.647 -0.73 -0.696 -0.575 -0.617 -0.577 -0.621 -0.622 -0.643 -0.597 -0.594 -0.622 -0.588 -0.596 -0.595 -0.63 -0.646 -0.464 -0.011 0.507 0.24 -0.285 -0.27 -0.247 -0.274 -0.258 -0.225 -0.21 -0.137 -0.134 -0.153 -0.092 -0.064 -0.05 -0.038 0.13 0.267 0.147 -0.002 -0.022 -0.018 0.315 0.508 0.671 0.962 1.096 1.266 1.457 1.612 2.604
-0.258 -0.058 -0.23 -0.13 -0.115 -0.103 -0.128 0.04 -0.03 -0.1 -0.043 -0.1 0.105 -0.02 -0.32 -0.268 -0.203 -0.345 0.047 -0.423 -0.63 -0.608 -0.57 -0.565 -0.483 -0.445 -0.438 -0.415 -0.398 -0.363 -0.363 -0.328 -0.283 -0.3 -0.305 -0.29 -0.275 -0.223 -0.18 -0.165 -0.153 -0.12 -0.103 -0.098 -0.083 -0.068 -0.048 -0.028 0.022 0.067 0.135 0.18 0.167 0.187 0.2 0.22 0.162 0.165 0.212 0.225 0.265 0.3 0.317 0.37 0.442 0.465 0.505 0.56 0.612 0.607 0.567 0.612 0.647 0.567 0.555 0.732 0.717 0.582 0.522 0.582 0.62 0.625 0.622 0.647 0.647 0.665 0.662 0.67 0.672 0.642 0.615 0.595 0.585 0.53 0.517 0.487 0.492 0.495 0.472 0.485 0.525 0.512 0.5 0.535 0.492 0.51 0.535 0.517 0.495 0.54 0.505 0.505 0.542 0.555 0.512 0.51 0.437 0.397 0.4 0.467 0.417 0.39 0.4 0.445 0.445 0.475 0.457 0.467 0.442 0.412 0.412 0.405 0.35 0.365 0.42 0.437 0.555 0.762 1.26 1.537 1.75 1.482 0.982 0.67 0.68 0.617 0.515 0.382 0.397 0.572 0.797 1.227 1.572 1.925 2.22 2.102 1.78 1.532 1.447 1.44 1.375 1.412 1.322 1.34 1.28 1.222 1.245 1.227 1.277 1.352 1.342 1.352 1.342 1.367 1.385 1.407 1.38 1.345 1.355 1.377 1.37 1.322 1.302 1.29 1.267 1.29 1.325 1.26 1.262 1.285 1.26 1.247 1.245 1.25 1.257 1.217 1.227 1.222 1.232 1.252 1.24 1.257 1.21 1.185 1.167 1.162 1.13 1.105 1.142 1.117 1.12 1.095 1.097 1.1 1.115 1.062 1.08 1.067 1.047 1.057 1.04 1.027 1.037 1.015 1.022 1.04 1.007 0.987 0.977 0.965 0.955 0.96 0.925 0.915 0.955 0.972 0.95 0.855 0.78 0.725 0.732 0.755 0.745 0.82 1.165 1.745 1.71 0.811 0.334 0.255 0.327 0.248 0.195 0.187 0.147 0.18 0.144 0.213 0.08 0.169 0.12 0.101 -0.076 -0.07 0.119 5.321 8.747 10.445 11.287 9.705 4.673 7.553 6.202 2.594 2.973 3.466 3.524 2.784 3.217 2.689 2.601 2.582 2.65 2.669 3.966 7.598 7.812 7.961 7.914 7.774 7.518 4.958 3.366 3.852 3.438 3.442 3.414 3.511 3.563 3.532 3.49 3.452 2.58 1.875 1.627 1.44 1.284 1.124 1.003 0.9 0.793 0.704 0.636 0.639 0.482 0.296 0.168 0.112 0.042 -0.076 -0.088 -0.053 -0.099 -0.171 -0.196 -0.194 -0.173 -0.149 -0.184 -0.226 -0.249 -0.23 -0.225 -0.243 -0.233 -0.218 -0.317 -0.325 -0.319 -0.261 -0.308 -0.336 -0.281 -0.307 -0.274 -0.291 -0.246 -0.281 -0.301 -0.32 -0.334 -0.294 -0.292 -0.326 -0.294 -0.288 -0.291 -0.242 -0.33 -0.27 -0.247 -0.339 -0.393 -0.359 -0.364 -0.365 -0.379 -0.416 -0.343 -0.504 -0.588 -0.466 -0.464 -0.415 -0.417 -0.414 -0.445 -0.42 -0.366 -0.404 -0.388 -0.393 -0.434 -0.364 -0.472 -0.441 -0.413 -0.383 -0.386 -0.371 -0.42 -0.42 -0.423 -0.455 -0.433 -0.414 -0.506 -0.472 -0.398 -0.42 -0.457 -0.447 -0.432 -0.427 -0.479 -0.467 -0.376 -0.45 -0.416 -0.442 -0.4 -0.468 -0.562 -0.515 -0.441 -0.445 -0.497 -0.518 -0.584 -0.532 -0.558 -0.525 -0.539 -0.495 -0.566 -0.546 -0.499 -0.541 -0.711 -0.021 0.044 -0.371 -0.63 -0.741 -0.737 -0.673 -0.621 -0.647 -0.595 -0.575 -0.624 -0.601 -0.584 -0.587 -0.627 -0.576 -0.603 -0.551 -0.584 -0.623 -0.461 0.141 0.53 0.115 -0.413 -0.367 -0.299 -0.296 -0.215 -0.203 -0.168 -0.192 -0.172 -0.125 -0.173 -0.123 -0.062 -0.002 0.043 0.204 0.436 0.492 0.289 0.046 0.167 0.207 0.296 0.946 1.111 1.382 1.541 1.709 1.844 1.902
-0.203 0.075 -0.068 -0.28 -0.185 -0.185 -0.163 -0.128 -0.025 0.102 -0.023 0.01 -0.163 -0.07 -0.08 -0.145 -0.443 -0.115 -0.055 -0.515 -0.645 -0.613 -0.565 -0.543 -0.535 -0.465 -0.455 -0.418 -0.433 -0.405 -0.365 -0.34 -0.325 -0.325 -0.305 -0.293 -0.223 -0.173 -0.14 -0.11 -0.11 -0.085 -0.073 -0.08 -0.075 -0.078 -0.04 -0.013 0.035 0.105 0.157 0.18 0.197 0.217 0.242 0.227 0.18 0.215 0.23 0.262 0.29 0.33 0.347 0.392 0.437 0.475 0.525 0.562 0.58 0.6 0.61 0.647 0.627 0.542 0.577 0.72 0.667 0.57 0.512 0.57 0.612 0.612 0.66 0.65 0.68 0.657 0.655 0.647 0.587 0.622 0.627 0.585 0.59 0.52 0.522 0.507 0.492 0.505 0.495 0.482 0.507 0.525 0.52 0.53 0.517 0.54 0.562 0.545 0.522 0.507 0.505 0.51 0.52 0.545 0.51 0.502 0.467 0.432 0.497 0.477 0.437 0.437 0.387 0.377 0.44 0.442 0.465 0.435 0.395 0.367 0.367 0.382 0.365 0.355 0.42 0.407 0.452 0.507 0.565 0.675 1.14 1.105 1.12 1.315 1.14 0.78 0.665 0.67 0.505 0.432 0.562 0.417 0.64 1.172 1.55 2.007 2.24 1.997 1.695 1.497 1.45 1.432 1.375 1.36 1.29 1.277 1.272 1.232 1.2 1.177 1.257 1.322 1.352 1.362 1.385 1.412 1.442 1.332 1.332 1.335 1.337 1.322 1.4 1.325 1.315 1.312 1.287 1.21 1.25 1.25 1.25 1.255 1.245 1.22 1.252 1.3 1.217 1.207 1.2 1.19 1.202 1.207 1.212 1.175 1.172 1.162 1.147 1.132 1.127 1.11 1.07 1.082 1.107 1.092 1.097 1.097 1.085 1.075 1.072 1.065 1.045 1.035 1 1.047 1.04 1.007 1.027 0.99 0.97 0.982 0.967 0.945 0.955 0.947 0.967 0.975 0.91 0.792 0.772 0.73 0.722 0.777 0.83 1.037 1.575 1.885 1.532 0.797 0.457 0.364 0.434 0.259 0.171 0.137 0.106 0.155 0.114 0.121 0.16 0.19 0.144 -0.121 -0.099 -0.084 -0.014 3.421 7.572 8.861 10.112 9.974 6.669 4.656 4.47 2.993 2.853 2.763 2.411 2.454 2.808 3.594 3.169 2.617 2.654 3.954 5.798 7.248 7.684 7.842 7.963 7.924 7.77 7.448 4.761 3.382 3.554 4.15 3.496 3.434 3.517 3.567 3.544 3.5 3.555 2.913 1.841 1.592 1.439 1.267 1.139 1.014 0.894 0.801 0.737 0.647 0.557 0.379 0.282 0.273 0.117 0 0.039 -0.002 -0.049 -0.081 -0.126 -0.168 -0.155 -0.114 -0.16 -0.204 -0.203 -0.204 -0.199 -0.217 -0.235 -0.228 -0.23 -0.265 -0.294 -0.26 -0.324 -0.319 -0.302 -0.235 -0.241 -0.281 -0.271 -0.247 -0.31 -0.293 -0.291 -0.283 -0.29 -0.286 -0.309 -0.306 -0.263 -0.311 -0.274 -0.242 -0.305 -0.261 -0.257 -0.339 -0.319 -0.323 -0.424 -0.479 -0.395 -0.437 -0.396 -0.475 -0.455 -0.343 -0.359 -0.316 -0.36 -0.453 -0.353 -0.425 -0.377 -0.423 -0.432 -0.394 -0.433 -0.488 -0.369 -0.454 -0.407 -0.416 -0.393 -0.415 -0.416 -0.37 -0.425 -0.432 -0.439 -0.404 -0.404 -0.456 -0.412 -0.438 -0.481 -0.465 -0.444 -0.445 -0.423 -0.444 -0.486 -0.413 -0.429 -0.507 -0.478 -0.504 -0.46 -0.453 -0.523 -0.558 -0.528 -0.478 -0.504 -0.449 -0.473 -0.522 -0.541 -0.549 -0.631 -0.553 -0.688 -0.64 -0.636 -0.582 -0.574 -0.619 -0.633 -0.575 -0.501 -0.549 -0.507 -0.562 -0.535 -0.549 -0.59 -0.534 -0.58 0.053 0.571 -0.498 -0.565 -0.383 0.335 0.56 -0.068 -0.283 -0.329 -0.338 -0.292 -0.149 -0.171 -0.161 -0.068 -0.155 -0.089 -0.114 -0.076 -0.116 -0.107 0.072 0.142 0.283 0.576 0.747 0.777 0.616 0.405 0.287 0.35 0.79 1.272 1.888 1.853 1.874 2.046 2.908
-0.478 0.027 0.117 -0.088 0.257 0.172 -0.295 -0.14 -0.068 0.052 -0.018 -0.12 0.007 0.04 -0 -0.183 -0.18 -0.028 -0.043 -0.598 -0.593 -0.61 -0.548 -0.525 -0.458 -0.49 -0.46 -0.438 -0.418 -0.398 -0.408 -0.38 -0.328 -0.343 -0.313 -0.265 -0.213 -0.198 -0.13 -0.128 -0.11 -0.098 -0.088 -0.045 -0.08 -0.075 -0.063 -0.02 0.037 0.107 0.172 0.21 0.252 0.282 0.312 0.277 0.257 0.325 0.27 0.257 0.332 0.35 0.372 0.415 0.435 0.495 0.542 0.552 0.567 0.59 0.6 0.617 0.612 0.657 0.75 0.735 0.622 0.582 0.56 0.58 0.615 0.63 0.657 0.667 0.662 0.675 0.652 0.657 0.627 0.617 0.595 0.557 0.582 0.582 0.625 0.542 0.495 0.505 0.497 0.51 0.487 0.497 0.48 0.502 0.492 0.512 0.532 0.547 0.527 0.502 0.472 0.475 0.487 0.505 0.5 0.51 0.505 0.49 0.462 0.442 0.46 0.437 0.42 0.392 0.385 0.367 0.357 0.38 0.347 0.34 0.35 0.345 0.375 0.352 0.412 0.442 0.385 0.4 0.445 0.472 0.507 0.65 0.77 1.107 1.337 1.355 0.995 0.767 0.757 0.715 0.987 0.602 0.36 0.487 0.952 1.355 1.742 2.057 2.18 2.027 1.715 1.505 1.457 1.355 1.392 1.34 1.307 1.27 1.295 1.187 1.16 1.21 1.257 1.295 1.312 1.322 1.352 1.325 1.345 1.357 1.307 1.365 1.35 1.29 1.247 1.3 1.305 1.262 1.23 1.24 1.27 1.23 1.22 1.207 1.23 1.215 1.247 1.205 1.227 1.192 1.195 1.197 1.175 1.155 1.157 1.172 1.132 1.12 1.127 1.125 1.092 1.097 1.097 1.097 1.112 1.1 1.085 1.097 1.09 1.067 1.035 1.06 1.032 1.027 1.01 1.025 1.015 0.997 0.98 0.962 0.967 0.965 0.977 0.955 0.955 0.962 0.835 0.767 0.76 0.712 0.78 0.82 0.91 1.282 1.83 1.71 1.18 0.537 0.408 0.398 0.36 0.205 0.163 0.155 0.162 0.1 0.119 0.211 0.088 0.065 0.141 -0.057 -0.159 -0.154 -0.076 0.486 1.541 7.225 5.088 4.401 2.85 5.097 5.589 4.857 2.566 2.732 2.436 2.594 3.45 3.449 2.631 2.702 2.748 2.792 5.16 6.659 7.35 7.71 7.846 7.99 7.941 7.79 7.483 5.52 9.465 9.104 3.941 3.526 3.435 3.543 3.572 3.545 3.502 3.526 2.577 1.843 1.582 1.428 1.27 1.119 1.016 0.896 0.783 0.716 0.603 0.467 0.373 0.318 0.176 0.09 0.083 0.039 0.02 0.019 -0.043 -0.101 -0.125 -0.106 -0.127 -0.155 -0.176 -0.186 -0.184 -0.204 -0.254 -0.241 -0.233 -0.24 -0.222 -0.256 -0.315 -0.27 -0.277 -0.263 -0.28 -0.276 -0.259 -0.277 -0.233 -0.284 -0.297 -0.231 -0.261 -0.304 -0.304 -0.284 -0.292 -0.288 -0.279 -0.264 -0.32 -0.259 -0.269 -0.332 -0.313 -0.351 -0.403 -0.411 -0.543 -0.418 -0.363 -0.442 -0.422 -0.374 -0.428 -0.34 -0.358 -0.392 -0.384 -0.37 -0.319 -0.408 -0.433 -0.41 -0.44 -0.431 -0.429 -0.414 -0.402 -0.419 -0.361 -0.383 -0.352 -0.425 -0.412 -0.43 -0.381 -0.437 -0.427 -0.37 -0.387 -0.42 -0.462 -0.457 -0.404 -0.479 -0.43 -0.467 -0.414 -0.396 -0.455 -0.405 -0.455 -0.489 -0.431 -0.492 -0.462 -0.524 -0.467 -0.457 -0.528 -0.422 -0.33 0.277 1.023 1.411 0.547 -0.514 -0.554 -0.526 -0.51 -0.496 -0.506 -0.533 -0.599 -0.513 -0.493 -0.589 -0.527 -0.561 -0.511 -0.515 -0.532 -0.547 -0.158 1.384 1.25 0.375 -0.156 0.465 0.717 -0.192 -0.319 -0.311 -0.335 -0.316 -0.266 -0.229 -0.174 -0.141 -0.087 -0.029 -0.039 -0.103 -0.069 -0.083 0.036 2.728 1.435 0.532 0.64 0.836 1.085 1.059 0.992 0.474 0.372 0.607 1.164 1.875 2.017 2.056 2.77 3.653
-0.56 -0.543 0.057 0.392 -0.288 -0.248 -0.308 -0.255 -0.33 -0.015 0.032 0.18 -0.013 0.022 0.027 0.025 -0.098 -0.403 -0.58 -0.638 -0.603 -0.585 -0.53 -0.523 -0.528 -0.493 -0.47 -0.415 -0.418 -0.405 -0.385 -0.38 -0.325 -0.32 -0.31 -0.253 -0.205 -0.178 -0.148 -0.128 -0.115 -0.11 -0.08 -0.105 -0.1 -0.08 -0.038 -0.025 0.047 0.112 0.172 0.21 0.287 0.332 0.347 0.36 0.43 0.372 0.35 0.322 0.357 0.387 0.42 0.415 0.47 0.49 0.542 0.565 0.572 0.635 0.595 0.59 0.615 0.635 0.677 0.645 0.64 0.625 0.642 0.607 0.59 0.625 0.65 0.635 0.66 0.655 0.64 0.622 0.682 0.62 0.59 0.59 0.585 0.605 0.627 0.577 0.552 0.552 0.51 0.487 0.475 0.472 0.48 0.485 0.497 0.505 0.522 0.522 0.51 0.5 0.45 0.45 0.47 0.495 0.492 0.482 0.49 0.475 0.472 0.457 0.427 0.41 0.405 0.382 0.397 0.417 0.377 0.352 0.352 0.36 0.347 0.355 0.352 0.327 0.35 0.382 0.337 0.39 0.417 0.407 0.407 0.412 0.537 0.66 0.84 1.017 1.27 1.762 1.077 0.81 0.81 0.807 0.665 0.33 0.39 0.647 1.037 1.367 1.702 2.067 2.15 2.015 1.655 1.495 1.395 1.355 1.362 1.285 1.265 1.24 1.225 1.217 1.25 1.195 1.21 1.32 1.325 1.345 1.342 1.305 1.312 1.295 1.342 1.317 1.275 1.317 1.382 1.287 1.272 1.25 1.235 1.195 1.247 1.22 1.235 1.212 1.207 1.197 1.197 1.17 1.162 1.172 1.15 1.157 1.152 1.157 1.15 1.12 1.092 1.097 1.115 1.097 1.095 1.102 1.14 1.112 1.1 1.1 1.11 1.08 1.052 1.06 1.025 1.037 1.057 1.04 1.032 0.985 0.995 0.975 0.977 0.975 0.955 0.975 0.985 0.922 0.76 0.787 0.735 0.795 0.837 0.887 1.055 1.617 1.882 1.47 0.91 0.438 0.334 0.482 0.292 0.195 0.19 0.161 0.136 0.11 0.08 0.18 0.182 0.112 0.126 0.012 -0.145 -0.171 0.049 0.168 0.756 2.757 2.161 4.692 5.132 6.32 6.496 5.811 2.853 2.519 2.459 2.538 2.62 2.602 2.681 3.563 4.015 2.826 3.375 5.92 6.51 7.056 7.702 7.871 8.022 7.913 8.031 10.019 10.25 10.064 8.97 3.42 3.416 3.469 3.571 3.58 3.532 3.492 3.519 3.133 1.794 1.578 1.426 1.25 1.114 0.997 0.879 0.781 0.673 0.541 0.461 0.363 0.23 0.205 0.211 0.143 0.114 0.075 0.02 -0.029 -0.083 -0.125 -0.115 -0.141 -0.168 -0.192 -0.193 -0.214 -0.252 -0.246 -0.221 -0.235 -0.224 -0.225 -0.245 -0.249 -0.284 -0.252 -0.26 -0.266 -0.237 -0.274 -0.265 -0.24 -0.25 -0.269 -0.233 -0.294 -0.232 -0.257 -0.261 -0.236 -0.273 -0.239 -0.212 -0.219 -0.295 -0.348 -0.331 -0.44 -0.411 -0.382 -0.43 -0.409 -0.408 -0.383 -0.364 -0.378 -0.418 -0.303 -0.404 -0.354 -0.373 -0.429 -0.359 -0.408 -0.386 -0.415 -0.397 -0.465 -0.381 -0.386 -0.402 -0.391 -0.42 -0.35 -0.393 -0.398 -0.452 -0.425 -0.411 -0.391 -0.449 -0.438 -0.397 -0.413 -0.435 -0.324 -0.4 -0.421 -0.45 -0.424 -0.384 -0.468 -0.395 -0.458 -0.424 -0.477 -0.471 -0.495 -0.509 -0.487 -0.474 -0.488 -0.412 0.412 1.365 1.393 1.282 0.949 -0.172 -0.336 -0.595 -0.527 -0.502 -0.554 -0.517 -0.518 -0.591 -0.515 -0.494 -0.551 -0.573 -0.572 -0.507 -0.539 -0.562 -0.318 0.723 1.227 1.306 0.826 0.653 0.68 0.502 -0.266 -0.277 -0.258 -0.293 -0.204 -0.131 -0.151 -0.144 -0.086 -0.078 -0.051 -0.071 -0.03 0.003 0.069 2.597 4.395 5.066 2.642 0.763 0.957 1.226 1.403 1.415 1.155 0.709 0.576 1.008 1.698 1.988 2.557 3.543 3.519
