ncols 491
nrows 32
xllcorner    463000
yllcorner    87392
cellsize     2
NODATA_value -9999
0.547 0.482 0.572 0.644 0.679 0.672 0.647 0.677 0.673 0.755 0.642 0.672 0.969 0.72 0.568 0.564 0.556 0.581 0.473 0.431 0.745 0.664 0.396 0.441 0.609 0.803 1.014 1.105 0.514 0.423 0.402 0.356 0.368 0.456 0.485 0.519 0.52 0.508 0.546 0.553 0.495 0.429 0.399 0.424 0.522 0.584 0.562 0.564 0.552 0.569 0.565 0.58 0.585 0.61 0.587 0.575 0.575 0.567 0.59 0.605 0.642 0.657 0.642 0.642 0.65 0.652 0.645 0.642 0.617 0.587 0.582 0.575 0.595 0.607 0.597 0.585 0.62 0.635 0.635 0.647 0.63 0.637 0.625 0.63 0.627 0.617 0.61 0.602 0.595 0.605 0.617 0.602 0.602 0.645 0.662 0.677 0.685 0.68 0.66 0.662 0.675 0.66 0.622 0.617 0.602 0.63 0.61 0.615 0.605 0.6 0.602 0.567 0.55 0.547 0.582 0.59 0.547 0.58 0.535 0.55 0.505 0.505 0.495 0.512 0.53 0.547 0.525 0.522 0.517 0.53 0.502 0.465 0.475 0.48 0.497 0.517 0.54 0.53 0.525 0.51 0.502 0.52 0.532 0.55 0.552 0.54 0.557 0.535 0.557 0.565 0.555 0.577 0.597 0.575 0.537 0.43 0.282 0.187 0.19 0.19 0.085 0.002 -0.113 -0.093 0.015 0.12 0.25 0.317 0.405 0.47 0.562 0.612 0.645 0.677 0.652 0.655 0.62 0.655 0.625 0.592 0.567 0.577 0.52 0.337 0.235 0.272 0.285 0.312 0.307 0.29 0.332 0.347 0.327 0.355 0.35 0.357 0.36 0.38 0.377 0.35 0.332 0.345 0.395 0.397 0.365 0.367 0.37 0.347 0.297 0.34 0.472 0.55 0.567 0.587 0.575 0.575 0.555 0.532 0.552 0.542 0.552 0.56 0.555 0.527 0.552 0.532 0.527 0.57 0.57 0.577 0.62 0.595 0.595 0.612 0.61 0.61 0.645 0.662 0.645 0.647 0.65 0.682 0.717 0.705 0.747 0.697 0.67 0.665 0.657 0.672 0.678 0.648 0.678 0.708 0.73 0.758 0.755 0.798 0.823 0.865 0.838 0.878 0.868 0.878 0.868 0.89 0.923 0.92 0.953 0.95 0.963 0.995 1.025 1.028 1.09 1.153 1.218 1.283 1.413 1.53 2.49 3.963 3.955 4.543 5.215 6.743 5.823 4.868 4.73 4.633 4.7 4.75 4.82 4.91 4.92 5.02 5.018 5.075 5.148 5.188 5.257 5.325 5.38 5.467 5.537 5.587 5.66 5.74 5.817 5.897 5.947 6.042 6.12 6.182 6.262 6.335 6.42 6.48 6.557 6.622 6.702 6.817 6.907 7.015 7.122 7.25 7.315 7.437 7.522 7.635 7.717 7.822 7.945 8.05 8.175 8.295 8.41 8.54 8.635 8.74 8.845 8.957 9.097 9.22 9.395 9.642 9.862 10.175 10.557 10.83 10.93 11.162 11.542 11.777 12.01 12.31 12.547 12.817 13.092 13.315 13.575 13.84 14.17 14.482 14.785 15.032 15.23 15.397 15.557 15.672 15.807 15.952 16.092 16.242 16.382 16.51 16.642 16.812 16.952 17.107 17.285 17.465 17.585 17.827 18.045 18.225 18.522 18.875 19.13 19.402 19.585 19.797 20.06 20.37 20.705 21.102 21.407 22.082 23.047 22.47 22.472 22.71 22.99 23.245 23.432 23.615 23.835 24.04 24.137 24.265 24.487 24.69 24.865 24.965 25.082 25.225 25.387 25.502 25.565 25.695 25.8 26.065 26.415 26.61 26.72 26.827 26.922 26.992 27.33 27.647 28.27 28.405 28.095 28.092 28.175 28.222 28.275 28.34 28.462 28.587 28.747 28.86 29.062 29.257 29.425 29.717 30.102 30.452 31.852 32.122 32.48 32.145 31.41 31.425 31.595 31.78 31.877 32.037 32.132 32.167 32.24 32.382 32.452 32.65 32.827 33.007 33.187 33.35 33.455 33.585 33.747 33.937 34.12 34.27 34.435 34.592 34.737 34.915 35.057 35.18 35.29 35.417 35.517 35.6 35.7 35.79 35.927 36.042 36.12 36.157 36.335
0.544 0.497 0.584 0.647 0.642 0.647 0.622 0.639 0.654 0.637 0.615 0.774 0.882 0.809 0.616 0.631 0.576 0.59 0.488 0.45 0.983 0.851 0.408 0.376 0.724 1.578 1.646 0.827 0.45 0.418 0.413 0.419 0.406 0.468 0.479 0.543 0.527 0.532 0.546 0.546 0.522 0.419 0.389 0.412 0.494 0.584 0.579 0.564 0.562 0.569 0.557 0.577 0.587 0.6 0.605 0.597 0.612 0.575 0.59 0.6 0.617 0.655 0.612 0.627 0.64 0.637 0.645 0.65 0.635 0.627 0.625 0.612 0.602 0.615 0.62 0.62 0.645 0.66 0.627 0.655 0.652 0.637 0.635 0.622 0.615 0.602 0.572 0.562 0.555 0.587 0.602 0.615 0.6 0.602 0.65 0.672 0.697 0.672 0.677 0.685 0.68 0.652 0.617 0.6 0.622 0.612 0.615 0.582 0.585 0.587 0.595 0.57 0.557 0.547 0.59 0.577 0.545 0.572 0.56 0.525 0.502 0.477 0.472 0.502 0.507 0.507 0.52 0.527 0.51 0.515 0.497 0.457 0.472 0.485 0.497 0.512 0.527 0.542 0.52 0.525 0.51 0.495 0.537 0.562 0.58 0.585 0.565 0.562 0.562 0.582 0.577 0.565 0.58 0.532 0.517 0.43 0.302 0.212 0.18 0.18 0.13 0.042 -0.1 -0.103 0.042 0.14 0.195 0.3 0.4 0.512 0.572 0.635 0.657 0.677 0.662 0.667 0.612 0.665 0.642 0.6 0.58 0.58 0.542 0.392 0.305 0.302 0.342 0.37 0.332 0.3 0.297 0.317 0.325 0.317 0.335 0.33 0.357 0.372 0.375 0.38 0.365 0.36 0.37 0.385 0.425 0.42 0.467 0.447 0.415 0.432 0.532 0.56 0.577 0.597 0.6 0.57 0.582 0.57 0.622 0.557 0.535 0.53 0.532 0.495 0.557 0.527 0.53 0.517 0.552 0.572 0.615 0.607 0.607 0.6 0.602 0.63 0.642 0.65 0.662 0.662 0.675 0.725 0.722 0.707 0.74 0.695 0.665 0.67 0.645 0.652 0.683 0.688 0.683 0.685 0.725 0.745 0.783 0.798 0.813 0.858 0.84 0.858 0.88 0.88 0.86 0.89 0.92 0.92 0.945 0.973 0.96 1 1.03 1.038 1.11 1.198 1.258 1.338 1.493 1.773 3.745 5.025 4.2 5.445 5.703 5.838 4.795 4.72 4.698 4.628 4.738 4.703 4.783 4.818 4.965 5.143 5.198 5.098 5.123 5.145 5.2 5.277 5.342 5.41 5.472 5.54 5.637 5.712 5.797 5.857 5.932 6.01 6.077 6.137 6.222 6.315 6.37 6.447 6.49 6.59 6.71 6.752 6.867 6.947 7.077 7.172 7.26 7.342 7.412 7.515 7.62 7.735 7.865 7.967 8.067 8.2 8.292 8.43 8.532 8.615 8.717 8.86 8.987 9.122 9.317 9.555 9.815 10.207 10.565 10.725 10.86 11.085 11.41 11.657 11.887 12.18 12.487 12.725 12.992 13.225 13.472 13.715 14.015 14.355 14.652 14.95 15.16 15.297 15.385 15.505 15.637 15.74 15.912 16.06 16.225 16.39 16.54 16.72 16.862 17.042 17.247 17.377 17.52 17.8 18.005 18.157 18.527 18.822 19.052 19.307 19.542 19.735 19.957 20.262 20.532 20.925 21.365 22.567 22.862 22.247 22.41 22.57 22.872 23.16 23.325 23.522 23.717 23.935 24.055 24.182 24.41 24.592 24.775 24.875 24.97 25.112 25.287 25.46 25.545 25.667 25.76 25.917 26.282 26.53 26.66 26.742 26.805 26.87 27.18 27.417 27.625 28.26 28.43 28.062 28.087 28.117 28.182 28.252 28.332 28.467 28.62 28.78 28.95 29.13 29.24 29.442 29.755 30.097 31.172 31.495 31.612 32.117 31.652 31.185 31.332 31.425 31.532 31.657 31.82 31.912 32.005 32.17 32.295 32.42 32.552 32.712 32.862 33.097 33.24 33.332 33.48 33.67 33.847 34.037 34.232 34.387 34.522 34.712 34.862 35.01 35.147 35.285 35.395 35.485 35.572 35.705 35.83 35.957 36.03 36.11 36.28
0.569 0.547 0.564 0.632 0.619 0.654 0.649 0.652 0.617 0.612 0.624 0.652 0.752 0.718 0.798 0.831 0.81 0.667 0.517 0.503 0.487 0.476 0.43 0.421 0.511 0.987 1.463 0.636 0.464 0.446 0.412 0.453 0.443 0.468 0.489 0.542 0.552 0.549 0.572 0.565 0.529 0.417 0.392 0.389 0.509 0.574 0.574 0.567 0.584 0.592 0.567 0.57 0.595 0.61 0.6 0.605 0.615 0.605 0.577 0.587 0.602 0.63 0.642 0.605 0.63 0.612 0.647 0.647 0.66 0.657 0.65 0.68 0.672 0.662 0.622 0.647 0.66 0.652 0.66 0.652 0.635 0.63 0.62 0.6 0.59 0.552 0.56 0.565 0.592 0.557 0.572 0.575 0.592 0.585 0.645 0.675 0.685 0.667 0.702 0.685 0.685 0.672 0.64 0.605 0.602 0.617 0.61 0.595 0.577 0.587 0.577 0.565 0.545 0.55 0.567 0.537 0.537 0.562 0.547 0.527 0.487 0.49 0.52 0.532 0.527 0.525 0.532 0.522 0.525 0.517 0.495 0.495 0.512 0.505 0.51 0.537 0.557 0.547 0.53 0.542 0.535 0.52 0.55 0.567 0.58 0.582 0.585 0.59 0.59 0.602 0.57 0.575 0.567 0.507 0.507 0.447 0.31 0.225 0.162 0.142 0.13 0.06 -0.053 -0.128 0.077 0.112 0.11 0.22 0.317 0.485 0.595 0.63 0.667 0.677 0.687 0.682 0.622 0.65 0.655 0.6 0.59 0.6 0.582 0.53 0.447 0.455 0.51 0.427 0.347 0.325 0.332 0.335 0.33 0.337 0.36 0.37 0.39 0.405 0.392 0.36 0.357 0.37 0.382 0.395 0.495 0.575 0.597 0.545 0.497 0.525 0.555 0.562 0.575 0.597 0.61 0.585 0.58 0.655 0.662 0.54 0.522 0.522 0.512 0.495 0.517 0.522 0.537 0.522 0.537 0.56 0.58 0.61 0.632 0.625 0.622 0.63 0.655 0.655 0.655 0.715 0.752 0.765 0.715 0.717 0.745 0.702 0.665 0.665 0.685 0.682 0.69 0.723 0.688 0.678 0.728 0.748 0.778 0.798 0.833 0.89 0.898 0.873 0.868 0.875 0.838 0.88 0.92 0.92 0.938 0.928 0.95 0.995 1.02 1.075 1.148 1.223 1.265 1.4 1.533 2.28 4.185 5.018 4.533 5.243 5.71 4.975 4.808 4.625 4.553 4.595 4.648 4.695 4.75 4.813 4.925 5.04 5.165 5.223 5.188 5.105 5.16 5.23 5.31 5.385 5.437 5.512 5.615 5.692 5.735 5.797 5.905 5.97 6.045 6.13 6.207 6.277 6.342 6.407 6.48 6.527 6.647 6.7 6.817 6.895 7.017 7.095 7.175 7.285 7.352 7.457 7.557 7.662 7.752 7.87 7.992 8.092 8.2 8.317 8.425 8.497 8.63 8.76 8.91 9.037 9.26 9.482 9.76 10.2 10.53 10.675 10.797 10.985 11.317 11.595 11.825 12.06 12.43 12.652 12.855 13.055 13.317 13.54 13.807 14.172 14.512 14.825 15.032 15.162 15.27 15.355 15.475 15.58 15.707 15.877 16.057 16.197 16.4 16.625 16.825 16.995 17.18 17.292 17.46 17.622 17.922 18.127 18.48 18.752 18.985 19.205 19.447 19.655 19.862 20.127 20.39 20.677 21.252 22.572 22.332 22.167 22.35 22.492 22.74 23.035 23.237 23.435 23.617 23.82 23.962 24.085 24.29 24.49 24.65 24.755 24.845 25.017 25.185 25.337 25.472 25.592 25.692 25.81 26.185 26.382 26.56 26.672 26.732 26.785 26.957 27.2 27.395 27.602 28.252 28.172 28 28.035 28.095 28.145 28.222 28.317 28.49 28.647 28.877 29.012 29.102 29.217 29.465 29.737 30.997 30.84 31.122 32.53 32.305 31.385 30.962 31.04 31.195 31.322 31.435 31.567 31.742 31.927 32.06 32.237 32.377 32.507 32.632 32.802 32.952 33.087 33.252 33.422 33.57 33.79 33.97 34.17 34.34 34.507 34.7 34.87 35.025 35.15 35.25 35.39 35.465 35.615 35.752 35.872 35.94 36.05 36.315
0.639 0.574 0.534 0.589 0.654 0.657 0.644 0.627 0.639 0.624 0.629 0.652 0.635 0.626 0.693 0.96 0.982 0.701 0.62 0.771 0.675 0.529 0.545 0.5 0.466 0.442 0.515 0.497 0.475 0.474 0.445 0.441 0.438 0.498 0.517 0.538 0.553 0.556 0.569 0.57 0.387 0.342 0.389 0.454 0.562 0.577 0.589 0.572 0.579 0.584 0.582 0.572 0.587 0.59 0.612 0.597 0.572 0.595 0.602 0.58 0.577 0.585 0.607 0.605 0.635 0.647 0.652 0.67 0.667 0.655 0.675 0.677 0.652 0.662 0.66 0.642 0.642 0.635 0.64 0.622 0.61 0.62 0.607 0.57 0.562 0.552 0.542 0.562 0.55 0.542 0.562 0.55 0.56 0.595 0.627 0.632 0.642 0.67 0.675 0.69 0.68 0.652 0.642 0.622 0.622 0.617 0.647 0.637 0.63 0.597 0.567 0.577 0.58 0.542 0.567 0.537 0.545 0.585 0.587 0.535 0.522 0.5 0.52 0.54 0.522 0.542 0.54 0.532 0.545 0.515 0.51 0.485 0.515 0.54 0.55 0.567 0.597 0.57 0.557 0.567 0.532 0.555 0.595 0.612 0.64 0.642 0.625 0.595 0.572 0.62 0.557 0.55 0.567 0.532 0.507 0.437 0.307 0.205 0.157 0.1 0.072 0.027 -0.065 -0.078 0.062 0.02 0.075 0.105 0.187 0.432 0.592 0.617 0.607 0.667 0.657 0.647 0.625 0.642 0.637 0.61 0.592 0.632 0.635 0.597 0.577 0.575 0.542 0.445 0.357 0.385 0.427 0.407 0.41 0.435 0.45 0.44 0.457 0.442 0.425 0.382 0.365 0.375 0.365 0.412 0.485 0.59 0.597 0.607 0.56 0.552 0.552 0.557 0.565 0.612 0.66 0.597 0.605 0.672 0.685 0.577 0.545 0.5 0.525 0.475 0.517 0.527 0.522 0.512 0.537 0.55 0.567 0.6 0.615 0.612 0.647 0.647 0.657 0.667 0.742 0.795 0.762 0.737 0.677 0.702 0.722 0.705 0.675 0.667 0.66 0.677 0.68 0.708 0.688 0.685 0.73 0.753 0.803 0.813 0.815 0.873 0.913 0.883 0.868 0.85 0.853 0.903 0.928 0.958 0.94 0.93 0.953 1.01 1.058 1.093 1.133 1.218 1.32 1.43 1.543 3.135 4.21 4.013 4.675 5.08 7.108 5.968 4.435 4.508 4.57 4.505 4.743 4.648 4.673 4.863 4.948 5.025 5.065 5.143 5.203 5.253 5.345 5.14 5.25 5.355 5.43 5.48 5.56 5.655 5.732 5.78 5.857 5.935 6 6.082 6.175 6.24 6.297 6.322 6.405 6.47 6.57 6.63 6.737 6.85 6.925 7.01 7.112 7.187 7.277 7.387 7.46 7.577 7.67 7.79 7.897 7.997 8.105 8.192 8.297 8.407 8.527 8.657 8.777 8.917 9.152 9.412 9.72 10.2 10.537 10.65 10.707 10.897 11.165 11.45 11.79 12.057 12.325 12.502 12.69 12.9 13.177 13.395 13.682 14.047 14.377 14.657 14.887 15.02 15.127 15.192 15.277 15.412 15.527 15.702 15.875 16.045 16.262 16.517 16.71 16.912 17.102 17.24 17.392 17.497 17.69 17.982 18.475 18.682 18.897 19.085 19.305 19.565 19.785 20.007 20.255 20.457 21.545 22.355 21.825 22.02 22.297 22.437 22.612 22.862 23.095 23.317 23.5 23.675 23.865 24.022 24.182 24.382 24.51 24.607 24.717 24.905 25.057 25.215 25.36 25.49 25.575 25.705 26.045 26.31 26.457 26.605 26.69 26.735 26.865 27 27.135 27.305 27.505 27.962 28.085 27.955 27.96 28.022 28.087 28.207 28.367 28.502 28.725 28.867 28.975 29.037 29.167 29.412 29.865 29.827 30.402 32.23 32.437 31.71 30.605 30.755 30.91 31.06 31.112 31.205 31.422 31.652 31.81 32.005 32.17 32.282 32.447 32.542 32.717 32.905 33.03 33.185 33.342 33.527 33.707 33.915 34.105 34.287 34.517 34.725 34.872 34.987 35.145 35.247 35.365 35.51 35.652 35.735 35.805 36.502 37.147
0.652 0.599 0.557 0.597 0.629 0.612 0.649 0.629 0.629 0.627 0.634 0.654 0.622 0.603 0.592 0.746 0.917 0.951 0.908 0.873 0.754 0.705 1.023 0.927 0.534 0.428 0.435 0.455 0.497 0.524 0.47 0.494 0.494 0.519 0.525 0.563 0.561 0.564 0.57 0.492 0.267 0.272 0.389 0.509 0.617 0.599 0.574 0.572 0.597 0.572 0.587 0.577 0.592 0.59 0.625 0.595 0.61 0.59 0.587 0.592 0.595 0.575 0.575 0.61 0.602 0.622 0.64 0.647 0.652 0.665 0.675 0.67 0.665 0.667 0.657 0.655 0.632 0.612 0.635 0.625 0.595 0.602 0.607 0.592 0.53 0.545 0.53 0.555 0.552 0.547 0.535 0.55 0.57 0.577 0.59 0.617 0.627 0.675 0.687 0.675 0.67 0.67 0.617 0.63 0.62 0.637 0.66 0.632 0.627 0.61 0.57 0.57 0.572 0.547 0.545 0.532 0.552 0.607 0.58 0.545 0.532 0.527 0.532 0.547 0.537 0.54 0.547 0.525 0.537 0.515 0.497 0.492 0.545 0.545 0.56 0.575 0.6 0.58 0.575 0.57 0.587 0.55 0.59 0.63 0.655 0.642 0.622 0.612 0.577 0.61 0.585 0.54 0.537 0.512 0.515 0.445 0.302 0.225 0.125 0.095 0.035 0.007 -0.13 -0.118 0.055 0.05 0.077 0.065 0.127 0.407 0.597 0.63 0.61 0.647 0.642 0.6 0.595 0.622 0.64 0.592 0.592 0.61 0.637 0.612 0.585 0.56 0.537 0.477 0.427 0.467 0.457 0.48 0.502 0.512 0.512 0.48 0.47 0.5 0.475 0.41 0.39 0.347 0.347 0.407 0.487 0.567 0.61 0.607 0.552 0.552 0.55 0.55 0.572 0.635 0.652 0.625 0.622 0.645 0.625 0.552 0.527 0.507 0.51 0.512 0.52 0.545 0.53 0.522 0.55 0.562 0.592 0.605 0.627 0.632 0.66 0.645 0.642 0.675 0.757 0.79 0.777 0.7 0.675 0.662 0.69 0.667 0.685 0.677 0.662 0.655 0.688 0.71 0.728 0.71 0.743 0.795 0.793 0.81 0.843 0.858 0.963 0.92 0.885 0.855 0.868 0.905 0.923 0.938 0.945 0.953 0.945 1.025 1.073 1.098 1.153 1.245 1.338 1.515 1.595 3.573 4.055 3.185 5.323 6.42 6.3 5.228 4.633 4.43 4.535 4.49 4.605 4.633 4.725 4.823 4.95 5.018 5.045 5.128 5.24 5.175 5.177 5.192 5.205 5.292 5.362 5.45 5.535 5.61 5.69 5.735 5.815 5.88 5.98 6.06 6.145 6.185 6.237 6.282 6.362 6.432 6.502 6.562 6.662 6.755 6.855 6.93 7.03 7.11 7.2 7.297 7.392 7.492 7.582 7.68 7.802 7.89 7.997 8.077 8.2 8.295 8.432 8.53 8.677 8.885 9.08 9.302 9.605 10.137 10.437 10.592 10.6 10.792 11.032 11.34 11.692 11.962 12.195 12.342 12.527 12.76 13.005 13.255 13.58 13.91 14.24 14.535 14.757 14.87 14.982 15.037 15.077 15.175 15.357 15.537 15.715 15.917 16.147 16.367 16.59 16.837 17.027 17.167 17.292 17.397 17.56 17.795 18.24 18.645 18.855 19.01 19.227 19.462 19.725 19.917 20.12 20.31 21.532 21.897 21.515 21.847 22.195 22.37 22.527 22.662 22.962 23.172 23.372 23.572 23.792 23.937 24.047 24.23 24.357 24.487 24.61 24.785 24.902 25.037 25.23 25.37 25.455 25.622 25.887 26.15 26.317 26.495 26.65 26.745 26.815 26.96 27.02 27.115 27.217 27.397 27.89 28.127 27.885 27.897 27.992 28.11 28.23 28.4 28.607 28.682 28.8 28.895 28.995 29.107 29.282 29.565 30.272 31.467 31.892 32.155 32.632 30.675 30.675 30.862 30.97 31.002 31.087 31.237 31.447 31.68 31.912 32.082 32.23 32.345 32.515 32.652 32.782 32.942 33.12 33.287 33.45 33.697 33.91 34.092 34.305 34.502 34.665 34.832 34.985 35.155 35.275 35.402 35.492 35.587 35.79 36.83 37.732
0.612 0.579 0.567 0.612 0.644 0.647 0.642 0.637 0.647 0.632 0.642 0.632 0.609 0.617 0.604 0.65 0.793 0.875 0.761 0.591 0.702 0.899 0.818 0.697 0.606 0.623 0.604 0.447 0.491 0.522 0.514 0.541 0.528 0.545 0.564 0.56 0.556 0.552 0.544 0.427 0.282 0.317 0.459 0.589 0.619 0.592 0.567 0.577 0.597 0.607 0.592 0.592 0.605 0.617 0.59 0.602 0.59 0.6 0.602 0.562 0.567 0.585 0.582 0.59 0.592 0.605 0.607 0.655 0.65 0.647 0.64 0.657 0.675 0.662 0.637 0.64 0.63 0.597 0.635 0.607 0.587 0.61 0.572 0.56 0.562 0.562 0.555 0.575 0.565 0.562 0.547 0.557 0.58 0.567 0.545 0.592 0.612 0.642 0.652 0.627 0.66 0.632 0.622 0.615 0.607 0.622 0.642 0.625 0.625 0.59 0.582 0.597 0.565 0.532 0.517 0.507 0.547 0.582 0.552 0.55 0.53 0.527 0.552 0.572 0.547 0.532 0.552 0.537 0.525 0.545 0.532 0.522 0.55 0.585 0.562 0.572 0.63 0.597 0.58 0.57 0.577 0.57 0.62 0.615 0.63 0.65 0.617 0.587 0.552 0.597 0.545 0.535 0.532 0.505 0.497 0.425 0.29 0.19 0.112 0.102 0.047 0.005 -0.105 -0.123 0.06 0.095 0.137 0.14 0.16 0.417 0.56 0.595 0.597 0.647 0.685 0.645 0.605 0.652 0.64 0.595 0.612 0.637 0.63 0.597 0.59 0.565 0.575 0.485 0.462 0.485 0.512 0.485 0.52 0.517 0.495 0.467 0.502 0.515 0.45 0.412 0.357 0.337 0.357 0.415 0.5 0.535 0.577 0.587 0.557 0.59 0.562 0.517 0.555 0.62 0.615 0.632 0.625 0.605 0.607 0.542 0.475 0.505 0.532 0.522 0.527 0.545 0.542 0.537 0.575 0.585 0.597 0.617 0.58 0.602 0.655 0.657 0.657 0.657 0.72 0.82 0.762 0.695 0.675 0.65 0.667 0.655 0.645 0.652 0.652 0.672 0.69 0.713 0.74 0.76 0.76 0.775 0.81 0.79 0.82 0.87 0.97 0.955 0.908 0.865 0.895 0.91 0.915 0.96 0.963 0.978 0.955 1.028 1.083 1.12 1.183 1.29 1.405 1.55 2.55 3.993 3.533 4.348 4.925 6.055 5.128 5.145 4.518 4.42 4.465 4.45 4.523 4.628 4.81 4.778 4.888 4.955 4.993 5.123 5.143 5.06 5.24 5.34 5.232 5.247 5.322 5.452 5.507 5.582 5.64 5.702 5.78 5.837 5.935 6.012 6.07 6.137 6.177 6.24 6.325 6.4 6.442 6.515 6.597 6.682 6.775 6.87 6.945 7.01 7.11 7.212 7.282 7.4 7.492 7.587 7.682 7.797 7.897 7.972 8.077 8.175 8.3 8.432 8.585 8.792 9.007 9.237 9.535 10.1 10.392 10.527 10.54 10.712 10.932 11.247 11.517 11.835 12.035 12.175 12.382 12.615 12.86 13.117 13.447 13.75 14.05 14.34 14.585 14.705 14.805 14.877 14.92 14.997 15.18 15.385 15.54 15.76 16.022 16.222 16.482 16.715 16.925 17.097 17.212 17.302 17.427 17.677 18.012 18.442 18.742 18.912 19.11 19.342 19.627 19.865 20.03 20.507 21.837 21.48 21.325 21.65 22.025 22.315 22.452 22.535 22.782 23.057 23.247 23.452 23.682 23.852 23.94 24.077 24.212 24.352 24.462 24.62 24.785 24.917 25.112 25.232 25.355 25.507 25.79 26.02 26.197 26.345 26.495 26.62 26.735 26.84 26.935 27.052 27.132 27.205 27.362 27.75 28.105 27.795 27.835 27.98 28.097 28.307 28.535 28.547 28.59 28.705 28.83 28.945 29.077 29.76 30.427 30.875 31.235 32.652 33.145 30.662 30.46 30.577 30.665 30.807 30.922 31.02 31.167 31.287 31.522 31.712 31.93 32.037 32.225 32.355 32.472 32.665 32.867 33.075 33.247 33.46 33.667 33.88 34.1 34.292 34.475 34.655 34.832 34.985 35.12 35.222 35.34 35.707 37.577 36.825 35.64
0.654 0.637 0.624 0.624 0.649 0.652 0.672 0.649 0.664 0.649 0.659 0.612 0.652 0.624 0.619 0.627 0.687 0.726 0.645 0.591 0.61 0.647 0.686 0.843 1.047 1.132 0.616 0.498 0.476 0.533 0.557 0.559 0.535 0.554 0.543 0.549 0.532 0.544 0.514 0.314 0.277 0.294 0.457 0.594 0.624 0.609 0.607 0.564 0.584 0.589 0.595 0.582 0.592 0.605 0.587 0.617 0.602 0.595 0.597 0.587 0.59 0.585 0.58 0.61 0.575 0.58 0.595 0.6 0.647 0.637 0.642 0.655 0.645 0.63 0.657 0.622 0.617 0.602 0.622 0.612 0.6 0.565 0.552 0.557 0.532 0.557 0.55 0.575 0.56 0.555 0.567 0.555 0.542 0.567 0.575 0.56 0.577 0.592 0.602 0.645 0.625 0.57 0.58 0.605 0.622 0.615 0.625 0.607 0.607 0.575 0.56 0.575 0.54 0.487 0.477 0.505 0.552 0.552 0.547 0.537 0.542 0.54 0.562 0.562 0.557 0.53 0.56 0.562 0.565 0.585 0.572 0.56 0.565 0.557 0.585 0.612 0.647 0.612 0.595 0.605 0.595 0.605 0.605 0.64 0.635 0.592 0.562 0.535 0.517 0.56 0.53 0.487 0.502 0.48 0.45 0.377 0.237 0.152 0.077 0.055 0.027 0.035 -0.13 -0.11 0.017 0.117 0.162 0.23 0.322 0.475 0.562 0.587 0.587 0.622 0.685 0.655 0.597 0.617 0.642 0.612 0.615 0.622 0.63 0.59 0.57 0.555 0.555 0.515 0.485 0.485 0.515 0.507 0.517 0.517 0.505 0.502 0.505 0.535 0.435 0.38 0.34 0.347 0.375 0.42 0.487 0.537 0.535 0.555 0.52 0.542 0.532 0.535 0.55 0.592 0.63 0.585 0.585 0.595 0.552 0.502 0.487 0.517 0.51 0.517 0.512 0.545 0.532 0.55 0.567 0.567 0.592 0.605 0.622 0.62 0.652 0.655 0.647 0.617 0.667 0.735 0.765 0.73 0.697 0.677 0.655 0.65 0.645 0.665 0.655 0.67 0.7 0.725 0.745 0.775 0.78 0.795 0.83 0.823 0.843 0.87 0.905 0.933 0.89 0.845 0.895 0.938 0.935 0.973 0.955 0.983 1.003 0.978 1.085 1.163 1.215 1.33 1.465 1.633 3.088 4.455 4.04 4.545 6.108 5.755 5.333 4.77 4.49 4.315 4.415 4.503 4.503 4.555 4.673 4.81 4.84 4.88 4.998 5.025 4.99 5.06 5.122 5.197 5.247 5.227 5.282 5.375 5.457 5.512 5.605 5.652 5.722 5.815 5.865 5.952 6.017 6.097 6.137 6.202 6.277 6.315 6.385 6.435 6.522 6.605 6.68 6.76 6.845 6.93 7.037 7.115 7.197 7.3 7.415 7.482 7.535 7.65 7.75 7.84 7.962 8.065 8.185 8.322 8.517 8.732 8.937 9.21 9.487 9.857 10.195 10.345 10.452 10.587 10.845 11.125 11.385 11.657 11.807 11.99 12.222 12.45 12.7 13.027 13.342 13.605 13.892 14.19 14.42 14.585 14.692 14.75 14.787 14.84 15.025 15.225 15.395 15.622 15.877 16.09 16.385 16.637 16.86 17.052 17.155 17.227 17.295 17.52 17.832 18.242 18.567 18.805 18.982 19.185 19.48 19.73 19.892 20.585 21.535 20.835 21.142 21.487 21.802 22.185 22.345 22.452 22.635 22.88 23.147 23.335 23.482 23.727 23.9 23.952 24.065 24.19 24.327 24.467 24.692 24.842 25.005 25.12 25.25 25.397 25.65 25.882 26.057 26.202 26.337 26.485 26.592 26.67 26.792 26.957 27.052 27.115 27.215 27.377 27.642 27.867 27.822 27.85 27.97 28.152 28.402 28.375 28.4 28.512 28.67 28.797 28.89 29.12 29.492 29.437 29.66 30.435 30.827 30.885 30.217 30.252 30.395 30.557 30.727 30.89 31.025 31.145 31.28 31.347 31.442 31.64 31.89 32.075 32.232 32.407 32.622 32.837 33.06 33.252 33.435 33.63 33.845 34.067 34.297 34.502 34.682 34.852 34.982 35.075 35.217 35.817 37.07 36.925 35.082
0.689 0.704 0.654 0.659 0.664 0.677 0.714 0.687 0.657 0.664 0.677 0.632 0.599 0.609 0.619 0.614 0.619 0.624 0.605 0.625 0.574 0.572 0.691 1.139 1.239 0.853 0.603 0.532 0.49 0.551 0.569 0.579 0.587 0.576 0.539 0.563 0.539 0.477 0.392 0.262 0.282 0.319 0.442 0.514 0.582 0.604 0.589 0.594 0.614 0.589 0.615 0.615 0.615 0.632 0.617 0.625 0.637 0.617 0.607 0.585 0.622 0.56 0.567 0.575 0.552 0.585 0.58 0.562 0.58 0.59 0.62 0.622 0.637 0.632 0.635 0.605 0.625 0.607 0.617 0.607 0.577 0.55 0.552 0.557 0.547 0.577 0.555 0.555 0.545 0.545 0.555 0.557 0.565 0.552 0.56 0.542 0.552 0.545 0.562 0.59 0.585 0.522 0.567 0.592 0.61 0.57 0.59 0.597 0.607 0.577 0.57 0.547 0.485 0.49 0.5 0.522 0.542 0.545 0.52 0.545 0.535 0.527 0.562 0.57 0.555 0.542 0.575 0.592 0.597 0.597 0.577 0.582 0.6 0.607 0.602 0.632 0.685 0.645 0.625 0.647 0.665 0.597 0.59 0.58 0.562 0.552 0.515 0.492 0.45 0.487 0.492 0.48 0.48 0.462 0.425 0.36 0.205 0.125 0.045 0.052 0.02 0.015 -0.113 -0.115 0.03 0.097 0.132 0.217 0.342 0.487 0.572 0.582 0.605 0.62 0.647 0.645 0.622 0.662 0.635 0.607 0.575 0.625 0.642 0.565 0.555 0.565 0.565 0.525 0.505 0.52 0.517 0.517 0.512 0.515 0.502 0.5 0.512 0.512 0.447 0.365 0.33 0.347 0.367 0.422 0.457 0.527 0.552 0.522 0.487 0.507 0.515 0.52 0.535 0.56 0.582 0.565 0.532 0.55 0.502 0.527 0.547 0.582 0.517 0.492 0.49 0.512 0.547 0.56 0.532 0.567 0.59 0.595 0.637 0.652 0.655 0.635 0.642 0.627 0.66 0.672 0.715 0.707 0.687 0.682 0.665 0.65 0.67 0.672 0.68 0.695 0.73 0.763 0.78 0.795 0.793 0.815 0.833 0.833 0.86 0.858 0.885 0.935 0.9 0.863 0.938 0.94 0.94 0.973 0.98 0.988 0.993 1.048 1.088 1.213 1.345 1.403 1.545 1.713 3.703 3.41 2.6 4.85 5.365 4.99 4.628 4.728 4.273 4.283 4.335 4.448 4.445 4.513 4.645 4.743 4.743 4.858 4.898 4.905 5.015 5.028 5.132 5.157 5.22 5.2 5.262 5.355 5.41 5.465 5.542 5.622 5.672 5.772 5.852 5.94 5.997 6.027 6.095 6.137 6.22 6.255 6.327 6.377 6.46 6.51 6.592 6.692 6.762 6.855 6.935 7.017 7.107 7.197 7.28 7.345 7.43 7.515 7.622 7.71 7.85 7.927 8.037 8.215 8.407 8.607 8.867 9.182 9.497 9.76 9.967 10.145 10.275 10.415 10.655 10.985 11.247 11.487 11.647 11.832 12.067 12.28 12.56 12.882 13.202 13.487 13.772 14.037 14.245 14.417 14.547 14.592 14.617 14.695 14.875 15.05 15.262 15.497 15.747 15.977 16.23 16.52 16.767 16.977 17.09 17.13 17.207 17.347 17.662 18.03 18.322 18.63 18.892 19.095 19.337 19.555 19.79 20.922 21.037 20.512 20.952 21.305 21.585 21.952 22.22 22.375 22.51 22.677 22.967 23.222 23.382 23.557 23.707 23.82 23.965 24.135 24.22 24.352 24.565 24.722 24.915 25.047 25.112 25.252 25.505 25.727 25.905 26.072 26.175 26.327 26.432 26.525 26.645 26.79 26.867 26.96 27.087 27.167 27.275 27.707 28.115 27.867 27.867 28.005 28.135 28.117 28.187 28.292 28.397 28.537 28.68 28.787 28.907 29.002 29.19 29.347 29.72 30.582 32.647 32.062 30.292 30.18 30.45 30.73 30.872 31.057 31.182 31.21 31.232 31.357 31.532 31.747 31.9 32.09 32.335 32.547 32.767 32.957 33.172 33.38 33.602 33.84 34.077 34.33 34.535 34.667 34.815 34.95 36.892 37.61 37.432 35.02 34.97
0.699 0.739 0.702 0.709 0.667 0.689 0.709 0.702 0.677 0.662 0.677 0.647 0.654 0.632 0.632 0.622 0.634 0.632 0.624 0.604 0.6 0.59 0.679 0.867 0.921 0.677 0.571 0.559 0.523 0.563 0.582 0.626 0.611 0.601 0.564 0.539 0.527 0.484 0.409 0.299 0.292 0.337 0.442 0.499 0.579 0.622 0.652 0.647 0.622 0.597 0.617 0.635 0.597 0.61 0.637 0.632 0.627 0.597 0.615 0.615 0.625 0.615 0.587 0.582 0.572 0.595 0.585 0.555 0.57 0.592 0.58 0.592 0.592 0.6 0.627 0.612 0.612 0.607 0.585 0.577 0.562 0.56 0.557 0.537 0.58 0.577 0.572 0.567 0.552 0.535 0.555 0.547 0.555 0.535 0.522 0.56 0.537 0.535 0.5 0.512 0.51 0.497 0.527 0.577 0.59 0.59 0.59 0.587 0.575 0.58 0.57 0.545 0.475 0.502 0.525 0.535 0.552 0.542 0.542 0.572 0.567 0.537 0.572 0.557 0.585 0.592 0.62 0.597 0.61 0.642 0.622 0.612 0.627 0.657 0.632 0.652 0.692 0.672 0.652 0.657 0.642 0.587 0.567 0.525 0.517 0.507 0.505 0.49 0.497 0.537 0.532 0.492 0.465 0.43 0.407 0.355 0.192 0.117 0.052 0.06 0.025 0.03 -0.123 -0.088 0.022 0.08 0.122 0.152 0.29 0.47 0.52 0.552 0.572 0.617 0.65 0.645 0.635 0.63 0.66 0.61 0.595 0.635 0.605 0.535 0.585 0.557 0.572 0.532 0.497 0.517 0.515 0.512 0.515 0.54 0.532 0.517 0.522 0.517 0.482 0.4 0.35 0.362 0.377 0.407 0.43 0.49 0.51 0.49 0.522 0.502 0.51 0.5 0.54 0.542 0.525 0.512 0.49 0.52 0.525 0.547 0.597 0.642 0.555 0.497 0.5 0.545 0.54 0.572 0.572 0.585 0.572 0.595 0.625 0.637 0.642 0.642 0.655 0.632 0.647 0.66 0.692 0.662 0.675 0.66 0.667 0.682 0.68 0.672 0.702 0.75 0.77 0.795 0.815 0.82 0.81 0.823 0.84 0.853 0.855 0.873 0.905 0.913 0.918 0.893 0.925 0.943 0.935 0.965 1.01 1.015 1.028 1.1 1.173 1.238 1.34 1.45 1.56 2.245 2.98 3.568 2.895 5.488 5.455 4.763 4.578 4.243 4.243 4.363 4.37 4.38 4.42 4.503 4.693 4.725 4.808 4.77 4.855 4.863 4.93 5 5.152 5.145 5.187 5.23 5.227 5.297 5.355 5.407 5.495 5.557 5.617 5.73 5.79 5.86 5.912 5.977 6.042 6.117 6.152 6.182 6.257 6.307 6.4 6.435 6.517 6.6 6.672 6.752 6.832 6.922 6.995 7.092 7.16 7.217 7.317 7.417 7.495 7.557 7.715 7.812 7.945 8.105 8.295 8.517 8.817 9.225 9.437 9.67 9.827 9.975 10.102 10.297 10.5 10.81 11.11 11.302 11.475 11.7 11.957 12.197 12.462 12.727 13.055 13.335 13.65 13.89 14.062 14.217 14.327 14.41 14.487 14.57 14.702 14.895 15.13 15.382 15.66 15.872 16.142 16.427 16.667 16.877 17.017 17.1 17.17 17.272 17.517 17.847 18.117 18.39 18.705 18.932 19.202 19.417 19.76 21.095 20.26 20.42 20.767 21.087 21.402 21.735 21.972 22.24 22.435 22.51 22.755 23.067 23.265 23.445 23.58 23.652 23.792 23.985 24.077 24.205 24.39 24.545 24.767 24.885 25.01 25.112 25.3 25.537 25.71 25.88 26.037 26.177 26.285 26.39 26.485 26.592 26.692 26.795 26.902 27.022 27.14 27.302 27.652 28.067 27.815 27.835 27.972 27.967 28.007 28.07 28.147 28.27 28.415 28.575 28.717 28.802 28.915 29.037 29.132 29.627 29.98 30.19 30.255 29.947 30.085 30.335 30.525 30.685 30.89 31.027 31.095 31.135 31.31 31.397 31.567 31.752 31.935 32.225 32.465 32.645 32.842 33.105 33.345 33.582 33.84 34.125 34.317 34.48 34.625 35.987 38.14 38.567 35.752 34.522 35.767
0.747 0.744 0.759 0.734 0.714 0.689 0.734 0.734 0.729 0.714 0.662 0.657 0.644 0.627 0.667 0.642 0.629 0.639 0.642 0.612 0.617 0.617 0.629 0.676 0.645 0.601 0.572 0.545 0.566 0.626 0.611 0.652 0.631 0.627 0.607 0.554 0.552 0.544 0.524 0.297 0.314 0.409 0.572 0.574 0.632 0.629 0.629 0.627 0.649 0.632 0.66 0.622 0.647 0.617 0.635 0.645 0.655 0.607 0.62 0.605 0.63 0.615 0.6 0.57 0.57 0.567 0.56 0.562 0.597 0.575 0.565 0.54 0.545 0.552 0.562 0.592 0.587 0.587 0.59 0.585 0.557 0.552 0.57 0.557 0.57 0.562 0.542 0.532 0.537 0.527 0.54 0.552 0.545 0.52 0.515 0.525 0.52 0.512 0.477 0.462 0.497 0.512 0.547 0.565 0.562 0.555 0.552 0.567 0.565 0.527 0.535 0.53 0.51 0.542 0.515 0.525 0.527 0.522 0.545 0.547 0.55 0.545 0.567 0.592 0.58 0.607 0.635 0.617 0.605 0.63 0.64 0.635 0.65 0.65 0.657 0.65 0.675 0.632 0.667 0.652 0.62 0.537 0.502 0.49 0.502 0.525 0.515 0.547 0.56 0.615 0.585 0.552 0.48 0.422 0.397 0.32 0.172 0.107 0.06 0.08 0.032 0.027 -0.075 -0.108 0.045 0.072 0.087 0.085 0.205 0.437 0.527 0.497 0.49 0.557 0.625 0.645 0.617 0.65 0.682 0.62 0.582 0.61 0.607 0.555 0.555 0.59 0.572 0.55 0.55 0.522 0.53 0.52 0.53 0.532 0.547 0.522 0.527 0.512 0.492 0.435 0.387 0.36 0.38 0.42 0.402 0.405 0.412 0.415 0.44 0.435 0.477 0.492 0.487 0.492 0.52 0.527 0.495 0.535 0.57 0.55 0.592 0.597 0.54 0.53 0.505 0.535 0.53 0.567 0.565 0.577 0.585 0.615 0.625 0.635 0.645 0.642 0.665 0.66 0.645 0.662 0.66 0.667 0.687 0.69 0.69 0.67 0.665 0.67 0.685 0.765 0.795 0.788 0.813 0.818 0.838 0.848 0.863 0.86 0.89 0.905 0.915 0.943 0.93 0.91 0.965 0.963 0.97 0.993 1.035 1.048 1.065 1.118 1.17 1.258 1.34 1.503 1.62 3.81 3.565 3.898 5.398 6.258 5.425 5.1 4.313 4.193 4.235 4.288 4.298 4.398 4.41 4.653 4.61 4.653 4.673 4.785 4.785 4.88 4.933 4.97 5.077 5.137 5.147 5.295 5.212 5.26 5.32 5.38 5.45 5.495 5.562 5.66 5.737 5.81 5.86 5.955 5.987 6.042 6.097 6.125 6.185 6.262 6.302 6.395 6.447 6.51 6.585 6.662 6.75 6.825 6.882 6.967 7.025 7.105 7.175 7.265 7.36 7.435 7.545 7.67 7.842 8.047 8.195 8.465 8.882 9.175 9.405 9.602 9.702 9.837 9.97 10.215 10.44 10.71 10.995 11.192 11.34 11.575 11.825 12.097 12.352 12.622 12.94 13.22 13.5 13.747 13.88 13.982 14.122 14.24 14.337 14.442 14.555 14.742 14.972 15.227 15.517 15.765 16.035 16.3 16.545 16.787 16.965 17.055 17.152 17.25 17.425 17.717 17.972 18.195 18.47 18.72 18.97 19.235 19.997 20.61 19.947 20.267 20.597 20.857 21.195 21.585 21.78 22.017 22.317 22.437 22.582 22.865 23.12 23.275 23.437 23.592 23.66 23.782 23.907 24.047 24.21 24.387 24.55 24.685 24.855 24.975 25.132 25.327 25.457 25.6 25.795 25.995 26.145 26.245 26.325 26.427 26.532 26.625 26.74 26.887 27.065 27.192 27.31 27.485 27.907 27.775 27.727 27.762 27.79 27.852 27.95 28.107 28.212 28.337 28.425 28.477 28.56 28.68 28.865 29.005 29.215 29.49 30.5 29.777 29.912 30.017 30.11 30.35 30.48 30.695 30.85 30.95 31.115 31.242 31.355 31.49 31.55 31.825 32.187 32.425 32.602 32.825 33.04 33.3 33.57 33.835 34.062 34.227 34.562 37.027 37.845 36.28 34.087 35.135 35.827
0.757 0.744 0.757 0.767 0.737 0.734 0.719 0.752 0.747 0.712 0.679 0.657 0.677 0.652 0.654 0.629 0.649 0.664 0.664 0.609 0.629 0.619 0.612 0.612 0.624 0.612 0.594 0.559 0.574 0.632 0.622 0.654 0.632 0.642 0.634 0.619 0.624 0.632 0.534 0.294 0.359 0.574 0.659 0.647 0.632 0.629 0.634 0.632 0.622 0.624 0.607 0.662 0.63 0.657 0.655 0.642 0.645 0.642 0.62 0.63 0.617 0.62 0.595 0.575 0.56 0.575 0.585 0.605 0.58 0.58 0.567 0.565 0.575 0.56 0.572 0.572 0.57 0.572 0.582 0.57 0.567 0.56 0.575 0.55 0.557 0.54 0.545 0.532 0.532 0.512 0.512 0.505 0.515 0.527 0.522 0.537 0.512 0.51 0.49 0.485 0.505 0.5 0.492 0.52 0.547 0.56 0.522 0.535 0.51 0.467 0.487 0.505 0.52 0.545 0.515 0.517 0.535 0.53 0.515 0.527 0.53 0.532 0.565 0.592 0.62 0.627 0.64 0.615 0.632 0.632 0.66 0.647 0.662 0.64 0.642 0.63 0.667 0.652 0.672 0.647 0.582 0.537 0.5 0.492 0.55 0.58 0.575 0.597 0.62 0.682 0.672 0.602 0.562 0.465 0.39 0.292 0.17 0.112 0.067 0.067 0.05 0.037 -0.12 -0.128 0.05 0.06 0.032 0.045 0.135 0.402 0.542 0.512 0.465 0.495 0.582 0.617 0.625 0.637 0.642 0.602 0.57 0.602 0.627 0.597 0.59 0.602 0.577 0.532 0.507 0.505 0.52 0.517 0.527 0.525 0.52 0.525 0.522 0.512 0.522 0.477 0.412 0.39 0.395 0.402 0.412 0.4 0.402 0.37 0.362 0.392 0.417 0.462 0.495 0.515 0.515 0.522 0.547 0.58 0.597 0.535 0.54 0.515 0.585 0.565 0.51 0.525 0.562 0.555 0.587 0.605 0.597 0.615 0.62 0.612 0.635 0.642 0.662 0.66 0.647 0.672 0.672 0.695 0.675 0.7 0.68 0.685 0.665 0.682 0.737 0.8 0.825 0.815 0.813 0.848 0.848 0.875 0.92 0.923 0.91 0.93 0.93 0.923 0.968 0.978 0.99 1.008 0.988 1.01 1.07 1.06 1.083 1.123 1.188 1.268 1.403 1.543 1.72 3.198 2.448 4.41 4.938 5.68 4.818 4.28 4.103 4.198 4.313 4.205 4.26 4.333 4.375 4.49 4.538 4.575 4.678 4.713 4.773 4.845 4.948 4.958 5.02 5.075 5.13 5.187 5.21 5.21 5.27 5.33 5.377 5.44 5.52 5.607 5.68 5.757 5.795 5.87 5.937 5.967 6.037 6.065 6.115 6.187 6.232 6.267 6.357 6.41 6.47 6.55 6.63 6.712 6.77 6.857 6.912 6.995 7.077 7.13 7.222 7.317 7.422 7.56 7.752 7.945 8.13 8.48 8.947 9.15 9.327 9.465 9.58 9.64 9.812 10.005 10.305 10.602 10.852 11.062 11.21 11.435 11.71 11.965 12.212 12.54 12.85 13.135 13.375 13.595 13.715 13.815 13.957 14.09 14.225 14.347 14.437 14.652 14.857 15.112 15.397 15.652 15.94 16.17 16.44 16.697 16.877 17.017 17.155 17.23 17.357 17.642 17.9 18.12 18.357 18.537 18.69 19.197 20.285 19.797 19.795 20.135 20.425 20.707 20.942 21.345 21.665 21.86 22.11 22.267 22.412 22.625 22.9 23.102 23.222 23.43 23.54 23.615 23.707 23.852 24.01 24.175 24.35 24.515 24.717 24.895 25.047 25.25 25.4 25.512 25.677 25.842 25.99 26.127 26.207 26.3 26.377 26.495 26.612 26.82 26.952 26.992 27.025 27.077 27.257 27.72 27.785 27.562 27.575 27.637 27.687 27.847 27.96 28.07 28.127 28.195 28.277 28.357 28.472 28.637 28.792 28.997 29.22 29.395 29.575 29.755 30.007 30.6 30.485 30.395 30.575 30.745 30.85 31.057 31.242 31.4 31.45 31.52 31.915 32.752 32.272 32.48 32.772 33.047 33.322 33.57 33.777 33.965 35.15 36.05 36.267 33.97 34.062 35.605 35.002
0.782 0.782 0.777 0.774 0.757 0.744 0.727 0.744 0.729 0.707 0.669 0.679 0.682 0.667 0.662 0.637 0.624 0.672 0.632 0.637 0.637 0.649 0.649 0.634 0.639 0.639 0.617 0.587 0.624 0.659 0.657 0.664 0.652 0.652 0.599 0.619 0.639 0.674 0.564 0.284 0.382 0.642 0.659 0.659 0.642 0.612 0.614 0.604 0.637 0.634 0.635 0.645 0.64 0.627 0.652 0.627 0.627 0.637 0.6 0.647 0.612 0.587 0.575 0.585 0.57 0.557 0.557 0.565 0.555 0.58 0.57 0.565 0.575 0.562 0.56 0.562 0.57 0.577 0.562 0.56 0.562 0.562 0.54 0.565 0.555 0.52 0.537 0.552 0.52 0.52 0.505 0.535 0.512 0.495 0.497 0.525 0.51 0.505 0.482 0.5 0.505 0.482 0.462 0.442 0.485 0.492 0.48 0.455 0.447 0.417 0.45 0.51 0.535 0.505 0.512 0.527 0.535 0.51 0.495 0.49 0.51 0.52 0.585 0.595 0.6 0.612 0.642 0.61 0.612 0.652 0.647 0.62 0.655 0.652 0.645 0.645 0.675 0.65 0.612 0.592 0.545 0.542 0.527 0.535 0.585 0.612 0.622 0.64 0.677 0.717 0.692 0.642 0.625 0.557 0.437 0.3 0.205 0.127 0.077 0.055 0.04 0.032 -0.115 -0.115 0.027 0.06 0.045 0.057 0.085 0.295 0.5 0.51 0.47 0.472 0.537 0.617 0.625 0.647 0.66 0.61 0.562 0.6 0.605 0.577 0.577 0.597 0.59 0.53 0.515 0.527 0.53 0.537 0.517 0.515 0.547 0.535 0.535 0.565 0.552 0.527 0.48 0.412 0.39 0.387 0.387 0.395 0.387 0.39 0.422 0.447 0.47 0.505 0.557 0.58 0.567 0.547 0.557 0.617 0.587 0.532 0.53 0.485 0.557 0.567 0.52 0.527 0.542 0.592 0.587 0.597 0.605 0.597 0.615 0.622 0.632 0.625 0.635 0.652 0.642 0.665 0.657 0.687 0.672 0.667 0.66 0.692 0.677 0.715 0.735 0.775 0.805 0.795 0.83 0.88 0.883 0.913 0.958 0.955 0.925 0.918 0.938 0.9 0.983 1.035 0.995 1.005 1.005 1.008 1.048 1.085 1.115 1.145 1.22 1.318 1.48 1.595 2.563 3.44 4.33 4.08 5.04 5.37 4.61 4.08 4.035 4.023 4.125 4.143 4.213 4.283 4.488 4.528 4.485 4.558 4.66 4.738 4.773 4.843 4.875 4.945 5.03 5.04 5.225 5.13 5.227 5.162 5.21 5.322 5.352 5.36 5.457 5.56 5.61 5.69 5.745 5.822 5.875 5.887 5.942 5.967 6.057 6.077 6.14 6.187 6.24 6.295 6.352 6.442 6.512 6.557 6.647 6.715 6.79 6.852 6.935 7.002 7.095 7.192 7.32 7.452 7.64 7.817 8.122 8.582 8.932 9.045 9.187 9.357 9.502 9.56 9.722 9.857 10.072 10.405 10.722 10.905 11.097 11.302 11.567 11.832 12.097 12.43 12.757 13.065 13.262 13.422 13.587 13.69 13.807 13.945 14.092 14.21 14.307 14.52 14.732 15.007 15.27 15.53 15.827 16.047 16.307 16.557 16.755 16.93 17.085 17.185 17.297 17.502 17.77 18.025 18.247 18.422 18.51 19.207 20 19.437 19.747 19.977 20.26 20.535 20.792 21.04 21.325 21.715 21.925 21.98 22.155 22.387 22.602 22.837 22.962 23.185 23.38 23.48 23.595 23.757 23.92 24.102 24.255 24.39 24.557 24.75 24.935 25.092 25.272 25.415 25.56 25.732 25.875 25.985 26.05 26.152 26.28 26.387 26.517 26.592 26.66 26.73 26.782 26.83 26.897 26.992 27.412 27.677 27.46 27.437 27.495 27.6 27.692 27.772 27.84 27.935 27.987 28.087 28.232 28.347 28.445 28.61 28.75 28.93 29.135 29.312 29.372 29.792 30.302 30.472 30.127 30.365 30.552 30.742 31.005 31.205 31.337 31.367 31.507 31.76 32.025 32.212 32.41 32.742 33.032 33.28 34.405 33.782 34.222 34.815 34.307 33.51 34.825 35.085 34.54
0.847 0.814 0.782 0.789 0.757 0.747 0.737 0.742 0.782 0.744 0.712 0.712 0.704 0.697 0.679 0.664 0.657 0.669 0.622 0.637 0.647 0.654 0.669 0.659 0.647 0.657 0.637 0.622 0.652 0.697 0.679 0.669 0.659 0.647 0.637 0.622 0.632 0.662 0.342 0.272 0.439 0.662 0.659 0.647 0.649 0.624 0.624 0.642 0.624 0.634 0.617 0.64 0.637 0.637 0.64 0.64 0.627 0.635 0.617 0.62 0.597 0.567 0.595 0.592 0.525 0.507 0.495 0.527 0.55 0.562 0.57 0.575 0.577 0.555 0.567 0.572 0.535 0.57 0.557 0.565 0.567 0.532 0.552 0.56 0.525 0.507 0.517 0.52 0.51 0.487 0.502 0.525 0.522 0.5 0.505 0.507 0.507 0.49 0.475 0.512 0.487 0.48 0.437 0.43 0.432 0.435 0.402 0.352 0.39 0.41 0.442 0.49 0.505 0.5 0.517 0.52 0.52 0.51 0.462 0.482 0.467 0.48 0.56 0.58 0.587 0.617 0.655 0.627 0.625 0.677 0.66 0.62 0.642 0.652 0.632 0.652 0.67 0.637 0.567 0.555 0.562 0.585 0.567 0.627 0.625 0.64 0.652 0.672 0.677 0.72 0.702 0.68 0.64 0.595 0.507 0.367 0.235 0.152 0.092 0.04 0.042 0.06 -0.113 -0.098 0.015 0.035 0.07 0.065 0.045 0.207 0.48 0.515 0.495 0.465 0.515 0.572 0.602 0.622 0.647 0.607 0.587 0.607 0.632 0.587 0.585 0.587 0.575 0.55 0.537 0.555 0.55 0.527 0.53 0.535 0.542 0.545 0.567 0.58 0.587 0.545 0.49 0.432 0.407 0.407 0.415 0.415 0.402 0.442 0.447 0.462 0.525 0.5 0.542 0.562 0.542 0.497 0.535 0.562 0.595 0.517 0.525 0.53 0.505 0.522 0.515 0.535 0.575 0.612 0.597 0.595 0.615 0.627 0.652 0.64 0.637 0.622 0.612 0.642 0.642 0.672 0.675 0.655 0.697 0.667 0.675 0.682 0.712 0.755 0.767 0.775 0.815 0.835 0.885 0.908 0.888 0.915 0.958 0.95 0.913 0.948 0.96 0.915 0.953 1.04 1.03 1.015 1.02 1.035 1.053 1.09 1.145 1.203 1.3 1.368 1.48 1.9 2.945 3.425 4.65 4.283 5.235 4.86 4.378 4.065 3.963 4.01 4.41 4.108 4.203 4.308 4.345 4.395 4.448 4.6 4.618 4.72 4.685 4.763 4.848 4.843 4.967 5.047 5.09 5.245 5.172 5.182 5.162 5.23 5.297 5.322 5.405 5.495 5.557 5.605 5.677 5.742 5.767 5.825 5.88 5.92 5.985 6.007 6.047 6.117 6.137 6.195 6.257 6.33 6.397 6.43 6.512 6.567 6.652 6.742 6.802 6.892 6.97 7.085 7.2 7.37 7.542 7.76 8.087 8.61 8.852 8.94 9.045 9.25 9.407 9.527 9.677 9.787 9.902 10.23 10.567 10.78 10.96 11.257 11.477 11.735 12.045 12.347 12.687 12.952 13.147 13.315 13.445 13.557 13.68 13.797 13.96 14.09 14.192 14.377 14.605 14.887 15.135 15.402 15.665 15.912 16.182 16.405 16.617 16.827 16.975 17.147 17.227 17.352 17.56 17.9 18.122 18.262 18.33 19.622 19.422 19.297 19.582 19.832 20.025 20.307 20.565 20.855 21.12 21.407 21.675 21.785 21.895 22.107 22.277 22.465 22.61 22.797 23.075 23.23 23.41 23.675 23.817 23.955 24.097 24.215 24.382 24.617 24.81 24.97 25.1 25.252 25.39 25.562 25.7 25.847 25.937 26.015 26.14 26.267 26.262 26.3 26.39 26.495 26.53 26.577 26.63 26.665 26.785 27.085 27.557 27.487 27.257 27.282 27.435 27.522 27.582 27.655 27.75 27.855 28 28.14 28.242 28.332 28.417 28.547 28.652 28.787 29.035 29.22 29.83 30.025 30.257 29.945 30.095 30.38 30.632 30.83 31.052 31.195 31.285 31.427 31.675 31.86 32.032 32.312 32.61 33.655 33.207 33.45 33.555 33.642 33.072 33.675 35.047 34.18 34.327
0.884 0.842 0.834 0.799 0.792 0.759 0.759 0.759 0.759 0.772 0.712 0.697 0.704 0.717 0.677 0.684 0.689 0.672 0.677 0.667 0.672 0.672 0.674 0.687 0.672 0.677 0.647 0.662 0.674 0.694 0.709 0.719 0.694 0.687 0.677 0.639 0.627 0.554 0.299 0.287 0.534 0.674 0.687 0.667 0.644 0.639 0.614 0.632 0.622 0.622 0.635 0.642 0.65 0.67 0.61 0.62 0.635 0.627 0.627 0.62 0.615 0.605 0.562 0.5 0.285 0.377 0.27 0.245 0.397 0.467 0.597 0.597 0.59 0.592 0.575 0.575 0.567 0.535 0.545 0.555 0.555 0.53 0.53 0.527 0.512 0.5 0.505 0.509 0.508 0.508 0.519 0.516 0.5 0.508 0.489 0.481 0.506 0.493 0.471 0.475 0.472 0.447 0.43 0.415 0.412 0.397 0.345 0.34 0.4 0.39 0.465 0.475 0.477 0.485 0.5 0.502 0.532 0.495 0.5 0.487 0.45 0.47 0.537 0.55 0.567 0.602 0.652 0.625 0.622 0.645 0.662 0.617 0.625 0.625 0.637 0.622 0.642 0.587 0.575 0.562 0.605 0.597 0.622 0.667 0.672 0.672 0.677 0.69 0.685 0.73 0.71 0.685 0.642 0.59 0.532 0.435 0.302 0.2 0.127 0.075 0.052 0.04 -0.085 -0.12 -0.02 0.012 0.032 0.08 0.072 0.147 0.362 0.532 0.522 0.462 0.507 0.562 0.597 0.617 0.61 0.625 0.6 0.62 0.635 0.6 0.602 0.59 0.592 0.562 0.54 0.575 0.56 0.537 0.547 0.542 0.537 0.547 0.552 0.575 0.577 0.56 0.512 0.46 0.407 0.405 0.405 0.39 0.427 0.43 0.452 0.487 0.515 0.495 0.455 0.47 0.485 0.495 0.492 0.495 0.5 0.51 0.505 0.522 0.53 0.535 0.522 0.587 0.617 0.607 0.585 0.625 0.632 0.642 0.635 0.615 0.632 0.617 0.65 0.662 0.665 0.685 0.67 0.665 0.68 0.665 0.692 0.705 0.722 0.765 0.782 0.802 0.79 0.818 0.868 0.885 0.893 0.923 0.935 0.97 0.98 0.98 0.98 0.915 0.955 1.048 1.035 1.028 1.033 1.055 1.07 1.128 1.185 1.22 1.315 1.423 1.53 3.388 3.558 2.69 3.348 4.65 6.428 3.853 3.955 4.02 4.038 4.055 4.078 4.173 4.153 4.175 4.253 4.33 4.45 4.57 4.678 4.775 4.67 4.708 4.748 4.86 4.985 4.977 5.052 5.08 5.102 5.17 5.12 5.162 5.23 5.292 5.342 5.42 5.507 5.55 5.595 5.67 5.73 5.755 5.792 5.855 5.902 5.922 5.99 6.012 6.075 6.095 6.165 6.212 6.28 6.325 6.392 6.415 6.495 6.575 6.665 6.735 6.83 6.965 7.102 7.26 7.46 7.685 8 8.517 8.812 8.875 8.92 9.067 9.3 9.495 9.652 9.772 9.87 10.065 10.385 10.62 10.82 11.147 11.34 11.642 11.967 12.27 12.607 12.86 13.047 13.185 13.342 13.47 13.577 13.702 13.862 13.987 14.092 14.267 14.487 14.75 15.022 15.275 15.54 15.792 16.045 16.302 16.5 16.685 16.85 17.035 17.205 17.28 17.427 17.722 17.945 18.085 18.567 19.57 18.99 19.14 19.387 19.595 19.815 20.075 20.312 20.615 21.077 21.187 21.425 21.68 21.82 21.987 22.1 22.24 22.417 22.557 22.715 22.867 23.11 23.367 23.535 23.712 23.85 24.002 24.182 24.407 24.572 24.745 24.905 25.102 25.222 25.377 25.53 25.652 25.755 25.847 25.917 25.94 26.005 26.095 26.177 26.247 26.29 26.32 26.35 26.387 26.447 26.527 26.64 26.952 27.152 27.125 27.15 27.27 27.362 27.442 27.535 27.657 27.787 27.89 28.085 28.172 28.267 28.405 28.42 28.537 28.717 28.905 29.197 29.73 29.957 29.817 29.772 29.97 30.25 30.477 30.67 30.87 31.067 31.197 31.377 31.507 31.645 31.855 32.757 33.61 34.177 33.43 33.895 32.692 32.975 34.555 33.995 33.882 34.08
0.889 0.862 0.857 0.832 0.854 0.812 0.782 0.779 0.784 0.799 0.744 0.697 0.704 0.727 0.677 0.699 0.699 0.717 0.672 0.677 0.694 0.704 0.682 0.669 0.682 0.677 0.669 0.649 0.647 0.689 0.719 0.714 0.697 0.709 0.704 0.672 0.669 0.529 0.269 0.284 0.522 0.652 0.657 0.644 0.634 0.634 0.642 0.639 0.622 0.617 0.625 0.64 0.65 0.63 0.622 0.647 0.622 0.625 0.627 0.622 0.62 0.605 0.505 0.365 0.202 0.33 0.327 0.277 0.322 0.375 0.375 0.497 0.575 0.597 0.57 0.555 0.547 0.52 0.54 0.542 0.547 0.52 0.525 0.542 0.515 0.517 0.511 0.504 0.497 0.494 0.51 0.495 0.511 0.488 0.483 0.452 0.479 0.475 0.466 0.464 0.479 0.462 0.44 0.392 0.375 0.35 0.345 0.35 0.382 0.392 0.462 0.5 0.477 0.475 0.5 0.485 0.502 0.477 0.482 0.46 0.47 0.445 0.505 0.527 0.547 0.56 0.622 0.61 0.605 0.627 0.617 0.585 0.612 0.635 0.64 0.63 0.605 0.55 0.542 0.565 0.622 0.61 0.655 0.7 0.68 0.682 0.67 0.69 0.677 0.717 0.71 0.672 0.642 0.6 0.557 0.46 0.347 0.267 0.167 0.107 0.075 0.057 -0.1 -0.115 -0.063 -0.008 0.05 0.072 0.067 0.092 0.225 0.49 0.477 0.45 0.495 0.5 0.56 0.63 0.63 0.622 0.63 0.64 0.627 0.605 0.607 0.61 0.577 0.57 0.537 0.57 0.535 0.517 0.502 0.53 0.547 0.54 0.542 0.557 0.555 0.557 0.517 0.462 0.447 0.42 0.39 0.397 0.402 0.41 0.465 0.467 0.467 0.455 0.412 0.422 0.445 0.482 0.505 0.49 0.505 0.482 0.51 0.547 0.532 0.527 0.547 0.565 0.605 0.605 0.632 0.627 0.645 0.65 0.64 0.632 0.615 0.61 0.635 0.637 0.685 0.71 0.687 0.69 0.672 0.705 0.755 0.765 0.765 0.815 0.852 0.847 0.805 0.835 0.868 0.87 0.883 0.908 0.95 0.953 0.948 0.96 0.978 0.933 0.963 1.043 1.083 1.045 1.058 1.085 1.133 1.165 1.188 1.24 1.355 1.478 1.695 3.69 3.068 3.703 4.503 5.1 4.543 3.935 3.828 3.925 4.078 3.958 4.025 4.08 4.088 4.208 4.25 4.458 4.518 4.518 4.575 4.64 4.59 4.79 4.715 4.848 5.055 4.967 4.985 5.037 5.067 5.127 5.087 5.092 5.142 5.232 5.292 5.357 5.42 5.477 5.557 5.605 5.65 5.695 5.707 5.765 5.787 5.815 5.872 5.9 5.965 6.005 6.06 6.112 6.15 6.195 6.252 6.282 6.367 6.447 6.522 6.595 6.715 6.857 7 7.165 7.382 7.617 7.895 8.317 8.742 8.797 8.78 8.845 9.075 9.29 9.472 9.672 9.88 9.987 10.2 10.437 10.665 10.947 11.215 11.522 11.907 12.2 12.515 12.775 12.95 13.102 13.227 13.357 13.485 13.63 13.765 13.895 14.027 14.165 14.377 14.62 14.895 15.152 15.412 15.677 15.922 16.162 16.4 16.582 16.732 16.922 17.092 17.245 17.35 17.585 17.79 17.905 18.837 19.152 18.612 18.957 19.217 19.417 19.627 19.865 20.097 20.397 20.817 21.017 21.147 21.375 21.627 21.885 22.092 22.21 22.36 22.477 22.615 22.707 22.815 22.995 23.167 23.312 23.49 23.74 23.917 24.14 24.34 24.5 24.662 24.812 24.97 25.122 25.275 25.427 25.532 25.64 25.702 25.705 25.752 25.867 25.942 26.015 26.055 26.082 26.102 26.165 26.187 26.27 26.365 26.467 26.597 26.94 27.24 27.035 27.1 27.245 27.332 27.472 27.62 27.745 27.877 27.99 28.122 28.24 28.375 28.48 28.555 28.69 28.875 29.142 29.432 29.652 29.78 29.917 29.96 30.162 30.355 30.525 30.74 30.96 31.105 31.24 31.335 31.425 32.185 31.957 32.747 33.81 33.005 32.387 33.44 33.882 33.41 33.645 33.85
0.877 0.902 0.897 0.872 0.879 0.854 0.819 0.832 0.797 0.782 0.737 0.699 0.719 0.757 0.717 0.699 0.699 0.712 0.689 0.684 0.719 0.714 0.707 0.702 0.704 0.694 0.697 0.674 0.679 0.684 0.707 0.719 0.734 0.727 0.727 0.717 0.684 0.484 0.237 0.359 0.592 0.639 0.612 0.612 0.624 0.627 0.619 0.619 0.622 0.647 0.65 0.635 0.627 0.615 0.635 0.63 0.657 0.637 0.635 0.635 0.622 0.612 0.54 0.29 0.272 0.467 0.547 0.472 0.387 0.332 0.325 0.33 0.415 0.522 0.557 0.547 0.532 0.52 0.522 0.532 0.53 0.507 0.505 0.532 0.512 0.517 0.497 0.521 0.506 0.503 0.497 0.49 0.522 0.481 0.474 0.451 0.463 0.461 0.466 0.433 0.437 0.413 0.385 0.362 0.35 0.342 0.365 0.35 0.36 0.41 0.455 0.47 0.46 0.462 0.475 0.475 0.505 0.467 0.482 0.465 0.45 0.422 0.452 0.505 0.53 0.54 0.575 0.565 0.592 0.632 0.62 0.61 0.622 0.642 0.662 0.61 0.595 0.57 0.552 0.59 0.62 0.62 0.64 0.682 0.665 0.657 0.672 0.677 0.715 0.745 0.732 0.687 0.65 0.597 0.55 0.49 0.372 0.29 0.2 0.11 0.097 0.072 -0.065 -0.13 -0.078 -0.05 0.005 0.07 0.077 0.06 0.16 0.41 0.45 0.392 0.432 0.537 0.557 0.635 0.652 0.632 0.602 0.635 0.65 0.63 0.607 0.597 0.617 0.59 0.532 0.562 0.53 0.505 0.525 0.54 0.537 0.525 0.547 0.585 0.6 0.542 0.522 0.497 0.45 0.43 0.397 0.42 0.405 0.432 0.432 0.465 0.457 0.47 0.447 0.44 0.447 0.48 0.505 0.495 0.492 0.5 0.53 0.557 0.562 0.532 0.565 0.585 0.595 0.63 0.632 0.627 0.64 0.702 0.737 0.69 0.622 0.605 0.65 0.705 0.732 0.735 0.715 0.715 0.732 0.792 0.82 0.852 0.787 0.795 0.842 0.84 0.815 0.818 0.853 0.85 0.9 0.935 0.953 0.975 0.965 0.975 0.95 0.943 0.965 1.035 1.098 1.095 1.065 1.103 1.155 1.175 1.195 1.283 1.428 1.538 2.788 3.538 3.588 2.993 4.698 4.81 4.045 3.978 3.81 3.905 4 3.943 3.98 3.988 4.12 4.228 4.235 4.31 4.403 4.468 4.595 4.618 4.595 4.6 4.658 4.838 4.865 4.87 5.007 5.032 5.035 5.075 5.06 5.015 5.065 5.152 5.21 5.28 5.35 5.415 5.495 5.527 5.595 5.597 5.65 5.695 5.705 5.737 5.79 5.822 5.842 5.897 5.937 5.977 6.03 6.085 6.112 6.187 6.255 6.297 6.402 6.462 6.597 6.712 6.885 7.072 7.32 7.537 7.837 8.262 8.54 8.585 8.617 8.697 8.892 9.115 9.292 9.495 9.7 9.907 10.14 10.367 10.595 10.827 11.142 11.447 11.765 12.09 12.402 12.667 12.842 13.02 13.17 13.302 13.425 13.577 13.692 13.825 13.947 14.135 14.335 14.53 14.777 15.057 15.31 15.55 15.815 16.05 16.257 16.452 16.607 16.802 16.93 17.125 17.265 17.482 17.637 17.795 18.925 18.567 18.465 18.782 19.032 19.215 19.395 19.71 19.925 20.235 20.572 20.875 20.982 21.19 21.345 21.575 21.922 22.107 22.27 22.462 22.592 22.665 22.797 22.895 23.015 23.137 23.252 23.397 23.56 23.787 24 24.15 24.327 24.472 24.635 24.815 24.957 25.047 25.192 25.3 25.382 25.457 25.542 25.63 25.702 25.772 25.815 25.855 25.865 25.917 25.975 26.045 26.14 26.227 26.332 26.447 26.737 27.18 27.23 27.167 27.202 27.292 27.455 27.605 27.727 27.827 27.98 28.1 28.212 28.345 28.45 28.557 28.67 28.84 29.047 29.362 30.005 30.027 30.07 29.947 30.037 30.202 30.377 30.565 30.8 30.962 31.092 31.202 31.375 31.907 32.74 34.22 32.535 32.355 33.525 32.962 33.16 33.405 33.622
0.902 0.922 0.917 0.879 0.872 0.874 0.867 0.832 0.824 0.769 0.757 0.742 0.774 0.799 0.752 0.722 0.702 0.722 0.739 0.719 0.734 0.749 0.757 0.729 0.729 0.697 0.709 0.694 0.712 0.724 0.727 0.732 0.774 0.744 0.732 0.722 0.679 0.537 0.269 0.307 0.612 0.684 0.659 0.634 0.664 0.657 0.669 0.647 0.652 0.629 0.635 0.625 0.637 0.645 0.627 0.64 0.655 0.632 0.642 0.652 0.637 0.607 0.525 0.27 0.32 0.55 0.617 0.572 0.517 0.455 0.355 0.35 0.29 0.36 0.472 0.5 0.477 0.485 0.487 0.48 0.487 0.49 0.488 0.448 0.406 0.461 0.484 0.473 0.485 0.518 0.473 0.464 0.48 0.504 0.499 0.46 0.473 0.47 0.462 0.413 0.326 0.328 0.312 0.315 0.322 0.345 0.382 0.37 0.357 0.385 0.425 0.422 0.432 0.442 0.467 0.452 0.462 0.46 0.472 0.47 0.477 0.447 0.477 0.49 0.51 0.535 0.56 0.56 0.582 0.62 0.617 0.595 0.625 0.64 0.655 0.602 0.562 0.572 0.557 0.602 0.632 0.605 0.605 0.665 0.665 0.655 0.68 0.677 0.687 0.712 0.72 0.66 0.64 0.6 0.53 0.457 0.367 0.31 0.245 0.19 0.115 0.072 -0.1 -0.153 -0.068 -0.04 -0.013 0.045 0.085 0.035 0.107 0.385 0.415 0.407 0.457 0.512 0.547 0.617 0.675 0.622 0.607 0.64 0.672 0.637 0.615 0.625 0.612 0.572 0.537 0.557 0.53 0.5 0.507 0.54 0.535 0.552 0.557 0.6 0.597 0.547 0.522 0.51 0.505 0.485 0.43 0.44 0.43 0.41 0.415 0.45 0.485 0.55 0.53 0.472 0.447 0.507 0.5 0.46 0.477 0.525 0.562 0.585 0.552 0.547 0.575 0.59 0.625 0.622 0.63 0.622 0.72 0.77 0.797 0.712 0.67 0.677 0.722 0.747 0.762 0.772 0.8 0.795 0.792 0.795 0.81 0.835 0.792 0.777 0.815 0.827 0.815 0.82 0.853 0.898 0.9 0.935 0.948 0.938 0.983 0.965 0.955 1.013 1.055 1.078 1.115 1.095 1.078 1.12 1.17 1.193 1.255 1.375 1.555 1.755 2.7 2.888 2.525 3.22 4.063 4.385 4.123 3.868 3.795 3.943 3.885 3.94 3.895 4.028 4.118 4.153 4.295 4.27 4.39 4.433 4.465 4.47 4.513 4.535 4.64 4.66 4.847 4.805 4.872 4.94 5.032 5.072 5 4.957 5.02 5.065 5.155 5.217 5.26 5.345 5.4 5.452 5.475 5.5 5.562 5.62 5.645 5.667 5.712 5.747 5.735 5.8 5.85 5.885 5.932 5.96 6.022 6.082 6.13 6.19 6.285 6.37 6.455 6.622 6.775 7.022 7.2 7.48 7.882 8.222 8.352 8.372 8.46 8.597 8.827 9.032 9.207 9.395 9.59 9.837 10.035 10.237 10.507 10.755 11.03 11.345 11.662 11.952 12.27 12.535 12.732 12.897 13.062 13.21 13.362 13.492 13.585 13.73 13.905 14.072 14.265 14.462 14.697 14.935 15.232 15.475 15.675 15.915 16.122 16.322 16.505 16.665 16.79 16.98 17.155 17.297 17.465 17.88 18.635 17.977 18.31 18.645 18.915 19.067 19.185 19.457 19.747 19.942 20.272 20.602 20.772 21.045 21.275 21.292 21.527 21.872 22.075 22.307 22.455 22.572 22.727 22.812 22.9 22.987 23.072 23.17 23.3 23.495 23.7 23.925 24.065 24.232 24.432 24.612 24.715 24.807 24.887 24.99 25.087 25.205 25.312 25.385 25.455 25.515 25.572 25.622 25.655 25.717 25.765 25.845 25.975 26.057 26.142 26.23 26.357 26.525 27.08 27.35 27.232 27.19 27.275 27.407 27.522 27.66 27.825 27.912 28.092 28.195 28.272 28.422 28.502 28.69 28.832 29.042 29.305 29.555 31.465 30.08 30.145 30.067 30.137 30.35 30.487 30.75 30.942 31.052 31.252 32.105 32.657 31.695 31.722 33.76 32.645 32.67 32.892 33.157 33.352
0.942 0.949 0.917 0.909 0.884 0.887 0.897 0.874 0.852 0.824 0.832 0.822 0.847 0.837 0.799 0.779 0.804 0.789 0.784 0.774 0.767 0.752 0.734 0.749 0.719 0.722 0.714 0.729 0.734 0.757 0.732 0.774 0.784 0.764 0.739 0.747 0.717 0.677 0.399 0.312 0.459 0.659 0.709 0.654 0.654 0.652 0.649 0.649 0.642 0.652 0.657 0.65 0.665 0.677 0.665 0.667 0.657 0.662 0.672 0.677 0.645 0.645 0.462 0.257 0.435 0.582 0.612 0.615 0.57 0.535 0.462 0.41 0.34 0.332 0.325 0.382 0.437 0.422 0.405 0.415 0.395 0.414 0.395 0.39 0.406 0.462 0.49 0.475 0.479 0.499 0.47 0.47 0.492 0.511 0.522 0.453 0.449 0.456 0.443 0.342 0.273 0.264 0.278 0.32 0.331 0.37 0.377 0.38 0.385 0.4 0.44 0.44 0.46 0.445 0.447 0.457 0.46 0.457 0.475 0.46 0.46 0.447 0.492 0.492 0.487 0.535 0.555 0.557 0.592 0.607 0.615 0.597 0.635 0.632 0.642 0.597 0.565 0.535 0.552 0.59 0.607 0.597 0.617 0.63 0.622 0.662 0.662 0.657 0.692 0.735 0.705 0.657 0.652 0.6 0.517 0.462 0.387 0.345 0.28 0.242 0.145 0.082 -0.075 -0.158 -0.053 -0.055 -0.005 0.067 0.112 0.07 0.105 0.325 0.442 0.432 0.497 0.532 0.56 0.605 0.642 0.637 0.615 0.657 0.677 0.655 0.587 0.617 0.577 0.535 0.527 0.545 0.527 0.532 0.505 0.547 0.552 0.54 0.57 0.587 0.6 0.552 0.532 0.525 0.517 0.505 0.467 0.477 0.45 0.385 0.387 0.43 0.475 0.567 0.572 0.52 0.5 0.517 0.505 0.462 0.467 0.537 0.555 0.567 0.572 0.572 0.58 0.612 0.622 0.615 0.62 0.642 0.73 0.735 0.727 0.722 0.727 0.745 0.76 0.765 0.762 0.785 0.825 0.81 0.747 0.76 0.805 0.815 0.792 0.767 0.792 0.782 0.81 0.845 0.885 0.878 0.903 0.925 0.94 0.945 0.978 0.993 0.968 1.033 1.055 1.045 1.113 1.15 1.14 1.13 1.188 1.23 1.33 1.458 1.578 1.858 2.973 2.178 2.47 4.478 3.84 3.733 4.2 3.728 3.833 3.853 3.808 3.818 3.918 4.005 4.203 4.12 4.175 4.273 4.33 4.413 4.4 4.433 4.43 4.653 4.56 4.565 4.76 4.735 4.897 4.855 4.897 5.102 4.945 4.987 4.96 5.012 5.075 5.107 5.18 5.25 5.305 5.347 5.385 5.42 5.505 5.495 5.53 5.577 5.605 5.655 5.657 5.702 5.745 5.792 5.802 5.862 5.887 5.93 5.992 6.06 6.15 6.252 6.347 6.532 6.705 6.95 7.152 7.58 7.965 8.135 8.19 8.227 8.305 8.485 8.722 8.902 9.062 9.262 9.477 9.707 9.91 10.062 10.385 10.667 10.937 11.24 11.605 11.855 12.132 12.395 12.587 12.805 12.945 13.117 13.272 13.335 13.457 13.622 13.802 13.98 14.2 14.37 14.61 14.86 15.165 15.395 15.577 15.79 16.002 16.182 16.34 16.53 16.675 16.885 17.062 17.195 17.31 18.147 18.525 17.827 18.115 18.435 18.805 18.957 19.062 19.285 19.522 19.762 19.967 20.257 20.532 20.682 21.03 21.245 21.262 21.49 21.745 22.075 22.29 22.415 22.577 22.695 22.862 22.915 22.992 23.082 23.192 23.367 23.52 23.722 23.915 24.04 24.215 24.342 24.472 24.602 24.737 24.832 24.907 24.982 25.067 25.157 25.187 25.27 25.3 25.352 25.462 25.547 25.582 25.657 25.755 25.872 25.992 26.065 26.14 26.225 26.37 26.695 27.227 27.487 27.172 27.245 27.362 27.532 27.672 27.772 27.88 28.002 28.115 28.202 28.312 28.48 28.652 28.772 28.907 29.147 29.415 29.64 31.41 30.435 30.302 30.227 30.21 30.417 30.72 30.92 31.35 31.65 31.86 31.32 31.93 32.54 32.167 32.41 32.597 32.84 33.112
0.954 0.937 0.942 0.919 0.912 0.947 0.922 0.922 0.882 0.852 0.862 0.844 0.852 0.837 0.822 0.829 0.852 0.862 0.807 0.812 0.812 0.784 0.759 0.744 0.734 0.737 0.724 0.752 0.747 0.772 0.782 0.802 0.797 0.794 0.747 0.739 0.739 0.754 0.677 0.367 0.309 0.422 0.599 0.659 0.659 0.677 0.672 0.667 0.634 0.659 0.637 0.657 0.667 0.68 0.66 0.642 0.652 0.65 0.662 0.675 0.63 0.61 0.312 0.297 0.502 0.607 0.622 0.602 0.595 0.565 0.542 0.512 0.442 0.347 0.33 0.32 0.302 0.362 0.392 0.325 0.292 0.265 0.349 0.404 0.397 0.443 0.485 0.492 0.455 0.458 0.447 0.455 0.51 0.523 0.507 0.449 0.446 0.457 0.417 0.277 0.256 0.247 0.268 0.338 0.349 0.376 0.375 0.376 0.363 0.372 0.425 0.412 0.41 0.435 0.467 0.45 0.45 0.462 0.465 0.46 0.442 0.435 0.48 0.49 0.49 0.5 0.537 0.55 0.59 0.612 0.62 0.61 0.625 0.642 0.667 0.617 0.592 0.555 0.572 0.592 0.625 0.62 0.607 0.632 0.65 0.665 0.672 0.64 0.685 0.71 0.715 0.692 0.667 0.625 0.585 0.48 0.385 0.332 0.307 0.27 0.17 0.122 -0.085 -0.145 -0.063 -0.025 0.05 0.062 0.092 0.087 0.115 0.305 0.427 0.435 0.492 0.525 0.525 0.577 0.64 0.64 0.62 0.675 0.672 0.63 0.595 0.59 0.57 0.547 0.522 0.53 0.537 0.517 0.525 0.545 0.56 0.557 0.547 0.552 0.56 0.545 0.532 0.525 0.532 0.5 0.477 0.517 0.467 0.385 0.36 0.397 0.417 0.522 0.595 0.58 0.537 0.512 0.52 0.502 0.47 0.512 0.562 0.552 0.542 0.59 0.625 0.622 0.58 0.6 0.612 0.647 0.72 0.737 0.75 0.727 0.737 0.74 0.762 0.777 0.74 0.747 0.787 0.777 0.752 0.772 0.805 0.815 0.817 0.8 0.797 0.792 0.798 0.85 0.86 0.873 0.905 0.945 0.96 0.99 1.028 0.998 0.995 1.065 1.04 1.045 1.148 1.165 1.183 1.2 1.253 1.315 1.408 1.538 1.693 2.22 2.083 2.22 3.24 5.338 3.663 3.728 3.775 3.83 3.795 3.725 3.748 3.82 3.933 3.945 4.04 4.113 4.188 4.218 4.253 4.3 4.32 4.375 4.53 4.518 4.503 4.613 4.692 4.762 4.847 4.797 4.872 4.87 4.875 4.855 4.9 4.905 4.957 5.012 5.087 5.145 5.202 5.242 5.29 5.347 5.37 5.392 5.432 5.47 5.487 5.535 5.56 5.59 5.622 5.667 5.71 5.737 5.772 5.825 5.877 5.922 6.015 6.142 6.297 6.442 6.65 6.83 7.115 7.635 7.937 8.1 8.147 8.155 8.17 8.345 8.58 8.73 8.905 9.14 9.335 9.582 9.78 9.955 10.257 10.57 10.827 11.1 11.462 11.735 11.997 12.257 12.467 12.667 12.822 12.977 13.122 13.202 13.325 13.482 13.647 13.845 14.05 14.267 14.497 14.767 15.04 15.312 15.502 15.672 15.842 16.025 16.217 16.357 16.53 16.762 16.972 17.062 17.21 18.527 18.347 17.732 17.982 18.297 18.65 18.797 18.962 19.147 19.372 19.515 19.772 19.985 20.285 20.487 20.632 20.975 21.12 21.222 21.375 21.642 21.977 22.192 22.38 22.53 22.667 22.792 22.895 23.025 23.165 23.285 23.385 23.537 23.707 23.867 24.03 24.155 24.24 24.372 24.482 24.595 24.682 24.742 24.827 24.905 24.942 25.022 25.09 25.155 25.215 25.327 25.395 25.467 25.592 25.665 25.765 25.847 25.957 26.01 26.147 26.285 26.472 26.947 27.377 27.24 27.242 27.34 27.44 27.58 27.707 27.797 27.892 27.975 28.062 28.2 28.38 28.555 28.702 28.81 29.002 29.25 30.027 29.955 31.885 30.965 30.562 30.34 30.455 31.46 33.512 32.745 31.042 31.42 32.502 31.897 31.977 32.167 32.355 32.57 32.792
0.994 0.964 0.974 0.954 0.949 0.957 0.927 0.902 0.897 0.867 0.849 0.844 0.854 0.839 0.827 0.849 0.852 0.867 0.854 0.834 0.819 0.797 0.787 0.769 0.752 0.744 0.734 0.754 0.749 0.779 0.799 0.814 0.814 0.797 0.767 0.749 0.727 0.734 0.724 0.697 0.397 0.282 0.342 0.397 0.497 0.607 0.654 0.657 0.684 0.667 0.64 0.662 0.672 0.64 0.647 0.645 0.655 0.662 0.662 0.632 0.592 0.422 0.33 0.407 0.577 0.642 0.645 0.647 0.64 0.625 0.607 0.562 0.547 0.487 0.432 0.35 0.34 0.39 0.407 0.332 0.305 0.32 0.319 0.355 0.418 0.445 0.478 0.495 0.476 0.47 0.469 0.459 0.512 0.477 0.449 0.435 0.437 0.436 0.371 0.216 0.273 0.256 0.283 0.316 0.34 0.356 0.336 0.355 0.356 0.364 0.403 0.406 0.387 0.415 0.426 0.433 0.43 0.445 0.475 0.472 0.467 0.435 0.477 0.48 0.502 0.505 0.545 0.557 0.595 0.597 0.625 0.64 0.672 0.682 0.67 0.632 0.617 0.57 0.57 0.595 0.63 0.632 0.632 0.655 0.682 0.67 0.65 0.637 0.655 0.692 0.712 0.71 0.677 0.632 0.575 0.492 0.38 0.345 0.295 0.262 0.202 0.117 -0.085 -0.158 -0.058 0.007 0.067 0.082 0.077 0.095 0.105 0.297 0.407 0.445 0.49 0.505 0.542 0.58 0.592 0.62 0.627 0.65 0.67 0.605 0.575 0.575 0.56 0.53 0.527 0.542 0.545 0.535 0.505 0.525 0.562 0.545 0.532 0.55 0.562 0.555 0.527 0.52 0.545 0.502 0.495 0.497 0.455 0.41 0.352 0.365 0.472 0.527 0.597 0.612 0.575 0.512 0.49 0.507 0.505 0.535 0.545 0.542 0.547 0.575 0.622 0.597 0.587 0.607 0.587 0.64 0.74 0.715 0.727 0.752 0.757 0.74 0.747 0.73 0.735 0.737 0.75 0.785 0.762 0.797 0.797 0.81 0.857 0.817 0.777 0.797 0.785 0.81 0.848 0.885 0.92 0.965 0.995 1.01 1.003 1.005 1.01 1.078 1.1 1.15 1.175 1.185 1.225 1.235 1.303 1.358 1.47 1.585 3.023 3.135 2.365 2.555 4.243 5.553 3.688 3.81 3.738 3.75 3.655 3.785 3.825 3.788 3.855 3.973 4.008 4.108 4.213 4.268 4.243 4.288 4.308 4.318 4.345 4.42 4.48 4.553 4.56 4.66 4.7 4.747 4.735 4.785 4.797 4.82 4.897 4.835 4.877 4.942 4.977 5.075 5.105 5.137 5.185 5.237 5.27 5.297 5.33 5.37 5.385 5.415 5.457 5.462 5.515 5.54 5.565 5.622 5.66 5.725 5.757 5.787 5.91 6.037 6.192 6.365 6.517 6.69 6.99 7.465 7.835 8.097 8.117 8.082 8.09 8.24 8.447 8.607 8.83 9.025 9.227 9.45 9.655 9.862 10.15 10.43 10.695 10.967 11.275 11.572 11.875 12.14 12.36 12.557 12.72 12.88 13.007 13.112 13.227 13.362 13.515 13.725 13.93 14.157 14.375 14.65 14.9 15.192 15.432 15.532 15.73 15.93 16.07 16.207 16.39 16.61 16.792 16.927 17.387 18.595 17.597 17.65 17.892 18.14 18.527 18.65 18.862 19.007 19.175 19.345 19.515 19.697 19.947 20.202 20.365 20.655 20.962 21.147 21.215 21.335 21.572 21.817 22.067 22.275 22.455 22.6 22.757 22.872 23.037 23.167 23.282 23.42 23.592 23.787 23.87 23.942 24.03 24.142 24.247 24.352 24.425 24.515 24.585 24.655 24.715 24.79 24.857 24.98 25.08 25.16 25.242 25.305 25.417 25.467 25.56 25.645 25.745 25.827 25.942 26.047 26.17 26.347 26.6 27.172 27.425 27.287 27.265 27.405 27.515 27.565 27.667 27.737 27.795 27.932 28.095 28.312 28.492 28.67 28.807 28.935 29.167 29.542 30.87 30.55 30.202 31.287 30.395 30.85 32.152 31.575 30.795 31.935 31.947 31.577 31.78 31.95 32.107 32.32 32.522
1.014 1.029 0.999 0.984 0.967 0.947 0.912 0.917 0.902 0.884 0.882 0.879 0.892 0.897 0.882 0.872 0.867 0.862 0.834 0.827 0.809 0.807 0.807 0.797 0.772 0.784 0.769 0.737 0.784 0.792 0.797 0.819 0.822 0.797 0.792 0.772 0.752 0.749 0.714 0.734 0.704 0.489 0.332 0.297 0.274 0.274 0.309 0.332 0.399 0.477 0.505 0.545 0.57 0.59 0.592 0.577 0.557 0.537 0.472 0.42 0.32 0.325 0.442 0.575 0.642 0.662 0.645 0.64 0.655 0.627 0.645 0.602 0.58 0.562 0.56 0.532 0.525 0.515 0.475 0.397 0.357 0.314 0.302 0.276 0.347 0.408 0.454 0.464 0.484 0.465 0.495 0.513 0.521 0.476 0.458 0.454 0.434 0.413 0.313 0.194 0.26 0.295 0.284 0.321 0.304 0.326 0.336 0.34 0.359 0.365 0.394 0.389 0.382 0.394 0.395 0.42 0.422 0.441 0.449 0.473 0.476 0.45 0.482 0.487 0.515 0.522 0.545 0.535 0.567 0.59 0.617 0.61 0.675 0.692 0.692 0.675 0.655 0.605 0.572 0.605 0.632 0.627 0.625 0.687 0.697 0.682 0.66 0.655 0.647 0.687 0.71 0.69 0.675 0.615 0.597 0.495 0.42 0.352 0.305 0.26 0.18 0.13 -0.04 -0.143 -0.06 0.01 0.065 0.06 0.087 0.105 0.107 0.285 0.405 0.477 0.497 0.52 0.54 0.542 0.582 0.6 0.59 0.62 0.637 0.572 0.542 0.57 0.575 0.56 0.555 0.547 0.562 0.522 0.525 0.522 0.575 0.55 0.535 0.552 0.542 0.542 0.52 0.515 0.522 0.502 0.475 0.487 0.45 0.465 0.432 0.407 0.52 0.547 0.585 0.615 0.605 0.527 0.48 0.517 0.507 0.54 0.56 0.562 0.585 0.645 0.637 0.607 0.617 0.627 0.622 0.657 0.715 0.722 0.737 0.752 0.737 0.702 0.697 0.737 0.735 0.75 0.757 0.77 0.79 0.8 0.81 0.835 0.802 0.78 0.75 0.742 0.798 0.838 0.883 0.91 0.94 0.948 0.983 1.005 1.003 0.985 0.99 1.063 1.113 1.163 1.193 1.225 1.285 1.303 1.365 1.435 1.563 1.638 2.415 2.04 2.065 3.33 5.758 4.853 3.64 3.64 3.638 3.63 3.658 3.77 3.735 3.83 3.948 3.84 3.93 4.023 4.145 4.12 4.145 4.183 4.253 4.26 4.278 4.355 4.435 4.533 4.527 4.565 4.602 4.795 4.655 4.7 4.707 4.752 4.805 4.855 4.787 4.847 4.892 4.98 5.007 5.012 5.065 5.107 5.115 5.16 5.195 5.24 5.267 5.29 5.332 5.352 5.395 5.425 5.457 5.49 5.542 5.582 5.62 5.725 5.82 5.927 6.055 6.232 6.372 6.585 6.845 7.255 7.63 7.982 8.075 8.015 7.96 8.12 8.295 8.475 8.68 8.892 9.105 9.282 9.5 9.775 10.06 10.327 10.585 10.887 11.2 11.422 11.72 12.03 12.252 12.442 12.605 12.77 12.89 13.03 13.137 13.27 13.41 13.57 13.8 14.035 14.212 14.517 14.762 15.065 15.29 15.46 15.635 15.79 15.955 16.107 16.275 16.462 16.645 16.79 17.707 18.302 17.305 17.527 17.745 17.947 18.357 18.522 18.715 18.872 19.03 19.187 19.31 19.442 19.712 19.97 20.147 20.257 20.572 20.875 21.087 21.077 21.265 21.59 21.752 21.962 22.207 22.367 22.565 22.76 22.88 23.057 23.185 23.32 23.495 23.665 23.742 23.787 23.89 24.005 24.105 24.142 24.187 24.292 24.357 24.415 24.49 24.552 24.62 24.76 24.842 24.942 25.025 25.125 25.217 25.285 25.37 25.43 25.52 25.625 25.76 25.847 25.947 26.097 26.272 26.44 26.802 27.305 27.56 27.33 27.335 27.405 27.455 27.527 27.622 27.687 27.8 28 28.235 28.457 28.67 28.822 28.977 29.232 29.475 29.657 29.797 30.035 30.3 31.137 31.247 30.382 31.002 31.987 31.312 31.382 31.57 31.76 31.907 32.06 32.255
1.027 1.062 1.009 1.007 0.994 0.934 0.949 0.957 0.959 0.922 0.927 0.902 0.897 0.919 0.934 0.929 0.889 0.867 0.859 0.842 0.809 0.814 0.797 0.787 0.792 0.769 0.774 0.764 0.792 0.807 0.804 0.829 0.807 0.792 0.804 0.767 0.747 0.757 0.722 0.699 0.724 0.739 0.677 0.589 0.487 0.397 0.322 0.317 0.282 0.277 0.247 0.215 0.292 0.275 0.31 0.335 0.255 0.292 0.26 0.285 0.345 0.472 0.612 0.64 0.657 0.662 0.652 0.665 0.657 0.662 0.647 0.637 0.612 0.577 0.567 0.57 0.577 0.57 0.542 0.473 0.439 0.363 0.291 0.21 0.27 0.401 0.451 0.514 0.511 0.458 0.442 0.47 0.519 0.453 0.445 0.424 0.395 0.369 0.32 0.2 0.244 0.3 0.277 0.314 0.301 0.315 0.34 0.361 0.353 0.364 0.368 0.381 0.37 0.366 0.392 0.406 0.442 0.447 0.435 0.45 0.459 0.448 0.487 0.515 0.522 0.502 0.555 0.547 0.56 0.577 0.607 0.622 0.667 0.692 0.702 0.707 0.65 0.63 0.59 0.61 0.632 0.64 0.632 0.697 0.702 0.697 0.695 0.66 0.65 0.682 0.705 0.66 0.642 0.61 0.582 0.52 0.41 0.357 0.312 0.26 0.177 0.102 -0.035 -0.145 -0.048 -0.005 0.03 0.062 0.105 0.082 0.115 0.317 0.39 0.47 0.497 0.527 0.502 0.535 0.552 0.55 0.552 0.59 0.585 0.545 0.535 0.542 0.565 0.555 0.537 0.555 0.56 0.517 0.522 0.537 0.545 0.537 0.512 0.537 0.525 0.54 0.505 0.522 0.487 0.452 0.475 0.47 0.455 0.457 0.647 0.455 0.517 0.515 0.512 0.575 0.572 0.552 0.54 0.51 0.525 0.52 0.557 0.572 0.575 0.635 0.61 0.612 0.625 0.655 0.692 0.715 0.715 0.727 0.73 0.747 0.742 0.712 0.712 0.727 0.717 0.707 0.765 0.79 0.797 0.777 0.757 0.807 0.787 0.752 0.75 0.782 0.81 0.825 0.88 0.898 0.925 0.98 0.968 0.993 1 0.973 0.998 1.01 1.06 1.095 1.16 1.24 1.355 1.388 1.455 1.533 1.65 1.785 2.138 2.013 2.593 4.825 5.17 3.635 3.523 3.605 3.635 3.668 3.653 3.688 3.738 3.775 3.818 3.815 3.865 3.91 4.018 4.11 4.088 4.143 4.198 4.22 4.23 4.285 4.345 4.388 4.415 4.432 4.527 4.6 4.662 4.582 4.675 4.802 4.747 4.747 4.737 4.747 4.805 4.855 4.865 4.902 4.95 4.97 5.007 5.015 5.052 5.085 5.112 5.172 5.2 5.225 5.26 5.302 5.345 5.392 5.44 5.457 5.535 5.627 5.712 5.805 5.965 6.107 6.232 6.44 6.707 6.995 7.442 7.687 7.917 7.917 7.87 7.942 8.155 8.367 8.54 8.782 9.005 9.15 9.375 9.682 9.972 10.22 10.527 10.867 11.175 11.362 11.62 11.922 12.152 12.352 12.515 12.652 12.78 12.92 13.04 13.165 13.307 13.437 13.665 13.902 14.152 14.405 14.65 14.94 15.16 15.355 15.53 15.662 15.82 15.977 16.15 16.325 16.485 16.682 18.032 17.742 17.192 17.437 17.622 17.797 18.155 18.34 18.497 18.727 18.922 19.077 19.222 19.317 19.435 19.692 19.922 20.09 20.21 20.535 20.912 21 21.002 21.272 21.47 21.66 21.892 22.06 22.235 22.462 22.605 22.782 22.985 23.172 23.317 23.525 23.605 23.667 23.76 23.82 23.905 23.9 23.972 24.062 24.122 24.2 24.23 24.297 24.395 24.49 24.595 24.702 24.81 24.917 25.027 25.092 25.195 25.247 25.327 25.412 25.54 25.65 25.77 25.877 26.03 26.217 26.392 26.582 27.027 27.435 27.462 27.257 27.275 27.32 27.397 27.467 27.555 27.69 27.897 28.137 28.43 28.642 28.812 29.097 29.21 29.37 29.605 29.875 30.262 30.467 30.555 30.357 31.515 31.012 30.982 31.155 31.315 31.507 31.655 31.835 32.022
1.047 1.084 1.044 1.054 1.024 0.977 0.979 0.997 1.009 0.962 0.934 0.929 0.927 0.947 0.982 0.942 0.912 0.894 0.872 0.872 0.864 0.839 0.827 0.799 0.772 0.799 0.799 0.804 0.832 0.822 0.824 0.832 0.827 0.797 0.807 0.797 0.799 0.764 0.774 0.754 0.744 0.727 0.734 0.714 0.727 0.714 0.724 0.689 0.647 0.622 0.607 0.59 0.565 0.547 0.552 0.595 0.537 0.482 0.482 0.532 0.592 0.622 0.657 0.67 0.672 0.66 0.642 0.67 0.697 0.675 0.692 0.65 0.62 0.59 0.59 0.572 0.565 0.567 0.534 0.501 0.482 0.425 0.312 0.275 0.256 0.372 0.422 0.443 0.463 0.417 0.403 0.463 0.457 0.422 0.377 0.337 0.349 0.437 0.296 0.266 0.213 0.257 0.264 0.271 0.303 0.316 0.332 0.36 0.357 0.338 0.344 0.358 0.359 0.348 0.382 0.411 0.429 0.416 0.424 0.444 0.438 0.435 0.471 0.49 0.511 0.507 0.535 0.527 0.54 0.552 0.592 0.57 0.63 0.652 0.657 0.687 0.637 0.622 0.602 0.61 0.627 0.64 0.64 0.702 0.71 0.695 0.672 0.677 0.67 0.687 0.67 0.657 0.645 0.585 0.532 0.502 0.405 0.342 0.307 0.272 0.202 0.137 -0.043 -0.115 -0.048 -0.008 0.012 0.037 0.085 0.065 0.14 0.315 0.402 0.457 0.477 0.487 0.495 0.545 0.54 0.527 0.515 0.56 0.552 0.542 0.522 0.545 0.555 0.532 0.527 0.527 0.557 0.545 0.522 0.535 0.555 0.537 0.53 0.542 0.537 0.537 0.52 0.52 0.5 0.457 0.427 0.492 0.475 0.415 0.552 0.47 0.457 0.43 0.407 0.455 0.54 0.545 0.542 0.542 0.547 0.54 0.54 0.562 0.56 0.592 0.61 0.637 0.632 0.692 0.735 0.73 0.735 0.727 0.727 0.71 0.717 0.712 0.717 0.697 0.74 0.735 0.757 0.775 0.762 0.735 0.762 0.78 0.752 0.745 0.755 0.75 0.82 0.84 0.873 0.918 0.9 0.953 0.983 0.995 0.988 0.978 1.003 1.048 1.103 1.105 1.135 1.238 1.395 1.463 1.545 1.628 1.698 2.603 2.58 2.305 3.88 4.858 4.328 3.69 3.618 3.593 3.753 3.605 3.608 3.64 3.655 3.728 3.753 3.73 3.805 3.873 3.94 4.04 4.01 4.04 4.07 4.118 4.195 4.305 4.288 4.325 4.322 4.352 4.392 4.447 4.45 4.512 4.535 4.587 4.66 4.692 4.882 4.645 4.67 4.715 4.742 4.785 4.812 4.857 4.872 4.905 4.907 4.942 4.987 5.03 5.047 5.075 5.122 5.172 5.227 5.252 5.312 5.345 5.45 5.515 5.587 5.682 5.832 5.93 6.09 6.305 6.55 6.875 7.265 7.43 7.65 7.747 7.74 7.777 7.972 8.197 8.447 8.642 8.892 9.07 9.277 9.542 9.837 10.09 10.522 10.91 11.19 11.375 11.595 11.842 12.087 12.26 12.435 12.535 12.672 12.795 12.95 13.092 13.225 13.352 13.55 13.777 14.012 14.247 14.5 14.772 15.012 15.207 15.412 15.56 15.682 15.872 16.005 16.167 16.335 16.867 17.837 17.127 17.095 17.327 17.465 17.677 17.895 18.185 18.335 18.512 18.715 18.885 19.057 19.175 19.3 19.437 19.595 19.837 19.947 20.225 20.545 20.79 20.877 21.087 21.202 21.422 21.585 21.79 22.017 22.205 22.27 22.462 22.71 22.917 23.025 23.145 23.28 23.377 23.435 23.515 23.6 23.682 23.73 23.78 23.885 23.917 23.985 24.07 24.185 24.295 24.382 24.467 24.575 24.715 24.8 24.9 24.98 25.057 25.142 25.235 25.345 25.44 25.562 25.717 25.867 26.025 26.21 26.36 26.507 26.725 27.215 27.53 27.22 27.175 27.222 27.29 27.367 27.475 27.65 27.84 28.105 28.367 28.57 28.812 28.97 29.092 29.415 30.11 30.37 31.105 30.055 30.892 31.05 30.587 30.762 30.945 31.085 31.252 31.41 31.625 31.81
1.107 1.102 1.062 1.067 1.054 1.027 1.037 1.007 0.992 0.972 0.939 0.937 0.932 0.942 0.962 0.939 0.894 0.897 0.884 0.894 0.869 0.864 0.864 0.847 0.827 0.804 0.802 0.797 0.834 0.829 0.832 0.852 0.834 0.832 0.829 0.822 0.832 0.812 0.784 0.757 0.739 0.762 0.764 0.734 0.754 0.749 0.744 0.732 0.704 0.734 0.72 0.722 0.715 0.725 0.732 0.73 0.697 0.66 0.597 0.622 0.67 0.672 0.667 0.682 0.677 0.675 0.655 0.672 0.687 0.665 0.665 0.66 0.622 0.612 0.617 0.59 0.57 0.595 0.593 0.528 0.518 0.453 0.393 0.257 0.211 0.25 0.344 0.43 0.471 0.547 0.52 0.551 0.523 0.447 0.41 0.306 0.255 0.267 0.229 0.253 0.223 0.239 0.217 0.289 0.326 0.346 0.357 0.348 0.349 0.337 0.322 0.343 0.35 0.348 0.373 0.405 0.412 0.401 0.406 0.414 0.455 0.392 0.434 0.472 0.48 0.479 0.505 0.525 0.515 0.562 0.575 0.565 0.59 0.612 0.652 0.67 0.67 0.672 0.642 0.647 0.625 0.635 0.612 0.65 0.697 0.715 0.677 0.66 0.672 0.68 0.677 0.67 0.642 0.572 0.535 0.52 0.405 0.337 0.29 0.262 0.167 0.122 -0.065 -0.113 -0.045 -0.01 0.007 0.052 0.11 0.06 0.175 0.34 0.392 0.427 0.462 0.475 0.472 0.507 0.522 0.51 0.52 0.53 0.565 0.565 0.53 0.537 0.537 0.55 0.527 0.527 0.582 0.532 0.535 0.537 0.565 0.535 0.52 0.55 0.53 0.517 0.515 0.497 0.49 0.452 0.452 0.522 0.62 0.502 0.445 0.432 0.43 0.405 0.402 0.42 0.522 0.552 0.562 0.585 0.577 0.562 0.56 0.6 0.61 0.59 0.612 0.617 0.655 0.695 0.74 0.722 0.71 0.717 0.725 0.717 0.692 0.665 0.675 0.657 0.702 0.717 0.73 0.732 0.712 0.715 0.702 0.742 0.73 0.75 0.727 0.74 0.808 0.82 0.86 0.9 0.915 0.92 0.945 0.958 0.97 0.963 1.013 1.083 1.138 1.193 1.22 1.303 1.44 1.533 1.603 1.703 2.158 2.055 3.778 3.825 4.403 4.613 3.945 3.533 3.485 3.553 3.54 3.643 3.598 3.615 3.605 3.633 3.668 3.69 3.77 3.825 3.833 3.885 3.963 3.943 3.99 4.065 4.09 4.19 4.255 4.245 4.24 4.242 4.31 4.492 4.397 4.477 4.48 4.51 4.535 4.58 4.74 4.577 4.54 4.592 4.62 4.672 4.68 4.727 4.77 4.785 4.782 4.815 4.867 4.902 4.917 4.957 4.99 5.045 5.08 5.117 5.155 5.222 5.32 5.392 5.46 5.61 5.7 5.795 5.957 6.17 6.402 6.78 7.17 7.3 7.467 7.617 7.687 7.73 7.865 8.005 8.227 8.487 8.78 8.982 9.15 9.42 9.71 10.035 10.457 10.83 11.087 11.31 11.522 11.795 12.012 12.205 12.347 12.427 12.577 12.715 12.837 12.972 13.122 13.3 13.487 13.695 13.92 14.147 14.395 14.615 14.832 15.087 15.267 15.415 15.547 15.715 15.852 15.965 16.162 17.097 17.525 16.71 16.995 17.207 17.32 17.507 17.73 17.96 18.18 18.355 18.532 18.68 18.84 18.977 19.137 19.275 19.415 19.555 19.762 19.945 20.24 20.467 20.652 20.907 21.122 21.227 21.502 21.707 21.947 22.117 22.18 22.285 22.362 22.455 22.64 22.802 22.93 23.055 23.167 23.252 23.34 23.427 23.495 23.532 23.622 23.677 23.73 23.825 23.967 24.082 24.162 24.257 24.362 24.485 24.58 24.647 24.755 24.83 24.915 25.047 25.137 25.242 25.38 25.482 25.652 25.85 26.01 26.182 26.347 26.502 26.625 26.897 27.362 27.22 27.092 27.157 27.21 27.327 27.467 27.622 27.867 28.1 28.297 28.492 28.677 28.87 29.127 30.362 30.79 29.307 29.81 31.075 30.22 30.397 30.53 30.72 30.867 31.035 31.21 31.37 31.555
1.102 1.077 1.067 1.064 1.059 1.032 1.027 1.027 0.997 0.954 0.959 0.967 0.982 0.999 0.992 0.939 0.929 0.922 0.909 0.894 0.862 0.869 0.869 0.892 0.864 0.842 0.829 0.807 0.812 0.837 0.849 0.857 0.869 0.862 0.847 0.847 0.829 0.854 0.814 0.797 0.799 0.799 0.804 0.799 0.799 0.794 0.762 0.747 0.742 0.747 0.757 0.755 0.727 0.725 0.75 0.732 0.68 0.627 0.632 0.672 0.685 0.695 0.695 0.66 0.672 0.667 0.665 0.675 0.665 0.67 0.655 0.672 0.627 0.62 0.595 0.587 0.577 0.592 0.604 0.549 0.541 0.48 0.425 0.297 0.21 0.194 0.292 0.437 0.463 0.564 0.537 0.519 0.472 0.487 0.395 0.243 0.152 0.127 0.176 0.178 0.154 0.26 0.233 0.28 0.314 0.377 0.363 0.342 0.322 0.318 0.301 0.311 0.336 0.344 0.373 0.392 0.399 0.394 0.391 0.379 0.386 0.375 0.457 0.45 0.468 0.489 0.509 0.53 0.5 0.53 0.557 0.545 0.557 0.585 0.632 0.645 0.685 0.687 0.69 0.662 0.637 0.652 0.64 0.642 0.675 0.692 0.665 0.635 0.632 0.665 0.685 0.67 0.632 0.575 0.532 0.472 0.4 0.352 0.287 0.255 0.17 0.095 -0.075 -0.118 -0.043 0.027 0.077 0.11 0.15 0.12 0.24 0.367 0.427 0.427 0.46 0.505 0.46 0.49 0.49 0.505 0.492 0.517 0.542 0.557 0.52 0.517 0.54 0.55 0.527 0.527 0.557 0.542 0.517 0.527 0.557 0.552 0.527 0.55 0.53 0.525 0.502 0.495 0.467 0.447 0.445 0.542 0.577 0.535 0.465 0.462 0.635 0.427 0.417 0.475 0.565 0.572 0.615 0.662 0.675 0.63 0.632 0.665 0.637 0.547 0.58 0.637 0.762 0.797 0.717 0.702 0.7 0.69 0.695 0.682 0.64 0.63 0.65 0.67 0.692 0.657 0.692 0.702 0.722 0.707 0.692 0.7 0.712 0.717 0.697 0.762 0.77 0.8 0.865 0.885 0.895 0.913 0.93 0.96 0.983 0.985 1.008 1.1 1.153 1.238 1.355 1.42 1.485 1.575 1.67 2.028 2.7 3.27 4.413 4.353 3.693 3.72 3.408 3.42 3.503 3.663 3.558 3.608 3.505 3.528 3.635 3.568 3.64 3.653 3.715 3.795 3.813 3.858 3.858 3.905 3.953 3.943 3.99 4.03 4.115 4.09 4.245 4.197 4.26 4.245 4.212 4.35 4.282 4.337 4.397 4.46 4.46 4.487 4.435 4.45 4.487 4.547 4.56 4.61 4.647 4.655 4.685 4.727 4.767 4.775 4.795 4.84 4.887 4.945 4.967 5.015 5.032 5.11 5.195 5.252 5.357 5.49 5.55 5.655 5.802 6.015 6.27 6.655 7.077 7.13 7.252 7.445 7.525 7.64 7.82 7.942 8.057 8.34 8.667 8.892 9.075 9.36 9.65 9.972 10.377 10.735 10.99 11.192 11.437 11.69 11.927 12.132 12.26 12.332 12.46 12.607 12.717 12.835 12.962 13.162 13.352 13.565 13.8 14.06 14.322 14.49 14.677 14.91 15.087 15.272 15.427 15.592 15.7 15.81 16.015 17.207 16.987 16.642 16.912 17.087 17.202 17.347 17.58 17.755 17.987 18.172 18.405 18.575 18.687 18.792 18.985 19.115 19.312 19.405 19.557 19.772 19.967 20.167 20.427 20.65 20.83 20.94 21.065 21.3 21.515 21.68 21.817 21.937 22.012 22.155 22.297 22.47 22.607 22.762 22.92 22.987 23.06 23.137 23.235 23.297 23.357 23.425 23.515 23.61 23.712 23.787 23.892 24.037 24.15 24.272 24.345 24.417 24.522 24.64 24.732 24.855 24.957 25.07 25.157 25.29 25.462 25.627 25.827 26.032 26.212 26.335 26.48 26.607 26.73 26.94 27.267 27.41 27.225 27.185 27.305 27.475 27.665 27.89 28.077 28.242 28.365 28.62 29.245 30.565 31.42 29.117 30.51 30.252 30.022 30.205 30.35 30.502 30.672 30.837 30.992 31.155 31.322
0.999 0.994 1.014 1.024 1.014 1.002 1.034 1.044 1.034 1.042 1.019 1.024 1.049 1.034 0.999 0.959 0.929 0.919 0.927 0.902 0.889 0.879 0.857 0.859 0.889 0.884 0.872 0.867 0.869 0.867 0.859 0.877 0.832 0.874 0.847 0.864 0.887 0.902 0.844 0.829 0.837 0.837 0.842 0.812 0.809 0.787 0.774 0.759 0.789 0.767 0.77 0.767 0.747 0.732 0.73 0.715 0.677 0.652 0.647 0.657 0.685 0.682 0.67 0.692 0.682 0.657 0.685 0.687 0.682 0.677 0.647 0.655 0.632 0.607 0.555 0.555 0.545 0.527 0.561 0.533 0.523 0.464 0.395 0.321 0.288 0.231 0.254 0.409 0.443 0.582 0.523 0.374 0.281 0.389 0.398 0.259 0.186 0.169 0.201 0.195 0.265 0.318 0.256 0.285 0.297 0.333 0.345 0.325 0.308 0.315 0.293 0.28 0.321 0.354 0.351 0.372 0.388 0.398 0.4 0.367 0.379 0.376 0.384 0.432 0.441 0.424 0.475 0.476 0.49 0.497 0.547 0.55 0.557 0.582 0.612 0.637 0.642 0.682 0.69 0.67 0.645 0.642 0.617 0.62 0.632 0.63 0.627 0.612 0.615 0.617 0.647 0.65 0.607 0.567 0.522 0.48 0.422 0.367 0.295 0.245 0.162 0.087 -0.065 -0.118 -0.043 0.027 0.102 0.147 0.172 0.202 0.305 0.412 0.432 0.415 0.46 0.52 0.457 0.482 0.502 0.512 0.502 0.52 0.552 0.572 0.55 0.54 0.562 0.552 0.53 0.55 0.565 0.552 0.53 0.532 0.562 0.557 0.507 0.52 0.52 0.52 0.5 0.482 0.445 0.472 0.467 0.5 0.512 0.517 0.48 0.535 0.617 0.457 0.43 0.505 0.577 0.672 0.817 0.725 0.722 0.647 0.667 0.665 0.602 0.597 0.64 0.702 0.757 0.867 0.687 0.687 0.685 0.665 0.642 0.635 0.615 0.63 0.64 0.617 0.632 0.63 0.652 0.702 0.69 0.652 0.642 0.635 0.662 0.675 0.692 0.755 0.808 0.84 0.86 0.9 0.923 0.968 1.013 1.033 1.083 1.08 1.125 1.208 1.3 1.365 1.433 1.735 2.143 1.783 1.883 3.123 2.678 4.218 4.26 3.825 3.585 3.288 3.375 3.51 3.885 3.6 3.988 3.93 3.483 3.595 3.603 3.61 3.618 3.613 3.663 3.67 3.718 3.785 3.848 3.823 3.828 3.84 3.858 3.953 3.953 3.923 4.05 4.072 4.052 4.097 4.072 4.137 4.217 4.24 4.302 4.38 4.33 4.48 4.342 4.31 4.357 4.402 4.44 4.452 4.482 4.542 4.557 4.59 4.625 4.647 4.705 4.737 4.78 4.84 4.867 4.89 4.952 5.007 5.08 5.145 5.26 5.327 5.395 5.49 5.675 5.89 6.107 6.48 6.855 6.927 7.047 7.21 7.275 7.512 7.807 7.942 8.02 8.25 8.565 8.747 8.927 9.26 9.657 9.847 10.24 10.597 10.817 11.012 11.265 11.527 11.79 11.997 12.107 12.205 12.347 12.502 12.597 12.725 12.877 13.04 13.252 13.435 13.655 13.91 14.18 14.38 14.527 14.74 14.942 15.125 15.297 15.465 15.567 15.677 16.007 16.98 16.485 16.58 16.777 16.91 17.047 17.22 17.37 17.647 17.877 18.05 18.305 18.477 18.635 18.765 18.877 18.987 19.162 19.277 19.427 19.677 19.837 19.937 20.152 20.38 20.57 20.68 20.727 20.942 21.15 21.337 21.505 21.65 21.767 21.922 22.047 22.17 22.32 22.492 22.652 22.755 22.847 22.93 22.982 23.047 23.137 23.205 23.295 23.405 23.48 23.535 23.662 23.8 23.925 24 24.147 24.22 24.322 24.427 24.552 24.662 24.737 24.857 24.952 25.085 25.282 25.46 25.635 25.832 26.042 26.195 26.315 26.442 26.57 26.682 26.842 27.237 27.69 27.34 27.19 27.325 27.502 27.665 27.872 28.01 28.135 28.37 30.082 30.185 29.765 29.252 30.63 29.717 29.845 29.97 30.142 30.29 30.445 30.622 30.782 30.922 31.1
0.959 0.997 1.054 1.064 1.064 1.049 1.054 1.044 1.044 1.064 1.044 1.037 1.067 1.064 0.989 0.977 0.967 0.949 0.942 0.902 0.884 0.889 0.862 0.869 0.872 0.902 0.912 0.914 0.919 0.904 0.882 0.862 0.872 0.854 0.867 0.872 0.892 0.899 0.874 0.872 0.874 0.869 0.862 0.829 0.809 0.799 0.769 0.774 0.739 0.762 0.767 0.747 0.74 0.742 0.755 0.71 0.67 0.64 0.647 0.68 0.695 0.66 0.685 0.677 0.675 0.682 0.705 0.705 0.682 0.665 0.667 0.652 0.637 0.61 0.567 0.542 0.565 0.55 0.556 0.538 0.518 0.415 0.355 0.329 0.315 0.291 0.346 0.385 0.404 0.478 0.436 0.267 0.262 0.33 0.376 0.338 0.318 0.215 0.257 0.344 0.369 0.364 0.26 0.265 0.311 0.347 0.35 0.345 0.317 0.308 0.301 0.315 0.332 0.335 0.323 0.332 0.347 0.372 0.367 0.333 0.314 0.324 0.347 0.393 0.404 0.385 0.407 0.403 0.41 0.432 0.492 0.512 0.527 0.575 0.622 0.645 0.652 0.677 0.697 0.697 0.705 0.68 0.63 0.597 0.602 0.587 0.607 0.587 0.627 0.615 0.635 0.67 0.63 0.61 0.575 0.537 0.482 0.447 0.31 0.215 0.145 0.095 -0.055 -0.118 -0.028 0.065 0.162 0.175 0.202 0.282 0.365 0.42 0.417 0.47 0.467 0.507 0.49 0.495 0.515 0.537 0.497 0.53 0.57 0.562 0.54 0.532 0.557 0.565 0.535 0.555 0.55 0.572 0.547 0.552 0.55 0.542 0.537 0.53 0.527 0.532 0.5 0.477 0.48 0.485 0.5 0.515 0.51 0.547 0.547 0.57 0.53 0.43 0.45 0.52 0.575 0.605 0.712 0.682 0.7 0.687 0.67 0.642 0.635 0.667 0.652 0.71 0.817 0.752 0.622 0.675 0.667 0.622 0.607 0.592 0.6 0.615 0.595 0.577 0.605 0.605 0.61 0.64 0.63 0.615 0.615 0.627 0.655 0.7 0.772 0.877 0.943 0.99 1.053 1.063 1.108 1.15 1.155 1.188 1.513 1.675 1.825 1.968 2.25 3.943 2.448 3.673 4.473 2.383 3.565 4.043 3.718 4.505 3.763 3.23 3.015 3.158 3.268 3.88 4.055 4.235 4.723 5.018 4.148 4.138 4.145 3.62 3.63 3.6 3.593 3.665 3.618 3.708 3.693 3.888 3.715 3.838 3.838 3.81 3.843 3.843 3.937 3.902 3.93 3.945 4.092 4.042 4.185 4.092 4.242 4.23 4.222 4.28 4.377 4.155 4.197 4.242 4.285 4.307 4.367 4.41 4.42 4.445 4.487 4.542 4.612 4.63 4.645 4.702 4.78 4.78 4.842 4.932 4.982 5.08 5.157 5.195 5.282 5.402 5.56 5.742 5.975 6.362 6.58 6.695 6.852 6.997 7.11 7.412 7.772 7.952 8.007 8.212 8.507 8.705 8.907 9.292 9.577 9.782 10.087 10.41 10.625 10.832 11.06 11.335 11.592 11.792 11.957 12.127 12.3 12.435 12.527 12.625 12.777 12.947 13.152 13.337 13.555 13.807 14.042 14.237 14.41 14.595 14.79 14.992 15.2 15.337 15.452 15.562 16.102 16.837 16.162 16.5 16.622 16.742 16.852 16.97 17.147 17.367 17.6 17.807 18.007 18.267 18.432 18.567 18.755 18.867 19.04 19.147 19.252 19.45 19.695 19.805 19.94 20.052 20.18 20.325 20.437 20.677 20.875 21.08 21.23 21.365 21.537 21.717 21.835 21.905 22.055 22.232 22.342 22.475 22.597 22.665 22.74 22.797 22.897 22.957 23.062 23.157 23.232 23.32 23.452 23.572 23.7 23.835 23.912 24.035 24.115 24.257 24.36 24.467 24.582 24.68 24.762 24.915 25.07 25.257 25.435 25.632 25.842 25.995 26.165 26.335 26.407 26.54 26.66 26.787 26.89 27.282 27.607 27.555 27.327 27.49 27.695 27.802 27.96 28.625 31.342 30.712 28.565 29.775 29.647 29.48 29.615 29.772 29.917 30.055 30.247 30.402 30.54 30.707 30.887
1.032 1.069 1.084 1.079 1.104 1.109 1.082 1.109 1.077 1.062 1.067 1.059 1.062 1.054 1.014 0.997 0.987 0.969 0.947 0.919 0.914 0.904 0.887 0.902 0.929 0.914 0.899 0.912 0.899 0.929 0.909 0.894 0.877 0.879 0.872 0.907 0.897 0.899 0.894 0.907 0.902 0.899 0.872 0.842 0.839 0.817 0.782 0.787 0.764 0.754 0.762 0.752 0.737 0.765 0.735 0.712 0.7 0.697 0.702 0.712 0.692 0.682 0.682 0.692 0.685 0.695 0.702 0.692 0.685 0.687 0.667 0.655 0.632 0.572 0.607 0.605 0.562 0.515 0.523 0.54 0.489 0.397 0.329 0.304 0.27 0.271 0.356 0.494 0.454 0.449 0.435 0.325 0.293 0.179 0.411 0.402 0.316 0.245 0.332 0.424 0.406 0.387 0.283 0.299 0.306 0.336 0.317 0.313 0.311 0.302 0.283 0.314 0.337 0.353 0.302 0.27 0.301 0.308 0.319 0.301 0.306 0.279 0.318 0.362 0.362 0.39 0.394 0.411 0.411 0.418 0.414 0.41 0.452 0.55 0.592 0.665 0.675 0.72 0.772 0.787 0.795 0.772 0.742 0.685 0.652 0.622 0.62 0.602 0.622 0.655 0.702 0.775 0.745 0.697 0.647 0.582 0.492 0.427 0.357 0.217 0.157 0.107 -0.053 -0.098 -0.08 0.067 0.18 0.21 0.26 0.33 0.42 0.452 0.447 0.46 0.5 0.487 0.47 0.495 0.505 0.52 0.497 0.537 0.557 0.555 0.542 0.535 0.535 0.552 0.56 0.557 0.585 0.595 0.555 0.565 0.547 0.542 0.525 0.512 0.545 0.512 0.492 0.49 0.485 0.527 0.647 0.582 0.547 0.572 0.617 0.55 0.445 0.425 0.405 0.477 0.587 0.665 0.675 0.7 0.68 0.652 0.622 0.612 0.627 0.64 0.632 0.627 0.662 0.555 0.55 0.6 0.61 0.602 0.57 0.58 0.58 0.582 0.547 0.57 0.562 0.597 0.597 0.65 0.65 0.715 0.757 0.81 0.862 0.955 1.15 1.23 1.435 2.455 2.215 2.033 1.48 1.843 3.05 4.215 3.978 3.718 3.318 3.07 4.123 3.828 2.563 2.585 4.17 3.373 3.573 4.17 4.21 3.683 2.903 2.92 3.108 3.193 3.515 3.978 4.558 5.105 5.125 4.493 4.298 4.383 3.993 3.6 3.675 3.625 3.663 3.658 3.66 3.588 3.608 3.838 3.703 3.753 3.743 3.768 3.703 3.725 3.787 3.745 3.88 3.785 3.847 4.307 3.91 3.925 3.972 4.04 4.135 4.145 4.21 4.062 4.012 4.055 4.15 4.177 4.215 4.242 4.285 4.325 4.347 4.387 4.452 4.512 4.56 4.592 4.66 4.697 4.77 4.85 4.9 5.007 5.042 5.08 5.157 5.262 5.415 5.597 5.872 6.302 6.42 6.565 6.695 6.815 6.922 7.235 7.6 7.912 8.025 8.2 8.472 8.652 8.957 9.28 9.482 9.672 9.92 10.145 10.387 10.66 10.872 11.077 11.357 11.575 11.787 12.015 12.217 12.35 12.44 12.512 12.687 12.86 13.055 13.265 13.477 13.69 13.905 14.092 14.275 14.452 14.655 14.867 15.03 15.21 15.342 15.492 16.635 16.38 16.037 16.37 16.495 16.582 16.682 16.84 16.99 17.17 17.325 17.512 17.665 17.822 18.017 18.135 18.277 18.467 18.625 18.855 18.952 19.017 19.212 19.417 19.67 19.825 19.897 19.977 20.095 20.27 20.495 20.742 20.967 21.122 21.257 21.375 21.525 21.68 21.812 21.957 22.062 22.172 22.3 22.372 22.495 22.59 22.67 22.735 22.812 22.91 22.99 23.11 23.292 23.4 23.522 23.622 23.747 23.835 23.935 24.062 24.162 24.265 24.375 24.487 24.597 24.722 24.887 25.082 25.235 25.45 25.62 25.8 26.005 26.152 26.305 26.417 26.535 26.66 26.747 26.822 27.187 27.932 27.632 27.382 27.475 27.61 27.847 29.332 31.247 29.4 28.58 29.925 29.227 29.3 29.407 29.565 29.697 29.815 30 30.16 30.315 30.447 30.655
1.112 1.124 1.102 1.087 1.109 1.084 1.119 1.104 1.077 1.054 1.072 1.054 1.039 1.034 1.029 1.014 0.989 0.972 0.942 0.927 0.922 0.919 0.929 0.937 0.954 0.942 0.944 0.904 0.894 0.914 0.919 0.919 0.914 0.909 0.912 0.912 0.912 0.872 0.884 0.924 0.929 0.919 0.922 0.902 0.879 0.864 0.827 0.824 0.804 0.784 0.767 0.759 0.752 0.752 0.734 0.712 0.657 0.684 0.712 0.712 0.717 0.712 0.717 0.707 0.707 0.692 0.684 0.687 0.669 0.674 0.662 0.657 0.652 0.589 0.592 0.627 0.614 0.537 0.508 0.528 0.46 0.391 0.334 0.263 0.246 0.237 0.364 0.425 0.434 0.427 0.432 0.405 0.34 0.124 0.361 0.25 0.247 0.329 0.373 0.397 0.36 0.379 0.269 0.273 0.265 0.28 0.259 0.27 0.284 0.273 0.294 0.333 0.345 0.355 0.328 0.298 0.296 0.303 0.347 0.351 0.384 0.311 0.35 0.39 0.42 0.439 0.461 0.467 0.504 0.474 0.43 0.346 0.391 0.54 0.59 0.672 0.707 0.752 0.775 0.77 0.815 0.812 0.795 0.742 0.665 0.602 0.615 0.67 0.665 0.632 0.67 0.697 0.725 0.68 0.645 0.552 0.49 0.412 0.33 0.207 0.16 0.097 -0.078 -0.123 -0.073 0.087 0.205 0.26 0.255 0.372 0.435 0.462 0.47 0.47 0.497 0.52 0.485 0.507 0.535 0.537 0.495 0.517 0.545 0.547 0.537 0.525 0.545 0.552 0.565 0.557 0.58 0.587 0.542 0.587 0.58 0.555 0.53 0.535 0.53 0.517 0.485 0.5 0.49 0.515 0.6 0.63 0.597 0.6 0.545 0.497 0.437 0.42 0.412 0.457 0.557 0.637 0.642 0.665 0.597 0.57 0.562 0.535 0.572 0.57 0.572 0.59 0.59 0.502 0.512 0.562 0.557 0.57 0.547 0.547 0.545 0.53 0.545 0.572 0.632 0.705 0.827 0.89 0.94 0.987 1.222 1.29 1.542 1.557 1.86 2.21 2.192 2.657 2.985 2.522 2.13 2.452 3.015 3.827 3.37 2.907 2.595 2.472 2.66 2.487 2.56 2.617 2.83 2.622 2.777 3.02 2.702 2.722 2.907 2.99 3.105 3.18 3.82 4.642 5.545 5.765 5.472 5.442 5.07 4.807 4.567 4.147 3.715 3.892 3.65 3.59 3.662 3.522 3.56 3.557 3.557 3.595 3.617 3.665 3.677 3.58 3.608 3.62 3.635 3.723 3.903 4.075 3.82 3.828 3.855 3.88 3.895 3.975 3.918 3.91 3.99 4.09 4.043 4.023 4.073 4.11 4.165 4.18 4.218 4.253 4.328 4.373 4.443 4.49 4.538 4.62 4.675 4.773 4.853 4.9 4.933 4.983 5.058 5.163 5.323 5.485 5.73 6.155 6.258 6.415 6.58 6.718 6.788 7.05 7.408 7.678 7.925 8.105 8.28 8.49 8.89 9.177 9.33 9.527 9.665 9.855 10.097 10.437 10.677 10.89 11.072 11.317 11.57 11.82 12.045 12.225 12.31 12.412 12.555 12.737 12.952 13.175 13.385 13.587 13.767 13.97 14.14 14.33 14.505 14.715 14.925 15.09 15.23 15.81 16.235 15.952 16.022 16.265 16.375 16.472 16.592 16.765 16.887 17.002 17.212 17.36 17.485 17.632 17.755 17.872 17.982 18.15 18.3 18.432 18.597 18.782 18.94 19.087 19.292 19.432 19.56 19.722 19.81 19.895 20.13 20.392 20.57 20.765 20.902 21.037 21.23 21.422 21.545 21.65 21.795 21.932 22.047 22.155 22.29 22.38 22.442 22.55 22.652 22.722 22.85 22.95 23.095 23.24 23.352 23.437 23.56 23.662 23.75 23.875 23.982 24.112 24.207 24.277 24.412 24.54 24.685 24.87 25.047 25.22 25.425 25.622 25.812 26.002 26.17 26.33 26.437 26.527 26.615 26.705 26.797 26.942 27.33 27.67 27.36 27.44 28.182 30.232 30.085 28.117 28.985 29.377 29.02 29.122 29.215 29.352 29.507 29.652 29.785 29.937 30.087 30.27 30.415
1.194 1.169 1.147 1.117 1.102 1.102 1.089 1.084 1.094 1.074 1.082 1.079 1.067 1.054 1.034 0.999 0.992 0.982 0.949 0.934 0.932 0.929 0.944 0.937 0.969 0.967 0.957 0.949 0.944 0.882 0.864 0.882 0.909 0.907 0.912 0.919 0.907 0.917 0.907 0.884 0.877 0.894 0.914 0.894 0.874 0.877 0.847 0.832 0.847 0.807 0.789 0.789 0.762 0.767 0.727 0.707 0.699 0.694 0.702 0.702 0.719 0.729 0.739 0.729 0.707 0.712 0.699 0.692 0.702 0.679 0.694 0.684 0.682 0.634 0.609 0.619 0.647 0.584 0.514 0.523 0.482 0.447 0.36 0.264 0.253 0.231 0.267 0.348 0.435 0.5 0.516 0.453 0.336 0.124 0.209 0.175 0.288 0.357 0.375 0.293 0.206 0.246 0.294 0.3 0.296 0.33 0.33 0.289 0.352 0.32 0.317 0.368 0.367 0.375 0.387 0.382 0.355 0.346 0.402 0.419 0.444 0.368 0.366 0.428 0.488 0.481 0.47 0.492 0.512 0.504 0.466 0.395 0.452 0.543 0.615 0.625 0.677 0.707 0.76 0.745 0.767 0.772 0.797 0.727 0.675 0.627 0.645 0.617 0.582 0.627 0.665 0.685 0.727 0.68 0.63 0.58 0.487 0.375 0.305 0.202 0.142 0.107 -0.058 -0.098 -0.055 0.107 0.27 0.282 0.285 0.38 0.44 0.46 0.47 0.482 0.495 0.53 0.517 0.525 0.545 0.557 0.525 0.53 0.547 0.547 0.545 0.557 0.56 0.565 0.557 0.567 0.575 0.577 0.577 0.595 0.595 0.575 0.56 0.557 0.557 0.522 0.522 0.507 0.52 0.535 0.525 0.58 0.595 0.6 0.582 0.505 0.427 0.407 0.397 0.457 0.472 0.512 0.607 0.582 0.522 0.507 0.522 0.517 0.527 0.54 0.51 0.535 0.517 0.482 0.482 0.49 0.5 0.52 0.525 0.552 0.63 0.635 0.74 0.77 0.905 1.14 1.402 2.56 2.492 2.45 2.68 2.43 2.12 1.96 2.067 2.17 2.115 2.077 2.187 2.255 2.24 2.242 2.275 2.327 2.462 2.465 2.767 2.597 2.335 2.457 2.507 2.622 2.775 2.932 2.91 3.365 3.177 3.33 3.182 3.142 3.117 3.142 3.235 4.622 5.622 5.185 4.497 5.022 5.797 5.67 5.365 4.752 4.207 4.167 4.197 3.652 3.685 3.78 3.552 3.462 3.487 3.44 3.492 3.51 3.5 3.507 3.51 3.573 3.518 3.558 3.685 3.635 3.643 3.675 3.675 3.845 3.845 3.81 3.725 3.745 3.848 3.988 4.033 4.028 3.968 3.97 4.038 4.035 4.083 4.138 4.218 4.248 4.31 4.375 4.443 4.505 4.59 4.668 4.76 4.75 4.798 4.87 4.96 5.045 5.195 5.34 5.525 5.918 6.19 6.295 6.405 6.558 6.695 6.885 7.165 7.4 7.61 7.87 8.007 8.23 8.732 9.062 9.237 9.37 9.492 9.707 9.947 10.215 10.455 10.675 10.83 11.065 11.32 11.592 11.835 11.977 12.1 12.23 12.405 12.56 12.797 13.057 13.29 13.472 13.637 13.822 14.03 14.185 14.38 14.615 14.807 14.967 15.16 15.882 15.865 15.595 15.927 16.125 16.222 16.342 16.475 16.647 16.797 16.93 17.1 17.222 17.355 17.5 17.572 17.702 17.795 17.94 18.075 18.202 18.342 18.475 18.642 18.807 19.02 19.282 19.422 19.542 19.61 19.732 19.905 20.135 20.32 20.505 20.682 20.825 20.992 21.14 21.287 21.425 21.575 21.742 21.877 21.96 22.065 22.165 22.257 22.387 22.5 22.577 22.697 22.842 22.977 23.082 23.187 23.287 23.377 23.475 23.58 23.695 23.807 23.92 24.005 24.115 24.212 24.347 24.485 24.662 24.867 25.037 25.24 25.43 25.597 25.795 25.99 26.2 26.325 26.42 26.52 26.602 26.675 26.757 26.845 26.985 27.39 27.56 28.867 30.077 29.247 27.847 29.417 28.785 28.895 28.947 29.037 29.16 29.312 29.457 29.585 29.737 29.875 30.05 30.195
1.237 1.219 1.177 1.169 1.139 1.137 1.094 1.132 1.124 1.092 1.087 1.072 1.062 1.059 1.044 1.017 0.997 0.972 0.964 0.964 0.954 0.954 0.969 0.957 0.962 0.972 0.947 0.952 0.957 0.922 0.902 0.872 0.884 0.879 0.914 0.929 0.914 0.904 0.932 0.919 0.907 0.904 0.887 0.869 0.857 0.874 0.874 0.839 0.819 0.834 0.837 0.827 0.822 0.794 0.754 0.739 0.747 0.769 0.717 0.729 0.727 0.742 0.749 0.744 0.752 0.722 0.709 0.692 0.709 0.697 0.682 0.704 0.692 0.672 0.634 0.627 0.607 0.624 0.592 0.568 0.564 0.542 0.443 0.319 0.239 0.205 0.179 0.279 0.297 0.296 0.332 0.347 0.221 0.256 0.183 0.197 0.252 0.294 0.29 0.211 -0.077 0.017 0.304 0.414 0.348 0.392 0.359 0.332 0.306 0.318 0.284 0.355 0.359 0.393 0.415 0.406 0.38 0.346 0.395 0.43 0.498 0.425 0.386 0.398 0.462 0.469 0.468 0.454 0.475 0.511 0.51 0.512 0.514 0.561 0.602 0.657 0.67 0.702 0.745 0.695 0.737 0.755 0.75 0.715 0.707 0.64 0.667 0.652 0.58 0.642 0.67 0.72 0.712 0.75 0.652 0.587 0.475 0.407 0.302 0.22 0.142 0.092 -0.043 -0.108 -0.028 0.147 0.31 0.342 0.325 0.367 0.435 0.472 0.455 0.487 0.517 0.525 0.515 0.52 0.532 0.555 0.562 0.56 0.58 0.577 0.55 0.565 0.587 0.587 0.567 0.56 0.56 0.567 0.577 0.575 0.595 0.577 0.555 0.57 0.58 0.557 0.535 0.532 0.54 0.537 0.527 0.552 0.607 0.637 0.665 0.582 0.435 0.387 0.415 0.405 0.415 0.45 0.467 0.492 0.475 0.482 0.49 0.47 0.467 0.475 0.477 0.472 0.482 0.5 0.48 0.482 0.507 0.545 0.595 0.657 0.78 0.917 1.065 1.635 1.755 3.687 3.682 4.282 4.332 3.012 2.242 2.187 2.197 2.05 2.072 1.957 1.93 1.885 1.902 1.952 1.882 1.902 1.882 1.877 1.91 1.882 2.147 2.03 2.187 2.397 2.467 2.577 2.835 2.94 3.045 3.57 3.402 3.235 3.205 3.165 3.207 3.305 3.425 4.085 4.685 4.955 4.97 5.527 5.597 5.725 5.612 5.512 5.302 5.22 4.705 4.132 3.965 4.035 4.052 3.537 3.732 3.482 3.482 3.582 3.395 3.472 3.43 3.41 3.38 3.39 3.395 3.438 3.435 3.548 3.56 3.813 3.565 3.55 3.498 3.58 3.743 4.038 3.845 3.838 3.908 3.933 3.938 3.91 3.945 4.04 4.068 4.158 4.198 4.248 4.318 4.4 4.493 4.588 4.635 4.638 4.7 4.768 4.838 4.948 5.083 5.208 5.373 5.678 6.035 6.19 6.263 6.438 6.57 6.703 6.87 7.065 7.235 7.435 7.687 8.082 8.622 8.86 9.067 9.195 9.335 9.512 9.817 10.052 10.232 10.48 10.635 10.835 11.087 11.375 11.59 11.79 11.942 12.09 12.26 12.42 12.63 12.892 13.135 13.355 13.567 13.732 13.905 14.065 14.262 14.49 14.677 14.837 15.187 15.792 15.57 15.56 15.817 15.992 16.11 16.22 16.355 16.512 16.667 16.84 17.005 17.145 17.245 17.357 17.457 17.552 17.64 17.777 17.865 18.017 18.132 18.25 18.395 18.557 18.72 18.895 19.12 19.302 19.437 19.562 19.667 19.865 20.092 20.277 20.472 20.617 20.757 20.885 21.015 21.177 21.335 21.492 21.59 21.722 21.852 21.97 22.092 22.21 22.357 22.445 22.562 22.712 22.815 22.945 23.067 23.147 23.24 23.32 23.427 23.527 23.637 23.752 23.85 23.965 24.055 24.185 24.315 24.435 24.655 24.827 25.047 25.252 25.457 25.625 25.815 25.995 26.172 26.3 26.39 26.477 26.565 26.61 26.685 26.787 26.857 27.087 29.512 30.1 28.147 28.21 28.917 28.592 28.737 28.78 28.885 28.992 29.132 29.255 29.382 29.51 29.677 29.822 29.99
1.319 1.254 1.237 1.224 1.199 1.139 1.134 1.127 1.114 1.074 1.102 1.107 1.067 1.039 1.009 1.034 1.007 0.997 0.977 0.989 0.992 0.999 0.997 0.999 1.002 0.979 0.959 0.959 0.939 0.947 0.954 0.949 0.914 0.914 0.917 0.929 0.917 0.917 0.929 0.942 0.922 0.934 0.934 0.922 0.907 0.899 0.857 0.842 0.847 0.839 0.859 0.859 0.847 0.827 0.809 0.787 0.802 0.782 0.779 0.774 0.772 0.757 0.757 0.767 0.779 0.744 0.737 0.749 0.742 0.732 0.702 0.704 0.687 0.694 0.662 0.649 0.644 0.652 0.622 0.589 0.595 0.56 0.488 0.397 0.294 0.207 0.234 0.201 0.232 0.257 0.298 0.366 0.264 0.28 0.32 0.234 0.167 0.171 0.163 0.175 -0.19 -0.165 0.128 0.332 0.452 0.471 0.344 0.301 0.344 0.344 0.333 0.354 0.349 0.348 0.355 0.386 0.441 0.456 0.44 0.444 0.445 0.456 0.365 0.39 0.425 0.479 0.449 0.448 0.47 0.481 0.528 0.527 0.53 0.535 0.568 0.597 0.65 0.695 0.715 0.687 0.735 0.727 0.732 0.705 0.695 0.612 0.607 0.67 0.605 0.622 0.66 0.655 0.642 0.67 0.647 0.6 0.49 0.37 0.3 0.217 0.155 0.105 -0.01 -0.06 0.005 0.177 0.33 0.345 0.34 0.415 0.447 0.5 0.5 0.487 0.512 0.57 0.537 0.532 0.547 0.55 0.552 0.565 0.575 0.582 0.537 0.56 0.58 0.587 0.567 0.555 0.567 0.572 0.555 0.567 0.62 0.582 0.557 0.55 0.577 0.565 0.542 0.552 0.54 0.517 0.535 0.522 0.532 0.53 0.505 0.497 0.44 0.417 0.427 0.392 0.395 0.422 0.41 0.432 0.447 0.455 0.455 0.442 0.43 0.422 0.452 0.437 0.492 0.502 0.545 0.565 0.642 0.74 0.847 2.277 3.037 3.025 3.062 3.065 2.43 2.64 2.535 2.247 2.175 2.055 1.945 1.99 1.797 1.605 1.6 1.562 1.547 1.515 1.595 1.607 1.607 1.562 1.537 1.557 1.515 1.635 1.79 1.887 2.105 2.295 2.42 2.425 2.575 2.825 2.972 3.127 3.195 3.177 3.282 3.265 3.23 3.275 3.257 3.517 3.662 4.12 4.312 4.462 4.187 4.487 4.342 5.277 5.202 5.002 5.237 5.267 5.197 5.035 5.5 5.025 4.985 3.945 3.462 3.505 3.62 3.422 3.353 3.293 3.31 3.34 3.303 3.258 3.315 3.335 3.33 3.33 3.383 3.355 3.355 3.455 3.525 3.545 3.748 3.67 3.813 3.813 3.923 3.858 3.923 3.903 3.973 4.015 4.075 4.148 4.208 4.288 4.378 4.47 4.493 4.54 4.598 4.655 4.745 4.863 4.963 5.085 5.248 5.428 5.65 5.883 5.943 6.085 6.243 6.358 6.53 6.758 7.002 7.24 7.517 7.95 8.52 8.64 8.802 8.977 9.125 9.385 9.665 9.877 10.06 10.267 10.477 10.657 10.887 11.195 11.425 11.625 11.83 11.985 12.18 12.32 12.492 12.73 12.957 13.192 13.395 13.6 13.78 13.95 14.152 14.392 14.57 14.757 15.482 15.56 15.25 15.507 15.737 15.877 16.005 16.09 16.252 16.41 16.56 16.74 16.892 16.997 17.142 17.245 17.297 17.392 17.505 17.627 17.727 17.85 18.012 18.097 18.21 18.367 18.525 18.647 18.797 18.952 19.187 19.37 19.487 19.585 19.797 20.042 20.215 20.37 20.5 20.645 20.802 20.955 21.15 21.262 21.385 21.545 21.67 21.79 21.965 22.075 22.18 22.295 22.465 22.59 22.737 22.825 22.932 22.992 23.092 23.197 23.295 23.392 23.517 23.622 23.705 23.817 23.892 24.005 24.147 24.28 24.445 24.612 24.815 25.01 25.24 25.445 25.635 25.815 26.045 26.17 26.275 26.352 26.43 26.48 26.567 26.615 26.682 26.965 28.835 29.587 27.535 29.01 28.525 28.372 28.51 28.587 28.747 28.852 28.95 29.037 29.172 29.31 29.462 29.592 29.755
