ncols 461
nrows 31
xllcorner    463024
yllcorner    90290
cellsize     2
NODATA_value -9999
45.479 45.492 45.422 45.282 45.112 46.847 48.697 49.669 49.782 47.902 46.779 47.919 48.017 47.164 45.664 44.739 44.694 44.629 44.602 44.577 44.494 44.489 44.979 45.194 47.449 46.747 43.942 44.019 49.347 51.549 51.552 45.102 45.069 44.104 43.317 43.294 46.219 55.174 55.867 54.652 53.414 49.852 46.332 42.834 42.489 41.782 41.527 40.597 40.607 40.549 40.549 40.539 40.502 40.509 40.509 40.512 40.479 40.519 40.489 40.469 40.474 40.474 40.852 41.679 41.784 41.759 41.787 41.822 41.837 41.849 41.824 42.052 41.732 41.167 40.442 40.527 41.269 41.177 41.949 43.414 45.144 47.422 47.612 41.237 45.147 47.297 44.654 39.849 39.747 41.172 44.362 45.542 46.282 43.794 42.694 40.229 39.852 39.799 39.807 43.397 48.927 50.199 50.794 49.844 48.047 38.322 38.502 38.669 38.539 38.267 38.082 37.919 37.767 37.617 37.482 37.294 37.182 37.067 36.869 36.752 36.629 36.509 36.377 36.222 36.009 35.877 35.249 34.922 34.664 34.529 34.304 34.082 33.839 33.617 33.389 33.147 32.949 32.807 32.602 32.429 32.262 32.124 31.962 31.822 31.679 31.519 31.387 31.222 31.024 30.777 30.594 30.472 30.369 30.179 29.989 29.817 29.472 29.247 29.104 28.859 28.617 28.399 28.032 27.804 27.652 27.452 27.337 27.132 26.894 26.589 26.227 26.007 25.844 25.674 25.429 25.227 25.039 24.764 24.614 24.384 24.159 23.889 23.527 23.367 23.149 22.982 22.662 22.394 22.327 22.272 22.002 21.619 21.577 21.219 21.112 20.587 20.422 20.229 19.894 19.554 19.407 19.229 19.092 18.514 17.817 16.979 16.192 15.194 14.069 12.792 10.984 9.444 7.947 6.589 5.192 4.269 3.552 3.189 3.114 3.023 2.931 2.857 2.77 2.618 2.55 2.361 2.164 1.989 1.832 1.695 1.587 1.504 1.377 1.306 1.213 1.12 1.053 0.954 0.802 0.73 0.619 0.563 0.455 0.401 0.235 0.195 0.253 0.289 0.305 0.362 0.319 0.444 0.445 0.527 0.626 0.742 0.88 1.081 1.24 1.303 1.503 1.503 1.52 1.543 1.544 1.523 1.545 1.557 1.591 1.646 1.635 1.604 1.642 1.644 1.667 1.68 1.619 1.555 1.526 1.33 1.307 1.233 1.151 1.153 1.13 1.029 0.887 0.751 0.601 0.47 0.353 0.158 0.001 -0.169 -0.251 -0.405 -0.568 -0.696 -0.818 -0.901 -0.728 -0.711 -0.689 -0.645 -0.601 -0.629 -0.623 -0.622 -0.699 -0.863 -0.887 -0.872 -0.777 -0.614 -0.496 -0.25 -0.118 0.075 0.239 0.451 0.555 0.763 0.914 1.004 1.121 1.153 1.104 0.983 0.788 0.725 0.592 0.503 0.368 0.237 0.175 0.033 -0.066 -0.211 -0.32 -0.446 -0.657 -0.719 -0.848 -1.033 -1.121 -1.134 -1.166 -1.187 -1.079 -1.068 -1.117 -1.081 -1.058 -0.997 -1.077 -1.014 -1.065 -1.099 -1.091 -1.101 -1.072 -1.086 -0.948 -0.777 -0.608 -0.479 -0.341 -0.23 -0.123 0.014 0.107 0.19 0.258 0.356 0.404 0.389 0.38 0.381 0.382 0.29 0.199 0.129 0.067 -0.133 -0.283 -0.48 -0.631 -0.793 -0.98 -1.165 -1.339 -1.334 -1.39 -1.355 -1.447 -1.411 -1.457 -1.457 -1.487 -1.482 -1.569 -1.589 -1.584 -1.656 -1.682 -1.634 -1.59 -1.673 -1.744 -1.729 -1.748 -1.763 -1.749 -1.747 -1.779 -1.793 -1.814 -1.649 -1.43 -1.13 -0.97 -0.726 -0.602 -0.458 -0.214 0.089 0.44 0.467 0.617 0.825 1.078 1.348 1.236 1.084 1.011 1.037 0.973 0.888 1.062 1.161 1.126 0.893 0.795 0.985 1.14 1.153 1.019 0.871 0.634 0.832 1.026 1.169 1.056 0.876 0.985 1.238 1.42 1.165 0.917 0.67 0.434
45.577 45.592 45.489 45.417 45.287 45.702 48.124 48.719 47.019 45.259 45.579 47.537 46.157 45.742 45.219 45.052 44.879 44.697 44.672 44.629 44.519 44.399 44.229 44.312 46.389 47.877 45.522 43.574 45.909 47.904 46.757 45.509 49.539 46.479 46.914 48.094 53.872 59.134 61.414 55.549 52.297 46.562 43.357 42.969 42.769 42.147 41.902 41.779 41.847 41.447 41.469 41.039 41.064 40.817 40.644 40.519 40.522 40.514 40.504 40.484 40.509 40.517 41.717 42.194 44.212 43.927 42.039 41.924 41.934 41.947 42.449 45.337 43.302 43.549 40.612 40.709 41.289 42.112 43.517 42.102 43.252 46.522 44.884 41.097 42.442 43.309 42.497 39.747 39.662 41.382 45.889 47.934 47.862 45.912 42.842 42.137 39.854 39.822 39.879 41.644 48.717 49.959 50.844 49.734 45.342 38.619 38.637 38.687 38.552 38.317 38.129 37.989 37.809 37.674 37.534 37.379 37.212 37.107 36.914 36.802 36.702 36.547 36.399 36.232 36.059 35.759 35.192 35.014 34.799 34.614 34.417 34.159 33.914 33.667 33.462 33.214 33.002 32.844 32.687 32.502 32.344 32.232 32.049 31.904 31.782 31.652 31.487 31.337 31.187 31.004 30.729 30.417 30.219 30.089 29.944 29.754 29.542 29.319 29.137 28.919 28.689 28.502 28.134 27.814 27.647 27.474 27.244 26.992 26.779 26.537 26.259 26.069 25.877 25.669 25.447 25.292 25.037 24.857 24.602 24.397 24.164 23.897 23.534 23.317 23.184 22.964 22.639 22.559 22.389 23.474 22.357 21.757 21.422 21.102 20.882 20.639 20.432 20.187 19.902 19.504 19.827 19.602 18.822 19.037 17.989 16.887 15.837 15.212 14.252 12.984 10.912 9.869 8.859 7.147 5.389 4.852 3.769 3.537 3.152 3.046 2.939 2.868 2.804 2.655 2.555 2.4 2.178 2.012 1.867 1.749 1.621 1.516 1.394 1.298 1.264 1.162 1.048 0.996 0.892 0.783 0.707 0.533 0.509 0.461 0.254 0.265 0.278 0.252 0.333 0.359 0.346 0.355 0.46 0.513 0.609 0.678 0.822 1 1.12 1.272 1.508 1.501 1.512 1.528 1.551 1.535 1.57 1.584 1.586 1.64 1.637 1.618 1.638 1.66 1.622 1.622 1.586 1.522 1.517 1.552 1.514 1.315 1.344 1.366 1.279 1.135 1.003 0.843 0.71 0.558 0.423 0.226 0.172 -0.026 -0.158 -0.271 -0.409 -0.541 -0.735 -0.88 -0.978 -0.823 -0.858 -0.77 -0.761 -0.834 -0.794 -0.888 -0.83 -0.951 -1.013 -1.008 -0.828 -0.725 -0.508 -0.311 -0.135 0.077 0.281 0.435 0.634 0.792 0.949 1.111 1.264 1.349 1.253 1.078 0.95 0.872 0.753 0.576 0.448 0.409 0.291 0.148 -0.004 -0.076 -0.289 -0.41 -0.494 -0.609 -0.724 -0.89 -1.06 -1.167 -1.147 -1.133 -1.123 -1.068 -1.077 -1.058 -1.07 -1.054 -1.143 -1.093 -1.097 -1.127 -1.089 -1.121 -1.181 -1.115 -0.94 -0.855 -0.738 -0.557 -0.471 -0.341 -0.207 -0.104 0.019 0.033 0.133 0.205 0.287 0.303 0.216 0.214 0.214 0.126 0.051 -0.03 -0.114 -0.206 -0.38 -0.463 -0.727 -0.905 -1.087 -1.278 -1.323 -1.281 -1.405 -1.421 -1.37 -1.502 -1.485 -1.482 -1.502 -1.44 -1.486 -1.495 -1.596 -1.596 -1.641 -1.564 -1.593 -1.632 -1.678 -1.763 -1.725 -1.815 -1.751 -1.792 -1.741 -1.766 -1.815 -1.647 -1.423 -1.297 -1.048 -0.743 -0.554 -0.427 -0.254 0.025 0.26 0.375 0.548 0.794 1.057 1.271 1.204 1.017 0.782 0.814 0.792 0.938 1.172 1.429 1.228 0.947 0.749 0.909 0.969 0.946 0.877 0.727 0.534 0.655 0.793 0.909 0.875 0.734 0.86 1.122 1.181 1.081 0.876 0.653 0.525
45.604 45.529 45.517 45.539 45.447 45.522 45.794 45.457 45.207 45.157 45.089 44.997 44.902 46.354 46.177 46.217 45.412 44.834 44.697 44.634 44.529 44.402 44.302 45.569 47.439 48.247 45.364 43.667 44.319 46.707 45.397 49.964 54.494 56.104 52.977 49.834 54.434 53.467 61.462 58.454 49.177 46.052 43.049 43.144 43.107 42.907 42.717 42.527 42.354 42.224 42.072 41.979 42.022 42.094 42.052 41.819 41.264 41.192 40.812 40.649 40.564 40.547 42.069 42.419 45.044 45.779 43.032 42.017 42.259 42.092 44.127 46.877 45.957 45.039 40.809 40.892 41.024 41.559 43.989 42.984 42.249 42.037 40.519 40.194 40.082 40.044 40.484 40.354 40.037 41.302 47.437 47.729 46.034 46.169 42.894 42.417 39.749 39.722 39.672 41.019 47.089 48.779 47.707 47.442 42.914 38.982 38.897 38.537 38.549 38.382 38.162 38.009 37.822 37.659 37.564 37.422 37.269 37.144 36.979 36.849 36.729 36.602 36.462 36.284 36.119 36.014 35.379 35.097 34.902 34.707 34.524 34.222 33.964 33.709 33.509 33.309 33.142 33.024 32.752 32.597 32.559 32.374 32.159 32.004 31.777 31.702 31.554 31.387 31.252 31.057 30.827 30.652 30.344 30.074 29.854 29.747 29.619 29.389 29.212 29.027 28.752 28.514 28.249 27.874 27.619 27.409 27.197 26.987 26.769 26.549 26.334 26.117 25.894 25.662 25.429 25.247 25.069 24.887 24.692 24.429 24.197 23.867 23.592 23.322 23.112 22.917 22.744 22.527 22.119 23.952 22.012 21.599 21.332 21.204 20.872 20.497 20.327 20.029 19.889 19.517 19.269 19.079 18.704 18.354 17.972 17.082 16.017 15.302 14.464 13.239 11.699 10.457 9.307 7.697 5.694 4.527 3.932 3.569 3.189 3.074 2.977 2.887 2.811 2.69 2.555 2.457 2.229 2.051 1.886 1.73 1.633 1.505 1.451 1.362 1.264 1.178 1.114 0.989 0.943 0.892 0.774 0.655 0.509 0.454 0.301 0.297 0.311 0.259 0.307 0.276 0.322 0.348 0.408 0.458 0.565 0.648 0.795 0.995 1.163 1.27 1.476 1.502 1.513 1.552 1.57 1.55 1.579 1.609 1.605 1.617 1.624 1.619 1.647 1.678 1.623 1.585 1.609 1.504 1.537 1.545 1.315 1.287 1.486 1.509 1.319 1.254 1.083 0.929 0.771 0.652 0.48 0.328 0.221 0.074 -0.007 -0.166 -0.335 -0.493 -0.663 -0.787 -0.947 -1.083 -0.948 -1.015 -0.993 -0.884 -0.886 -0.978 -1.041 -1.098 -1.108 -0.972 -0.781 -0.63 -0.505 -0.237 -0.104 0.105 0.274 0.446 0.612 0.83 0.957 1.163 1.338 1.53 1.345 1.235 1.1 1.056 0.909 0.699 0.617 0.469 0.366 0.235 0.06 -0.01 -0.133 -0.292 -0.342 -0.636 -0.733 -0.835 -0.989 -1.158 -1.149 -1.102 -1.127 -1.133 -1.129 -1.067 -1.092 -1.093 -1 -1.058 -1.081 -1.129 -1.133 -1.107 -1.083 -1.131 -1.116 -0.993 -0.774 -0.697 -0.58 -0.425 -0.36 -0.227 -0.096 -0.073 -0.041 0.021 0.076 0.091 0.102 0.104 0.021 -0.057 -0.098 -0.188 -0.273 -0.391 -0.448 -0.663 -0.8 -1.01 -1.182 -1.273 -1.247 -1.306 -1.354 -1.352 -1.399 -1.39 -1.387 -1.515 -1.435 -1.5 -1.474 -1.581 -1.618 -1.624 -1.591 -1.668 -1.563 -1.648 -1.672 -1.722 -1.708 -1.658 -1.485 -1.745 -1.764 -1.729 -1.826 -1.574 -1.449 -1.3 -1.131 -0.825 -0.648 -0.506 -0.358 -0.073 0.094 0.294 0.467 0.693 0.897 0.979 0.976 0.854 0.628 0.489 0.699 0.907 1.137 1.395 1.174 0.943 0.777 0.767 0.714 0.677 0.698 0.539 0.489 0.523 0.621 0.708 0.688 0.664 0.919 1.126 1.213 1.078 0.845 0.667 0.454
45.609 45.584 45.589 45.592 45.549 45.434 45.347 45.287 45.257 45.144 44.997 44.932 45.142 47.637 48.462 48.332 45.797 44.802 44.714 44.644 44.559 44.442 44.259 45.644 46.977 46.834 43.952 44.652 48.382 48.304 45.834 51.964 56.597 61.139 62.922 58.669 48.352 61.564 60.119 55.317 51.227 43.352 43.229 43.267 43.332 43.319 43.284 43.247 43.129 43.002 42.824 42.672 42.607 42.492 42.317 42.267 42.277 42.174 42.082 42.009 41.734 41.679 42.199 42.317 42.997 43.677 42.497 42.297 42.677 42.274 44.832 47.622 47.077 48.322 41.017 41.072 41.154 42.079 41.619 41.809 41.379 40.844 40.904 41.302 42.034 42.239 41.987 40.784 40.782 40.179 43.184 45.447 43.814 42.224 40.414 40.144 39.664 39.709 39.702 39.567 40.152 41.314 40.777 39.632 39.604 39.687 39.329 38.552 38.557 38.427 38.199 38.017 37.869 37.729 37.622 37.509 37.349 37.189 37.032 36.877 36.759 36.679 36.562 36.409 36.234 36.177 35.542 35.172 34.979 34.787 34.597 34.314 34.007 33.737 33.504 33.409 33.312 33.149 33.042 32.999 32.859 32.587 32.217 32.052 31.824 31.754 31.589 31.399 31.272 31.092 30.879 30.659 30.447 30.269 29.984 29.727 29.504 29.457 29.239 29.022 28.812 28.537 28.302 27.932 27.689 27.557 27.394 27.224 27.034 26.852 26.617 26.354 25.992 25.764 25.529 25.299 25.074 24.877 24.699 24.449 24.219 23.924 23.617 23.384 23.177 23.139 23.027 22.554 22.097 22.629 21.889 21.664 21.599 21.162 20.839 20.544 20.317 20.012 19.777 19.627 19.329 19.122 18.542 18.202 18.017 17.479 16.419 15.579 14.709 13.614 12.524 11.069 9.454 7.522 5.854 5.737 4.382 3.697 3.239 3.094 3.001 2.902 2.826 2.74 2.606 2.494 2.275 2.107 1.931 1.78 1.675 1.538 1.54 1.328 1.255 1.204 1.148 1.012 0.937 0.803 0.735 0.637 0.488 0.479 0.328 0.27 0.271 0.232 0.258 0.287 0.336 0.326 0.354 0.439 0.564 0.641 0.771 1.01 1.217 1.294 1.485 1.517 1.533 1.572 1.574 1.555 1.572 1.607 1.603 1.61 1.608 1.617 1.642 1.726 1.656 1.592 1.64 1.549 1.553 1.346 1.303 1.443 1.435 1.467 1.494 1.308 1.229 1.034 0.864 0.706 0.555 0.456 0.329 0.19 0.022 -0.177 -0.297 -0.432 -0.634 -0.754 -0.858 -1.061 -1.152 -1.169 -1.135 -1.1 -1.085 -1.071 -1.182 -1.153 -1.171 -1.029 -0.761 -0.667 -0.472 -0.307 -0.107 0.081 0.273 0.413 0.63 0.787 0.939 1.108 1.261 1.348 1.582 1.395 1.341 1.221 1.04 0.911 0.724 0.589 0.445 0.309 0.189 0.122 -0.016 -0.107 -0.294 -0.482 -0.609 -0.749 -0.964 -1.118 -1.149 -1.107 -1.182 -1.125 -1.191 -1.006 -1.108 -1.088 -1.078 -1.108 -1.064 -1.04 -1.072 -1.047 -1.087 -1.056 -0.977 -1.038 -0.942 -0.812 -0.67 -0.601 -0.466 -0.4 -0.293 -0.249 -0.164 -0.128 -0.149 -0.107 -0.095 -0.124 -0.173 -0.208 -0.251 -0.319 -0.389 -0.513 -0.633 -0.715 -0.872 -1.039 -1.251 -1.231 -1.222 -1.31 -1.364 -1.352 -1.432 -1.422 -1.469 -1.416 -1.489 -1.522 -1.569 -1.57 -1.562 -1.513 -1.517 -1.64 -1.636 -1.633 -1.685 -1.739 -1.754 -1.731 -1.734 -1.49 -1.789 -1.774 -1.782 -1.647 -1.477 -1.304 -1.121 -0.892 -0.774 -0.557 -0.463 -0.218 0.01 0.164 0.398 0.513 0.678 0.761 0.722 0.582 0.436 0.433 0.612 0.849 1.068 1.163 1.122 1.051 0.91 0.645 0.453 0.438 0.447 0.279 0.266 0.411 0.498 0.597 0.571 0.813 1.009 1.314 1.533 1.255 0.904 0.722 0.499
45.667 45.649 45.619 45.637 45.569 45.512 45.449 45.359 45.227 45.114 44.974 44.852 45.274 47.992 48.664 48.242 46.869 45.012 44.772 44.692 44.584 44.474 44.314 44.312 44.992 44.859 43.887 48.919 49.599 47.559 45.634 51.299 61.712 59.537 57.177 58.632 53.642 57.342 63.752 59.827 43.637 45.454 43.444 43.397 43.409 43.472 43.489 43.444 43.414 43.319 43.169 42.987 42.932 42.902 42.797 42.742 42.749 42.694 42.704 42.612 42.569 42.529 42.552 42.582 42.597 42.659 42.619 42.459 42.404 42.419 43.159 46.862 52.907 57.089 50.614 47.867 42.699 42.864 41.932 41.724 42.674 42.794 42.287 41.839 41.419 41.162 40.974 40.937 41.842 40.629 39.732 40.844 39.907 39.652 39.657 39.639 39.642 39.599 39.569 39.562 39.574 39.482 39.474 39.507 39.467 39.402 39.412 38.654 38.552 38.494 38.282 38.089 37.942 37.834 37.892 37.682 37.409 37.247 37.099 36.932 36.822 36.744 36.602 36.469 36.317 36.137 35.547 35.249 35.069 34.864 34.694 34.389 34.067 33.769 33.547 33.442 33.269 33.424 33.244 33.192 32.944 32.452 32.284 32.119 31.919 31.757 31.599 31.444 31.314 31.157 30.929 30.652 30.459 30.314 30.179 29.939 29.599 29.359 29.272 29.067 28.834 28.644 28.337 28.064 27.849 27.764 27.669 27.574 27.442 27.287 27.037 26.709 26.247 25.887 25.584 25.349 25.074 24.864 24.637 24.427 24.194 23.934 23.642 23.432 23.337 23.327 23.029 22.577 22.187 22.454 22.234 21.717 21.739 21.054 20.952 20.747 20.402 20.104 19.882 19.572 19.329 19.132 18.632 18.349 17.889 17.359 16.849 16.249 14.899 13.862 12.609 11.144 9.414 7.544 6.034 5.352 4.744 3.702 3.429 3.125 3.029 2.92 2.84 2.767 2.66 2.488 2.329 2.125 1.929 1.781 1.704 1.627 1.492 1.33 1.352 1.205 1.263 1.091 0.952 0.857 0.774 0.708 0.599 0.499 0.392 0.277 0.231 0.237 0.255 0.27 0.329 0.379 0.287 0.419 0.512 0.657 0.765 0.949 1.118 1.222 1.31 1.524 1.539 1.566 1.559 1.527 1.55 1.587 1.577 1.575 1.577 1.598 1.657 1.719 1.703 1.621 1.578 1.335 1.326 1.314 1.465 1.449 1.464 1.474 1.494 1.493 1.323 1.089 0.947 0.819 0.716 0.551 0.422 0.279 0.111 -0.063 -0.198 -0.378 -0.484 -0.711 -0.823 -0.965 -1.013 -1.167 -1.097 -1.145 -1.082 -1.088 -1.173 -1.202 -1.146 -1.02 -0.873 -0.685 -0.47 -0.313 -0.134 0.041 0.263 0.443 0.526 0.696 0.876 1.018 1.155 1.365 1.58 1.594 1.545 1.297 1.19 1.031 0.836 0.612 0.493 0.402 0.314 0.149 0.069 0.007 -0.186 -0.336 -0.454 -0.633 -0.903 -1.002 -1.122 -1.163 -1.162 -1.048 -1.182 -1.181 -1.136 -1.08 -1.038 -1.068 -1.011 -1.076 -1.057 -1.113 -1.108 -1.068 -1.098 -1.075 -1.032 -0.965 -0.801 -0.708 -0.605 -0.513 -0.386 -0.324 -0.29 -0.31 -0.256 -0.253 -0.299 -0.312 -0.31 -0.382 -0.372 -0.484 -0.598 -0.583 -0.705 -0.876 -0.959 -1.119 -1.203 -1.256 -1.349 -1.299 -1.273 -1.345 -1.29 -1.41 -1.465 -1.466 -1.504 -1.538 -1.501 -1.583 -1.585 -1.502 -1.597 -1.639 -1.574 -1.643 -1.66 -1.744 -1.725 -1.632 -1.701 -1.689 -1.658 -1.861 -1.858 -1.717 -1.462 -1.318 -1.165 -0.967 -0.814 -0.693 -0.489 -0.309 -0.13 0.003 0.251 0.267 0.378 0.462 0.445 0.357 0.255 0.36 0.559 0.723 0.948 1.161 1.388 1.208 1.01 0.713 0.443 0.304 0.325 0.144 0.05 0.197 0.228 0.287 0.508 0.725 0.976 1.267 1.265 1.235 0.952 0.84 0.485
45.709 45.664 45.634 45.679 45.679 45.569 45.472 45.372 45.224 45.089 44.997 44.954 45.637 50.159 50.602 49.844 46.697 44.942 44.844 44.757 44.637 44.527 44.389 44.459 45.084 45.109 48.744 53.042 53.114 47.279 45.534 48.899 54.102 61.904 55.962 57.027 54.464 65.714 57.879 45.687 43.687 52.357 49.882 43.559 43.492 43.474 43.554 43.534 43.492 43.437 43.289 43.134 43.094 43.059 42.972 42.924 42.922 42.904 42.887 42.879 42.869 42.779 42.764 42.759 42.804 42.819 42.704 42.604 42.599 42.642 45.329 48.679 52.964 47.549 52.864 47.562 43.034 42.437 42.084 41.597 41.882 41.524 41.359 41.267 41.174 41.104 40.987 40.904 41.612 40.099 39.687 39.702 39.682 39.659 39.649 39.639 39.657 39.632 39.589 39.582 39.562 39.647 39.537 39.489 39.404 39.242 39.022 38.622 38.534 38.529 38.407 38.214 38.072 38.002 39.267 37.937 37.472 37.317 37.182 36.994 36.849 36.754 36.647 36.514 36.314 36.129 35.599 35.297 35.202 34.972 34.777 34.487 34.154 33.802 33.617 33.492 33.372 33.187 33.099 33.199 32.722 32.502 32.292 32.127 31.962 31.777 31.677 31.539 31.317 31.192 30.954 30.724 30.534 30.382 30.267 30.037 29.787 29.497 29.202 29.077 28.907 28.672 28.414 28.152 27.889 27.727 27.644 27.624 27.669 27.657 27.552 27.157 26.559 26.134 25.757 25.427 25.137 24.919 24.639 24.407 24.197 24.362 23.864 23.519 23.512 23.414 23.134 22.754 22.449 22.149 21.782 21.924 21.997 21.047 21.227 21.217 20.657 20.157 19.937 19.569 19.222 19.077 18.712 18.517 18.224 17.727 17.179 16.292 14.972 13.947 12.707 11.487 9.412 7.734 6.419 5.749 4.864 3.919 3.704 3.141 3.032 2.946 2.865 2.804 2.748 2.546 2.382 2.164 2.031 1.853 1.725 1.634 1.507 1.408 1.324 1.215 1.206 1.114 1.024 0.911 0.893 0.737 0.612 0.495 0.387 0.272 0.251 0.289 0.227 0.205 0.301 0.377 0.369 0.413 0.501 0.615 0.728 0.864 1.001 1.118 1.314 1.542 1.527 1.526 1.539 1.541 1.546 1.549 1.51 1.53 1.551 1.593 1.657 1.681 1.621 1.589 1.541 1.331 1.143 1.302 1.464 1.494 1.488 1.468 1.479 1.433 1.268 1.186 1.039 0.939 0.813 0.672 0.504 0.371 0.151 -0.01 -0.155 -0.282 -0.476 -0.648 -0.811 -0.928 -1.172 -1.106 -1.188 -1.148 -1.069 -1.075 -1.15 -1.199 -1.085 -1.088 -0.813 -0.7 -0.533 -0.386 -0.211 -0.034 0.179 0.305 0.436 0.561 0.798 0.943 1.127 1.34 1.57 1.57 1.508 1.444 1.193 1.052 0.866 0.694 0.625 0.589 0.483 0.274 0.13 0.004 -0.147 -0.342 -0.519 -0.589 -0.811 -0.915 -1.049 -1.115 -1.071 -1.161 -1.172 -1.094 -1.085 -1.049 -0.988 -1.077 -1.072 -1.083 -1.086 -1.087 -1.04 -1.07 -1.056 -1.012 -1.071 -1.067 -0.918 -0.723 -0.768 -0.68 -0.602 -0.543 -0.521 -0.446 -0.466 -0.453 -0.429 -0.471 -0.479 -0.526 -0.517 -0.634 -0.719 -0.825 -0.904 -1.029 -1.15 -1.2 -1.153 -1.245 -1.247 -1.298 -1.31 -1.327 -1.381 -1.423 -1.381 -1.404 -1.477 -1.463 -1.526 -1.495 -1.534 -1.507 -1.593 -1.577 -1.586 -1.572 -1.689 -1.605 -1.696 -1.723 -1.698 -1.689 -1.714 -1.749 -1.797 -1.753 -1.631 -1.366 -1.262 -1.072 -0.921 -0.766 -0.689 -0.408 -0.282 -0.145 0.019 0.177 0.192 0.24 0.203 0.107 0.013 0.244 0.43 0.635 0.8 1.026 1.169 1.112 0.926 0.694 0.613 0.556 0.53 0.328 0.046 -0.073 0.004 0.171 0.358 0.591 0.807 0.948 0.999 0.924 0.792 0.661 0.376
45.704 45.722 45.707 45.689 45.677 45.624 45.534 45.364 45.297 45.182 45.074 45.057 47.537 50.462 51.314 51.039 46.207 45.032 44.929 44.839 44.697 44.562 44.512 45.059 44.972 47.237 50.429 52.114 51.817 45.799 45.314 44.674 51.639 53.089 58.962 55.352 51.222 60.354 64.714 58.542 57.072 57.984 56.077 43.789 43.694 43.619 43.709 43.637 43.522 43.494 43.377 43.274 43.264 43.217 45.962 44.102 46.697 46.724 43.034 43.082 43.112 42.982 42.899 43.012 43.554 42.894 42.794 42.817 42.789 42.724 47.014 52.184 53.747 45.957 50.142 46.917 42.262 41.894 42.564 41.829 41.587 41.464 41.397 41.284 41.217 41.147 41.004 40.944 41.354 40.319 39.722 39.709 39.704 39.714 40.062 39.732 39.694 39.677 39.667 39.664 39.677 39.814 39.589 39.464 39.382 39.159 38.967 38.654 38.614 39.089 38.447 38.309 38.147 38.094 38.034 37.852 37.559 37.379 37.194 37.012 36.829 36.679 36.567 36.429 36.257 36.124 35.652 35.334 35.284 35.069 34.884 34.594 34.242 33.919 33.649 33.492 33.297 33.132 32.989 32.917 32.609 32.417 32.314 32.124 31.942 31.739 31.627 31.502 31.347 31.172 31.012 30.807 30.622 30.452 30.272 30.084 29.849 29.612 29.359 29.059 28.904 28.662 28.402 28.092 27.789 27.527 27.482 27.527 27.544 27.557 27.594 27.529 26.927 26.424 25.994 25.567 25.237 24.969 24.714 24.489 24.244 23.994 23.787 23.507 23.344 23.252 23.347 22.702 23.939 22.302 21.859 21.632 21.584 21.977 21.999 21.737 20.907 20.144 20.234 19.622 19.357 19.357 19.062 18.684 18.592 18.134 17.377 16.494 15.362 14.207 12.999 11.927 10.664 8.589 6.879 6.087 4.697 3.892 3.703 3.197 3.097 2.99 2.902 2.851 2.783 2.596 2.371 2.197 2.037 1.895 1.748 1.706 1.597 1.424 1.354 1.213 1.158 1.056 1.017 0.891 0.834 0.784 0.634 0.525 0.444 0.303 0.265 0.212 0.246 0.264 0.299 0.343 0.359 0.448 0.473 0.612 0.666 0.811 0.957 1.123 1.309 1.499 1.493 1.494 1.519 1.53 1.53 1.531 1.521 1.536 1.542 1.576 1.632 1.643 1.616 1.594 1.539 1.327 1.342 1.351 1.379 1.634 1.567 1.463 1.447 1.355 1.453 1.224 1.108 1.013 0.886 0.731 0.575 0.395 0.204 0.027 -0.108 -0.331 -0.506 -0.612 -0.773 -0.995 -1.086 -1.15 -1.093 -1.144 -1.12 -1.136 -1.115 -1.194 -1.148 -1.018 -0.94 -0.771 -0.62 -0.433 -0.282 -0.094 0.068 0.254 0.394 0.583 0.783 0.946 1.076 1.268 1.399 1.523 1.418 1.434 1.221 1.151 0.97 0.868 0.743 0.657 0.532 0.371 0.186 0.005 -0.037 -0.254 -0.399 -0.589 -0.718 -0.791 -0.859 -0.964 -1.075 -1.086 -1.109 -1.031 -1.078 -1.074 -1.124 -1.11 -1.107 -1.088 -1.078 -1.004 -1.076 -1.062 -1.11 -1.083 -1.11 -1.055 -1.121 -0.958 -0.872 -0.845 -0.804 -0.711 -0.646 -0.641 -0.66 -0.622 -0.627 -0.668 -0.622 -0.658 -0.748 -0.813 -0.816 -0.978 -1.03 -1.162 -1.124 -1.153 -1.164 -1.21 -1.22 -1.274 -1.256 -1.348 -1.357 -1.339 -1.424 -1.412 -1.424 -1.471 -1.517 -1.495 -1.498 -1.534 -1.544 -1.56 -1.573 -1.542 -1.632 -1.573 -1.607 -1.729 -1.696 -1.722 -1.755 -1.778 -1.712 -1.814 -1.682 -1.49 -1.299 -1.178 -1.036 -0.849 -0.726 -0.515 -0.432 -0.299 -0.205 -0.007 -0.021 0.022 -0.02 -0.037 -0.065 0.182 0.341 0.529 0.694 0.846 0.902 0.882 0.946 0.938 0.788 0.669 0.635 0.441 0.219 -0.212 -0.196 -0.026 0.218 0.431 0.613 0.705 0.694 0.64 0.538 0.482 0.426
45.752 45.772 45.787 45.767 45.754 45.757 45.652 45.534 46.247 46.054 45.124 45.652 50.289 50.842 51.337 50.909 46.584 45.847 45.229 44.864 44.749 44.604 45.539 46.792 46.327 45.997 47.282 49.234 48.532 47.797 45.602 45.879 49.799 54.037 49.147 49.979 48.614 58.912 62.929 65.127 61.554 57.452 48.687 43.952 43.904 43.812 43.864 43.794 43.682 43.592 43.522 43.499 43.497 43.509 45.822 47.709 47.697 46.352 43.574 43.474 43.564 43.227 43.252 43.592 43.974 42.979 42.792 42.784 42.934 42.664 45.939 51.732 51.707 51.284 47.084 41.914 41.842 41.792 41.814 41.919 41.584 41.492 41.419 41.299 41.252 41.162 41.039 40.979 40.864 42.104 40.967 40.657 40.444 40.809 41.207 40.349 39.799 39.799 39.794 39.779 39.794 39.622 39.604 39.449 39.392 39.212 39.037 38.852 39.902 42.879 39.099 38.387 38.222 38.097 37.917 37.754 37.562 37.399 37.237 36.992 36.794 36.677 36.562 36.504 36.334 36.209 35.697 35.422 35.359 35.144 34.939 34.709 34.329 34.002 33.742 33.497 33.302 33.124 32.994 32.804 32.597 32.414 32.307 32.147 31.914 31.759 31.617 31.517 31.424 31.257 31.044 30.854 30.724 30.499 30.297 30.114 29.882 29.702 29.447 29.189 28.889 28.684 28.419 28.104 27.714 27.542 27.564 27.584 27.592 27.597 27.552 27.619 27.407 26.764 26.257 25.799 25.377 25.039 24.782 24.597 24.314 24.049 23.797 23.542 23.324 23.039 23.714 24.767 22.339 22.474 22.214 21.807 21.499 21.932 22.797 22.752 21.044 20.417 20.559 19.732 19.542 19.657 19.202 18.804 18.564 18.184 17.699 16.854 15.819 14.677 13.409 12.274 10.974 9.032 7.614 6.297 4.784 3.929 3.524 3.288 3.167 3 2.92 2.874 2.837 2.622 2.434 2.263 2.045 1.904 1.763 1.666 1.587 1.49 1.349 1.282 1.231 1.172 1.127 0.95 0.86 0.796 0.659 0.531 0.431 0.393 0.342 0.247 0.223 0.328 0.343 0.346 0.344 0.398 0.438 0.593 0.686 0.791 0.958 1.14 1.311 1.492 1.455 1.424 1.487 1.512 1.493 1.501 1.532 1.532 1.545 1.572 1.614 1.646 1.656 1.654 1.379 1.393 1.676 1.609 1.422 1.684 1.555 1.488 1.429 1.405 1.494 1.5 1.214 1.059 0.922 0.755 0.527 0.389 0.201 0.044 -0.17 -0.309 -0.488 -0.611 -0.849 -0.954 -1.172 -1.216 -1.17 -1.184 -1.087 -1.063 -1.187 -1.145 -1.114 -1.171 -0.931 -0.702 -0.695 -0.527 -0.333 -0.164 0.047 0.245 0.356 0.486 0.699 0.847 0.96 1.089 1.282 1.33 1.263 1.455 1.44 1.212 1.112 0.97 0.817 0.713 0.594 0.375 0.204 0.087 -0.084 -0.265 -0.342 -0.418 -0.464 -0.513 -0.748 -0.8 -0.904 -1.043 -1.149 -1.053 -1.13 -1.22 -1.105 -1.131 -1.055 -1.001 -0.99 -1.033 -1.047 -0.964 -0.993 -1.056 -1.066 -1.04 -1.066 -1.098 -1.011 -0.876 -0.847 -0.761 -0.83 -0.801 -0.808 -0.736 -0.778 -0.794 -0.814 -0.836 -0.867 -0.957 -1.023 -1.159 -1.129 -1.161 -1.161 -1.062 -1.217 -1.227 -1.198 -1.282 -1.3 -1.335 -1.312 -1.397 -1.399 -1.417 -1.405 -1.51 -1.567 -1.541 -1.52 -1.351 -1.637 -1.521 -1.565 -1.589 -1.682 -1.567 -1.566 -1.606 -1.685 -1.718 -1.761 -1.773 -1.747 -1.758 -1.786 -1.566 -1.36 -1.249 -1.066 -0.939 -0.789 -0.703 -0.616 -0.448 -0.347 -0.15 -0.25 -0.205 -0.236 -0.261 -0.107 0.045 0.241 0.4 0.55 0.639 0.838 1.032 1.157 1.206 1.031 0.872 0.748 0.511 0.191 -0.069 -0.261 0.009 0.119 0.261 0.383 0.44 0.421 0.513 0.703 0.719 0.606
45.807 45.824 45.812 45.822 45.837 45.794 45.857 46.359 45.572 45.662 45.139 47.024 51.327 51.337 51.354 50.789 46.529 45.052 44.982 44.907 44.807 44.832 45.977 51.894 47.964 44.319 45.282 48.844 51.492 52.959 53.007 49.129 47.849 47.772 45.674 47.994 56.942 57.109 60.154 64.949 67.087 49.759 44.044 44.017 43.964 43.959 43.962 43.884 43.799 43.749 43.697 43.674 43.699 43.917 43.637 46.809 48.367 48.664 44.762 43.429 43.502 43.214 43.629 43.352 43.222 42.919 43.849 43.497 42.702 42.532 47.099 53.687 53.959 50.534 42.099 42.009 41.954 41.819 41.759 41.697 41.692 41.572 41.552 41.997 41.537 41.179 41.372 41.007 40.912 42.079 42.189 41.774 41.522 41.084 40.777 40.367 39.917 39.924 39.934 39.904 39.952 42.527 41.844 46.449 39.449 39.272 39.127 38.972 38.919 40.029 38.474 38.492 38.747 38.907 38.707 37.757 37.629 37.457 37.262 37.047 36.862 36.744 36.579 36.517 36.377 36.264 35.794 35.549 35.434 35.194 34.994 34.764 34.407 34.077 33.802 33.572 33.404 33.114 32.952 32.869 32.764 32.452 32.332 32.112 31.932 31.767 31.649 31.487 31.409 31.314 31.227 30.977 30.707 30.534 30.359 30.132 29.944 29.744 29.514 29.232 28.947 28.739 28.482 28.154 27.732 27.587 27.597 27.617 27.619 27.614 27.584 27.574 27.587 27.137 26.554 26.014 25.519 25.127 24.837 24.634 24.379 24.084 23.822 23.544 23.289 23.032 22.774 23.007 22.554 22.784 22.782 22.792 23.304 21.249 21.682 23.022 21.039 20.464 20.677 19.682 19.452 19.419 19.297 18.822 18.597 18.267 17.824 17.062 15.867 14.862 13.669 12.457 10.989 9.432 8.624 6.687 5.054 4.162 3.597 3.448 3.2 3.041 2.962 2.879 2.821 2.646 2.534 2.322 2.12 1.949 1.789 1.689 1.611 1.487 1.371 1.281 1.208 1.128 1.065 1.004 0.868 0.765 0.655 0.59 0.437 0.377 0.266 0.261 0.2 0.261 0.303 0.332 0.378 0.398 0.568 0.643 0.663 0.781 0.936 1.08 1.217 1.276 1.419 1.407 1.465 1.487 1.463 1.462 1.482 1.496 1.502 1.503 1.6 1.639 1.671 1.65 1.565 1.59 1.646 1.605 1.582 1.532 1.533 1.461 1.431 1.421 1.515 1.651 1.312 1.068 0.901 0.759 0.661 0.381 0.21 0.026 -0.108 -0.367 -0.448 -0.647 -0.817 -0.911 -1.149 -1.119 -1.135 -1.112 -1.136 -1.143 -1.191 -1.091 -1.134 -1.176 -1.083 -0.902 -0.709 -0.528 -0.373 -0.157 -0.019 0.105 0.246 0.389 0.568 0.722 0.823 0.974 1.098 1.143 1.244 1.33 1.333 1.43 1.227 1.065 0.914 0.783 0.571 0.404 0.283 0.077 -0.09 -0.152 -0.167 -0.308 -0.378 -0.5 -0.529 -0.714 -0.836 -0.89 -0.91 -1.078 -1.047 -1.058 -1.116 -1.09 -1.163 -1.045 -1.077 -1.106 -1.074 -1.056 -0.972 -1.077 -1.064 -1.038 -1.081 -1.026 -1.004 -1.115 -1.053 -1.026 -0.951 -0.955 -1.003 -0.931 -0.994 -0.95 -1.001 -0.963 -1.05 -1.146 -1.137 -1.167 -1.171 -1.182 -1.188 -1.174 -1.164 -1.185 -1.173 -1.198 -1.215 -1.274 -1.372 -1.291 -1.3 -1.33 -1.377 -1.436 -1.499 -1.491 -1.523 -1.563 -1.572 -1.513 -1.623 -1.607 -1.613 -1.687 -1.585 -1.565 -1.669 -1.696 -1.717 -1.705 -1.728 -1.732 -1.709 -1.68 -1.475 -1.392 -1.161 -1.101 -0.954 -0.918 -0.764 -0.564 -0.57 -0.318 -0.455 -0.398 -0.453 -0.463 -0.308 -0.088 0.054 0.186 0.442 0.653 0.871 1.102 1.389 1.423 1.157 0.999 0.767 0.582 0.261 -0.017 -0.217 -0.079 -0.079 0.055 0.178 0.418 0.559 0.751 0.897 0.941 0.867
45.902 45.852 45.872 45.882 45.887 45.842 45.722 45.812 46.247 46.102 45.484 46.587 50.807 51.064 51.249 48.859 46.052 45.019 44.997 44.962 44.874 45.939 47.304 48.122 45.264 44.459 50.417 50.369 52.799 50.769 51.199 47.852 45.584 45.209 45.442 45.787 49.124 62.457 66.027 62.317 60.134 53.569 44.169 44.164 44.124 44.044 43.984 43.919 43.867 43.857 43.809 43.824 44.359 47.234 43.657 46.757 47.747 45.767 44.084 43.217 43.174 43.127 43.122 43.019 43.027 42.902 42.819 42.772 42.694 42.569 43.344 43.304 46.704 43.099 42.199 42.074 41.999 41.852 43.557 43.417 41.914 42.134 42.142 42.367 41.864 41.182 41.314 41.154 40.994 41.087 40.974 40.767 40.722 40.642 40.634 40.472 40.367 40.119 40.054 40.027 40.057 43.227 42.399 40.054 39.419 41.324 39.119 38.957 38.794 39.059 38.869 38.717 38.534 38.534 38.802 37.752 37.607 37.464 37.297 37.117 36.972 36.782 36.662 36.614 36.497 36.429 36.099 35.559 35.487 35.267 35.057 34.799 34.487 34.177 33.884 33.627 33.417 33.164 32.974 32.842 32.714 32.522 32.367 32.119 31.942 31.809 31.647 31.474 31.377 31.277 31.287 30.932 30.727 30.502 30.324 30.127 29.969 29.754 29.499 29.237 29.032 28.787 28.549 28.242 27.827 27.594 27.607 27.619 27.599 27.624 27.574 27.567 27.679 27.392 26.724 26.152 25.647 25.252 24.904 24.639 24.389 24.122 23.839 23.539 23.267 23.049 22.739 22.494 22.269 22.172 22.522 22.562 22.369 21.357 22.039 22.697 21.172 20.669 20.629 19.764 19.412 19.632 19.289 18.972 18.679 18.362 17.952 17.102 15.754 14.769 13.814 12.582 10.992 9.587 8.489 6.769 4.987 4.069 3.637 3.66 3.267 3.047 2.949 2.882 2.792 2.695 2.58 2.368 2.165 1.987 1.807 1.717 1.619 1.503 1.401 1.341 1.22 1.181 1.134 1.065 1.022 0.863 0.719 0.612 0.534 0.429 0.307 0.329 0.306 0.23 0.266 0.319 0.443 0.423 0.491 0.581 0.688 0.741 0.889 0.968 1.11 1.276 1.436 1.434 1.48 1.489 1.485 1.437 1.458 1.475 1.488 1.505 1.603 1.633 1.677 1.668 1.616 1.568 1.565 1.545 1.468 1.482 1.533 1.518 1.483 1.413 1.459 1.579 1.342 1.08 0.891 0.744 0.614 0.408 0.255 0.13 -0.068 -0.26 -0.473 -0.618 -0.777 -0.977 -1.096 -1.167 -1.178 -1.08 -1.124 -1.162 -1.184 -1.129 -1.185 -1.088 -1.046 -0.892 -0.733 -0.521 -0.418 -0.201 -0.164 -0.038 0.141 0.271 0.429 0.528 0.69 0.812 0.925 1.034 1.113 1.144 1.252 1.269 1.183 1.045 0.912 0.769 0.551 0.373 0.246 0.053 0.054 0.04 -0.058 -0.169 -0.271 -0.369 -0.408 -0.585 -0.665 -0.756 -0.826 -0.955 -1.044 -1.131 -1.109 -1.101 -1.052 -1.082 -1.116 -1.06 -1.08 -0.947 -1.025 -1.011 -1.065 -0.986 -1.033 -1.106 -1.104 -1.041 -1.121 -1.079 -1.07 -1.077 -1.088 -1.124 -1.073 -1.102 -1.125 -1.126 -1.133 -1.122 -1.146 -1.183 -1.173 -1.189 -1.231 -1.123 -1.106 -1.131 -1.219 -1.228 -1.271 -1.298 -1.307 -1.363 -1.325 -1.322 -1.43 -1.465 -1.479 -1.488 -1.443 -1.468 -1.539 -1.559 -1.539 -1.583 -1.583 -1.571 -1.592 -1.617 -1.615 -1.655 -1.721 -1.778 -1.677 -1.858 -1.825 -1.776 -1.628 -1.457 -1.346 -1.261 -1.121 -0.965 -0.922 -0.826 -0.788 -0.586 -0.665 -0.643 -0.643 -0.53 -0.399 -0.234 -0.053 0.181 0.378 0.603 0.86 1.063 1.2 1.205 1.117 0.915 0.684 0.47 0.263 0.033 -0.306 -0.276 -0.134 0.102 0.274 0.509 0.681 0.878 1.101 1.133 1.022
46.042 45.919 45.972 45.979 46.017 46.209 45.799 45.687 45.839 46.007 46.044 45.412 46.024 46.669 48.002 47.389 45.052 45.217 45.027 44.994 45.529 47.772 48.474 47.242 45.062 47.372 51.254 50.902 49.319 46.649 46.204 46.027 45.737 45.694 45.407 45.442 45.609 45.772 59.519 58.929 52.177 48.879 44.379 44.344 44.309 44.169 44.069 43.989 43.927 43.887 43.897 43.847 44.457 44.587 44.457 43.464 43.347 43.312 43.284 43.234 43.172 43.137 43.074 43.052 43.117 43.007 42.902 42.827 42.677 42.589 42.634 42.609 42.534 42.342 42.144 42.104 42.022 41.999 42.469 42.114 41.882 42.047 41.822 41.747 41.599 41.342 41.242 41.157 41.107 40.994 40.904 40.864 40.757 40.672 44.049 40.552 42.264 40.087 40.039 40.042 40.054 43.357 41.289 44.262 39.719 39.949 39.584 38.952 38.739 38.927 38.494 38.314 38.309 38.457 38.592 37.732 37.609 37.469 37.319 37.124 36.982 36.832 36.697 36.572 36.547 36.512 35.844 35.617 35.549 35.389 35.092 34.839 34.569 34.292 33.947 33.677 33.407 33.272 33.044 32.814 32.664 32.487 32.307 32.117 31.974 31.814 31.679 31.507 31.372 31.247 31.139 30.939 30.759 30.519 30.349 30.134 29.962 29.754 29.557 29.269 29.059 28.812 28.602 28.359 28.039 27.657 27.564 27.569 27.602 27.644 27.619 27.602 27.707 27.422 26.752 26.182 25.682 25.282 24.959 24.682 24.389 24.127 23.849 23.554 23.289 23.032 22.769 22.499 22.409 21.954 22.447 22.249 21.994 21.514 21.392 21.872 21.964 20.392 20.089 19.864 19.509 19.302 19.254 19.179 18.822 18.587 18.052 17.462 16.122 15.044 14.092 12.602 10.797 9.349 8.139 6.792 5.334 4.232 3.679 3.719 3.278 3.099 2.969 2.876 2.812 2.667 2.535 2.406 2.187 2.02 1.843 1.783 1.616 1.512 1.388 1.319 1.225 1.168 1.124 1.019 0.961 0.837 0.783 0.662 0.521 0.466 0.325 0.287 0.289 0.254 0.314 0.303 0.36 0.507 0.504 0.526 0.584 0.695 0.809 0.903 1.066 1.228 1.289 1.474 1.5 1.493 1.518 1.499 1.492 1.497 1.495 1.497 1.558 1.607 1.625 1.611 1.566 1.524 1.523 1.522 1.327 1.489 1.488 1.465 1.463 1.459 1.434 1.489 1.318 1.098 0.915 0.705 0.557 0.424 0.293 0.179 -0.031 -0.246 -0.413 -0.524 -0.788 -0.865 -1.031 -1.149 -1.099 -1.108 -1.107 -1.136 -1.19 -1.15 -1.103 -1.164 -1.079 -0.926 -0.717 -0.664 -0.526 -0.335 -0.223 -0.118 0.026 0.227 0.301 0.418 0.526 0.626 0.749 0.877 0.99 1.012 1.095 1.08 1.019 0.924 0.82 0.705 0.52 0.346 0.284 0.235 0.221 0.2 0.11 0.062 -0.032 -0.178 -0.283 -0.389 -0.491 -0.605 -0.653 -0.774 -0.971 -1.081 -1.118 -1.105 -1.12 -1.078 -1.064 -1.034 -1.056 -1.052 -1.023 -1.003 -1.018 -0.939 -1.049 -1.031 -1.054 -1.063 -1.055 -1.042 -1.05 -1.021 -1.076 -1.108 -1.15 -1.094 -1.108 -1.125 -1.1 -1.089 -1.15 -1.217 -1.182 -1.183 -1.204 -1.011 -1.165 -1.071 -1.171 -1.192 -1.268 -1.189 -1.272 -1.344 -1.328 -1.356 -1.44 -1.454 -1.436 -1.36 -1.437 -1.486 -1.539 -1.576 -1.609 -1.691 -1.594 -1.607 -1.683 -1.69 -1.626 -1.445 -1.742 -1.78 -1.703 -1.786 -1.811 -1.742 -1.802 -1.653 -1.525 -1.409 -1.257 -1.145 -1.008 -1.036 -1.026 -0.929 -0.902 -0.867 -0.827 -0.663 -0.466 -0.29 -0.057 0.108 0.297 0.522 0.775 0.892 0.964 0.98 0.946 0.825 0.592 0.4 0.152 -0.075 -0.276 -0.475 -0.071 0.209 0.41 0.561 0.712 0.936 1.141 1.348 1.12
46.277 45.939 46.042 46.127 46.012 46.069 45.892 45.809 45.629 45.557 45.509 45.554 45.669 45.527 46.252 45.982 45.209 45.254 45.064 45.047 45.499 48.037 47.944 47.404 44.587 48.704 50.254 48.362 47.032 46.282 45.582 45.357 45.257 45.007 44.957 44.937 45.014 44.942 44.827 44.624 44.597 44.582 44.522 44.479 44.394 44.262 44.187 44.072 43.977 43.922 43.922 43.857 43.769 43.652 43.512 43.449 43.442 43.462 43.409 43.382 43.369 43.212 43.129 43.179 43.802 43.224 43.037 42.849 42.794 42.807 42.914 42.754 42.712 42.642 42.262 42.134 42.079 43.574 44.659 43.032 41.769 41.672 41.547 41.554 41.537 41.429 41.359 41.297 41.184 41.084 40.994 40.884 40.787 40.642 40.592 40.482 40.247 40.064 40.134 40.262 41.319 43.154 39.639 38.989 39.004 39.517 39.442 38.532 38.269 38.282 38.252 38.244 38.274 38.277 38.232 37.757 37.599 37.492 37.327 37.127 37.022 36.907 36.802 37.844 36.622 36.827 35.772 35.697 35.637 35.477 35.147 34.877 34.609 34.347 34.019 33.697 33.444 33.257 33.057 32.847 32.662 32.529 32.297 32.139 31.977 31.809 31.644 31.499 31.349 31.212 31.102 30.957 30.779 30.544 30.334 30.112 29.904 29.739 29.539 29.297 29.099 28.817 28.622 28.392 28.197 27.897 27.682 27.584 27.564 27.577 27.614 27.737 27.729 27.439 26.729 26.139 25.647 25.287 24.954 24.704 24.402 24.107 23.834 23.524 23.254 23.007 22.744 22.477 22.389 22.039 22.334 23.149 21.649 21.132 21.014 21.282 21.957 20.612 20.204 19.869 19.672 19.509 19.314 19.444 18.987 18.699 18.109 17.677 16.649 15.274 14.104 12.714 10.897 9.652 8.682 7.337 5.864 4.322 3.697 3.569 3.297 3.108 2.997 2.9 2.82 2.719 2.561 2.444 2.252 2.024 1.907 1.76 1.67 1.53 1.491 1.357 1.264 1.177 1.091 1.033 0.927 0.883 0.781 0.711 0.559 0.492 0.39 0.266 0.252 0.285 0.276 0.233 0.3 0.435 0.479 0.521 0.552 0.657 0.715 0.844 0.964 1.153 1.323 1.499 1.489 1.492 1.481 1.526 1.549 1.534 1.519 1.526 1.553 1.591 1.417 1.56 1.51 1.513 1.519 1.525 1.507 1.472 1.443 1.418 1.442 1.433 1.408 1.433 1.262 1.075 0.907 0.759 0.584 0.459 0.342 0.183 -0.007 -0.155 -0.284 -0.55 -0.685 -0.896 -1.044 -1.156 -1.181 -1.16 -1.204 -1.169 -1.191 -1.201 -1.154 -1.137 -1.194 -1.058 -0.844 -0.766 -0.566 -0.393 -0.322 -0.162 -0.08 0.029 0.225 0.311 0.443 0.477 0.58 0.704 0.75 0.866 0.91 0.895 0.891 0.796 0.723 0.59 0.556 0.505 0.36 0.35 0.397 0.315 0.291 0.226 0.105 -0.044 -0.143 -0.218 -0.388 -0.493 -0.593 -0.697 -0.767 -0.857 -1.01 -1.152 -1.2 -1.052 -1.035 -1.054 -1.049 -0.982 -1.021 -0.958 -1.024 -1.022 -1.044 -1.044 -1.002 -1.067 -1.097 -0.981 -1.046 -1.096 -1.066 -1.113 -1.065 -1.089 -1.027 -1.167 -1.079 -1.187 -1.173 -1.168 -1.204 -1.214 -1.139 -1.157 -1.121 -1.148 -1.205 -1.142 -1.159 -1.195 -1.251 -1.273 -1.36 -1.322 -1.382 -1.395 -1.411 -1.416 -1.413 -1.511 -1.499 -1.546 -1.605 -1.629 -1.635 -1.604 -1.591 -1.663 -1.622 -1.455 -1.794 -1.788 -1.822 -1.724 -1.76 -1.805 -1.796 -1.767 -1.593 -1.456 -1.449 -1.391 -1.246 -1.219 -1.137 -1.113 -1.121 -1.125 -0.965 -0.8 -0.523 -0.334 -0.174 0.048 0.208 0.38 0.56 0.725 0.714 0.791 0.75 0.656 0.471 0.286 0.081 -0.132 -0.195 -0.316 -0.123 0.113 0.353 0.467 0.672 0.863 1.032 1.136 1.024
47.694 46.904 47.162 46.467 46.062 45.949 45.912 45.994 45.757 45.649 45.629 45.644 45.684 46.507 46.064 46.907 47.372 46.319 45.674 45.447 46.052 47.679 46.464 47.207 45.047 48.114 49.084 47.314 46.554 45.729 44.909 44.684 44.662 44.752 44.792 44.729 44.724 44.702 44.694 44.672 44.654 44.634 44.624 44.559 44.439 44.364 44.294 44.172 44.052 43.957 43.922 43.844 43.784 43.614 43.654 43.644 43.637 43.619 43.522 43.524 43.467 43.339 43.252 43.294 43.369 43.307 43.174 42.977 42.952 42.934 43.779 44.184 43.124 42.692 42.482 42.169 42.124 42.984 44.267 42.972 41.862 41.754 41.622 41.577 41.567 41.489 41.874 43.584 41.237 41.147 41.059 40.934 40.849 40.572 40.664 40.597 40.209 40.809 40.617 39.177 38.632 40.087 38.474 38.532 38.464 38.659 38.729 38.262 38.274 38.272 38.239 38.219 38.247 38.297 38.284 38.407 38.839 37.707 37.419 37.274 37.174 37.094 36.994 36.872 36.814 37.102 35.884 35.792 35.702 35.547 35.217 34.882 34.647 34.374 34.059 33.709 33.482 33.234 33.022 32.859 32.662 32.472 32.352 32.189 31.982 31.807 31.644 31.507 31.367 31.252 31.139 30.974 30.782 30.589 30.367 30.209 29.994 29.777 29.557 29.317 29.122 28.849 28.642 28.412 28.199 27.989 27.779 27.707 27.642 27.664 27.712 27.754 27.689 27.254 26.649 26.084 25.622 25.314 24.972 24.702 24.392 24.092 23.782 23.504 23.214 22.967 22.752 22.547 22.349 21.927 22.644 22.002 21.412 21.082 21.169 21.319 21.074 20.857 20.182 19.972 19.594 19.452 19.179 19.534 19.087 18.547 18.152 17.632 16.682 15.457 14.462 13.189 12.009 10.584 9.527 8.009 6.439 4.639 3.757 3.424 3.389 3.139 3.027 2.92 2.827 2.719 2.6 2.438 2.254 2.104 1.907 1.753 1.662 1.557 1.485 1.343 1.264 1.224 1.123 1.058 0.98 0.911 0.793 0.697 0.598 0.562 0.407 0.287 0.299 0.278 0.225 0.238 0.233 0.244 0.355 0.456 0.52 0.525 0.654 0.805 0.984 1.149 1.325 1.502 1.462 1.452 1.449 1.439 1.494 1.517 1.527 1.539 1.544 1.358 1.286 1.357 1.525 1.537 1.368 1.387 1.533 1.459 1.446 1.388 1.432 1.414 1.387 1.22 1.214 1.142 0.987 0.843 0.692 0.524 0.368 0.221 0.041 -0.173 -0.248 -0.553 -0.681 -0.827 -1.006 -1.12 -1.112 -1.168 -1.112 -1.182 -1.122 -1.175 -1.201 -1.105 -1.116 -1.018 -0.955 -0.824 -0.661 -0.566 -0.459 -0.357 -0.191 -0.104 0.081 0.196 0.241 0.331 0.431 0.459 0.578 0.665 0.694 0.699 0.682 0.637 0.731 0.767 0.724 0.662 0.508 0.499 0.565 0.529 0.422 0.302 0.242 0.052 0.038 -0.085 -0.215 -0.352 -0.451 -0.634 -0.738 -0.85 -0.915 -1.08 -1.073 -1.156 -1.048 -1.017 -0.956 -1.048 -1.003 -1.024 -1.065 -1.019 -1.011 -1.051 -1.031 -1.008 -1.092 -1.015 -1.029 -1.097 -0.994 -1.111 -1.126 -1.108 -1.117 -1.15 -1.173 -1.184 -1.166 -1.183 -1.186 -1.165 -1.187 -1.154 -1.231 -1.1 -1.238 -1.235 -1.214 -1.196 -1.232 -1.305 -1.34 -1.248 -1.397 -1.389 -1.188 -1.455 -1.474 -1.475 -1.45 -1.525 -1.596 -1.621 -1.64 -1.554 -1.638 -1.675 -1.688 -1.724 -1.709 -1.782 -1.768 -1.789 -1.67 -1.794 -1.715 -1.806 -1.758 -1.608 -1.612 -1.546 -1.392 -1.434 -1.333 -1.346 -1.351 -1.299 -1.108 -0.877 -0.675 -0.436 -0.228 -0.126 0.054 0.176 0.35 0.47 0.418 0.467 0.435 0.375 0.176 0.131 -0.036 -0.245 -0.256 -0.316 -0.267 -0.04 0.175 0.412 0.623 0.763 0.842 0.95 0.875
48.524 46.317 46.647 46.479 45.999 45.957 45.924 45.864 45.789 45.887 45.814 45.997 46.842 48.887 47.557 46.137 45.892 45.802 46.322 45.984 46.414 46.704 46.167 45.832 45.152 47.117 48.134 47.532 46.889 45.612 44.824 44.772 44.749 44.779 44.782 44.739 44.742 44.769 44.774 44.757 44.757 44.762 44.717 44.649 44.559 44.489 44.404 44.299 44.159 44.044 43.967 43.882 43.807 43.807 43.792 43.779 43.727 43.652 44.062 44.347 43.529 43.424 43.334 43.354 43.919 43.679 43.219 43.034 42.984 43.377 43.089 42.899 42.839 42.754 42.589 42.204 42.169 42.122 42.837 42.602 41.944 41.917 41.749 41.662 41.619 41.604 41.577 42.127 41.192 41.097 40.969 40.879 40.579 40.214 41.189 39.637 39.064 38.639 38.652 38.284 38.332 38.297 38.327 38.289 38.269 38.269 38.282 38.284 38.287 38.272 38.262 38.227 38.239 38.314 39.354 41.382 40.494 40.614 41.122 37.539 37.289 37.139 37.079 36.967 36.864 37.134 36.057 35.869 35.704 35.524 35.242 34.919 34.684 34.389 34.059 33.759 33.527 33.269 33.034 33.262 32.942 32.522 32.354 32.222 32.004 31.789 31.622 31.489 31.367 31.287 31.154 30.972 30.772 30.602 30.359 30.239 30.077 29.804 29.577 29.309 29.162 28.917 28.649 28.402 28.204 27.997 27.789 27.704 27.672 27.654 27.672 27.617 27.432 26.992 26.497 26.022 25.644 25.324 24.987 24.712 24.417 24.077 23.772 23.477 23.209 22.979 22.747 22.559 22.337 21.967 23.897 21.897 21.484 21.524 21.097 21.337 20.729 20.304 20.144 19.979 19.647 19.422 19.319 19.177 18.944 18.862 18.294 17.697 16.854 15.572 14.647 13.579 12.307 10.992 9.699 8.212 6.414 4.834 3.804 3.459 3.658 3.171 3.03 2.918 2.827 2.734 2.604 2.478 2.312 2.155 1.966 1.818 1.688 1.571 1.494 1.358 1.268 1.266 1.146 1.077 1.008 0.93 0.869 0.723 0.695 0.561 0.429 0.409 0.259 0.255 0.216 0.214 0.187 0.186 0.226 0.373 0.452 0.586 0.693 0.849 0.97 1.114 1.236 1.367 1.444 1.436 1.431 1.434 1.46 1.479 1.507 1.347 1.357 1.266 1.12 1.271 1.333 1.548 1.373 1.377 1.545 1.507 1.492 1.439 1.461 1.506 1.43 1.42 1.357 1.16 1.063 0.928 0.798 0.527 0.404 0.219 0.034 -0.15 -0.305 -0.502 -0.66 -0.768 -0.91 -1.179 -1.072 -1.175 -1.182 -1.118 -1.049 -1.174 -1.201 -1.097 -1.055 -1.111 -1.093 -0.925 -0.756 -0.595 -0.494 -0.403 -0.394 -0.271 -0.09 -0.025 0.03 0.144 0.223 0.307 0.403 0.434 0.496 0.459 0.652 0.797 0.838 0.907 0.884 0.79 0.711 0.699 0.684 0.633 0.535 0.357 0.286 0.174 0.13 0.019 -0.073 -0.167 -0.327 -0.443 -0.577 -0.647 -0.786 -0.919 -1.043 -1.002 -1.128 -1.065 -1.06 -1.067 -0.963 -1.081 -0.983 -1.01 -0.967 -0.962 -1.028 -1.036 -1.051 -1.013 -0.991 -1.043 -1.047 -1.069 -1.097 -1.104 -1.14 -1.121 -1.159 -1.165 -1.18 -1.132 -1.181 -1.189 -1.17 -1.165 -1.176 -1.138 -1.166 -1.17 -1.18 -1.23 -1.256 -1.274 -1.066 -1.353 -1.304 -1.379 -1.167 -1.439 -1.478 -1.503 -1.569 -1.525 -1.532 -1.465 -1.598 -1.615 -1.53 -1.653 -1.644 -1.638 -1.627 -1.692 -1.741 -1.73 -1.717 -1.799 -1.749 -1.78 -1.777 -1.805 -1.801 -1.749 -1.659 -1.514 -1.598 -1.568 -1.557 -1.33 -1.183 -0.806 -0.785 -0.581 -0.4 -0.235 -0.131 0.03 0.13 0.194 0.196 0.225 0.22 0.144 0.074 -0.066 -0.193 -0.338 -0.549 -0.494 -0.302 -0.101 0.021 0.314 0.509 0.685 0.673 0.702 0.622
48.419 48.054 48.312 46.747 46.004 45.969 45.927 45.884 45.867 45.869 45.964 46.932 49.177 49.394 49.462 47.977 45.932 45.447 45.384 45.352 45.827 46.544 45.302 44.974 45.532 49.292 49.039 47.492 46.147 45.332 44.864 44.862 44.852 44.849 44.827 44.764 44.809 44.812 44.832 44.844 44.859 44.842 44.782 44.672 44.602 44.587 44.479 44.369 44.264 44.154 44.042 43.922 43.999 44.062 44.052 43.929 43.854 43.727 44.124 44.047 43.589 43.462 43.427 43.444 43.944 43.599 43.254 43.099 43.044 43.592 43.302 42.904 42.869 42.777 42.642 42.269 42.194 42.202 43.784 43.997 43.217 42.314 41.929 41.727 41.629 41.477 41.304 41.107 40.937 40.774 40.607 40.502 40.352 40.197 41.599 39.639 39.122 38.374 38.334 38.304 38.314 38.352 38.287 38.299 38.297 38.284 38.297 38.302 38.297 38.284 38.267 38.237 38.212 38.597 38.814 38.564 38.417 38.967 39.807 37.619 37.339 37.222 37.129 37.052 36.877 36.859 36.164 35.904 35.712 35.562 35.259 34.904 34.664 34.364 33.999 33.749 33.597 33.384 33.049 33.032 32.769 32.554 32.362 32.202 32.059 31.824 31.649 31.537 31.439 31.362 31.177 30.957 30.792 30.602 30.414 30.194 30.017 29.737 29.534 29.354 29.174 28.934 28.649 28.394 28.184 27.997 27.779 27.654 27.602 27.519 27.459 27.367 27.172 26.757 26.314 25.904 25.552 25.319 25.012 24.729 24.409 24.107 23.792 23.512 23.229 22.989 22.772 22.569 22.294 21.897 24.637 22.114 21.519 21.387 20.957 20.682 20.472 20.252 20.174 20.007 19.687 19.399 19.387 19.094 18.887 18.592 18.422 17.809 16.992 15.817 14.772 13.897 12.387 10.859 9.359 7.867 6.794 5.009 3.949 3.554 3.736 3.322 3.064 2.949 2.863 2.794 2.641 2.522 2.378 2.164 1.984 1.839 1.671 1.587 1.502 1.44 1.34 1.245 1.206 1.065 1.014 0.974 0.825 0.839 0.719 0.529 0.479 0.368 0.32 0.213 0.255 0.19 0.245 0.218 0.27 0.428 0.47 0.513 0.666 0.771 0.912 1.002 1.077 1.3 1.466 1.439 1.42 1.442 1.455 1.467 1.491 1.337 1.536 1.363 1.295 1.338 1.513 1.514 1.362 1.376 1.547 1.528 1.508 1.458 1.467 1.525 1.496 1.452 1.229 1.131 1.025 0.898 0.751 0.605 0.377 0.228 0.046 -0.131 -0.273 -0.477 -0.618 -0.872 -0.946 -1.167 -1.129 -1.117 -1.122 -1.12 -1.16 -1.065 -1.128 -1.109 -1.153 -1.075 -1.126 -0.966 -0.904 -0.815 -0.662 -0.586 -0.479 -0.359 -0.26 -0.11 -0.081 -0.038 0.082 0.173 0.232 0.372 0.509 0.623 0.744 0.895 0.994 0.995 0.963 0.855 0.839 0.893 0.877 0.737 0.605 0.517 0.391 0.356 0.287 0.145 0.095 -0.115 -0.179 -0.348 -0.466 -0.555 -0.651 -0.853 -0.98 -1.079 -1.118 -1.118 -0.968 -1.005 -1.025 -0.99 -0.964 -1.026 -1.023 -1.035 -1.04 -1.001 -1.013 -1.096 -1.067 -1.018 -1.101 -1.058 -1.052 -1.059 -1.108 -1.01 -1.123 -1.169 -1.162 -1.103 -1.106 -1.143 -1.182 -1.092 -1.191 -1.216 -1.147 -1.217 -1.181 -1.224 -1.174 -1.317 -1.283 -1.286 -1.335 -1.391 -1.158 -1.225 -1.249 -1.492 -1.513 -1.577 -1.532 -1.588 -1.578 -1.622 -1.64 -1.584 -1.657 -1.649 -1.683 -1.68 -1.733 -1.747 -1.716 -1.638 -1.801 -1.711 -1.785 -1.681 -1.829 -1.839 -1.817 -1.713 -1.772 -1.74 -1.557 -1.408 -1.035 -1.07 -0.91 -0.73 -0.57 -0.398 -0.315 -0.192 -0.084 -0.021 -0.015 -0.002 -0.022 -0.027 -0.109 -0.241 -0.398 -0.569 -0.745 -0.665 -0.401 -0.294 -0.023 0.082 0.377 0.428 0.461 0.444 0.385
47.864 50.989 51.062 51.154 49.117 46.049 46.034 46.179 45.867 46.477 48.904 50.502 51.419 49.599 48.952 48.432 45.672 45.714 45.427 45.372 45.442 48.067 45.294 45.177 46.479 51.137 50.127 49.312 47.647 45.392 44.964 44.962 44.934 44.924 44.894 44.892 44.879 44.882 44.877 44.937 44.944 44.899 44.824 44.764 44.729 44.669 44.539 44.444 44.347 44.224 44.117 44.137 44.219 44.244 44.224 44.057 43.954 43.824 43.814 43.802 43.622 43.574 43.562 43.557 43.999 43.909 43.284 43.184 43.132 43.117 43.139 42.942 42.869 42.814 42.709 42.369 42.247 42.212 42.309 42.854 42.014 41.884 41.824 41.709 41.557 41.379 41.254 41.102 40.939 40.787 40.664 40.527 40.397 40.222 40.752 40.624 39.117 38.499 38.284 38.302 38.282 38.334 38.287 38.289 38.307 38.319 38.317 38.302 38.294 38.289 38.282 38.257 38.247 38.354 38.739 38.659 38.542 38.462 38.937 37.554 37.372 37.262 37.169 37.029 36.909 36.694 36.164 35.919 35.747 35.604 35.364 34.937 34.659 34.357 33.882 33.719 33.659 33.637 33.104 32.844 32.747 32.539 32.314 32.197 32.027 31.847 31.752 31.622 31.472 31.259 31.077 30.927 30.732 30.577 30.389 30.214 29.977 29.742 29.589 29.407 29.212 28.982 28.699 28.404 28.232 28.024 27.794 27.599 27.462 27.334 27.229 27.127 26.932 26.554 26.162 25.817 25.537 25.314 25.052 24.724 24.407 24.114 23.807 23.522 23.289 23.034 22.812 22.589 22.329 21.917 22.217 22.762 23.199 25.504 21.027 21.689 21.904 20.252 20.087 19.874 19.692 19.397 19.232 18.939 18.887 18.707 18.487 17.954 17.114 16.127 14.792 13.754 12.282 23.452 16.374 8.264 7.249 5.399 4.174 3.627 3.552 3.395 3.111 2.987 2.884 2.813 2.667 2.526 2.384 2.21 2.03 1.846 1.735 1.634 1.562 1.454 1.349 1.253 1.256 1.106 1.03 0.967 0.887 0.835 0.714 0.581 0.563 0.351 0.259 0.245 0.198 0.242 0.184 0.218 0.219 0.206 0.41 0.462 0.578 0.711 0.853 0.966 1.032 1.274 1.42 1.408 1.433 1.46 1.466 1.465 1.486 1.517 1.539 1.538 1.35 1.505 1.499 1.511 1.536 1.392 1.569 1.541 1.52 1.479 1.486 1.539 1.52 1.472 1.265 1.203 1.037 0.863 0.721 0.55 0.414 0.186 0.028 -0.142 -0.292 -0.425 -0.591 -0.792 -0.906 -1.1 -1.174 -1.088 -1.18 -1.131 -1.134 -1.114 -1.129 -1.143 -1.114 -1.161 -1.098 -1.149 -1.027 -0.889 -0.795 -0.617 -0.516 -0.497 -0.4 -0.253 -0.185 -0.172 -0.044 0.119 0.318 0.455 0.608 0.787 0.911 1.026 1.141 1.182 1.107 1.008 1.037 1.048 0.997 0.855 0.749 0.653 0.583 0.557 0.407 0.291 0.171 0.03 -0.091 -0.243 -0.33 -0.443 -0.574 -0.664 -0.865 -1.016 -1.119 -1.087 -1.025 -0.961 -1.04 -1.002 -0.982 -0.965 -1.024 -0.942 -0.996 -1.036 -1.041 -1.023 -1.028 -1.091 -1.127 -1.058 -1.049 -1.077 -1.105 -1.06 -1.091 -1.124 -1.098 -1.106 -1.172 -1.195 -1.207 -1.129 -1.184 -1.208 -1.155 -1.264 -1.199 -0.994 -1.222 -1.234 -1.316 -1.291 -1.265 -1.327 -1.372 -1.391 -1.483 -1.45 -1.467 -1.437 -1.49 -1.591 -1.574 -1.582 -1.61 -1.592 -1.617 -1.662 -1.689 -1.699 -1.689 -1.718 -1.674 -1.721 -1.792 -1.514 -1.481 -1.528 -1.786 -1.818 -1.814 -1.849 -1.869 -1.74 -1.644 -1.473 -1.17 -0.988 -0.997 -0.829 -0.666 -0.61 -0.488 -0.382 -0.3 -0.233 -0.238 -0.259 -0.21 -0.337 -0.283 -0.465 -0.584 -0.752 -0.921 -0.734 -0.602 -0.377 -0.203 -0.106 0.087 0.158 0.201 0.244 0.207
48.204 51.852 52.334 52.214 52.042 50.632 45.967 45.974 46.307 50.357 51.644 51.847 52.264 50.897 48.182 45.742 45.587 45.559 45.747 45.624 45.762 46.279 45.257 45.329 46.642 48.534 48.049 50.069 51.904 46.494 45.087 45.069 45.032 45.022 45.009 44.992 44.969 44.982 44.984 45.014 45.019 45.087 44.909 44.829 44.829 44.697 44.604 44.499 44.377 44.264 44.242 44.322 44.334 44.232 44.159 44.074 46.964 48.279 46.164 44.547 43.892 43.654 43.622 43.682 44.087 43.954 43.339 43.307 43.179 43.287 43.759 43.077 42.919 42.824 42.704 42.404 42.287 42.237 42.094 42.277 41.987 41.869 41.837 41.734 41.729 41.822 41.844 42.157 42.097 42.082 42.104 41.689 41.582 41.314 40.544 40.914 39.109 38.704 38.287 38.267 38.257 38.349 38.322 38.289 38.292 38.312 38.307 38.299 38.319 38.309 38.282 38.267 38.272 38.329 38.519 38.619 38.419 38.517 40.112 37.547 37.377 37.262 37.194 37.054 36.922 36.752 36.132 35.882 35.719 35.584 35.387 35.054 34.732 34.327 33.907 33.687 33.577 33.372 33.059 32.872 32.797 32.557 32.367 32.172 32.039 31.882 31.732 31.572 31.419 31.257 31.104 30.952 30.782 30.574 30.357 30.149 29.927 29.749 29.567 29.427 29.209 28.979 28.727 28.432 28.219 28.007 27.789 27.612 27.409 27.239 27.067 26.942 26.777 26.424 26.137 25.824 25.549 25.292 25.062 24.739 24.392 24.114 23.832 23.522 23.289 23.039 22.804 22.617 22.332 22.094 22.144 22.142 23.302 21.192 21.082 29.924 29.294 23.959 20.097 19.862 19.647 19.429 19.437 23.309 18.829 18.717 18.502 17.902 17.037 16.104 15.064 13.959 12.477 24.462 23.432 18.584 7.509 5.804 4.347 3.722 3.394 3.464 3.13 3.002 2.893 2.828 2.711 2.533 2.406 2.232 2.044 1.869 1.763 1.64 1.589 1.397 1.357 1.302 1.175 1.119 1.054 1.001 0.907 0.824 0.71 0.604 0.539 0.421 0.291 0.203 0.184 0.185 0.195 0.176 0.231 0.204 0.236 0.391 0.542 0.656 0.816 0.932 1.059 1.245 1.231 1.373 1.466 1.509 1.482 1.46 1.466 1.492 1.541 1.524 1.328 1.508 1.492 1.487 1.503 1.549 1.395 1.532 1.498 1.462 1.445 1.472 1.479 1.473 1.481 1.311 1.059 0.834 0.706 0.56 0.389 0.183 0.029 -0.153 -0.303 -0.46 -0.604 -0.795 -0.929 -1.086 -1.138 -1.086 -1.11 -1.106 -1.069 -1.099 -1.067 -1.183 -1.071 -1.154 -1.191 -1.119 -1.161 -1.004 -0.79 -0.789 -0.655 -0.6 -0.515 -0.488 -0.377 -0.161 0.013 0.145 0.366 0.513 0.694 0.871 1.034 1.182 1.253 1.454 1.254 1.246 1.234 1.148 1.097 1.032 0.892 0.829 0.79 0.664 0.565 0.407 0.295 0.165 0.076 -0.05 -0.153 -0.246 -0.386 -0.546 -0.725 -0.939 -1.044 -1.054 -1.025 -1.036 -0.998 -0.939 -0.933 -0.988 -0.993 -0.986 -0.983 -0.971 -0.92 -0.985 -1.027 -1.02 -1.016 -1.075 -1.102 -1.07 -1.118 -1.158 -1.099 -1.099 -1.115 -1.155 -1.157 -1.195 -1.19 -1.144 -1.25 -1.21 -1.219 -1.246 -1.179 -0.955 -1.198 -1.279 -1.236 -1.295 -1.269 -1.345 -1.387 -1.416 -1.365 -1.394 -1.414 -1.406 -1.554 -1.516 -1.57 -1.55 -1.588 -1.596 -1.608 -1.609 -1.632 -1.703 -1.742 -1.655 -1.767 -1.73 -1.725 -1.587 -1.696 -1.728 -1.521 -1.502 -1.798 -1.721 -1.794 -1.814 -1.79 -1.599 -1.221 -1.074 -1.03 -0.955 -0.807 -0.794 -0.676 -0.558 -0.469 -0.423 -0.44 -0.445 -0.47 -0.459 -0.56 -0.717 -0.804 -0.823 -1.043 -0.914 -0.724 -0.53 -0.347 -0.201 -0.117 -0.079 0.017 0.045 0.026
48.562 52.309 52.722 52.767 52.689 51.437 46.197 46.509 50.687 52.104 52.139 52.247 51.997 50.999 46.117 46.259 45.684 46.607 45.599 45.652 47.102 45.597 45.304 47.069 49.904 48.929 47.159 48.112 46.917 45.344 45.192 45.172 45.132 45.117 45.109 45.052 45.042 45.069 45.044 45.037 45.034 45.019 44.974 44.899 44.879 44.787 44.694 44.512 44.457 44.504 44.434 44.387 44.362 44.259 44.179 44.124 46.054 54.604 65.004 55.489 48.442 48.819 43.692 43.624 43.907 43.737 43.387 43.294 43.184 43.124 43.959 43.314 42.964 43.187 42.799 42.469 42.339 42.472 42.197 43.329 43.869 45.249 44.212 41.892 42.372 42.132 41.882 41.722 41.434 40.919 40.579 40.442 40.292 40.214 40.012 39.664 39.102 38.839 38.314 38.294 38.289 38.337 38.287 38.274 38.289 38.307 38.287 38.302 38.324 38.312 38.314 38.289 38.262 38.319 38.372 38.564 38.377 38.439 39.519 38.769 37.802 37.277 37.189 37.067 36.999 36.907 36.144 35.854 35.677 35.497 35.362 35.099 34.817 34.372 33.962 33.637 33.429 33.237 32.999 32.894 32.792 32.709 32.387 32.187 32.024 31.814 31.672 31.517 31.394 31.287 31.154 31.029 30.812 30.604 30.357 30.162 29.942 29.779 29.564 29.374 29.174 29.014 28.724 28.424 28.202 27.977 27.812 27.602 27.404 27.197 27.009 26.867 26.734 26.422 26.067 25.832 25.539 25.257 25.032 24.777 24.409 24.119 23.859 23.537 23.309 23.059 22.829 22.647 22.387 22.109 22.029 22.259 21.559 23.924 22.379 28.964 33.377 26.104 20.302 20.257 19.962 19.624 20.007 22.634 18.727 18.674 18.459 17.899 17.109 16.179 17.892 14.339 17.094 28.449 22.159 21.354 11.839 5.727 5.082 3.949 3.497 3.517 3.11 3.008 2.902 2.849 2.753 2.611 2.42 2.276 2.064 1.909 1.803 1.662 1.596 1.451 1.377 1.317 1.224 1.173 1.061 1.041 0.904 0.835 0.789 0.661 0.539 0.404 0.308 0.315 0.233 0.222 0.182 0.18 0.192 0.187 0.225 0.295 0.455 0.598 0.719 0.839 0.944 1.11 1.237 1.427 1.495 1.532 1.469 1.437 1.451 1.456 1.462 1.508 1.543 1.524 1.484 1.485 1.445 1.512 1.384 1.529 1.498 1.448 1.425 1.432 1.297 1.462 1.442 1.262 1.061 0.831 0.708 0.586 0.451 0.233 0.008 -0.19 -0.347 -0.457 -0.59 -0.744 -0.975 -1.15 -1.047 -1.059 -1.176 -1.072 -1.123 -1.199 -1.147 -1.151 -1.156 -1.081 -1.116 -1.115 -1.147 -1.108 -0.99 -0.899 -0.858 -0.717 -0.627 -0.443 -0.232 -0.18 0.033 0.226 0.408 0.535 0.701 0.876 1.09 1.247 1.442 1.468 1.474 1.486 1.461 1.245 1.232 1.145 1.058 0.998 0.931 0.801 0.656 0.489 0.376 0.258 0.171 0.017 -0.095 -0.17 -0.349 -0.562 -0.629 -0.889 -1.048 -1.136 -1.11 -1.018 -1.065 -1.029 -1.019 -0.939 -0.985 -0.947 -0.941 -0.912 -1.056 -1.014 -1.024 -1 -0.948 -1.051 -0.99 -1.063 -1.134 -1.02 -1.118 -1.162 -1.108 -1.154 -1.162 -1.162 -1.176 -1.168 -1.209 -1.235 -1.128 -1.302 -1.131 -1.214 -1.247 -1.268 -1.257 -1.303 -1.343 -1.349 -1.356 -1.35 -1.37 -1.461 -1.471 -1.525 -1.455 -1.44 -1.57 -1.544 -1.528 -1.567 -1.572 -1.609 -1.647 -1.645 -1.423 -1.646 -1.651 -1.681 -1.749 -1.839 -1.751 -1.674 -1.654 -1.767 -1.807 -1.504 -1.572 -1.782 -1.858 -1.69 -1.576 -1.452 -1.243 -1.086 -1.087 -0.928 -0.756 -0.702 -0.664 -0.679 -0.601 -0.667 -0.714 -0.71 -0.752 -0.898 -1.068 -1.156 -1.284 -0.833 -0.901 -0.716 -0.603 -0.464 -0.345 -0.228 -0.204 -0.229 -0.098
47.794 51.627 52.082 52.242 52.414 47.439 46.207 47.617 47.997 51.289 52.324 51.964 51.484 47.374 45.914 46.409 45.927 46.752 46.052 46.269 47.774 45.597 45.532 49.729 49.657 48.884 47.714 45.729 45.267 45.244 45.244 45.247 45.229 45.177 45.157 45.107 45.069 45.074 45.099 45.092 45.062 45.027 45.037 45.009 44.939 44.822 44.704 44.594 44.564 44.579 44.542 44.462 44.369 44.327 44.252 45.984 46.039 54.044 57.062 62.314 56.794 57.194 49.399 43.677 43.782 43.599 43.424 43.404 43.272 43.202 43.269 43.667 43.489 44.534 44.379 42.644 42.382 42.792 42.287 46.817 49.047 49.377 47.589 42.274 41.637 41.492 41.297 41.122 41.227 40.927 40.664 40.677 40.397 40.319 40.104 39.694 39.102 38.847 38.287 38.359 38.344 38.297 38.302 38.267 38.262 38.289 38.297 38.284 38.302 38.314 38.299 38.297 38.299 38.559 38.722 38.387 38.624 38.504 38.739 38.404 37.644 37.279 37.222 37.147 37.147 36.907 36.119 35.817 35.664 35.477 35.334 35.074 34.799 34.397 33.949 33.637 33.412 33.177 33.002 32.879 32.752 32.527 32.342 32.117 31.967 31.779 31.669 31.572 31.444 31.294 31.117 31.012 30.839 30.587 30.369 30.114 29.934 29.782 29.552 29.464 29.302 28.989 28.777 28.412 28.177 27.977 27.829 27.594 27.389 27.187 27.007 26.824 26.662 26.452 26.094 25.822 25.552 25.277 25.024 24.807 24.417 24.072 23.847 23.539 23.274 23.059 22.832 22.652 22.364 22.084 21.909 24.907 21.519 21.437 22.229 25.087 28.172 24.054 20.429 20.174 19.992 19.932 19.514 20.127 21.564 18.704 18.367 18.152 17.249 16.302 15.374 14.397 13.169 18.729 28.144 22.602 11.944 5.589 4.807 4.339 3.519 3.63 3.159 3.008 2.939 2.845 2.785 2.677 2.474 2.301 2.128 1.953 1.782 1.717 1.593 1.515 1.408 1.303 1.276 1.193 1.085 1.022 0.974 0.858 0.788 0.677 0.55 0.448 0.37 0.278 0.189 0.214 0.198 0.147 0.22 0.176 0.259 0.263 0.367 0.562 0.625 0.742 0.857 1.029 1.217 1.407 1.485 1.517 1.452 1.422 1.468 1.446 1.289 1.31 1.361 1.32 1.304 1.35 1.509 1.301 1.336 1.508 1.47 1.266 1.259 1.257 1.278 1.323 1.283 1.22 1.047 0.837 0.7 0.576 0.447 0.25 -0.019 -0.19 -0.33 -0.477 -0.569 -0.754 -0.969 -1.091 -1.103 -1.133 -1.149 -1.116 -1.131 -1.109 -1.087 -1.19 -1.089 -1.157 -1.12 -1.142 -1.099 -1.186 -1.141 -1.137 -0.912 -0.63 -0.552 -0.36 -0.239 -0.11 0.108 0.274 0.444 0.495 0.722 0.911 1.115 1.239 1.324 1.553 1.561 1.488 1.471 1.492 1.364 1.311 1.228 1.171 1.07 0.91 0.784 0.654 0.534 0.402 0.277 0.163 0.067 -0.047 -0.285 -0.369 -0.555 -0.743 -0.92 -1.028 -1.151 -1.094 -1.012 -0.981 -0.963 -1.021 -0.931 -0.911 -0.976 -0.925 -0.938 -0.974 -1.017 -1.016 -1.033 -1.07 -1.046 -0.978 -1.128 -1.05 -1.071 -1.109 -1.066 -1.132 -1.168 -1.144 -1.208 -1.209 -1.187 -1.163 -1.197 -1.183 -1.249 -1.217 -1.314 -1.262 -1.243 -1.308 -1.265 -1.284 -1.352 -1.347 -1.41 -1.42 -1.411 -1.446 -1.512 -1.48 -1.591 -1.514 -1.467 -1.582 -1.567 -1.629 -1.649 -1.669 -1.466 -1.372 -1.756 -1.706 -1.782 -1.751 -1.743 -1.758 -1.769 -1.81 -1.833 -1.808 -1.86 -1.796 -1.868 -1.848 -1.705 -1.5 -1.379 -1.322 -1.246 -1.066 -0.953 -0.942 -0.883 -0.883 -0.872 -0.853 -0.747 -0.912 -0.961 -1.114 -1.269 -1.466 -1.183 -1.264 -1.083 -1.008 -0.748 -0.542 -0.436 -0.351 -0.07 -0.157 0.008
47.617 47.782 48.879 51.084 50.204 47.052 48.662 47.374 46.027 48.707 51.604 51.459 49.109 45.962 45.942 45.812 45.814 46.132 47.954 47.602 46.392 45.519 45.629 46.947 47.057 47.504 47.244 45.602 45.379 45.349 45.289 45.344 45.309 45.262 45.232 45.174 45.139 45.142 45.169 45.144 45.097 45.049 45.114 45.079 44.989 44.847 44.727 44.684 44.787 44.717 44.632 44.472 44.439 44.389 44.329 44.249 48.172 50.607 53.547 60.897 58.574 61.382 52.324 43.749 43.957 44.292 43.569 43.924 43.462 43.232 43.632 50.117 52.087 44.294 44.789 42.714 42.424 42.657 42.352 45.992 48.694 49.539 47.847 42.787 41.697 41.867 41.667 41.439 41.212 41.057 40.897 40.832 40.652 40.432 40.149 39.839 39.132 38.889 38.304 38.337 38.287 38.247 38.272 38.272 38.257 38.279 38.272 38.277 38.289 38.314 38.312 38.304 38.299 40.152 39.799 39.079 39.344 40.409 40.199 38.442 37.374 37.289 37.222 37.089 37.022 36.847 36.344 35.854 35.672 35.499 35.307 34.999 34.737 34.399 33.962 33.657 33.422 33.199 33.029 32.849 32.619 32.409 32.262 32.132 31.992 31.852 31.722 31.552 31.424 31.359 31.149 31.029 30.827 30.552 30.332 30.107 29.924 29.767 29.512 29.349 29.112 28.979 28.742 28.412 28.179 27.994 27.839 27.572 27.374 27.167 26.987 26.829 26.717 26.487 26.127 25.814 25.504 25.232 25.004 24.824 24.437 24.079 23.837 23.527 23.249 23.034 22.819 22.649 22.389 22.092 21.857 22.222 21.737 21.272 21.022 20.757 20.539 20.674 20.517 20.359 20.054 19.822 19.487 20.827 18.912 18.647 18.579 18.167 17.494 16.442 15.522 14.297 13.147 11.762 30.072 29.297 15.449 5.334 4.844 4.252 3.597 3.622 3.474 3.031 2.958 2.859 2.814 2.739 2.543 2.338 2.184 2.011 1.825 1.705 1.633 1.499 1.438 1.318 1.211 1.244 1.115 0.962 0.985 0.936 0.8 0.669 0.574 0.488 0.415 0.311 0.155 0.191 0.149 0.168 0.204 0.286 0.23 0.268 0.359 0.496 0.578 0.72 0.856 1.029 1.155 1.223 1.461 1.483 1.399 1.297 1.496 1.47 1.434 1.508 1.135 1.046 1.06 1.156 1.553 1.286 1.31 1.32 1.382 1.413 1.428 1.247 1.135 1.136 1.115 1.09 0.957 0.79 0.647 0.522 0.33 0.173 0.019 -0.14 -0.367 -0.499 -0.657 -0.781 -0.923 -1.137 -1.13 -1.144 -1.112 -1.059 -1.184 -1.011 -1.24 -1.191 -1.144 -1.145 -1.182 -1.066 -1.171 -1.19 -1.048 -0.895 -0.833 -0.696 -0.44 -0.283 -0.149 -0.03 0.2 0.376 0.536 0.66 0.798 0.99 1.141 1.157 1.333 1.545 1.515 1.422 1.475 1.548 1.604 1.337 1.364 1.307 1.175 0.959 0.916 0.78 0.632 0.467 0.375 0.337 0.166 0.044 -0.187 -0.353 -0.515 -0.628 -0.853 -1.018 -1.063 -1.128 -1.025 -0.96 -0.925 -0.908 -0.948 -0.95 -0.984 -0.955 -0.998 -0.983 -0.943 -0.959 -1.042 -1.083 -1.075 -1.108 -1.053 -1.029 -1.144 -1.188 -1.146 -1.13 -1.148 -1.102 -1.201 -1.119 -1.225 -1.255 -1.202 -1.214 -1.226 -1.147 -1.251 -1.314 -1.314 -1.328 -1.339 -1.347 -1.359 -1.407 -1.429 -1.448 -1.437 -1.493 -1.462 -1.408 -1.452 -1.553 -1.56 -1.553 -1.572 -1.591 -1.608 -1.647 -1.671 -1.698 -1.661 -1.729 -1.757 -1.77 -1.816 -1.765 -1.768 -1.801 -1.753 -1.797 -1.935 -1.859 -1.898 -1.843 -1.799 -1.658 -1.57 -1.263 -1.351 -1.295 -1.193 -0.928 -0.868 -1.087 -1.103 -1.13 -0.911 -1.151 -1.203 -1.306 -1.124 -1.553 -1.553 -1.307 -1.187 -1.096 -0.735 -0.443 -0.268 -0.081 0.087 0.233 0.272
46.499 46.007 46.314 46.229 46.394 47.452 49.052 47.052 46.477 46.187 48.562 49.614 48.989 46.159 45.889 45.884 45.879 46.324 47.454 47.579 45.849 45.529 46.409 48.992 47.162 46.837 46.217 45.502 45.494 45.444 45.397 45.427 45.382 45.357 45.314 45.287 45.239 45.242 45.249 45.212 45.167 45.092 45.139 45.147 45.032 44.884 44.779 44.742 44.867 44.862 44.722 44.609 44.624 44.752 44.397 44.342 48.104 54.889 55.017 58.022 61.717 54.532 51.872 44.124 43.762 44.297 44.059 43.529 43.927 43.299 43.257 48.982 44.974 43.072 42.872 42.609 42.509 42.462 42.409 45.077 48.322 49.729 48.177 43.139 41.787 41.619 41.427 41.322 41.264 41.037 40.982 40.759 40.749 40.519 40.254 39.829 39.269 38.969 38.332 38.329 38.299 38.227 38.307 38.269 38.284 38.299 38.252 38.247 38.277 38.299 38.289 38.304 38.319 40.429 40.192 41.324 41.272 41.502 38.482 37.462 37.364 37.304 37.242 37.047 36.922 36.569 36.059 36.014 35.647 35.469 35.234 34.917 34.637 34.322 33.964 33.659 33.409 33.159 32.959 32.784 32.612 32.409 32.297 32.124 31.972 31.829 31.687 31.564 31.432 31.277 31.119 30.999 30.787 30.577 30.332 30.089 29.889 29.749 29.517 29.312 29.132 28.909 28.687 28.419 28.162 28.027 27.857 27.567 27.349 27.149 26.957 26.817 26.724 26.362 25.659 25.527 25.462 25.174 24.974 24.779 24.389 24.079 23.814 23.517 23.257 23.004 22.787 22.614 22.417 22.099 21.769 21.914 22.594 21.489 21.092 20.702 20.624 20.692 20.489 20.302 20.167 19.729 19.414 20.419 18.847 18.527 18.524 18.079 17.292 16.502 15.504 14.244 13.162 18.397 20.437 20.669 10.637 5.352 4.889 4.292 3.664 3.529 3.542 3.017 2.929 2.858 2.807 2.784 2.631 2.418 2.186 2.016 1.854 1.742 1.642 1.56 1.426 1.337 1.285 1.244 1.126 1.049 0.995 0.875 0.805 0.714 0.602 0.451 0.454 0.343 0.232 0.219 0.178 0.156 0.116 0.238 0.234 0.245 0.328 0.429 0.527 0.687 0.863 0.981 1.096 1.294 1.441 1.343 1.225 1.152 1.512 1.491 1.484 1.541 1.582 1.499 1.462 1.439 1.474 1.249 0.88 1.141 1.236 1.275 1.237 1.17 1.079 0.92 0.961 0.915 0.801 0.699 0.556 0.441 0.239 0.107 -0.014 -0.221 -0.343 -0.499 -0.682 -0.832 -0.997 -1.145 -1.144 -1.131 -1.118 -1.064 -1.118 -1.133 -1.129 -1.163 -1.078 -1.146 -1.138 -1.15 -1.2 -1.129 -1.183 -0.971 -0.849 -0.683 -0.502 -0.246 -0.138 0.022 0.225 0.393 0.55 0.731 0.89 1.039 1.213 1.298 1.282 1.465 1.44 1.38 1.517 1.655 1.556 1.546 1.556 1.388 1.196 1.1 1.012 0.863 0.772 0.619 0.496 0.388 0.234 0.071 -0.145 -0.332 -0.411 -0.574 -0.733 -0.906 -1.114 -1.146 -1.12 -0.983 -0.989 -0.926 -0.855 -0.913 -0.929 -0.969 -0.975 -0.948 -0.908 -1.027 -0.994 -1.029 -1.027 -1.08 -1.058 -1.024 -1.155 -1.102 -1.117 -1.126 -1.143 -1.188 -1.179 -1.172 -1.131 -1.154 -1.158 -1.262 -1.273 -1.189 -1.3 -1.224 -1.277 -1.334 -1.336 -1.378 -1.334 -1.052 -1.437 -1.384 -1.488 -1.441 -1.424 -1.487 -1.501 -1.505 -1.501 -1.499 -1.614 -1.621 -1.602 -1.572 -1.531 -1.664 -1.694 -1.617 -1.808 -1.761 -1.726 -1.775 -1.802 -1.752 -1.801 -1.769 -1.547 -2.03 -2.031 -1.865 -1.836 -1.891 -1.836 -1.659 -1.551 -1.481 -1.426 -1.298 -1.332 -1.244 -1.323 -1.251 -1.364 -1.343 -1.349 -1.497 -1.37 -1.66 -1.654 -1.494 -1.096 -0.825 -0.51 -0.48 -0.326 -0.113 0.09 0.303 0.507
46.062 46.054 46.062 46.087 46.069 47.832 48.154 46.459 45.987 45.934 45.992 46.702 47.029 46.002 45.944 45.939 45.892 45.849 46.829 46.454 45.849 47.547 49.739 48.572 47.397 46.442 45.579 45.572 45.557 45.512 45.547 45.519 45.464 45.452 45.404 45.372 45.317 45.312 45.312 45.342 45.324 45.214 45.169 45.149 45.062 44.952 44.854 44.914 45.007 45.139 44.759 44.709 44.864 45.467 44.597 44.414 44.299 45.954 57.612 58.812 65.362 57.027 53.552 44.732 43.824 44.302 44.009 43.864 43.827 43.419 43.279 44.149 43.262 43.064 42.879 42.659 42.582 42.504 42.434 44.149 47.882 49.742 48.639 44.214 41.777 41.644 41.522 41.312 41.307 40.949 40.739 40.599 40.452 40.297 40.197 39.949 39.487 39.077 38.624 38.407 38.317 38.324 38.304 38.267 38.259 38.289 38.277 38.239 38.247 38.299 38.284 38.299 38.394 38.912 40.477 41.972 41.954 41.022 38.464 37.432 37.344 37.297 37.204 37.029 36.837 36.257 35.944 35.764 35.579 35.364 35.142 34.819 34.542 34.249 33.894 33.584 33.352 33.077 32.869 32.747 32.669 32.554 32.309 32.107 31.882 31.754 31.627 31.494 31.382 31.294 31.102 30.954 30.764 30.537 30.279 30.062 29.872 29.682 29.519 29.319 29.112 28.887 28.604 28.402 28.202 28.022 27.832 27.534 27.309 27.114 26.884 26.737 26.629 26.124 25.534 25.559 25.379 25.102 24.917 24.722 24.444 24.089 23.799 23.527 23.247 23.019 22.774 22.587 22.384 22.107 21.777 21.967 21.809 21.222 20.954 20.912 20.727 20.459 20.299 20.074 19.839 19.602 19.372 19.012 18.837 18.597 18.439 17.939 17.197 16.304 15.409 14.189 13.182 12.064 10.877 9.762 7.489 5.222 4.987 4.569 3.782 3.492 3.645 3.017 2.933 2.86 2.801 2.747 2.632 2.456 2.243 2.062 1.91 1.747 1.66 1.578 1.498 1.361 1.319 1.26 1.105 1.032 0.993 0.925 0.905 0.78 0.647 0.502 0.435 0.349 0.241 0.211 0.168 0.107 0.152 0.119 0.162 0.22 0.304 0.344 0.494 0.618 0.815 1.005 1.18 1.28 1.23 1.12 1.044 1.459 1.482 1.487 1.494 1.535 1.562 1.497 1.459 1.301 1.341 1.466 0.855 0.964 1.096 1.156 1.255 1.094 0.919 0.811 0.816 0.777 0.704 0.597 0.51 0.35 0.203 0.016 -0.079 -0.256 -0.437 -0.606 -0.663 -0.954 -1.042 -1.107 -1.058 -1.193 -1.057 -1.078 -1.101 -1.129 -1.142 -1.073 -1.137 -1.175 -1.138 -1.168 -1.191 -1.196 -1.191 -1.028 -0.813 -0.672 -0.462 -0.382 -0.201 -0.004 0.198 0.391 0.587 0.724 0.891 1.031 1.247 1.457 1.446 1.429 1.424 1.46 1.529 1.559 1.453 1.476 1.512 1.364 1.345 1.233 1.074 0.988 0.853 0.679 0.573 0.416 0.277 0.124 -0.029 -0.234 -0.301 -0.473 -0.637 -0.781 -1.082 -1.076 -1.064 -0.983 -1.028 -0.969 -0.839 -0.986 -0.962 -0.981 -0.947 -0.977 -0.936 -0.998 -0.976 -1.087 -1.046 -1.085 -1.072 -1.13 -1.057 -1.169 -1.114 -1.121 -1.171 -1.164 -1.108 -1.169 -1.204 -1.166 -1.293 -1.188 -1.196 -1.252 -1.295 -1.258 -1.24 -1.387 -1.314 -1.353 -1.324 -1.069 -1.37 -1.401 -1.438 -1.477 -1.463 -1.367 -1.498 -1.498 -1.516 -1.563 -1.616 -1.614 -1.589 -1.593 -1.576 -1.597 -1.577 -1.705 -1.666 -1.674 -1.753 -1.73 -1.777 -1.84 -1.772 -1.773 -1.533 -1.729 -1.769 -1.832 -1.847 -1.878 -1.95 -1.823 -1.524 -1.653 -1.543 -1.537 -1.578 -1.565 -1.491 -1.538 -1.596 -1.602 -1.669 -1.787 -1.829 -1.683 -1.395 -1.222 -0.899 -0.796 -0.586 -0.486 -0.272 -0.051 0.225 0.405 0.739
46.059 46.089 46.062 46.052 46.117 46.862 48.514 46.294 47.162 46.037 45.992 46.009 45.992 46.312 46.134 46.007 45.952 45.919 45.979 46.142 45.802 48.217 54.107 47.969 46.919 46.939 45.629 45.607 45.569 45.577 45.592 45.569 45.517 45.492 45.462 45.414 45.392 45.369 45.377 45.459 45.452 45.379 45.204 45.157 45.119 45.049 45.007 45.167 44.879 44.907 44.759 44.729 44.712 44.642 44.527 44.459 44.372 44.327 51.457 49.032 57.972 55.767 46.172 44.044 43.862 44.054 44.227 44.554 44.244 43.512 43.352 43.294 43.247 43.107 42.934 42.759 42.664 42.564 42.504 42.904 47.529 49.654 48.942 44.977 41.809 41.729 41.424 41.269 41.119 40.934 40.719 40.617 40.419 40.462 40.182 40.207 42.007 39.519 39.157 38.864 38.377 38.334 38.329 38.252 38.267 38.269 38.257 38.269 38.279 38.267 38.284 38.294 38.799 38.347 40.239 41.764 41.827 40.214 37.599 37.449 37.347 37.279 37.187 36.974 36.862 36.142 35.807 35.634 35.447 35.229 35.044 34.759 34.462 34.159 33.852 33.559 33.314 33.007 32.789 32.682 32.574 32.397 32.254 32.097 31.827 31.697 31.524 31.442 31.294 31.209 31.034 30.877 30.752 30.484 30.282 30.029 29.857 29.697 29.514 29.282 29.059 28.787 28.614 28.402 28.152 28.014 27.787 27.522 27.307 27.097 26.862 26.712 26.512 26.144 25.797 25.607 25.327 25.079 24.857 24.677 24.474 24.074 23.794 23.509 23.247 23.024 22.819 22.589 22.369 22.092 21.662 21.707 21.764 21.682 21.092 20.974 20.749 20.589 20.267 20.007 19.782 19.549 19.347 19.102 18.917 18.624 18.362 17.732 17.059 16.434 15.642 13.954 12.872 11.902 10.712 9.369 7.964 5.712 5.289 4.642 3.769 3.414 3.625 3.019 2.907 2.851 2.785 2.728 2.593 2.453 2.271 2.094 1.947 1.831 1.644 1.565 1.533 1.403 1.3 1.224 1.098 1.098 0.985 0.931 0.862 0.843 0.634 0.567 0.443 0.335 0.311 0.224 0.204 0.194 0.194 0.236 0.255 0.305 0.346 0.423 0.558 0.712 0.844 0.965 1.144 1.185 1.144 0.981 0.878 1.431 1.442 1.464 1.487 1.501 1.521 1.447 1.443 1.456 1.465 1.491 0.544 0.756 0.873 0.989 0.965 1.208 1.052 0.901 0.795 0.595 0.561 0.454 0.376 0.286 0.05 -0.074 -0.166 -0.374 -0.531 -0.644 -0.83 -0.997 -1.104 -1.119 -1.199 -1.056 -1.038 -1.205 -1.15 -1.065 -1.134 -1.093 -1.067 -1.147 -1.157 -1.058 -1.149 -1.244 -1.164 -1.039 -0.861 -0.631 -0.568 -0.334 -0.177 -0.026 0.146 0.334 0.531 0.692 0.816 0.961 1.13 1.233 1.196 1.397 1.441 1.524 1.516 1.507 1.446 1.448 1.459 1.499 1.508 1.314 1.223 1.058 0.915 0.752 0.589 0.491 0.349 0.232 0.074 -0.146 -0.306 -0.473 -0.614 -0.909 -1.049 -1.138 -1.032 -1.058 -1.065 -1.026 -1.026 -0.932 -0.944 -0.835 -0.904 -0.929 -0.903 -1.047 -1.036 -0.984 -0.988 -1.065 -1.068 -1.082 -1.141 -1.121 -1.131 -1.152 -1.138 -1.125 -1.186 -1.168 -1.127 -1.167 -1.223 -1.227 -1.049 -1.092 -1.331 -1.276 -1.337 -1.442 -1.329 -1.349 -1.343 -1.081 -1.051 -1.306 -1.401 -1.384 -1.404 -1.426 -1.417 -1.487 -1.529 -1.498 -1.567 -1.586 -1.353 -1.436 -1.392 -1.525 -1.591 -1.433 -1.664 -1.738 -1.665 -1.711 -1.787 -1.829 -1.791 -1.559 -1.856 -1.794 -1.769 -1.697 -1.865 -1.898 -1.98 -1.873 -1.693 -1.868 -1.771 -1.737 -1.771 -1.725 -1.748 -1.782 -1.515 -1.87 -1.881 -1.945 -1.791 -1.476 -1.08 -0.951 -0.968 -0.914 -0.697 -0.44 -0.219 0.015 0.261 0.595 0.849
46.082 46.137 46.112 46.089 46.069 48.947 48.827 48.684 46.127 45.992 46.039 46.022 46.052 46.392 46.324 46.069 46.027 45.997 46.409 46.134 48.567 49.039 52.617 47.707 46.782 45.732 45.667 45.649 45.584 45.657 45.627 45.612 45.547 45.507 45.517 45.482 45.437 45.469 45.442 45.747 45.764 45.574 45.264 45.204 45.164 45.129 45.052 45.112 45.014 45.074 44.867 44.864 44.794 44.739 44.667 44.542 44.474 44.434 44.317 44.242 47.487 45.447 44.519 47.957 44.402 43.852 43.809 44.392 44.847 43.587 43.462 43.339 43.217 43.134 42.974 42.854 42.757 42.649 42.577 42.524 47.112 49.314 49.307 47.262 41.972 41.719 42.639 42.287 42.292 42.459 41.834 41.304 41.304 41.039 40.369 40.629 42.587 40.952 40.119 40.159 38.927 39.037 38.317 38.287 38.307 38.299 38.289 38.279 38.279 38.289 38.287 38.274 38.342 38.912 39.999 41.064 41.139 39.087 37.667 37.447 37.357 37.262 37.192 36.969 36.987 36.147 35.734 35.529 35.359 35.107 34.922 34.669 34.382 34.079 33.759 33.492 33.267 33.009 32.782 32.684 32.489 32.397 32.227 31.979 31.832 31.754 31.469 31.364 31.222 31.122 30.999 30.854 30.734 30.469 30.229 30.017 29.857 29.672 29.507 29.244 28.987 28.782 28.589 28.414 28.154 27.959 27.747 27.489 27.257 27.062 26.872 26.677 26.479 26.194 25.877 25.584 25.294 25.014 24.817 24.682 24.459 24.052 23.817 23.522 23.249 23.019 22.764 22.557 22.359 22.109 21.672 21.564 21.839 21.724 21.207 21.019 20.677 20.497 20.242 19.954 19.769 19.657 19.337 18.987 18.977 18.724 18.409 17.792 16.984 16.117 15.037 13.889 12.812 11.559 10.149 8.797 7.694 6.372 5.774 4.999 4.027 3.349 3.543 3.304 2.922 2.85 2.79 2.709 2.576 2.456 2.31 2.142 1.944 1.798 1.717 1.595 1.525 1.42 1.3 1.228 1.181 1.11 1.063 0.928 0.873 0.868 0.732 0.565 0.508 0.414 0.297 0.272 0.257 0.237 0.269 0.281 0.291 0.357 0.449 0.531 0.622 0.756 0.919 1.074 1.13 1.063 1.045 0.866 0.722 0.586 0.5 1.452 1.471 1.438 1.45 1.435 1.416 1.392 1.418 1.316 0.488 0.567 0.676 0.817 0.979 0.955 1.082 0.914 0.773 0.576 0.453 0.283 0.166 0.07 0.016 -0.188 -0.33 -0.473 -0.575 -0.659 -0.869 -1.009 -1.151 -1.168 -1.171 -1.083 -1.082 -1.083 -1.055 -1.076 -1.128 -1.093 -1.089 -1.19 -1.106 -1.126 -1.164 -1.156 -1.149 -1.051 -0.871 -0.676 -0.438 -0.33 -0.223 -0 0.198 0.361 0.54 0.731 0.852 0.956 1.195 1.391 1.36 1.376 1.484 1.623 1.585 1.523 1.502 1.455 1.459 1.478 1.502 1.512 1.323 1.18 1.012 0.83 0.687 0.539 0.39 0.267 0.084 -0.066 -0.232 -0.436 -0.632 -0.805 -1.026 -1.097 -1.137 -1.154 -1.131 -1.097 -1.073 -0.973 -1.005 -0.904 -0.917 -0.935 -0.906 -0.9 -0.964 -1.03 -0.981 -1.011 -1.041 -1.072 -1.062 -1.138 -0.971 -1.086 -1.108 -1.186 -1.153 -1.159 -1.15 -1.212 -1.157 -1.293 -1.238 -1.323 -1.309 -1.32 -1.356 -1.134 -1.387 -1.344 -1.266 -1.082 -1.103 -1.257 -1.346 -1.345 -1.37 -1.236 -1.237 -1.139 -1.241 -1.253 -1.508 -1.526 -1.534 -1.548 -1.55 -1.626 -1.396 -1.41 -1.406 -1.412 -1.443 -1.496 -1.537 -1.479 -1.831 -1.787 -1.811 -1.817 -1.734 -1.609 -1.853 -1.6 -1.619 -1.575 -1.715 -1.8 -1.891 -1.912 -1.9 -1.975 -1.971 -1.68 -2.012 -1.995 -1.995 -1.745 -1.79 -1.492 -1.43 -1.176 -0.949 -0.761 -0.707 -0.368 -0.195 0.091 0.335 0.602 0.888
46.347 46.327 46.104 47.994 46.464 47.292 47.834 47.849 46.369 46.074 46.094 46.084 46.092 46.082 46.082 46.127 46.099 46.319 46.399 48.889 52.002 56.914 55.862 48.022 47.254 45.832 45.702 45.649 45.662 45.719 45.727 45.679 45.657 45.634 45.599 45.524 45.477 45.454 45.544 45.657 45.499 45.427 45.379 45.272 45.214 45.209 45.124 45.144 45.147 45.064 45.289 45.337 44.917 44.872 44.854 44.694 44.602 44.519 44.449 44.337 48.042 44.797 46.749 48.614 45.264 43.937 44.959 43.784 43.694 43.619 43.507 43.374 43.202 43.114 43.039 42.979 42.874 42.702 42.619 42.559 46.692 48.892 49.539 47.637 43.472 41.782 41.672 41.392 41.162 41.037 40.954 40.782 40.664 40.582 40.489 40.824 42.114 40.742 40.434 40.237 40.169 39.504 38.384 38.327 38.329 38.322 38.304 38.294 38.249 38.294 38.304 38.294 38.389 40.564 38.394 38.614 38.924 39.257 38.204 37.439 37.357 37.274 37.162 36.944 37.047 35.987 35.559 35.429 35.244 35.024 34.787 34.457 34.184 33.932 33.649 33.417 33.272 33.082 32.864 32.704 32.544 32.444 32.287 32.024 31.812 31.744 31.537 31.384 31.194 31.039 30.957 30.819 30.717 30.432 30.209 30.024 29.829 29.647 29.454 29.224 28.977 28.787 28.614 28.409 28.107 27.872 27.692 27.472 27.269 27.062 26.827 26.624 26.432 26.214 25.887 25.592 25.237 24.952 24.789 24.667 24.404 24.009 23.784 23.497 23.264 23.002 22.742 22.537 22.354 22.067 21.742 21.389 21.704 21.142 20.939 20.767 20.714 20.547 20.219 20.009 19.804 19.594 19.282 19.012 18.964 18.712 18.437 17.724 16.917 16.009 15.104 14.122 13.019 11.592 10.157 8.897 7.877 6.982 6.202 5.419 4.322 3.479 3.389 3.468 2.93 2.853 2.779 2.69 2.577 2.508 2.345 2.157 1.972 1.828 1.69 1.589 1.507 1.414 1.335 1.213 1.155 1.129 1.007 0.994 0.919 0.759 0.737 0.548 0.51 0.44 0.32 0.288 0.317 0.282 0.277 0.331 0.34 0.366 0.475 0.542 0.65 0.788 0.948 1.032 0.994 1.03 0.9 0.749 0.553 0.37 0.299 1.459 1.467 1.44 1.419 1.421 1.417 1.375 1.343 1.232 0.292 0.398 0.523 0.675 0.696 0.777 0.803 0.821 0.721 0.548 0.424 0.212 0.006 -0.043 -0.193 -0.334 -0.4 -0.597 -0.684 -0.884 -0.941 -1.139 -1.122 -1.124 -1.075 -1.093 -1.102 -1.1 -1.166 -1.145 -1.091 -1.122 -1.141 -1.065 -1.108 -1.112 -1.103 -1.056 -1.164 -1.016 -0.822 -0.651 -0.549 -0.291 -0.214 -0.039 0.12 0.332 0.528 0.717 0.912 0.989 1.127 1.219 1.342 1.209 1.338 1.663 1.621 1.551 1.588 1.51 1.472 1.481 1.502 1.521 1.354 1.332 1.128 0.895 0.713 0.554 0.409 -1.062 0.161 -0.027 -0.21 -0.406 -0.636 -0.815 -0.97 -1.097 -1.079 -1.125 -1.123 -1.136 -1.069 -1.08 -1.021 -0.868 -0.931 -0.929 -0.962 -0.959 -0.903 -0.963 -1.02 -1.01 -1.033 -1.076 -1.08 -1.082 -1.115 -1.18 -1.127 -1.142 -0.966 -0.945 -0.957 -1.207 -1.182 -1.265 -1.271 -1.367 -1.348 -1.295 -1.419 -1.068 -1.325 -1.304 -1.331 -1.045 -1.029 -1.062 -1.305 -1.368 -1.377 -1.411 -1.464 -1.438 -1.414 -1.506 -1.56 -1.51 -1.465 -1.397 -1.487 -1.59 -1.601 -1.57 -1.433 -1.65 -1.701 -1.724 -1.654 -1.716 -1.743 -1.818 -1.808 -1.82 -1.79 -1.605 -1.932 -1.763 -1.85 -1.863 -1.821 -1.585 -1.573 -1.934 -1.945 -1.935 -1.9 -2 -1.941 -2.004 -1.997 -1.951 -2.021 -1.53 -1.603 -1.412 -1.103 -0.783 -0.502 -0.336 -0.114 0.119 0.387 0.568 0.728
47.689 47.669 47.417 47.892 47.547 46.534 46.572 47.134 47.054 46.389 46.269 46.184 46.144 46.132 46.154 46.457 46.139 46.317 46.384 48.194 53.292 56.057 55.672 49.582 46.987 45.924 45.762 45.707 45.704 45.762 45.812 45.774 45.709 45.694 45.642 45.534 45.569 45.907 46.137 46.224 46.019 45.587 45.524 45.332 45.272 45.237 45.167 45.244 45.252 45.152 45.102 45.014 44.979 44.984 44.952 44.799 44.709 44.582 44.484 44.432 46.094 46.044 44.179 44.107 44.022 43.974 43.892 44.382 43.899 43.699 43.614 43.414 43.284 43.194 43.132 43.032 42.929 42.772 42.644 42.592 45.369 48.522 49.707 48.039 43.702 41.849 42.097 41.714 41.509 41.542 41.667 41.949 42.769 43.017 43.137 43.659 43.842 43.762 44.179 43.914 40.139 40.242 38.407 38.377 38.327 38.322 38.302 38.297 38.284 38.282 38.289 38.274 38.344 40.244 39.137 40.159 40.292 39.584 37.594 37.437 37.362 37.269 37.127 36.922 36.562 35.812 35.512 35.379 35.174 34.912 34.642 34.327 34.039 33.792 33.612 33.442 33.312 33.154 32.914 32.714 32.452 32.307 32.199 31.952 31.749 31.687 31.569 31.394 31.242 31.124 30.894 30.777 30.607 30.459 30.189 29.989 29.799 29.624 29.427 29.187 28.982 28.757 28.599 28.339 28.069 27.822 27.659 27.469 27.262 27.019 26.759 26.534 26.357 26.197 25.849 25.544 25.152 24.887 24.707 24.594 24.334 23.994 23.709 23.477 23.229 22.992 22.724 22.527 22.322 22.049 21.799 21.449 21.882 21.527 21.014 20.867 20.882 20.524 20.477 20.184 19.679 19.929 19.307 19.112 18.952 18.599 18.409 17.752 17.064 16.104 15.374 14.379 14.157 12.032 10.589 9.689 8.712 7.717 6.452 5.387 4.062 3.409 3.482 3.633 2.841 2.789 2.738 2.659 2.588 2.483 2.39 2.17 2.002 1.827 1.693 1.606 1.532 1.476 1.304 1.281 1.193 1.098 1.021 1.005 0.902 0.838 0.69 0.678 0.533 0.434 0.343 0.32 0.304 0.326 0.34 0.302 0.388 0.372 0.451 0.532 0.672 0.769 0.926 0.934 0.908 0.905 0.76 0.625 0.441 0.255 0.162 1.498 1.496 1.458 1.456 1.406 1.417 1.404 -0.128 -0.015 0.121 1.464 0.389 0.51 0.683 0.715 0.732 0.743 0.721 0.573 0.383 0.224 0.118 -0.09 -0.239 -0.47 -0.498 -0.67 -0.73 -0.92 -1.118 -1.18 -1.058 -1.145 -1.103 -1.047 -1.082 -1.076 -1.012 -1.136 -1.163 -1.143 -1.119 -0.986 -1.109 -1.064 -1.105 -1.124 -1.114 -1.012 -0.796 -0.71 -0.595 -0.362 -0.236 -0.016 0.148 0.284 0.481 0.66 0.839 0.934 0.98 1.125 1.192 1.158 1.289 1.436 1.373 1.534 1.329 1.498 1.471 1.476 1.506 1.533 1.531 1.331 1.123 0.897 0.721 0.565 0.379 0.296 -1.153 -0.066 -0.265 -0.387 -0.551 -0.781 -0.916 -1.055 -1.127 -1.202 -1.172 -1.086 -1.023 -1.074 -1.052 -0.93 -1.004 -1.016 -0.949 -0.952 -0.927 -0.965 -0.986 -0.972 -0.997 -0.963 -1.035 -1.027 -1.083 -1.102 -1.147 -1.175 -1.174 -0.938 -1.16 -1.244 -1.238 -1.249 -1.296 -1.28 -1.346 -1.33 -1.325 -1.051 -1.371 -1.378 -1.311 -1.271 -1.144 -1.289 -1.286 -1.405 -1.454 -1.368 -1.416 -1.42 -1.483 -1.427 -1.412 -1.558 -1.558 -1.476 -1.627 -1.583 -1.605 -1.61 -1.627 -1.566 -1.649 -1.591 -1.676 -1.738 -1.641 -1.766 -1.886 -1.848 -1.783 -1.571 -1.661 -1.811 -1.831 -1.884 -1.623 -1.534 -1.595 -1.812 -1.94 -1.934 -1.865 -1.974 -1.898 -1.978 -2.011 -1.978 -2.014 -1.578 -1.642 -1.374 -1.184 -1.041 -0.534 -0.504 -0.285 0.014 0.282 0.541 0.688
46.984 47.209 47.201 47.341 47.981 47.714 47.619 48.326 48.954 48.206 48.014 47.206 47.456 46.421 47.031 46.949 47.609 47.611 46.729 48.236 53.439 56.109 52.684 48.261 47.039 45.924 45.801 45.741 45.726 45.781 45.841 45.824 45.731 45.684 45.649 45.616 46.024 46.311 46.144 46.002 46.129 45.752 45.534 45.382 45.314 45.277 45.242 45.257 45.219 45.137 45.054 44.959 44.944 44.919 44.842 44.792 44.697 44.594 44.517 44.472 44.384 44.349 44.242 44.149 44.047 44.029 43.914 43.854 43.837 43.687 43.572 43.477 43.402 43.309 43.222 43.102 42.977 42.817 42.709 42.642 44.494 48.097 49.787 48.277 43.862 41.939 45.172 45.097 45.537 45.537 46.007 46.022 46.354 46.509 46.524 46.537 46.787 46.912 46.919 46.834 40.142 40.284 38.424 38.407 38.357 38.344 38.324 38.319 38.307 38.322 38.294 38.274 38.309 38.362 38.454 38.419 38.337 38.172 37.589 37.452 37.347 37.234 37.087 36.932 36.574 35.817 35.502 35.317 35.099 34.817 34.537 34.254 34.004 33.789 33.599 33.454 33.337 33.132 32.942 32.832 32.467 32.309 32.074 31.869 31.769 31.799 32.022 31.692 31.452 31.067 30.874 30.712 30.544 30.357 30.157 29.972 29.799 29.592 29.389 29.169 28.959 28.752 28.537 28.272 28.037 27.772 27.607 27.409 27.157 26.917 26.702 26.484 26.329 26.169 25.764 25.434 25.072 24.857 24.664 24.507 24.267 23.964 23.702 23.432 23.179 22.939 22.729 22.497 22.259 22.042 21.837 21.584 21.859 21.732 21.619 21.079 20.977 20.512 20.287 20.042 19.799 19.729 19.344 19.074 18.997 18.747 18.377 17.734 16.987 16.224 15.422 14.479 13.479 12.419 11.727 10.722 9.529 8.414 6.297 4.912 3.769 3.369 2.989 3.256 2.89 2.789 2.648 2.577 2.538 2.478 2.409 2.205 2.044 1.898 1.77 1.65 1.602 1.439 1.315 1.238 1.167 1.17 1.051 1.013 0.945 0.927 0.785 0.627 0.537 0.444 0.364 0.328 0.353 0.308 0.314 0.364 0.372 0.409 0.464 0.537 0.628 0.767 0.852 0.876 0.819 0.773 0.636 0.511 0.329 0.167 0.04 -0.09 1.498 1.422 1.427 1.424 1.44 1.414 -0.298 -0.188 -0.054 1.493 0.255 0.339 0.509 0.595 0.619 0.641 0.61 0.546 0.408 0.294 0.115 -0.006 -0.173 -0.357 -0.568 -0.729 -0.862 -1.091 -1.053 -1.204 -1.152 -1.173 -1.206 -1.112 -1.169 -1.023 -1.146 -1.134 -1.031 -1.082 -1.124 -1.035 -1.185 -1.062 -1.092 -1.174 -1.164 -1.024 -0.904 -0.699 -0.602 -0.374 -0.224 -0.04 0.133 0.288 0.449 0.55 0.684 0.774 0.895 0.988 1.009 1.017 1.078 1.148 1.288 1.332 1.269 1.455 1.248 1.455 1.526 1.53 1.503 1.286 1.091 0.903 0.75 0.551 0.397 0.232 0.081 -0.011 -0.182 -0.44 -0.657 -0.706 -0.85 -1.131 -1.097 -1.104 -1.209 -1.138 -1.149 -1.1 -1.102 -1.048 -1.082 -1.028 -0.931 -0.981 -1.011 -1.018 -0.944 -1.022 -0.966 -1.072 -1.121 -1.126 -1.109 -1.093 -1.13 -1.101 -1.143 -1.168 -1.133 -1.218 -1.169 -1.231 -1.247 -1.245 -1.337 -1.329 -1.099 -1.004 -1.134 -1.324 -1.417 -1.358 -1.274 -1.302 -1.198 -1.301 -1.368 -1.353 -1.35 -1.423 -1.457 -1.435 -1.515 -1.497 -1.566 -1.563 -1.545 -1.549 -1.62 -1.561 -1.594 -1.68 -1.638 -1.638 -1.643 -1.657 -1.728 -1.69 -1.815 -1.747 -1.568 -1.83 -1.588 -1.839 -1.8 -1.855 -1.68 -1.487 -1.551 -1.893 -1.869 -1.885 -1.911 -1.93 -1.671 -1.7 -1.936 -1.974 -2.012 -1.809 -1.658 -1.415 -1.201 -0.845 -0.634 -0.59 -0.375 -0.207 0.16 0.423 0.651
46.466 46.486 46.571 46.666 46.814 46.646 47.464 48.131 48.506 47.921 47.684 48.389 49.499 48.596 49.341 48.671 48.324 50.464 46.656 47.169 51.369 52.809 49.326 47.246 46.654 45.974 45.954 45.949 45.921 45.834 45.989 46.059 46.024 46.001 45.986 46.059 46.324 46.211 45.877 46.722 45.639 45.684 45.499 45.382 45.314 45.329 45.289 45.242 45.212 45.184 45.109 45.029 44.989 44.934 44.894 44.797 44.717 44.627 44.564 44.502 44.464 44.389 44.299 44.207 44.079 44.027 43.977 43.889 43.822 43.719 43.659 43.532 43.454 43.357 43.252 43.149 43.044 42.902 42.752 42.692 43.872 47.714 49.729 48.689 44.287 42.032 46.682 47.387 47.384 47.449 47.294 47.194 47.252 47.144 47.019 46.804 46.542 46.389 46.254 46.149 40.399 40.322 38.459 38.407 38.397 38.402 38.312 38.314 38.304 38.299 38.319 38.299 38.359 38.434 38.427 38.397 38.409 37.989 37.522 37.374 37.267 37.172 37.139 36.894 36.789 35.787 35.482 35.254 35.032 34.722 34.419 34.142 33.892 33.739 33.577 33.439 33.304 33.102 32.922 32.764 32.487 32.247 32.057 31.889 31.804 31.699 31.754 31.879 32.029 31.229 30.857 30.634 30.589 30.324 30.119 29.932 29.704 29.562 29.324 29.129 28.929 28.707 28.439 28.152 27.969 27.752 27.557 27.319 27.072 26.837 26.624 26.444 26.289 26.042 25.664 25.392 25.057 24.804 24.607 24.467 24.222 23.937 23.684 23.374 23.172 22.919 22.674 22.462 22.214 22.012 21.794 21.567 21.904 21.884 21.482 21.024 20.999 20.559 20.054 19.792 19.707 20.129 19.352 19.127 19.282 18.799 18.384 17.789 17.147 16.477 15.527 16.119 13.969 13.229 12.799 11.382 9.819 8.704 6.044 4.867 4.424 3.797 3.134 2.905 2.858 2.833 2.769 2.724 2.625 2.503 2.431 2.255 2.063 1.918 1.788 1.69 1.619 1.485 1.399 1.306 1.202 1.161 1.085 1.054 0.948 0.895 0.757 0.729 0.554 0.454 0.423 0.379 0.332 0.314 0.36 0.38 0.371 0.44 0.456 0.575 0.62 0.787 0.785 0.774 0.684 0.57 0.525 0.372 0.252 0.061 -0.109 1.51 1.512 1.449 1.432 1.438 1.449 1.45 -0.469 -0.349 -0.197 1.324 0.136 0.219 0.435 0.506 0.535 0.581 0.631 0.619 0.51 0.342 0.178 0.009 -0.146 -0.342 -0.574 -0.632 -0.858 -0.941 -1.016 -1.091 -1.103 -1.206 -1.109 -1.178 -1.11 -1.112 -1.117 -1.079 -1.112 -1.109 -1.042 -1.163 -1.131 -1.06 -1.064 -1.108 -1.175 -1.093 -0.946 -0.762 -0.562 -0.456 -0.271 -0.125 0.061 0.186 0.348 0.436 0.443 0.585 0.721 0.815 0.803 0.818 0.844 0.968 1.115 1.13 1.185 1.235 1.258 1.511 1.58 1.558 1.454 1.303 1.094 0.912 0.773 0.594 0.416 0.271 0.101 -0.086 -0.247 -0.35 -0.622 -0.723 -0.963 -1.167 -1.148 -1.133 -1.203 -1.176 -1.169 -1.162 -1.098 -1.144 -1.088 -1.065 -1.018 -0.921 -1.021 -1.002 -1.012 -1.066 -1.074 -1.069 -1.082 -1.055 -1.121 -1.019 -1.135 -1.095 -1.143 -1.154 -1.218 -1.154 -1.18 -1.271 -1.23 -1.265 -1.308 -1.358 -1.316 -1.105 -1.068 -1.119 -1.37 -1.287 -1.355 -1.303 -1.22 -1.229 -1.322 -1.352 -1.379 -1.438 -1.441 -1.399 -1.467 -1.483 -1.446 -1.524 -1.484 -1.526 -1.641 -1.534 -1.567 -1.612 -1.61 -1.587 -1.663 -1.761 -1.66 -1.764 -1.724 -1.553 -1.769 -1.822 -1.789 -1.81 -1.769 -1.776 -1.75 -1.546 -1.51 -1.855 -1.869 -1.892 -1.908 -1.905 -1.673 -1.536 -1.715 -1.927 -2.006 -1.952 -1.415 -1.509 -1.324 -1.039 -0.727 -0.672 -0.445 -0.143 0.125 0.373 0.516
49.004 47.999 47.051 46.984 46.809 46.754 46.574 46.561 46.514 46.594 46.714 47.579 47.876 48.081 48.944 48.501 47.364 49.876 47.121 46.221 47.516 48.241 46.634 46.561 46.516 46.584 46.591 46.409 46.346 46.026 46.216 46.244 46.231 46.184 46.161 46.064 46.021 45.866 45.739 45.667 45.622 45.689 45.734 45.469 45.414 45.362 45.329 45.289 45.247 45.199 45.149 45.069 45.027 44.982 44.939 44.842 44.719 44.649 44.609 44.599 44.457 44.392 44.312 44.217 44.109 44.049 43.972 43.927 43.829 43.714 43.664 43.624 43.502 43.369 43.254 43.157 43.069 42.894 42.782 42.677 43.327 47.352 49.424 49.029 45.099 42.112 44.552 46.237 46.047 45.932 45.707 45.109 45.317 44.232 43.939 43.314 43.472 42.284 42.354 42.149 40.407 40.179 39.067 39.099 39.137 39.199 39.197 38.997 39.079 39.067 38.984 38.849 38.447 38.637 38.574 38.657 38.689 38.967 37.469 37.354 37.314 37.254 36.942 36.822 36.469 35.787 35.492 35.239 34.994 34.709 34.407 34.039 33.727 33.587 33.462 33.379 33.259 33.099 32.882 32.642 32.392 32.182 32.002 31.832 31.724 31.632 31.654 31.662 31.762 31.242 30.799 30.557 30.357 30.247 30.114 29.942 29.717 29.477 29.279 29.112 28.877 28.629 28.367 28.202 27.949 27.694 27.509 27.282 27.042 26.797 26.577 26.422 26.282 25.972 25.697 25.354 25.022 24.759 24.552 24.372 24.192 23.889 23.634 23.332 23.119 22.854 22.662 22.434 22.192 22.007 21.799 21.539 21.734 22.194 21.767 21.534 21.669 20.407 20.107 19.987 19.702 19.847 19.412 19.139 18.804 18.842 18.487 18.004 17.362 16.674 15.819 16.467 14.727 13.507 12.427 11.037 9.434 7.449 6.177 5.769 4.819 3.672 3.479 3.137 2.913 2.852 2.797 2.745 2.664 2.556 2.456 2.312 2.102 1.984 1.778 1.669 1.611 1.428 1.422 1.277 1.263 1.144 1.087 1.028 1.004 0.951 0.808 0.711 0.564 0.492 0.351 0.372 0.356 0.327 0.353 0.395 0.362 0.402 0.472 0.527 0.607 0.69 0.681 0.626 0.546 0.479 0.447 0.333 0.147 -0.034 -0.245 1.487 1.485 1.463 1.442 1.45 1.473 1.472 -0.636 -0.503 -0.392 1.299 0.021 0.192 0.366 0.459 0.597 0.654 0.671 0.675 0.564 0.343 0.184 -0.036 -0.115 -0.283 -0.374 -0.509 -0.683 -0.764 -0.824 -0.941 -1.087 -1.194 -1.114 -1.153 -1.119 -1.163 -1.076 -1.109 -1.086 -1.24 -1.119 -1.114 -1.093 -1.111 -1.088 -1.093 -1.121 -1.049 -0.965 -0.796 -0.747 -0.528 -0.342 -0.207 -0.018 0.104 0.217 0.31 0.386 0.468 0.556 0.643 0.668 0.658 0.686 0.859 0.972 0.982 1.003 1.027 1.235 1.545 1.415 1.398 1.336 1.283 1.1 0.915 0.784 0.608 0.479 0.288 0.082 -0.069 -0.241 -1.064 -0.618 -0.804 -0.932 -1.114 -1.168 -1.111 -1.162 -1.113 -1.156 -1.168 -1.118 -1.127 -1.133 -1.076 -1.078 -1.057 -0.998 -0.991 -0.966 -1.05 -1.035 -1.038 -1.051 -1.09 -1.044 -1.113 -1.165 -1.049 -1.118 -1.146 -1.208 -1.182 -1.26 -1.273 -1.276 -1.267 -1.302 -1.307 -1.366 -1.053 -1.394 -1.387 -1.413 -1.312 -1.323 -1.309 -1.221 -1.295 -1.381 -1.362 -1.318 -1.388 -1.427 -1.449 -1.373 -1.473 -1.504 -1.438 -1.508 -1.531 -1.671 -1.555 -1.51 -1.46 -1.52 -1.57 -1.662 -1.585 -1.659 -1.484 -1.415 -1.359 -1.457 -1.541 -1.526 -1.541 -1.807 -1.825 -1.848 -1.794 -1.776 -1.886 -1.853 -1.778 -1.867 -1.859 -1.64 -1.396 -1.56 -1.652 -1.892 -1.944 -1.742 -1.344 -1.4 -1.017 -0.7 -0.663 -0.466 -0.204 0.062 0.279 0.385
48.611 49.179 48.139 48.424 48.344 48.431 48.361 47.864 47.496 46.864 46.626 46.504 46.556 46.489 46.481 46.486 46.379 48.106 46.364 46.349 46.586 46.836 46.234 46.276 46.254 46.186 46.164 46.126 46.031 46.031 46.011 45.986 45.976 45.936 45.946 45.916 45.871 45.819 45.774 45.657 45.662 45.599 45.602 45.522 45.502 45.437 45.532 45.299 45.274 45.214 45.742 46.122 46.969 45.664 45.742 46.139 46.029 46.387 46.522 46.407 45.719 46.437 45.427 44.522 44.149 44.289 44.397 44.127 44.127 44.007 44.304 45.892 43.617 43.407 43.344 43.187 43.049 42.867 42.759 42.687 42.684 46.907 49.087 49.334 45.219 42.149 42.199 42.384 42.722 41.682 42.212 41.684 41.284 41.407 41.419 40.912 40.812 40.692 40.529 40.679 41.869 40.229 39.714 39.552 39.239 39.267 39.244 39.199 39.377 39.202 39.184 38.924 38.359 38.449 38.724 38.422 38.382 37.797 37.462 37.329 37.192 37.032 36.942 36.674 36.419 35.774 35.467 35.204 34.944 34.637 34.304 33.932 33.669 33.532 33.397 33.304 33.199 33.037 32.892 32.639 32.387 32.089 31.917 31.754 31.644 31.549 31.432 31.357 31.272 31.057 30.829 30.619 30.314 30.149 29.969 29.849 29.717 29.474 29.227 28.984 28.822 28.587 28.272 28.117 27.937 27.702 27.444 27.222 27.004 26.739 26.532 26.324 26.194 25.927 25.597 25.302 24.989 24.669 24.452 24.294 24.127 23.809 23.537 23.289 23.052 22.807 22.574 22.364 22.202 22.007 21.799 21.539 21.699 21.847 21.804 21.954 21.129 20.377 20.142 19.944 19.862 19.689 19.472 19.129 18.844 18.692 18.644 18.147 17.599 16.832 15.984 16.057 15.257 13.099 11.702 10.072 8.964 7.457 7.449 7.144 6.489 4.792 3.409 3.061 2.963 2.893 2.824 2.762 2.699 2.619 2.465 2.342 2.122 2 1.798 1.718 1.594 1.51 1.406 1.346 1.229 1.179 1.106 0.998 0.974 0.921 0.811 0.814 0.594 0.512 0.339 0.398 0.327 0.357 0.356 0.395 0.355 0.373 0.41 0.478 0.521 0.581 0.623 0.599 0.538 0.473 0.395 0.207 0.008 -0.213 -0.378 1.487 1.489 1.448 1.453 1.483 1.495 1.518 1.421 1.396 1.255 -0.344 -0.089 0.085 0.294 0.521 0.598 0.66 0.674 0.679 0.655 0.442 0.251 0.114 0.025 -0.165 -0.26 -0.443 -0.421 -0.596 -0.716 -0.753 -0.874 -0.983 -1.027 -1.107 -1.12 -1.179 -1.142 -1.096 -1.187 -1.129 -1.05 -1.133 -1.095 -1.08 -1.115 -1.054 -1.147 -1.074 -1.074 -0.907 -0.773 -0.597 -0.402 -0.324 -0.188 -0.023 0.044 0.183 0.291 0.371 0.403 0.446 0.501 0.579 0.571 0.749 0.735 0.81 0.833 0.932 1.09 1.317 1.271 1.194 1.146 1.109 1.011 0.87 0.699 0.559 0.427 0.212 0.018 -0.111 -0.284 -1.152 -0.653 -0.754 -0.985 -1.118 -1.202 -1.113 -1.148 -1.155 -1.071 -1.146 -1.102 -1.105 -1.142 -1.167 -1.13 -1.011 -1.114 -1.056 -1.046 -1.01 -1.064 -1.014 -1.038 -1.027 -1.075 -1.021 -0.982 -1.106 -1.167 -1.182 -1.212 -1.131 -1.218 -1.151 -1.302 -1.277 -1.273 -1.304 -1.32 -1.32 -1.348 -1.366 -1.337 -1.335 -1.301 -1.274 -1.311 -1.292 -1.266 -1.071 -1.446 -1.348 -1.399 -1.438 -1.226 -1.158 -1.431 -1.411 -1.499 -1.522 -1.584 -1.759 -1.315 -1.532 -1.601 -1.581 -1.527 -1.637 -1.678 -1.433 -1.147 -1.234 -1.3 -1.268 -1.521 -1.803 -1.779 -1.841 -1.827 -1.801 -1.805 -1.843 -1.759 -1.852 -1.905 -1.877 -1.6 -1.657 -1.683 -1.919 -1.981 -2.009 -1.854 -1.658 -1.473 -1.093 -0.787 -0.54 -0.386 -0.233 0.033 0.066 0.026
46.864 46.956 47.016 47.324 47.579 48.049 48.526 48.816 48.861 48.914 48.521 48.249 47.884 47.124 46.546 46.451 46.416 46.421 46.444 46.459 46.629 46.419 46.249 46.269 46.209 46.119 46.109 46.051 46.016 46.016 46.034 45.986 45.971 45.944 45.916 45.881 45.866 45.816 45.744 45.709 45.709 45.834 46.032 46.189 46.092 46.779 46.284 45.597 45.334 45.354 47.047 47.789 47.579 46.822 46.312 46.264 46.297 46.429 46.442 46.457 46.534 46.434 46.544 45.399 44.239 44.314 44.247 44.159 44.167 44.147 44.344 45.139 43.737 43.527 43.402 43.282 43.182 43.039 42.802 42.692 42.642 43.332 43.357 46.107 44.514 42.179 42.072 41.957 41.807 41.657 41.524 41.404 41.297 41.177 41.062 40.967 40.859 40.722 40.564 42.354 44.909 43.972 44.747 44.204 41.792 41.972 42.079 40.197 42.567 42.212 41.707 39.874 38.427 38.459 38.497 38.469 38.337 38.072 38.077 37.632 37.509 37.109 36.967 37.614 36.354 35.729 35.407 35.097 34.804 34.544 34.174 33.857 33.637 33.479 33.317 33.202 33.139 33.014 32.887 32.629 32.279 32.014 31.859 31.704 31.629 31.487 31.422 31.242 31.057 30.932 30.799 30.679 30.352 30.077 29.884 29.694 29.564 29.402 29.202 28.902 28.644 28.447 28.242 28.082 27.882 27.667 27.379 27.119 26.894 26.697 26.437 26.234 26.074 25.887 25.549 25.274 24.957 24.644 24.469 24.267 24.004 23.742 23.464 23.224 22.962 22.712 22.492 22.292 22.094 21.952 21.772 21.497 21.667 21.409 21.479 21.347 20.752 20.279 20.152 19.979 19.907 19.734 19.294 19.214 18.882 18.677 18.677 18.204 17.554 16.797 15.949 15.432 15.904 12.699 10.949 9.509 9.449 10.449 8.737 7.039 5.017 3.794 3.289 3.112 3 2.916 2.86 2.818 2.745 2.654 2.493 2.363 2.164 2.01 1.847 1.726 1.603 1.55 1.456 1.335 1.302 1.227 1.111 1.046 0.965 0.986 0.937 0.764 0.622 0.576 0.419 0.376 0.331 0.364 0.342 0.316 0.377 0.358 0.383 0.439 0.547 0.548 0.597 0.576 0.557 0.463 0.386 0.17 -0.081 -0.277 -0.465 1.494 1.495 1.479 1.484 1.53 1.534 1.508 1.424 1.461 1.265 1.394 -0.176 0.02 0.232 0.43 0.526 0.618 0.695 0.721 0.704 0.548 0.344 0.25 0.108 -0.001 -0.181 -0.285 -0.321 -0.417 -0.563 -0.646 -0.795 -0.884 -0.934 -0.945 -0.96 -1.077 -1.103 -1.136 -1.132 -1.157 -1.099 -1.077 -1.08 -1.076 -1.137 -1.178 -1.122 -1.074 -1.085 -1.002 -0.813 -0.647 -0.555 -0.371 -0.231 -0.18 -0.044 0.092 0.169 0.23 0.315 0.315 0.411 0.388 0.442 0.626 0.584 0.622 0.729 0.881 1.004 1.092 1.063 0.996 0.951 0.913 0.853 0.74 0.588 0.485 0.338 0.169 -0.007 -0.154 -0.328 -1.128 -0.672 -0.801 -1.045 -1.137 -1.148 -1.199 -1.146 -1.166 -1.178 -1.116 -1.204 -1.104 -1.103 -1.071 -1.137 -1.117 -1.104 -1.052 -0.969 -1.065 -1.054 -1.05 -0.994 -1.052 -0.971 -1.091 -1.031 -1.06 -1.129 -1.094 -1.191 -1.202 -1.21 -1.19 -1.256 -1.264 -1.274 -1.339 -1.311 -1.36 -1.316 -1.324 -1.376 -1.368 -1.353 -1.357 -1.279 -1.292 -1.323 -1.132 -1.357 -1.414 -1.405 -1.426 -1.415 -1.213 -1.416 -1.363 -1.384 -1.526 -1.501 -1.569 -1.705 -1.635 -1.581 -1.555 -1.616 -1.608 -1.7 -1.378 -1.479 -1.373 -1.593 -1.541 -1.462 -1.779 -1.759 -1.837 -1.705 -1.753 -1.802 -1.885 -1.829 -1.618 -1.611 -1.875 -1.781 -1.798 -1.899 -1.653 -1.945 -1.942 -1.939 -1.673 -1.584 -1.365 -1.034 -0.698 -0.374 -0.372 -0.262 -0.194 -0.207
