ncols 450
nrows 30
xllcorner    463086
yllcorner    89692
cellsize     2
NODATA_value -9999
37.661 37.488 37.298 37.091 36.901 36.706 36.488 36.284 36.071 35.944 35.821 35.636 35.511 35.376 35.229 35.119 34.979 34.801 34.664 34.499 34.381 34.224 34.081 33.949 33.809 33.724 33.636 33.499 33.436 33.344 33.271 33.186 33.101 32.981 32.839 32.714 32.579 32.509 32.461 32.424 32.396 32.529 32.516 32.061 32.064 32.041 32.229 32.926 32.279 32.491 32.004 32.144 31.956 31.726 31.729 32.101 32.696 32.211 32.244 32.089 31.999 31.979 31.394 30.999 30.774 30.681 30.576 30.476 30.359 30.229 30.126 30.014 29.866 29.776 29.634 29.509 29.356 29.194 29.039 28.869 28.674 28.476 28.314 28.114 27.886 27.666 27.606 27.331 27.324 27.984 28.709 28.766 29.386 29.139 29.801 28.319 26.821 25.611 25.864 25.839 25.464 25.194 25.046 24.794 24.584 24.569 24.994 25.084 24.754 24.486 24.521 24.239 24.299 24.246 24.086 24.111 24.174 24.786 25.476 25.526 24.894 24.601 25.716 25.979 24.479 24.074 24.036 24.021 24.106 24.114 24.121 24.144 24.216 24.459 24.576 24.511 24.459 24.464 24.634 25.059 24.761 25.416 25.629 26.101 25.616 26.026 25.981 25.554 25.539 25.421 25.554 25.626 25.754 25.839 25.941 26.004 26.066 26.349 26.499 26.249 26.336 26.374 26.441 26.626 26.774 26.919 26.956 26.971 27.031 27.111 27.214 27.379 27.629 28.026 28.496 28.766 28.956 29.051 29.074 29.066 29.044 28.969 28.679 28.491 28.654 28.679 28.764 28.676 28.679 28.584 28.634 28.624 28.496 28.481 30.714 28.929 29.076 28.936 28.806 28.839 28.979 30.011 29.034 28.744 28.636 30.009 31.419 28.652 28.457 28.609 31.214 31.159 28.232 28.119 28.034 28.027 28.174 28.394 28.482 28.512 28.559 28.577 28.564 28.669 28.802 28.817 28.719 28.677 28.627 28.524 28.312 28.109 27.934 27.797 27.749 29.067 30.534 30.712 29.432 28.274 27.864 26.917 26.524 28.167 29.479 29.759 32.672 28.439 25.857 25.627 25.462 25.512 26.087 28.469 28.294 26.909 25.939 24.999 24.674 24.562 24.522 24.439 24.357 24.344 24.294 24.189 24.832 25.324 25.387 25.187 25.127 24.662 24.502 23.867 23.614 23.517 23.454 23.412 23.332 23.327 23.307 23.274 23.242 23.184 23.119 23.074 23.062 23.044 23.059 23.139 23.067 22.877 22.792 22.772 22.854 23.189 24.137 25.022 23.894 23.212 22.957 23.289 23.819 23.809 23.837 24.102 23.282 22.752 22.197 21.222 21.087 21.234 20.892 20.289 19.559 18.814 18.049 17.407 17.027 15.992 14.857 14.097 13.812 12.997 12.612 12.372 11.524 11.182 10.629 10.542 9.734 10.412 11.342 11.777 9.589 8.569 9.914 9.894 10.295 11.103 11.295 11.164 10.057 8.525 6.994 4.716 2.868 2.576 2.511 2.375 2.121 1.939 1.819 1.575 1.336 1.156 0.922 0.743 0.601 0.405 0.193 0.019 -0.05 -0.157 -0.357 -0.456 -0.61 -0.785 -0.907 -1.07 -1.126 -1.084 -1.194 -1.233 -1.227 -1.28 -1.306 -1.272 -1.247 -1.281 -1.241 -1.295 -1.325 -1.316 -1.28 -1.347 -1.362 -1.278 -1.228 -1.302 -1.32 -1.306 -1.321 -1.364 -1.31 -1.308 -1.345 -1.347 -1.366 -1.373 -1.332 -1.368 -1.418 -1.393 -1.341 -1.317 -1.317 -1.37 -1.352 -1.336 -1.319 -1.284 -1.197 -1.244 -1.262 -1.289 -1.299 -1.382 -1.355 -1.276 -1.314 -1.421 -1.412 -1.399 -1.409 -1.399 -1.392 -1.412 -1.419 -1.448 -1.438 -1.422 -1.376 -1.382 -1.38 -1.328 -1.355 -1.379 -1.39 -1.338 -1.299 -1.308 -1.252 -1.247 -1.196 -1.265 -1.305 -1.38 -1.416 -1.431
37.483 37.316 37.143 36.941 36.778 36.578 36.331 36.134 35.964 35.779 35.604 35.461 35.314 35.189 35.061 34.909 34.799 34.619 34.486 34.339 34.194 34.061 33.916 33.789 33.674 33.531 33.421 33.304 33.224 33.144 33.069 32.981 32.856 32.736 32.616 32.471 32.349 32.319 32.361 32.356 32.186 31.969 31.951 31.954 31.981 32.019 34.684 33.006 32.206 31.734 31.716 31.756 31.901 32.054 31.956 32.259 32.421 32.201 32.141 32.019 32.234 31.914 31.071 30.734 30.581 30.506 30.414 30.299 30.184 30.099 29.966 29.871 29.801 29.646 29.479 29.361 29.224 29.074 28.911 28.756 28.544 28.381 28.241 28.011 27.801 27.561 27.536 27.296 27.044 26.934 27.606 27.904 27.911 26.949 26.294 26.144 26.409 25.744 25.469 25.656 25.374 25.231 24.814 24.666 24.609 24.444 24.586 24.634 24.191 24.279 24.221 24.046 24.244 24.364 23.966 23.936 23.921 24.611 25.529 25.566 24.011 24.181 24.401 24.016 23.896 23.889 23.864 23.871 23.981 24.051 24.086 24.076 24.134 24.274 24.391 24.376 24.329 24.259 24.691 26.454 25.386 25.314 25.524 24.651 25.004 25.224 25.066 25.784 25.849 25.414 25.364 25.459 25.561 25.664 25.709 25.769 25.856 26.059 26.196 26.339 26.486 26.229 26.291 26.394 26.556 26.726 26.866 26.849 26.869 26.921 26.974 27.114 27.251 27.396 27.701 28.099 28.434 28.736 28.834 28.811 28.749 28.539 28.074 28.131 28.306 28.316 28.374 28.364 28.274 28.344 28.211 28.259 28.231 28.539 28.279 28.929 28.356 28.411 28.406 29.049 28.859 28.574 28.596 28.606 28.581 29.921 31.439 28.809 28.417 28.482 31.202 31.217 28.214 28.102 29.362 30.229 28.817 27.909 28.039 28.204 28.274 28.287 28.262 28.232 28.244 28.284 28.177 28.112 28.049 27.999 27.899 27.824 27.739 27.652 27.597 29.752 30.324 28.544 27.694 27.659 27.124 26.787 28.402 29.654 29.469 29.524 29.994 26.987 25.607 25.422 25.329 25.194 25.524 26.907 26.259 25.854 24.932 24.624 24.472 25.277 25.297 25.397 25.539 25.054 24.222 23.889 25.667 27.154 27.169 27.202 27.179 27.164 26.569 24.307 23.394 23.352 23.317 23.244 23.212 23.162 23.119 23.092 23.117 23.099 23.059 23.012 22.987 22.927 22.839 22.759 22.687 22.669 22.604 22.609 22.574 22.599 22.779 23.029 22.929 22.822 22.697 22.907 22.702 23.032 23.509 23.954 23.649 22.929 22.844 21.814 21.329 21.202 20.957 20.602 23.424 21.242 21.677 18.259 17.897 17.539 15.692 14.539 14.054 13.384 12.944 12.527 11.517 10.892 10.654 10.489 10.007 10.232 10.089 11.969 9.709 8.742 8.652 8.602 9.953 9.886 10.523 10.683 9.74 8.695 7.36 3.747 2.812 2.619 2.551 2.463 2.156 1.958 1.75 1.531 1.37 1.173 0.917 0.759 0.613 0.383 0.168 0.038 -0.018 -0.225 -0.288 -0.45 -0.584 -0.752 -0.92 -0.941 -1.012 -1.097 -1.118 -1.223 -1.175 -1.253 -1.189 -1.214 -1.251 -1.265 -1.218 -1.157 -1.303 -1.288 -1.333 -1.274 -1.294 -1.406 -1.296 -1.292 -1.298 -1.234 -1.286 -1.325 -1.302 -1.355 -1.295 -1.322 -1.319 -1.329 -1.29 -1.371 -1.415 -1.385 -1.35 -1.328 -1.267 -1.308 -1.345 -1.32 -1.336 -1.219 -1.266 -1.274 -1.254 -1.332 -1.289 -1.349 -1.349 -1.278 -1.33 -1.372 -1.369 -1.409 -1.401 -1.363 -1.353 -1.38 -1.415 -1.412 -1.393 -1.376 -1.374 -1.405 -1.443 -1.419 -1.423 -1.388 -1.389 -1.341 -1.285 -1.286 -1.289 -1.324 -1.319 -1.295 -1.376 -1.398 -1.44 -1.437
37.363 37.188 37.001 36.816 36.646 36.471 36.266 36.046 35.826 35.626 35.411 35.221 35.089 34.949 34.796 34.664 34.541 34.411 34.284 34.159 34.039 33.926 33.771 33.651 33.551 33.436 33.324 33.216 33.121 33.016 32.914 32.776 32.664 32.501 32.374 32.299 32.276 32.219 32.571 32.171 31.834 31.864 31.866 31.896 32.599 34.266 33.589 31.896 31.634 31.626 31.571 31.379 31.346 31.239 31.726 31.774 31.991 32.014 31.804 31.724 31.799 31.679 30.929 30.494 30.396 30.294 30.221 30.121 30.029 29.929 29.811 29.706 29.626 29.471 29.339 29.196 29.086 28.951 28.741 28.586 28.441 28.279 28.111 27.901 27.666 27.481 27.386 27.186 26.956 26.776 26.636 27.246 29.889 28.279 25.979 25.649 25.451 25.336 25.249 26.034 26.229 25.021 24.784 24.971 24.649 24.506 24.506 24.284 24.124 24.211 24.126 23.999 24.166 24.286 23.899 23.836 23.751 23.724 24.734 25.749 24.529 24.379 23.696 23.686 23.706 23.669 23.659 23.664 23.689 23.801 23.964 23.984 23.929 23.979 24.111 24.181 24.164 24.114 24.344 24.966 24.686 23.894 23.691 23.511 24.601 24.841 25.089 25.306 26.551 26.156 25.646 25.236 25.364 25.486 25.506 25.561 25.614 25.756 25.886 25.889 26.111 26.046 26.121 26.216 26.289 26.441 26.634 26.676 26.746 26.796 26.799 26.866 26.981 27.136 27.224 27.409 27.614 27.944 28.241 28.284 28.166 27.896 27.581 28.266 27.861 28.081 27.946 27.961 28.121 28.136 27.976 28.066 28.004 28.426 28.391 28.844 28.319 28.269 28.096 28.146 28.339 29.409 28.626 28.346 28.441 28.751 29.294 28.657 28.387 28.367 31.117 30.239 28.182 28.064 29.782 31.132 28.987 27.804 27.699 27.707 27.842 28.019 28.089 28.077 28.064 28.052 27.982 27.954 27.884 27.807 27.694 27.652 27.592 27.554 27.507 27.849 27.592 27.542 27.317 27.084 26.822 27.587 29.304 28.829 27.609 26.922 28.789 25.749 26.957 25.322 25.162 25.099 24.942 25.427 25.459 24.714 24.554 24.399 25.642 27.292 27.307 27.309 27.309 27.304 24.407 23.704 24.632 25.722 25.674 26.092 25.847 25.797 25.207 23.452 23.142 23.089 23.232 23.699 24.222 24.592 24.064 22.889 22.887 22.864 22.849 22.879 22.877 22.894 22.814 22.722 22.639 22.569 22.497 22.434 22.404 22.472 22.477 22.522 22.567 22.529 22.819 24.787 24.082 22.904 22.759 23.529 23.994 23.452 23.242 22.449 21.822 21.539 21.779 21.079 24.224 23.807 25.677 23.787 18.312 17.742 18.417 15.834 15.049 14.482 13.334 12.859 12.309 11.507 11.304 11.144 10.384 10.944 9.964 9.892 9.804 10.364 8.734 9.587 9.618 9.158 10.662 10.069 8.934 7.66 5.902 3.385 2.897 2.624 2.554 2.432 2.161 1.966 1.812 1.565 1.455 1.229 0.937 0.763 0.618 0.392 0.248 0.174 -0.056 -0.127 -0.23 -0.438 -0.631 -0.673 -0.862 -1.026 -1.05 -1.24 -1.181 -1.125 -1.25 -1.22 -1.217 -1.371 -1.289 -1.279 -1.231 -1.311 -1.269 -1.215 -1.243 -1.276 -1.406 -1.251 -1.285 -1.398 -1.258 -1.285 -1.339 -1.308 -1.294 -1.346 -1.279 -1.266 -1.297 -1.332 -1.337 -1.362 -1.364 -1.359 -1.365 -1.328 -1.304 -1.317 -1.333 -1.341 -1.367 -1.332 -1.323 -1.266 -1.255 -1.306 -1.361 -1.33 -1.346 -1.318 -1.388 -1.37 -1.35 -1.439 -1.412 -1.37 -1.363 -1.352 -1.36 -1.379 -1.372 -1.351 -1.402 -1.436 -1.426 -1.397 -1.379 -1.444 -1.41 -1.392 -1.391 -1.444 -1.363 -1.372 -1.368 -1.375 -1.374 -1.399 -1.429 -1.418
37.243 37.068 36.896 36.713 36.541 36.373 36.173 35.961 35.721 35.519 35.301 35.101 34.911 34.716 34.554 34.406 34.279 34.149 34.061 33.946 33.839 33.714 33.646 33.529 33.404 33.329 33.216 33.104 32.991 32.899 32.791 32.676 32.491 32.314 32.221 32.211 32.246 32.609 32.119 31.719 31.771 31.769 31.736 33.181 32.894 32.874 31.411 31.406 31.369 31.361 31.289 30.861 31.501 31.174 31.371 31.531 31.749 31.576 31.149 31.244 31.204 30.686 30.304 30.261 30.156 30.096 30.001 29.934 29.849 29.744 29.646 29.551 29.474 29.334 29.194 29.059 28.884 28.749 28.616 28.464 28.314 28.136 27.966 27.761 27.584 27.356 27.219 27.069 26.889 26.684 26.464 26.361 28.054 28.261 26.751 25.506 25.131 25.174 25.161 25.291 24.906 24.921 24.674 24.966 25.349 24.464 24.319 24.379 24.224 24.069 24.146 24.199 23.919 23.809 23.714 23.684 23.624 23.526 23.596 24.644 24.171 23.471 23.479 23.486 23.484 23.494 23.489 23.469 23.466 23.524 23.589 23.756 23.656 23.681 23.826 23.861 24.001 23.976 23.926 23.941 23.616 23.456 23.434 23.341 23.484 24.194 24.729 24.846 25.629 27.111 25.639 25.231 25.149 25.296 25.294 25.376 25.414 25.604 25.709 25.606 25.731 25.859 25.936 26.054 26.106 26.176 26.266 26.459 26.571 26.629 26.691 26.769 26.796 26.851 26.941 27.084 27.191 27.329 27.524 27.584 27.524 27.409 27.376 27.496 27.519 27.786 27.616 27.641 27.674 27.829 27.814 27.736 27.829 27.844 27.874 28.149 28.486 28.064 28.166 28.271 28.164 28.141 28.149 28.639 28.106 28.309 28.369 28.384 28.339 28.242 31.089 30.267 28.144 28.039 29.709 31.144 29.014 27.757 27.782 28.644 27.937 27.582 27.797 27.919 27.912 27.872 27.819 27.779 27.677 27.629 27.569 27.509 27.479 27.417 27.329 27.264 27.209 27.077 26.939 26.819 26.709 26.749 27.199 27.204 26.702 26.034 26.334 25.617 26.547 25.162 24.967 24.904 24.774 24.617 24.499 24.437 24.349 24.287 25.167 25.227 25.429 25.817 26.002 26.199 24.447 24.159 24.114 24.257 24.239 24.389 24.424 23.829 23.377 23.062 22.892 24.262 25.217 25.749 25.837 25.797 25.254 22.722 22.629 22.587 22.342 22.404 22.524 22.662 22.672 22.654 22.579 22.509 22.432 22.392 22.329 22.322 22.352 22.369 22.369 22.367 23.202 25.067 25.687 25.622 24.089 23.182 22.877 22.967 23.147 22.634 21.907 22.252 25.354 20.974 23.104 19.909 19.594 19.262 18.034 18.927 16.927 16.099 15.462 15.184 14.324 13.504 13.342 12.759 13.517 11.667 11.352 10.139 12.634 10.669 11.137 10.909 9.219 9.774 9.409 10.061 10.836 9.576 9.169 7.994 4.943 3.561 2.877 2.595 2.602 2.494 2.126 1.999 1.75 1.603 1.383 1.221 0.939 0.792 0.632 0.464 0.254 0.199 0.051 -0.095 -0.202 -0.36 -0.585 -0.678 -0.964 -0.955 -1.115 -1.046 -1.211 -1.152 -1.16 -1.267 -1.187 -1.157 -1.254 -1.253 -1.218 -1.25 -1.22 -1.283 -1.348 -1.249 -1.355 -1.279 -1.372 -1.3 -1.272 -1.312 -1.284 -1.318 -1.301 -1.292 -1.318 -1.3 -1.276 -1.289 -1.351 -1.336 -1.364 -1.267 -1.297 -1.31 -1.286 -1.318 -1.33 -1.348 -1.39 -1.361 -1.286 -1.285 -1.327 -1.307 -1.325 -1.376 -1.346 -1.364 -1.36 -1.344 -1.346 -1.409 -1.412 -1.36 -1.357 -1.346 -1.357 -1.369 -1.396 -1.395 -1.384 -1.402 -1.397 -1.427 -1.423 -1.432 -1.398 -1.393 -1.412 -1.458 -1.428 -1.419 -1.414 -1.419 -1.423 -1.422 -1.458 -1.446
37.086 36.903 36.751 36.543 36.396 36.258 36.063 35.826 35.614 35.394 35.166 34.976 34.771 34.559 34.361 34.186 34.031 33.911 33.811 33.706 33.616 33.499 33.381 33.301 33.221 33.131 33.019 32.929 32.816 32.701 32.574 32.464 32.261 32.136 32.174 32.306 31.991 31.799 31.736 31.714 31.684 31.651 31.479 31.336 32.776 31.541 32.279 31.369 31.419 31.086 30.959 30.699 30.936 30.961 31.079 31.454 31.674 31.451 30.474 30.329 30.221 30.134 30.096 30.049 29.964 29.881 29.814 29.724 29.636 29.554 29.481 29.356 29.264 29.186 29.061 28.911 28.759 28.594 28.484 28.336 28.159 28.001 27.809 27.624 27.449 27.251 27.091 26.916 26.754 26.566 26.386 26.196 27.606 27.024 27.224 26.196 25.314 25.499 25.449 25.656 25.494 25.429 25.891 25.014 25.821 24.879 24.299 24.239 24.601 24.619 24.496 24.796 24.524 23.711 23.741 23.651 23.491 23.426 23.286 23.509 23.334 23.259 23.261 23.286 23.284 23.289 23.291 23.269 23.221 23.289 23.309 23.349 23.404 23.454 23.526 23.549 23.766 23.834 23.766 23.644 23.536 24.511 23.489 23.271 23.239 24.571 25.796 24.804 24.776 25.044 25.229 25.556 25.141 25.066 25.124 25.164 25.266 25.306 25.414 25.414 25.531 25.694 25.799 25.836 25.926 26.121 26.159 26.271 26.346 26.441 26.504 26.574 26.656 26.661 26.746 26.804 26.919 27.019 27.059 27.109 27.154 27.144 27.216 27.214 27.244 27.356 27.409 27.446 27.769 27.549 27.711 27.589 27.854 28.001 27.734 28.071 28.011 28.109 28.984 28.544 27.954 27.884 27.904 28.026 28.431 29.384 28.436 28.624 28.207 28.174 29.499 28.624 28.112 27.994 29.867 31.189 29.124 27.707 27.739 30.544 30.002 27.857 27.474 27.674 27.684 27.657 27.649 27.592 27.504 27.472 27.427 27.367 27.312 27.244 27.139 27.077 26.987 27.174 27.814 28.162 26.639 26.527 26.694 26.347 26.654 26.139 28.657 25.494 25.302 24.972 24.857 24.709 24.584 24.414 24.304 24.242 24.149 24.077 24.467 24.479 24.194 24.022 24.057 24.089 23.687 23.389 23.292 23.297 23.252 23.204 23.139 23.002 22.807 22.727 22.722 25.182 25.707 25.427 24.384 23.899 23.024 22.562 22.419 22.334 22.224 22.247 22.247 22.274 22.329 22.377 22.417 22.354 22.262 22.229 22.212 22.162 22.214 22.202 22.242 22.302 22.387 22.632 24.124 25.544 25.692 25.377 23.262 22.154 22.254 22.304 22.347 22.232 22.979 20.837 20.699 20.182 20.534 18.764 17.969 19.574 18.899 16.437 19.984 18.769 16.747 13.944 13.512 13.129 13.224 12.497 13.724 11.917 10.667 9.964 11.487 9.939 11.017 9.367 10.116 10.164 9.576 9.201 8.104 6.485 4.603 3.405 2.753 2.555 2.487 2.449 2.171 1.961 1.739 1.604 1.387 1.228 1.006 0.821 0.642 0.444 0.248 0.088 -0.016 -0.128 -0.276 -0.38 -0.548 -0.661 -0.899 -1.017 -1.036 -1.122 -1.157 -1.167 -1.231 -1.166 -1.238 -1.104 -1.099 -1.165 -1.311 -1.219 -1.213 -1.345 -1.295 -1.342 -1.21 -1.298 -1.27 -1.314 -1.198 -1.316 -1.236 -1.247 -1.33 -1.314 -1.323 -1.333 -1.267 -1.32 -1.292 -1.353 -1.367 -1.288 -1.275 -1.272 -1.252 -1.35 -1.319 -1.327 -1.353 -1.36 -1.224 -1.261 -1.307 -1.314 -1.349 -1.35 -1.345 -1.329 -1.341 -1.33 -1.347 -1.419 -1.349 -1.331 -1.321 -1.345 -1.347 -1.344 -1.389 -1.383 -1.367 -1.415 -1.437 -1.45 -1.454 -1.434 -1.379 -1.408 -1.43 -1.427 -1.422 -1.461 -1.435 -1.457 -1.454 -1.449 -1.478 -1.452
36.918 36.713 36.536 36.376 36.213 36.038 35.876 35.691 35.494 35.266 35.026 34.844 34.614 34.411 34.191 34.029 33.846 33.731 33.601 33.484 33.376 33.284 33.196 33.104 32.991 32.906 32.816 32.711 32.601 32.476 32.361 32.241 32.229 32.234 32.059 32.294 31.721 31.706 31.659 31.636 31.596 31.454 31.914 31.136 31.959 30.851 30.781 30.906 30.929 31.789 30.721 30.526 30.634 30.834 31.059 31.404 31.561 31.041 30.259 30.109 30.006 29.924 29.874 29.819 29.761 29.674 29.589 29.519 29.424 29.336 29.276 29.169 29.089 29.006 28.891 28.771 28.636 28.481 28.329 28.181 28.021 27.864 27.686 27.496 27.351 27.131 26.961 26.789 26.606 26.436 26.256 26.066 26.859 25.816 26.926 27.889 26.186 25.201 24.919 25.259 24.821 25.034 25.501 25.374 26.091 25.614 24.909 24.826 25.806 26.421 26.469 24.099 23.834 24.396 23.634 23.456 23.459 23.436 23.321 23.106 23.041 23.064 23.101 23.069 23.091 23.081 23.084 23.091 23.086 23.119 23.189 23.176 23.184 23.214 23.234 23.286 23.474 23.659 23.639 23.539 24.409 26.496 25.759 24.361 23.154 23.219 24.686 25.446 24.846 25.736 25.131 25.449 24.979 24.859 24.896 24.946 24.979 25.074 25.161 25.316 25.354 25.429 25.556 25.641 25.736 25.876 25.969 26.086 26.184 26.219 26.274 26.341 26.449 26.516 26.591 26.649 26.669 26.669 26.736 26.819 26.859 26.954 27.006 27.024 27.059 27.104 27.131 27.151 27.206 27.234 27.236 27.261 27.316 27.361 27.426 27.559 27.729 27.814 28.121 28.671 27.731 27.574 27.574 27.729 27.801 29.701 29.729 29.709 28.174 28.009 28.079 28.079 28.014 27.954 32.334 31.137 29.104 27.684 27.577 30.542 28.867 27.484 27.429 27.424 27.534 27.509 27.477 27.434 27.379 27.327 27.252 27.194 27.139 27.042 26.894 27.954 28.757 29.899 30.004 29.109 26.649 26.402 26.152 25.984 25.767 25.529 25.367 25.229 25.077 24.874 24.677 24.547 24.439 24.284 24.142 24.014 24.209 23.819 23.682 23.634 23.627 23.554 23.489 23.382 23.257 23.139 23.059 23.124 23.127 22.819 22.689 22.604 22.564 22.517 22.504 22.902 23.557 23.419 23.257 22.592 22.357 22.177 22.139 22.179 22.212 22.219 22.187 22.229 22.222 22.229 22.194 22.147 22.114 22.067 22.004 21.997 22.039 22.219 22.047 22.094 22.249 22.332 22.419 22.664 24.214 24.829 25.047 21.984 21.904 21.812 23.187 22.179 21.647 20.819 20.332 19.849 20.124 18.467 18.029 20.199 17.512 19.664 25.552 24.084 18.022 14.589 14.142 13.404 12.379 12.274 12.482 12.107 11.889 10.122 11.409 10.969 10.929 9.584 11.099 11.323 9.914 8.611 8.152 6.883 4.661 3.794 3.484 2.567 2.509 2.471 2.189 1.968 1.805 1.662 1.455 1.254 1.024 0.796 0.628 0.447 0.307 0.178 -0.011 -0.077 -0.156 -0.37 -0.536 -0.572 -0.793 -1.018 -1.085 -1.195 -1.149 -1.159 -1.088 -1.258 -1.165 -1.222 -1.289 -1.296 -1.264 -1.361 -1.318 -1.248 -1.326 -1.205 -1.261 -1.212 -1.313 -1.247 -1.343 -1.246 -1.249 -1.293 -1.197 -1.251 -1.309 -1.257 -1.282 -1.284 -1.254 -1.306 -1.354 -1.309 -1.354 -1.31 -1.262 -1.361 -1.328 -1.332 -1.447 -1.348 -1.286 -1.311 -1.299 -1.311 -1.345 -1.386 -1.293 -1.38 -1.343 -1.357 -1.389 -1.376 -1.329 -1.304 -1.343 -1.384 -1.38 -1.384 -1.374 -1.371 -1.374 -1.426 -1.426 -1.433 -1.458 -1.454 -1.406 -1.42 -1.438 -1.412 -1.416 -1.422 -1.407 -1.432 -1.495 -1.471 -1.507 -1.494
36.751 36.558 36.373 36.198 36.033 35.848 35.678 35.474 35.296 35.096 34.901 34.666 34.466 34.286 34.054 33.864 33.711 33.574 33.436 33.304 33.179 33.076 32.981 32.881 32.799 32.736 32.641 32.531 32.404 32.311 32.286 32.251 32.214 32.011 31.754 31.674 31.661 31.611 31.629 31.826 31.694 31.484 31.989 30.964 30.886 30.789 31.074 31.109 30.916 30.674 30.554 30.439 30.639 30.819 30.946 31.374 31.346 30.536 29.966 29.911 29.819 29.741 29.689 29.629 29.536 29.451 29.404 29.336 29.236 29.184 29.091 28.984 28.906 28.834 28.726 28.596 28.459 28.304 28.176 28.046 27.884 27.731 27.561 27.359 27.166 26.996 26.814 26.664 26.474 26.294 26.116 25.926 25.851 25.721 27.329 29.141 27.499 25.484 24.889 25.034 24.926 24.646 24.621 25.526 24.739 24.661 25.699 26.591 24.161 24.226 27.819 26.774 26.394 25.674 24.964 24.411 24.891 25.376 24.046 23.196 23.006 22.871 22.941 22.901 22.894 22.889 22.934 23.021 23.041 23.086 23.089 23.104 23.034 23.019 23.026 23.079 23.216 23.486 23.479 23.401 23.581 25.656 26.361 26.289 25.201 23.096 23.431 24.844 24.954 25.439 25.191 24.891 24.889 24.759 24.696 24.746 24.834 24.911 24.969 25.061 25.189 25.204 25.301 25.414 25.511 25.631 25.756 25.831 25.936 26.061 26.106 26.114 26.224 26.276 26.314 26.451 26.494 26.496 26.484 26.506 26.526 26.619 26.729 26.829 26.861 26.901 26.921 26.996 27.019 27.026 27.044 27.081 27.121 27.176 27.196 27.266 27.254 27.181 27.271 27.459 27.621 27.579 27.556 27.564 28.256 30.334 29.106 28.069 27.637 28.427 30.417 28.687 28.357 33.747 35.504 34.322 29.127 27.664 27.984 30.562 29.207 27.442 27.417 27.364 27.347 27.354 27.294 27.262 27.202 27.157 27.072 27.027 26.999 27.019 28.319 29.484 30.012 29.959 28.732 27.917 26.907 26.269 25.992 25.747 25.539 25.374 25.222 25.104 24.987 24.819 24.617 24.449 24.289 24.164 24.194 24.357 23.889 23.597 23.457 23.352 23.304 23.247 23.292 23.542 23.864 24.352 25.317 25.887 25.052 22.797 22.539 22.387 22.317 22.244 22.209 22.267 22.384 22.347 22.234 22.067 21.939 21.892 21.847 21.847 22.042 22.139 22.184 22.222 22.202 22.157 21.927 21.862 21.837 21.839 21.862 21.847 22.177 22.547 22.424 21.664 21.819 22.009 22.207 22.279 22.337 22.889 22.104 21.977 21.837 21.712 21.722 22.059 21.967 21.082 20.414 19.739 19.314 18.972 18.094 17.797 18.692 22.577 29.187 28.537 23.127 18.594 14.047 14.249 13.284 12.322 12.144 13.044 10.839 10.172 11.147 10.882 9.972 10.072 9.95 10.407 9.68 8.849 8.388 7.144 5.855 10.139 6.51 2.603 2.505 2.438 2.171 1.989 1.791 1.636 1.406 1.2 1.07 0.784 0.625 0.516 0.309 0.123 0.076 -0.097 -0.185 -0.346 -0.487 -0.65 -0.837 -1.003 -1.01 -1.073 -1.11 -1.146 -1.18 -1.187 -1.232 -1.269 -1.232 -1.355 -1.371 -1.422 -1.166 -1.202 -1.219 -1.258 -1.319 -1.21 -1.316 -1.307 -1.271 -1.269 -1.333 -1.289 -1.253 -1.296 -1.264 -1.249 -1.272 -1.254 -1.288 -1.301 -1.331 -1.291 -1.303 -1.321 -1.313 -1.373 -1.292 -1.26 -1.331 -1.318 -1.294 -1.328 -1.323 -1.316 -1.29 -1.331 -1.373 -1.401 -1.342 -1.341 -1.377 -1.358 -1.359 -1.313 -1.342 -1.358 -1.389 -1.447 -1.419 -1.424 -1.391 -1.38 -1.405 -1.411 -1.447 -1.424 -1.39 -1.404 -1.42 -1.396 -1.44 -1.433 -1.418 -1.429 -1.457 -1.466 -1.499 -1.529
36.601 36.426 36.218 36.033 35.881 35.696 35.511 35.299 35.094 34.886 34.676 34.481 34.276 34.119 33.901 33.736 33.566 33.436 33.289 33.156 33.011 32.844 32.694 32.616 32.566 32.554 32.459 32.391 32.296 32.271 32.291 32.236 31.964 31.751 31.656 31.624 31.584 31.499 31.384 31.141 31.626 30.899 30.844 30.876 30.696 30.859 31.784 30.736 30.651 30.401 30.399 30.331 30.596 30.514 30.691 31.009 30.894 30.029 29.866 29.739 29.674 29.614 29.531 29.431 29.334 29.241 29.169 29.109 29.059 28.986 28.891 28.806 28.756 28.644 28.556 28.434 28.304 28.151 27.991 27.856 27.706 27.541 27.376 27.204 27.044 26.871 26.661 26.516 26.344 26.159 25.979 25.806 25.636 25.484 25.369 26.506 28.104 27.004 25.901 25.209 25.251 25.089 25.196 24.436 24.026 23.966 26.109 26.404 23.416 23.159 25.889 26.444 25.321 26.044 23.504 25.569 25.274 26.904 24.904 23.899 23.044 22.801 22.674 22.734 22.724 22.691 22.699 22.811 22.964 23.039 23.046 22.981 22.806 22.814 22.851 22.871 22.999 23.186 23.341 23.286 23.211 23.214 24.289 25.871 26.139 25.814 23.174 23.389 24.404 24.681 25.199 25.591 25.071 25.216 24.574 24.466 24.601 24.784 24.864 24.831 24.964 25.096 25.101 25.206 25.271 25.414 25.554 25.821 25.874 25.879 25.944 25.969 25.951 25.989 26.049 26.119 26.239 26.271 26.269 26.311 26.329 26.364 26.456 26.531 26.586 26.656 26.789 26.834 26.846 26.871 26.919 26.924 26.981 27.039 27.079 27.071 27.031 27.014 27.059 27.061 27.196 27.624 27.629 27.591 29.391 29.604 28.111 27.712 27.427 28.739 29.322 28.742 37.179 38.614 38.379 33.702 32.069 32.772 33.594 31.834 28.879 27.372 27.282 27.222 27.194 27.159 27.099 27.072 27.047 27.002 26.854 26.799 26.857 26.812 28.664 29.342 28.352 27.417 27.227 26.969 26.437 26.047 25.757 25.494 25.309 25.227 25.117 25.037 24.937 24.734 24.519 24.364 24.174 24.029 24.874 24.419 23.782 23.439 23.312 23.187 23.134 23.009 24.464 26.257 26.282 25.967 26.154 25.214 24.237 22.842 22.309 22.044 21.964 21.919 21.937 21.904 21.914 21.917 21.969 21.779 21.729 21.659 21.587 21.537 21.504 21.582 21.739 21.987 22.077 21.839 21.592 22.712 22.852 22.282 21.902 21.617 21.937 22.382 21.787 21.422 21.389 21.607 21.864 21.949 21.834 21.737 21.859 21.829 21.784 21.582 21.582 21.717 21.834 21.522 22.339 21.262 20.607 21.044 19.352 17.842 17.637 26.277 24.142 28.887 24.734 17.504 13.587 13.177 12.972 12.427 13.467 14.122 12.587 10.947 10.212 10.212 9.954 9.617 9.234 11.153 9.434 8.595 7.644 6.299 7.031 10.748 5.994 2.631 2.559 2.398 2.213 1.998 1.824 1.615 1.354 1.259 0.943 0.903 0.644 0.479 0.384 0.203 0.099 -0.105 -0.195 -0.312 -0.414 -0.578 -0.762 -0.994 -1.033 -1.088 -1.172 -1.105 -1.135 -1.187 -1.35 -1.265 -1.291 -1.269 -1.161 -1.075 -1.228 -1.225 -1.19 -1.141 -1.218 -1.202 -1.283 -1.281 -1.181 -1.301 -1.29 -1.233 -1.276 -1.276 -1.295 -1.193 -1.3 -1.269 -1.308 -1.263 -1.337 -1.359 -1.331 -1.312 -1.298 -1.315 -1.225 -1.193 -1.241 -1.271 -1.247 -1.294 -1.344 -1.323 -1.322 -1.331 -1.366 -1.427 -1.392 -1.328 -1.328 -1.277 -1.306 -1.321 -1.318 -1.336 -1.355 -1.408 -1.386 -1.416 -1.417 -1.435 -1.402 -1.413 -1.372 -1.325 -1.372 -1.371 -1.374 -1.387 -1.436 -1.449 -1.457 -1.445 -1.432 -1.427 -1.518 -1.508
36.413 36.221 36.023 35.871 35.721 35.523 35.328 35.121 34.914 34.714 34.481 34.291 34.076 33.906 33.714 33.564 33.416 33.279 33.156 33.004 32.851 32.706 32.514 32.399 32.329 32.319 32.289 32.239 32.231 32.241 32.089 31.891 31.676 31.626 31.609 32.241 32.594 32.134 32.779 30.964 31.976 31.319 30.751 30.551 30.551 30.584 30.519 30.654 30.299 30.191 30.199 30.086 30.479 30.596 30.696 30.479 29.864 29.691 29.631 29.526 29.449 29.376 29.299 29.254 29.134 29.031 28.976 28.914 28.846 28.781 28.739 28.701 28.614 28.481 28.386 28.271 28.161 28.019 27.831 27.654 27.539 27.354 27.214 27.074 26.939 26.741 26.541 26.396 26.206 26.019 25.854 25.706 25.529 25.356 25.206 25.059 27.459 29.204 27.791 26.301 26.074 25.151 25.031 24.391 24.224 25.659 23.806 23.291 24.244 22.741 22.756 25.756 23.346 24.286 22.894 25.234 27.116 27.614 25.681 24.891 23.034 22.706 22.581 22.541 22.544 22.549 22.496 22.476 22.599 22.829 22.946 22.681 22.614 22.646 22.674 22.714 22.809 22.931 23.136 23.106 23.079 23.071 23.036 22.991 24.276 24.804 23.104 22.861 24.161 24.216 24.961 25.721 25.741 25.361 24.731 24.286 24.334 24.486 24.616 24.684 24.756 24.844 24.961 25.096 25.111 25.209 25.489 26.036 25.914 25.679 25.776 25.774 25.781 25.774 25.809 25.879 25.981 25.996 26.024 26.111 26.186 26.219 26.271 26.309 26.351 26.411 26.484 26.576 26.656 26.734 26.779 26.799 26.899 26.944 26.946 26.941 26.946 26.911 26.926 26.936 27.221 27.439 27.036 27.246 27.491 27.909 27.304 27.217 27.189 27.304 27.757 30.149 36.047 38.422 37.129 34.424 35.614 39.134 38.229 33.264 29.182 27.259 27.122 27.037 27.022 27.004 26.942 26.894 26.894 26.814 26.787 26.729 26.752 26.679 27.264 27.132 26.992 26.957 26.519 26.227 25.989 25.774 25.504 25.652 25.589 25.949 26.332 25.637 26.519 26.324 24.464 24.227 24.042 23.912 23.742 23.617 23.462 23.312 23.164 23.037 22.907 22.797 23.584 24.787 24.364 23.882 23.872 23.264 22.554 22.254 21.812 21.677 21.774 21.644 21.627 21.619 21.597 21.577 21.557 21.507 21.464 21.464 21.429 21.352 21.292 21.302 21.274 21.272 21.417 21.344 21.397 23.629 24.612 24.647 24.389 24.212 23.524 22.187 21.352 21.194 21.027 21.174 21.377 21.404 21.309 21.442 22.342 22.257 21.794 21.514 24.197 22.469 23.699 25.502 22.909 23.587 22.272 20.314 19.057 18.837 20.234 19.957 25.369 23.694 23.772 17.932 13.484 14.324 13.284 12.677 12.429 13.974 11.767 9.682 10.579 10.297 9.697 8.894 9.949 10.434 8.991 8.981 7.355 6.003 5.361 5.72 3.448 2.691 2.517 2.443 2.229 2.034 1.81 1.678 1.399 1.213 0.996 0.795 0.657 0.656 0.402 0.259 0.066 -0.02 -0.075 -0.327 -0.451 -0.695 -0.819 -0.891 -0.99 -1.129 -1.12 -1.127 -1.259 -1.131 -1.254 -1.263 -1.173 -1.076 -1.144 -1.175 -1.246 -1.193 -1.215 -1.291 -1.317 -1.229 -1.214 -1.192 -1.204 -1.197 -1.18 -1.215 -1.224 -1.261 -1.311 -1.293 -1.258 -1.295 -1.3 -1.291 -1.311 -1.343 -1.363 -1.292 -1.258 -1.273 -1.145 -1.19 -1.229 -1.277 -1.263 -1.308 -1.351 -1.375 -1.377 -1.393 -1.33 -1.43 -1.308 -1.211 -1.269 -1.307 -1.299 -1.334 -1.346 -1.351 -1.393 -1.42 -1.4 -1.44 -1.447 -1.429 -1.42 -1.404 -1.393 -1.352 -1.394 -1.401 -1.364 -1.402 -1.38 -1.406 -1.439 -1.412 -1.395 -1.492 -1.528 -1.494
36.233 36.046 35.906 35.708 35.528 35.348 35.183 34.981 34.781 34.589 34.351 34.146 33.939 33.719 33.586 33.421 33.249 33.164 33.024 32.839 32.719 32.556 32.416 32.281 32.179 32.066 31.999 31.929 31.996 31.954 31.714 31.679 31.616 31.564 31.664 32.181 31.314 31.986 31.424 30.924 31.271 30.621 30.409 30.374 30.444 30.466 31.404 31.969 34.166 30.091 30.044 30.029 30.766 30.544 30.204 29.919 29.539 29.539 29.401 29.301 29.229 29.156 29.079 29.011 28.921 28.816 28.754 28.676 28.651 28.601 28.511 28.446 28.396 28.311 28.239 28.111 27.999 27.836 27.656 27.499 27.306 27.191 27.056 26.894 26.744 26.591 26.431 26.284 26.074 25.891 25.759 25.591 25.406 25.224 25.046 25.176 25.806 26.829 26.796 25.594 25.439 25.144 25.126 23.771 24.476 24.939 23.826 23.871 24.509 24.274 23.666 24.946 23.506 23.084 23.089 23.194 25.581 27.049 24.539 24.791 23.094 22.749 22.509 22.399 22.351 22.344 22.326 22.316 22.349 22.419 22.474 22.404 22.419 22.434 22.504 22.529 22.604 22.689 22.901 22.969 22.961 22.944 22.936 22.904 22.866 22.841 22.781 22.736 23.081 23.736 24.279 24.349 24.801 24.344 24.271 24.364 24.274 24.211 24.361 24.471 24.624 24.671 24.724 24.919 24.979 25.169 25.304 25.671 25.659 25.366 25.451 25.539 25.554 25.614 25.619 25.674 25.719 25.739 25.766 25.864 25.994 26.034 26.099 26.144 26.179 26.251 26.314 26.361 26.431 26.484 26.561 26.591 26.694 26.716 26.739 26.721 26.759 26.751 26.761 26.826 27.131 26.999 26.874 26.909 26.909 26.944 26.956 27.002 26.992 27.072 28.174 29.809 32.559 34.759 34.982 33.662 39.502 39.924 39.722 33.309 28.014 27.149 26.929 26.854 26.854 26.847 26.802 26.789 26.742 26.687 26.712 26.724 26.689 26.602 26.549 26.492 26.332 26.174 25.977 25.902 25.742 25.629 25.352 25.979 28.149 28.109 28.132 28.134 28.147 28.197 24.449 24.114 23.972 23.829 23.757 23.512 23.322 23.144 22.987 22.857 22.697 22.564 22.594 23.334 23.732 22.967 23.034 22.399 21.774 21.602 21.799 23.042 23.972 23.772 23.452 23.249 22.814 21.499 21.302 21.147 21.087 21.109 21.137 21.132 21.097 21.142 21.084 21.037 21.042 21.074 21.219 21.909 22.937 23.077 24.077 24.114 23.989 21.704 21.182 20.959 20.792 20.829 20.844 20.824 20.924 21.322 21.972 22.637 23.907 24.334 25.604 21.412 22.989 24.729 22.034 22.762 21.527 20.884 20.287 23.679 20.909 21.187 24.832 18.969 18.187 16.012 14.072 13.904 13.594 12.767 12.969 12.044 11.124 10.394 12.337 10.657 10.472 8.784 9.554 10.583 9.301 7.994 7.571 5.68 5.38 3.642 2.933 2.683 2.556 2.462 2.227 1.969 1.834 1.671 1.395 1.266 1.006 0.917 0.741 0.511 0.382 0.279 0.068 0.026 -0.118 -0.278 -0.447 -0.551 -0.817 -0.95 -1.006 -1.112 -1.181 -1.134 -1.071 -1.202 -1.232 -1.177 -1.133 -1.234 -1.256 -1.182 -1.186 -1.182 -1.24 -1.22 -1.273 -1.305 -1.207 -1.27 -1.212 -1.261 -1.224 -1.31 -1.295 -1.31 -1.313 -1.267 -1.261 -1.307 -1.274 -1.304 -1.279 -1.325 -1.326 -1.27 -1.275 -1.214 -1.242 -1.278 -1.324 -1.32 -1.333 -1.409 -1.344 -1.353 -1.323 -1.384 -1.357 -1.194 -1.297 -1.269 -1.319 -1.324 -1.378 -1.338 -1.331 -1.356 -1.351 -1.471 -1.379 -1.468 -1.435 -1.389 -1.411 -1.41 -1.402 -1.353 -1.35 -1.419 -1.327 -1.358 -1.361 -1.367 -1.438 -1.458 -1.488 -1.486 -1.447 -1.437
36.071 35.891 35.731 35.553 35.381 35.188 35.001 34.791 34.604 34.399 34.189 33.986 33.789 33.606 33.481 33.326 33.186 33.024 32.881 32.721 32.551 32.411 32.301 32.156 32.096 32.451 32.231 32.216 31.839 31.606 31.606 31.511 31.564 31.786 31.231 31.134 30.964 30.866 32.821 31.169 31.019 30.714 30.429 30.221 30.316 30.291 35.006 35.559 34.191 31.151 29.921 30.239 30.571 29.994 29.446 29.339 29.414 29.296 29.181 29.086 29.034 28.944 28.836 28.811 28.714 28.639 28.601 28.556 28.519 28.386 28.339 28.274 28.236 28.154 28.041 27.904 27.769 27.629 27.499 27.294 27.164 27.059 26.874 26.739 26.586 26.439 26.269 26.094 25.954 25.816 25.686 25.466 25.289 25.149 25.019 24.861 25.169 25.739 25.736 25.529 25.304 25.281 24.931 24.961 26.036 24.034 23.624 22.941 22.799 22.591 23.266 23.816 25.004 23.249 23.036 23.564 24.306 25.379 25.171 25.334 24.681 23.939 22.429 22.274 22.179 22.181 22.159 22.144 22.181 22.216 22.209 22.239 22.224 22.211 22.319 22.354 22.386 22.484 22.656 22.801 22.831 22.829 22.826 22.816 22.794 22.749 22.719 22.644 22.596 23.051 25.019 24.134 24.326 25.256 25.116 25.111 24.771 24.219 24.126 24.281 24.426 24.486 24.566 24.676 24.766 25.114 25.076 25.029 25.079 25.064 25.201 25.286 25.326 25.379 25.474 25.456 25.499 25.561 25.579 25.671 25.734 25.829 25.896 25.951 26.024 26.136 26.234 26.264 26.301 26.309 26.349 26.396 26.431 26.486 26.514 26.479 26.519 26.546 26.534 26.609 26.616 26.699 26.726 26.746 26.759 26.789 26.821 26.864 26.842 26.794 27.019 27.634 28.057 29.052 29.514 33.104 37.222 39.434 38.374 33.584 27.014 26.934 26.789 26.739 26.702 26.722 26.732 26.692 26.642 26.657 26.684 26.647 26.579 26.487 26.319 26.062 25.892 25.752 25.649 26.607 26.734 25.777 25.272 25.707 27.722 26.987 27.062 26.949 26.937 26.727 24.402 24.032 23.877 23.794 23.647 23.489 23.229 23.017 22.794 22.634 22.497 22.339 22.219 23.487 23.217 21.802 21.699 21.557 21.389 21.387 21.962 24.382 24.549 24.599 24.602 24.587 22.954 21.147 21.049 20.879 20.799 20.817 20.869 20.852 20.894 20.934 20.922 20.899 20.852 20.844 20.949 21.137 21.297 21.307 21.294 21.364 21.617 21.242 20.952 20.724 20.579 20.532 20.559 20.732 20.534 20.814 23.907 24.967 21.179 21.264 22.394 21.239 21.267 21.532 21.597 23.079 21.579 21.247 21.624 20.477 20.047 19.789 22.664 17.049 15.329 14.624 14.164 15.337 16.137 15.242 14.444 12.677 11.862 11.067 13.492 13.382 9.954 8.749 8.562 10.112 8.722 8.191 6.987 5.79 5.337 3.366 2.868 2.664 2.524 2.457 2.306 2.038 1.788 1.731 1.38 1.243 1.038 0.905 0.636 0.507 0.368 0.232 0.09 0.03 -0.111 -0.242 -0.305 -0.533 -0.756 -0.958 -1.118 -1.087 -1.153 -1.143 -1.171 -1.151 -1.271 -1.166 -1.127 -1.229 -1.19 -1.278 -1.209 -1.19 -1.262 -1.247 -1.235 -1.176 -1.241 -1.195 -1.255 -1.208 -1.227 -1.165 -1.245 -1.251 -1.217 -1.216 -1.272 -1.315 -1.288 -1.278 -1.262 -1.265 -1.325 -1.306 -1.282 -1.245 -1.298 -1.279 -1.286 -1.335 -1.328 -1.36 -1.373 -1.363 -1.401 -1.34 -1.181 -1.217 -1.238 -1.333 -1.389 -1.356 -1.382 -1.331 -1.372 -1.395 -1.386 -1.404 -1.436 -1.399 -1.397 -1.423 -1.423 -1.447 -1.468 -1.316 -1.213 -1.265 -1.194 -1.314 -1.361 -1.385 -1.405 -1.484 -1.375 -1.378 -1.365 -1.382
35.888 35.721 35.553 35.358 35.201 35.018 34.851 34.629 34.426 34.221 34.024 33.829 33.631 33.484 33.329 33.214 33.051 32.909 32.756 32.571 32.441 32.324 32.191 32.034 32.424 33.151 32.076 31.596 31.564 31.554 31.779 31.579 31.436 31.251 31.016 31.959 31.024 30.821 30.914 30.499 30.374 30.359 30.319 30.134 30.166 31.926 35.581 34.741 33.751 31.764 29.866 30.239 30.241 29.419 29.374 29.749 29.146 29.081 29.001 28.906 28.821 28.769 28.679 28.564 28.469 28.461 28.381 28.349 28.296 28.224 28.184 28.114 28.051 27.926 27.789 27.659 27.556 27.466 27.339 27.149 27.029 26.889 26.719 26.579 26.424 26.266 26.124 25.969 25.864 25.666 25.511 25.351 25.194 25.439 25.834 25.586 24.584 24.779 25.434 25.401 24.991 24.926 24.841 24.631 25.296 24.206 24.201 24.051 23.189 22.679 22.899 22.299 23.801 22.741 23.929 25.521 25.859 25.744 25.456 26.136 26.826 24.969 22.544 22.154 22.024 22.014 22.066 22.116 22.121 22.121 22.114 22.099 22.119 22.124 22.179 22.196 22.216 22.301 22.484 22.599 22.689 22.729 22.666 22.701 22.696 22.661 22.614 22.561 22.551 22.519 23.371 24.544 24.349 24.616 24.761 24.186 24.336 24.396 24.496 24.019 24.141 24.294 24.391 24.496 24.584 24.806 24.774 24.686 24.729 24.826 24.939 25.026 25.144 25.244 25.286 25.284 25.296 25.341 25.404 25.446 25.539 25.631 25.709 25.816 25.899 25.984 26.064 26.141 26.184 26.204 26.246 26.249 26.286 26.296 26.324 26.301 26.304 26.361 26.411 26.446 26.474 26.521 26.531 26.514 26.554 26.654 26.716 26.764 26.732 26.684 26.647 26.612 26.617 26.807 27.219 28.027 34.732 34.364 35.224 31.949 26.817 26.729 26.677 26.592 26.572 26.592 26.627 26.642 26.634 26.629 26.627 26.457 26.402 26.262 25.947 25.954 25.699 27.744 28.624 28.759 28.439 26.004 25.147 24.999 24.942 24.949 24.984 24.972 24.899 24.644 24.087 23.954 23.839 23.729 23.644 23.464 23.209 22.862 22.584 22.394 22.247 22.122 21.977 22.559 25.164 23.462 21.434 21.312 21.202 21.202 21.849 22.324 22.302 22.424 22.512 22.697 21.602 20.884 20.789 20.807 20.804 20.784 20.819 20.789 20.834 20.864 20.792 20.667 20.629 20.627 20.619 20.639 20.744 20.819 20.894 20.937 20.972 20.862 20.599 20.457 20.347 20.327 20.577 21.277 22.344 22.649 23.712 21.587 20.984 21.062 21.119 21.062 21.404 21.277 21.429 22.287 21.507 21.339 21.109 20.664 20.157 19.729 21.612 18.319 15.802 14.862 14.234 15.949 16.139 14.809 15.807 12.737 11.277 12.024 9.534 9.372 9.192 9.604 8.994 9.21 9.373 8.662 6.789 5.586 4.571 3.208 2.802 2.622 2.494 2.465 2.23 1.982 1.79 1.606 1.357 1.249 0.996 0.814 0.713 0.708 0.419 0.235 0.254 -0.09 -0.107 -0.231 -0.354 -0.574 -0.718 -0.914 -1.118 -1.077 -1.021 -1.183 -1.115 -1.145 -1.117 -1.162 -1.226 -1.121 -1.222 -1.244 -1.232 -1.257 -1.197 -1.209 -1.223 -1.268 -1.213 -1.142 -1.219 -1.229 -1.23 -1.279 -1.17 -1.223 -1.243 -1.211 -1.241 -1.297 -1.294 -1.261 -1.269 -1.261 -1.283 -1.291 -1.287 -1.251 -1.29 -1.275 -1.275 -1.313 -1.325 -1.334 -1.323 -1.339 -1.26 -1.204 -1.203 -1.228 -1.256 -1.308 -1.385 -1.366 -1.364 -1.294 -1.36 -1.378 -1.38 -1.438 -1.422 -1.405 -1.401 -1.434 -1.389 -1.387 -1.394 -1.342 -1.384 -1.39 -1.322 -1.387 -1.427 -1.453 -1.41 -1.348 -1.31 -1.276 -1.262 -1.28
35.661 35.506 35.341 35.168 35.006 34.851 34.648 34.449 34.246 34.046 33.836 33.676 33.536 33.366 33.221 33.084 32.924 32.754 32.559 32.386 32.254 32.161 32.096 31.964 32.286 31.969 31.681 31.599 31.559 31.519 31.634 37.369 32.666 31.789 30.876 30.719 30.671 30.581 30.419 30.421 30.239 30.156 30.069 30.031 30.036 30.809 29.654 31.884 34.859 31.529 30.324 30.016 29.821 29.084 29.221 29.229 28.871 28.796 28.751 28.686 28.604 28.551 28.474 28.376 28.299 28.241 28.176 28.129 28.096 28.056 28.059 27.961 27.816 27.661 27.576 27.471 27.336 27.204 27.069 26.916 26.841 26.666 26.539 26.439 26.304 26.111 25.979 25.861 25.689 25.511 25.346 25.214 25.064 25.014 25.566 25.351 24.469 24.214 24.526 24.394 24.009 23.906 23.921 23.714 23.899 24.486 24.414 24.029 23.834 23.126 21.191 21.266 21.514 22.381 23.159 22.881 24.539 24.024 22.859 25.324 26.009 23.354 23.294 22.446 21.924 21.856 22.009 22.079 22.114 22.091 22.009 22.001 22.069 22.069 22.094 22.091 22.076 22.111 22.311 22.416 22.526 22.586 22.589 22.589 22.589 22.554 22.561 22.549 22.484 22.416 22.339 23.106 23.586 24.139 25.091 24.549 25.024 25.039 25.296 23.961 23.879 24.029 24.164 24.279 24.339 24.444 24.449 24.461 24.511 24.591 24.696 24.796 24.911 25.039 25.071 25.056 25.129 25.171 25.214 25.226 25.326 25.406 25.529 25.646 25.736 25.801 25.854 25.904 25.991 26.029 26.046 26.136 26.171 26.266 26.236 26.206 26.194 26.216 26.219 26.269 26.331 26.339 26.336 26.366 26.411 26.449 26.569 26.642 26.657 26.597 26.529 26.494 26.489 26.549 26.614 26.632 27.427 29.494 30.039 26.939 26.679 26.599 26.499 26.452 26.482 26.437 26.472 26.612 26.657 26.532 26.334 26.209 26.174 26.059 26.152 28.679 28.757 28.697 28.714 27.989 26.979 26.127 25.094 24.847 24.759 24.782 24.724 24.564 24.394 24.064 24.319 25.659 23.877 23.634 23.539 23.447 23.402 23.242 22.374 22.159 22.159 21.929 21.774 22.447 23.774 24.842 21.257 21.167 21.122 20.984 21.274 21.184 21.434 21.579 21.537 21.537 21.079 20.557 20.482 20.659 20.759 20.769 20.774 20.767 20.789 20.814 20.599 20.352 20.312 20.357 20.329 20.287 20.222 20.144 20.092 20.047 20.147 20.057 20.112 20.217 20.139 20.197 20.757 23.042 22.452 21.587 20.419 20.669 21.117 20.952 20.937 21.249 22.934 23.147 20.962 21.447 21.619 21.369 21.134 20.749 20.167 20.129 20.314 20.469 16.649 15.247 14.294 13.637 14.182 12.859 12.637 11.862 10.769 9.869 9.504 9.212 9.212 10.439 10.532 8.307 9.245 8.003 6.704 5.335 4.283 3.362 2.808 2.622 2.488 2.406 2.276 1.978 1.866 1.599 1.488 1.212 1.001 0.863 0.717 0.612 0.412 0.252 0.147 0.036 -0.066 -0.269 -0.39 -0.498 -0.716 -0.817 -0.953 -1.09 -1.041 -1.168 -1.194 -1.241 -1.199 -1.181 -1.155 -1.192 -1.193 -1.136 -1.278 -1.232 -1.238 -1.215 -1.228 -1.272 -1.168 -1.206 -1.284 -1.228 -1.297 -1.207 -1.233 -1.289 -1.255 -1.252 -1.196 -1.283 -1.262 -1.277 -1.269 -1.242 -1.283 -1.276 -1.267 -1.194 -1.273 -1.279 -1.277 -1.301 -1.336 -1.304 -1.237 -1.134 -1.15 -1.197 -1.268 -1.27 -1.356 -1.306 -1.356 -1.24 -1.309 -1.325 -1.301 -1.337 -1.404 -1.415 -1.438 -1.381 -1.397 -1.432 -1.402 -1.362 -1.445 -1.375 -1.438 -1.426 -1.363 -1.389 -1.424 -1.394 -1.371 -1.309 -1.309 -1.253 -1.073 -1.16
35.456 35.293 35.116 34.943 34.808 34.643 34.436 34.264 34.046 33.891 33.689 33.544 33.394 33.236 33.089 32.934 32.759 32.586 32.399 32.226 32.106 31.996 31.881 31.874 33.916 31.676 31.501 31.506 31.441 31.479 31.346 33.289 31.131 30.426 31.076 30.679 30.476 30.379 30.469 30.249 30.086 30.004 29.941 29.999 29.849 30.984 29.346 29.679 31.831 29.966 30.104 29.801 29.181 28.779 28.734 28.674 28.629 28.554 28.524 28.484 28.409 28.346 28.304 28.191 28.114 28.026 27.994 27.961 27.969 27.949 27.839 27.691 27.634 27.509 27.369 27.226 27.141 27.029 26.874 26.749 26.609 26.494 26.341 26.256 26.126 25.954 25.824 25.679 25.506 25.346 25.246 25.071 24.906 24.764 24.784 24.564 24.306 24.311 24.989 25.141 24.074 23.619 23.436 23.241 23.789 24.031 24.024 23.689 24.276 24.201 22.111 23.929 24.079 23.466 22.649 22.091 22.279 22.239 22.056 22.194 22.681 22.989 25.276 24.481 21.941 21.616 21.731 21.949 22.031 22.001 21.781 21.741 21.889 22.009 22.021 21.984 21.906 21.949 22.109 22.216 22.286 22.391 22.481 22.461 22.466 22.501 22.491 22.431 22.376 22.351 22.274 22.234 22.664 23.661 24.354 24.844 24.794 24.789 24.584 24.609 23.789 23.846 23.959 24.081 24.139 24.196 24.279 24.249 24.329 24.424 24.464 24.556 24.679 24.816 24.786 24.831 24.909 24.961 25.021 25.049 25.126 25.226 25.321 25.436 25.496 25.566 25.646 25.669 25.701 25.751 25.811 25.886 25.946 25.979 26.024 26.069 26.054 26.121 26.126 26.146 26.171 26.131 26.164 26.211 26.189 26.234 26.349 26.409 26.412 26.434 26.427 26.412 26.374 26.394 26.407 26.427 26.469 26.479 26.484 26.682 26.637 26.462 26.327 26.287 26.332 26.312 26.264 26.284 26.319 26.187 26.122 26.032 25.959 25.862 26.182 28.502 27.779 26.699 26.259 26.269 25.977 25.349 24.789 24.619 24.449 24.339 24.204 24.029 24.627 26.417 27.147 27.164 25.514 23.594 23.404 23.444 23.199 23.007 22.479 21.974 21.802 21.747 21.654 22.092 21.609 21.404 21.127 21.679 22.424 22.094 20.839 20.607 20.537 20.522 20.502 20.434 20.299 20.209 20.129 20.154 20.237 20.327 20.392 20.484 20.509 20.502 20.204 20.009 20.054 20.052 20.077 20.064 19.962 21.414 22.999 22.909 22.752 21.734 21.177 20.809 19.959 20.049 20.647 22.094 23.022 21.702 20.184 20.384 20.604 20.697 21.127 21.564 23.577 24.109 23.219 21.122 21.552 21.422 21.229 20.652 20.187 20.637 22.352 18.577 17.647 16.642 15.619 14.854 13.582 13.672 12.407 11.332 10.519 10.494 10.182 10.134 9.887 10.394 10.009 8.366 8.534 7.49 6.699 5.423 4.45 3.259 2.775 2.611 2.511 2.439 2.287 1.996 1.815 1.603 1.413 1.201 1.043 0.861 0.687 0.582 0.448 0.319 0.145 0.041 -0.116 -0.247 -0.282 -0.529 -0.642 -0.833 -1.019 -1.118 -1.124 -1.098 -1.202 -1.132 -1.194 -1.179 -1.174 -1.218 -1.173 -1.246 -1.174 -1.221 -1.174 -1.239 -1.242 -1.221 -1.282 -1.201 -1.259 -1.192 -1.279 -1.193 -1.234 -1.283 -1.26 -1.214 -1.157 -1.266 -1.231 -1.229 -1.225 -1.307 -1.299 -1.272 -1.241 -1.229 -1.238 -1.319 -1.246 -1.261 -1.291 -1.27 -1.213 -1.098 -1.216 -1.251 -1.232 -1.324 -1.361 -1.24 -1.299 -1.239 -1.241 -1.25 -1.317 -1.373 -1.403 -1.363 -1.38 -1.377 -1.391 -1.405 -1.453 -1.366 -1.402 -1.374 -1.371 -1.369 -1.381 -1.35 -1.332 -1.367 -1.341 -1.262 -1.353 -1.222 -1.11 -0.977
35.263 35.103 34.933 34.773 34.611 34.421 34.231 34.036 33.891 33.729 33.569 33.419 33.271 33.136 32.964 32.751 32.604 32.449 32.251 32.096 31.959 31.831 32.056 31.796 32.634 31.506 31.421 31.389 31.849 31.571 31.221 33.614 32.206 31.459 30.279 30.294 30.061 30.216 30.106 30.164 30.029 29.884 29.891 29.784 30.084 29.304 29.191 29.794 29.284 29.676 29.809 28.931 28.644 28.544 28.486 28.549 28.384 28.321 28.314 28.249 28.239 28.141 28.064 27.956 27.896 27.836 27.811 27.789 27.789 27.639 27.511 27.449 27.359 27.221 27.149 27.046 26.956 26.816 26.681 26.561 26.461 26.309 26.164 26.034 25.881 25.766 25.706 25.529 25.374 25.231 25.109 24.919 24.751 24.649 24.496 24.334 24.151 24.064 24.704 24.614 23.749 23.461 23.389 23.231 23.261 24.114 23.931 23.166 23.591 23.566 22.339 23.584 23.916 20.796 21.054 21.676 21.896 22.241 22.049 21.949 22.139 22.001 25.104 25.511 23.094 21.509 21.486 21.606 21.766 21.694 21.559 21.581 21.601 21.699 21.866 21.751 21.716 21.789 21.904 22.006 22.104 22.189 22.351 22.374 22.359 22.364 22.381 22.346 22.311 22.271 22.234 22.169 22.136 22.501 23.149 24.194 24.476 24.576 24.001 24.354 23.719 23.714 23.781 23.826 23.926 23.999 24.026 24.071 24.094 24.186 24.349 24.376 24.456 24.466 24.504 24.604 24.681 24.761 24.829 24.891 24.949 25.016 25.126 25.201 25.276 25.359 25.414 25.454 25.474 25.524 25.551 25.621 25.731 25.769 25.796 25.819 25.834 25.931 26.034 26.029 26.019 25.981 26.006 26.006 26.039 26.074 26.141 26.199 26.204 26.189 26.219 26.217 26.239 26.284 26.287 26.299 26.344 26.344 26.707 27.172 26.537 26.354 26.164 26.134 26.142 26.109 26.084 26.182 26.087 25.982 25.967 25.899 25.804 25.707 25.817 25.934 25.747 25.554 25.667 25.319 24.877 24.682 24.552 24.449 24.284 24.134 24.044 25.134 26.694 27.182 26.869 25.564 24.097 23.417 23.309 23.347 23.032 22.707 22.364 21.969 21.719 21.517 21.459 21.374 21.254 21.099 20.969 21.784 22.329 22.872 20.919 20.404 20.357 20.252 20.174 20.117 21.027 20.324 19.787 19.797 20.177 19.959 20.239 19.804 19.909 19.887 19.799 19.769 19.752 19.789 19.922 19.934 19.829 20.917 22.532 22.917 23.057 23.097 23.127 21.857 20.017 19.734 20.097 20.887 22.599 22.989 21.014 20.157 20.184 20.377 20.519 21.169 21.422 23.457 24.099 22.402 21.542 21.262 20.932 20.529 22.022 19.712 18.839 18.209 17.744 16.679 15.819 15.244 14.492 13.727 12.897 11.999 11.267 11.192 10.472 10.187 9.697 9.207 9.129 8.402 7.844 7.596 6.69 5.524 4.268 3.221 2.768 2.624 2.508 2.422 2.345 2.01 1.826 1.651 1.438 1.232 1.095 0.885 0.72 0.612 0.493 0.439 0.202 0.023 -0.073 -0.172 -0.383 -0.524 -0.655 -0.824 -0.976 -0.983 -1.087 -1.148 -1.136 -1.138 -1.123 -1.107 -1.191 -1.143 -1.179 -1.224 -1.183 -1.233 -1.281 -1.226 -1.288 -1.241 -1.262 -1.179 -1.147 -1.284 -1.133 -1.189 -1.198 -1.322 -1.172 -1.213 -1.202 -1.184 -1.237 -1.19 -1.28 -1.284 -1.261 -1.231 -1.25 -1.204 -1.254 -1.24 -1.24 -1.212 -1.277 -1.273 -1.166 -1.122 -1.2 -1.222 -1.266 -1.303 -1.296 -1.217 -1.214 -1.277 -1.33 -1.339 -1.376 -1.368 -1.363 -1.308 -1.368 -1.388 -1.41 -1.451 -1.428 -1.384 -1.329 -1.416 -1.371 -1.374 -1.362 -1.344 -1.319 -1.386 -1.352 -1.343 -1.32 -1.266 -1.184 -1.048
35.048 34.888 34.746 34.583 34.416 34.223 34.038 33.864 33.709 33.584 33.401 33.271 33.114 32.994 32.799 32.601 32.449 32.294 32.076 31.954 31.849 31.756 31.759 31.804 31.444 31.371 31.334 31.314 32.709 31.409 30.839 30.611 30.361 30.431 31.556 30.126 29.561 29.619 29.966 29.814 29.786 29.709 29.666 30.046 30.284 28.974 30.219 30.111 29.146 29.579 28.969 28.576 28.524 28.536 28.729 29.241 28.704 28.121 28.091 28.071 27.999 27.919 27.884 27.771 27.739 27.681 27.639 27.616 27.554 27.349 27.291 27.221 27.094 27.009 26.909 26.796 26.689 26.586 26.479 26.356 26.261 26.141 26.001 25.914 25.721 25.606 25.476 25.324 25.209 25.056 24.941 24.769 24.621 24.514 24.339 24.169 23.999 23.889 23.771 23.626 23.486 23.349 23.264 23.144 22.959 23.491 23.906 23.444 22.949 22.931 22.159 21.951 21.494 21.796 20.616 20.849 21.431 21.964 21.911 21.851 21.626 22.329 22.496 22.436 23.609 21.426 21.369 21.401 21.419 21.389 21.379 21.406 21.399 21.441 21.479 21.519 21.539 21.634 21.754 21.851 21.884 21.929 22.144 22.276 22.261 22.256 22.254 22.241 22.249 22.196 22.169 22.106 22.039 22.011 22.419 23.214 24.056 24.366 23.801 23.594 23.571 23.529 23.566 23.649 23.641 23.744 23.861 23.906 23.954 23.984 24.026 24.139 24.236 24.221 24.244 24.369 24.439 24.506 24.614 24.699 24.746 24.824 24.886 24.944 24.791 24.996 25.156 25.236 25.266 25.319 25.359 25.396 25.449 25.514 25.586 25.609 25.636 25.699 25.761 25.814 25.861 25.934 25.896 25.856 25.879 25.954 25.994 26.017 25.994 26.012 26.012 26.047 26.062 26.122 26.152 26.164 26.179 26.157 26.334 26.379 26.919 26.359 26.034 26.019 25.937 25.869 25.889 26.082 25.989 25.729 25.662 25.679 25.804 25.567 25.502 25.452 25.392 25.299 25.067 24.754 24.552 24.524 24.494 24.359 24.207 24.067 25.232 27.097 26.884 25.859 24.562 24.427 23.452 23.142 23.239 23.309 23.267 22.399 22.102 21.774 21.662 21.437 21.232 21.157 21.119 20.964 20.782 20.907 21.477 22.084 20.839 20.262 20.179 20.077 20.017 19.937 22.322 23.032 23.202 23.024 23.027 22.984 21.827 19.614 19.572 19.597 19.524 19.507 19.502 19.534 19.664 19.774 19.677 19.767 19.834 20.009 20.032 20.044 20.829 20.342 19.759 19.607 19.504 20.012 20.947 22.897 23.092 20.697 19.894 19.884 20.194 20.859 21.212 21.584 23.684 24.074 22.449 20.819 20.939 20.724 24.307 21.989 21.687 23.302 17.449 16.484 16.162 15.334 14.517 14.437 13.382 13.169 12.242 11.497 10.439 9.607 8.764 7.889 7.882 7.761 7.521 9.311 8.578 5.717 4.631 3.453 2.751 2.611 2.519 2.439 2.309 2.05 1.854 1.639 1.547 1.269 1.058 0.932 0.728 0.651 0.498 0.354 0.251 0.081 -0.049 -0.103 -0.328 -0.404 -0.624 -0.933 -0.998 -1.059 -1.126 -1.15 -1.108 -1.131 -1.132 -1.088 -1.143 -1.161 -1.192 -1.217 -1.15 -1.146 -1.186 -1.171 -1.216 -1.211 -1.265 -1.288 -1.274 -1.19 -1.235 -1.225 -1.233 -1.21 -1.286 -1.194 -1.219 -1.224 -1.224 -1.233 -1.197 -1.298 -1.267 -1.206 -1.206 -1.208 -1.282 -1.27 -1.206 -1.208 -1.177 -1.183 -1.174 -1.135 -1.11 -1.169 -1.276 -1.216 -1.207 -1.234 -1.289 -1.312 -1.34 -1.273 -1.326 -1.359 -1.348 -1.332 -1.324 -1.36 -1.38 -1.412 -1.389 -1.351 -1.309 -1.38 -1.425 -1.415 -1.353 -1.265 -1.3 -1.348 -1.395 -1.292 -1.339 -1.337 -1.274 -1.199
34.856 34.711 34.566 34.411 34.218 34.053 33.906 33.754 33.614 33.454 33.306 33.176 32.996 32.786 32.604 32.429 32.319 32.141 31.964 31.799 31.731 31.701 31.639 31.396 31.314 31.266 31.326 31.349 31.011 30.731 30.501 30.426 30.026 31.381 31.959 30.121 30.086 29.666 29.281 29.331 29.471 29.456 29.451 29.631 29.416 28.891 28.874 29.414 28.754 28.734 28.434 28.336 28.686 28.756 29.149 29.199 28.864 27.949 27.834 27.806 27.746 27.679 27.594 27.566 27.546 27.531 27.506 27.381 27.256 27.151 27.066 26.989 26.874 26.794 26.644 26.514 26.426 26.366 26.266 26.146 26.061 25.951 25.796 25.669 25.541 25.396 25.354 25.154 24.991 24.866 24.739 24.609 24.494 24.389 24.199 24.041 23.886 23.761 23.649 23.491 23.361 23.231 23.084 22.966 22.999 23.019 23.329 23.536 23.589 23.411 22.284 21.839 21.624 21.554 21.661 20.469 20.484 21.154 21.556 21.581 22.739 22.289 21.576 21.604 22.599 21.951 21.241 21.231 21.229 21.191 21.219 21.204 21.156 21.266 21.299 21.331 21.371 21.474 21.591 21.636 21.689 21.776 21.899 22.106 22.166 22.156 22.171 22.144 22.161 22.126 22.066 22.034 21.956 21.901 21.926 22.346 23.179 24.044 23.984 24.364 23.824 23.396 23.416 23.449 23.471 23.469 23.546 23.761 23.771 23.831 23.844 23.884 23.929 23.971 24.021 24.101 24.184 24.259 24.341 24.444 24.516 24.584 24.614 24.464 23.936 24.069 24.396 24.729 24.971 25.079 25.139 25.176 25.229 25.289 25.321 25.366 25.426 25.491 25.601 25.624 25.669 25.721 25.651 25.691 25.761 25.841 25.879 25.867 25.829 25.847 25.847 25.879 25.899 25.972 25.979 26.007 26.014 25.992 25.992 26.064 26.134 25.867 25.924 26.124 25.814 25.687 25.689 25.714 25.614 25.517 26.024 27.902 27.429 25.682 25.352 25.247 25.142 24.964 24.744 24.712 26.354 24.824 24.459 24.302 24.092 24.007 24.142 25.179 24.634 24.649 24.114 23.502 23.274 23.114 23.104 22.632 22.322 22.057 21.767 21.589 21.424 21.347 21.164 20.964 20.844 20.742 20.624 20.512 20.404 20.309 20.244 20.107 19.997 19.894 19.792 19.737 22.242 23.119 23.194 23.172 23.159 23.189 22.549 19.542 19.402 19.299 19.277 19.259 19.237 19.267 19.324 19.379 19.452 19.569 19.727 19.802 19.829 19.807 19.764 19.679 19.599 19.457 19.289 19.289 19.704 21.244 22.987 20.854 19.777 19.582 19.782 20.192 20.584 21.179 21.719 23.919 23.352 20.592 20.922 20.649 22.974 24.949 24.892 24.229 18.012 16.254 15.789 15.134 14.479 14.054 13.692 13.239 12.677 11.779 10.627 9.999 9.122 8.732 8.237 9.24 10.517 12.759 12.701 6.128 4.681 3.263 2.721 2.619 2.54 2.452 2.376 2.054 1.825 1.644 1.464 1.241 1.082 0.931 0.742 0.692 0.523 0.362 0.254 0.157 -0.04 -0.171 -0.319 -0.417 -0.694 -0.909 -1.023 -1.022 -1.025 -1.188 -1.233 -1.142 -1.138 -1.117 -1.205 -1.167 -1.187 -1.215 -1.214 -1.14 -1.257 -1.097 -1.177 -1.17 -1.158 -1.183 -1.256 -1.192 -1.233 -1.232 -1.276 -1.228 -1.204 -1.228 -1.181 -1.215 -1.22 -1.229 -1.302 -1.27 -1.238 -1.278 -1.202 -1.245 -1.289 -1.251 -1.126 -1.005 -1.098 -1.022 -1.171 -1.104 -1.058 -1.192 -1.194 -1.209 -1.097 -1.112 -1.103 -1.279 -1.321 -1.291 -1.312 -1.363 -1.337 -1.327 -1.346 -1.347 -1.355 -1.351 -1.322 -1.353 -1.351 -1.325 -1.364 -1.422 -1.287 -1.186 -1.246 -1.376 -1.316 -1.379 -1.41 -1.373 -1.382 -1.382
34.691 34.521 34.356 34.188 34.048 33.896 33.736 33.609 33.469 33.331 33.189 33.054 32.851 32.626 32.469 32.314 32.201 32.056 31.834 31.704 31.911 32.259 31.406 31.301 31.239 31.119 30.901 30.654 30.546 32.059 30.339 29.899 30.261 30.231 30.276 29.759 29.899 29.821 29.696 29.369 29.144 29.316 28.996 29.094 28.696 28.749 28.921 28.664 28.534 28.396 28.239 28.226 28.539 28.691 28.656 28.584 28.336 27.779 27.596 27.564 27.504 27.379 27.316 27.256 27.256 27.244 27.156 27.051 26.981 26.909 26.806 26.729 26.636 26.506 26.454 26.309 26.254 26.191 26.064 25.929 27.574 28.856 25.784 25.499 25.349 25.239 25.104 24.946 24.814 24.706 24.579 24.464 24.314 24.194 24.049 23.906 23.769 23.626 23.524 23.359 23.211 23.091 22.976 22.836 22.786 22.654 22.569 22.821 22.951 23.274 22.486 21.856 21.726 22.394 21.064 20.669 20.214 20.309 21.149 22.414 22.391 21.481 21.424 21.411 22.314 21.484 21.094 21.046 21.029 21.059 21.089 21.086 21.096 21.121 21.161 21.166 21.194 21.349 21.416 21.471 21.614 21.639 21.896 22.401 22.161 22.066 22.091 22.069 22.039 22.011 21.996 21.944 21.874 21.814 21.746 21.799 22.534 23.464 24.056 24.374 23.909 23.544 23.366 23.336 23.301 23.316 23.351 23.424 23.584 23.621 23.679 23.669 23.701 23.751 23.764 23.844 23.951 24.049 24.081 24.149 24.264 24.339 24.371 24.039 23.654 23.621 23.721 23.931 24.249 24.666 24.916 24.996 25.041 25.036 25.081 25.139 25.174 25.276 25.399 25.449 25.524 25.474 25.474 25.469 25.591 25.646 25.784 25.809 25.817 25.749 25.724 25.734 25.759 25.819 25.847 25.887 25.839 25.802 25.829 25.782 25.764 25.744 25.827 27.329 26.274 25.532 25.537 25.507 25.497 26.472 28.119 28.414 27.134 26.149 25.252 25.099 24.977 24.769 24.764 27.814 27.949 26.724 24.744 24.329 23.929 23.817 23.862 23.824 23.914 23.727 23.467 23.292 23.174 22.999 22.817 22.407 22.149 21.784 21.569 21.392 21.249 21.147 20.964 20.812 20.649 20.492 20.399 20.322 20.207 20.092 19.989 19.854 19.812 19.752 19.619 19.562 20.289 20.317 20.482 21.182 21.182 21.159 20.229 19.272 19.444 19.079 19.024 19.419 21.122 20.824 20.529 20.497 19.789 20.262 19.314 19.454 19.552 19.519 19.482 19.484 19.424 19.357 19.217 19.187 19.252 19.799 20.089 19.562 19.372 19.279 19.372 19.624 20.099 20.514 21.109 21.364 21.492 23.097 21.134 23.442 21.267 24.787 25.144 22.179 18.297 16.334 15.559 14.899 14.612 14.212 13.802 13.479 13.004 12.452 11.444 10.497 9.174 8.767 8.717 14.212 16.585 15.571 13.886 7.094 4.01 3.071 2.729 2.613 2.507 2.455 2.335 2.031 1.818 1.636 1.394 1.25 1.167 0.931 0.789 0.689 0.523 0.438 0.271 0.141 0.001 -0.153 -0.32 -0.365 -0.664 -0.917 -0.905 -1.042 -1.063 -1.113 -1.074 -1.182 -1.118 -1.161 -1.124 -1.186 -1.16 -1.175 -1.213 -1.209 -1.231 -1.162 -1.161 -1.266 -1.267 -1.221 -1.302 -1.17 -1.19 -1.233 -1.242 -1.212 -1.196 -1.211 -1.296 -1.188 -1.232 -1.261 -1.227 -1.236 -1.222 -1.261 -1.256 -1.141 -1.161 -1.049 -0.977 -1.091 -1.107 -1.199 -1.227 -1.207 -1.265 -1.266 -1.282 -1.349 -1.177 -1.174 -1.277 -1.296 -1.334 -1.313 -1.346 -1.409 -1.37 -1.369 -1.341 -1.373 -1.377 -1.368 -1.37 -1.388 -1.323 -1.372 -1.375 -1.353 -1.186 -1.192 -1.273 -1.317 -1.394 -1.384 -1.443 -1.371 -1.44 -1.408
34.471 34.323 34.173 34.008 33.838 33.726 33.573 33.446 33.319 33.199 33.066 32.881 32.661 32.519 32.374 32.234 32.096 31.911 31.746 31.671 32.421 32.814 31.656 31.171 31.169 31.734 30.564 30.536 30.614 30.201 29.999 31.001 29.956 30.126 31.259 29.534 30.051 29.376 29.374 29.366 29.094 28.581 28.346 28.704 29.089 29.409 28.579 28.581 28.546 28.424 29.036 28.121 28.254 28.324 28.359 28.579 28.786 28.384 27.414 27.316 27.256 27.139 27.109 27.054 26.981 26.899 26.871 26.999 26.896 26.656 26.574 26.504 26.426 26.351 26.294 26.181 26.064 25.964 25.816 25.711 26.414 27.144 25.559 25.294 25.159 25.034 24.891 24.786 24.646 24.549 24.381 24.259 24.134 24.059 23.874 23.729 23.621 23.509 23.361 23.251 23.106 22.954 22.851 22.706 22.611 22.509 22.401 22.571 22.409 22.224 21.924 21.774 22.646 21.646 21.286 23.041 23.161 20.101 20.231 21.369 21.109 21.711 21.119 21.674 21.626 21.304 20.829 20.851 20.871 20.909 20.959 21.054 21.051 21.071 21.084 20.999 21.016 21.189 21.261 21.309 21.521 21.419 21.614 22.024 22.451 21.929 21.976 21.964 21.974 21.934 21.889 21.851 21.809 21.744 21.696 21.629 21.781 22.441 23.386 23.839 23.939 23.824 23.709 23.599 23.149 23.146 23.184 23.179 23.211 23.324 23.421 23.449 23.529 23.544 23.564 23.614 23.711 23.836 23.901 23.974 23.979 24.046 24.051 23.751 23.624 23.641 23.619 23.664 23.679 23.864 24.219 24.581 24.801 24.916 24.904 24.914 24.974 25.051 25.099 25.209 25.209 25.244 25.284 25.321 25.416 25.534 25.621 25.619 25.697 25.684 25.684 25.647 25.629 25.662 25.697 25.707 25.684 25.657 25.642 25.609 25.599 25.594 25.617 25.617 26.562 25.752 25.309 25.382 27.139 28.382 28.024 27.232 25.497 25.634 25.202 24.969 24.812 24.704 27.279 28.082 28.292 27.949 26.287 24.719 24.004 23.649 23.582 23.557 23.457 23.397 23.307 23.207 23.062 22.794 22.492 22.187 21.914 21.592 21.434 21.249 21.094 21.014 20.827 20.662 20.497 20.344 20.194 20.067 19.954 19.854 19.747 19.647 19.574 19.507 19.457 19.349 20.309 20.944 19.377 19.284 19.287 19.299 19.187 18.929 18.984 19.074 18.789 19.232 21.972 22.139 22.147 22.172 22.169 22.139 19.727 19.139 19.167 19.184 19.242 19.292 19.267 19.194 19.159 19.187 19.069 19.152 19.204 19.189 19.139 19.054 19.759 19.449 19.517 19.892 20.309 20.452 20.469 21.914 23.132 26.674 22.547 20.224 22.404 17.964 19.007 20.342 16.267 14.892 14.377 14.039 13.629 13.519 13.384 13.279 12.242 10.567 9.314 8.967 10.782 14.082 15.319 17.832 12.567 5.881 4.295 3.146 2.738 2.59 2.493 2.402 2.354 2.013 1.809 1.624 1.444 1.232 1.066 0.915 0.814 0.687 0.564 0.405 0.267 0.137 0.082 -0.099 -0.247 -0.393 -0.651 -0.852 -1.008 -1.052 -0.968 -1.105 -1.029 -1.117 -1.061 -1.153 -1.181 -1.279 -1.155 -1.183 -1.159 -1.202 -1.232 -1.195 -1.178 -1.208 -1.129 -1.217 -1.201 -1.15 -1.252 -1.223 -1.199 -1.203 -1.213 -1.269 -1.182 -1.248 -1.202 -1.239 -1.215 -1.262 -1.257 -1.222 -1.071 -1.08 -1.132 -1.127 -1.164 -1.186 -1.222 -1.242 -1.258 -1.222 -1.279 -1.265 -1.259 -1.252 -1.327 -1.283 -1.319 -1.283 -1.27 -1.321 -1.381 -1.302 -1.299 -1.356 -1.349 -1.352 -1.305 -1.327 -1.348 -1.412 -1.315 -1.325 -1.373 -1.438 -1.24 -1.297 -1.318 -1.383 -1.403 -1.377 -1.423 -1.456 -1.414 -1.428
34.281 34.116 33.973 33.841 33.661 33.541 33.418 33.294 33.156 33.041 32.879 32.696 32.529 32.384 32.209 32.059 31.936 31.766 31.661 32.226 32.094 31.304 31.254 31.156 31.829 31.649 30.349 30.231 30.121 30.084 29.859 30.061 29.756 31.051 31.336 29.271 29.249 29.196 29.079 29.114 29.379 28.931 28.581 28.386 28.054 28.136 28.296 28.096 28.471 28.479 28.649 28.411 28.264 28.091 28.229 28.394 28.261 27.796 27.171 27.071 27.011 26.941 26.886 26.819 26.759 26.709 26.644 26.646 26.596 26.479 26.376 26.319 26.216 26.121 26.011 25.916 25.849 25.736 25.621 25.504 25.391 25.294 25.249 25.164 24.991 24.824 24.721 24.606 24.459 24.331 24.209 24.119 23.946 23.831 23.699 23.569 23.474 23.331 23.204 23.086 22.964 22.816 22.729 22.609 22.486 22.409 22.294 22.124 21.984 21.856 21.786 21.744 21.566 21.644 22.324 22.844 25.184 20.349 19.786 19.886 20.331 20.826 21.261 21.189 20.896 21.521 20.906 20.684 20.699 20.721 20.709 20.801 20.974 20.999 20.941 20.804 20.911 21.044 21.069 21.219 21.329 21.264 21.354 21.929 21.954 22.079 21.789 21.891 21.891 21.861 21.846 21.796 21.756 21.691 21.636 21.569 21.474 21.734 22.386 23.174 23.186 23.564 23.689 23.361 23.011 23.021 23.021 23.004 22.951 23.009 23.149 23.249 23.326 23.354 23.364 23.411 23.471 23.601 23.719 23.849 23.899 23.831 23.714 23.631 23.626 23.899 23.639 23.631 23.781 23.761 23.651 23.766 24.056 24.416 24.664 24.789 24.781 24.846 24.936 24.999 25.004 25.041 25.096 25.141 25.244 25.394 25.449 25.399 25.427 25.464 25.512 25.547 25.564 25.534 25.567 25.542 25.494 25.477 25.444 25.454 25.457 25.429 25.529 25.392 26.232 25.312 25.264 26.399 28.407 28.184 26.769 25.982 25.292 25.264 24.902 24.814 24.679 24.497 24.784 27.052 28.097 28.249 27.947 26.524 24.664 23.839 23.444 23.512 23.354 23.282 23.234 23.059 22.912 22.502 22.222 21.942 21.654 21.397 21.194 21.059 20.904 20.824 20.652 20.482 20.324 20.192 20.062 19.897 19.754 19.639 19.517 19.427 19.362 19.287 19.194 19.122 19.889 20.972 18.932 18.852 18.964 18.759 18.689 18.664 18.682 18.544 18.564 18.697 19.642 20.207 20.492 20.457 20.697 20.889 19.574 18.882 18.892 18.952 19.667 22.484 19.157 19.079 19.307 19.624 20.072 18.997 19.004 19.012 18.997 19.137 22.007 20.927 19.614 19.367 19.619 19.899 19.982 20.029 22.792 23.229 19.809 18.514 17.804 17.949 21.062 20.202 15.629 14.979 14.354 14.317 13.779 13.672 13.629 13.592 12.479 10.849 9.407 8.927 9.814 10.334 13.832 12.511 12.083 6.219 4.544 3.264 2.812 2.605 2.563 2.407 2.332 2.044 1.812 1.653 1.45 1.332 1.117 0.946 0.824 0.656 0.54 0.431 0.329 0.234 0.027 -0.117 -0.17 -0.374 -0.538 -0.874 -0.923 -1.014 -1.047 -1.023 -1.12 -1.046 -1.103 -1.127 -1.184 -1.105 -1.112 -1.199 -1.192 -1.199 -1.221 -1.213 -1.198 -1.208 -1.178 -1.159 -1.14 -1.248 -1.218 -1.157 -1.234 -1.217 -1.211 -1.237 -1.248 -1.203 -1.228 -1.31 -1.286 -1.258 -1.137 -1.089 -1.106 -1.206 -1.227 -1.235 -1.237 -1.211 -1.303 -1.134 -1.222 -1.283 -1.231 -1.302 -1.321 -1.263 -1.205 -1.317 -1.235 -1.266 -1.248 -1.352 -1.401 -1.375 -1.267 -1.319 -1.356 -1.296 -1.323 -1.358 -1.467 -1.395 -1.375 -1.382 -1.401 -1.347 -1.405 -1.381 -1.419 -1.412 -1.341 -1.391 -1.442 -1.442 -1.432 -1.423
34.103 33.941 33.778 33.621 33.478 33.383 33.263 33.144 33.029 32.876 32.699 32.529 32.411 32.236 32.071 31.944 31.786 31.699 31.779 31.419 31.639 31.214 31.164 32.446 31.544 31.021 30.231 30.126 29.964 30.236 29.484 29.544 30.921 32.629 33.146 29.099 29.081 29.064 28.849 28.764 28.739 28.606 28.524 28.554 28.549 28.006 27.781 27.706 28.181 28.654 28.919 28.004 28.189 28.321 28.039 28.204 27.984 27.144 26.979 26.879 26.791 26.721 26.664 26.594 26.566 26.494 26.411 26.371 26.341 26.294 26.169 26.076 25.944 25.846 25.759 25.684 25.619 25.559 25.459 25.336 25.249 25.186 25.081 24.916 24.784 24.634 24.501 24.361 24.274 24.186 24.066 23.926 23.791 23.671 23.546 23.439 23.339 23.204 23.046 22.929 22.819 22.726 22.591 22.506 22.406 22.286 22.099 21.964 21.839 21.704 21.599 21.599 21.456 21.371 21.221 22.051 22.659 23.526 20.164 19.651 19.751 20.314 20.891 20.844 20.821 23.351 23.029 21.844 20.574 20.591 20.541 20.536 20.659 20.816 20.724 20.629 20.789 20.884 20.879 20.961 21.009 20.976 21.146 21.389 21.394 21.579 21.931 21.741 21.789 21.751 21.716 21.729 21.651 21.599 21.559 21.481 21.396 21.394 21.639 22.356 23.354 23.556 23.529 23.196 23.166 22.929 22.871 22.844 22.841 22.816 22.811 22.921 23.099 23.136 23.174 23.209 23.289 23.376 23.544 23.704 23.781 23.756 23.659 23.624 23.604 23.596 23.646 23.631 23.636 23.631 23.661 23.641 23.631 23.726 23.939 24.264 24.516 24.691 24.741 24.799 24.799 24.844 24.896 24.961 25.119 25.204 25.249 25.252 25.244 25.294 25.387 25.409 25.484 25.442 25.337 25.312 25.312 25.309 25.259 25.437 25.849 25.287 25.337 25.259 25.182 25.159 25.189 25.774 26.347 26.392 25.827 25.342 24.987 24.812 24.717 24.639 24.527 24.459 24.432 24.674 26.954 28.092 28.224 27.844 26.129 24.229 23.349 23.254 23.252 23.162 23.017 22.852 22.627 22.272 21.989 21.704 21.442 21.187 21.019 20.874 20.749 20.619 20.489 20.309 20.154 20.057 19.919 19.797 19.659 19.482 19.322 19.179 19.137 19.069 18.984 18.919 18.842 18.794 18.769 18.752 19.129 18.542 18.534 18.569 18.414 18.404 18.374 18.452 18.787 19.224 19.377 19.057 18.952 18.844 18.554 18.467 18.577 21.004 22.884 23.609 19.689 19.242 20.027 21.859 22.082 20.459 19.142 18.939 18.964 19.819 21.702 22.067 21.009 19.749 19.234 19.299 19.472 19.662 19.794 20.499 19.472 18.972 17.952 17.477 17.574 16.079 17.574 15.057 14.494 14.142 13.934 13.764 13.589 13.712 12.477 11.244 13.644 18.957 16.137 10.569 9.369 10.163 8.335 5.613 4.441 3.697 3.009 2.7 2.569 2.408 2.418 2.032 1.845 1.657 1.464 1.27 1.108 0.911 0.817 0.726 0.627 0.433 0.298 0.157 0.063 -0.041 -0.124 -0.376 -0.579 -0.752 -0.958 -0.999 -0.971 -0.982 -1.06 -1.158 -1.108 -1.094 -1.018 -1.076 -1.164 -1.186 -1.246 -1.149 -1.278 -1.219 -1.231 -1.241 -1.182 -1.24 -1.237 -1.265 -1.255 -1.204 -1.279 -1.233 -1.215 -1.194 -1.21 -1.182 -1.237 -1.173 -1.2 -1.201 -1.178 -1.126 -1.173 -1.183 -1.244 -1.256 -1.109 -1.049 -0.997 -1.109 -1.236 -1.239 -1.224 -1.267 -1.267 -1.279 -1.204 -1.264 -1.25 -1.283 -1.284 -1.276 -1.364 -1.324 -1.291 -1.375 -1.377 -1.367 -1.365 -1.317 -1.361 -1.366 -1.381 -1.364 -1.399 -1.389 -1.343 -1.387 -1.427 -1.418 -1.41 -1.436 -1.467 -1.436 -1.472 -1.452
33.931 33.776 33.623 33.476 33.361 33.263 33.108 33.001 32.864 32.736 32.544 32.421 32.271 32.084 31.946 31.824 31.704 31.691 32.001 31.224 31.219 31.186 31.801 30.819 30.604 30.359 30.009 29.911 29.789 29.459 29.574 29.444 29.851 31.749 30.214 28.841 28.729 28.739 28.556 28.511 28.406 28.401 28.334 29.019 28.334 28.184 28.054 28.366 30.386 27.401 27.921 28.014 27.966 28.234 28.066 27.449 26.951 26.799 26.721 26.689 26.609 26.519 26.454 26.399 26.341 26.259 26.231 26.186 26.101 26.061 25.946 25.831 25.736 25.646 25.539 25.479 25.401 25.299 25.219 25.171 25.109 24.979 24.846 24.706 24.571 24.444 24.276 24.166 24.084 23.969 23.851 23.751 23.656 23.529 23.421 23.296 23.211 23.014 22.889 22.756 22.676 22.556 22.431 22.339 22.286 22.126 21.981 21.841 21.689 21.569 21.449 21.344 21.331 21.241 21.136 21.086 21.286 21.184 20.399 19.794 19.459 20.494 21.474 20.661 20.854 23.254 23.591 23.411 22.841 20.984 20.426 20.389 20.389 20.451 20.469 20.494 20.671 20.701 20.661 20.641 20.691 20.804 21.291 21.686 21.271 21.194 21.371 21.556 21.626 21.629 21.601 21.581 21.549 21.519 21.466 21.401 21.326 21.271 21.266 21.919 23.276 24.071 23.749 22.981 23.151 23.226 22.681 22.726 22.641 22.669 22.684 22.689 22.791 22.906 22.946 22.984 23.044 23.174 23.386 23.594 23.684 23.686 23.631 23.844 23.609 23.601 23.616 23.591 23.661 23.616 23.649 23.621 23.656 23.914 23.711 23.669 23.846 24.144 24.501 24.596 24.629 24.649 24.669 24.769 24.929 24.989 25.071 25.022 25.077 25.137 25.177 25.209 25.292 25.324 25.202 25.142 25.139 25.129 25.079 25.112 25.502 25.074 25.069 25.102 25.037 25.027 25.024 25.082 25.649 25.337 25.082 24.887 24.604 26.067 24.999 24.469 24.392 24.277 24.297 24.229 24.544 26.904 28.119 27.032 25.717 24.552 23.164 23.067 23.032 22.907 22.804 22.539 22.357 22.119 21.839 21.512 21.222 21.017 20.837 20.682 20.552 20.409 20.292 20.144 20.007 19.909 19.779 19.659 19.557 19.409 19.217 19.039 18.884 18.809 18.784 18.767 18.682 18.922 19.114 18.504 18.372 18.344 18.432 18.332 18.219 18.224 18.252 18.237 18.319 18.502 18.674 18.709 18.459 18.167 18.119 18.197 18.354 21.607 19.247 20.684 20.604 19.069 19.599 20.334 22.017 22.107 20.964 19.137 18.902 18.902 18.989 20.782 21.992 21.632 20.457 18.992 18.997 19.162 19.354 20.159 20.359 18.974 18.294 17.564 16.774 17.214 15.469 15.002 15.279 14.219 14.074 13.882 13.797 13.777 12.607 14.707 18.719 21.139 22.187 11.224 7.764 7.669 6.796 6.145 4.764 3.987 3.137 2.718 2.594 2.435 2.35 2.028 1.834 1.615 1.484 1.279 1.056 0.974 0.837 0.69 0.623 0.449 0.367 0.286 0.117 -0.007 -0.202 -0.349 -0.406 -0.749 -0.887 -1.003 -1.04 -1.071 -1.06 -1.047 -1.132 -1.177 -1.058 -1.121 -1.3 -1.174 -1.091 -1.171 -1.219 -1.191 -1.173 -1.209 -1.22 -1.15 -1.203 -1.258 -1.256 -1.304 -1.279 -1.235 -1.188 -1.211 -1.131 -1.112 -1.138 -1.147 -1.196 -1.144 -1.173 -1.217 -1.235 -1.261 -1.237 -1.148 -1.075 -1.088 -1.163 -1.153 -1.235 -1.264 -1.248 -1.292 -1.316 -1.208 -1.354 -1.26 -1.294 -1.296 -1.32 -1.412 -1.329 -1.392 -1.364 -1.338 -1.366 -1.321 -1.386 -1.34 -1.322 -1.366 -1.34 -1.395 -1.371 -1.379 -1.39 -1.468 -1.43 -1.416 -1.436 -1.428 -1.5 -1.428 -1.496 -1.483
33.736 33.578 33.448 33.316 33.221 33.078 32.978 32.834 32.716 32.571 32.441 32.271 32.099 31.956 31.784 31.689 31.624 31.509 32.389 31.199 31.164 31.131 31.279 30.711 30.376 30.091 29.841 29.791 29.634 29.386 29.919 30.549 29.221 29.756 28.766 28.624 28.526 28.491 28.416 31.724 35.424 28.161 28.884 28.114 28.081 27.996 27.811 27.759 32.026 29.164 27.839 27.894 27.581 27.209 26.946 26.751 26.666 26.634 26.549 26.446 26.389 26.316 26.299 26.216 26.129 26.064 26.044 25.989 25.924 25.811 25.734 25.591 25.514 25.439 25.361 25.239 25.181 25.061 24.999 24.921 24.834 24.731 24.631 24.521 24.389 24.261 24.131 24.036 23.946 23.844 23.706 23.604 23.456 23.344 23.249 23.131 23.024 22.869 22.724 22.619 22.506 22.366 22.261 22.156 22.094 21.949 21.829 21.729 21.569 21.436 21.309 21.184 21.141 21.056 20.974 20.889 20.789 20.636 22.971 20.791 19.464 22.479 21.649 21.289 21.706 22.089 24.034 23.364 23.349 22.116 20.346 20.289 20.241 20.256 20.284 20.346 20.501 20.514 20.491 20.441 20.491 20.501 20.951 21.691 21.156 20.879 21.224 21.511 21.574 21.514 21.479 21.481 21.446 21.416 21.341 21.291 21.251 21.246 21.189 21.214 22.311 23.114 23.229 22.726 22.654 22.606 22.511 22.504 22.464 22.496 22.544 22.561 22.571 22.601 22.719 22.761 22.859 23.019 23.279 23.504 23.621 23.601 23.616 23.644 23.631 23.614 23.586 23.599 23.674 23.639 23.634 23.659 23.669 23.604 23.771 23.629 23.619 23.781 24.259 24.406 24.454 24.466 24.526 24.629 24.699 24.764 24.809 24.859 24.884 24.929 24.942 24.982 25.097 25.127 25.069 24.974 24.959 24.949 24.917 24.922 24.919 24.889 24.879 24.942 24.869 24.892 24.899 24.839 24.829 24.884 24.774 24.652 25.429 27.494 26.182 24.464 24.307 24.054 23.912 23.774 23.734 24.717 27.344 25.629 24.254 23.209 22.984 22.887 22.807 23.219 23.684 22.299 22.059 21.799 21.639 21.342 20.987 20.802 20.637 20.489 20.337 20.197 20.107 19.947 19.842 19.752 19.617 19.504 19.369 19.229 19.064 18.914 18.804 18.664 18.512 18.497 18.477 18.439 18.389 18.242 18.162 18.122 18.077 18.087 18.124 17.989 18.012 18.074 18.004 18.024 18.019 18.044 17.972 19.494 18.542 18.037 18.084 22.672 21.284 20.387 19.807 18.757 19.177 19.479 20.194 21.847 22.137 21.097 19.042 18.807 18.827 19.354 20.522 21.504 20.262 18.797 18.767 18.827 18.999 19.319 21.284 20.457 18.314 17.579 16.774 17.599 15.557 15.137 15.407 14.524 14.059 14.244 14.004 15.579 12.959 15.192 22.899 23.544 22.474 16.894 8.286 8.027 7.222 6.474 5.175 4.16 3.197 2.763 2.555 2.452 2.32 2.044 1.822 1.63 1.529 1.235 1.099 0.907 0.875 0.678 0.581 0.52 0.349 0.26 0.132 -0.034 -0.126 -0.359 -0.486 -0.622 -0.842 -0.948 -0.98 -1.006 -1.094 -1.144 -1.179 -1.173 -1.087 -1.142 -1.084 -1.204 -1.207 -1.27 -1.162 -1.159 -1.122 -1.179 -1.188 -1.18 -1.176 -1.222 -1.281 -1.255 -1.183 -1.214 -1.229 -1.122 -1.065 -1.13 -1.131 -1.151 -1.185 -1.186 -1.234 -1.205 -1.231 -1.232 -1.19 -1.097 -1.111 -1.161 -1.176 -1.168 -1.234 -1.297 -1.295 -1.295 -1.315 -1.323 -1.299 -1.296 -1.308 -1.313 -1.315 -1.361 -1.372 -1.312 -1.382 -1.336 -1.314 -1.336 -1.381 -1.434 -1.366 -1.366 -1.345 -1.373 -1.437 -1.405 -1.458 -1.436 -1.417 -1.452 -1.512 -1.5 -1.451 -1.47 -1.464 -1.496
33.556 33.436 33.316 33.193 33.073 32.908 32.813 32.711 32.551 32.434 32.271 32.069 31.914 31.804 31.679 31.754 31.651 31.259 31.166 31.181 31.254 32.201 31.099 30.621 30.276 30.031 29.814 29.684 29.421 29.509 30.181 30.039 28.821 28.699 28.496 28.391 28.366 28.324 28.251 29.221 30.136 27.951 28.001 32.236 27.776 31.299 27.681 31.804 35.726 34.029 29.566 28.389 28.169 27.016 26.579 26.534 26.471 26.401 26.331 26.256 26.144 26.096 26.081 26.021 25.964 25.884 25.821 25.751 25.691 25.601 25.479 25.386 25.289 25.229 25.156 25.056 24.979 24.876 24.799 24.686 24.604 24.491 24.404 24.281 24.176 24.104 24.011 23.869 23.689 23.616 23.526 23.386 23.276 23.199 23.054 22.936 22.806 22.646 22.554 22.484 22.379 22.216 22.109 21.966 21.896 21.764 21.676 21.561 21.424 21.291 21.159 21.144 21.406 21.004 20.824 20.664 20.576 20.519 20.664 19.989 19.566 21.841 23.134 20.746 21.329 22.624 23.589 21.546 23.016 20.819 20.241 20.121 20.081 20.079 20.116 20.224 20.371 20.321 20.319 20.356 20.339 20.319 20.344 20.416 20.659 21.104 20.804 21.389 21.814 21.909 21.471 21.374 21.339 21.304 21.261 21.236 21.201 21.171 21.164 21.221 21.571 22.304 22.721 22.491 22.514 22.489 22.229 22.231 22.289 22.391 22.391 22.404 22.391 22.361 22.426 22.559 22.684 22.884 23.176 23.439 23.551 23.601 23.626 23.709 23.604 23.599 23.604 23.606 23.661 23.609 23.629 23.659 23.651 23.624 23.681 23.639 23.626 23.804 24.116 24.226 24.249 24.299 24.346 24.486 24.571 24.604 24.601 24.677 24.692 24.724 24.709 24.792 24.887 24.902 24.907 24.842 24.759 24.747 24.714 24.687 24.694 24.697 24.692 24.659 24.674 24.702 24.722 24.624 24.664 24.632 24.607 24.632 26.292 27.479 25.189 24.464 24.149 23.839 23.679 23.497 23.357 23.429 23.894 24.099 23.044 22.902 22.729 22.604 22.509 23.279 24.327 24.672 23.382 21.722 21.509 21.057 20.777 20.607 20.472 20.297 20.137 19.994 19.897 19.777 19.677 19.584 19.412 19.297 19.192 19.047 18.902 18.734 18.637 18.472 18.329 18.202 18.149 18.114 18.084 17.964 18.204 18.754 17.884 17.984 17.962 17.842 17.757 17.794 17.814 17.842 17.819 17.872 18.444 20.809 21.132 20.399 18.527 18.207 20.809 22.884 18.207 18.407 18.587 18.849 19.367 20.162 21.577 20.884 19.017 18.747 18.702 18.762 18.884 19.124 18.887 18.639 18.909 18.804 18.812 18.902 19.252 20.377 19.354 17.909 17.317 16.524 16.002 15.229 15.799 14.454 15.284 14.117 14.379 14.327 16.797 16.312 21.252 19.972 21.907 11.422 9.245 8.817 7.378 6.609 5.388 4.131 3.203 2.724 2.578 2.478 2.329 2.038 1.848 1.668 1.414 1.293 1.09 1.022 0.875 0.712 0.629 0.459 0.363 0.349 0.105 0.097 -0.079 -0.337 -0.5 -0.646 -0.756 -0.916 -0.967 -0.96 -1.046 -1.087 -1.077 -1.079 -1.024 -1.154 -1.178 -1.149 -1.157 -1.154 -1.216 -1.209 -1.144 -1.169 -1.211 -1.217 -1.165 -1.214 -1.208 -1.233 -1.252 -1.226 -1.1 -1.136 -1.142 -1.19 -1.184 -1.132 -1.184 -1.195 -1.202 -1.214 -1.206 -1.187 -1.148 -1.177 -1.192 -1.177 -1.248 -1.225 -1.187 -1.358 -1.202 -1.205 -1.257 -1.349 -1.339 -1.27 -1.34 -1.423 -1.35 -1.303 -1.307 -1.381 -1.308 -1.326 -1.304 -1.352 -1.474 -1.256 -1.294 -1.336 -1.366 -1.427 -1.415 -1.421 -1.372 -1.434 -1.47 -1.499 -1.515 -1.468 -1.444 -1.439 -1.47 -1.49
33.411 33.301 33.178 33.053 32.921 32.776 32.673 32.564 32.434 32.274 32.079 31.934 31.774 31.674 31.654 31.734 31.261 31.181 31.154 31.359 33.436 32.411 30.684 30.774 30.469 29.946 29.774 29.544 29.179 29.214 29.299 28.851 28.666 28.499 28.284 28.224 28.194 28.101 28.094 30.839 27.854 29.809 30.654 31.681 27.606 27.704 27.606 28.616 35.204 37.439 31.674 29.271 27.599 26.959 26.379 26.309 26.231 26.164 26.064 25.989 25.921 25.864 25.819 25.814 25.761 25.664 25.581 25.519 25.479 25.391 25.246 25.159 25.051 24.956 24.899 24.874 24.991 24.789 24.669 24.526 24.434 24.311 24.234 24.109 23.966 23.859 23.716 23.629 23.499 23.406 23.311 23.199 23.136 23.014 22.871 22.744 22.591 22.474 22.424 22.349 22.176 22.086 21.936 21.806 21.736 21.664 21.536 21.414 21.294 21.134 21.104 21.956 22.179 21.244 20.609 20.496 20.471 20.446 20.296 20.391 19.844 21.106 21.489 19.714 19.924 19.906 19.949 20.049 22.431 21.506 20.044 19.941 19.909 19.941 20.006 20.106 20.181 20.151 20.184 20.231 20.216 20.206 20.184 20.219 20.496 21.169 20.641 20.901 21.499 22.021 21.989 21.314 21.256 21.221 21.171 21.126 21.131 21.119 21.154 21.391 21.571 21.691 21.936 22.249 22.271 22.081 21.941 21.986 22.101 22.249 22.271 22.291 22.231 22.226 22.234 22.326 22.496 22.776 23.066 23.336 23.496 23.606 23.564 23.734 23.606 23.614 23.586 23.586 23.604 23.584 23.624 23.619 23.606 23.656 23.741 23.624 23.629 23.854 24.001 24.039 24.039 24.084 24.164 24.271 24.366 24.421 24.459 24.482 24.504 24.542 24.569 24.594 24.627 24.627 24.649 24.652 24.564 24.524 24.489 24.467 24.467 24.537 24.499 24.504 24.489 24.512 24.462 24.427 24.457 24.472 24.499 25.314 27.412 26.904 24.684 24.354 23.902 23.614 23.714 25.172 24.359 23.112 23.142 22.872 22.789 22.522 22.379 22.299 22.529 23.849 24.049 24.529 23.669 22.074 21.117 20.832 20.622 20.447 20.299 20.107 19.924 19.762 19.684 19.612 19.477 19.347 19.242 19.142 19.027 18.817 18.672 18.529 18.394 18.229 18.152 18.079 17.959 17.839 17.764 17.689 17.974 17.932 17.654 17.632 17.619 17.624 17.789 19.082 17.854 17.592 17.662 17.749 18.297 19.429 20.422 21.172 21.047 21.104 21.289 20.264 18.899 18.047 18.182 18.452 18.862 19.464 19.359 19.204 18.769 18.657 18.617 18.617 18.654 18.687 18.644 19.357 21.614 20.894 19.662 19.074 18.737 19.207 19.119 19.309 19.099 20.484 16.472 15.759 16.287 17.432 14.609 13.927 13.977 14.062 13.277 15.422 18.314 18.509 17.989 9.589 9.722 8.832 8.27 7.64 5.923 4.456 3.244 2.888 2.679 2.484 2.423 2.041 1.852 1.643 1.462 1.288 1.199 0.98 0.828 0.76 0.655 0.596 0.426 0.332 0.141 -0.036 -0.129 -0.246 -0.462 -0.617 -0.802 -0.815 -0.888 -1.048 -1.053 -1 -1.009 -1.157 -1.082 -1.173 -1.155 -1.121 -1.15 -1.183 -1.238 -1.162 -1.175 -1.215 -1.283 -1.184 -1.197 -1.196 -1.189 -1.253 -1.121 -1.101 -1.147 -1.197 -1.158 -1.227 -1.151 -1.159 -1.181 -1.172 -1.19 -1.195 -1.174 -1.159 -1.151 -1.189 -1.234 -1.193 -1.182 -1.265 -1.214 -1.309 -1.328 -1.354 -1.268 -1.383 -1.32 -1.368 -1.23 -1.375 -1.334 -1.335 -1.333 -1.41 -1.411 -1.331 -1.328 -1.375 -1.439 -1.342 -1.34 -1.356 -1.351 -1.371 -1.388 -1.4 -1.407 -1.417 -1.459 -1.512 -1.459 -1.495 -1.489 -1.474 -1.505 -1.507
33.291 33.168 33.043 32.903 32.773 32.663 32.533 32.421 32.281 32.111 31.956 31.831 31.696 31.576 31.694 31.354 31.196 31.141 31.109 32.129 31.914 31.399 31.116 30.519 30.234 29.909 29.709 29.416 29.179 29.341 29.144 28.939 28.604 28.401 28.121 28.059 28.116 28.324 28.046 27.769 28.986 30.856 27.499 32.041 32.414 30.531 27.699 28.609 27.604 31.909 32.479 31.211 27.751 27.034 26.171 26.126 26.171 25.964 25.811 25.736 25.699 25.654 25.604 25.539 25.464 25.416 25.379 25.324 25.299 25.186 25.011 24.929 24.874 24.859 24.956 24.879 25.021 24.716 24.519 24.349 24.204 24.106 24.001 23.891 23.796 23.636 23.539 23.401 23.301 23.221 23.149 23.024 22.934 22.826 22.679 22.594 22.506 22.399 22.319 22.164 21.986 21.891 21.794 21.681 21.561 21.481 21.441 21.274 21.146 20.984 21.199 22.109 21.601 21.069 20.454 20.351 20.309 20.229 20.221 20.089 21.154 22.271 18.996 18.899 19.434 19.616 19.801 20.836 21.611 21.391 20.301 19.746 19.734 19.756 19.874 20.006 20.011 19.991 20.051 20.086 20.106 20.086 20.056 20.169 20.171 20.719 20.529 21.189 21.456 21.241 21.529 21.211 21.149 21.114 21.074 21.061 21.041 21.046 21.156 21.294 21.359 21.449 21.534 21.794 21.729 21.676 21.694 21.916 22.241 22.106 22.054 22.114 22.101 22.059 22.109 22.191 22.326 22.586 22.881 23.134 23.321 23.474 23.579 23.586 23.649 23.879 23.636 23.599 23.616 23.609 23.641 23.621 23.621 23.599 24.174 23.554 23.639 23.819 23.864 23.864 23.846 23.864 23.979 24.079 24.136 24.174 24.224 24.282 24.304 24.387 24.432 24.454 24.472 24.489 24.472 24.422 24.479 24.369 24.307 24.262 24.277 24.307 24.292 24.354 24.312 24.304 24.237 24.249 24.247 24.314 24.424 25.389 27.462 25.922 24.522 24.074 23.649 23.479 24.337 23.564 23.879 25.137 23.847 22.632 22.457 22.287 22.094 21.999 22.679 23.567 24.339 23.919 22.879 21.354 20.902 20.679 20.462 20.299 20.129 19.949 19.752 19.599 19.574 19.442 19.279 19.154 19.047 18.932 18.809 18.667 18.484 18.349 18.184 18.034 17.932 17.859 17.814 17.702 17.557 17.442 17.359 17.349 17.342 17.347 17.334 17.327 17.687 18.657 17.399 17.372 17.454 17.557 18.012 18.472 18.709 19.992 20.992 21.134 20.029 17.842 17.794 17.877 17.929 18.082 18.412 18.707 18.759 18.714 18.669 18.604 18.569 19.894 18.532 18.682 18.617 18.999 21.237 21.699 21.762 21.299 21.307 20.189 21.789 19.617 19.534 21.094 18.967 16.327 15.944 15.759 14.667 14.074 17.159 14.459 13.644 13.292 15.692 12.104 11.004 8.857 7.957 9.423 8.472 7.593 6.276 4.787 3.514 2.924 2.728 2.532 2.385 2.048 1.92 1.626 1.415 1.285 1.195 1.005 0.928 0.747 0.63 0.513 0.401 0.266 0.119 0.011 -0.108 -0.275 -0.42 -0.636 -0.8 -0.838 -0.912 -0.846 -1.067 -1.009 -1.117 -1.157 -1.166 -1.124 -1.189 -1.17 -1.082 -1.135 -1.211 -1.133 -1.211 -1.235 -1.171 -1.203 -1.228 -1.237 -1.01 -1 -1.089 -1.12 -1.151 -1.186 -1.181 -1.207 -1.184 -1.163 -1.185 -1.177 -1.231 -1.179 -1.165 -1.177 -1.186 -1.236 -1.241 -1.258 -1.307 -1.294 -1.292 -1.29 -1.255 -1.365 -1.253 -1.322 -1.301 -1.288 -1.349 -1.349 -1.402 -1.354 -1.463 -1.291 -1.363 -1.298 -1.366 -1.318 -1.287 -1.356 -1.364 -1.432 -1.377 -1.427 -1.393 -1.397 -1.421 -1.431 -1.423 -1.472 -1.491 -1.46 -1.479 -1.497 -1.495 -1.523
33.128 33.006 32.906 32.796 32.673 32.553 32.413 32.308 32.133 31.971 31.861 31.721 31.688 31.933 31.363 31.163 31.116 31.088 32.916 32.663 31.658 31.851 31.748 30.828 30.061 29.968 29.663 29.231 29.243 29.276 28.848 28.708 28.471 28.328 28.113 28.146 27.798 27.776 27.543 27.411 27.371 29.871 28.108 29.456 32.258 30.043 28.173 26.456 26.611 27.696 27.546 27.501 27.318 26.668 26.193 26.471 26.596 26.046 25.616 25.549 25.491 25.466 25.406 25.331 25.254 25.171 25.136 25.076 25.069 24.946 24.801 24.734 24.684 24.786 24.961 25.221 25.314 24.759 24.676 24.209 23.994 23.881 23.769 23.646 23.544 23.456 23.359 23.249 23.179 23.069 22.979 22.836 22.749 22.636 22.506 22.391 22.326 22.216 22.064 21.929 21.801 21.684 21.594 21.496 21.421 21.346 21.234 21.096 20.964 21.191 22.191 21.976 21.784 20.811 20.334 20.179 20.099 20.226 20.154 20.001 20.014 19.829 19.366 21.076 19.304 19.966 19.419 23.489 22.771 20.461 21.494 20.196 19.589 19.609 19.699 19.886 19.851 19.839 19.909 19.954 19.964 19.964 19.951 19.954 20.224 20.364 20.411 21.801 20.344 20.594 20.879 21.469 21.294 21.024 20.996 20.949 20.956 20.994 21.081 21.096 21.156 21.229 21.264 21.384 21.466 21.471 21.611 21.934 22.111 22.504 22.076 21.944 21.941 21.956 21.921 22.001 22.176 22.361 22.586 22.841 23.031 23.171 23.311 23.416 23.554 23.611 23.676 23.699 23.779 23.604 23.624 23.629 23.606 23.721 23.611 23.569 23.631 23.709 23.709 23.654 23.646 23.699 23.824 23.946 23.971 23.991 24.031 24.081 24.111 24.201 24.211 24.241 24.284 24.299 24.279 24.264 24.239 24.291 24.181 24.144 24.149 24.131 24.214 24.419 24.146 25.101 24.124 24.034 24.019 24.096 24.364 26.459 27.364 24.884 24.226 23.739 23.641 24.381 23.536 23.741 23.439 25.619 22.626 22.349 22.214 22.096 21.924 21.779 21.741 22.256 22.649 22.319 21.501 20.909 20.724 20.541 20.301 20.152 19.979 19.804 19.597 19.457 19.374 19.269 19.097 18.949 18.814 18.669 18.594 18.467 18.272 18.087 17.952 17.794 17.682 17.624 17.542 17.452 17.402 17.322 17.232 17.112 17.074 17.082 17.099 17.137 17.117 17.164 17.164 17.197 17.337 17.324 17.442 17.682 18.132 18.404 18.942 19.802 18.299 17.604 17.634 17.697 17.724 17.804 18.012 18.387 18.492 18.544 18.582 18.564 19.837 21.449 19.884 18.662 18.572 18.599 19.059 19.714 20.212 20.979 21.607 19.137 18.817 20.172 20.997 17.639 17.129 16.592 16.722 16.547 18.799 14.664 15.587 14.412 13.652 12.162 10.909 10.239 9.012 8.349 8.2 9.814 9.088 8.039 6.445 4.753 3.912 2.961 2.751 2.545 2.429 2.054 1.87 1.663 1.459 1.267 1.067 0.993 0.894 0.755 0.661 0.519 0.468 0.304 0.203 0.012 -0.052 -0.27 -0.423 -0.566 -0.799 -0.869 -0.939 -0.886 -1.007 -1.069 -1.128 -1.098 -1.064 -1.108 -1.111 -1.123 -1.162 -1.139 -1.159 -1.104 -1.178 -1.199 -1.21 -1.225 -1.173 -1.188 -1.136 -1.11 -1.138 -1.159 -1.185 -1.217 -1.198 -1.19 -1.179 -1.185 -1.195 -1.22 -1.224 -1.189 -1.197 -1.175 -1.175 -1.218 -1.228 -1.233 -1.209 -1.094 -1.235 -1.215 -1.239 -1.325 -1.251 -1.452 -1.34 -1.313 -1.372 -1.364 -1.347 -1.367 -1.296 -1.311 -1.271 -1.308 -1.21 -1.336 -1.288 -1.358 -1.403 -1.369 -1.417 -1.366 -1.382 -1.409 -1.447 -1.411 -1.417 -1.479 -1.483 -1.459 -1.461 -1.465 -1.476 -1.499
32.978 32.863 32.741 32.636 32.546 32.411 32.303 32.161 32.033 31.883 31.758 31.703 31.816 31.501 31.208 31.111 31.211 32.093 34.378 31.798 31.561 31.516 31.388 30.388 29.926 29.883 29.616 29.401 29.198 29.061 28.703 28.576 28.373 28.126 28.098 28.131 27.838 27.758 27.908 27.296 27.141 27.093 27.013 27.098 28.456 28.851 26.626 26.186 26.278 27.153 26.996 27.096 27.086 26.133 26.158 26.428 26.561 25.986 25.416 25.344 25.296 25.226 25.199 25.151 25.059 24.979 24.904 24.821 24.844 24.704 24.604 24.541 24.496 24.454 24.439 24.731 24.451 24.271 24.301 24.164 23.791 23.659 23.569 23.436 23.321 23.236 23.174 23.106 22.956 22.871 22.764 22.654 22.546 22.461 22.354 22.231 22.114 21.971 21.866 21.776 21.639 21.531 21.456 21.384 21.259 21.154 21.061 20.944 20.799 21.466 22.146 21.859 20.994 20.236 20.234 20.011 19.916 20.079 19.951 19.869 19.761 19.761 19.464 18.519 19.966 23.181 20.026 23.626 22.851 22.141 22.049 19.959 19.474 19.474 19.569 19.714 19.716 19.679 19.736 19.796 19.779 19.674 19.579 20.026 20.226 20.114 20.276 20.311 20.179 20.336 21.031 21.886 21.979 21.126 20.866 20.876 20.849 20.851 20.881 20.911 20.951 21.011 21.046 21.111 21.186 21.304 21.384 21.576 21.716 22.646 22.329 21.909 21.744 21.791 21.806 21.781 21.904 22.094 22.269 22.459 22.606 22.786 22.936 23.094 23.224 23.366 23.529 23.601 23.634 23.916 23.654 23.616 23.614 23.599 23.604 23.561 23.576 23.551 23.514 23.449 23.424 23.496 23.656 23.739 23.731 23.791 23.816 23.894 23.964 24.006 24.066 24.064 24.106 24.126 24.089 24.051 24.091 24.126 24.049 24.006 24.006 23.979 24.084 24.646 25.821 27.184 25.734 24.004 23.809 23.796 23.989 24.661 24.999 24.514 23.826 23.521 24.084 24.431 23.281 23.901 23.176 23.351 22.334 22.124 22.006 21.901 21.786 21.641 21.511 21.351 21.279 21.091 20.894 20.719 20.554 20.379 20.156 19.999 19.809 19.612 19.454 19.367 19.217 19.099 18.947 18.774 18.599 18.464 18.349 18.222 18.022 17.837 17.732 17.569 17.484 17.412 17.347 17.244 17.159 17.089 17.044 17.004 16.924 16.847 16.852 16.854 16.874 16.957 16.972 16.987 17.082 18.139 17.292 17.172 17.387 17.624 17.672 17.939 17.542 17.389 17.537 18.094 17.672 17.594 17.657 17.987 18.247 18.414 18.502 18.499 19.272 21.412 20.902 18.492 18.539 18.557 18.742 19.012 19.234 18.792 19.074 18.482 18.964 20.697 19.799 18.329 17.074 16.604 16.752 16.637 18.874 15.097 14.687 14.262 13.624 12.039 10.414 9.514 8.679 8.612 8.612 8.88 8.783 7.243 5.843 4.76 4.295 3.068 2.795 2.506 2.416 2.09 1.885 1.617 1.411 1.259 1.142 1.078 0.981 0.826 0.636 0.591 0.45 0.303 0.164 0.028 0.007 -0.263 -0.359 -0.538 -0.753 -0.829 -0.856 -0.987 -1.055 -1.094 -1.062 -1.123 -1.101 -1.121 -1.113 -1.099 -1.095 -1.194 -1.149 -1.144 -1.185 -1.118 -1.164 -1.162 -1.14 -1.117 -1.138 -1.091 -1.214 -1.214 -1.231 -1.23 -1.232 -1.156 -1.156 -1.171 -1.191 -1.2 -1.194 -1.215 -1.191 -1.186 -1.174 -1.211 -1.235 -1.18 -1.097 -1.191 -1.287 -1.286 -1.319 -1.308 -1.299 -1.272 -1.401 -1.34 -1.2 -1.245 -1.406 -1.266 -1.301 -1.214 -1.26 -1.193 -1.25 -1.256 -1.315 -1.41 -1.373 -1.4 -1.397 -1.396 -1.44 -1.399 -1.417 -1.446 -1.44 -1.474 -1.519 -1.475 -1.469 -1.477 -1.464 -1.542
32.846 32.736 32.598 32.491 32.373 32.268 32.148 32.016 31.898 31.773 31.791 32.181 31.731 31.258 31.203 31.098 31.563 32.023 33.088 31.758 31.136 30.593 30.726 30.678 30.101 30.228 29.821 29.146 29.261 28.878 28.646 28.556 28.208 27.981 27.873 27.751 28.713 29.023 28.483 27.611 27.298 26.946 26.911 26.908 26.788 26.686 26.573 26.061 26.328 26.991 26.921 26.608 26.238 25.793 25.813 26.138 26.021 25.409 25.229 25.144 25.074 25.039 24.991 24.956 24.876 24.766 24.689 24.634 24.626 24.464 24.351 24.281 24.219 24.159 24.079 24.054 23.976 23.889 23.816 23.684 23.551 23.466 23.376 23.226 23.141 23.059 22.964 22.926 22.826 22.706 22.576 22.481 22.404 22.294 22.214 22.059 21.944 21.836 21.749 21.601 21.484 21.416 21.336 21.211 21.071 20.969 20.859 20.756 20.594 20.836 21.829 21.714 20.729 20.139 20.034 19.846 19.709 19.801 19.811 19.611 19.576 19.499 19.999 18.946 20.126 18.656 22.124 23.616 20.276 19.879 20.246 20.516 19.724 19.336 19.401 19.511 19.551 19.509 19.539 19.549 19.354 19.081 18.954 19.191 20.134 19.769 19.984 19.964 20.046 20.581 21.751 21.924 21.951 21.859 20.854 20.759 20.759 20.724 20.726 20.761 20.746 20.784 20.849 20.886 20.936 21.371 21.449 21.266 21.384 21.771 21.711 21.501 21.551 21.639 21.654 21.664 21.616 21.751 21.894 22.084 22.206 22.369 22.526 22.691 22.856 23.031 23.211 23.374 23.479 23.581 23.591 23.779 23.626 23.629 23.594 23.534 23.514 23.401 23.304 23.201 23.214 23.314 23.449 23.526 23.609 23.631 23.676 23.716 23.801 23.891 23.999 23.949 24.106 23.919 23.906 23.861 23.956 23.941 23.956 23.881 23.816 23.789 24.081 25.231 26.354 26.474 26.241 25.636 23.666 23.556 23.536 23.539 23.806 23.684 23.956 24.234 24.036 23.579 23.391 24.024 23.239 22.816 22.331 21.966 21.839 21.724 21.601 21.489 21.371 21.241 21.074 20.936 20.734 20.549 20.391 20.219 19.986 19.822 19.659 19.469 19.354 19.202 19.067 18.947 18.779 18.649 18.469 18.329 18.227 18.022 17.819 17.677 17.579 17.452 17.342 17.227 17.164 17.064 16.999 16.907 16.832 16.807 16.807 16.732 16.679 16.624 16.622 16.649 16.767 16.794 16.787 17.519 17.042 16.874 17.017 17.049 17.114 17.272 17.159 17.157 17.269 18.012 17.549 17.389 17.452 17.587 17.957 18.239 18.319 18.412 18.374 19.992 21.457 19.592 18.487 18.499 18.487 18.504 18.467 18.444 18.459 18.374 18.864 19.727 23.024 22.604 16.932 19.057 20.354 16.579 15.707 15.364 15.004 14.689 14.779 13.362 10.182 9.082 8.997 8.847 9.646 8.324 8.817 7.02 5.866 4.878 4.319 3.138 2.852 2.552 2.36 2.06 1.846 1.637 1.426 1.277 1.116 1.055 0.917 0.783 0.694 0.57 0.441 0.36 0.263 0.109 -0.102 -0.262 -0.372 -0.482 -0.766 -0.783 -0.949 -0.97 -0.966 -1.026 -1.054 -1.182 -1.026 -1.188 -1.174 -1.148 -1.105 -1.165 -1.112 -1.183 -1.166 -1.122 -1.19 -1.131 -1.105 -1.114 -1.118 -1.165 -1.206 -1.246 -1.244 -1.234 -1.192 -1.157 -1.136 -1.175 -1.213 -1.194 -1.158 -1.159 -1.169 -1.219 -1.237 -1.254 -1.201 -1.156 -1.194 -1.252 -1.27 -1.275 -1.298 -1.309 -1.356 -1.398 -1.303 -1.32 -1.314 -1.428 -1.341 -1.297 -1.143 -1.216 -1.287 -1.289 -1.295 -1.336 -1.33 -1.375 -1.389 -1.41 -1.4 -1.389 -1.399 -1.419 -1.467 -1.449 -1.395 -1.444 -1.463 -1.453 -1.465 -1.508 -1.476 -1.532
32.713 32.601 32.471 32.376 32.251 32.133 32.013 31.898 31.771 31.681 31.861 31.573 31.281 31.226 31.121 31.351 33.188 31.478 31.056 30.886 30.328 30.201 30.416 30.991 30.281 29.961 30.183 29.516 29.908 28.571 28.458 28.656 28.176 27.896 27.763 28.256 28.333 28.083 27.686 27.091 26.863 26.788 26.703 26.658 26.618 26.571 26.158 25.711 26.078 26.488 26.281 26.023 25.746 25.586 25.481 25.388 25.416 25.194 25.054 24.984 24.896 24.841 24.766 24.714 24.674 24.619 24.521 24.539 24.339 24.211 24.141 24.064 24.816 25.444 24.331 23.761 23.714 23.646 23.534 23.469 23.336 23.446 23.256 23.139 22.939 22.864 22.766 22.696 22.614 22.499 22.409 22.289 22.189 22.044 21.946 21.821 21.714 21.604 21.499 21.426 21.334 21.244 21.176 21.069 20.944 20.844 20.726 20.609 20.454 20.379 20.516 20.161 21.156 20.816 20.031 19.676 19.621 19.619 19.596 19.474 19.471 19.371 19.409 19.236 19.319 19.264 21.609 20.561 20.776 19.389 20.081 21.139 20.446 19.294 19.226 19.339 19.366 19.351 19.299 19.186 19.016 18.889 18.811 18.759 19.346 19.904 19.946 19.719 19.786 20.459 20.559 20.106 20.714 20.414 20.976 20.779 20.639 20.656 20.604 20.596 20.594 20.601 20.609 20.674 20.581 20.514 20.884 21.161 21.246 21.339 21.361 21.219 21.381 21.459 21.419 21.449 21.519 21.499 21.576 21.799 21.886 22.006 22.164 22.286 22.421 22.589 22.781 22.976 23.149 23.294 23.436 23.536 23.586 23.601 23.556 23.514 23.421 23.271 23.066 22.984 23.039 23.126 23.261 23.341 23.419 23.429 23.479 23.571 23.646 23.721 23.786 23.774 23.751 23.749 23.734 23.711 23.841 23.789 23.779 23.734 23.644 23.594 23.786 25.301 26.549 26.529 26.366 26.574 24.824 23.486 23.924 24.651 24.169 24.574 25.116 23.684 23.809 23.369 23.536 24.009 23.939 22.559 22.106 21.851 21.681 21.591 21.471 21.324 21.206 21.119 20.951 20.739 20.601 20.451 20.251 20.079 19.876 19.682 19.507 19.382 19.219 19.044 18.919 18.769 18.617 18.457 18.277 18.134 17.984 17.827 17.704 17.609 17.457 17.317 17.174 17.077 16.984 16.894 16.819 16.724 16.674 16.662 16.634 16.589 16.592 16.512 16.474 16.437 16.534 16.552 16.617 16.617 17.162 17.012 16.962 18.092 17.717 17.642 17.797 16.934 17.029 17.074 17.132 17.159 17.264 17.382 17.532 17.907 18.052 18.257 18.329 18.907 21.452 20.994 18.814 18.424 18.392 18.352 18.292 18.229 18.152 18.232 18.709 20.144 18.939 19.412 17.757 17.412 20.379 17.627 17.509 16.402 15.822 14.697 14.367 12.117 10.367 10.199 9.144 9.007 10.498 8.865 7.364 6.428 5.607 4.778 4.137 3.115 2.885 2.532 2.398 2.05 1.776 1.633 1.44 1.361 1.145 1.014 0.92 0.811 0.693 0.532 0.881 0.654 0.119 0.055 -0.037 -0.209 -0.298 -0.479 -0.745 -0.833 -0.885 -0.926 -0.974 -1.013 -1.079 -1.053 -1.106 -1.128 -1.236 -1.041 -1.122 -1.176 -1.127 -1.136 -1.152 -1.11 -1.175 -1.031 -1.085 -1.021 -1.069 -1.136 -1.145 -1.205 -1.25 -1.231 -1.202 -1.232 -1.184 -1.167 -1.166 -1.142 -1.091 -1.149 -1.192 -1.217 -1.26 -1.177 -1.187 -1.231 -1.296 -1.32 -1.279 -1.255 -1.27 -1.344 -1.329 -1.276 -1.136 -1.108 -0.964 -1.084 -0.974 -1.083 -1.152 -1.25 -1.296 -1.322 -1.365 -1.364 -1.358 -1.349 -1.395 -1.414 -1.387 -1.425 -1.428 -1.442 -1.464 -1.43 -1.421 -1.446 -1.452 -1.43 -1.484 -1.455 -1.436 -1.486
