ncols 485
nrows 30
xllcorner    464022
yllcorner    85810
cellsize     2
NODATA_value -9999
-1.744 -1.776 -1.751 -1.741 -1.779 -1.766 -1.736 -1.761 -1.751 -1.746 -1.701 -1.736 -9999 -9999 -9999 -1.771 -1.794 -1.764 -1.734 -1.739 -1.794 -1.776 -1.789 -1.739 -1.759 -1.746 -1.736 -1.726 -1.726 -1.721 -1.684 -1.729 -1.766 -1.731 -1.766 -1.771 -1.746 -1.741 -1.744 -1.759 -1.749 -1.751 -1.751 -1.741 -1.746 -1.729 -1.756 -1.766 -1.791 -1.779 -1.789 -1.706 -1.736 -1.714 -1.739 -1.701 -1.706 -1.751 -1.791 -1.769 -1.796 -1.739 -1.714 -1.679 -1.671 -1.696 -1.771 -1.754 -1.734 -1.726 -1.784 -1.791 -1.834 -1.826 -1.779 -1.756 -1.724 -1.699 -1.666 -1.686 -1.726 -1.821 -1.796 -1.814 -1.814 -1.794 -1.761 -1.764 -1.739 -1.761 -1.754 -1.764 -1.776 -1.754 -1.776 -1.714 -1.761 -1.789 -1.739 -1.729 -1.741 -1.794 -1.746 -1.729 -1.721 -1.786 -1.771 -1.819 -1.746 -1.751 -1.756 -1.739 -1.724 -1.769 -1.809 -1.786 -1.706 -1.726 -1.776 -1.731 -1.814 -1.829 -1.774 -1.799 -1.814 -1.519 -1.749 -1.761 -1.503 -1.789 -1.699 -1.749 -1.791 -1.714 -1.779 -1.751 -1.729 -1.739 -1.739 -1.729 -1.746 -1.786 -1.721 -1.741 -1.764 -1.751 -1.756 -1.776 -1.841 -1.696 -1.774 -1.794 -1.744 -1.724 -1.746 -1.731 -1.729 -1.734 -1.796 -1.859 -1.906 -1.884 -1.794 -1.741 -1.769 -1.809 -1.754 -1.731 -1.826 -1.804 -1.796 -1.799 -1.801 -1.794 -1.774 -1.796 -1.764 -1.704 -1.714 -1.704 -1.726 -1.809 -1.794 -1.811 -1.829 -1.786 -1.791 -1.826 -1.819 -1.821 -1.829 -1.836 -1.846 -1.811 -1.754 -1.771 -1.764 -1.736 -9999 -9999 -1.718 -1.676 -9999 -1.871 -1.858 -1.804 -1.809 -1.794 -9999 -9999 -9999 -1.681 -9999 -9999 -9999 -1.791 -1.786 -9999 -1.556 -1.54 -1.559 -1.829 -9999 -9999 -9999 -9999 -1.741 -1.746 -1.786 -1.816 -1.786 -1.844 -1.761 -1.741 -1.754 -9999 -9999 -9999 -9999 -9999 -9999 -9999 -9999 1.934 -9999 -9999 -9999 -9999 -9999 -9999 -9999 -9999 -9999 -9999 -9999 -9999 -9999 -9999 -9999 -9999 -9999 -9999 -9999 -9999 -9999 -9999 -9999 -9999 -9999 -9999 -9999 -9999 -9999 -9999 -9999 -9999 -9999 -9999 -9999 -9999 -9999 -9999 -9999 -9999 -9999 -9999 -9999 -9999 -9999 -9999 -9999 -9999 -9999 -9999 -9999 -9999 -9999 -9999 -9999 -9999 -9999 -9999 -9999 -9999 -9999 -9999 -9999 -9999 -9999 -9999 -9999 1.731 -9999 -9999 -9999 -9999 -9999 -9999 -9999 1.609 -9999 -9999 -9999 -9999 -9999 -9999 -9999 -9999 -9999 -9999 1.804 1.856 1.849 -9999 -9999 -9999 -9999 -9999 1.679 1.604 -9999 -9999 -9999 -9999 -9999 -9999 1.539 1.544 -9999 -9999 1.659 -9999 -9999 -9999 -9999 -9999 1.659 1.604 1.666 -9999 -9999 -9999 -9999 1.654 -9999 1.579 1.634 1.726 1.639 1.594 -9999 -9999 -9999 1.669 1.694 1.614 -9999 -9999 -9999 -9999 -9999 -9999 -9999 -9999 1.796 1.719 1.741 1.879 1.706 1.729 -9999 -9999 -9999 1.644 -9999 -9999 1.759 -9999 -9999 1.596 1.611 1.719 1.739 -9999 1.834 -9999 -9999 -9999 -9999 -9999 1.474 1.499 1.476 1.531 -9999 -9999 -9999 -9999 -9999 -9999 -9999 -9999 -9999 -9999 -9999 -9999 -9999 -9999 1.654 -9999 -9999 -9999 1.609 1.534 1.604 -9999 -9999 1.569 1.541 -9999 -9999 -9999 -9999 -9999 -9999 1.519 1.414 1.424 1.429 1.344 1.356 1.419 1.476 1.439 1.394 1.369 1.391 1.489 1.431 1.711 1.564 1.424 1.356 1.371 -9999 1.536 -9999 -9999 -9999 -9999 -9999 1.674 1.639 -9999 -9999 -9999 -9999 -9999 -9999 -9999 -9999 -9999 1.519 1.479 1.426
-1.734 -1.744 -1.754 -1.736 -1.754 -1.776 -1.746 -1.696 -1.726 -1.759 -1.711 -1.744 -1.764 -1.811 -1.761 -1.766 -1.791 -1.771 -1.779 -1.751 -1.766 -1.769 -1.766 -1.731 -1.709 -1.729 -1.701 -1.716 -1.741 -1.676 -1.691 -1.701 -1.711 -1.741 -1.756 -1.731 -1.736 -1.731 -1.739 -1.764 -1.769 -1.754 -1.754 -1.744 -1.751 -1.756 -1.776 -1.749 -1.779 -1.786 -1.784 -1.749 -1.771 -1.776 -1.734 -1.716 -1.711 -1.784 -1.844 -1.831 -1.766 -1.731 -1.731 -1.654 -1.686 -1.741 -1.781 -1.786 -1.756 -1.749 -1.776 -1.801 -1.814 -1.814 -1.786 -1.706 -1.684 -1.681 -1.654 -1.741 -1.774 -1.826 -1.751 -1.754 -1.779 -1.769 -1.756 -1.791 -1.756 -1.749 -1.756 -1.796 -1.729 -1.724 -1.716 -1.716 -1.779 -1.764 -1.759 -1.761 -1.751 -1.786 -1.789 -1.786 -1.769 -1.759 -1.779 -1.761 -1.714 -1.719 -1.784 -1.754 -1.746 -1.776 -1.794 -1.716 -1.746 -1.731 -1.816 -1.764 -1.744 -1.766 -1.751 -1.741 -1.779 -1.764 -1.744 -1.806 -1.509 -1.754 -1.734 -1.764 -1.779 -1.751 -1.819 -1.764 -1.799 -1.761 -1.729 -1.731 -1.751 -1.799 -1.736 -1.739 -1.746 -1.771 -1.761 -1.804 -1.851 -1.766 -1.769 -1.756 -1.754 -1.756 -1.814 -1.806 -1.799 -1.809 -1.789 -1.806 -1.871 -1.844 -1.779 -1.724 -1.746 -1.826 -1.806 -1.754 -1.791 -1.826 -1.786 -1.769 -1.766 -1.824 -1.756 -1.784 -1.754 -9999 -1.724 -1.726 -1.729 -1.826 -1.794 -1.799 -1.839 -1.834 -1.799 -1.884 -9999 -9999 -1.809 -1.831 -1.851 -1.804 -1.734 -1.786 -1.816 -1.791 -1.724 -1.704 -1.719 -1.704 -1.684 -1.796 -1.806 -1.719 -1.684 -1.774 -1.648 -1.701 -1.696 -1.684 -9999 -9999 -9999 -1.768 -1.756 1.702 1.731 -9999 -1.794 -1.779 -9999 -9999 -9999 -9999 -9999 -9999 -1.774 -1.776 -1.801 -1.856 -1.754 -1.739 -1.766 -9999 -9999 -9999 -9999 -9999 -9999 -9999 -9999 -9999 -9999 -9999 -9999 -9999 -9999 -9999 -9999 -9999 -9999 -9999 -9999 -9999 -9999 -9999 -9999 -9999 -9999 -9999 -9999 -9999 -9999 -9999 -9999 -9999 -9999 -9999 -9999 -9999 -9999 -9999 -9999 -9999 -9999 -9999 -9999 -9999 -9999 -9999 -9999 -9999 -9999 -9999 -9999 -9999 -9999 -9999 -9999 -9999 -9999 -9999 -9999 -9999 -9999 -9999 -9999 -9999 -9999 -9999 -9999 -9999 -9999 -9999 -9999 -9999 -9999 -9999 -9999 -9999 -9999 -9999 -9999 -9999 -9999 -9999 -9999 1.624 -9999 -9999 -9999 -9999 -9999 -9999 -9999 -9999 -9999 -9999 1.854 -9999 -9999 -9999 -9999 -9999 -9999 -9999 1.839 1.699 -9999 -9999 -9999 -9999 1.532 -9999 -9999 -9999 -9999 -9999 -9999 -9999 -9999 -9999 -9999 -9999 1.594 1.489 1.726 -9999 -9999 -9999 1.779 1.774 1.556 1.654 1.759 1.799 1.676 1.609 -9999 -9999 1.729 1.696 1.664 1.619 -9999 -9999 -9999 1.679 1.709 1.724 1.779 -9999 -9999 1.686 1.726 -9999 -9999 1.759 -9999 -9999 -9999 -9999 -9999 -9999 -9999 -9999 -9999 -9999 1.659 1.796 -9999 -9999 1.839 -9999 1.814 -9999 -9999 -9999 -9999 1.484 1.531 1.521 1.559 1.649 -9999 -9999 -9999 -9999 -9999 -9999 -9999 -9999 -9999 -9999 -9999 -9999 -9999 -9999 -9999 1.599 1.649 1.504 1.441 1.499 1.546 1.624 1.601 -9999 -9999 -9999 -9999 -9999 -9999 1.504 1.434 1.451 1.564 1.494 1.416 1.296 1.271 1.406 1.386 1.366 1.384 1.456 1.584 1.566 -9999 -9999 -9999 1.439 -9999 -9999 -9999 -9999 -9999 -9999 -9999 -9999 -9999 -9999 -9999 -9999 1.349 -9999 -9999 -9999 -9999 1.589 -9999 -9999 -9999
-1.729 -1.774 -1.764 -1.789 -1.784 -1.766 -1.721 -1.759 -1.749 -1.786 -1.729 -1.746 -1.781 -1.869 -1.836 -1.756 -9999 -1.781 -1.754 -1.774 -1.791 -1.756 -1.744 -1.739 -1.774 -1.729 -1.726 -1.694 -1.724 -1.694 -1.729 -1.774 -1.771 -1.784 -1.754 -1.734 -1.719 -1.721 -1.729 -1.746 -1.766 -1.759 -1.744 -1.736 -1.756 -1.766 -1.791 -1.779 -1.776 -1.756 -1.766 -1.771 -1.734 -1.734 -1.746 -1.721 -1.759 -1.786 -1.794 -1.806 -1.784 -1.719 -1.699 -1.674 -1.744 -1.811 -1.824 -1.771 -1.771 -1.779 -1.844 -1.846 -1.826 -1.759 -1.726 -1.676 -1.679 -1.681 -1.691 -1.766 -1.801 -1.764 -1.734 -1.779 -1.714 -1.734 -1.769 -1.754 -1.736 -1.734 -1.776 -1.819 -1.771 -1.759 -1.706 -1.771 -1.764 -1.769 -1.776 -1.729 -1.751 -1.806 -1.781 -1.791 -1.721 -1.759 -1.729 -1.779 -1.781 -1.761 -1.794 -1.796 -1.756 -1.746 -1.756 -1.734 -1.771 -1.761 -1.786 -1.754 -1.751 -1.789 -1.696 -1.724 -1.781 -1.754 -1.759 -1.729 -1.706 -1.784 -1.744 -1.759 -1.779 -1.806 -1.789 -1.751 -1.721 -1.721 -1.756 -1.744 -1.721 -1.739 -1.696 -1.749 -1.706 -1.801 -1.806 -1.814 -1.809 -1.806 -1.776 -1.781 -1.831 -1.716 -1.794 -1.854 -1.846 -1.809 -1.794 -1.789 -1.791 -1.741 -1.819 -1.811 -1.731 -1.729 -1.709 -1.741 -1.794 -1.836 -1.786 -1.801 -1.766 -1.794 -1.746 -1.784 -9999 -9999 -9999 -1.824 -1.834 -1.794 -1.781 -1.784 -1.821 -9999 -9999 -1.861 -9999 -9999 -1.831 -1.846 -1.814 -1.806 -1.801 -1.826 -1.819 -1.749 -1.724 -9999 -9999 -1.764 -1.804 -1.784 -1.744 -1.716 -1.731 -1.789 -1.724 -9999 -9999 -9999 -1.846 -1.821 -1.791 -1.509 1.799 1.749 1.781 -9999 -9999 -9999 -9999 -9999 -9999 -9999 -9999 -1.731 -1.706 -1.739 -1.801 -1.791 -1.759 -1.771 -1.801 -9999 -9999 -9999 -1.761 -9999 -9999 -9999 -9999 -9999 -9999 -9999 -9999 -9999 -9999 -9999 -9999 -9999 -9999 -9999 -9999 -9999 -9999 -9999 -9999 -9999 -9999 -9999 -9999 -9999 -9999 -9999 -9999 -9999 -9999 -9999 -9999 1.609 -9999 -9999 -9999 -9999 -9999 -9999 -9999 -9999 -9999 -9999 -9999 -9999 -9999 -9999 1.642 1.594 -9999 -9999 -9999 -9999 -9999 -9999 -9999 -9999 -9999 -9999 -9999 -9999 -9999 -9999 -9999 -9999 -9999 -9999 -9999 -9999 -9999 -9999 -9999 -9999 -9999 -9999 -9999 -9999 -9999 -9999 -9999 -9999 -9999 -9999 1.809 -9999 -9999 -9999 -9999 -9999 -9999 -9999 -9999 -9999 -9999 -9999 -9999 -9999 -9999 -9999 -9999 -9999 -9999 -9999 -9999 -9999 -9999 -9999 -9999 -9999 -9999 1.539 1.581 1.582 -9999 -9999 -9999 1.499 1.486 1.509 1.724 -9999 -9999 -9999 -9999 1.724 1.586 1.536 1.809 1.679 1.686 1.656 1.679 1.689 1.796 1.789 1.726 1.704 1.594 -9999 -9999 -9999 1.742 1.751 -9999 -9999 -9999 1.719 1.751 -9999 -9999 -9999 -9999 -9999 -9999 -9999 -9999 -9999 -9999 -9999 -9999 -9999 1.719 1.769 1.859 1.809 -9999 -9999 1.649 1.739 -9999 -9999 -9999 1.611 1.681 1.621 1.574 1.626 -9999 -9999 -9999 -9999 -9999 -9999 -9999 -9999 -9999 -9999 -9999 -9999 -9999 -9999 -9999 1.564 1.604 1.496 1.564 1.429 1.529 1.694 1.629 -9999 -9999 -9999 -9999 -9999 -9999 1.539 1.554 1.541 1.539 1.514 1.484 1.439 1.359 1.389 1.446 1.469 1.434 1.441 1.559 1.539 -9999 -9999 -9999 -9999 -9999 -9999 -9999 -9999 -9999 -9999 -9999 -9999 -9999 -9999 -9999 -9999 1.469 -9999 -9999 -9999 1.559 1.581 -9999 -9999 -9999
-1.729 -1.766 -1.744 -1.789 -1.781 -1.746 -1.774 -1.759 -1.739 -1.751 -1.744 -1.699 -1.724 -1.814 -1.804 -9999 -9999 -9999 -1.691 -1.749 -1.781 -1.764 -1.754 -1.744 -1.744 -1.744 -1.729 -1.699 -1.714 -1.684 -1.744 -1.771 -1.749 -1.769 -1.774 -1.741 -1.731 -1.726 -1.726 -1.776 -1.796 -1.786 -1.741 -1.716 -1.739 -1.766 -1.796 -1.781 -1.754 -1.771 -1.761 -1.764 -1.736 -1.716 -1.781 -1.776 -1.784 -1.784 -1.806 -1.804 -1.729 -1.706 -1.686 -1.731 -1.794 -1.819 -1.809 -1.781 -1.819 -1.799 -1.804 -1.829 -1.789 -1.746 -1.679 -1.689 -1.674 -1.666 -1.786 -1.816 -1.769 -1.739 -1.761 -1.794 -1.761 -1.759 -1.756 -1.754 -1.716 -1.726 -1.761 -1.834 -1.764 -1.761 -1.736 -1.771 -1.756 -1.781 -1.729 -1.719 -1.819 -1.774 -1.774 -1.786 -1.756 -1.786 -1.744 -1.741 -1.751 -1.781 -1.776 -1.771 -1.744 -1.729 -1.721 -1.729 -1.716 -1.801 -1.769 -1.806 -1.739 -1.779 -1.774 -1.749 -1.756 -1.749 -1.759 -1.729 -1.769 -1.821 -1.831 -1.764 -1.729 -1.811 -1.774 -1.696 -1.704 -1.686 -1.701 -1.786 -1.764 -1.744 -1.754 -1.801 -1.784 -1.796 -1.794 -1.769 -1.784 -1.806 -1.799 -1.821 -1.926 -1.756 -1.841 -1.804 -1.774 -1.714 -1.709 -1.729 -1.5 -1.699 -1.721 -1.761 -1.726 -1.664 -1.689 -1.789 -1.836 -1.829 -1.774 -1.779 -9999 -9999 -1.779 -1.904 -1.921 -1.821 -9999 -9999 -9999 -1.726 -1.761 -1.791 -1.814 -9999 -1.851 -1.839 -9999 -9999 -1.849 -1.826 -1.719 -1.711 -1.781 -9999 -1.879 -1.811 -1.761 -9999 -9999 -1.774 -1.794 -1.844 -1.799 -1.786 -1.776 -1.796 -1.804 -9999 -9999 -1.811 -1.814 -1.791 -1.839 -1.829 -9999 1.792 1.901 -9999 -9999 -9999 -9999 -9999 -9999 -9999 -9999 -1.754 -1.729 -1.739 -1.789 -9999 -9999 -9999 1.959 -1.568 -1.524 -1.774 -1.796 -9999 -9999 -9999 -9999 -9999 -9999 -9999 -9999 -9999 -9999 -9999 -9999 -9999 -9999 -9999 -9999 -9999 -9999 -9999 -9999 -9999 -9999 -9999 -9999 -9999 -9999 -9999 -9999 -9999 1.599 1.629 1.614 1.592 1.619 -9999 -9999 -9999 1.584 1.594 1.579 -9999 -9999 -9999 -9999 -9999 -9999 -9999 -9999 -9999 -9999 -9999 -9999 -9999 -9999 -9999 -9999 -9999 -9999 -9999 -9999 -9999 -9999 -9999 -9999 -9999 -9999 -9999 -9999 -9999 -9999 -9999 -9999 -9999 -9999 -9999 -9999 -9999 -9999 1.642 -9999 -9999 -9999 -9999 -9999 -9999 -9999 -9999 -9999 -9999 -9999 -9999 -9999 -9999 1.539 1.634 -9999 -9999 -9999 -9999 -9999 -9999 -9999 -9999 -9999 -9999 -9999 1.669 -9999 -9999 1.669 1.496 -9999 -9999 -9999 -9999 1.809 -9999 -9999 -9999 1.726 1.744 1.739 1.749 -9999 -9999 1.622 1.544 1.721 1.666 1.696 1.624 -9999 1.586 1.724 1.764 1.751 -9999 -9999 -9999 -9999 -9999 1.732 -9999 -9999 -9999 -9999 1.834 1.784 -9999 -9999 -9999 -9999 -9999 -9999 -9999 -9999 -9999 -9999 -9999 -9999 1.699 1.766 1.869 1.949 -9999 -9999 -9999 1.504 1.499 -9999 -9999 1.699 1.511 1.709 1.664 1.644 1.656 1.731 1.779 1.776 1.652 1.696 1.784 1.739 1.649 1.616 -9999 -9999 -9999 -9999 -9999 -9999 1.504 1.639 1.659 1.609 1.504 1.531 1.571 1.604 -9999 -9999 -9999 1.739 1.624 1.809 1.799 1.589 1.611 1.549 1.526 1.601 1.601 1.421 1.331 1.426 1.501 1.514 1.404 1.511 1.491 -9999 -9999 -9999 -9999 -9999 -9999 -9999 -9999 -9999 -9999 -9999 -9999 -9999 -9999 -9999 -9999 -9999 -9999 -9999 1.499 -9999 -9999 -9999 -9999 -9999
-1.781 -1.744 -1.746 -1.779 -1.751 -1.774 -1.769 -1.751 -1.749 -1.691 -1.704 -1.699 -1.726 -1.746 -1.714 -9999 -9999 -9999 -1.806 -1.729 -1.749 -1.774 -1.751 -1.756 -1.759 -1.761 -1.724 -1.689 -1.699 -1.721 -1.781 -1.779 -1.771 -1.776 -1.771 -1.704 -1.694 -1.706 -1.726 -1.744 -1.756 -1.746 -1.716 -1.701 -1.751 -1.781 -1.744 -1.756 -1.756 -1.759 -1.734 -1.761 -1.749 -1.714 -1.776 -1.761 -1.781 -1.809 -1.779 -1.771 -1.761 -1.751 -1.739 -1.794 -1.804 -1.804 -1.819 -1.739 -1.829 -1.784 -1.796 -1.834 -1.754 -1.714 -1.689 -1.716 -1.749 -1.726 -1.769 -1.789 -1.771 -1.779 -1.791 -1.809 -1.804 -1.764 -1.706 -1.726 -1.754 -1.786 -1.781 -1.809 -1.791 -1.771 -1.791 -1.821 -1.781 -1.774 -1.711 -1.719 -1.789 -1.816 -1.769 -1.766 -1.734 -1.719 -1.696 -1.739 -1.749 -1.761 -1.831 -1.771 -1.736 -1.716 -1.699 -1.749 -1.741 -1.806 -1.769 -1.736 -1.704 -1.789 -1.816 -1.761 -1.726 -1.766 -1.786 -1.821 -1.741 -1.774 -1.781 -1.729 -1.674 -1.719 -1.724 -1.691 -1.746 -1.741 -1.754 -1.851 -1.794 -1.784 -1.829 -1.859 -1.789 -1.784 -1.744 -1.741 -1.761 -1.781 -1.791 -1.809 -1.831 -1.739 -1.831 -1.751 -1.694 -1.706 -1.714 -1.744 -1.749 -1.704 -1.706 -1.734 -1.699 -1.701 -9999 -9999 -1.821 -1.849 -1.769 -1.706 -9999 -9999 -9999 -1.841 -1.814 -1.791 -9999 -9999 -1.791 -1.704 -1.756 -1.806 -1.816 -1.836 -1.841 -1.791 -1.788 -1.818 -1.836 -1.809 -1.749 -1.734 -9999 -9999 -1.851 -1.834 -9999 -9999 -9999 -1.801 -1.804 -1.759 -1.806 -1.829 -1.836 -1.821 -1.806 -1.799 -1.794 -1.779 -1.756 -1.756 -1.834 -1.884 -1.819 -1.814 -1.821 -1.811 -9999 -9999 -9999 -9999 -9999 -9999 -9999 -9999 -9999 -9999 -9999 -9999 -9999 -9999 -9999 -9999 -9999 -1.911 -1.834 -9999 -9999 -9999 -9999 -9999 -9999 -9999 -9999 -9999 -9999 -9999 -9999 -9999 -9999 -9999 -9999 -9999 1.649 1.589 -9999 -9999 -9999 -9999 -9999 -9999 -9999 -9999 -9999 -9999 1.719 1.666 -9999 -9999 1.629 -9999 -9999 -9999 -9999 1.602 1.571 -9999 -9999 -9999 -9999 -9999 -9999 -9999 -9999 -9999 -9999 -9999 -9999 -9999 -9999 -9999 -9999 -9999 -9999 1.449 1.399 -9999 -9999 -9999 -9999 -9999 -9999 -9999 -9999 -9999 -9999 -9999 -9999 -9999 -9999 -9999 -9999 -9999 -9999 -9999 -9999 -9999 -9999 -9999 -9999 -9999 -9999 -9999 -9999 -9999 -9999 -9999 -9999 -9999 -9999 -9999 -9999 -9999 -9999 -9999 -9999 -9999 1.619 -9999 -9999 -9999 -9999 1.699 1.649 1.669 -9999 -9999 -9999 -9999 -9999 1.692 1.709 1.756 1.869 1.874 1.761 1.739 1.814 1.924 1.871 -9999 -9999 1.739 1.746 1.766 1.744 1.674 -9999 -9999 1.632 1.686 1.749 1.634 -9999 1.762 1.891 1.831 -9999 -9999 -9999 -9999 -9999 -9999 -9999 -9999 -9999 -9999 -9999 -9999 1.619 1.536 -9999 -9999 -9999 -9999 -9999 -9999 1.991 -9999 -9999 -9999 -9999 -9999 -9999 1.602 -9999 -9999 -9999 1.679 1.741 1.802 1.776 1.794 1.826 1.766 -9999 1.619 -9999 1.739 -9999 -9999 1.706 -9999 -9999 -9999 -9999 -9999 -9999 1.454 1.671 1.696 1.599 1.629 1.676 1.589 1.554 -9999 -9999 1.774 1.761 1.636 1.586 1.539 1.559 1.589 1.589 1.546 1.679 -9999 -9999 1.341 -9999 -9999 -9999 1.469 -9999 -9999 -9999 -9999 -9999 -9999 -9999 -9999 -9999 -9999 -9999 -9999 -9999 -9999 -9999 -9999 -9999 -9999 -9999 -9999 1.602 1.606 -9999 -9999 1.399 1.366 1.401
-1.746 -1.734 -1.749 -1.784 -1.761 -1.804 -1.754 -1.741 -1.739 -1.709 -1.704 -1.716 -1.756 -1.791 -1.776 -1.771 -9999 -9999 -1.808 -1.741 -1.699 -1.756 -1.771 -1.781 -1.814 -1.774 -1.784 -1.699 -1.726 -1.774 -1.786 -1.776 -1.789 -1.766 -1.771 -1.704 -1.679 -1.751 -1.771 -1.749 -1.769 -1.724 -1.674 -1.701 -1.776 -1.771 -1.759 -1.786 -1.801 -1.799 -1.736 -1.716 -1.724 -1.774 -1.759 -1.769 -1.766 -1.794 -1.756 -1.711 -1.746 -1.779 -1.744 -1.786 -1.776 -1.774 -1.774 -1.771 -1.761 -1.739 -1.819 -1.786 -1.724 -1.701 -1.754 -1.714 -1.731 -1.766 -1.771 -1.799 -1.786 -1.754 -1.761 -1.811 -1.779 -1.734 -1.744 -1.794 -1.846 -1.829 -1.784 -1.716 -1.726 -1.741 -1.751 -1.776 -1.764 -1.774 -1.749 -1.706 -1.764 -1.749 -1.724 -1.684 -1.719 -1.736 -1.761 -1.784 -1.736 -1.696 -1.751 -1.731 -1.779 -1.786 -1.766 -1.794 -1.746 -1.764 -1.816 -1.731 -1.806 -1.854 -1.851 -1.786 -1.729 -1.759 -1.769 -1.749 -1.724 -1.724 -1.736 -1.754 -1.756 -1.769 -1.766 -1.746 -1.789 -1.769 -1.819 -1.844 -1.804 -1.786 -1.779 -1.814 -1.769 -1.761 -1.751 -1.721 -1.744 -1.779 -1.806 -1.751 -1.724 -1.704 -1.764 -1.754 -1.761 -1.756 -1.754 -1.766 -1.766 -1.724 -1.751 -1.751 -1.716 -1.794 -9999 -9999 -1.781 -1.816 -1.756 -1.681 -9999 -9999 -1.821 -1.774 -1.754 -1.771 -9999 -1.861 -1.871 -1.799 -1.821 -1.824 -1.786 -1.816 -1.859 -1.826 -1.811 -1.796 -1.701 -1.744 -1.844 -1.849 -1.821 -1.851 -1.804 -1.774 -1.781 -9999 -1.831 -1.839 -1.799 -1.729 -1.786 -1.809 -1.811 -1.781 -1.786 -1.751 -1.744 -1.789 -1.764 -1.746 -1.789 -1.849 -1.796 -1.754 -1.794 -9999 -9999 -9999 -9999 -9999 -9999 -9999 -9999 -9999 -9999 -9999 -9999 -9999 -9999 -9999 -9999 -9999 -9999 -9999 -1.799 -9999 -9999 -9999 -9999 -9999 -9999 -9999 -9999 -9999 1.604 1.654 -9999 -9999 -9999 -9999 -9999 -9999 1.646 1.719 -9999 -9999 -9999 -9999 -9999 -9999 -9999 1.589 -9999 -9999 1.729 1.696 -9999 1.739 1.709 -9999 -9999 -9999 -9999 1.609 -9999 -9999 -9999 -9999 -9999 -9999 -9999 -9999 1.639 -9999 -9999 -9999 -9999 -9999 -9999 -9999 -9999 -9999 -9999 -9999 -9999 -9999 -9999 -9999 -9999 -9999 -9999 -9999 -9999 -9999 -9999 -9999 -9999 -9999 -9999 -9999 -9999 -9999 -9999 -9999 -9999 -9999 -9999 -9999 -9999 -9999 -9999 -9999 -9999 -9999 -9999 -9999 -9999 -9999 -9999 -9999 -9999 -9999 -9999 -9999 -9999 -9999 1.699 1.696 -9999 -9999 -9999 -9999 1.539 1.671 1.726 -9999 -9999 -9999 1.719 -9999 -9999 -9999 1.969 1.836 1.781 1.749 1.834 1.869 1.796 -9999 -9999 1.799 1.831 1.804 1.761 1.661 -9999 -9999 1.626 1.641 1.824 1.816 1.696 1.751 1.991 1.901 -9999 -9999 -9999 -9999 -9999 -9999 -9999 -9999 -9999 -9999 -9999 -9999 1.639 1.541 1.606 1.699 -9999 -9999 -9999 -9999 -9999 -9999 -9999 -9999 -9999 -9999 -9999 1.914 -9999 -9999 -9999 -9999 -9999 -9999 1.836 1.839 1.776 -9999 -9999 -9999 -9999 -9999 -9999 -9999 -9999 -9999 -9999 -9999 -9999 -9999 -9999 -9999 1.681 1.696 1.664 1.569 1.684 1.786 1.654 1.784 -9999 1.684 1.789 1.699 1.666 1.599 1.546 1.529 1.529 1.604 1.829 -9999 -9999 1.439 -9999 -9999 -9999 -9999 -9999 -9999 -9999 -9999 -9999 -9999 -9999 -9999 -9999 -9999 -9999 -9999 -9999 1.424 1.529 -9999 -9999 -9999 -9999 -9999 -9999 1.671 1.582 1.564 1.399 1.424 1.459
-1.741 -1.721 -1.711 -1.751 -1.764 -1.764 -1.801 -1.781 -1.751 -1.736 -1.736 -1.736 -1.764 -1.779 -1.736 -1.759 -1.791 -1.801 -1.801 -1.764 -1.704 -1.711 -1.771 -1.791 -1.784 -1.794 -1.721 -1.719 -1.756 -1.789 -1.761 -1.759 -1.766 -1.791 -1.766 -1.709 -1.704 -1.729 -1.756 -1.781 -1.754 -1.706 -1.669 -1.746 -1.766 -1.754 -1.751 -1.764 -1.759 -1.759 -1.731 -1.684 -1.734 -1.789 -1.769 -1.814 -1.804 -1.794 -1.759 -1.709 -1.749 -1.804 -1.766 -1.784 -1.799 -1.784 -1.751 -1.779 -1.801 -1.776 -1.779 -1.776 -1.726 -1.699 -1.729 -1.736 -1.779 -1.806 -1.796 -1.801 -1.806 -1.781 -1.754 -1.794 -1.796 -1.774 -1.726 -1.759 -1.831 -1.786 -1.749 -1.719 -1.649 -1.684 -1.719 -1.796 -1.814 -1.726 -1.751 -1.729 -1.746 -1.746 -1.751 -1.706 -1.676 -1.749 -1.789 -1.796 -1.821 -1.809 -1.784 -1.731 -1.714 -1.729 -1.704 -1.769 -1.726 -1.746 -1.766 -1.771 -1.844 -1.824 -1.796 -1.791 -1.761 -1.736 -1.744 -1.704 -1.679 -1.696 -1.781 -1.761 -1.786 -1.769 -1.761 -1.791 -1.784 -1.726 -1.826 -1.789 -1.749 -1.746 -1.761 -1.764 -1.741 -1.766 -1.814 -1.741 -1.774 -1.759 -1.739 -1.679 -1.711 -1.711 -1.776 -1.781 -1.819 -1.814 -1.796 -1.766 -1.771 -1.809 -1.844 -1.756 -1.744 -1.731 -9999 -1.791 -1.786 -1.789 -1.751 -1.731 -1.856 -1.786 -1.811 -1.851 -1.791 -1.756 -1.779 -1.814 -1.864 -1.829 -1.814 -1.826 -1.801 -1.769 -1.809 -1.836 -1.814 -1.714 -1.704 -1.756 -1.786 -1.759 -1.749 -1.761 -1.709 -1.721 -1.796 -1.784 -1.874 -1.856 -1.764 -1.704 -1.771 -1.814 -1.806 -1.759 -1.796 -1.746 -1.681 -1.734 -1.806 -1.537 -1.786 -1.801 -1.766 -1.764 -1.819 -9999 -9999 -9999 -9999 -9999 -9999 -9999 -9999 -9999 -9999 -9999 -9999 -9999 -9999 -1.801 -1.871 -1.811 -1.786 -9999 -9999 -9999 -9999 -9999 -9999 -9999 -9999 -9999 -9999 1.636 1.646 1.661 -9999 -9999 -9999 -9999 -9999 -9999 1.614 1.766 -9999 -9999 -9999 -9999 -9999 -9999 -9999 1.664 -9999 -9999 -9999 -9999 -9999 -9999 1.789 1.794 1.694 -9999 -9999 -9999 -9999 -9999 -9999 -9999 -9999 -9999 -9999 -9999 -9999 -9999 -9999 -9999 -9999 -9999 -9999 -9999 -9999 -9999 -9999 -9999 -9999 -9999 -9999 -9999 -9999 -9999 -9999 -9999 -9999 -9999 -9999 -9999 -9999 -9999 -9999 -9999 -9999 -9999 -9999 -9999 -9999 -9999 -9999 -9999 -9999 -9999 -9999 -9999 -9999 -9999 -9999 -9999 -9999 -9999 -9999 -9999 -9999 -9999 -9999 -9999 -9999 -9999 -9999 -9999 -9999 -9999 -9999 -9999 -9999 1.732 1.726 1.789 -9999 -9999 -9999 -9999 -9999 -9999 -9999 -9999 1.709 1.721 1.766 -9999 -9999 -9999 -9999 -9999 -9999 -9999 1.609 1.616 1.771 1.676 1.791 1.766 -9999 -9999 1.726 1.729 -9999 -9999 -9999 -9999 -9999 -9999 -9999 -9999 -9999 -9999 -9999 -9999 -9999 -9999 1.659 1.651 1.639 -9999 -9999 -9999 -9999 -9999 -9999 -9999 -9999 -9999 -9999 -9999 -9999 1.799 -9999 -9999 -9999 -9999 -9999 -9999 1.854 1.779 1.719 -9999 -9999 -9999 -9999 -9999 -9999 -9999 -9999 -9999 -9999 -9999 -9999 -9999 -9999 1.679 1.719 1.704 1.706 1.726 1.859 1.891 1.749 1.736 1.666 1.664 1.764 1.674 1.651 1.581 1.524 1.616 1.806 1.776 1.724 -9999 -9999 1.546 1.704 -9999 -9999 -9999 -9999 -9999 -9999 -9999 -9999 -9999 -9999 1.659 1.689 1.609 1.534 1.584 1.574 1.596 -9999 -9999 -9999 -9999 -9999 -9999 -9999 -9999 -9999 -9999 1.516 1.544 1.539
-1.719 -1.744 -1.741 -1.736 -1.749 -1.754 -1.771 -1.786 -1.754 -1.729 -1.686 -1.726 -1.761 -1.739 -1.656 -1.716 -1.766 -1.789 -1.789 -1.769 -1.724 -1.731 -1.756 -1.766 -1.794 -1.751 -1.669 -1.726 -1.751 -1.726 -1.741 -1.719 -1.791 -1.806 -1.756 -1.676 -1.686 -1.741 -1.796 -1.739 -1.721 -1.676 -1.706 -1.779 -1.749 -1.729 -1.739 -1.746 -1.714 -1.721 -1.714 -1.716 -1.751 -1.779 -1.759 -1.764 -1.786 -1.764 -1.714 -1.731 -1.736 -1.781 -1.804 -1.799 -1.759 -1.776 -1.764 -1.794 -1.801 -1.824 -1.811 -1.801 -1.734 -1.701 -1.709 -1.736 -1.774 -1.821 -1.794 -1.769 -1.756 -1.699 -1.761 -1.754 -1.729 -1.711 -1.696 -1.726 -1.751 -1.741 -1.744 -1.751 -1.724 -1.709 -1.736 -1.756 -1.761 -1.681 -1.724 -1.749 -1.734 -1.726 -1.764 -1.786 -1.784 -1.759 -1.774 -1.796 -1.821 -1.849 -1.784 -1.761 -1.749 -1.741 -1.741 -1.771 -1.724 -1.829 -1.809 -1.781 -1.801 -1.744 -1.709 -1.734 -1.684 -1.749 -1.686 -1.704 -1.726 -1.709 -1.844 -1.801 -1.786 -1.711 -1.759 -1.839 -1.841 -1.821 -1.791 -1.729 -1.719 -1.741 -1.744 -1.751 -1.716 -1.839 -1.786 -1.749 -1.761 -1.776 -1.744 -1.701 -1.736 -1.734 -1.769 -1.789 -1.804 -1.756 -1.764 -1.801 -1.811 -1.826 -1.851 -1.809 -1.869 -1.781 -1.771 -1.769 -1.746 -1.739 -1.766 -1.696 -1.706 -1.701 -1.721 -1.779 -1.821 -9999 -1.804 -1.826 -1.854 -1.791 -1.811 -1.809 -1.819 -1.769 -1.776 -1.781 -1.781 -1.771 -1.736 -1.771 -1.766 -1.716 -1.699 -1.714 -1.706 -1.729 -1.741 -1.779 -1.846 -1.794 -1.751 -1.726 -1.809 -1.869 -1.864 -1.786 -1.779 -1.746 -1.724 -1.774 -1.844 -1.834 -1.789 -1.731 -1.716 -1.751 -1.864 -1.871 -1.846 -9999 -9999 -9999 -9999 -9999 -1.821 -1.804 -9999 -1.746 -1.786 -1.811 -9999 -9999 -1.781 -1.769 -9999 -9999 -9999 -9999 -9999 -9999 -9999 -9999 -9999 -9999 1.719 -9999 -9999 -9999 -9999 -9999 -9999 -9999 -9999 1.639 1.589 1.644 1.654 -9999 -9999 -9999 -9999 -9999 -9999 -9999 -9999 -9999 -9999 -9999 -9999 -9999 -9999 1.811 -9999 -9999 -9999 -9999 -9999 -9999 -9999 -9999 -9999 -9999 -9999 -9999 -9999 -9999 -9999 -9999 -9999 -9999 -9999 -9999 -9999 -9999 -9999 -9999 -9999 -9999 -9999 -9999 -9999 -9999 -9999 -9999 -9999 -9999 -9999 -9999 -9999 -9999 -9999 -9999 -9999 -9999 -9999 -9999 -9999 -9999 -9999 -9999 -9999 -9999 -9999 -9999 -9999 -9999 -9999 -9999 -9999 -9999 -9999 -9999 -9999 -9999 -9999 -9999 -9999 -9999 -9999 -9999 -9999 -9999 -9999 -9999 -9999 -9999 -9999 -9999 -9999 -9999 -9999 -9999 -9999 -9999 -9999 1.709 -9999 -9999 -9999 -9999 -9999 -9999 -9999 -9999 -9999 1.579 1.594 1.696 1.944 1.836 1.756 -9999 -9999 -9999 -9999 1.649 -9999 -9999 -9999 -9999 -9999 -9999 -9999 -9999 -9999 -9999 -9999 -9999 -9999 -9999 1.614 1.639 -9999 -9999 -9999 -9999 -9999 -9999 -9999 -9999 -9999 -9999 -9999 -9999 -9999 -9999 -9999 -9999 -9999 -9999 -9999 -9999 1.919 1.736 1.724 1.799 -9999 -9999 1.559 1.656 1.606 -9999 -9999 -9999 -9999 -9999 -9999 -9999 1.814 -9999 1.814 1.766 1.781 1.821 1.849 1.721 1.681 1.694 1.644 1.709 1.579 1.506 1.556 1.594 1.621 1.666 1.714 1.746 1.684 1.546 1.639 1.644 1.594 1.529 1.599 -9999 1.654 -9999 -9999 -9999 -9999 -9999 -9999 1.739 1.819 1.564 1.609 1.684 1.651 1.659 -9999 -9999 -9999 -9999 -9999 -9999 -9999 -9999 -9999 -9999 1.552 1.651 1.551
-1.729 -1.739 -1.764 -1.754 -1.731 -1.771 -1.759 -1.764 -1.716 -1.736 -1.714 -1.764 -1.769 -1.699 -1.689 -1.761 -1.734 -1.724 -1.716 -1.726 -1.736 -1.754 -1.786 -1.756 -1.809 -1.771 -1.699 -1.716 -1.751 -1.709 -1.746 -1.716 -1.799 -1.794 -1.724 -1.679 -1.709 -1.751 -1.789 -1.756 -1.699 -1.664 -1.761 -1.804 -1.744 -1.739 -1.729 -1.769 -1.739 -1.724 -1.684 -1.711 -1.766 -1.744 -1.756 -1.724 -1.739 -1.734 -1.746 -1.739 -1.709 -1.759 -1.784 -1.756 -1.761 -1.726 -1.724 -1.746 -1.781 -1.786 -1.784 -1.749 -1.714 -1.724 -1.721 -1.764 -1.801 -1.784 -1.731 -1.716 -1.709 -1.706 -1.796 -1.764 -1.781 -1.719 -1.676 -1.736 -1.699 -1.731 -1.756 -1.739 -1.749 -1.774 -1.756 -1.759 -1.741 -1.734 -1.741 -1.794 -1.789 -1.824 -1.784 -1.776 -1.784 -1.756 -1.829 -1.801 -1.834 -1.814 -1.769 -1.724 -1.716 -1.781 -1.789 -1.874 -1.729 -1.751 -1.726 -1.736 -1.706 -1.674 -1.741 -1.794 -1.756 -1.699 -1.664 -1.721 -1.794 -1.764 -1.829 -1.794 -1.756 -1.731 -1.816 -1.759 -1.804 -1.854 -1.741 -1.716 -1.696 -1.711 -1.734 -1.716 -1.736 -2.001 -1.924 -1.754 -1.711 -1.744 -1.744 -1.749 -1.756 -1.766 -9999 -9999 -1.798 -1.769 -1.806 -1.841 -1.854 -1.854 -1.889 -1.831 -1.829 -1.754 -1.751 -1.739 -1.714 -1.734 -9999 -9999 -1.721 -1.711 -1.774 -1.791 -9999 -9999 -1.801 -1.804 -1.776 -1.711 -1.819 -1.804 -1.774 -1.781 -1.834 -1.821 -1.781 -1.771 -1.711 -1.716 -1.734 -1.686 -1.714 -1.806 -1.789 -9999 -9999 -9999 -9999 -1.786 -1.759 -1.771 -1.801 -1.859 -1.861 -1.791 -1.741 -9999 -9999 -9999 -1.824 -1.829 -1.799 -1.504 -1.746 -1.744 -1.839 -1.881 -9999 -9999 -9999 -9999 -9999 -9999 -1.704 -1.691 -1.819 -1.836 -1.861 -9999 -9999 -9999 -1.666 -1.681 -1.698 -1.661 -9999 -9999 -9999 -9999 -9999 -9999 -9999 -9999 -9999 -9999 -9999 -9999 -9999 -9999 -9999 -9999 -9999 -9999 1.639 -9999 -9999 -9999 -9999 -9999 -9999 -9999 -9999 -9999 -9999 -9999 -9999 -9999 -9999 -9999 -9999 -9999 -9999 -9999 -9999 -9999 -9999 -9999 -9999 -9999 -9999 -9999 -9999 -9999 -9999 -9999 -9999 -9999 1.629 -9999 -9999 -9999 -9999 -9999 -9999 -9999 -9999 -9999 -9999 -9999 -9999 -9999 -9999 -9999 -9999 -9999 -9999 -9999 -9999 -9999 -9999 -9999 -9999 -9999 -9999 -9999 -9999 -9999 -9999 -9999 -9999 -9999 -9999 -9999 -9999 -9999 -9999 -9999 -9999 -9999 -9999 -9999 -9999 -9999 -9999 -9999 -9999 -9999 -9999 -9999 -9999 -9999 1.589 1.744 -9999 -9999 -9999 -9999 -9999 -9999 -9999 -9999 -9999 -9999 1.629 -9999 -9999 -9999 -9999 -9999 -9999 1.904 1.784 1.684 1.639 1.636 1.684 1.709 1.816 1.751 1.629 -9999 -9999 -9999 -9999 -9999 -9999 -9999 -9999 -9999 -9999 -9999 1.669 1.694 -9999 -9999 -9999 -9999 -9999 -9999 1.659 -9999 -9999 -9999 -9999 -9999 -9999 -9999 -9999 -9999 -9999 1.639 1.706 -9999 -9999 -9999 -9999 -9999 -9999 -9999 -9999 -9999 -9999 1.666 1.751 1.889 1.879 1.809 1.689 1.756 1.589 1.756 -9999 -9999 -9999 -9999 1.759 1.744 1.816 -9999 -9999 1.836 1.539 1.654 1.714 1.584 1.806 1.744 1.831 1.704 1.636 1.519 1.604 1.564 1.636 1.659 1.659 1.564 1.594 1.594 1.614 1.606 1.636 1.606 1.544 1.619 1.719 -9999 -9999 -9999 -9999 -9999 -9999 1.819 1.979 1.699 1.709 1.709 1.694 1.714 1.764 -9999 1.629 1.644 1.684 -9999 -9999 1.529 1.432 1.332 1.531 1.601 1.546
-1.734 -1.731 -1.721 -1.736 -1.739 -1.771 -1.749 -1.774 -1.746 -1.729 -1.704 -1.689 -1.799 -1.776 -1.741 -1.711 -1.729 -1.709 -1.734 -1.716 -1.736 -1.771 -1.814 -1.786 -1.836 -1.786 -1.721 -1.761 -1.769 -1.754 -1.791 -1.781 -1.786 -1.814 -1.729 -1.699 -1.736 -1.799 -1.801 -1.759 -1.684 -1.659 -1.734 -1.771 -1.761 -1.759 -1.729 -1.756 -1.726 -1.716 -1.741 -1.731 -1.761 -1.781 -1.764 -1.741 -1.699 -1.689 -1.721 -1.726 -1.744 -1.764 -1.769 -1.714 -1.776 -1.766 -1.729 -1.721 -1.756 -1.781 -1.741 -1.664 -1.729 -1.694 -1.741 -1.784 -1.829 -1.781 -1.774 -1.701 -1.729 -1.756 -1.781 -1.716 -1.781 -1.784 -1.789 -1.766 -1.684 -1.724 -1.761 -1.734 -1.766 -1.756 -1.774 -1.766 -1.746 -1.806 -1.806 -1.824 -1.784 -1.811 -1.771 -1.814 -1.814 -1.769 -1.791 -1.779 -1.766 -1.741 -1.734 -1.696 -1.721 -1.781 -1.759 -1.766 -1.681 -1.711 -1.701 -1.701 -1.676 -1.761 -1.739 -1.784 -1.786 -1.759 -1.736 -1.774 -1.784 -1.799 -1.831 -1.789 -1.724 -1.754 -1.794 -1.784 -1.771 -1.759 -1.741 -1.691 -1.686 -1.711 -1.741 -1.751 -1.776 -1.781 -1.786 -1.744 -1.706 -1.714 -1.754 -1.841 -1.836 -1.814 -9999 -9999 -1.761 -1.789 -1.819 -1.836 -1.829 -1.916 -1.971 -1.771 -1.726 -1.736 -1.754 -1.709 -1.666 -1.719 -9999 -9999 -1.771 -1.791 -1.821 -1.834 -9999 -9999 -1.794 -1.781 -1.776 -1.709 -1.796 -1.829 -1.766 -1.814 -1.859 -1.861 -1.809 -1.774 -1.726 -1.786 -1.861 -1.704 -1.756 -1.824 -1.789 -9999 -9999 -9999 -9999 -1.856 -1.749 -1.744 -1.784 -1.834 -1.834 -1.789 -9999 -9999 -9999 -9999 -1.711 -9999 -9999 -9999 -1.814 -1.744 -1.764 -1.811 -1.826 -1.796 -9999 -9999 -9999 -1.674 -1.684 -1.676 -1.736 -1.714 -1.719 -1.711 -9999 -1.661 -1.641 -1.654 -9999 -9999 -9999 -9999 -9999 -9999 -9999 -9999 -9999 -9999 -9999 -9999 -9999 -9999 -9999 -9999 -9999 -9999 -9999 -9999 -9999 -9999 -9999 -9999 -9999 -9999 -9999 -9999 -9999 -9999 -9999 -9999 -9999 -9999 -9999 -9999 -9999 -9999 -9999 -9999 -9999 -9999 -9999 -9999 -9999 -9999 -9999 -9999 -9999 -9999 -9999 -9999 -9999 1.629 -9999 -9999 -9999 -9999 -9999 -9999 -9999 -9999 -9999 -9999 -9999 -9999 -9999 -9999 -9999 -9999 -9999 -9999 -9999 -9999 -9999 -9999 -9999 -9999 -9999 -9999 -9999 -9999 -9999 1.749 1.764 -9999 -9999 -9999 -9999 -9999 -9999 -9999 -9999 -9999 -9999 -9999 -9999 -9999 -9999 -9999 -9999 -9999 -9999 -9999 -9999 -9999 -9999 -9999 1.449 1.744 1.831 1.874 1.829 -9999 -9999 -9999 -9999 -9999 -9999 -9999 -9999 1.819 1.749 -9999 -9999 -9999 -9999 -9999 1.752 1.524 1.501 1.614 1.751 1.661 1.724 1.671 1.784 1.666 -9999 -9999 -9999 -9999 1.654 1.694 -9999 -9999 1.654 -9999 -9999 -9999 1.646 -9999 -9999 -9999 -9999 -9999 -9999 -9999 -9999 -9999 -9999 -9999 -9999 -9999 -9999 -9999 -9999 -9999 -9999 -9999 -9999 -9999 -9999 -9999 -9999 -9999 -9999 -9999 -9999 1.639 1.821 -9999 -9999 1.739 1.749 -9999 -9999 -9999 -9999 -9999 -9999 -9999 1.666 1.724 1.901 -9999 -9999 1.694 1.659 1.664 1.614 1.566 1.681 1.539 1.599 -9999 1.691 1.691 1.809 1.719 1.714 1.744 1.789 1.741 1.721 1.619 1.576 1.539 1.551 1.569 1.519 1.514 1.581 1.749 -9999 -9999 -9999 -9999 1.839 1.829 1.719 1.799 1.746 1.711 1.689 1.724 1.701 1.784 1.651 1.741 1.689 -9999 -9999 -9999 -9999 -9999 -9999 1.559 -9999
-1.761 -1.779 -1.756 -1.709 -1.731 -1.824 -1.789 -1.756 -1.749 -1.729 -1.726 -1.714 -1.774 -1.726 -1.774 -1.739 -1.734 -1.731 -1.716 -1.694 -1.716 -1.764 -1.779 -1.766 -1.806 -1.739 -1.734 -1.759 -1.761 -1.774 -1.799 -1.779 -1.801 -1.781 -1.731 -1.709 -1.749 -1.816 -1.784 -1.739 -1.679 -1.686 -1.771 -1.814 -1.796 -1.789 -1.716 -1.739 -1.771 -1.764 -1.784 -1.781 -1.769 -1.771 -1.776 -1.709 -1.651 -1.704 -1.749 -1.759 -1.764 -1.751 -1.754 -1.749 -1.756 -1.744 -1.776 -1.754 -1.781 -1.764 -1.724 -1.729 -1.686 -1.724 -1.839 -1.799 -1.774 -1.744 -1.769 -1.746 -1.739 -1.766 -1.789 -1.719 -1.729 -1.724 -1.699 -1.754 -1.771 -1.766 -1.789 -1.746 -1.749 -1.764 -1.731 -1.716 -1.786 -1.929 -1.809 -1.759 -1.769 -1.746 -1.741 -1.824 -1.761 -1.759 -1.761 -1.766 -1.734 -1.721 -1.681 -1.719 -1.719 -1.691 -1.781 -1.764 -1.736 -1.744 -1.716 -1.706 -1.731 -1.721 -1.796 -1.826 -1.824 -1.786 -1.801 -1.824 -1.786 -1.789 -1.834 -1.784 -1.764 -1.791 -1.756 -1.786 -1.761 -1.756 -1.741 -1.686 -1.654 -1.719 -1.749 -1.726 -1.814 -1.781 -1.716 -1.709 -1.754 -1.756 -1.816 -1.856 -1.856 -1.806 -1.809 -1.796 -1.804 -1.771 -1.786 -1.766 -1.756 -1.901 -1.866 -1.706 -1.686 -1.691 -1.751 -9999 1.799 -1.749 -1.781 -1.761 -1.761 -1.799 -1.779 -1.779 -1.786 -1.779 -1.756 -1.766 -1.746 -1.749 -1.736 -1.806 -1.799 -1.819 -1.829 -1.836 -1.814 -1.776 -1.789 -1.859 -1.859 -1.809 -1.866 -1.841 -1.796 -9999 -9999 -9999 -1.926 -1.854 -1.799 -9999 -9999 -9999 -9999 -9999 -1.788 -9999 -9999 -9999 -9999 -9999 -9999 -9999 -1.764 -1.776 -1.774 -1.781 -1.749 -9999 -9999 -1.784 -1.739 -9999 -1.698 -1.686 -1.684 -1.661 -1.704 -1.709 -1.709 -1.699 -1.651 -9999 -9999 -9999 -9999 -9999 -9999 -9999 -9999 -9999 -9999 -9999 -9999 -9999 -9999 -9999 -9999 -9999 -9999 1.809 -9999 -9999 -9999 -9999 -9999 -9999 -9999 -9999 -9999 -9999 -9999 -9999 -9999 -9999 -9999 -9999 -9999 -9999 -9999 -9999 -9999 -9999 -9999 -9999 -9999 -9999 -9999 -9999 -9999 -9999 -9999 -9999 -9999 -9999 -9999 -9999 -9999 -9999 -9999 -9999 -9999 -9999 -9999 -9999 1.539 -9999 -9999 -9999 -9999 -9999 -9999 -9999 -9999 -9999 -9999 -9999 -9999 -9999 -9999 -9999 -9999 -9999 -9999 -9999 -9999 1.724 -9999 -9999 -9999 -9999 -9999 -9999 -9999 -9999 -9999 -9999 -9999 -9999 -9999 -9999 -9999 1.679 -9999 -9999 -9999 -9999 -9999 -9999 1.539 -9999 1.419 1.544 1.894 1.921 -9999 -9999 -9999 -9999 -9999 -9999 -9999 -9999 -9999 1.824 -9999 -9999 -9999 -9999 -9999 -9999 -9999 1.626 1.491 1.574 1.679 1.704 1.786 1.684 1.694 1.564 1.596 -9999 -9999 -9999 1.704 1.736 -9999 -9999 1.684 -9999 -9999 -9999 -9999 -9999 -9999 -9999 -9999 -9999 -9999 -9999 -9999 1.619 -9999 -9999 -9999 -9999 -9999 -9999 -9999 -9999 -9999 -9999 -9999 -9999 -9999 -9999 -9999 -9999 -9999 -9999 1.674 1.681 1.876 1.694 -9999 -9999 -9999 -9999 -9999 -9999 -9999 -9999 -9999 -9999 -9999 1.526 1.646 -9999 1.659 1.632 -9999 1.539 1.541 1.571 1.616 1.604 -9999 -9999 1.539 1.636 1.761 1.919 1.796 1.854 1.844 1.656 1.779 1.679 1.576 1.561 1.561 1.599 1.551 1.631 1.776 1.784 1.839 -9999 -9999 -9999 1.649 1.611 1.654 1.776 1.744 1.699 1.739 1.721 1.744 1.716 1.679 1.774 1.759 -9999 -9999 -9999 -9999 -9999 -9999 -9999 -9999
-1.744 -1.736 -1.741 -1.764 -1.761 -1.776 -1.749 -1.756 -1.754 -1.711 -1.701 -1.761 -1.759 -1.761 -1.736 -1.709 -1.746 -1.824 -1.674 -1.706 -1.714 -1.741 -1.759 -1.801 -1.759 -1.751 -1.746 -1.739 -1.771 -1.774 -1.756 -1.749 -1.786 -1.731 -1.719 -1.769 -1.784 -1.791 -1.809 -1.739 -1.679 -1.744 -1.754 -1.794 -1.786 -1.766 -1.714 -1.739 -1.759 -1.739 -1.744 -1.789 -1.819 -1.794 -1.734 -1.671 -1.629 -1.709 -1.759 -1.781 -1.814 -1.764 -1.731 -1.804 -1.794 -1.754 -1.794 -1.781 -1.776 -1.779 -1.734 -1.726 -1.776 -1.749 -1.784 -1.776 -1.726 -1.789 -1.731 -1.756 -1.774 -1.761 -1.704 -1.719 -1.764 -1.729 -1.714 -1.776 -1.744 -1.744 -1.784 -1.774 -1.784 -1.769 -1.746 -1.754 -1.749 -1.846 -1.806 -1.751 -1.771 -1.729 -1.701 -1.746 -1.731 -1.704 -1.689 -1.751 -1.719 -1.709 -1.674 -1.679 -1.739 -1.804 -1.789 -1.774 -1.751 -1.781 -1.754 -1.696 -1.676 -1.689 -1.801 -1.819 -1.784 -1.731 -1.679 -1.756 -1.761 -1.794 -1.791 -1.794 -1.774 -1.734 -1.746 -1.754 -1.726 -1.749 -1.736 -1.696 -1.671 -1.746 -1.751 -1.739 -1.784 -1.811 -1.756 -1.746 -1.771 -1.804 -1.809 -1.764 -9999 -1.794 -1.826 -1.844 -1.854 -1.796 -1.776 -1.746 -1.739 -1.769 -1.746 -1.706 -1.709 -1.681 -1.721 -9999 1.764 -1.756 -1.781 -1.766 -1.749 -1.769 -9999 -9999 -1.854 -1.799 -1.776 -9999 -9999 -1.816 -1.739 -1.741 -1.774 -1.806 -1.799 -1.809 -1.799 -1.776 -1.789 -1.799 -1.791 -1.851 -1.869 -1.819 -1.719 -1.821 -1.859 -1.916 -1.906 -1.839 -9999 -9999 -9999 -9999 -9999 -9999 -9999 -1.766 -1.768 -1.781 -1.814 -1.776 -1.751 -1.764 -1.784 -1.851 -9999 -9999 -9999 -9999 -9999 -9999 -9999 -9999 -9999 -1.694 -1.674 -1.669 -1.719 -9999 -9999 -9999 -9999 -9999 -9999 -9999 -9999 -9999 -9999 -9999 -9999 -9999 -9999 -9999 -9999 -9999 -9999 -9999 -9999 -9999 -9999 -9999 -9999 -9999 1.741 -9999 -9999 -9999 -9999 -9999 -9999 -9999 -9999 -9999 -9999 -9999 -9999 -9999 -9999 -9999 -9999 -9999 -9999 -9999 -9999 -9999 1.599 -9999 -9999 -9999 -9999 -9999 -9999 -9999 -9999 -9999 -9999 -9999 -9999 -9999 -9999 -9999 -9999 -9999 -9999 -9999 -9999 1.602 -9999 -9999 -9999 -9999 1.539 -9999 -9999 -9999 1.589 -9999 -9999 -9999 -9999 -9999 -9999 -9999 -9999 -9999 -9999 -9999 1.684 -9999 -9999 -9999 -9999 -9999 -9999 -9999 -9999 -9999 -9999 -9999 -9999 -9999 -9999 1.716 -9999 -9999 -9999 -9999 -9999 -9999 -9999 -9999 1.629 1.381 1.484 -9999 -9999 -9999 -9999 -9999 -9999 -9999 -9999 -9999 1.719 1.729 1.804 1.639 -9999 -9999 -9999 -9999 -9999 -9999 1.519 1.636 1.514 -9999 -9999 1.579 1.749 1.624 1.689 1.682 1.724 1.624 1.646 1.691 1.714 -9999 -9999 -9999 -9999 -9999 1.674 -9999 -9999 -9999 -9999 -9999 -9999 -9999 1.449 1.484 -9999 -9999 -9999 -9999 -9999 -9999 -9999 -9999 -9999 -9999 -9999 -9999 -9999 -9999 -9999 -9999 -9999 -9999 1.729 1.751 1.596 -9999 -9999 -9999 -9999 -9999 -9999 -9999 -9999 -9999 -9999 -9999 -9999 -9999 -9999 -9999 -9999 -9999 -9999 -9999 1.469 1.644 1.711 -9999 1.584 1.569 1.532 1.574 1.669 1.706 1.696 1.711 1.714 1.701 1.881 1.764 1.646 1.559 1.829 1.721 1.554 1.724 -9999 -9999 1.739 1.716 1.664 1.769 1.724 1.564 1.531 1.564 1.624 1.726 1.739 -9999 1.606 1.639 1.721 1.756 1.761 1.659 1.679 -9999 -9999 -9999 -9999 1.569 -9999
-1.729 -1.724 -1.736 -1.781 -1.794 -1.776 -1.744 -1.756 -1.774 -1.764 -1.781 -1.754 -1.774 -1.734 -1.651 -1.724 -1.716 -1.726 -1.674 -1.684 -1.726 -1.744 -1.761 -1.771 -1.749 -1.736 -1.706 -1.751 -1.804 -1.811 -1.841 -1.764 -1.756 -1.734 -1.749 -1.744 -1.779 -1.796 -1.781 -1.716 -1.699 -1.811 -1.819 -1.826 -1.791 -1.694 -1.706 -1.764 -1.754 -1.749 -1.801 -1.901 -1.824 -1.791 -1.731 -1.676 -1.694 -1.759 -1.799 -1.799 -1.801 -1.784 -1.789 -1.791 -1.771 -1.774 -1.749 -1.764 -1.761 -1.786 -1.684 -1.741 -1.816 -1.781 -1.751 -1.759 -1.789 -1.836 -1.736 -1.701 -1.791 -1.776 -1.756 -1.751 -1.776 -1.809 -1.824 -1.786 -1.789 -1.809 -1.781 -1.766 -1.741 -1.736 -1.744 -1.754 -1.746 -1.804 -1.806 -1.779 -1.789 -1.761 -1.774 -1.741 -1.731 -1.729 -1.751 -1.764 -1.759 -1.706 -1.694 -1.844 -1.771 -1.759 -1.734 -1.776 -1.751 -1.734 -1.759 -1.776 -1.756 -1.739 -1.751 -1.766 -1.699 -1.724 -1.794 -1.764 -1.754 -1.754 -1.761 -1.759 -1.806 -1.739 -1.729 -1.676 -1.741 -1.754 -1.756 -1.749 -1.731 -1.801 -1.796 -1.896 -1.791 -1.826 -1.814 -1.794 -1.761 -1.804 -1.824 -9999 -9999 -9999 -1.856 -1.871 -1.844 -1.796 -1.776 -1.759 -1.761 -1.751 -1.746 -1.494 -1.784 -1.739 -1.704 -1.701 -1.671 -1.771 -1.786 -1.771 -1.751 -1.749 -9999 -9999 -1.891 -1.826 -1.789 -9999 -9999 -1.866 -1.821 -1.844 -1.839 -1.816 -1.788 -1.776 -1.801 -1.781 -1.806 -1.841 -1.844 -1.859 -1.839 -1.769 -1.644 -1.746 -9999 -1.836 -1.846 -1.821 -9999 -9999 -9999 -9999 -9999 -9999 -9999 -1.726 -1.724 -1.736 -1.826 -9999 -9999 -9999 -1.711 -9999 -9999 -9999 -9999 -9999 -9999 -9999 -9999 -9999 -9999 -1.714 -1.711 -1.709 -1.706 -9999 -9999 -9999 -9999 -9999 -9999 -9999 -1.824 -9999 -9999 -9999 -9999 -9999 -9999 -9999 -9999 -9999 -9999 -9999 -9999 -9999 -9999 -9999 -9999 -9999 -9999 -9999 -9999 -9999 -9999 -9999 -9999 -9999 -9999 -9999 -9999 -9999 -9999 -9999 -9999 -9999 -9999 -9999 -9999 -9999 -9999 -9999 1.692 -9999 -9999 -9999 -9999 -9999 -9999 -9999 -9999 -9999 -9999 -9999 -9999 -9999 -9999 -9999 -9999 -9999 -9999 -9999 -9999 -9999 -9999 -9999 -9999 -9999 1.552 1.616 -9999 1.701 1.741 -9999 -9999 -9999 -9999 -9999 -9999 -9999 -9999 -9999 -9999 -9999 -9999 1.624 -9999 -9999 -9999 -9999 -9999 -9999 -9999 -9999 -9999 -9999 -9999 -9999 -9999 -9999 -9999 -9999 -9999 -9999 -9999 -9999 -9999 1.869 1.716 1.499 -9999 -9999 -9999 -9999 -9999 -9999 -9999 -9999 -9999 -9999 1.764 1.726 1.591 -9999 -9999 -9999 -9999 -9999 -9999 -9999 -9999 1.739 -9999 -9999 -9999 1.469 1.591 1.596 1.619 1.676 1.586 1.521 1.586 -9999 -9999 -9999 -9999 -9999 -9999 -9999 1.556 1.704 1.736 -9999 -9999 -9999 -9999 1.529 1.479 -9999 -9999 -9999 -9999 1.559 1.714 1.779 1.622 -9999 -9999 -9999 -9999 -9999 -9999 -9999 -9999 -9999 -9999 -9999 -9999 1.606 -9999 -9999 -9999 -9999 -9999 1.779 1.749 1.709 -9999 -9999 -9999 -9999 -9999 -9999 -9999 -9999 -9999 -9999 -9999 -9999 1.759 1.834 -9999 -9999 -9999 1.554 1.551 1.701 1.636 1.566 1.571 1.674 1.691 1.686 1.746 1.741 1.804 1.901 1.916 1.766 1.551 1.719 -9999 -9999 1.724 -9999 -9999 1.472 1.624 1.741 1.571 1.559 1.514 1.571 -9999 -9999 1.564 1.619 1.764 1.774 1.764 1.766 1.741 1.701 -9999 -9999 -9999 1.592 -9999
-1.731 -1.731 -1.759 -1.739 -1.786 -1.734 -1.764 -1.751 -1.769 -1.764 -1.739 -1.744 -1.749 -1.636 -1.726 -1.736 -1.731 -1.729 -1.751 -1.706 -1.716 -1.724 -1.714 -1.766 -1.736 -1.731 -1.719 -1.746 -1.791 -1.774 -1.791 -1.769 -1.766 -1.751 -1.779 -1.774 -1.791 -1.781 -1.726 -1.741 -1.759 -1.819 -1.806 -1.791 -1.754 -1.729 -1.729 -1.816 -1.794 -1.779 -1.784 -1.841 -1.786 -1.741 -1.701 -1.676 -1.729 -1.781 -1.779 -1.789 -1.819 -1.816 -1.781 -1.736 -1.791 -1.764 -1.754 -1.801 -1.739 -1.716 -1.689 -1.804 -1.794 -1.779 -1.781 -1.759 -1.779 -1.796 -1.764 -1.734 -1.831 -1.844 -1.781 -1.779 -1.774 -1.779 -1.809 -1.786 -1.774 -1.776 -1.761 -1.774 -1.726 -1.746 -1.784 -1.746 -1.691 -1.789 -1.821 -1.774 -1.811 -1.789 -1.751 -1.751 -1.724 -1.711 -1.746 -1.829 -1.776 -1.741 -1.776 -1.844 -1.789 -1.731 -1.704 -1.711 -1.684 -1.721 -1.759 -1.749 -1.741 -1.806 -1.751 -1.749 -1.681 -1.771 -1.786 -1.789 -1.754 -1.756 -1.739 -1.744 -1.751 -1.761 -1.726 -1.666 -1.716 -1.734 -1.731 -1.764 -1.819 -1.819 -1.859 -1.896 -1.834 -1.791 -1.779 -1.806 -1.789 -1.839 -1.816 -1.784 -9999 -1.771 -1.799 -1.791 -1.794 -1.771 -1.751 -1.754 -1.754 -1.731 -1.731 -1.719 -1.519 -1.726 -1.721 -1.709 -1.716 -1.811 -1.786 -1.796 -1.789 -1.759 -9999 -9999 -1.826 -1.776 -1.738 -9999 -9999 -9999 -1.861 -1.869 -9999 -9999 -9999 -9999 -1.824 -1.814 -1.834 -1.836 -1.816 -9999 -9999 -1.826 -1.736 -9999 -9999 -1.831 -1.874 -1.811 -1.766 -1.789 -1.829 -1.796 -1.721 -1.691 -1.724 -9999 -9999 -9999 -9999 -9999 -9999 -9999 -1.796 -1.741 -9999 -1.851 -9999 -9999 -9999 -9999 -9999 -1.821 -1.821 -1.804 -9999 -1.761 -1.754 -9999 -9999 -9999 -1.831 -1.876 -1.826 -9999 -9999 -9999 -9999 -9999 -9999 -9999 -9999 -9999 -9999 -9999 -9999 -9999 -9999 -9999 -9999 -9999 -9999 -9999 -9999 -9999 -9999 -9999 -9999 -9999 -9999 -9999 -9999 -9999 -9999 -9999 -9999 -9999 -9999 -9999 -9999 -9999 -9999 -9999 -9999 -9999 -9999 -9999 -9999 -9999 -9999 -9999 -9999 -9999 -9999 -9999 -9999 -9999 -9999 -9999 -9999 -9999 -9999 1.829 1.694 -9999 -9999 -9999 -9999 -9999 -9999 -9999 -9999 -9999 -9999 -9999 -9999 -9999 -9999 -9999 -9999 -9999 -9999 1.704 1.874 -9999 -9999 -9999 -9999 1.664 -9999 -9999 -9999 -9999 -9999 -9999 -9999 -9999 -9999 -9999 -9999 -9999 -9999 -9999 -9999 -9999 -9999 -9999 -9999 -9999 -9999 -9999 1.749 -9999 -9999 -9999 -9999 -9999 -9999 -9999 -9999 -9999 -9999 -9999 1.829 1.769 -9999 -9999 -9999 -9999 -9999 -9999 -9999 -9999 -9999 1.716 -9999 -9999 -9999 1.439 1.484 1.526 1.619 1.704 1.511 1.466 1.566 -9999 -9999 -9999 -9999 -9999 -9999 1.489 1.491 1.639 1.701 1.694 1.602 -9999 -9999 1.524 -9999 -9999 -9999 -9999 1.729 1.541 1.586 1.726 1.611 1.684 -9999 -9999 -9999 -9999 -9999 -9999 -9999 -9999 1.619 -9999 -9999 1.502 -9999 -9999 -9999 -9999 -9999 -9999 1.676 1.619 -9999 -9999 -9999 -9999 -9999 -9999 -9999 -9999 1.612 1.614 -9999 1.674 -9999 -9999 1.719 -9999 -9999 1.541 1.469 1.564 1.496 1.436 1.519 1.619 1.761 1.594 1.581 1.664 -9999 -9999 1.679 1.651 1.591 1.606 -9999 -9999 -9999 -9999 -9999 -9999 -9999 -9999 1.779 1.669 1.571 1.559 -9999 -9999 -9999 1.551 1.671 1.749 1.724 1.666 1.774 1.664 -9999 -9999 -9999 -9999 -9999
-1.736 -1.784 -1.751 -1.744 -1.804 -1.754 -1.776 -1.769 -1.741 -1.771 -1.754 -1.769 -1.774 -1.731 -1.709 -1.746 -1.754 -1.759 -1.709 -1.736 -1.749 -1.711 -1.739 -1.716 -1.714 -1.766 -1.764 -1.749 -1.761 -1.811 -1.784 -1.746 -1.764 -1.751 -1.756 -1.781 -1.789 -1.796 -1.711 -1.724 -1.764 -1.801 -1.804 -1.794 -1.779 -1.766 -1.759 -1.794 -1.811 -1.851 -1.796 -1.774 -1.749 -1.734 -1.729 -1.741 -1.754 -1.796 -1.819 -1.829 -1.821 -1.779 -1.776 -1.764 -1.801 -1.736 -1.756 -1.796 -1.776 -1.746 -1.754 -1.766 -1.774 -1.839 -1.846 -1.809 -1.784 -1.726 -1.726 -1.769 -1.824 -1.819 -1.779 -1.774 -1.749 -1.751 -1.744 -1.694 -1.744 -1.726 -1.714 -1.734 -1.771 -1.794 -1.794 -1.746 -1.749 -1.826 -1.796 -1.754 -1.759 -1.751 -1.716 -1.771 -1.764 -1.774 -1.779 -1.806 -1.771 -1.761 -1.821 -1.764 -1.814 -1.766 -1.696 -1.734 -1.749 -1.719 -1.826 -1.814 -1.744 -1.771 -1.759 -1.724 -1.729 -1.789 -1.786 -1.756 -1.731 -1.734 -1.716 -1.711 -1.739 -1.769 -1.741 -1.739 -1.701 -1.694 -1.751 -1.766 -1.859 -1.861 -1.764 -1.836 -1.811 -1.806 -1.809 -1.806 -1.776 -1.779 -1.821 -1.821 -1.806 -1.761 -1.739 -1.736 -1.744 -1.741 -1.731 -1.726 -1.721 -1.731 -9999 -9999 -1.721 -1.739 -1.706 -1.774 -1.716 -1.711 -1.739 -1.761 -9999 -9999 -1.736 -1.884 -1.791 -1.709 -1.796 -1.838 -1.856 -1.874 -1.816 -1.799 -9999 -9999 -9999 -9999 -1.811 -9999 -9999 -9999 -9999 -9999 -9999 -9999 -1.798 -1.754 -9999 -1.856 -1.809 -1.789 -1.784 -1.821 -1.811 -1.784 -1.794 -1.819 -9999 -9999 -9999 -9999 -1.961 -1.954 -1.826 -1.788 -1.806 -9999 -9999 -9999 -9999 -9999 -9999 -9999 -9999 -1.861 -1.849 -9999 -9999 -1.801 -1.764 -9999 -9999 -9999 -9999 -9999 -9999 -9999 -9999 -9999 -9999 -9999 -9999 -9999 -9999 -9999 -9999 -9999 -9999 -9999 -9999 -9999 -9999 1.699 -9999 -9999 1.889 -9999 -9999 -9999 -9999 -9999 -9999 -9999 -9999 -9999 -9999 -9999 -9999 -9999 -9999 -9999 -9999 -9999 -9999 -9999 1.824 -9999 -9999 -9999 -9999 -9999 -9999 -9999 -9999 -9999 -9999 -9999 -9999 -9999 -9999 -9999 1.782 -9999 -9999 1.814 -9999 -9999 -9999 -9999 -9999 1.844 -9999 -9999 -9999 1.679 -9999 -9999 -9999 -9999 -9999 -9999 -9999 -9999 -9999 1.612 -9999 -9999 -9999 -9999 -9999 -9999 -9999 -9999 -9999 -9999 -9999 -9999 -9999 -9999 -9999 -9999 -9999 -9999 -9999 -9999 -9999 -9999 -9999 -9999 -9999 -9999 -9999 -9999 -9999 -9999 -9999 -9999 -9999 1.479 -9999 -9999 -9999 -9999 -9999 1.949 -9999 -9999 -9999 -9999 -9999 -9999 -9999 -9999 -9999 -9999 -9999 -9999 -9999 -9999 -9999 -9999 -9999 1.704 1.689 -9999 -9999 -9999 -9999 -9999 -9999 -9999 1.549 1.571 1.569 -9999 -9999 1.566 1.651 1.546 1.496 1.564 1.622 -9999 -9999 -9999 1.642 1.676 1.754 1.829 1.716 1.559 1.504 -9999 -9999 -9999 -9999 -9999 -9999 -9999 -9999 -9999 -9999 1.699 -9999 -9999 -9999 -9999 -9999 -9999 -9999 -9999 -9999 -9999 -9999 -9999 1.629 -9999 -9999 -9999 -9999 -9999 -9999 1.549 1.589 1.669 -9999 -9999 -9999 1.469 -9999 -9999 -9999 1.446 1.469 1.509 1.519 1.549 1.744 1.636 1.586 1.719 1.759 -9999 1.769 1.701 1.591 1.594 1.689 -9999 -9999 -9999 -9999 -9999 -9999 1.579 1.599 1.526 1.554 1.629 1.664 1.609 1.579 1.639 1.599 1.681 1.701 1.734 1.754 1.794 -9999 -9999 -9999 -9999 -9999
-1.744 -1.781 -1.799 -1.791 -1.786 -1.761 -1.779 -1.759 -1.751 -1.721 -1.761 -1.759 -1.771 -1.729 -1.696 -1.754 -1.744 -1.691 -1.701 -1.729 -1.734 -1.751 -1.761 -1.736 -1.701 -1.754 -1.734 -1.706 -1.726 -1.776 -1.759 -1.716 -1.749 -1.766 -1.776 -1.796 -1.771 -1.761 -1.696 -1.756 -1.786 -1.779 -1.804 -1.784 -1.779 -1.751 -1.774 -1.809 -1.796 -1.791 -1.774 -1.779 -1.756 -1.781 -1.741 -1.736 -1.739 -1.801 -1.816 -1.794 -1.771 -1.804 -1.761 -1.744 -1.764 -1.776 -1.724 -1.736 -1.781 -1.781 -1.786 -1.806 -1.814 -1.819 -1.764 -1.784 -1.771 -1.754 -1.744 -1.849 -1.836 -1.821 -1.781 -1.761 -1.756 -1.726 -1.721 -1.769 -1.799 -1.731 -1.719 -1.759 -1.804 -1.801 -1.776 -1.784 -1.804 -1.744 -1.761 -1.749 -1.751 -1.741 -1.774 -1.801 -1.789 -1.811 -1.801 -1.794 -1.724 -1.734 -1.734 -1.749 -1.844 -1.799 -1.764 -1.801 -1.794 -1.786 -1.804 -1.784 -1.724 -1.766 -1.774 -1.691 -1.721 -1.794 -1.774 -1.749 -1.704 -1.711 -1.729 -1.741 -1.769 -1.699 -1.766 -1.829 -1.754 -1.739 -1.816 -1.789 -1.894 -1.916 -1.859 -1.831 -1.804 -1.771 -1.776 -1.804 -1.784 -1.794 -1.809 -1.724 -1.764 -1.789 -1.759 -1.736 -1.756 -1.731 -1.736 -1.716 -1.744 -1.774 -9999 -9999 -1.671 -1.706 -1.709 -1.729 -1.706 -1.701 -1.714 -9999 -9999 -9999 -1.734 -1.789 -1.709 -1.739 -1.784 -1.821 -1.814 -1.804 -9999 -1.831 -1.798 -9999 -1.831 -1.758 -9999 -9999 -9999 -9999 -9999 -9999 -9999 -9999 -1.801 -1.764 -9999 -9999 -1.824 -1.804 -1.761 -1.786 -1.794 -1.771 -1.796 -1.831 -9999 -9999 -9999 -1.831 -9999 -9999 -1.811 -1.784 -1.754 -9999 -9999 -9999 -9999 -9999 -9999 -9999 -9999 -1.831 -9999 -9999 -9999 -9999 -9999 -9999 -9999 -9999 -9999 -1.848 -9999 -9999 -9999 -9999 -9999 -9999 -9999 -9999 -9999 -9999 -9999 -9999 -9999 -9999 -9999 -9999 -9999 -9999 1.746 -9999 1.722 -9999 -9999 -9999 -9999 -9999 -9999 1.779 -9999 -9999 -9999 -9999 -9999 -9999 -9999 -9999 1.689 1.664 1.879 -9999 -9999 -9999 -9999 -9999 -9999 -9999 -9999 -9999 -9999 -9999 -9999 -9999 -9999 -9999 -9999 1.882 -9999 -9999 -9999 -9999 -9999 -9999 -9999 -9999 1.814 1.919 1.996 -9999 -9999 -9999 -9999 -9999 -9999 -9999 -9999 -9999 -9999 -9999 -9999 -9999 -9999 -9999 -9999 -9999 -9999 -9999 -9999 -9999 -9999 -9999 -9999 -9999 -9999 -9999 -9999 -9999 -9999 -9999 -9999 1.699 1.739 -9999 -9999 -9999 -9999 -9999 -9999 -9999 -9999 -9999 -9999 -9999 -9999 -9999 -9999 -9999 -9999 1.784 -9999 -9999 -9999 -9999 -9999 -9999 -9999 -9999 -9999 -9999 -9999 -9999 -9999 -9999 -9999 -9999 -9999 -9999 -9999 1.629 -9999 -9999 -9999 -9999 -9999 -9999 1.509 1.491 1.534 -9999 -9999 -9999 -9999 -9999 1.519 1.534 1.476 1.474 1.519 -9999 -9999 -9999 -9999 1.606 1.584 1.526 -9999 -9999 -9999 -9999 -9999 -9999 1.614 1.779 1.811 1.801 -9999 -9999 -9999 1.739 -9999 -9999 -9999 -9999 -9999 -9999 -9999 -9999 -9999 -9999 -9999 -9999 1.589 1.524 -9999 -9999 -9999 -9999 -9999 1.634 1.621 1.609 -9999 -9999 -9999 -9999 -9999 -9999 -9999 1.524 -9999 -9999 1.416 1.709 1.809 1.721 1.689 -9999 1.669 1.649 1.639 1.631 1.549 1.566 1.689 -9999 -9999 -9999 -9999 -9999 -9999 1.439 1.391 1.361 1.436 1.504 1.554 1.619 1.706 1.801 1.651 1.599 1.736 1.816 1.741 1.811 1.814 -9999 -9999 -9999 -9999
-1.804 -1.806 -1.769 -1.794 -1.801 -1.739 -1.754 -1.756 -1.731 -1.716 -1.754 -1.759 -1.759 -1.716 -1.741 -1.766 -1.784 -1.706 -1.741 -1.699 -1.749 -1.766 -1.756 -1.749 -1.696 -1.709 -1.686 -1.729 -1.759 -1.739 -1.699 -1.741 -1.756 -1.746 -1.801 -1.784 -1.806 -1.736 -1.719 -1.771 -1.806 -1.794 -1.814 -1.804 -1.716 -1.719 -1.746 -1.769 -1.751 -1.799 -1.794 -1.831 -1.806 -1.764 -1.799 -1.781 -1.786 -1.836 -1.824 -1.801 -1.769 -1.744 -1.814 -1.781 -1.771 -1.804 -1.786 -1.711 -1.729 -1.779 -1.756 -1.786 -1.766 -1.761 -1.736 -1.724 -1.709 -1.794 -1.821 -1.861 -1.851 -1.779 -1.786 -1.694 -1.674 -1.731 -1.761 -1.744 -1.749 -1.716 -1.741 -1.761 -1.786 -1.786 -1.791 -1.836 -1.811 -1.716 -1.774 -1.774 -1.796 -1.781 -1.741 -1.754 -1.751 -1.774 -1.736 -1.751 -1.736 -1.711 -1.691 -1.769 -1.779 -1.784 -1.794 -1.809 -1.836 -1.799 -1.834 -1.764 -1.689 -1.761 -1.776 -1.731 -1.749 -1.816 -1.776 -1.794 -1.694 -1.664 -1.721 -1.746 -1.764 -1.706 -1.751 -1.829 -1.774 -1.811 -1.811 -1.811 -1.879 -1.864 -1.854 -1.801 -1.759 -1.781 -1.781 -1.756 -1.766 -1.814 -1.736 -1.696 -1.776 -1.814 -1.756 -1.734 -1.746 -1.714 -1.741 -1.696 -1.741 -1.744 -1.729 -1.696 -1.706 -1.729 -1.756 -1.771 -1.754 -1.721 -1.726 -1.711 -1.728 -1.751 -1.754 -1.789 -1.789 -9999 -9999 -9999 -9999 -1.754 -9999 -9999 -1.799 -1.859 -1.756 -9999 -9999 -9999 -9999 -9999 -9999 -1.904 -1.889 -9999 -1.834 -1.834 -9999 -9999 -9999 -9999 -1.758 -1.786 -9999 -9999 -9999 -9999 -1.801 -9999 -9999 -9999 -9999 -9999 -9999 -1.851 -1.834 -1.844 -1.881 -1.891 -9999 -9999 -9999 -9999 -9999 -9999 -9999 -9999 -9999 -1.801 -9999 -9999 -1.756 -9999 -1.811 -1.826 -9999 -9999 -9999 -9999 -9999 -9999 -9999 -9999 -9999 -9999 -9999 -9999 -9999 -9999 -9999 -9999 -9999 -9999 -9999 -9999 -9999 -9999 -9999 -9999 -9999 -9999 -9999 1.886 1.829 1.756 -9999 -9999 -9999 -9999 -9999 -9999 -9999 -9999 -9999 -9999 -9999 -9999 -9999 -9999 -9999 -9999 -9999 -9999 -9999 -9999 -9999 -9999 -9999 1.936 1.926 1.899 -9999 -9999 -9999 -9999 -9999 -9999 -9999 1.919 -9999 -9999 -9999 -9999 -9999 -9999 -9999 -9999 -9999 -9999 -9999 -9999 -9999 -9999 -9999 -9999 -9999 -9999 -9999 -9999 -9999 -9999 -9999 -9999 -9999 -9999 -9999 -9999 -9999 -9999 -9999 -9999 -9999 -9999 -9999 -9999 -9999 -9999 -9999 -9999 -9999 -9999 -9999 -9999 -9999 -9999 -9999 -9999 -9999 -9999 -9999 -9999 -9999 -9999 -9999 -9999 -9999 -9999 -9999 -9999 -9999 1.709 -9999 -9999 -9999 -9999 -9999 -9999 -9999 -9999 -9999 -9999 1.379 -9999 -9999 -9999 -9999 -9999 -9999 -9999 1.439 1.419 1.516 -9999 -9999 -9999 -9999 1.509 1.379 -9999 -9999 1.634 1.754 1.672 -9999 -9999 -9999 1.511 1.411 1.424 -9999 -9999 -9999 -9999 -9999 -9999 -9999 -9999 1.876 1.824 -9999 -9999 -9999 1.739 -9999 -9999 -9999 1.634 1.624 -9999 -9999 -9999 -9999 -9999 -9999 1.679 -9999 -9999 1.704 1.584 -9999 -9999 1.489 1.519 1.594 1.606 1.639 1.591 -9999 -9999 -9999 -9999 -9999 -9999 -9999 -9999 -9999 1.741 -9999 -9999 -9999 -9999 1.519 1.519 1.499 1.564 1.521 1.506 1.619 1.721 1.792 1.984 1.742 -9999 -9999 1.444 1.361 1.376 1.364 1.471 1.516 1.664 1.831 1.849 1.779 1.716 1.726 1.711 1.754 1.744 1.701 1.674 1.756 1.699 1.641
-1.859 -1.811 -1.736 -1.769 -1.774 -1.741 -1.769 -1.731 -1.759 -1.736 -1.761 -1.741 -1.746 -1.749 -1.741 -1.741 -1.764 -1.686 -1.726 -1.699 -1.744 -1.749 -1.784 -1.721 -1.731 -1.739 -1.686 -1.739 -1.779 -1.761 -1.689 -1.711 -1.701 -1.741 -1.814 -1.769 -1.726 -1.724 -1.751 -1.761 -1.771 -1.791 -1.791 -1.779 -1.744 -1.734 -1.764 -1.794 -1.789 -1.781 -1.831 -1.774 -1.711 -1.756 -1.811 -1.799 -1.774 -1.816 -1.811 -1.824 -1.786 -1.779 -1.796 -1.779 -1.759 -1.739 -1.704 -1.741 -1.696 -1.754 -1.761 -1.714 -1.706 -1.736 -1.691 -1.714 -1.756 -1.809 -1.819 -1.794 -1.819 -1.734 -1.766 -1.736 -1.701 -1.726 -1.786 -1.736 -1.716 -1.736 -1.774 -1.779 -1.774 -1.781 -1.789 -1.824 -1.784 -1.784 -1.756 -1.744 -1.721 -1.734 -1.696 -1.726 -1.739 -1.791 -1.716 -1.751 -1.779 -1.786 -1.761 -1.761 -1.799 -1.811 -1.789 -1.814 -1.781 -1.729 -1.754 -1.711 -1.666 -1.721 -1.766 -1.754 -1.731 -1.759 -1.724 -1.741 -1.676 -1.639 -1.701 -1.761 -1.741 -1.711 -1.771 -1.826 -1.826 -1.836 -1.844 -1.819 -1.811 -1.789 -1.784 -1.771 -1.744 -1.756 -1.759 -1.739 -1.741 -1.729 -1.731 -1.751 -1.744 -1.754 -1.761 -1.721 -1.689 -1.689 -1.696 -9999 -9999 -9999 -1.731 -1.711 -1.736 -1.764 -9999 -9999 -1.798 -1.731 -1.736 -1.749 -1.771 -1.751 -1.789 -1.824 -1.734 -9999 -9999 -9999 -9999 -9999 -9999 -9999 -1.826 -1.814 -9999 -9999 -9999 -9999 -9999 -1.884 -1.896 -1.926 -1.916 -1.844 -9999 -9999 -9999 -9999 -9999 -9999 -1.791 -9999 -9999 -9999 -9999 -9999 -1.801 -9999 -9999 -9999 -9999 -9999 -1.861 -1.844 -1.804 -1.791 -9999 -9999 -9999 -9999 -9999 -9999 -9999 -9999 -1.442 -1.676 -1.811 -1.774 -9999 -9999 -9999 -9999 -1.856 -1.854 -1.814 -1.839 -1.856 -9999 -9999 -9999 -9999 -9999 -9999 -9999 -9999 -9999 -9999 -9999 -9999 -9999 -9999 -9999 -9999 -9999 -9999 -9999 -9999 -9999 -9999 -9999 1.954 1.909 -9999 -9999 -9999 -9999 -9999 -9999 -9999 -9999 -9999 -9999 -9999 -9999 -9999 -9999 -9999 -9999 -9999 -9999 -9999 -9999 -9999 -9999 -9999 -9999 -9999 -9999 -9999 1.949 -9999 -9999 -9999 -9999 -9999 -9999 -9999 -9999 -9999 -9999 -9999 -9999 1.744 -9999 -9999 -9999 -9999 -9999 1.629 -9999 -9999 -9999 -9999 -9999 -9999 -9999 -9999 -9999 1.479 1.554 1.644 -9999 -9999 -9999 1.669 -9999 -9999 -9999 -9999 -9999 -9999 -9999 -9999 -9999 -9999 -9999 -9999 -9999 -9999 -9999 -9999 -9999 -9999 -9999 -9999 -9999 -9999 -9999 -9999 -9999 -9999 -9999 1.749 1.739 -9999 -9999 1.559 1.491 1.509 1.796 1.726 -9999 -9999 -9999 -9999 -9999 -9999 1.569 1.524 1.469 1.306 -9999 -9999 -9999 -9999 -9999 1.684 1.679 -9999 -9999 -9999 -9999 -9999 -9999 -9999 1.536 1.496 -9999 -9999 1.731 1.789 1.694 -9999 -9999 -9999 1.471 1.459 -9999 -9999 -9999 -9999 -9999 -9999 -9999 -9999 -9999 -9999 -9999 -9999 -9999 1.734 1.646 -9999 1.609 -9999 -9999 1.619 1.492 1.459 -9999 -9999 -9999 1.729 -9999 -9999 -9999 -9999 -9999 1.649 1.642 1.524 1.604 1.781 1.669 1.684 1.586 1.696 1.714 -9999 -9999 -9999 -9999 -9999 -9999 -9999 1.601 -9999 -9999 -9999 -9999 -9999 1.601 1.586 1.519 1.581 1.594 1.496 1.569 1.674 1.629 -9999 -9999 -9999 -9999 1.456 1.579 1.676 1.456 1.424 1.511 1.541 1.619 1.681 1.709 1.719 -9999 -9999 -9999 -9999 1.612 1.709 1.716 1.764
-1.849 -1.836 -1.769 -1.736 -1.776 -1.766 -1.781 -1.756 -1.764 -1.764 -1.774 -1.756 -1.789 -1.794 -1.729 -1.774 -1.769 -1.741 -1.736 -1.726 -1.771 -1.754 -1.784 -1.684 -1.696 -1.746 -1.729 -1.784 -1.786 -1.754 -1.711 -1.729 -1.734 -1.766 -1.786 -1.774 -1.739 -1.696 -1.754 -1.796 -1.806 -1.784 -1.761 -1.721 -1.749 -1.741 -1.724 -1.729 -1.749 -1.779 -1.771 -1.751 -1.699 -1.706 -1.759 -1.774 -1.779 -1.804 -1.786 -1.761 -1.744 -1.764 -1.789 -1.704 -1.729 -1.729 -1.724 -1.731 -1.716 -1.721 -1.769 -1.724 -1.726 -1.764 -1.721 -1.741 -1.764 -1.814 -1.786 -1.764 -1.769 -1.716 -1.674 -1.714 -1.756 -1.716 -1.704 -1.734 -1.779 -1.761 -1.781 -1.801 -1.784 -1.776 -1.764 -1.749 -1.729 -1.776 -1.731 -1.714 -1.721 -1.689 -1.731 -1.779 -1.784 -1.781 -1.739 -1.724 -1.771 -1.761 -1.764 -1.769 -1.816 -1.854 -1.824 -1.774 -1.729 -1.674 -1.679 -1.729 -1.731 -1.759 -1.776 -1.746 -1.726 -1.726 -1.706 -1.714 -1.719 -1.714 -1.704 -1.734 -1.701 -1.744 -1.789 -1.839 -1.844 -1.841 -1.839 -1.799 -1.809 -1.834 -1.801 -1.784 -1.806 -1.791 -1.796 -1.784 -1.724 -1.726 -1.734 -1.746 -1.726 -1.769 -1.796 -1.779 -1.714 -1.729 -1.711 -9999 -9999 -9999 -1.731 -1.719 -1.759 -9999 -9999 -9999 -9999 -1.769 -1.774 -1.814 -1.819 -1.741 -1.774 -1.769 -9999 -9999 -9999 -9999 -9999 -1.838 -1.794 -1.761 -1.781 -1.824 -9999 -9999 -9999 -9999 -9999 -9999 -1.861 -1.901 -9999 -9999 -9999 -9999 -9999 -9999 -9999 -9999 -9999 -9999 -9999 -9999 -9999 -9999 -9999 -9999 -9999 -9999 -1.771 -1.784 -1.799 -1.779 -9999 -9999 -9999 -9999 -9999 -9999 -9999 -9999 -9999 -9999 -1.684 -1.739 -1.804 -9999 -9999 -9999 -9999 -9999 -1.874 -1.884 -1.866 -1.819 -1.814 -9999 -9999 -9999 -9999 -9999 -9999 -9999 -9999 -9999 -9999 -9999 -9999 -9999 -9999 -9999 -9999 -9999 -9999 -9999 -9999 -9999 -9999 -9999 -9999 -9999 -9999 -9999 -9999 -9999 -9999 -9999 -9999 -9999 -9999 -9999 -9999 -9999 -9999 -9999 -9999 -9999 -9999 -9999 -9999 -9999 -9999 -9999 -9999 -9999 -9999 -9999 -9999 -9999 1.846 1.756 -9999 -9999 -9999 -9999 1.869 1.806 -9999 -9999 -9999 1.779 1.796 -9999 -9999 -9999 -9999 -9999 -9999 -9999 -9999 -9999 -9999 -9999 -9999 -9999 -9999 1.779 -9999 1.569 -9999 -9999 -9999 -9999 1.699 -9999 -9999 -9999 -9999 -9999 1.796 -9999 -9999 -9999 -9999 -9999 -9999 -9999 -9999 -9999 -9999 -9999 1.782 -9999 -9999 -9999 -9999 -9999 -9999 -9999 -9999 -9999 1.541 -9999 -9999 -9999 1.592 1.514 1.581 1.764 1.771 -9999 1.614 -9999 -9999 -9999 -9999 -9999 1.539 1.521 1.459 1.446 -9999 -9999 -9999 -9999 -9999 -9999 -9999 -9999 -9999 1.522 1.601 1.516 1.579 1.574 1.594 1.771 1.674 -9999 -9999 -9999 -9999 -9999 -9999 1.566 1.509 -9999 -9999 -9999 -9999 1.522 1.521 1.674 -9999 -9999 -9999 -9999 -9999 -9999 1.674 1.646 1.619 1.631 -9999 -9999 -9999 -9999 -9999 -9999 -9999 -9999 1.786 -9999 -9999 -9999 -9999 -9999 -9999 -9999 -9999 1.626 1.584 1.551 1.661 1.636 1.646 1.671 1.586 1.534 1.709 -9999 -9999 -9999 -9999 1.464 1.549 -9999 1.559 -9999 1.699 1.629 1.626 1.686 1.706 1.731 1.549 1.566 1.621 1.624 -9999 -9999 -9999 -9999 -9999 -9999 1.376 -9999 -9999 -9999 -9999 1.554 -9999 -9999 -9999 -9999 -9999 -9999 1.419 1.616 1.774 1.799 1.836
-1.831 -1.846 -1.831 -1.769 -1.774 -1.739 -1.754 -1.749 -1.754 -1.754 -1.749 -1.746 -1.791 -1.759 -1.734 -1.726 -1.769 -1.701 -1.736 -1.736 -1.754 -1.751 -1.779 -1.684 -1.709 -1.729 -1.736 -1.756 -1.819 -1.756 -1.726 -1.736 -1.774 -1.769 -1.779 -1.764 -1.726 -1.699 -1.706 -1.786 -1.784 -1.799 -1.761 -1.719 -1.729 -1.684 -1.734 -1.786 -1.741 -1.774 -1.761 -1.724 -1.709 -1.716 -1.741 -1.771 -1.771 -1.831 -1.819 -1.764 -1.739 -1.769 -1.779 -1.681 -1.684 -1.751 -1.781 -1.794 -1.784 -1.709 -1.716 -1.739 -1.731 -1.759 -1.776 -1.774 -1.794 -1.819 -1.806 -1.789 -1.819 -1.764 -1.711 -1.739 -9999 -9999 -1.731 -1.736 -1.781 -1.786 -1.776 -1.794 -1.806 -1.756 -1.716 -1.671 -1.651 -1.656 -1.686 -1.731 -1.724 -1.699 -1.749 -1.806 -1.751 -1.734 -1.674 -1.669 -1.761 -1.791 -1.779 -1.804 -1.791 -1.826 -1.786 -1.766 -1.669 -1.644 -1.661 -1.741 -1.776 -1.801 -1.849 -1.781 -1.729 -1.701 -1.689 -1.679 -1.706 -1.734 -1.759 -1.794 -1.794 -1.814 -1.789 -1.771 -1.761 -1.796 -1.844 -1.821 -1.811 -1.801 -1.796 -1.816 -1.786 -1.744 -1.726 -1.771 -1.746 -1.749 -1.749 -1.781 -1.881 -1.899 -1.894 -1.799 -1.731 -1.774 -1.761 -9999 -9999 -1.691 -1.716 -1.726 -1.769 -1.798 -9999 -9999 -1.781 -1.741 -1.794 -1.866 -9999 -1.781 -9999 -9999 -9999 -9999 -9999 -1.921 -1.941 -1.841 -1.784 -1.781 -9999 -9999 -1.899 -1.844 -9999 -9999 -9999 -9999 -9999 -9999 -9999 -9999 -9999 -9999 -9999 -9999 -9999 -9999 -9999 -1.804 -1.781 -1.741 -9999 -9999 -1.831 -9999 -9999 -1.868 -1.774 -1.746 -1.721 -1.771 -9999 -9999 -9999 -9999 -9999 -9999 -9999 -9999 -9999 -1.846 -1.849 -1.849 -1.791 -9999 -9999 -9999 -1.771 -1.791 -1.731 -9999 -9999 -9999 -9999 -9999 -9999 -9999 -9999 -9999 -9999 -9999 -9999 -9999 -9999 -9999 -9999 -9999 -9999 -9999 -9999 -9999 -9999 -9999 -9999 -9999 -9999 -9999 -9999 -9999 -9999 -9999 -9999 -9999 -9999 -9999 -9999 -9999 -9999 -9999 -9999 -9999 -9999 -9999 -9999 -9999 -9999 -9999 -9999 -9999 -9999 -9999 -9999 -9999 -9999 -9999 -9999 -9999 1.776 -9999 -9999 -9999 -9999 -9999 -9999 -9999 1.796 -9999 -9999 1.794 1.789 -9999 -9999 -9999 -9999 -9999 1.699 1.726 1.784 -9999 -9999 -9999 -9999 -9999 1.852 -9999 -9999 -9999 -9999 -9999 -9999 -9999 -9999 -9999 -9999 -9999 -9999 -9999 -9999 -9999 -9999 -9999 -9999 -9999 -9999 -9999 -9999 -9999 -9999 1.789 1.759 1.689 -9999 -9999 -9999 -9999 -9999 1.089 -9999 -9999 -9999 -9999 -9999 -9999 1.624 1.616 -9999 -9999 -9999 -9999 1.649 1.629 -9999 -9999 -9999 -9999 1.584 1.564 -9999 1.549 1.671 -9999 -9999 -9999 1.859 -9999 -9999 -9999 -9999 1.766 1.944 1.786 1.639 1.486 1.369 1.676 -9999 -9999 -9999 -9999 -9999 -9999 -9999 1.769 1.641 -9999 -9999 -9999 -9999 -9999 1.532 1.636 -9999 -9999 -9999 -9999 -9999 -9999 1.704 1.726 1.626 1.629 -9999 -9999 -9999 -9999 -9999 -9999 -9999 -9999 -9999 1.676 -9999 -9999 -9999 -9999 -9999 -9999 -9999 -9999 1.506 1.474 1.539 1.696 1.674 -9999 -9999 -9999 -9999 -9999 -9999 -9999 -9999 1.524 1.519 1.524 1.571 1.579 1.749 1.714 1.591 1.564 1.479 1.664 1.651 1.619 1.619 1.589 -9999 -9999 -9999 -9999 1.509 -9999 -9999 -9999 -9999 -9999 -9999 -9999 -9999 -9999 -9999 -9999 -9999 1.509 1.559 1.706 1.671 1.704 1.891
-1.824 -1.831 -1.836 -1.776 -1.734 -1.749 -1.731 -1.716 -1.739 -1.756 -1.724 -1.739 -1.766 -1.734 -1.759 -1.731 -1.746 -1.664 -1.684 -1.741 -1.816 -1.791 -1.769 -1.724 -1.714 -1.704 -1.729 -1.769 -1.806 -1.731 -1.691 -1.769 -1.794 -1.764 -1.751 -1.744 -1.734 -1.711 -1.689 -1.746 -1.781 -1.776 -1.774 -1.741 -1.769 -1.749 -1.754 -1.811 -1.739 -1.734 -1.709 -1.744 -1.729 -1.709 -1.746 -1.779 -1.779 -1.766 -1.789 -1.784 -1.789 -1.761 -1.774 -1.771 -1.734 -1.746 -1.794 -1.801 -1.751 -1.699 -1.711 -1.746 -1.759 -1.696 -1.741 -1.734 -1.789 -1.794 -1.794 -1.776 -1.779 -1.799 -1.741 -1.681 -9999 -9999 -1.746 -1.704 -1.746 -1.791 -1.784 -1.766 -1.779 -1.784 -1.689 -1.679 -1.709 -1.709 -1.714 -1.749 -1.721 -1.714 -1.776 -1.724 -1.716 -1.741 -1.676 -1.766 -1.789 -1.731 -1.729 -1.774 -1.791 -1.799 -1.744 -1.684 -1.649 -9999 -9999 -1.756 -1.796 -1.791 -1.784 -1.731 -1.666 -1.666 -1.691 -1.691 -1.736 -1.781 -1.771 -1.774 -1.781 -1.809 -1.779 -1.756 -1.756 -1.824 -1.911 -1.849 -1.849 -1.789 -1.751 -1.721 -1.674 -1.656 -1.674 -1.699 -1.704 -1.724 -1.791 -1.826 -1.786 -1.801 -1.839 -1.736 -1.784 -1.801 -1.746 -1.679 -1.676 -1.746 -1.734 -1.744 -1.741 -1.756 -9999 -1.778 -1.721 -1.651 -1.739 -9999 -9999 -1.831 -9999 -9999 -9999 -9999 -1.834 -1.851 -1.861 -1.814 -1.786 -1.789 -9999 -9999 -1.841 -9999 -9999 -9999 -9999 -9999 -9999 -9999 -9999 -9999 -9999 -1.764 -9999 -9999 -9999 -9999 -9999 -9999 -9999 -9999 -9999 -9999 -9999 -9999 -9999 -1.871 -1.824 -1.844 -1.791 -1.761 -9999 -9999 -9999 -9999 -9999 -9999 -9999 -9999 -9999 -9999 -9999 -9999 -1.751 -9999 -9999 -1.801 -1.791 -1.811 -1.798 -9999 -9999 -9999 -9999 -9999 -9999 -9999 -9999 -9999 -9999 -9999 -9999 -9999 -9999 -9999 -9999 -9999 -9999 -9999 -9999 -9999 -9999 -9999 -9999 -9999 -9999 -9999 -9999 -9999 -9999 -9999 -9999 -9999 -9999 -9999 1.776 -9999 -9999 -9999 -9999 -9999 -9999 -9999 -9999 -9999 -9999 -9999 -9999 -9999 -9999 -9999 -9999 -9999 -9999 -9999 -9999 -9999 -9999 -9999 -9999 -9999 -9999 -9999 -9999 -9999 -9999 -9999 -9999 1.749 1.704 1.716 -9999 -9999 -9999 -9999 -9999 1.736 -9999 -9999 -9999 -9999 -9999 -9999 -9999 1.609 -9999 -9999 -9999 -9999 -9999 -9999 -9999 -9999 -9999 -9999 -9999 -9999 -9999 -9999 -9999 -9999 -9999 -9999 -9999 -9999 -9999 -9999 -9999 -9999 1.729 1.669 1.659 -9999 -9999 -9999 -9999 -9999 -9999 -9999 -9999 -9999 1.694 -9999 -9999 -9999 -9999 -9999 -9999 -9999 -9999 -9999 1.582 -9999 -9999 -9999 1.606 1.661 -9999 -9999 1.736 1.879 1.769 -9999 1.861 -9999 -9999 -9999 -9999 1.834 1.711 1.714 1.754 -9999 -9999 -9999 -9999 -9999 -9999 -9999 -9999 -9999 -9999 -9999 -9999 -9999 -9999 -9999 -9999 -9999 -9999 1.499 -9999 -9999 -9999 -9999 -9999 1.459 1.486 1.651 1.511 1.681 1.709 -9999 -9999 -9999 -9999 -9999 -9999 -9999 -9999 1.666 1.702 1.639 -9999 -9999 -9999 -9999 -9999 -9999 1.439 -9999 -9999 -9999 -9999 -9999 -9999 -9999 -9999 -9999 -9999 -9999 1.749 1.641 1.481 1.481 1.606 1.534 1.574 1.596 1.496 1.449 1.529 1.639 1.586 1.579 1.556 1.536 -9999 -9999 1.509 1.576 -9999 -9999 -9999 1.559 -9999 -9999 -9999 -9999 1.659 1.549 1.604 1.564 1.619 1.574 1.559 1.754 1.649 1.684 1.766
-1.829 -9999 -9999 -1.779 -1.741 -1.734 -1.751 -1.744 -1.721 -1.729 -1.766 -1.786 -1.771 -1.756 -1.774 -1.784 -1.769 -1.746 -1.689 -1.786 -1.799 -1.801 -1.756 -1.711 -1.736 -1.749 -1.734 -1.764 -1.759 -1.724 -1.736 -1.794 -1.746 -1.796 -1.776 -1.741 -1.706 -1.731 -1.721 -1.759 -1.796 -1.754 -1.779 -1.756 -1.749 -1.749 -1.749 -1.851 -1.794 -1.759 -1.724 -1.719 -1.746 -1.736 -1.721 -1.791 -1.814 -1.829 -1.851 -1.776 -1.739 -1.779 -1.799 -1.796 -1.806 -1.741 -1.744 -1.739 -1.741 -1.711 -1.759 -1.781 -1.804 -1.769 -1.764 -1.779 -1.811 -1.774 -1.739 -1.741 -1.731 -1.706 -1.696 -1.719 -1.731 -1.796 -1.771 -1.699 -1.716 -1.761 -1.791 -1.771 -1.729 -1.791 -1.729 -1.721 -1.746 -1.749 -1.761 -1.781 -1.716 -1.689 -1.761 -1.761 -1.731 -1.756 -1.714 -1.749 -1.764 -1.736 -1.726 -1.751 -1.766 -1.731 -1.674 -1.661 -1.669 -9999 -9999 -9999 -1.851 -1.779 -9999 -1.711 -1.711 -1.666 -1.676 -1.714 -1.744 -1.786 -1.761 -1.726 -1.754 -1.801 -1.814 -1.799 -1.761 -1.826 -1.856 -1.794 -1.841 -1.749 -1.721 -1.754 -1.691 -1.711 -1.731 -1.751 -1.694 -1.754 -1.774 -1.774 -1.719 -1.719 -1.739 -1.746 -1.741 -1.759 -1.764 -1.684 -1.699 -1.839 -1.814 -1.766 -9999 -9999 -9999 -9999 -1.746 -9999 -1.696 -1.771 -9999 -1.816 -9999 -9999 -9999 -9999 -1.851 -1.849 -1.849 -1.814 -9999 -9999 -9999 -9999 -1.776 -9999 -9999 -9999 -9999 -9999 -9999 -9999 -9999 -9999 -9999 -1.731 -9999 -9999 -1.801 -9999 -9999 -9999 -9999 -9999 -9999 -9999 -9999 -9999 -9999 -1.784 -1.796 -1.794 -1.794 -9999 -9999 -9999 -9999 -9999 -1.811 -1.771 -9999 -9999 -9999 -9999 -9999 1.539 -1.661 -9999 -9999 1.759 1.646 -9999 -9999 -9999 -9999 -9999 -9999 -9999 -9999 -9999 -9999 -9999 -9999 -9999 -9999 -9999 -9999 -9999 -9999 -9999 -9999 -9999 -9999 -9999 -9999 -9999 -9999 -9999 -9999 -9999 -9999 -9999 -9999 -9999 -9999 -9999 -9999 1.799 1.794 -9999 -9999 -9999 -9999 -9999 -9999 -9999 -9999 -9999 -9999 -9999 -9999 -9999 -9999 -9999 -9999 -9999 -9999 -9999 -9999 -9999 -9999 -9999 -9999 -9999 -9999 -9999 -9999 -9999 -9999 1.709 1.639 1.684 1.724 1.699 -9999 -9999 -9999 -9999 -9999 1.799 -9999 -9999 -9999 -9999 -9999 -9999 -9999 -9999 1.552 -9999 -9999 -9999 -9999 -9999 -9999 -9999 -9999 -9999 -9999 -9999 -9999 -9999 -9999 -9999 1.884 -9999 1.729 -9999 -9999 -9999 -9999 -9999 -9999 1.696 -9999 -9999 -9999 -9999 -9999 -9999 -9999 -9999 1.679 1.801 -9999 -9999 -9999 -9999 -9999 -9999 -9999 -9999 -9999 -9999 1.484 -9999 -9999 -9999 1.699 -9999 -9999 -9999 -9999 1.766 -9999 -9999 1.634 1.761 1.986 -9999 1.899 1.661 1.489 1.894 -9999 1.464 -9999 -9999 -9999 -9999 -9999 -9999 -9999 -9999 -9999 -9999 -9999 -9999 -9999 -9999 1.679 -9999 -9999 1.471 -9999 -9999 -9999 -9999 1.469 1.469 1.559 1.489 1.454 1.606 1.721 1.604 1.594 1.659 1.679 1.774 -9999 1.709 1.519 -9999 -9999 1.706 1.621 1.554 1.549 -9999 1.529 1.469 -9999 -9999 -9999 -9999 -9999 -9999 -9999 -9999 -9999 -9999 -9999 -9999 -9999 -9999 1.579 1.516 1.711 1.564 1.479 1.469 1.486 1.459 1.564 1.594 1.536 1.506 1.534 1.576 -9999 1.629 1.571 1.679 -9999 -9999 -9999 -9999 -9999 -9999 -9999 -9999 1.666 1.624 1.654 1.509 1.624 1.591 1.571 1.599 1.639 1.686 1.734
-1.851 -9999 -9999 -9999 -1.801 -1.746 -1.759 -1.781 -1.741 -1.726 -1.754 -1.761 -1.739 -1.756 -1.774 -1.786 -1.774 -1.739 -1.714 -1.771 -1.779 -1.806 -1.801 -1.731 -1.734 -1.764 -1.771 -1.731 -1.751 -1.721 -1.764 -1.794 -1.801 -1.764 -1.764 -1.726 -1.701 -1.766 -1.764 -1.801 -1.804 -1.766 -1.764 -1.709 -1.696 -1.746 -1.771 -1.809 -1.761 -1.766 -1.759 -1.754 -1.801 -1.781 -1.796 -1.844 -1.801 -1.854 -1.846 -1.819 -1.761 -1.799 -1.821 -1.734 -1.764 -1.751 -1.731 -1.721 -1.731 -1.771 -1.791 -1.811 -1.784 -1.746 -1.819 -1.806 -1.789 -1.716 -1.714 -1.701 -1.709 -1.711 -1.714 -1.781 -1.764 -1.751 -1.741 -1.781 -1.801 -1.771 -1.779 -1.821 -1.746 -1.751 -1.794 -1.759 -1.746 -1.764 -1.791 -1.796 -1.694 -1.701 -1.789 -1.764 -1.759 -1.754 -1.734 -1.749 -1.771 -1.771 -1.779 -1.759 -1.729 -1.679 -1.654 -1.659 -1.709 -9999 -1.751 -1.838 -1.811 -1.771 -9999 -9999 -9999 -1.746 -1.739 -1.746 -1.761 -1.794 -1.781 -1.726 -1.766 -1.781 -1.781 -1.776 -1.774 -1.811 -1.799 -1.729 -1.774 -1.669 -1.646 -1.636 -1.721 -1.734 -1.749 -1.751 -1.749 -1.786 -1.794 -1.764 -1.734 -1.709 -1.701 -9999 -9999 -9999 -9999 -1.734 -9999 -9999 -1.814 -9999 -9999 -9999 -9999 -9999 -9999 -9999 -9999 -1.898 -1.899 -1.811 -9999 -9999 -9999 -9999 -9999 -1.781 -1.814 -9999 -9999 -9999 -9999 -9999 -9999 -9999 -9999 -9999 -9999 -9999 -9999 -9999 -9999 -1.891 -1.744 -1.714 -9999 -9999 -9999 -9999 -9999 -9999 -9999 -9999 -1.746 -1.721 -1.756 -9999 -1.781 -9999 -9999 -9999 -1.801 -9999 -9999 -9999 -9999 -1.851 -1.784 -9999 -9999 -9999 -9999 -9999 -9999 -1.716 -1.696 -9999 -9999 -9999 -9999 -9999 -9999 -1.888 -9999 -9999 -9999 -9999 -9999 -9999 -9999 -9999 -9999 -9999 -9999 -9999 -9999 -9999 -9999 -9999 -9999 -9999 -9999 -9999 -9999 -9999 -9999 -9999 -9999 -9999 -9999 -9999 -9999 -9999 -9999 -9999 -9999 -9999 -9999 -9999 -9999 -9999 -9999 -9999 -9999 -9999 -9999 -9999 -9999 -9999 -9999 -9999 -9999 -9999 -9999 -9999 -9999 -9999 -9999 -9999 -9999 -9999 -9999 -9999 -9999 -9999 -9999 -9999 -9999 -9999 -9999 1.566 1.544 1.504 -9999 -9999 -9999 -9999 -9999 1.714 -9999 -9999 -9999 -9999 -9999 -9999 -9999 -9999 1.699 1.781 -9999 -9999 -9999 -9999 -9999 -9999 -9999 -9999 -9999 -9999 -9999 -9999 -9999 1.849 1.771 1.759 1.772 1.712 -9999 -9999 -9999 -9999 -9999 -9999 -9999 -9999 -9999 -9999 -9999 -9999 -9999 -9999 1.569 1.659 -9999 -9999 -9999 -9999 -9999 -9999 -9999 -9999 -9999 -9999 -9999 -9999 -9999 -9999 1.771 -9999 -9999 -9999 1.849 -9999 -9999 -9999 -9999 1.542 1.754 1.904 1.924 1.621 -9999 -9999 -9999 -9999 -9999 -9999 -9999 -9999 1.379 -9999 -9999 -9999 -9999 -9999 -9999 1.679 1.601 1.564 1.721 1.689 1.676 1.616 -9999 -9999 1.399 1.409 1.411 1.434 1.399 1.436 -9999 -9999 -9999 -9999 1.611 1.806 -9999 -9999 -9999 -9999 -9999 -9999 -9999 -9999 1.534 -9999 -9999 -9999 -9999 -9999 -9999 -9999 -9999 -9999 -9999 -9999 -9999 -9999 -9999 -9999 -9999 -9999 -9999 -9999 -9999 1.629 1.704 1.566 1.554 1.469 -9999 -9999 -9999 1.581 1.549 1.509 1.624 1.669 1.734 1.716 1.571 1.649 1.772 -9999 -9999 -9999 -9999 1.529 1.549 1.559 1.601 1.539 1.821 1.686 1.689 1.706 1.724 1.736 1.709 1.701 1.739
-9999 -9999 -9999 -1.721 -1.764 -1.749 -1.749 -1.751 -1.699 -1.721 -1.741 -1.754 -1.776 -1.724 -1.741 -1.779 -1.744 -1.681 -1.696 -1.784 -1.844 -1.819 -1.809 -1.761 -1.771 -1.796 -1.799 -1.814 -1.766 -1.689 -1.751 -1.771 -1.771 -1.764 -1.811 -1.721 -1.779 -1.769 -1.779 -1.766 -1.759 -1.771 -1.759 -1.729 -1.779 -1.769 -1.824 -1.806 -1.796 -1.749 -1.716 -1.751 -1.736 -1.724 -1.804 -1.889 -1.939 -1.804 -1.779 -1.754 -1.776 -1.779 -1.801 -1.816 -1.794 -1.731 -1.766 -1.744 -1.746 -1.791 -1.801 -1.791 -1.756 -1.794 -1.766 -1.814 -1.721 -1.719 -1.719 -1.731 -1.739 -1.741 -1.736 -1.784 -1.776 -1.759 -1.754 -1.774 -1.809 -1.791 -1.779 -1.821 -1.741 -1.756 -1.824 -1.769 -1.729 -1.766 -1.809 -1.821 -1.809 -1.779 -1.814 -1.784 -1.789 -1.761 -1.754 -1.774 -1.794 -1.786 -1.759 -1.716 -1.676 -1.646 -1.669 -1.784 -1.811 -1.769 -1.766 -1.801 -1.756 -1.741 -1.761 -9999 -1.731 -1.789 -1.854 -1.806 -9999 -9999 -9999 -9999 -9999 -1.808 -1.779 -1.759 -1.759 -1.779 -1.764 -1.706 -1.721 -1.691 -1.664 -1.679 -1.739 -1.656 -1.656 -1.701 -1.761 -1.779 -1.789 -1.744 -1.776 -1.716 -9999 -9999 -9999 -9999 -9999 -9999 -9999 -9999 -9999 -1.768 -9999 -9999 -9999 -1.851 -9999 -9999 -9999 -9999 -1.894 -1.846 -1.794 -1.801 -9999 -9999 -9999 -9999 -9999 -9999 -9999 -9999 -9999 -9999 -9999 -9999 -9999 -9999 -9999 -9999 -9999 -9999 -9999 -9999 -1.719 -9999 -9999 -9999 -9999 -9999 -9999 -9999 -9999 -9999 -9999 -9999 -9999 -1.756 -9999 -9999 -9999 -9999 -9999 -9999 -9999 -9999 -9999 -1.786 -9999 -9999 -9999 -9999 -9999 -9999 -9999 -9999 -9999 -1.771 -1.776 -1.741 -1.831 -1.821 -1.878 -1.879 -1.904 -1.901 -1.889 -9999 -9999 -9999 -9999 -9999 -9999 -9999 -9999 -9999 -9999 -9999 -9999 -9999 -9999 -9999 -9999 -9999 -9999 -9999 -9999 -9999 -9999 -9999 -9999 -9999 -9999 -9999 -9999 -9999 -9999 -9999 -9999 -9999 -9999 -9999 -9999 -9999 -9999 -9999 -9999 -9999 -9999 -9999 -9999 -9999 -9999 -9999 -9999 -9999 -9999 -9999 -9999 -9999 -9999 -9999 -9999 -9999 -9999 -9999 -9999 -9999 -9999 -9999 -9999 -9999 1.466 1.601 -9999 -9999 -9999 1.454 -9999 -9999 -9999 -9999 -9999 -9999 -9999 -9999 -9999 -9999 -9999 1.829 -9999 -9999 -9999 -9999 -9999 -9999 -9999 -9999 -9999 -9999 -9999 1.674 -9999 -9999 -9999 -9999 -9999 -9999 -9999 1.769 1.746 1.734 -9999 -9999 -9999 -9999 -9999 -9999 -9999 -9999 -9999 -9999 -9999 1.621 -9999 -9999 -9999 -9999 -9999 -9999 -9999 -9999 -9999 1.774 -9999 -9999 -9999 1.749 -9999 -9999 -9999 -9999 -9999 -9999 -9999 -9999 -9999 1.479 1.731 1.991 1.986 1.699 -9999 -9999 -9999 1.419 -9999 -9999 -9999 -9999 -9999 -9999 -9999 -9999 -9999 -9999 -9999 1.622 1.534 1.481 1.686 1.586 1.564 -9999 -9999 -9999 1.489 1.391 1.359 1.451 1.431 1.466 -9999 -9999 -9999 -9999 -9999 -9999 -9999 -9999 -9999 -9999 -9999 -9999 -9999 -9999 1.609 1.529 -9999 -9999 -9999 -9999 -9999 -9999 -9999 1.514 -9999 -9999 -9999 -9999 -9999 -9999 1.559 -9999 -9999 -9999 1.499 1.619 1.676 1.589 1.571 1.506 -9999 -9999 -9999 -9999 1.486 1.561 1.644 1.646 1.654 1.784 1.814 1.711 1.701 -9999 -9999 -9999 1.574 1.554 1.626 1.641 1.634 1.631 1.739 1.699 1.809 1.851 1.726 1.521 1.564 1.624 1.689
-1.726 -9999 -9999 -1.721 -1.724 -1.734 -1.761 -1.751 -1.746 -1.756 -1.719 -1.736 -1.716 -1.694 -1.714 -1.751 -1.784 -1.731 -1.729 -1.771 -1.779 -1.796 -1.779 -1.741 -1.779 -1.809 -1.781 -1.744 -1.731 -1.676 -1.776 -1.781 -1.764 -1.756 -1.789 -1.746 -1.769 -1.794 -1.786 -1.791 -1.804 -1.749 -1.744 -1.739 -1.799 -1.776 -1.754 -1.796 -1.786 -1.784 -1.701 -1.746 -1.751 -1.759 -1.729 -1.814 -1.851 -1.779 -1.809 -1.829 -1.756 -1.774 -1.799 -1.824 -1.764 -1.736 -1.716 -1.734 -1.749 -1.814 -1.819 -1.801 -1.671 -1.769 -1.816 -1.794 -1.756 -1.719 -1.689 -1.676 -1.806 -1.791 -1.771 -1.804 -1.796 -1.824 -1.821 -1.786 -1.764 -1.734 -1.814 -1.784 -1.724 -1.774 -1.814 -1.754 -1.746 -1.764 -1.809 -1.831 -1.774 -1.756 -1.776 -1.779 -1.741 -1.756 -1.769 -1.794 -1.806 -1.799 -1.739 -1.706 -1.671 -1.679 -1.714 -1.811 -1.839 -1.771 -1.751 -1.711 -1.724 -1.726 -1.764 -9999 -1.764 -1.786 -1.831 -9999 -9999 -9999 -1.781 -1.821 -9999 -1.844 -1.889 -1.836 -1.741 -1.736 -9999 -9999 -1.658 -1.686 -1.691 -1.694 -1.714 -1.669 -1.694 -9999 -1.774 -1.791 -1.799 -1.761 -1.736 -9999 -9999 -9999 -9999 -9999 -9999 -9999 -9999 -9999 -1.818 -9999 -9999 -9999 -1.741 -1.796 -9999 -9999 -9999 -1.871 -1.836 -1.766 -1.749 -1.796 -9999 -9999 -9999 -9999 -9999 -9999 -9999 -9999 -9999 -9999 -9999 -9999 -9999 -9999 -9999 -9999 -1.771 -9999 -9999 -1.751 -9999 -9999 -9999 -9999 -9999 -1.711 -1.771 -9999 -9999 -9999 -9999 -9999 -9999 -9999 -9999 -9999 -9999 -9999 -9999 -9999 -9999 -9999 -9999 -9999 1.689 -9999 -9999 -9999 -9999 -9999 -9999 -9999 -9999 -9999 -1.754 -1.789 -9999 -9999 -1.771 -1.846 -9999 -9999 -9999 -9999 -9999 -9999 -9999 -9999 -9999 -9999 -9999 -9999 -9999 -9999 -9999 -9999 -9999 -9999 -9999 -9999 -9999 -9999 -9999 -9999 -9999 -9999 -9999 -9999 -9999 -9999 -9999 -9999 -9999 -9999 -9999 -9999 -9999 -9999 -9999 -9999 -9999 -9999 -9999 -9999 -9999 -9999 -9999 -9999 -9999 -9999 -9999 -9999 -9999 -9999 -9999 -9999 -9999 -9999 -9999 -9999 -9999 -9999 -9999 -9999 -9999 -9999 -9999 -9999 -9999 -9999 -9999 -9999 -9999 -9999 -9999 -9999 -9999 -9999 -9999 -9999 -9999 1.989 -9999 -9999 -9999 1.749 -9999 -9999 -9999 -9999 -9999 -9999 -9999 -9999 -9999 -9999 -9999 1.619 -9999 -9999 -9999 -9999 -9999 -9999 -9999 -9999 1.734 1.684 -9999 -9999 -9999 -9999 -9999 -9999 -9999 -9999 -9999 -9999 -9999 1.621 -9999 -9999 -9999 -9999 -9999 -9999 -9999 1.609 1.722 1.769 1.832 1.614 1.559 -9999 -9999 -9999 -9999 -9999 1.709 1.662 -9999 -9999 1.554 1.631 1.999 2.076 2.004 1.754 -9999 -9999 -9999 1.559 1.534 -9999 -9999 -9999 -9999 -9999 -9999 -9999 -9999 -9999 -9999 1.556 -9999 -9999 -9999 -9999 -9999 -9999 -9999 -9999 -9999 1.504 1.449 1.501 1.484 1.551 1.629 -9999 -9999 -9999 -9999 -9999 -9999 -9999 -9999 -9999 -9999 1.559 -9999 1.679 1.599 1.506 -9999 -9999 -9999 -9999 -9999 -9999 1.509 1.569 1.534 1.569 -9999 -9999 -9999 -9999 -9999 1.691 1.844 1.544 1.626 1.669 1.624 1.569 1.581 1.539 -9999 -9999 -9999 -9999 -9999 -9999 -9999 1.481 1.546 1.704 1.799 1.764 1.709 1.592 1.619 1.656 1.636 1.601 1.596 1.706 1.786 1.786 1.754 1.779 1.754 1.804 1.711 1.719 1.729 1.644 1.721
-9999 -9999 -9999 -9999 -1.751 -1.736 -1.786 -1.781 -1.749 -1.756 -1.709 -1.729 -1.721 -1.726 -1.739 -1.744 -1.761 -1.719 -1.746 -1.764 -1.776 -1.761 -1.724 -1.726 -1.791 -1.811 -1.796 -1.776 -1.754 -1.714 -1.804 -1.779 -1.756 -1.776 -1.786 -1.794 -1.734 -1.779 -1.801 -1.814 -1.801 -1.731 -1.764 -1.716 -1.756 -1.781 -1.791 -1.781 -1.834 -1.779 -1.744 -1.821 -1.786 -1.799 -1.751 -1.794 -1.816 -1.766 -1.784 -1.826 -1.731 -1.751 -1.794 -1.794 -1.684 -1.664 -1.721 -1.776 -1.836 -1.739 -1.756 -1.766 -1.676 -1.771 -1.846 -1.809 -1.749 -1.759 -1.719 -1.721 -1.749 -1.739 -1.771 -1.726 -1.771 -1.821 -1.799 -1.821 -1.821 -1.776 -1.721 -1.721 -1.756 -1.741 -1.766 -1.776 -1.826 -1.801 -1.724 -1.791 -1.711 -1.764 -1.761 -1.754 -1.799 -1.806 -1.786 -1.776 -1.774 -1.826 -1.816 -1.736 -1.654 -1.694 -1.739 -1.786 -1.834 -1.796 -1.726 -1.696 -1.716 -1.716 -9999 -9999 -9999 -1.806 -1.794 -9999 -9999 -1.766 -9999 -1.811 -1.774 -1.836 -1.861 -1.834 -1.744 -1.719 -1.721 -9999 -1.744 -1.676 -1.689 -1.669 -1.666 -1.669 -9999 -9999 -1.791 -1.809 -9999 -9999 -9999 -9999 -9999 -9999 -9999 -9999 -9999 -9999 -9999 -1.831 -1.841 -9999 -9999 -1.784 -1.714 -1.699 -1.746 -1.756 -1.766 -1.791 -1.819 -1.751 -1.724 -9999 -9999 -9999 -1.631 -9999 -9999 -9999 -9999 -9999 -9999 -9999 -9999 -9999 -1.876 -9999 -9999 -9999 -9999 -1.779 -1.779 -9999 -9999 -9999 -9999 -9999 -9999 -9999 -1.721 -9999 -9999 -9999 -9999 -9999 -9999 -9999 -9999 -1.751 -9999 -9999 -9999 -9999 -9999 -1.681 -1.726 -9999 1.724 -9999 -1.779 -1.756 -1.744 -1.801 -1.794 -9999 -9999 -9999 -9999 -1.811 -9999 -9999 -1.794 -1.844 -9999 -9999 -9999 -9999 -9999 -9999 -9999 -9999 -9999 -9999 -9999 -9999 -9999 -9999 -9999 -9999 -9999 -9999 -9999 -9999 1.859 -9999 -9999 -9999 -9999 -9999 -9999 -9999 -9999 -9999 -9999 -9999 -9999 -9999 -9999 -9999 -9999 -9999 -9999 -9999 -9999 -9999 -9999 -9999 -9999 -9999 -9999 -9999 -9999 -9999 -9999 -9999 -9999 -9999 -9999 -9999 -9999 -9999 -9999 -9999 -9999 -9999 -9999 -9999 -9999 -9999 -9999 -9999 -9999 -9999 -9999 -9999 -9999 -9999 -9999 -9999 -9999 -9999 -9999 -9999 1.929 -9999 -9999 -9999 -9999 -9999 -9999 -9999 -9999 -9999 1.732 1.659 1.749 1.764 1.796 1.719 1.669 -9999 -9999 -9999 -9999 -9999 -9999 -9999 1.819 -9999 -9999 1.709 1.656 -9999 -9999 -9999 -9999 -9999 -9999 -9999 -9999 -9999 1.579 -9999 -9999 -9999 -9999 -9999 -9999 -9999 1.599 -9999 -9999 -9999 -9999 1.744 1.756 -9999 -9999 -9999 -9999 1.686 1.626 1.504 1.574 1.569 1.734 1.566 -9999 1.701 1.921 1.799 1.779 -9999 -9999 1.526 1.574 -9999 -9999 -9999 -9999 -9999 -9999 -9999 -9999 -9999 1.429 1.536 -9999 -9999 -9999 -9999 -9999 1.632 -9999 -9999 1.489 1.629 1.531 1.456 1.434 1.574 1.541 1.602 -9999 -9999 -9999 1.479 1.496 1.531 1.549 1.654 1.529 1.464 1.519 1.551 1.534 1.491 1.512 -9999 -9999 -9999 1.529 1.502 1.429 1.599 1.589 1.684 -9999 -9999 1.734 1.609 -9999 1.649 1.589 1.516 1.626 1.641 1.624 1.661 1.591 -9999 -9999 -9999 -9999 -9999 -9999 -9999 1.496 1.519 1.596 1.671 1.769 1.679 1.634 1.649 1.604 1.746 1.696 -9999 -9999 1.629 1.749 -9999 1.809 1.681 1.651 1.681 1.554 1.701 1.771 1.759 1.761
-9999 -9999 -9999 -9999 -1.766 -1.754 -1.749 -1.741 -1.746 -1.744 -1.739 -1.741 -1.759 -1.789 -1.766 -1.754 -1.751 -1.741 -1.744 -1.714 -1.781 -1.781 -1.671 -1.719 -1.779 -1.789 -1.771 -1.789 -1.771 -1.779 -1.834 -1.784 -1.741 -1.729 -1.726 -1.764 -1.736 -1.794 -1.781 -1.769 -1.781 -1.741 -1.734 -1.704 -1.771 -1.771 -1.784 -1.739 -1.741 -1.766 -1.746 -1.781 -1.781 -1.774 -1.784 -1.759 -1.781 -1.796 -1.799 -1.771 -1.709 -1.716 -1.781 -1.746 -1.706 -1.711 -1.786 -1.786 -1.799 -1.769 -1.806 -1.801 -1.729 -1.726 -1.746 -1.766 -1.754 -1.709 -1.774 -1.746 -1.779 -1.789 -1.806 -1.774 -1.776 -1.799 -1.809 -1.784 -1.791 -1.781 -1.759 -1.731 -1.699 -1.719 -1.779 -1.749 -1.704 -1.681 -1.756 -1.826 -1.776 -1.804 -1.766 -1.706 -1.759 -1.831 -1.759 -1.684 -1.744 -1.801 -1.816 -1.706 -1.719 -1.724 -1.709 -1.731 -1.774 -1.774 -1.774 -1.744 -1.756 -1.771 -1.781 -9999 -9999 -1.831 -1.819 -9999 -1.788 -9999 -9999 -1.828 -1.821 -1.796 -1.784 -1.779 -1.769 -1.754 -1.734 -1.726 -9999 -9999 -1.684 -1.684 -1.679 -1.684 -1.731 -9999 -1.794 -9999 -9999 -9999 -9999 -1.744 -1.751 -1.766 -1.761 -1.796 -9999 -9999 -9999 -9999 -1.791 -1.738 -1.711 -1.764 -1.676 -1.669 -1.706 -1.726 -1.774 -9999 -9999 -9999 -1.741 -1.776 -9999 -9999 -9999 -1.764 -9999 -9999 -9999 -9999 -9999 -9999 -9999 -9999 -1.884 -9999 -9999 -9999 -9999 -9999 -9999 -9999 -9999 -9999 -9999 -9999 -9999 -9999 -1.726 -9999 -9999 -9999 -9999 -9999 -9999 -9999 -1.838 -1.756 -9999 -9999 -9999 -1.801 -1.769 -1.766 -9999 -9999 -9999 -9999 -1.851 -9999 -9999 -9999 -1.836 -1.771 -1.856 -9999 -9999 -9999 -9999 -9999 -9999 -9999 -1.811 -9999 -9999 -9999 -9999 -9999 -9999 -9999 -9999 -9999 -9999 -9999 -9999 -9999 -9999 -9999 -9999 -9999 -9999 -9999 -9999 -9999 -9999 -9999 -9999 -9999 -9999 -9999 -9999 -9999 -9999 -9999 -9999 -9999 -9999 -9999 -9999 -9999 -9999 -9999 -9999 -9999 -9999 -9999 -9999 -9999 -9999 -9999 -9999 -9999 -9999 -9999 -9999 -9999 -9999 -9999 -9999 -9999 -9999 -9999 -9999 -9999 -9999 -9999 -9999 -9999 -9999 -9999 -9999 -9999 -9999 -9999 -9999 -9999 -9999 -9999 -9999 -9999 -9999 -9999 -9999 -9999 -9999 -9999 -9999 -9999 -9999 -9999 -9999 -9999 -9999 1.556 1.619 1.626 1.666 1.676 1.734 -9999 -9999 -9999 -9999 -9999 -9999 -9999 1.794 -9999 -9999 -9999 -9999 -9999 -9999 -9999 -9999 -9999 -9999 -9999 -9999 -9999 1.756 -9999 -9999 -9999 -9999 -9999 -9999 -9999 -9999 -9999 -9999 -9999 -9999 1.732 -9999 -9999 -9999 -9999 -9999 1.574 1.539 1.541 1.606 1.516 1.796 -9999 -9999 -9999 1.666 1.561 -9999 -9999 -9999 -9999 1.419 -9999 -9999 -9999 1.259 1.289 -9999 -9999 -9999 1.399 1.516 -9999 -9999 -9999 -9999 1.499 1.519 1.571 1.541 1.421 1.414 1.571 1.619 1.494 1.539 1.644 1.544 1.599 1.591 1.556 1.529 1.474 1.489 1.501 1.516 1.484 1.521 1.491 1.461 1.491 1.489 1.604 1.524 1.576 1.521 1.511 1.549 1.539 1.536 1.534 1.554 1.621 1.539 1.584 1.779 1.671 1.596 1.714 1.626 1.516 1.591 1.596 1.579 1.601 1.534 1.504 1.594 1.629 -9999 -9999 -9999 1.534 1.544 1.551 1.561 1.586 1.754 1.776 1.659 1.594 1.671 1.831 1.761 -9999 -9999 -9999 -9999 -9999 -9999 1.632 1.666 1.619 1.431 1.484 1.686 1.816 1.901
-9999 -9999 -9999 -1.771 -1.811 -1.746 -1.746 -1.771 -1.781 -1.759 -1.746 -1.779 -1.779 -1.741 -1.761 -1.769 -1.746 -1.721 -1.769 -1.699 -1.736 -1.739 -1.709 -1.729 -1.761 -1.789 -1.759 -1.741 -1.739 -1.779 -1.779 -1.769 -1.726 -1.736 -1.706 -1.751 -1.746 -1.761 -1.754 -1.751 -1.764 -1.716 -1.674 -1.731 -1.741 -1.729 -1.784 -1.801 -1.729 -1.724 -1.806 -1.791 -1.789 -1.751 -1.761 -1.781 -1.794 -1.809 -1.754 -1.714 -1.694 -1.766 -1.821 -1.699 -1.706 -1.696 -1.744 -1.754 -1.766 -1.761 -1.744 -1.784 -1.779 -1.729 -1.769 -1.759 -1.776 -1.761 -1.784 -1.761 -1.796 -1.779 -1.801 -1.826 -1.816 -1.804 -1.789 -1.734 -1.769 -1.779 -1.779 -1.741 -1.676 -1.726 -1.744 -1.724 -1.659 -1.689 -1.796 -1.824 -1.811 -1.799 -1.761 -1.721 -1.696 -1.731 -1.699 -1.671 -1.721 -1.731 -1.731 -1.729 -1.706 -1.716 -1.709 -1.739 -1.764 -1.801 -1.829 -1.786 -1.774 -1.781 -1.799 -1.821 -1.816 -1.834 -9999 -9999 -1.854 -9999 -9999 -1.814 -1.791 -1.724 -1.689 -1.696 -1.716 -1.704 -1.676 -9999 -9999 -9999 -1.731 -1.704 -1.721 -1.726 -1.721 -1.774 -9999 -9999 -9999 -9999 -9999 -1.729 -1.756 -1.799 -1.786 -1.796 -9999 -9999 -9999 -9999 -1.721 -1.691 -1.726 -1.766 -1.734 -9999 -9999 -9999 -1.726 -9999 -9999 -9999 -1.751 -1.751 -9999 -9999 -1.801 -1.821 -9999 -9999 -1.831 -9999 -9999 -9999 -9999 -9999 -9999 -9999 -9999 -9999 -9999 -9999 -9999 -9999 -9999 -9999 -9999 -9999 -9999 -9999 -9999 -9999 -9999 -9999 -9999 -1.826 -9999 -9999 -1.848 -1.758 -9999 -9999 -1.881 -1.854 -1.861 -1.841 -9999 -9999 -9999 -9999 -1.811 -9999 -9999 -9999 -1.786 -1.826 -1.811 -9999 -9999 -9999 -9999 -9999 -9999 -9999 -1.836 -1.846 -9999 -9999 -9999 -9999 -9999 -9999 -9999 -9999 -9999 -9999 -9999 -9999 -9999 -9999 -9999 -9999 -9999 -9999 -9999 -9999 -9999 -9999 -9999 -9999 -9999 -9999 -9999 -9999 -9999 -9999 -9999 -9999 -9999 -9999 -9999 -9999 -9999 -9999 -9999 -9999 -9999 -9999 -9999 -9999 -9999 -9999 -9999 -9999 -9999 -9999 -9999 -9999 -9999 -9999 -9999 -9999 -9999 -9999 -9999 -9999 -9999 -9999 -9999 -9999 -9999 -9999 -9999 -9999 -9999 -9999 -9999 -9999 -9999 -9999 -9999 -9999 -9999 -9999 -9999 -9999 -9999 -9999 -9999 -9999 -9999 -9999 -9999 -9999 -9999 1.449 1.431 1.459 1.554 1.736 1.534 1.671 -9999 -9999 -9999 -9999 -9999 -9999 -9999 -9999 -9999 -9999 -9999 1.719 1.726 1.752 1.764 1.754 -9999 -9999 -9999 -9999 -9999 -9999 -9999 -9999 -9999 -9999 -9999 -9999 -9999 -9999 -9999 -9999 -9999 -9999 -9999 -9999 -9999 -9999 1.649 1.639 1.696 1.639 1.506 1.584 1.616 -9999 -9999 -9999 -9999 1.536 -9999 -9999 -9999 -9999 1.379 1.276 -9999 -9999 -9999 1.339 -9999 -9999 -9999 -9999 1.736 1.802 -9999 -9999 1.752 1.641 1.486 1.441 1.366 1.416 1.364 1.274 1.334 1.506 1.579 1.396 1.444 1.591 1.634 1.474 1.559 1.499 -9999 -9999 -9999 -9999 -9999 1.499 1.474 1.364 1.386 1.479 1.479 1.506 1.516 1.489 1.526 1.556 1.601 1.541 1.666 1.671 1.581 1.586 1.611 1.571 1.534 1.656 1.659 1.514 1.494 1.489 1.549 1.501 1.509 1.709 1.709 1.619 1.639 -9999 -9999 1.546 1.536 1.581 1.576 1.564 -9999 -9999 1.771 1.629 1.744 1.854 1.731 1.689 -9999 1.612 -9999 -9999 1.529 1.661 1.606 1.581 1.554 1.546 1.706 1.749 1.764
-9999 -9999 -9999 -9999 -1.778 -1.779 -1.776 -1.789 -1.799 -1.841 -1.771 -1.744 -1.741 -1.726 -1.741 -1.769 -1.736 -1.621 -1.739 -1.771 -1.766 -1.764 -1.719 -1.749 -1.809 -1.759 -1.791 -1.749 -1.726 -1.724 -1.806 -1.744 -1.719 -1.741 -1.696 -1.706 -1.714 -1.736 -1.761 -1.749 -1.754 -1.706 -1.676 -1.711 -1.751 -1.779 -1.806 -1.786 -1.721 -1.726 -1.794 -1.781 -1.844 -1.766 -1.781 -1.799 -1.819 -1.819 -1.771 -1.764 -1.754 -1.781 -1.746 -1.744 -1.726 -1.669 -1.724 -1.811 -1.776 -1.754 -1.731 -1.749 -1.776 -1.674 -1.746 -1.779 -1.701 -1.796 -1.816 -1.789 -1.784 -1.821 -1.794 -1.799 -1.769 -1.691 -1.744 -1.736 -1.731 -1.761 -1.769 -1.796 -1.749 -1.694 -1.706 -1.719 -1.686 -1.741 -1.796 -1.839 -1.821 -1.804 -1.749 -1.704 -1.724 -1.721 -1.691 -1.721 -1.726 -1.694 -1.741 -1.754 -1.716 -1.756 -1.761 -1.774 -1.814 -1.826 -1.801 -1.781 -1.751 -1.674 -1.749 -1.786 -1.769 -1.774 -9999 -1.791 -1.851 -1.851 -1.798 -1.769 -1.709 -1.691 -1.676 -1.634 -1.671 -1.764 -1.714 -1.736 -9999 -9999 -9999 -9999 -9999 -1.758 -1.736 -1.781 -9999 -9999 -9999 -9999 -1.706 -1.714 -1.794 -1.806 -1.761 -1.756 -1.816 -1.736 -1.739 -1.768 -1.751 -1.779 -1.814 -1.794 -1.769 -9999 -9999 -9999 -9999 -9999 -9999 -1.731 -1.751 -1.844 -1.764 -1.756 -1.794 -1.828 -9999 -1.751 -1.806 -9999 -9999 -9999 -1.921 -9999 -9999 -9999 -9999 -9999 -9999 -9999 -9999 -9999 -9999 -9999 -9999 -9999 -9999 -9999 -9999 -9999 -9999 -9999 -9999 -1.846 -1.828 -1.851 -1.871 -1.816 -1.846 -9999 -9999 -9999 -1.764 -9999 -9999 -9999 -1.871 -1.851 -1.819 -9999 -9999 -9999 -9999 -9999 -9999 -9999 -9999 -9999 -9999 -9999 -9999 -9999 -9999 -9999 -9999 -9999 -9999 -9999 -9999 -9999 -9999 -9999 -9999 -9999 -9999 -9999 -9999 -9999 -9999 -9999 -9999 -9999 -9999 -9999 -9999 -9999 -9999 -9999 -9999 -9999 -9999 -9999 -9999 -9999 -9999 -9999 -9999 -9999 -9999 -9999 -9999 -9999 -9999 -9999 -9999 -9999 -9999 -9999 -9999 -9999 -9999 -9999 -9999 -9999 -9999 -9999 -9999 -9999 -9999 -9999 -9999 -9999 -9999 -9999 -9999 -9999 -9999 -9999 -9999 -9999 -9999 -9999 -9999 -9999 -9999 -9999 -9999 -9999 -9999 -9999 -9999 -9999 -9999 -9999 1.709 -9999 -9999 -9999 1.566 1.554 -9999 -9999 -9999 1.349 1.294 1.271 -9999 -9999 -9999 -9999 -9999 -9999 -9999 -9999 -9999 -9999 -9999 1.714 -9999 -9999 -9999 -9999 -9999 1.636 1.581 1.614 1.614 -9999 -9999 -9999 1.769 -9999 -9999 -9999 -9999 1.754 1.799 -9999 -9999 -9999 -9999 -9999 -9999 -9999 -9999 -9999 -9999 -9999 1.574 1.676 1.761 1.746 -9999 -9999 -9999 -9999 -9999 -9999 -9999 -9999 -9999 -9999 -9999 -9999 -9999 -9999 1.472 -9999 -9999 -9999 -9999 -9999 -9999 -9999 -9999 -9999 1.819 1.592 1.554 1.549 1.426 -9999 -9999 -9999 1.421 1.324 1.389 -9999 -9999 1.319 1.384 1.526 1.641 1.479 1.489 1.481 -9999 -9999 -9999 -9999 -9999 1.484 1.529 1.434 1.314 -9999 -9999 1.541 1.544 1.549 1.596 1.536 1.554 1.544 1.629 -9999 1.669 1.651 1.579 1.531 1.556 -9999 1.811 1.691 1.456 1.639 1.651 1.516 1.481 1.666 1.741 1.739 1.761 1.776 -9999 1.601 1.534 1.619 1.611 1.599 -9999 1.724 1.699 1.769 1.644 1.679 1.679 1.576 1.589 1.699 1.804 1.634 1.589 1.614 1.596 1.561 1.586 1.549 1.584 1.666 1.801
-9999 -9999 -9999 -9999 -1.751 -1.771 -1.779 -1.809 -1.804 -1.826 -1.801 -1.786 -1.769 -1.731 -1.724 -1.751 -1.791 -1.734 -1.746 -1.736 -1.771 -1.814 -1.746 -1.729 -1.786 -1.769 -1.776 -1.706 -1.719 -1.771 -1.784 -1.781 -1.799 -1.744 -1.696 -1.746 -1.769 -1.789 -1.749 -1.786 -1.769 -1.726 -1.746 -1.671 -1.736 -1.816 -1.809 -1.761 -1.739 -1.709 -1.756 -1.756 -1.821 -1.771 -1.719 -1.789 -1.769 -1.806 -1.799 -1.766 -1.709 -1.764 -1.786 -1.786 -1.749 -1.759 -1.864 -1.806 -1.794 -1.761 -1.751 -1.759 -1.711 -1.746 -1.789 -1.786 -1.724 -1.786 -1.771 -1.801 -1.771 -1.819 -1.751 -1.794 -1.799 -1.711 -1.749 -1.771 -1.769 -1.751 -1.691 -1.826 -1.766 -1.729 -1.724 -1.744 -1.766 -1.826 -1.824 -1.829 -1.821 -1.801 -1.711 -1.741 -1.741 -1.709 -1.681 -1.724 -1.771 -1.779 -1.751 -1.771 -1.776 -1.791 -1.806 -1.791 -1.781 -1.721 -1.759 -1.781 -1.789 -1.756 -1.749 -1.724 -1.739 -9999 -9999 -9999 -1.771 -1.761 -1.751 -1.721 -1.711 -1.711 -1.711 -1.676 -1.629 -1.741 -1.711 -1.739 -1.721 -9999 -9999 -9999 -9999 -9999 -9999 -9999 -1.721 -9999 -9999 -9999 -9999 -1.704 -9999 -9999 -9999 -1.764 -1.861 -1.826 -1.811 -1.716 -1.659 -1.741 -1.821 -1.786 -1.781 -9999 -9999 -9999 -9999 -1.751 -1.764 -1.779 -1.756 -1.811 -1.744 -1.766 -1.804 -1.791 -1.714 -1.741 -9999 -9999 -9999 -9999 -9999 -9999 -9999 -9999 -9999 -9999 -9999 -9999 -9999 -9999 -9999 -9999 -9999 -9999 -9999 -9999 -9999 -9999 -9999 -9999 -9999 -1.861 -1.829 -1.836 -9999 -1.874 -9999 -9999 -9999 -9999 -9999 -1.801 -9999 -1.791 -1.869 -1.874 -1.831 -1.794 -9999 -9999 -9999 -9999 -9999 -9999 -9999 -9999 -9999 -9999 -9999 -1.781 -9999 -9999 -1.821 -9999 -9999 -9999 -9999 -9999 -9999 -9999 -9999 -9999 -9999 -9999 -9999 -9999 -9999 -9999 -9999 -9999 -9999 -9999 -9999 -9999 -9999 -9999 -9999 -9999 -9999 -9999 -9999 -9999 -9999 -9999 -9999 -9999 -9999 -9999 -9999 -9999 -9999 -9999 -9999 -9999 -9999 -9999 -9999 -9999 -9999 -9999 -9999 -9999 -9999 -9999 -9999 -9999 -9999 -9999 -9999 -9999 -9999 -9999 -9999 -9999 -9999 -9999 -9999 -9999 -9999 -9999 -9999 -9999 -9999 -9999 -9999 -9999 -9999 -9999 -9999 -9999 -9999 -9999 1.529 1.459 1.539 -9999 -9999 -9999 -9999 -9999 -9999 1.354 1.304 1.249 -9999 -9999 -9999 -9999 -9999 -9999 -9999 1.649 1.719 1.859 -9999 -9999 1.532 1.649 1.629 -9999 -9999 -9999 1.539 1.576 1.599 1.636 -9999 -9999 1.744 -9999 -9999 -9999 -9999 1.751 1.754 -9999 -9999 -9999 -9999 -9999 -9999 -9999 -9999 -9999 -9999 -9999 1.609 1.654 1.746 1.786 -9999 -9999 -9999 -9999 -9999 -9999 -9999 -9999 -9999 -9999 -9999 -9999 -9999 -9999 -9999 -9999 1.602 -9999 -9999 -9999 -9999 -9999 -9999 1.769 1.779 1.631 1.629 1.474 1.419 1.469 -9999 -9999 1.489 1.426 1.439 -9999 -9999 -9999 1.419 1.464 1.529 1.611 1.549 1.484 1.492 -9999 1.656 1.422 1.479 -9999 -9999 -9999 -9999 -9999 -9999 1.534 1.551 1.516 1.506 1.569 1.484 1.476 1.576 -9999 1.714 1.679 1.511 1.416 -9999 -9999 -9999 1.629 1.606 1.546 1.411 1.504 1.581 1.559 1.614 1.664 1.726 1.694 1.631 1.539 1.476 1.649 1.744 1.714 1.844 1.759 1.649 1.579 1.546 1.561 1.604 1.646 1.696 1.661 1.686 1.626 1.669 1.596 1.531 1.569 -9999 -9999 1.569 1.594 1.724
