ncols 500
nrows 32
xllcorner    464000
yllcorner    90196
cellsize     2
NODATA_value -9999
-1.042 -0.914 -0.721 -0.53 -0.423 -0.466 -0.751 -0.937 -1.266 -1.447 -1.683 -1.768 1.835 -1.755 -1.671 -1.442 -1.529 -1.616 -1.548 -1.288 -1.09 -0.941 -0.705 -0.588 -0.721 -0.929 -1.247 -1.438 -1.695 -1.785 -2.088 -1.801 -1.651 -1.862 -1.835 -1.79 -1.638 -1.483 -1.195 -0.895 -0.846 -0.948 -1.023 -0.991 -0.863 -0.791 -0.732 -0.546 -0.353 -0.089 0.142 2.007 0.402 0.37 0.427 0.551 0.706 0.783 1.064 2.045 0.946 2.11 2.052 2.017 0.315 1.972 0.095 0.129 0.108 0.145 0.166 0.065 0.07 0.208 0.305 0.368 0.53 1.972 2.012 0.972 1.136 1.284 1.535 1.715 1.96 1.96 1.922 1.762 1.882 1.302 1.055 0.919 0.696 0.593 0.377 0.18 0.1 -0.068 -0.099 -0.182 -0.126 -0.122 -0.096 -0.059 0.049 0.13 0.241 0.438 0.567 0.758 0.952 1.204 1.582 1.87 2.027 1.992 2.03 2.077 2.032 2.002 2.062 1.987 1.937 1.985 1.955 1.917 1.93 1.962 1.937 1.972 1.997 1.945 1.965 1.932 1.895 1.887 2.005 1.972 1.885 1.942 2 1.94 1.912 1.95 1.867 1.922 1.995 1.867 1.827 1.947 1.91 1.93 1.897 1.982 1.975 1.967 1.995 2.035 2.002 2.097 1.92 2.005 1.922 1.93 1.957 1.952 1.96 2.085 2.057 2.025 1.952 1.907 1.905 1.877 1.89 1.94 1.995 1.962 1.947 1.935 1.902 1.905 2.025 1.952 1.867 1.95 1.975 1.902 1.887 1.922 1.942 1.935 1.907 1.95 2.035 1.947 1.97 1.965 1.897 1.927 1.947 1.892 2.01 1.942 1.902 1.86 1.902 1.867 1.925 1.967 1.865 1.85 1.937 1.96 1.947 1.995 1.952 1.94 2.057 2.012 1.98 2.062 2.01 1.94 1.99 1.947 1.975 2.007 1.975 1.95 1.885 1.895 1.817 1.865 1.83 1.792 1.81 1.817 1.87 1.827 1.862 1.862 1.98 1.89 1.955 1.877 1.932 1.985 1.91 2.072 1.99 1.907 1.922 1.942 2.027 2.03 1.925 1.87 1.847 1.785 1.84 1.915 1.862 1.865 1.835 1.917 1.81 1.842 1.922 1.862 1.842 1.775 1.77 1.837 1.827 1.85 1.872 1.942 1.882 1.99 1.907 1.957 1.992 1.947 1.932 1.937 1.92 1.947 1.975 1.985 1.925 1.925 1.865 1.992 2.017 2.002 1.962 1.93 1.892 1.89 1.897 1.955 1.95 2.002 1.992 1.97 1.92 1.985 1.945 1.885 1.857 1.957 1.907 1.99 1.902 1.882 1.975 1.937 1.98 1.965 1.955 1.892 1.915 1.917 1.94 1.955 1.86 1.837 1.887 1.832 1.817 1.842 1.962 1.955 1.902 1.92 1.957 1.91 1.925 1.887 1.915 1.945 1.917 1.9 1.84 1.842 1.85 1.822 1.752 1.802 1.924 2.054 1.979 2.032 2.034 1.937 1.997 1.929 1.937 1.902 1.912 1.892 1.872 1.809 1.772 1.862 1.894 1.897 1.839 1.834 1.857 1.847 1.922 1.937 1.872 1.864 1.834 1.804 1.732 1.772 1.907 1.812 1.827 1.942 1.924 1.899 1.804 1.932 1.934 1.929 1.967 1.989 2.037 2.012 2.017 1.917 2.019 1.932 1.867 1.889 1.839 1.879 1.944 1.944 1.902 1.857 1.979 1.892 1.907 1.899 1.907 1.857 1.867 1.919 1.937 1.844 1.892 1.949 1.899 1.882 1.892 1.902 1.902 1.924 1.932 1.797 1.872 1.832 1.802 1.782 1.859 1.919 1.897 1.877 1.927 1.922 1.977 2.004 1.997 1.972 1.864 1.902 1.882 1.949 1.929 1.954 2.014 1.914 1.974 1.987 1.857 1.884 1.869 1.847 1.849 1.909 1.904 1.812 1.819 1.802 1.859 1.857 1.839 1.817 1.912 1.929 1.919 1.909 1.949 1.842 1.814 1.814 1.767 1.877 1.837 1.827 1.892 1.912 1.792 1.847 1.914 1.924 1.912 1.984 1.912 1.914 1.857 1.912 1.922 1.844 1.899 1.969 2.029 1.957 1.899 1.857 1.917 1.859 1.812 1.857
-1.267 -1.074 -0.866 -0.62 -0.373 -0.447 -0.696 -1.013 -1.231 -1.534 -1.846 -2.03 -2.06 -2.092 -1.774 -1.497 -1.328 -1.227 -1.232 -1.122 -0.846 -0.71 -0.505 -0.38 -0.591 -0.814 -1.063 -1.422 -1.514 -1.575 -1.84 -1.63 -1.414 -1.541 -1.594 -1.612 -1.494 -1.337 -1.079 -0.879 -1.062 -1.144 -1.281 -1.275 -1.182 -1.128 -0.954 -0.732 -0.481 -0.223 -0.014 1.897 1.922 0.2 0.301 0.375 1.967 1.987 1.952 1.985 1.157 2.035 2.007 1.955 2.02 2.005 1.93 0.359 1.81 1.922 0.357 0.344 1.96 0.436 0.54 0.508 0.73 0.78 1.084 1.12 1.286 1.471 1.707 1.897 1.962 2.07 1.942 1.905 1.688 1.418 1.282 1.24 1.07 0.817 0.573 0.367 0.25 0.276 0.202 0.166 0.184 0.117 0.172 0.148 0.188 0.296 0.408 0.58 0.788 1.026 1.109 1.394 1.613 1.801 1.972 1.942 1.99 1.97 1.942 1.882 1.957 1.945 1.93 2.025 1.967 1.942 1.915 1.902 1.887 1.997 1.975 1.852 1.96 2.052 1.91 1.932 1.925 1.992 1.885 1.847 1.892 1.932 2 1.962 2.007 2.037 1.895 1.847 1.895 1.912 1.895 1.91 1.897 1.927 1.955 2.052 1.995 2.075 2.002 1.98 1.985 1.955 1.92 1.922 1.922 1.892 1.977 2.002 1.962 1.932 1.912 1.857 1.855 1.922 1.875 1.975 2.037 1.985 1.93 1.84 1.85 1.835 1.885 2.055 2.01 1.972 1.902 1.985 1.972 1.832 1.887 1.902 1.955 1.897 1.992 2 1.965 1.962 1.957 2.062 1.917 1.917 1.902 1.842 1.897 1.892 1.937 1.955 1.917 1.917 1.847 1.86 1.917 1.947 1.94 2.005 1.877 1.96 1.915 2.032 2.01 2.107 1.97 1.915 2.022 2.045 2.085 1.992 1.957 1.95 1.895 1.975 1.877 1.85 1.847 1.865 1.852 1.832 1.83 1.83 1.935 1.927 1.9 1.92 1.887 1.88 1.952 1.997 1.982 2.005 2.045 1.952 1.965 1.927 1.935 1.96 1.917 1.922 1.85 1.875 1.877 1.905 1.89 1.82 1.932 1.902 1.892 1.9 1.892 1.905 1.827 1.822 1.82 1.887 1.81 1.885 1.935 1.937 1.885 1.99 2.087 1.997 1.952 1.96 1.975 1.95 1.985 1.967 1.89 1.922 1.992 1.912 1.95 1.985 2.012 2.01 2.002 1.925 1.957 1.97 1.937 1.942 1.975 2.057 1.955 1.88 1.887 1.862 1.837 1.777 1.805 1.812 1.827 1.895 1.945 1.935 1.96 1.927 1.957 1.942 1.922 1.917 1.915 1.947 2.03 1.952 1.955 1.91 1.935 1.957 1.877 1.97 1.95 1.937 1.93 1.882 1.962 1.912 1.895 1.925 1.88 1.912 1.855 1.882 1.855 1.857 1.927 1.875 1.8 1.782 1.802 2.049 2.029 2.012 1.927 1.952 1.987 1.954 1.907 1.894 1.847 1.964 1.837 1.854 1.854 1.872 1.864 1.894 1.902 1.914 1.859 1.912 1.874 1.834 1.824 1.864 1.772 1.814 1.894 1.824 1.829 1.837 1.894 1.902 1.939 1.957 1.989 2.022 1.964 1.957 1.972 1.987 1.972 1.934 1.972 1.944 1.904 1.924 1.879 1.884 1.912 1.882 1.937 1.877 1.889 1.927 1.922 1.874 1.874 1.954 1.924 1.852 1.949 1.939 2.009 1.919 1.979 1.964 1.949 1.902 1.954 1.987 1.967 1.929 1.899 1.862 1.869 1.744 1.759 1.914 1.919 1.962 1.922 1.944 1.972 1.959 1.914 2.002 1.952 1.962 1.874 1.929 1.929 1.944 1.942 1.954 1.924 1.917 1.927 1.912 1.884 1.862 1.899 1.832 1.834 1.862 1.844 1.842 1.864 1.847 1.809 1.849 1.872 1.849 1.934 1.932 1.922 1.874 1.842 1.827 1.772 1.814 1.812 1.862 1.879 1.869 1.899 1.952 1.949 1.939 1.939 1.909 1.892 1.837 1.902 1.834 1.857 1.967 1.989 1.939 1.922 1.907 1.924 1.899 1.879 1.899 1.924 1.797 1.839 1.844
-1.519 -1.224 -0.897 -0.644 -0.424 -0.458 -0.696 -0.986 -1.267 -1.494 -1.651 -1.798 -1.707 -1.768 -1.725 -1.497 -1.222 -1.028 -0.952 -0.888 -0.765 -0.549 -0.317 -0.251 -0.548 -0.709 -0.942 -1.138 -1.288 -1.48 -1.474 -1.419 -1.293 -1.246 -1.302 -1.151 -1.246 -1.078 -0.938 -1.076 -1.239 -1.425 -1.499 -1.556 -1.416 -1.279 -1.121 -0.805 -0.593 -0.376 -0.146 -0.193 -0.133 2.032 0.054 0.053 0.261 2.03 1.962 1.955 1.033 1.967 1.055 1.982 1.957 1.98 1.945 0.64 0.411 1.837 0.586 0.593 2.01 0.732 0.79 0.82 1.94 1.078 1.276 1.321 1.457 1.741 1.895 1.835 1.827 1.897 1.982 1.84 1.927 1.831 1.812 1.36 1.169 0.991 0.804 0.647 0.56 0.448 0.469 0.388 0.409 0.358 0.363 0.391 0.381 0.547 0.717 0.831 1.017 1.224 1.343 1.596 1.744 1.915 1.927 1.88 1.947 2.015 1.932 1.967 1.917 1.972 1.917 1.942 1.892 1.855 1.865 1.845 1.87 1.965 1.967 2.017 1.975 1.977 1.897 1.99 1.96 1.925 1.87 1.987 1.922 1.987 1.957 2.025 1.952 1.927 1.84 1.89 2.007 1.98 2.13 1.992 1.952 1.995 1.977 1.96 2 2.045 2.027 1.98 1.965 1.885 1.975 1.872 1.912 1.897 1.942 1.86 1.982 1.89 1.907 1.945 1.902 1.997 2.095 2.017 1.992 1.952 1.945 1.842 1.995 1.935 1.91 1.955 1.947 1.942 1.905 1.987 1.917 1.962 1.905 1.922 1.877 1.917 2.12 2.087 2.087 1.995 1.967 1.955 1.872 1.877 1.887 1.825 1.902 1.825 1.945 1.957 1.967 1.9 1.982 1.92 1.937 1.947 1.892 1.887 1.867 1.925 1.91 2.002 2.03 1.997 1.952 1.97 1.962 1.982 1.967 1.967 1.97 1.982 1.865 1.915 2.017 1.852 1.92 1.977 1.955 1.93 1.872 1.932 1.992 2.005 1.985 2.057 1.99 1.965 2.017 1.95 1.965 1.967 2.042 1.947 1.99 1.93 1.942 1.925 1.915 1.94 2.077 1.957 1.912 1.887 1.877 1.877 1.97 1.92 1.91 1.922 1.91 1.857 1.785 1.817 1.832 1.922 1.99 1.877 1.945 1.865 1.905 1.937 1.935 1.95 1.927 2.12 1.945 1.932 1.94 1.84 1.86 1.895 1.907 1.945 1.982 1.885 1.95 1.95 1.927 1.965 1.967 1.915 1.955 1.942 1.965 1.995 1.905 1.85 1.847 1.852 1.82 1.78 1.872 1.882 1.977 1.862 1.955 1.922 1.94 1.955 1.912 1.965 1.865 1.815 1.9 1.865 2.03 1.867 1.925 1.91 1.925 1.94 1.902 1.92 1.855 1.937 1.892 1.857 1.83 1.875 1.917 1.855 1.875 1.857 1.845 1.837 1.965 1.942 1.935 1.967 1.922 1.932 2.004 2.002 1.947 1.952 1.872 1.879 1.872 1.924 1.924 1.884 1.919 1.864 1.862 1.854 1.867 1.857 1.997 1.894 1.824 1.859 1.814 1.842 1.857 1.789 1.894 1.837 1.837 1.879 1.859 1.792 1.802 1.864 1.877 1.922 1.877 1.969 1.979 1.997 1.902 1.904 2.007 1.952 1.872 1.882 1.869 1.917 1.934 1.872 1.864 1.899 1.892 1.947 1.887 1.949 1.889 1.884 1.852 1.859 1.872 1.854 1.869 1.939 2.029 2.022 1.987 1.917 1.934 1.967 1.884 1.877 1.927 2.002 1.934 1.907 1.897 1.847 1.824 1.832 1.824 1.899 1.884 1.882 1.929 1.919 1.899 1.907 1.937 1.917 1.889 1.897 1.944 1.909 1.837 1.904 1.904 1.919 1.939 1.904 1.959 2.014 1.854 1.907 1.927 1.842 1.919 1.892 1.849 1.807 1.827 1.824 1.902 1.877 1.917 1.982 1.887 1.864 1.922 1.839 1.784 1.764 1.802 1.804 1.879 1.939 1.947 1.972 1.917 1.962 1.939 1.977 1.962 1.852 1.819 1.889 1.894 1.942 1.924 1.904 2.047 1.904 1.914 1.892 1.859 1.857 1.897 1.917 1.964 1.797 1.837 1.844
-1.543 -1.209 -1.003 -0.685 -0.506 -0.371 -0.656 -0.904 -1.127 -1.389 -1.456 -1.495 -1.533 -1.537 -1.416 -1.286 -1.14 -0.903 -0.702 -0.59 -0.515 -0.335 -0.215 -0.057 -0.477 -0.499 -0.666 -0.957 -1.07 -1.272 -1.25 -1.265 -1.161 -0.962 -1.036 -0.988 -1.012 -0.915 -1.025 -1.219 -1.546 -1.638 -1.697 1.925 -1.763 -1.509 -1.208 -0.954 -0.629 1.9 -0.457 -0.466 -0.406 -0.504 -0.211 -0.139 0.007 1.945 1.977 2.025 0.852 1.033 1.335 1.917 0.99 0.889 1.87 0.91 0.7 1.912 0.873 0.893 0.887 0.923 0.993 1.048 1.158 1.225 1.448 1.533 1.922 1.939 1.935 1.86 1.852 1.877 1.865 1.812 1.82 1.845 1.754 1.571 1.393 1.249 1.033 1.875 0.674 0.642 0.734 0.727 0.677 0.647 0.6 0.592 0.72 0.791 0.997 1.079 1.216 1.341 1.559 1.693 1.935 1.86 1.887 1.892 1.927 1.912 2.01 2.022 1.895 1.952 1.955 1.922 1.945 1.842 1.872 1.86 1.925 1.962 1.902 1.965 1.867 1.932 1.875 1.872 1.882 1.94 1.982 1.932 1.985 2.07 2.01 1.88 1.877 1.88 1.9 1.972 1.912 1.97 1.895 1.99 1.96 1.822 1.917 1.957 1.92 1.922 2.045 1.925 1.857 1.882 1.882 1.885 1.995 1.957 1.917 1.892 1.842 1.985 2.027 1.982 2.125 2.075 2.012 1.957 1.955 1.95 1.942 1.967 2.005 1.962 1.927 1.95 1.895 1.92 1.932 1.942 1.99 1.9 1.992 2.005 2.037 2.02 2.135 2.017 2.045 1.91 1.917 1.93 1.895 1.902 1.895 1.87 1.907 1.942 1.872 1.897 1.907 1.95 1.987 1.895 1.857 1.93 1.917 1.942 1.952 1.915 2.022 1.932 1.885 1.9 1.897 1.917 1.91 1.91 1.94 1.917 1.957 1.98 1.972 1.937 1.935 1.905 1.945 1.952 1.972 1.975 1.97 1.995 1.947 1.927 1.957 2.015 1.972 2.005 2.092 2.062 1.987 1.957 1.957 1.915 1.92 1.86 1.82 1.865 1.807 1.867 2.03 1.905 1.857 1.875 1.842 1.867 1.877 1.907 1.927 1.942 1.92 1.892 1.81 1.892 1.965 1.95 1.962 1.87 1.915 1.822 1.845 1.902 1.835 1.912 1.922 1.917 1.91 1.972 1.857 1.907 1.932 1.927 1.922 1.93 1.95 1.922 1.807 1.907 1.937 1.96 1.997 1.995 1.977 1.965 1.937 1.897 1.882 1.862 1.73 1.86 1.785 1.877 1.875 1.89 2.015 1.9 1.925 1.902 1.945 1.827 1.847 1.87 1.87 1.987 1.985 1.917 1.905 1.895 1.935 1.94 2.02 1.907 1.892 1.89 1.882 1.915 1.837 1.91 1.892 1.89 1.91 1.917 1.83 1.852 1.84 1.885 1.977 1.975 1.925 1.972 2 2.057 2.032 2.012 1.904 1.864 1.862 1.894 1.869 1.909 1.909 1.864 1.812 1.797 1.827 1.792 1.807 1.839 1.879 1.899 1.854 1.857 1.839 1.854 1.819 1.852 1.857 1.842 1.887 1.892 1.857 1.769 1.817 1.844 1.907 1.927 1.922 1.897 1.889 1.874 1.879 1.909 1.934 1.802 1.909 1.962 1.914 1.899 1.892 1.887 1.922 1.947 1.979 1.874 1.914 1.842 1.839 1.902 1.889 1.947 1.897 1.897 1.877 1.914 1.942 1.952 1.907 1.957 1.942 1.917 1.937 1.907 1.932 1.869 1.872 1.882 1.887 1.839 1.837 1.932 1.884 1.882 1.987 1.974 1.932 1.887 1.854 1.949 1.972 1.902 1.919 1.987 1.844 1.922 1.937 1.894 1.932 1.974 1.919 1.957 1.944 2.049 1.979 1.909 1.852 1.919 1.879 1.852 1.882 1.919 1.814 1.889 1.912 1.912 1.909 1.894 1.889 1.877 1.827 1.919 1.799 1.797 1.817 1.902 1.962 1.964 2.012 2.012 2.014 1.932 1.922 1.907 1.859 1.822 1.817 1.894 1.887 1.894 1.904 1.884 1.942 2.012 1.912 1.822 1.837 1.837 1.874 1.854 1.834 1.849 1.829 1.847
-1.671 -1.298 -0.973 -0.751 -0.479 -0.263 -0.543 -0.724 -0.925 -1.159 -1.268 -1.278 -1.231 -1.241 -1.19 -1.103 -0.942 -0.714 -0.52 -0.374 -0.342 -0.158 -0.058 0.067 -0.177 -0.298 -0.526 -0.717 -0.893 -0.952 -0.965 1.825 -0.973 -0.72 -0.765 -0.735 -0.735 -0.822 -1.016 -1.292 -1.522 -1.669 -2.037 -9999 -1.824 -1.509 -1.263 -1.003 -0.753 1.96 -0.72 -0.69 -0.743 1.835 -0.484 -0.314 -0.172 0.043 0.197 0.491 2.055 0.96 1.194 1.38 1.226 1.912 1.203 1.114 1.017 1.235 1.164 1.151 1.123 1.138 1.203 1.274 1.413 1.561 1.584 1.757 1.955 1.897 1.877 1.812 1.922 1.982 1.9 1.802 1.855 1.985 1.974 1.723 1.47 1.369 1.31 1.947 1.073 0.937 0.961 0.959 0.921 0.907 0.894 0.937 1.041 1.028 1.25 1.343 1.423 1.549 1.748 1.935 1.907 1.872 1.91 1.95 1.947 1.905 1.925 1.892 1.787 1.857 1.895 1.97 1.925 1.882 1.87 1.872 1.97 1.997 1.877 1.915 1.905 1.915 1.977 1.95 1.927 1.922 1.862 1.895 1.965 1.987 1.962 1.907 1.945 1.92 1.972 1.972 1.937 1.947 1.912 1.947 1.892 1.907 1.895 2.037 1.942 1.977 2.002 1.895 1.902 1.902 1.922 1.897 1.957 1.997 1.94 1.87 1.845 1.94 2.1 1.997 2.027 1.997 1.96 1.982 1.94 1.945 1.865 1.915 1.97 2.027 2.022 1.93 1.897 1.892 1.907 1.922 1.927 1.945 1.947 1.967 1.93 1.977 2.005 1.9 2.005 1.872 1.927 1.882 1.88 1.872 1.915 1.895 1.88 1.89 1.882 1.895 1.92 1.907 1.99 1.897 1.857 1.827 1.847 1.89 1.935 1.985 1.895 1.88 1.915 1.947 1.877 1.982 2.017 1.905 1.91 1.8 2.035 1.922 1.99 2.022 1.925 1.905 1.872 1.935 1.882 1.847 1.945 1.947 1.952 1.937 1.932 1.995 2.01 1.94 2.025 1.942 1.927 1.957 1.885 1.892 1.86 1.792 1.762 1.837 1.827 1.89 1.855 1.84 1.885 1.902 1.862 1.887 1.937 1.992 1.942 1.857 1.827 1.83 1.83 1.925 1.91 1.967 1.892 1.872 1.872 1.842 1.887 1.822 1.867 1.895 1.897 1.905 1.915 1.88 1.89 1.992 1.902 2.015 1.962 2.022 1.99 2.042 1.86 1.887 1.955 2.095 1.995 1.972 1.89 1.917 1.832 1.832 1.857 1.85 1.877 1.827 1.877 1.952 1.937 1.967 1.985 1.925 1.902 1.882 1.895 1.847 1.832 1.857 1.855 1.952 2.04 1.95 1.982 1.915 1.912 1.99 1.997 1.93 1.827 1.965 2.052 1.982 2.012 2.017 1.917 1.875 1.872 1.922 1.937 1.91 1.93 1.925 1.922 1.917 2.022 1.96 1.957 1.992 1.992 1.932 1.912 1.822 1.872 1.844 1.817 1.774 1.809 1.794 1.794 1.767 1.792 1.792 1.804 1.829 1.899 1.857 1.799 1.784 1.854 1.784 1.762 1.857 1.889 1.864 1.864 1.899 1.907 1.862 1.809 1.814 1.862 1.854 1.914 1.839 1.889 1.859 1.902 1.909 1.982 1.959 1.884 1.884 1.882 1.902 1.919 1.954 1.934 2.012 1.954 1.932 1.919 1.907 1.874 1.862 1.889 1.889 1.867 1.859 1.882 1.877 1.904 1.969 1.899 1.954 1.999 1.917 1.867 1.969 1.894 1.872 1.874 1.852 1.857 1.867 1.884 1.879 1.929 1.949 1.887 1.959 1.994 1.947 1.927 1.907 1.937 1.917 1.849 1.867 1.867 1.899 1.907 1.964 1.919 1.942 2.007 2.039 1.997 1.932 1.909 1.882 2.014 1.932 1.937 1.902 1.869 1.854 1.904 1.974 1.877 1.894 1.877 1.887 1.829 1.752 1.807 1.849 1.909 1.899 1.952 2.009 2.014 2.124 1.984 2.012 1.937 1.852 1.897 1.817 1.877 1.839 1.914 1.847 1.842 1.907 1.919 1.904 1.964 1.929 1.812 1.852 1.832 1.897 1.849 1.882 1.849 1.839 1.852 1.922
-1.387 -1.223 -0.891 -0.676 -0.421 -0.239 -0.373 -0.513 -0.756 -0.848 -1.034 -1.01 -1.004 -1.021 -0.95 -0.827 -0.742 -0.519 -0.368 -0.288 -0.088 -0.024 0.143 0.192 0.052 -0.17 -0.327 -0.442 -0.629 -0.744 -0.762 -0.708 -0.583 1.987 -0.497 -0.501 -0.468 -0.733 -1.136 -1.158 -1.515 -1.669 -1.783 -1.764 -1.696 -1.435 -1.215 -0.996 -0.867 -0.985 -0.988 -0.961 -0.925 -0.859 1.985 -0.628 -0.355 1.92 1.877 1.982 1.952 1.912 1.054 1.912 1.977 1.96 1.486 1.448 1.342 1.465 1.416 1.396 1.437 1.411 1.437 1.522 1.657 1.932 1.775 1.867 1.892 1.92 1.867 1.797 1.89 2.01 1.955 1.895 2.007 1.925 1.96 1.892 1.735 1.643 1.565 1.972 1.425 1.295 1.222 1.21 1.185 1.21 1.149 1.213 1.256 1.374 1.437 1.535 1.608 1.786 1.93 1.87 1.877 1.862 1.92 1.867 1.927 2.01 1.917 1.915 1.842 1.967 1.962 1.957 1.892 1.872 1.862 1.84 1.995 1.982 1.91 1.87 1.865 1.935 1.942 1.982 2.025 2.047 2.077 2.035 2.037 2.015 1.872 1.952 1.99 1.935 1.992 1.997 1.937 1.925 1.875 1.917 1.92 2 1.935 1.987 1.897 1.947 1.9 1.917 1.942 1.927 1.972 1.985 1.98 2.02 1.972 1.957 1.972 1.905 2.032 2.065 2.247 2.115 2.015 1.97 1.965 1.927 1.937 2.035 2.04 1.982 1.935 1.97 1.982 1.955 1.88 1.85 1.892 1.925 1.897 1.995 1.942 1.935 1.942 1.892 1.902 1.902 1.882 1.867 1.87 1.897 1.907 1.962 1.91 1.907 1.957 1.907 1.912 1.91 1.872 1.835 1.832 1.877 1.872 1.96 1.9 1.885 1.95 2.005 2.02 1.86 2.095 2.032 1.965 1.947 1.837 1.805 1.942 1.987 1.942 1.857 1.855 1.815 1.8 1.905 1.872 1.92 1.917 1.915 1.965 1.897 1.95 1.912 1.935 1.95 1.99 1.932 1.92 1.847 1.84 1.807 1.815 1.812 1.877 1.895 1.897 1.887 2.037 1.902 1.902 1.887 1.872 1.932 1.915 1.935 1.862 1.87 1.805 1.852 1.837 1.85 1.865 1.882 1.842 1.815 1.825 1.82 1.89 1.92 1.927 1.95 1.89 1.83 1.872 1.887 1.875 1.96 1.905 1.955 1.9 1.905 1.967 1.942 1.937 1.895 1.952 1.915 1.937 1.935 1.89 1.89 1.845 1.802 1.85 1.785 1.812 1.925 1.915 1.892 1.955 1.965 1.95 1.922 1.955 1.94 1.932 1.885 1.967 1.985 1.995 1.87 1.942 1.992 1.905 1.97 1.86 1.907 1.955 1.91 1.862 1.935 1.915 1.932 1.947 1.922 1.907 1.892 1.847 1.99 1.967 1.95 1.92 1.937 1.947 1.855 1.96 2.022 1.992 2.015 1.922 1.854 1.824 1.802 1.782 1.819 1.724 1.754 1.724 1.869 1.839 1.802 1.849 1.842 1.859 1.757 1.789 1.777 1.852 1.827 1.839 1.902 1.882 1.959 1.914 1.909 1.904 1.797 1.787 1.847 1.864 1.837 1.852 1.837 1.824 1.894 1.874 1.912 1.859 1.924 2.004 1.919 1.907 1.894 1.879 1.899 1.979 1.967 1.997 1.987 1.954 1.934 1.937 1.889 1.949 1.827 1.834 1.904 1.889 1.862 1.872 1.937 1.907 1.867 1.859 1.929 1.844 1.849 1.899 1.939 1.914 1.844 1.832 1.872 1.867 1.894 1.922 1.887 1.932 1.892 1.857 1.922 1.922 1.947 1.924 1.899 1.902 1.899 1.934 1.904 1.924 1.974 1.987 1.967 1.954 2.009 2.014 2.019 1.964 1.917 1.932 1.907 1.887 1.967 1.929 1.962 1.887 1.864 1.899 1.917 1.852 1.887 1.817 1.869 1.804 1.867 1.854 1.884 1.889 1.917 1.959 1.992 1.984 2.014 1.964 1.927 1.904 1.882 1.802 1.869 1.932 1.809 1.857 1.892 1.952 1.912 1.929 1.897 1.857 1.899 1.832 1.804 1.829 1.842 1.867 1.877 1.919 1.814 1.759 1.819
-1.326 -1.135 -0.849 -0.615 -0.3 -0.113 -0.172 -0.282 -0.491 -0.611 -0.65 -0.779 -0.744 -0.705 -0.707 -0.691 -0.505 -0.352 -0.32 0.009 0.202 0.247 0.384 0.314 0.083 -0.048 -0.157 -0.304 -0.534 -0.525 -0.48 -0.441 -0.359 -0.218 -0.252 -0.211 -0.418 -0.676 -0.888 -1.131 -1.365 -1.458 -1.531 -1.444 -1.415 -1.269 -1.131 -0.941 -1.106 -1.212 -1.236 -1.282 -1.222 -1.102 -0.952 -0.822 -0.49 -0.18 0.008 1.965 2.015 1.902 1.91 1.293 1.917 1.752 1.804 2.085 1.788 1.94 1.712 1.61 1.671 1.688 1.91 1.825 1.82 2.012 1.997 1.887 1.802 1.92 1.947 1.922 1.895 1.962 1.972 1.892 1.937 1.85 1.9 1.872 1.92 1.824 1.737 1.746 1.667 1.531 1.474 1.42 1.388 1.46 1.42 1.47 1.518 1.575 1.626 1.734 1.824 1.845 1.907 1.945 1.852 1.845 1.94 1.977 1.965 2.047 1.992 2.012 1.987 1.89 1.95 1.902 1.81 1.89 1.945 1.91 1.942 2.002 1.962 1.897 1.887 1.925 1.937 2.067 1.957 1.995 1.957 1.95 2 1.89 1.98 1.902 1.917 2 1.97 1.975 1.942 1.932 1.867 1.912 1.895 1.865 1.905 1.867 1.872 1.902 1.885 1.89 1.917 2.03 2.002 2.025 2.035 1.945 1.97 2.122 2.015 2.162 2.142 2.075 1.985 2.005 1.965 2.005 2.065 2.04 1.94 1.922 1.937 1.84 1.887 1.917 1.935 1.917 1.962 1.85 1.825 1.875 1.97 1.95 1.977 1.982 2.025 1.922 1.907 1.992 1.935 1.905 2.08 1.935 1.925 1.975 1.895 1.89 1.957 1.982 1.92 2.007 1.885 1.79 1.822 1.925 1.89 1.93 1.962 1.922 1.89 1.99 1.985 1.977 2.002 2.062 1.97 1.982 1.902 1.867 1.96 1.952 1.912 1.88 1.867 1.83 1.785 1.862 1.83 1.895 1.962 1.917 1.91 1.907 1.9 1.927 1.885 1.827 1.957 2.095 1.93 1.83 1.9 1.902 1.902 1.917 1.982 1.935 1.89 2.052 1.902 1.92 1.94 1.967 1.767 1.962 1.912 1.97 1.855 1.845 1.892 1.887 1.867 1.87 1.812 1.775 1.73 1.75 1.775 1.775 1.85 1.887 1.927 1.935 1.962 1.825 1.875 1.895 1.932 2.06 1.887 1.927 1.94 2.007 1.945 1.94 1.957 2.11 1.982 1.905 1.895 1.905 1.872 1.85 1.87 1.822 1.852 1.887 1.857 1.937 1.887 1.985 1.922 1.957 1.872 1.837 1.852 1.895 1.917 1.952 1.887 1.897 1.915 1.87 1.995 1.927 1.912 1.915 1.932 1.955 1.907 1.885 1.917 1.927 1.922 1.945 1.92 1.902 1.857 1.88 1.932 1.92 1.895 1.905 1.957 1.932 1.982 1.94 1.997 1.9 1.93 1.935 1.822 1.774 1.777 1.769 1.779 1.849 1.842 1.837 1.849 1.944 1.937 1.902 1.882 1.937 1.827 1.852 1.727 1.779 1.919 1.942 1.882 1.902 1.929 2.059 1.947 1.849 1.829 1.812 1.737 1.827 1.812 1.772 1.824 1.852 1.834 1.817 1.832 1.872 1.982 1.897 1.894 1.889 1.852 1.867 1.849 1.859 2.019 1.949 2.027 1.974 1.924 1.977 1.914 1.854 1.899 1.847 1.819 1.879 1.857 1.847 1.879 1.934 1.879 1.902 1.872 1.892 1.892 1.889 1.939 1.854 1.932 1.832 1.857 1.934 1.862 1.912 1.939 1.932 1.957 1.999 1.882 1.867 1.827 1.947 1.909 1.929 1.889 1.924 1.922 1.949 1.967 2.034 1.982 1.914 2.009 2.027 2.014 1.937 1.957 1.884 1.962 1.954 1.892 1.962 1.954 1.879 1.859 1.884 1.929 1.854 1.859 1.824 1.879 1.817 1.844 1.907 1.864 1.972 1.944 2.004 1.977 1.984 1.992 1.959 1.919 1.894 1.882 1.869 1.837 1.807 1.809 1.854 1.919 1.914 1.907 1.882 1.854 1.854 1.862 1.857 1.872 1.797 1.842 1.899 1.977 1.969 1.942 1.904 1.887 1.874
-1.08 -0.927 -0.72 -0.602 -0.305 -0.077 -0.014 -0.211 -0.301 -0.379 -0.485 -0.494 -0.457 -0.456 -0.48 -0.415 -0.299 -0.172 -0.069 0.066 0.282 0.452 0.63 0.446 0.247 0.118 0.027 -0.032 -0.221 -0.177 -0.202 -0.213 -0.16 -0.004 0.049 -0.063 -0.259 -0.501 -0.703 -0.967 -1.171 -1.283 -1.173 -1.222 -1.211 -1.123 -0.956 -1.141 -1.244 -1.441 -1.609 -1.494 -1.414 -1.332 -1.065 -0.839 -0.578 -0.327 -0.125 1.9 0.414 0.618 1.945 1.281 1.975 1.694 1.96 2.077 2.022 1.942 1.91 1.937 1.937 1.982 1.89 2.012 1.987 1.895 1.947 1.907 1.855 1.965 1.957 1.997 1.942 1.902 1.937 1.91 1.797 1.84 1.842 1.885 2.002 2.002 2.037 1.976 1.922 1.751 1.662 1.589 1.615 1.682 1.702 1.694 1.788 1.781 1.909 1.862 1.9 1.827 1.835 1.937 1.837 1.887 1.87 1.92 2.065 2.027 1.967 1.995 2.035 1.835 1.852 1.84 1.917 1.825 1.892 1.9 1.965 1.905 1.912 1.897 1.95 2.01 1.957 1.967 1.962 1.962 1.912 1.877 1.837 1.807 1.867 1.862 1.982 1.945 1.905 1.915 1.927 1.935 1.842 1.85 1.805 1.815 1.805 1.932 1.945 1.947 1.952 1.935 2.007 2.06 2.05 2.015 1.947 1.905 1.982 2.075 1.985 2.107 2.1 1.987 2.007 1.992 1.962 1.982 1.957 2.002 1.945 1.915 1.942 1.897 1.877 1.935 1.875 1.955 1.932 1.907 1.912 1.922 1.907 1.99 1.96 1.97 1.902 1.92 1.985 1.915 1.925 1.985 2.067 1.94 1.992 1.937 1.982 1.882 1.955 1.862 1.872 1.905 1.88 1.885 1.882 1.972 1.885 1.87 1.925 1.93 2.01 1.972 2.015 1.97 2.017 2.042 2 1.907 1.875 1.885 1.872 1.865 1.77 1.797 1.862 1.802 1.915 1.877 1.865 1.897 1.882 1.845 1.86 1.975 1.94 1.87 1.88 1.965 2.007 2.01 1.93 1.967 1.93 1.88 1.897 2.025 1.98 1.987 1.977 1.912 1.865 1.937 1.932 1.92 1.86 1.895 1.867 1.867 1.867 1.832 1.892 1.862 1.875 1.832 1.76 1.77 1.825 1.905 1.752 1.8 1.815 1.915 1.952 1.977 1.952 1.952 1.897 1.982 1.94 1.96 1.86 1.915 1.94 1.965 1.967 1.952 1.922 1.877 1.917 1.922 1.892 1.9 1.87 1.845 1.867 1.845 1.88 1.912 1.985 1.96 1.97 1.907 1.907 1.845 1.937 1.867 1.877 1.93 1.847 1.857 1.887 1.937 1.947 1.9 1.885 1.877 1.897 1.907 1.882 1.897 1.885 1.87 1.917 1.905 2.037 1.965 1.987 1.862 1.875 1.92 1.972 1.997 1.855 1.9 1.937 1.952 1.947 1.947 1.872 1.8 1.887 1.847 1.809 1.767 1.687 1.789 1.824 1.829 1.779 1.842 1.874 1.892 1.894 1.934 1.904 1.814 1.902 1.797 1.809 1.799 1.914 1.922 1.964 1.894 1.932 1.907 1.812 1.814 1.767 1.894 1.929 1.894 1.799 1.772 1.829 1.784 1.809 1.882 1.862 1.847 1.937 1.899 1.897 1.957 1.812 1.879 1.804 1.874 1.964 1.962 1.917 1.919 1.902 1.882 1.869 1.847 1.877 1.842 1.952 1.887 1.867 1.934 1.989 1.967 1.869 1.867 1.879 1.879 1.862 1.942 1.889 1.859 1.952 2.069 1.884 1.894 1.932 1.969 1.909 1.932 1.947 1.989 1.969 1.942 1.907 1.924 1.867 1.904 1.947 1.974 1.952 2.004 2.029 1.954 1.949 1.969 1.967 1.927 1.937 1.947 1.864 1.864 1.887 1.909 1.949 1.944 1.994 1.982 1.897 1.909 1.854 1.934 1.942 1.839 1.912 1.867 1.867 1.884 1.877 1.909 1.932 2.052 1.994 2.007 1.972 1.929 1.917 1.852 1.837 1.822 1.832 1.804 1.837 1.902 1.859 1.899 1.934 1.869 1.884 1.832 1.812 1.854 1.912 1.807 1.862 1.889 1.882 2.017 1.934 1.927 1.952 1.904
-0.898 -0.763 -0.613 -0.364 -0.124 0.014 0.12 0.059 -0.001 -0.12 -0.153 -0.178 -0.271 -0.277 -0.248 -0.19 -0.054 0.025 0.145 0.306 0.476 0.642 0.801 0.743 0.565 0.429 0.277 0.179 0.049 0.096 0.027 0.089 0.154 0.194 0.346 0.103 -0.165 -0.369 -0.561 -0.714 -0.97 -1.039 -0.988 -0.97 -0.876 -0.826 -0.977 -1.161 -1.458 -1.584 -1.882 -1.731 -1.619 -1.459 -1.19 -1.009 -0.61 -0.372 -0.23 0.083 0.34 0.59 0.869 1.14 1.952 1.664 1.847 2.06 1.972 1.95 1.97 1.95 1.912 1.895 1.92 1.995 1.935 1.9 1.852 1.847 1.845 1.89 1.905 1.957 1.962 1.817 1.837 1.852 1.965 1.857 1.867 1.855 1.872 2.002 1.962 1.867 1.882 1.905 1.895 1.79 1.945 2.01 1.957 1.872 1.877 1.9 1.995 1.835 1.842 1.815 1.892 1.965 1.93 1.88 1.935 1.932 1.98 2.07 1.97 1.97 1.907 1.902 1.797 1.97 1.83 1.962 1.88 1.937 1.965 1.927 1.822 1.972 1.885 1.9 1.89 1.975 1.895 1.897 1.882 1.887 1.89 1.92 1.917 1.975 1.885 1.917 1.885 1.812 1.85 1.85 1.822 1.88 1.965 1.982 1.925 1.992 1.995 2.02 2.052 2.032 2.052 2.01 2.02 1.955 1.877 1.915 1.94 1.905 1.985 1.99 1.992 1.957 1.882 1.91 1.922 1.957 1.967 1.945 1.915 1.915 1.88 1.887 1.962 2.047 1.895 1.977 1.93 1.947 1.825 1.85 1.937 1.997 1.94 1.925 1.932 2.08 1.952 2.067 1.962 1.947 2 1.935 2.055 1.997 1.95 1.962 1.925 1.86 1.895 1.855 1.877 1.842 1.875 1.84 1.76 1.82 1.962 1.935 1.977 2.05 1.965 2.012 1.95 1.917 1.945 1.982 1.902 1.887 1.897 1.775 1.777 1.87 1.872 1.835 1.8 1.77 1.875 1.917 1.902 1.987 1.957 1.917 1.925 1.94 1.992 2 1.997 2 1.93 1.912 1.932 1.952 1.987 2.015 2.112 2.052 1.992 1.92 1.947 1.91 1.87 1.847 1.89 1.877 1.817 1.8 1.84 1.877 1.88 1.835 1.795 1.757 1.767 1.835 1.747 1.85 1.81 1.847 1.87 1.847 1.942 1.915 1.892 1.842 1.955 2.01 1.94 1.98 1.94 2.002 1.92 1.997 1.91 1.96 1.897 1.927 1.84 1.912 1.867 1.835 1.835 1.842 1.865 1.875 1.765 1.927 1.927 1.895 1.912 1.942 1.917 1.902 1.937 1.925 1.895 1.932 1.852 1.82 1.865 1.867 1.955 1.927 1.855 1.845 1.787 1.875 1.787 1.885 1.902 1.877 1.93 1.915 1.897 1.925 1.94 1.897 1.972 2.015 1.967 2.002 1.922 1.927 1.945 1.882 1.892 1.92 1.832 1.867 1.8 1.78 1.742 1.774 1.809 1.864 1.884 1.907 1.894 1.942 1.949 1.954 1.989 1.864 1.909 1.874 1.914 1.789 1.894 1.867 1.867 1.872 1.807 1.879 1.897 1.864 1.832 1.762 1.734 1.802 1.829 1.779 1.752 1.767 1.787 1.767 1.872 1.842 1.879 1.882 1.884 1.854 1.872 1.902 1.874 1.917 1.944 2.029 2.024 1.999 1.912 1.907 1.844 1.864 1.842 1.834 1.894 1.889 1.927 1.909 1.957 1.907 1.999 1.899 1.919 1.914 1.957 1.954 1.894 1.944 1.942 1.919 1.922 1.937 1.847 1.897 1.912 1.964 1.894 1.899 1.924 1.907 1.914 1.934 1.912 1.919 1.907 1.937 1.974 1.967 1.924 1.977 1.954 1.964 1.929 1.909 1.844 1.862 1.842 1.812 1.824 1.852 1.897 1.917 1.887 1.914 1.907 1.862 1.927 1.952 1.872 1.914 1.842 1.874 1.867 1.907 1.932 1.969 1.927 2.034 1.997 2.072 1.967 1.974 1.914 1.959 1.894 1.849 1.877 1.849 1.889 1.842 1.867 1.964 1.827 1.879 1.854 1.887 1.852 1.847 1.814 1.844 1.944 1.849 1.932 1.917 1.927 1.919 1.907 1.894 1.967 1.944
-0.604 -0.557 -0.342 -0.14 0.041 0.199 0.51 0.288 0.157 0.124 0.106 0.006 0.033 -0.004 0.04 0.084 0.2 0.298 0.461 0.588 0.746 0.91 1.064 1.03 0.811 0.696 0.632 0.492 0.422 0.385 0.386 0.387 0.369 0.458 0.481 0.276 0.021 -0.168 -0.355 -0.569 -0.648 -0.724 -0.78 -0.732 -0.769 -0.772 -0.942 -1.301 -1.505 -1.732 -2.101 -2.022 -1.712 -1.595 -1.454 -1.077 -0.756 -0.432 -0.187 0.073 0.339 0.582 0.819 1.119 1.92 1.597 1.825 1.967 1.937 1.967 1.92 1.967 1.942 1.912 1.972 1.957 2.002 1.96 1.867 1.787 1.842 1.855 1.905 1.962 1.922 1.84 1.815 1.9 1.93 1.925 1.972 1.947 1.902 2.095 1.917 1.88 1.865 1.922 1.892 1.825 1.937 2.052 1.997 2.012 1.965 1.917 1.867 1.867 1.877 1.875 1.962 1.932 1.9 1.995 1.91 1.975 2.005 2.025 1.972 1.957 1.925 1.882 1.837 1.84 1.897 1.997 1.917 1.957 1.91 1.995 1.857 1.875 1.88 1.907 1.877 1.905 1.895 1.807 1.88 1.93 1.855 1.897 1.88 1.86 1.887 1.86 1.895 1.91 1.805 1.84 1.795 1.947 1.95 1.962 1.987 1.97 1.917 1.937 2.012 2.017 1.96 1.915 1.912 1.927 1.87 1.892 1.965 1.91 1.945 1.865 1.952 1.837 1.827 1.857 1.98 1.982 1.957 1.885 1.95 1.92 1.897 1.947 1.932 2.05 2.03 1.987 1.957 1.912 1.905 1.962 2.005 1.98 1.932 1.94 2.032 2.015 1.977 1.957 1.912 1.942 2.057 1.942 1.875 1.89 1.887 1.94 1.822 1.87 1.897 1.82 1.905 1.86 1.877 1.922 1.857 1.915 1.907 1.932 2 2.102 2.037 2.01 1.892 1.982 1.855 1.952 1.9 1.885 1.92 1.96 1.935 1.915 1.862 1.827 1.852 1.875 1.942 1.975 1.955 2.005 1.975 1.982 1.875 1.872 1.987 2.037 2.01 1.995 1.99 1.937 2.032 1.955 2.015 1.935 1.985 1.927 1.845 1.825 1.947 1.865 1.872 1.895 1.89 1.83 1.87 1.83 1.817 1.89 1.777 1.795 1.822 1.75 1.755 1.792 1.857 1.907 1.867 1.827 1.837 1.925 2.032 1.955 1.962 1.925 1.94 1.942 1.905 1.937 1.9 1.92 1.947 1.945 1.967 1.98 1.952 1.917 1.87 1.825 1.782 1.722 1.837 1.775 1.837 1.932 1.857 1.94 1.9 1.945 1.942 1.907 1.9 1.96 1.88 1.902 1.955 1.84 1.887 1.925 1.92 1.87 1.962 1.895 1.865 1.845 1.852 1.915 1.897 1.917 1.937 1.947 1.917 1.907 1.872 1.95 1.932 1.912 2.02 2.065 1.957 2 1.87 1.932 1.912 1.89 1.922 1.812 1.882 1.822 1.82 1.782 1.882 1.819 1.887 1.909 1.924 2.024 1.969 2.022 2.007 1.959 1.859 1.867 1.909 1.889 1.859 1.814 1.827 1.814 1.872 1.879 1.827 1.814 1.819 1.789 1.772 1.837 1.792 1.789 1.767 1.797 1.717 1.797 1.829 1.892 1.879 1.892 1.862 1.889 1.887 1.907 1.879 1.844 1.877 1.919 1.934 1.972 2.002 1.944 1.909 1.877 1.857 1.819 1.842 1.817 1.872 1.822 1.852 1.854 1.852 1.854 1.917 1.954 1.907 1.899 1.864 1.987 1.949 1.959 1.944 1.934 1.957 1.999 1.942 1.952 1.954 1.932 1.922 1.847 1.894 1.877 1.919 1.914 1.919 1.944 1.932 1.947 2.079 2.037 1.944 1.979 1.957 1.907 1.884 1.874 1.864 1.827 1.837 1.824 1.817 1.824 1.919 1.874 1.879 1.887 1.854 1.989 1.974 1.907 1.954 1.849 1.834 1.859 1.852 1.892 1.929 1.887 1.899 1.997 1.992 2.089 1.972 1.927 1.914 1.969 1.917 1.854 1.839 1.862 1.892 1.824 1.867 1.859 1.847 1.899 1.882 1.827 1.812 1.879 1.882 1.927 1.937 1.932 1.934 1.924 1.954 1.902 1.892 1.917 1.979 1.927
-0.406 -0.368 -0.18 -0.01 0.209 0.397 0.569 0.532 0.43 0.352 0.35 0.299 0.321 0.301 0.361 0.363 0.445 0.567 0.73 0.837 0.949 1.087 1.347 1.212 1.145 1.037 0.801 0.789 0.634 0.625 0.56 0.689 0.668 0.71 0.611 0.457 0.279 0.007 -0.147 -0.251 -0.384 -0.453 -0.514 -0.462 -0.387 -0.694 -0.989 -1.183 -1.44 1.93 -1.774 -2.094 -1.745 -1.513 -1.334 -1.046 -0.71 -0.518 -0.178 0.051 0.313 0.538 0.819 1.073 1.364 2.025 1.93 2.015 1.99 1.962 1.917 1.975 2 1.9 1.937 1.88 1.945 1.852 1.85 1.925 1.972 1.9 1.917 1.875 1.922 1.907 1.942 1.982 1.93 1.937 1.887 1.93 1.92 1.935 1.797 1.81 1.897 1.822 1.985 1.985 2.022 2.007 1.977 1.992 1.965 1.99 1.93 2.022 1.965 1.915 1.985 1.862 1.985 1.955 1.93 1.945 2.005 2.002 1.89 1.855 1.877 1.925 1.875 1.942 1.917 1.942 1.91 1.892 1.842 1.892 1.872 1.96 1.925 1.89 1.952 1.915 1.935 1.945 1.895 1.955 1.96 1.87 1.942 1.87 1.952 1.925 1.937 1.905 1.83 1.815 1.83 1.96 2 1.955 1.935 1.952 2.012 1.972 1.97 2.002 1.965 1.887 1.86 1.882 1.88 1.852 1.957 1.985 1.912 1.862 1.872 1.895 1.82 1.895 2.012 1.937 1.942 1.872 1.937 1.922 1.93 1.98 1.957 1.94 1.97 1.98 1.917 1.847 1.952 1.992 2.02 1.975 1.95 2.002 1.98 1.95 1.94 1.887 1.99 2 1.972 1.897 1.88 1.847 1.852 1.875 1.92 1.842 1.907 1.87 1.922 1.86 1.887 1.94 1.94 1.992 1.96 2.08 2.017 2.11 1.997 1.997 2.012 1.945 1.975 1.942 1.895 1.9 1.875 1.89 1.89 1.955 1.905 1.892 1.81 1.835 1.952 1.977 1.975 1.95 2.04 1.947 1.89 1.92 2.025 2.037 1.98 2.03 2.002 1.93 1.945 1.937 1.89 2.005 1.872 1.91 1.862 1.92 1.897 1.872 1.86 1.937 1.932 1.825 1.78 1.81 1.8 1.822 1.842 1.792 1.762 1.792 1.85 1.865 1.885 1.842 1.785 1.857 1.942 1.905 1.867 1.877 1.877 1.975 2.025 1.935 1.892 1.922 1.955 1.905 1.955 1.942 2.025 1.94 1.972 1.88 1.83 1.795 1.84 1.817 1.87 1.847 1.935 1.905 1.87 1.92 1.872 1.867 1.897 1.84 1.865 1.907 1.85 1.912 1.885 1.917 1.867 1.882 1.925 1.885 1.862 1.822 1.82 1.8 1.907 1.96 1.93 1.952 1.872 1.862 1.91 1.862 1.967 1.93 1.975 1.925 1.907 1.907 1.96 1.917 1.9 1.91 1.91 1.935 1.872 1.845 1.797 1.837 1.762 1.822 1.854 1.864 1.879 1.959 1.884 1.907 1.882 1.912 1.899 1.867 1.874 1.884 1.887 1.894 1.854 1.862 1.884 1.854 1.857 1.857 1.862 1.859 1.847 1.797 1.794 1.827 1.812 1.814 1.852 1.822 1.827 1.872 1.889 1.872 1.994 2.012 1.959 1.942 1.902 1.889 1.839 1.834 1.827 1.849 1.909 1.927 1.917 1.909 1.799 1.847 1.839 1.852 1.787 1.842 1.817 1.862 1.852 1.824 1.824 1.827 1.919 1.892 1.912 1.894 1.889 1.967 1.962 1.947 1.957 1.922 1.962 1.897 1.914 1.902 1.884 1.907 1.907 1.889 1.877 1.879 1.844 1.977 1.929 1.872 1.992 1.944 1.982 1.919 2.012 1.984 1.887 1.869 1.844 1.832 1.832 1.799 1.824 1.857 1.894 1.829 1.907 1.914 1.862 1.889 1.847 1.874 1.922 1.877 1.847 1.772 1.832 1.924 1.864 1.924 1.952 1.919 1.974 1.952 1.954 1.927 1.892 1.882 1.919 1.869 1.862 1.794 1.864 1.874 1.867 1.879 1.877 1.859 1.864 1.922 1.877 1.859 1.922 1.907 1.877 1.907 1.877 1.929 1.904 1.929 1.907 1.899 1.882 1.914 1.917 1.932
-0.123 -0.051 0.114 0.27 0.42 0.589 0.734 0.739 0.692 0.666 0.513 0.589 0.636 0.556 0.626 0.736 0.754 0.86 0.977 1.054 1.161 1.278 1.522 1.425 1.267 1.205 1.055 0.893 0.87 0.878 0.86 0.876 0.958 0.993 0.761 0.566 0.453 0.237 0.11 0.01 -0.128 -0.25 -0.138 -0.221 -0.359 -0.648 -0.831 -1.036 -1.299 -1.418 -1.641 -1.844 -1.675 -1.44 -1.348 1.942 -0.706 -0.447 -0.176 0.039 0.353 0.758 0.942 1.15 2.015 1.798 1.947 2.022 1.997 1.995 1.935 1.875 2.05 1.932 1.88 1.897 1.95 1.92 1.887 1.885 1.862 1.832 1.95 1.94 1.945 1.957 1.987 2.012 2.087 1.97 1.995 1.98 1.927 1.887 1.77 1.852 1.972 1.962 2.082 2.052 2.075 2.107 2.095 2.07 1.982 1.875 1.91 1.95 1.975 1.985 1.955 1.937 1.927 1.995 1.957 1.912 1.88 1.965 1.865 1.835 1.87 1.872 1.827 1.875 1.91 1.847 1.9 1.802 1.735 1.907 1.87 1.925 1.925 1.912 1.992 1.895 1.932 1.972 1.97 1.922 1.86 1.86 1.935 1.887 1.88 1.982 2.025 1.922 1.925 1.89 1.92 1.912 2.017 1.942 1.98 1.985 1.957 1.952 1.965 1.902 1.87 1.877 1.85 1.89 1.972 1.94 1.96 1.845 1.917 2.002 1.96 2.062 1.972 1.852 1.93 1.91 1.992 1.895 1.965 2.11 2.047 1.957 1.95 1.922 1.922 1.91 1.905 1.902 2.005 1.925 1.997 1.992 1.977 1.987 1.995 2.012 2.005 1.942 1.972 1.917 1.947 1.867 1.947 1.827 1.895 1.99 1.902 1.945 1.962 1.882 1.862 1.937 1.87 1.867 1.892 1.952 1.98 2.06 2.002 2.002 1.985 1.975 2 1.957 2.022 1.982 2.01 1.922 1.88 1.84 1.842 1.917 1.89 1.907 1.907 1.93 1.975 1.965 1.95 2.02 2.02 1.98 2.01 2.012 1.977 1.975 1.955 1.927 1.975 1.972 1.955 1.975 1.927 1.972 1.847 1.852 1.887 1.92 1.915 1.86 1.852 1.922 1.947 1.852 1.822 1.877 1.98 1.892 1.897 1.795 1.842 1.847 1.86 1.867 1.89 1.825 1.855 1.847 1.93 1.93 1.915 1.86 1.917 1.972 1.935 1.927 1.982 1.917 1.89 1.982 1.952 1.952 1.91 1.89 1.902 1.887 1.83 1.82 1.89 1.842 2.02 1.92 1.92 1.915 1.867 1.912 1.842 1.852 1.822 1.79 1.905 1.897 1.837 1.872 1.875 1.917 1.9 1.915 1.897 1.84 1.825 1.865 1.837 1.815 1.992 1.965 1.997 1.942 1.912 1.955 1.925 1.935 1.96 2.017 2.002 1.995 2.005 1.942 1.947 1.937 1.945 1.852 1.862 1.875 1.842 1.857 1.837 1.865 1.852 1.805 1.852 1.914 1.864 1.849 1.869 1.834 1.839 1.894 1.862 1.902 1.917 1.837 1.824 1.894 1.839 1.872 1.872 1.879 1.844 1.947 1.917 1.882 1.899 1.897 1.817 1.864 1.854 1.879 1.937 1.909 1.907 1.912 1.899 1.844 1.924 2.004 1.882 1.924 1.867 1.889 1.877 1.827 1.872 1.919 1.899 1.862 1.839 1.894 1.779 1.839 1.879 1.862 1.809 1.774 1.932 1.839 1.842 1.812 1.889 1.852 1.904 1.962 1.924 1.904 1.904 1.974 1.969 1.949 2.044 1.939 1.934 1.877 1.894 1.794 1.819 1.899 1.869 1.962 1.889 1.877 1.949 1.944 1.902 1.889 1.942 1.959 1.922 1.919 1.914 1.884 1.882 1.887 1.912 1.874 1.864 1.912 1.862 1.839 1.907 1.914 1.869 1.904 1.954 1.869 1.874 1.897 1.907 1.859 1.834 1.882 1.952 1.964 1.922 2.019 1.917 1.959 1.997 1.884 1.894 1.889 1.827 1.864 1.884 1.839 1.847 1.849 1.822 1.834 1.844 1.852 1.887 1.877 1.797 1.847 1.862 1.882 1.937 1.889 1.907 1.899 1.907 1.942 1.939 1.862 1.849 1.882 1.872 1.959 1.889 1.857
0.168 0.202 0.344 0.483 0.636 0.837 0.967 1.076 0.949 0.868 0.838 0.896 0.894 0.829 0.829 0.964 0.992 1.085 1.209 1.215 1.388 1.482 1.682 1.573 1.449 1.303 1.109 1.194 1.248 1.128 1.223 1.231 1.232 1.12 0.905 0.701 0.567 0.425 0.267 0.157 0.095 0.074 0.006 -0.056 -0.278 -0.486 -0.756 -0.947 -1.083 -1.278 -1.562 -1.503 -1.451 -1.255 -1.072 1.812 -0.682 -0.405 -0.142 0.092 0.402 2.075 1.058 1.225 1.514 1.737 1.995 1.97 1.982 2.007 1.87 1.907 1.98 2.002 2.08 1.987 1.917 1.9 1.91 1.865 1.955 1.882 1.972 2.087 2 1.967 2.072 2.005 1.922 1.965 1.957 1.885 1.815 1.86 1.87 1.865 1.93 1.987 1.987 1.99 2.015 1.912 1.905 1.97 1.957 1.917 1.915 1.995 2.035 1.975 1.962 1.9 1.915 1.975 1.895 1.905 1.942 1.952 1.972 1.882 1.895 1.922 1.905 1.817 1.782 1.79 1.86 1.81 1.872 1.962 1.905 1.957 1.872 1.887 2.01 1.955 2.012 1.965 1.95 1.955 1.92 1.89 1.882 1.872 1.887 1.947 1.88 1.907 1.957 1.89 1.762 1.827 1.93 1.965 1.907 1.94 1.927 1.937 1.89 1.872 1.97 1.882 1.862 1.817 1.865 1.952 1.932 1.852 1.862 1.972 1.937 2.002 2.13 2.052 1.997 2.012 2.107 2.02 2.067 1.937 1.935 1.93 1.92 1.857 1.895 1.87 1.872 1.897 1.972 1.96 1.887 1.917 1.922 1.935 2.06 2.025 1.917 1.912 2.04 1.957 1.955 1.92 1.932 1.892 1.922 2.027 1.94 1.912 1.917 1.967 1.867 1.942 1.815 1.865 1.892 1.962 1.957 2.065 1.965 1.99 2.03 1.952 1.945 1.955 1.96 1.927 1.98 1.932 1.925 1.865 1.885 1.922 1.855 1.927 1.9 1.995 1.932 1.977 1.977 1.94 1.947 2.02 2.067 2.037 1.947 1.985 1.92 1.957 1.94 1.982 1.935 1.86 1.937 1.875 1.917 1.89 1.947 1.865 1.852 1.89 1.835 2.015 1.917 1.875 1.897 1.89 1.905 1.9 1.825 1.87 1.982 1.935 1.937 1.977 1.96 1.85 1.885 1.92 1.932 1.877 1.912 1.957 2.022 1.937 1.945 1.86 1.865 1.862 1.897 1.94 1.95 1.99 1.867 1.825 1.885 1.842 1.787 1.852 1.987 1.93 1.975 1.92 2.022 1.965 1.912 1.865 1.907 1.895 1.855 1.877 1.882 1.87 1.84 1.847 1.877 1.955 1.912 1.91 1.837 1.822 1.907 1.91 1.957 1.9 1.967 1.942 1.945 1.92 1.935 1.942 1.96 1.962 1.982 1.952 2.1 2.06 1.967 1.93 1.955 1.87 1.852 1.942 1.822 1.835 1.802 1.89 1.88 1.887 1.885 1.91 1.879 1.932 1.964 1.852 1.847 1.879 1.944 1.962 1.909 1.934 1.874 1.862 1.857 1.834 1.839 1.824 1.849 1.867 1.854 1.909 1.899 1.872 1.834 1.744 1.957 1.849 1.977 1.879 1.919 1.899 1.884 1.904 1.934 1.914 1.864 1.857 1.892 1.914 1.867 1.832 1.869 1.812 1.849 1.884 1.887 1.807 1.792 1.754 1.764 1.919 1.914 1.872 1.847 1.864 1.844 1.842 1.849 1.834 1.834 1.882 1.852 1.932 1.922 1.877 1.914 1.887 1.942 1.962 1.894 1.862 1.857 1.834 1.857 1.859 1.922 1.947 1.952 1.942 1.947 1.884 1.939 1.939 1.947 1.964 1.917 2.007 1.987 1.934 1.947 1.884 1.864 1.859 1.877 1.879 1.917 1.927 1.914 1.842 1.884 1.917 1.947 1.869 1.867 1.839 1.829 1.849 1.917 1.869 1.859 1.847 1.977 2.074 1.997 1.939 1.922 1.954 1.944 1.849 1.832 1.802 1.784 1.824 1.904 1.829 1.922 1.872 1.854 1.904 1.909 1.874 1.792 1.849 1.814 1.832 1.859 1.932 1.907 1.887 1.904 1.904 2.029 2.034 1.977 1.897 1.862 1.889 1.874 1.854 1.862 1.794
0.448 0.514 0.572 0.694 0.82 1.016 1.136 1.258 1.247 1.168 1.234 1.052 1.149 1.097 1.143 1.197 1.247 1.286 1.332 1.54 1.607 1.633 1.84 1.744 1.737 1.577 1.541 1.364 1.383 1.38 1.435 1.446 1.454 1.266 1.17 0.948 0.782 0.668 0.532 0.449 0.355 0.267 0.335 0.2 -0.094 -0.355 -0.567 -0.789 -0.962 -1.048 -1.229 -1.275 -1.204 -1.008 -0.937 -0.757 -0.495 -0.34 -0.09 0.239 0.568 0.708 0.967 1.245 1.509 1.709 1.967 1.927 1.875 1.972 1.922 1.987 1.985 1.955 1.965 1.987 1.915 2.015 1.852 1.875 1.955 2.01 1.96 1.97 1.932 1.917 1.935 1.875 1.907 1.907 1.865 1.887 1.832 1.952 1.945 1.865 1.975 2.035 1.982 1.975 1.91 1.86 1.97 1.957 2.012 1.892 1.97 1.95 2.005 1.937 1.902 1.862 1.852 1.877 1.85 1.967 1.88 1.875 1.837 1.882 1.887 1.865 1.92 1.872 1.815 1.88 1.892 1.99 2.025 1.997 1.95 1.967 1.855 1.897 1.985 2.112 1.977 1.962 1.862 1.855 1.857 1.897 1.85 1.882 1.807 1.88 1.967 1.98 1.972 2.005 1.922 1.962 2.007 1.955 1.892 1.952 1.852 1.905 1.837 1.915 1.95 2.047 1.952 1.95 2 1.885 1.81 1.902 1.867 1.942 2.005 1.997 2.085 2.027 1.922 1.922 2.017 1.99 1.967 1.94 2.017 1.952 1.89 1.835 1.927 1.887 1.812 1.92 1.907 1.9 1.94 1.95 1.972 2.025 1.985 1.975 1.965 1.955 1.967 1.89 1.9 1.947 1.932 1.932 1.937 1.947 1.985 2.015 1.925 1.91 1.922 1.865 1.832 1.832 1.855 1.905 1.93 1.965 2.017 1.905 1.877 1.917 1.96 1.965 1.897 1.955 1.865 1.845 1.86 1.875 2 1.907 1.885 1.982 1.977 1.925 1.94 1.985 2.077 1.947 1.922 1.922 1.947 2.055 1.912 1.937 1.91 1.95 1.902 1.867 1.9 1.865 1.84 1.822 1.827 1.95 1.95 1.932 1.955 1.892 1.902 1.895 1.892 1.96 1.912 1.972 1.937 2.005 1.89 1.875 1.96 1.91 1.935 1.945 1.94 1.902 1.887 1.897 1.832 1.822 1.86 1.865 2.02 1.952 1.915 1.892 1.865 1.875 1.98 1.99 1.99 1.98 1.845 1.827 1.892 1.88 1.84 1.922 1.835 1.94 1.987 2.08 2.035 1.93 1.912 1.92 1.927 1.905 1.832 1.865 1.87 1.862 1.887 1.93 1.892 1.897 1.872 1.865 1.835 1.935 1.94 1.922 1.917 1.94 1.962 1.89 1.875 1.915 1.975 1.962 2.037 1.982 2.002 1.97 2.025 2 1.91 1.85 1.875 1.88 1.847 1.842 1.795 1.83 1.875 1.985 1.917 1.915 1.895 1.885 1.917 1.882 2.037 1.889 1.909 1.964 1.959 1.912 1.907 1.899 1.862 1.854 1.854 1.837 1.827 1.807 1.817 1.849 1.882 1.864 1.837 1.819 1.869 1.819 1.874 1.847 1.907 1.819 1.892 1.959 1.914 1.912 1.962 1.914 1.844 1.917 1.879 1.834 1.749 1.794 1.772 1.852 1.809 1.887 1.852 1.859 1.792 1.784 1.822 1.899 1.959 1.917 1.862 1.894 1.922 1.862 1.799 1.849 1.824 1.777 1.854 1.817 1.862 1.949 1.842 1.894 1.854 1.847 1.884 1.869 1.927 1.879 1.894 1.957 1.914 2.037 1.934 1.884 1.944 1.909 1.967 1.949 2.027 1.952 1.894 1.924 1.987 1.892 1.912 1.872 1.897 1.857 1.884 1.867 1.884 1.849 1.852 1.889 1.919 1.962 1.892 1.874 1.847 1.847 1.852 1.822 1.824 1.824 1.904 1.894 1.944 1.907 1.879 1.924 1.917 1.927 1.892 1.824 1.824 1.817 1.762 1.814 1.867 1.814 1.914 1.859 1.869 1.857 1.882 1.877 1.847 1.812 1.862 1.812 1.954 1.947 1.924 1.937 1.909 1.962 1.997 1.997 1.919 1.874 1.809 1.857 1.832 1.814 1.814 1.762
0.66 0.716 0.859 0.962 1.069 1.175 1.323 1.466 1.473 1.485 1.416 1.329 1.34 1.448 1.347 1.419 1.455 1.489 1.587 1.716 1.841 1.862 1.825 1.805 1.69 1.867 1.821 1.644 1.64 1.672 1.716 1.617 1.741 1.576 1.392 1.182 1.017 0.955 1.965 0.61 0.683 0.537 0.451 0.281 0.045 -0.189 -0.358 -0.54 -0.791 -0.888 -0.945 -1.029 -0.949 -0.961 -0.796 -0.513 -0.341 -0.196 0.04 0.297 0.577 0.829 1.094 1.352 1.549 1.802 1.93 1.905 1.86 1.912 1.915 1.975 1.935 1.94 1.84 1.897 1.99 1.925 1.835 1.92 1.92 1.942 1.98 1.962 1.882 1.917 1.845 1.862 1.89 1.922 1.83 1.87 1.82 1.812 1.945 1.915 1.845 1.957 1.94 1.945 1.972 1.965 1.972 1.87 1.937 1.907 1.927 1.96 1.925 1.902 1.912 1.815 1.84 1.95 1.965 1.842 1.875 1.972 1.88 1.897 1.942 1.905 1.902 1.852 1.932 1.88 2.017 2.007 1.992 2.04 2.037 1.99 1.972 1.947 1.942 1.945 1.932 2.037 1.922 1.91 1.922 1.872 1.952 1.932 1.955 1.925 1.9 1.922 1.977 2 1.975 1.992 2.005 1.932 1.907 1.9 1.852 1.922 2.052 1.96 1.997 2.045 2 1.945 1.945 1.957 1.917 1.902 1.937 1.9 1.992 1.945 1.95 1.992 2.017 1.932 1.97 1.995 1.94 1.87 1.957 1.95 1.925 1.875 1.892 1.89 1.912 1.927 1.987 1.922 1.88 1.907 1.915 2 2.015 1.98 1.96 1.945 1.91 1.94 1.945 2.062 2.112 1.992 1.952 1.907 1.942 1.895 1.87 1.862 1.862 1.95 1.92 1.947 1.935 2.03 1.957 1.902 1.937 1.89 1.985 1.862 1.915 1.937 1.915 1.865 1.817 1.855 1.925 1.88 1.902 1.967 1.937 1.962 1.922 1.965 1.915 1.977 2.022 2.015 1.955 1.98 1.96 1.947 1.905 1.942 1.917 1.957 1.91 1.892 1.89 1.792 1.817 1.842 1.817 1.865 1.902 1.922 1.945 1.89 1.922 1.932 1.96 2.015 2.092 2.037 1.995 1.985 1.915 1.95 1.955 1.875 2.025 1.83 1.89 1.9 1.815 1.802 1.797 1.787 1.85 1.852 1.91 1.872 1.902 1.88 1.87 1.912 1.877 1.927 1.927 1.865 1.852 1.815 1.84 1.847 1.86 1.86 1.842 1.84 1.92 2.027 1.952 1.977 1.875 1.867 1.862 1.897 1.865 1.812 1.855 1.882 1.907 1.92 1.862 1.86 1.817 1.807 1.812 1.99 1.887 1.872 1.89 1.925 1.957 1.952 1.927 1.955 1.987 1.88 1.995 2.022 2.005 2.047 1.927 1.975 1.89 1.91 1.845 1.81 1.815 1.837 1.815 1.845 1.92 1.932 1.872 1.9 1.795 1.82 1.894 1.884 1.969 1.972 1.924 1.937 1.919 1.927 1.904 1.827 1.787 1.817 1.859 1.839 1.822 1.792 1.797 1.857 1.894 1.849 1.842 1.857 1.882 1.909 1.842 1.912 1.884 1.887 1.944 1.929 1.872 1.944 1.927 1.847 1.794 1.779 1.804 1.762 1.759 1.779 1.817 1.802 1.804 1.847 1.829 1.857 1.837 1.884 1.899 1.904 1.894 1.869 1.817 1.907 1.859 1.839 1.807 1.814 1.817 1.777 1.817 1.889 1.877 1.837 1.797 1.817 1.792 1.817 1.807 1.882 1.864 1.847 1.919 1.959 1.949 1.899 1.874 1.874 1.887 1.867 1.999 1.969 2.017 1.957 1.934 1.962 1.922 1.929 1.889 1.952 1.964 1.887 1.809 1.847 1.909 1.947 1.917 1.879 1.917 1.904 1.892 1.847 1.824 1.854 1.882 1.789 1.879 1.837 1.862 1.894 1.912 1.924 1.872 1.892 1.897 1.919 1.819 1.799 1.832 1.827 1.862 1.872 1.914 1.937 1.889 1.849 1.877 1.882 1.897 1.909 1.822 1.922 1.927 1.947 1.914 1.917 1.917 1.962 1.927 1.967 1.947 1.914 1.842 1.814 1.782 1.809 1.877 1.804 1.802 1.777
0.816 0.941 1.077 1.218 1.317 1.326 1.45 1.595 1.655 1.68 1.762 1.597 1.565 1.574 1.643 1.689 1.74 1.806 1.827 1.835 1.83 1.887 1.87 1.895 1.847 1.977 1.942 1.752 1.832 1.905 1.937 1.905 1.834 1.761 1.7 1.495 1.281 1.171 2.005 1.014 0.902 0.851 0.595 0.421 0.226 -0.051 -0.271 -0.362 -0.44 -0.62 -0.713 -0.791 -0.756 -0.636 -0.497 -0.378 1.947 0.071 0.224 0.508 0.71 0.928 1.139 1.414 1.681 1.909 1.937 1.952 2.002 2.032 1.977 1.855 1.97 1.97 1.882 1.872 1.97 1.977 1.955 1.97 1.885 1.937 1.845 1.835 1.857 1.955 1.802 1.867 1.882 1.885 1.862 1.865 1.962 1.892 1.94 1.955 1.987 1.907 1.98 1.985 1.93 2.037 2.077 1.962 1.972 2.002 1.905 1.99 1.905 1.847 1.892 1.787 1.852 1.937 1.832 1.835 2 1.935 1.937 2.012 1.925 1.855 1.845 1.882 2.015 1.985 2.03 1.95 1.88 1.895 1.985 1.932 2.047 1.975 1.95 1.862 1.875 1.91 1.847 1.892 1.975 1.882 1.902 1.972 1.865 1.847 1.927 1.845 1.912 1.977 1.937 1.925 1.895 1.887 1.897 1.935 1.92 1.975 1.97 1.947 1.972 1.932 1.987 1.99 1.947 1.992 2.002 1.895 1.922 1.975 1.945 2.002 1.947 1.935 1.905 2.002 1.96 1.9 1.92 1.942 1.95 1.85 1.852 1.892 1.922 1.912 1.847 1.925 1.947 1.942 1.87 1.957 1.92 2.045 2.08 1.972 1.922 1.91 2.015 1.942 2.01 1.945 1.962 1.992 1.94 1.88 1.975 1.847 1.78 1.82 1.915 1.835 1.902 1.985 1.967 1.952 1.892 1.937 1.92 1.937 1.897 1.892 1.9 1.937 1.917 1.91 1.902 1.95 1.882 1.92 1.877 2.02 1.947 1.98 1.92 1.972 1.952 1.955 1.957 1.97 1.952 1.932 1.947 1.912 1.842 1.892 1.94 1.922 1.84 1.88 1.892 1.82 1.88 1.99 1.937 1.885 2.017 1.885 1.935 1.92 1.88 1.935 1.947 1.99 1.987 2.007 1.987 1.947 1.947 1.962 1.917 1.94 1.967 1.882 1.855 1.857 1.775 1.782 1.777 1.825 1.957 1.88 1.852 1.815 1.912 1.895 1.882 1.877 1.897 1.957 1.962 1.892 1.922 1.905 1.857 1.842 1.895 1.855 1.942 1.93 1.96 1.937 1.925 1.902 1.91 1.87 1.92 1.935 1.915 1.882 1.892 1.92 1.857 1.855 1.86 1.835 1.815 1.89 1.76 1.922 1.8 1.927 1.957 1.887 1.96 1.905 2.025 1.935 1.962 1.955 2.03 2.037 2.057 1.975 1.915 1.855 1.837 1.81 1.797 1.88 1.797 1.872 1.865 1.9 1.937 1.902 1.96 1.915 1.84 1.852 1.852 1.894 1.889 1.914 1.909 1.899 1.992 1.877 1.822 1.832 1.822 1.819 1.799 1.839 1.804 1.872 1.822 1.842 1.864 1.852 1.782 1.899 1.957 1.909 1.887 1.889 1.942 1.867 1.872 1.842 1.789 1.837 1.882 1.752 1.789 1.779 1.724 1.742 1.762 1.759 1.789 1.814 1.794 1.834 1.854 1.914 1.932 1.957 1.917 1.922 1.867 1.884 1.884 1.834 1.839 1.839 1.779 1.869 1.802 1.864 1.867 1.859 1.922 1.869 1.769 1.834 1.867 1.832 1.817 1.869 1.904 1.854 1.904 1.892 1.937 1.917 1.899 1.917 1.939 1.914 1.997 2.027 2.039 1.939 1.949 1.857 1.864 1.924 1.879 1.877 1.809 1.872 1.964 1.867 1.899 1.874 1.887 1.937 1.879 1.894 1.889 1.887 1.842 1.899 1.862 1.867 1.877 1.837 1.807 1.912 1.864 1.839 1.834 1.839 1.899 1.877 1.794 1.747 1.797 1.792 1.827 1.907 1.964 1.892 1.884 1.889 1.877 1.879 1.937 1.974 1.854 1.909 1.852 1.902 1.947 1.994 1.944 1.972 1.974 1.967 1.864 1.869 1.832 1.807 1.797 1.874 1.842 1.844 1.832 1.794
0.969 1.242 1.368 1.481 1.476 1.57 1.75 1.85 1.887 1.847 1.887 1.907 1.932 1.885 1.972 1.99 1.847 1.872 1.875 1.905 1.902 1.925 1.892 1.992 1.977 1.965 2.025 1.985 1.86 1.975 1.987 1.982 1.89 1.912 1.684 1.616 1.522 1.441 1.394 1.259 1.198 1.044 0.79 0.666 0.364 0.157 -0.138 -0.192 -0.288 -0.442 -0.473 -0.432 -0.474 -0.448 -0.253 -0.146 0.013 0.135 0.397 0.599 0.771 1.009 1.219 1.49 1.731 1.88 1.945 1.92 1.945 1.93 1.925 1.887 1.862 1.977 1.92 1.865 1.925 1.885 1.822 1.88 1.927 1.987 1.902 1.847 1.87 1.907 1.875 1.835 1.817 1.877 1.867 1.87 1.995 1.94 1.977 1.965 1.977 1.9 1.915 1.977 2.037 2.097 1.98 1.995 1.95 1.88 1.875 1.887 1.842 1.89 1.937 1.88 1.937 1.9 1.91 1.882 1.96 2 1.982 2.017 1.962 1.902 1.945 1.985 1.955 1.962 2 1.907 1.89 1.915 1.92 1.98 1.99 1.952 1.94 1.88 1.907 1.89 1.977 1.947 1.865 1.832 1.87 1.905 1.79 1.855 1.842 1.887 1.9 1.92 1.922 1.875 1.907 1.915 1.867 1.92 1.94 1.962 2.005 2.055 1.987 1.935 1.95 1.952 1.895 1.887 1.902 1.91 1.945 1.97 1.932 1.902 1.937 1.865 1.955 1.93 1.887 1.932 1.907 1.922 1.905 1.91 1.877 1.87 1.875 1.947 1.915 1.915 1.932 1.915 1.93 1.967 1.98 1.952 1.982 2.032 1.792 1.885 1.97 1.927 1.942 1.93 1.91 1.91 1.91 1.95 1.9 1.867 1.822 1.932 1.855 1.942 1.905 1.885 1.915 1.932 1.925 1.857 1.89 1.897 1.9 1.887 1.917 1.97 1.945 1.84 1.9 1.87 1.935 1.937 1.93 1.957 1.98 1.932 1.927 1.935 1.905 1.967 1.932 1.992 1.937 1.915 1.925 1.89 1.787 1.862 2.022 1.91 1.91 1.875 1.895 1.967 1.937 2.012 2.02 1.972 1.915 1.862 1.965 1.902 1.897 1.932 1.992 1.912 1.912 1.975 1.962 1.935 1.925 1.922 1.88 1.842 1.867 1.82 1.847 1.905 1.832 1.845 1.762 1.835 1.925 1.905 1.85 1.837 1.822 1.887 1.902 1.917 1.887 1.967 1.942 1.912 1.855 1.875 1.905 1.837 1.895 1.955 2.01 1.907 1.95 1.93 1.89 1.895 1.897 1.917 1.96 1.977 1.955 1.917 1.912 1.935 1.905 1.917 1.827 1.892 1.925 2.03 1.85 1.942 1.96 2.007 1.957 1.865 1.86 1.887 1.94 1.892 1.925 2.032 2.072 1.967 1.97 1.91 1.855 1.817 1.767 1.872 1.837 1.942 1.93 1.925 1.972 1.887 1.932 1.92 1.9 1.845 1.892 1.85 1.857 1.849 1.837 1.837 1.897 1.922 1.872 1.889 1.839 1.879 1.899 1.884 1.852 1.912 1.937 1.957 1.849 1.892 1.854 1.814 1.867 1.887 1.902 1.907 1.882 1.879 1.907 1.872 1.804 1.757 1.747 1.807 1.854 1.757 1.782 1.734 1.727 1.759 1.769 1.797 1.822 1.879 1.912 1.927 1.934 1.912 2.014 1.934 1.959 1.932 1.824 1.864 1.832 1.839 1.847 1.807 1.779 1.757 1.779 1.814 1.792 1.747 1.844 1.784 1.782 1.839 1.857 1.839 1.819 1.932 1.929 1.899 1.894 1.892 1.882 1.872 1.867 1.882 1.882 1.949 2.012 1.984 2.004 1.942 1.887 1.887 1.852 1.889 1.889 1.902 1.842 1.874 1.894 1.907 1.854 1.899 1.917 1.884 1.937 1.889 1.872 1.847 1.914 1.899 1.867 1.842 1.819 1.867 1.859 1.812 1.834 1.862 1.872 1.812 1.794 1.859 1.829 1.769 1.842 1.827 1.907 1.922 1.902 1.854 1.859 1.907 1.904 1.884 1.892 1.882 1.924 1.857 1.957 1.969 2.027 1.997 1.922 1.884 1.877 1.847 1.797 1.804 1.784 1.862 1.827 1.847 1.877 1.892 1.864 1.877
1.021 1.277 1.523 1.657 1.738 1.796 1.967 1.81 1.895 1.905 2.04 2.012 1.975 1.962 1.99 1.97 1.865 1.952 1.967 1.97 1.985 2.015 2.047 1.977 1.985 1.922 1.91 2.057 1.967 1.91 1.95 1.9 1.89 1.98 1.882 1.936 1.788 1.744 1.582 1.496 1.331 1.081 0.975 0.833 0.569 0.357 0.162 0.074 -0.09 -0.156 -0.123 -0.298 -0.319 -0.17 1.852 0.085 0.276 0.433 0.549 0.717 0.941 1.099 1.837 1.704 1.902 1.955 2.012 2.01 2.052 1.93 1.94 1.842 1.807 1.807 1.857 1.802 1.847 1.972 1.94 1.862 1.952 1.89 1.892 1.945 1.922 1.91 1.927 1.86 1.857 1.847 1.847 1.867 1.895 1.885 1.925 1.877 1.942 1.897 1.92 1.955 1.907 1.927 1.907 1.907 1.885 1.877 1.87 1.877 1.792 1.89 1.922 2.052 2.035 1.967 1.935 1.965 2.107 2.02 1.965 1.96 1.997 1.917 2.015 1.96 1.925 2 2.072 1.97 1.98 1.952 1.95 1.977 1.96 1.95 1.915 1.947 1.945 2.007 1.902 1.89 1.977 1.872 1.882 1.912 1.845 1.877 1.962 1.992 1.95 1.985 1.925 1.827 1.905 1.935 1.837 1.992 2 1.967 1.977 1.987 2.005 1.977 1.905 1.922 1.922 1.9 1.89 1.857 1.882 1.855 2.047 1.985 1.897 1.885 1.935 1.91 1.905 1.877 1.855 1.952 1.94 1.867 1.83 1.935 1.885 1.872 1.922 1.965 2.02 1.922 1.932 1.945 1.962 1.972 1.99 2.005 1.955 1.97 1.952 1.92 1.925 1.94 1.917 1.9 1.892 1.915 1.89 1.937 1.795 1.79 1.822 1.872 1.87 1.917 1.937 1.862 1.907 1.902 1.907 1.875 1.932 1.912 1.94 1.892 1.842 1.897 1.882 1.875 1.985 1.942 1.9 1.89 1.855 1.85 1.875 1.897 1.927 1.97 1.9 1.947 1.895 1.885 1.902 1.932 1.925 1.902 1.922 1.957 1.957 1.912 1.88 1.905 1.885 1.962 1.945 1.937 1.902 1.897 1.957 1.857 1.927 1.892 1.925 1.902 1.857 1.89 1.87 1.89 1.895 1.875 1.877 1.865 1.82 1.882 1.81 1.85 1.817 1.892 1.915 1.902 1.895 1.857 1.867 1.87 1.887 2.002 2.002 1.945 1.91 1.907 1.892 1.872 1.852 1.865 1.847 1.86 1.872 1.89 1.922 1.937 2.025 1.902 1.91 1.922 1.89 1.955 1.957 1.977 1.972 1.95 1.935 1.882 1.925 1.897 1.892 1.87 1.985 1.947 1.882 1.922 1.95 1.93 1.847 1.847 1.807 1.91 1.907 1.9 1.965 1.977 2.015 2.002 1.892 1.845 1.805 1.9 1.94 1.88 1.847 1.87 1.932 1.875 1.895 1.92 1.862 1.87 1.84 1.83 1.845 1.807 1.857 1.849 1.849 1.852 1.824 1.879 1.884 1.924 1.917 1.939 1.867 1.867 1.872 1.812 1.844 1.864 1.919 1.939 1.904 1.877 1.914 1.947 1.984 1.984 1.869 1.867 1.834 1.807 1.772 1.807 1.769 1.794 1.737 1.722 1.729 1.674 1.734 1.844 1.812 1.872 1.892 1.914 2.002 1.979 1.907 1.837 1.927 1.932 1.922 1.852 1.812 1.834 1.832 1.797 1.817 1.717 1.797 1.794 1.759 1.794 1.797 1.844 1.834 1.789 1.929 1.884 1.879 1.877 1.944 1.954 1.974 1.977 1.922 1.869 1.839 1.877 1.884 1.827 1.964 1.904 1.962 1.947 1.957 1.932 1.902 1.852 1.884 1.894 1.897 1.877 1.922 1.919 1.957 1.917 1.922 1.874 1.907 1.979 1.932 1.942 1.919 1.849 1.864 1.844 1.849 1.842 1.802 1.799 1.834 1.817 1.829 1.864 1.852 1.819 1.824 1.797 1.794 1.784 1.824 1.872 1.949 1.892 1.927 1.864 1.864 1.867 1.897 1.877 1.834 1.854 1.854 1.859 1.867 1.977 1.894 1.902 1.859 1.862 1.884 1.832 1.779 1.819 1.839 1.832 1.842 1.869 1.854 1.884 1.819 1.882
1.12 1.329 1.636 1.923 1.922 1.932 1.95 1.942 1.892 1.91 1.977 2.055 2.047 2.012 2.017 1.94 1.97 1.927 1.955 1.912 1.955 1.9 1.93 1.99 1.94 1.952 1.97 2.017 1.99 1.932 1.985 2.047 1.97 2.035 2.01 1.952 1.94 1.899 1.809 1.707 1.506 1.285 1.115 0.93 0.774 0.609 0.386 0.238 0.161 0.12 0.103 0.037 0.129 0.137 0.191 0.258 1.857 0.56 0.699 0.886 1.114 1.276 1.937 1.719 2.052 2.025 1.955 1.982 1.972 1.965 1.922 1.84 1.917 1.757 1.775 1.772 1.922 1.947 1.9 1.847 1.81 1.887 1.807 1.852 2.007 1.897 1.95 1.895 1.84 1.87 1.925 1.92 1.95 1.88 1.89 1.982 1.877 1.885 1.877 1.842 1.84 1.917 1.815 1.832 1.915 1.907 1.935 1.877 1.857 1.895 2.007 1.957 2.017 1.98 1.935 2.012 2.077 1.975 1.93 1.877 1.885 1.957 1.95 1.92 1.925 1.975 1.98 1.9 1.942 1.947 1.935 1.952 1.95 1.94 1.915 1.947 2.015 1.997 1.94 1.902 1.892 1.862 1.847 1.917 1.955 1.862 1.9 1.93 1.9 1.93 1.925 1.93 1.95 1.91 1.905 1.997 1.905 1.957 1.942 1.945 1.975 1.91 1.91 1.962 1.915 1.872 1.92 1.932 1.852 1.875 1.927 1.97 1.945 1.957 1.97 1.94 1.955 1.917 1.89 1.927 1.93 1.892 1.912 1.865 1.922 1.895 1.96 1.942 1.917 1.887 1.925 1.997 1.962 1.985 2.035 1.972 1.97 1.992 1.992 1.872 1.89 1.912 1.925 2.017 1.865 1.937 1.822 1.797 1.865 1.832 1.852 1.885 1.872 1.887 1.827 1.88 1.875 1.882 1.875 1.947 1.907 1.887 1.93 1.902 1.882 1.942 1.977 1.875 1.932 1.977 2 1.827 1.857 1.915 1.86 1.957 1.93 1.92 1.912 1.942 1.902 1.927 1.88 1.872 1.94 1.95 1.932 1.975 1.932 1.91 1.922 1.93 1.882 1.897 1.895 1.965 1.902 1.902 1.865 1.852 1.982 1.9 1.92 1.905 1.817 1.865 1.855 1.837 1.855 1.907 1.85 1.827 1.86 1.877 1.795 1.815 1.87 1.875 1.89 1.935 1.947 1.885 1.86 1.907 1.885 1.907 1.98 1.942 1.945 1.932 1.862 1.845 1.865 1.95 1.885 1.922 1.887 1.885 2.017 1.9 1.832 1.922 1.897 1.857 1.862 1.907 1.96 1.892 1.885 1.895 1.827 1.86 1.847 1.847 1.892 1.872 1.915 1.885 1.885 1.872 1.887 1.88 1.827 1.832 1.897 1.905 1.98 1.94 1.857 1.975 1.945 1.915 1.887 1.835 1.825 1.877 1.912 1.915 1.895 1.852 1.88 1.922 1.895 1.797 1.885 1.845 1.887 1.84 1.85 1.855 1.842 1.847 1.872 1.894 1.899 1.912 1.969 1.929 1.864 1.872 1.824 1.809 1.777 1.827 1.812 1.864 1.949 1.887 1.894 1.864 1.862 1.877 1.914 1.942 1.914 1.894 1.847 1.817 1.787 1.744 1.802 1.742 1.724 1.749 1.739 1.729 1.789 1.872 1.912 1.887 1.954 1.949 1.997 1.894 1.862 1.834 1.874 1.902 1.834 1.832 1.852 1.789 1.769 1.769 1.787 1.692 1.702 1.792 1.839 1.842 1.837 1.834 1.919 1.857 1.864 1.959 1.917 1.937 1.917 1.949 1.952 1.902 1.847 1.837 1.874 1.784 1.844 1.839 1.897 1.922 1.949 1.947 1.869 1.917 1.894 1.912 1.919 1.847 1.869 1.879 1.937 1.902 1.917 1.937 1.889 1.859 1.894 1.944 1.989 1.892 1.857 1.834 1.904 1.844 1.832 1.827 1.819 1.852 1.802 1.794 1.752 1.824 1.807 1.819 1.784 1.772 1.762 1.867 1.904 1.912 1.962 1.934 1.919 1.852 1.882 1.869 1.917 1.959 1.882 1.824 1.849 1.859 1.937 1.909 1.922 1.877 1.854 1.914 1.857 1.797 1.814 1.772 1.837 1.769 1.807 1.867 1.869 1.922 1.924 1.922
1.254 1.438 1.786 1.9 1.872 1.885 1.89 1.955 2.02 2.01 2.147 2.17 1.972 1.97 1.927 1.855 1.975 1.952 2.1 1.98 1.98 1.942 1.962 1.942 1.94 1.92 1.902 1.882 1.957 1.995 2.062 2.017 1.975 2.077 1.982 1.917 1.887 1.87 1.952 1.771 1.741 1.464 1.237 1.18 1.004 0.829 0.682 0.541 0.421 0.358 0.355 0.344 0.329 0.359 0.436 0.488 0.6 0.766 0.901 1.169 1.299 1.438 1.694 1.877 1.982 1.95 1.95 1.957 1.905 1.91 1.917 1.95 1.915 1.882 1.845 1.875 1.892 1.897 1.815 1.865 1.777 1.835 1.9 1.937 1.917 1.982 1.86 1.882 1.89 1.827 1.872 1.907 1.85 1.825 1.95 2.02 1.792 1.872 1.887 1.92 1.895 1.957 1.94 1.862 1.907 1.937 1.88 2.09 1.977 1.967 1.982 1.992 1.975 1.907 1.955 1.965 1.935 1.92 1.892 1.89 1.905 1.89 1.897 1.915 1.972 1.992 1.97 1.932 2.06 1.967 1.967 1.922 1.927 1.962 1.89 2.007 1.857 1.85 1.947 1.915 1.94 1.967 1.91 1.892 1.927 1.88 1.847 1.85 1.915 1.902 1.872 1.88 1.962 1.925 1.93 1.932 2.047 1.917 1.995 1.957 1.977 1.925 1.875 1.967 1.895 1.94 1.962 1.947 1.91 1.935 1.875 1.855 1.852 1.927 1.922 1.99 1.93 1.987 1.975 1.942 1.915 1.875 1.862 1.84 1.832 1.877 1.927 1.91 1.935 2 1.97 1.932 1.902 1.937 1.93 1.99 1.975 1.945 1.907 1.925 1.867 1.887 1.9 1.89 1.872 1.827 1.857 1.785 1.802 1.897 1.855 1.835 1.83 1.797 1.89 1.87 1.857 1.9 1.942 2.005 1.897 1.96 1.965 1.912 1.902 1.935 1.9 1.942 2.002 1.915 1.882 1.822 1.842 1.942 1.885 1.89 1.935 1.887 1.937 2 1.95 1.945 1.912 1.912 1.892 1.892 1.93 1.965 1.825 1.92 1.957 1.947 1.93 1.95 2.002 1.847 1.87 1.885 1.827 1.865 1.96 1.9 1.917 1.915 1.872 1.78 1.845 1.835 1.842 1.85 1.807 1.855 1.85 1.915 1.852 1.812 1.752 1.857 1.897 1.875 1.907 1.852 1.927 1.97 1.957 1.952 1.93 1.99 1.892 1.93 1.817 1.802 1.787 1.855 1.84 1.82 1.882 1.907 1.927 1.912 1.88 1.91 1.842 1.855 1.875 1.875 1.927 1.862 1.967 1.9 1.915 1.855 1.812 1.84 1.922 1.865 1.9 1.947 1.967 1.822 1.882 1.837 1.84 1.927 1.867 2.03 2.1 1.995 1.96 1.932 1.922 1.902 1.865 1.912 1.807 1.905 1.942 1.935 1.872 1.877 1.837 1.885 1.837 1.802 1.725 1.835 1.885 1.81 1.895 1.855 1.879 1.849 1.897 1.937 1.924 1.942 1.899 1.972 1.872 1.874 1.812 1.887 1.787 1.862 1.847 1.902 1.844 1.849 1.864 1.842 1.867 1.914 1.937 1.914 1.897 1.874 1.812 1.717 1.767 1.742 1.834 1.797 1.799 1.694 1.877 1.849 1.932 1.844 2.157 2.022 1.982 1.959 1.889 1.867 1.859 1.879 1.857 1.877 1.789 1.759 1.879 1.819 1.767 1.802 1.724 1.722 1.812 1.832 1.914 1.864 1.912 1.859 1.894 1.964 1.962 1.969 1.892 1.934 1.869 1.897 1.957 1.839 1.899 1.792 1.759 1.824 1.799 1.864 1.879 1.922 1.889 1.889 1.929 1.949 1.877 1.952 1.902 1.867 1.942 1.967 1.902 1.904 1.874 1.884 1.849 1.879 1.909 1.887 1.872 1.869 1.842 1.839 1.884 1.849 1.837 1.804 1.804 1.802 1.789 1.797 1.819 1.874 1.877 1.804 1.784 1.774 1.834 1.949 1.977 1.987 1.967 1.904 1.912 1.867 1.887 1.882 1.927 1.864 1.879 1.934 1.879 1.882 1.917 1.899 1.937 1.884 1.919 1.844 1.822 1.762 1.807 1.814 1.837 1.797 1.859 1.844 1.902 1.902 1.922 1.902
1.356 1.567 1.861 1.965 1.955 1.907 1.95 2.047 1.995 1.922 1.955 1.982 1.937 1.897 1.852 1.845 2.037 2.005 2.142 2.032 1.94 1.932 1.912 1.96 1.917 2.01 1.885 1.925 1.92 1.947 1.942 1.942 1.917 1.992 1.942 1.935 1.885 1.887 1.887 1.925 1.857 1.73 1.516 1.408 1.262 1.13 0.912 0.79 0.747 0.665 0.594 0.54 0.65 1.88 0.656 0.739 0.808 0.965 1.211 1.345 1.922 1.644 1.956 1.965 2.03 2.037 1.985 1.862 1.917 1.905 1.862 1.877 1.917 1.937 1.917 1.96 1.845 1.91 1.87 1.882 1.882 1.977 1.98 1.99 1.87 1.905 1.88 1.862 1.87 1.88 1.875 1.862 1.87 1.865 1.925 1.917 1.927 1.897 1.952 1.902 1.897 1.87 1.842 1.94 1.925 2.032 1.945 1.962 2.017 1.912 1.985 1.932 1.932 1.917 1.91 1.93 1.897 1.912 1.932 1.9 1.897 1.885 1.862 1.867 1.905 1.92 1.955 1.932 1.972 1.96 2.01 1.995 1.94 1.965 1.96 1.987 1.885 1.897 1.947 1.88 1.932 1.915 1.92 1.827 1.847 1.86 1.825 1.882 1.797 1.942 1.942 1.917 1.935 1.94 1.957 1.917 1.972 1.92 1.935 1.87 1.95 1.892 1.885 1.922 1.887 1.952 1.932 1.932 1.955 1.925 1.832 1.905 1.962 2.032 1.92 1.945 1.995 1.987 1.972 2.002 1.942 1.892 1.87 1.847 1.8 1.887 1.957 1.922 1.925 1.965 1.93 1.907 1.917 1.955 1.935 1.977 1.96 1.892 1.85 1.822 1.842 1.88 1.835 1.832 1.83 1.88 1.79 1.857 1.857 1.892 1.927 1.937 1.935 1.897 1.962 1.91 1.912 1.94 1.91 1.93 1.975 2.027 1.962 1.927 1.945 2.032 1.91 1.95 1.92 1.862 1.872 1.837 1.97 1.947 1.947 1.887 1.955 1.925 1.927 1.905 1.955 1.935 1.972 1.992 1.965 1.922 1.952 1.982 1.92 1.935 1.9 1.925 1.97 1.972 1.962 1.92 1.927 1.842 1.807 1.857 1.93 1.935 1.897 1.9 1.942 1.837 1.88 1.81 1.847 1.827 1.825 1.712 1.755 1.867 1.907 1.82 1.822 1.917 1.89 1.917 1.91 2.017 1.975 2.007 1.982 1.975 1.982 1.91 1.967 1.815 1.76 1.827 1.902 1.832 1.86 1.867 1.845 1.837 1.857 1.86 1.905 1.932 1.857 1.815 1.897 1.872 1.855 1.89 1.927 1.842 1.867 1.817 1.857 1.917 1.89 1.882 1.907 1.842 1.845 1.76 1.81 1.892 1.805 1.962 2.017 1.987 1.952 2.002 1.98 1.94 1.89 1.917 1.89 1.972 1.955 1.95 1.922 1.892 1.845 1.822 1.827 1.872 1.842 1.875 1.86 1.917 1.917 1.927 1.845 1.925 1.842 1.857 1.982 1.944 1.909 1.897 1.909 1.897 1.827 1.774 1.844 1.882 1.827 1.832 1.842 1.874 1.814 1.822 1.832 1.872 1.794 1.837 1.892 1.939 1.962 1.912 1.817 1.709 1.787 1.844 1.789 1.804 1.812 1.817 1.899 1.939 1.989 2.034 1.957 1.924 1.977 1.884 1.854 1.879 1.854 1.839 1.859 1.867 1.797 1.799 1.814 1.812 1.802 1.734 1.754 1.842 1.824 1.832 1.874 1.837 1.852 1.949 1.919 1.892 1.907 1.922 1.954 1.894 1.847 1.829 1.799 1.782 1.787 1.812 1.804 1.809 1.849 1.917 1.872 1.897 1.927 1.954 1.862 1.934 1.884 1.912 1.852 1.944 1.964 1.902 1.874 1.832 1.849 1.864 1.879 1.842 1.909 1.909 1.857 1.867 1.824 1.884 1.874 1.832 1.839 1.792 1.777 1.814 1.769 1.867 1.937 1.902 1.919 1.884 1.829 1.847 1.874 1.952 2.017 2.004 1.877 1.924 1.897 1.949 1.917 1.934 1.892 1.859 1.834 1.852 1.897 1.862 1.909 1.922 1.887 1.862 1.837 1.807 1.829 1.789 1.887 1.892 1.922 1.947 1.937 1.907 1.859 1.884 1.912 1.852
1.517 1.692 1.965 1.937 1.962 1.967 1.89 1.937 1.97 1.962 1.967 1.917 1.96 1.945 1.895 1.927 1.942 1.882 1.94 1.975 1.96 1.855 1.84 1.9 1.88 1.952 1.947 1.94 1.877 1.997 1.98 1.977 1.95 1.925 1.917 1.877 1.86 1.86 1.855 1.925 1.925 1.832 1.752 1.56 1.421 1.322 1.179 1.036 0.986 1.86 0.78 0.847 0.832 1.855 0.894 0.975 1.13 1.163 1.397 1.546 1.792 1.874 1.98 1.912 2 2 1.93 1.86 1.9 1.965 1.977 2.012 2.032 1.967 2.015 1.952 1.94 1.922 1.855 1.93 1.882 1.942 1.96 1.912 1.88 1.955 1.882 1.82 1.77 1.812 1.9 1.9 1.97 1.827 1.865 1.802 1.85 1.845 1.887 1.955 1.96 1.91 1.995 1.835 1.927 1.927 1.87 1.982 1.942 1.892 1.897 1.897 1.907 1.932 1.927 1.912 1.91 1.952 1.925 1.905 2.022 1.942 1.94 1.957 1.882 1.882 1.975 1.945 1.935 1.98 2.037 1.967 1.935 1.865 1.905 1.907 1.905 1.887 1.845 1.84 1.785 1.837 1.982 1.89 1.872 1.95 2.01 1.897 1.902 1.972 1.93 1.962 1.925 2.03 2.005 2.02 1.98 1.867 1.86 1.9 1.872 1.912 1.905 1.927 1.892 1.86 1.982 2.005 1.88 1.91 1.957 1.995 1.935 1.97 1.972 1.995 2.1 2.035 1.997 1.972 1.89 1.85 1.915 1.89 1.895 1.9 1.927 1.972 1.99 1.987 1.942 1.912 1.985 2.022 1.98 1.957 1.905 1.892 1.857 1.887 1.822 1.95 1.857 1.835 1.847 1.855 1.84 1.87 1.835 1.97 1.887 1.95 1.9 1.87 1.9 1.912 2.022 1.97 2.062 2.067 2.015 1.937 1.93 1.957 1.89 1.91 1.987 1.927 1.917 1.897 1.812 1.87 1.822 1.935 1.935 1.932 1.89 1.932 1.91 1.87 1.99 1.942 1.955 2.01 2.015 2.085 1.987 1.97 1.927 1.997 1.95 1.895 2.02 1.96 1.827 1.882 1.9 1.855 1.882 1.807 1.912 1.835 1.882 1.892 1.927 1.892 1.83 1.765 1.86 1.86 1.84 1.812 1.932 1.855 1.84 1.892 1.877 1.945 1.93 1.962 2.01 1.947 1.965 1.977 1.905 1.902 1.88 1.822 1.832 1.782 1.782 1.82 1.83 1.802 1.847 1.855 1.852 1.79 1.91 1.877 1.882 1.83 1.912 1.882 1.872 1.91 1.915 1.89 1.877 1.857 1.88 1.845 1.857 1.852 1.905 1.895 1.87 1.83 1.875 1.835 1.942 1.925 1.925 1.967 1.927 1.952 1.967 1.967 1.952 1.992 1.877 1.892 1.912 1.902 1.915 1.96 1.865 1.835 1.8 1.882 1.862 1.895 1.855 1.975 2.002 1.957 1.947 1.907 1.875 1.837 1.907 1.849 1.857 1.879 1.922 1.877 1.879 1.862 1.794 1.789 1.847 1.824 1.792 1.862 1.857 1.792 1.824 1.794 1.807 1.869 1.862 1.952 1.919 1.872 1.929 1.887 1.827 1.747 1.779 1.819 1.799 1.782 1.779 1.849 1.907 1.922 1.929 1.889 1.894 1.864 1.879 1.919 1.867 1.824 1.819 1.787 1.799 1.804 1.862 1.819 1.794 1.854 1.737 1.859 1.807 1.889 1.827 1.817 1.854 1.857 1.962 1.919 1.894 2.004 1.967 1.894 1.927 1.862 1.849 1.882 1.802 1.889 1.787 1.877 1.812 1.887 1.849 1.872 1.872 1.934 1.924 1.884 1.884 1.929 1.819 1.809 1.884 1.884 1.914 1.907 1.874 1.924 1.847 1.864 1.839 1.887 1.869 1.902 1.884 1.812 1.867 1.909 1.802 1.722 1.827 1.884 1.782 1.779 1.672 1.834 1.934 1.894 1.879 1.879 1.927 1.897 1.929 1.927 1.937 1.899 1.877 1.904 1.867 1.919 1.854 1.844 1.874 1.827 1.857 1.849 1.904 1.892 1.859 1.862 1.844 1.834 1.809 1.832 1.869 1.889 1.917 1.944 1.989 1.939 1.914 1.907 1.827 1.812 1.869 1.834
1.722 1.872 1.887 1.947 1.97 1.972 1.957 1.917 1.942 1.94 2 1.932 1.97 2.03 1.997 1.945 1.84 1.837 1.887 1.877 1.83 1.837 1.89 1.905 1.92 2.075 2.052 1.93 1.902 2.07 1.95 1.972 1.997 1.98 1.89 1.885 1.775 1.795 1.855 1.86 1.997 1.777 1.862 1.763 1.625 1.521 1.423 1.291 1.261 1.171 1.169 1.098 1.151 1.125 1.188 1.194 1.369 1.451 1.614 1.805 1.962 1.92 1.972 2.007 1.935 1.987 1.977 1.945 1.93 1.955 2.007 2.01 1.937 1.877 1.837 1.875 1.892 1.822 1.805 2.035 1.885 1.845 1.875 1.882 1.82 1.887 1.845 1.835 1.885 1.892 1.902 1.815 1.845 1.867 1.77 1.825 1.845 1.867 1.922 1.927 1.945 1.972 1.92 1.887 1.995 1.925 1.967 1.897 1.865 1.852 1.845 1.887 1.94 1.96 1.935 1.9 1.845 1.942 1.932 2.015 2.015 1.987 1.97 1.977 1.855 1.99 2.02 2.02 1.965 2.017 2 1.91 2.01 1.945 1.915 1.902 1.992 1.922 1.917 1.892 1.855 1.96 2 1.96 1.912 1.875 1.82 1.855 1.932 1.957 1.975 1.99 1.915 1.955 1.95 1.962 1.852 1.887 1.867 1.932 1.895 1.967 1.92 1.977 1.922 1.87 1.965 1.932 1.915 1.93 2.05 2.01 2.012 1.98 2.022 2.042 2.015 1.922 1.882 1.87 1.87 1.887 1.927 1.845 1.897 1.922 1.955 1.99 1.912 1.872 1.95 1.902 1.982 1.952 1.907 1.92 1.887 1.897 1.93 1.852 1.907 1.922 1.867 1.852 1.882 1.857 1.852 1.807 1.955 1.907 1.94 1.875 1.92 1.99 1.947 1.937 2 2.035 2.012 2.035 1.992 1.982 1.897 1.862 1.88 1.905 1.89 1.872 1.907 1.847 1.797 1.85 1.895 1.93 2.017 1.97 1.937 1.947 1.85 1.967 2.047 2.055 1.977 1.925 1.952 1.995 1.952 1.905 1.925 1.98 1.917 1.942 1.97 1.887 1.845 1.787 1.852 1.83 1.872 1.842 1.817 1.885 1.867 1.842 1.885 1.847 1.827 1.902 1.857 1.875 1.977 1.912 1.872 1.885 1.87 1.87 1.992 1.88 1.95 1.977 1.912 1.957 1.955 1.92 1.85 1.807 1.912 1.827 1.78 1.787 1.757 1.83 1.852 1.765 1.867 1.852 1.812 1.905 1.892 1.917 1.94 1.982 1.942 1.912 1.94 1.972 1.917 1.862 1.845 1.88 1.812 1.895 1.865 1.862 1.897 1.88 1.847 1.872 1.922 1.885 1.987 1.915 1.972 1.995 2 1.927 1.887 1.945 1.935 1.907 1.847 1.887 1.93 1.902 1.902 1.872 1.952 1.882 1.85 1.865 1.9 1.93 1.98 1.992 2.007 1.91 1.92 1.877 1.887 1.82 1.852 1.872 1.852 1.914 1.927 1.909 1.904 1.852 1.757 1.869 1.872 1.804 1.777 1.867 1.839 1.789 1.792 1.862 1.827 1.882 1.904 1.877 1.942 1.879 1.847 1.877 1.782 1.804 1.882 1.849 1.832 1.807 1.882 1.907 1.974 1.932 1.907 1.874 1.892 1.849 1.822 1.792 1.777 1.759 1.817 1.799 1.714 1.844 1.854 1.814 1.812 1.799 1.767 1.854 1.849 1.819 1.852 1.819 1.827 1.802 1.817 1.857 1.952 1.907 1.859 1.894 1.872 1.877 1.854 1.849 1.844 1.857 1.869 1.879 1.859 1.964 1.897 1.912 1.954 1.947 1.869 1.852 1.849 1.809 1.827 1.834 1.877 1.824 1.859 1.879 1.852 1.884 1.827 1.859 1.897 1.902 1.859 1.829 1.834 1.819 1.879 1.904 1.802 1.802 1.737 1.767 1.767 1.829 1.869 1.829 1.867 1.899 1.849 1.949 1.914 1.934 1.937 1.912 1.867 1.877 1.862 1.829 1.867 1.824 1.822 1.822 1.797 1.819 1.827 1.827 1.927 1.897 1.872 1.902 1.839 1.842 1.824 1.874 1.962 1.949 1.947 1.932 1.934 1.879 1.834 1.772 1.834 1.837 1.872 1.819
1.951 1.922 1.94 2.015 1.99 2.08 1.952 1.9 1.952 1.922 2.022 1.967 1.957 1.97 1.952 1.905 1.99 1.925 1.905 1.89 1.925 1.945 1.92 1.947 2.002 1.985 1.955 1.932 1.925 1.96 2.017 1.96 2.042 1.962 1.97 1.91 1.905 1.932 1.922 2.037 2.01 1.937 1.97 1.965 1.909 1.767 1.693 1.566 1.494 1.452 1.877 1.39 1.362 1.425 1.987 1.534 1.662 1.687 1.791 1.895 1.947 1.967 1.977 2.052 2.05 2.002 1.95 1.925 1.937 1.96 1.97 2.032 1.895 1.922 1.83 1.835 1.852 1.822 2.017 1.98 1.935 1.772 1.872 1.865 1.887 1.862 1.792 1.827 1.96 1.982 1.86 1.86 1.847 1.89 1.885 1.855 1.89 1.972 2.01 1.997 1.987 1.967 1.925 2.037 1.945 1.92 1.865 1.807 1.845 1.852 1.862 1.86 1.957 1.935 1.872 1.877 1.96 1.937 2.007 1.962 1.977 1.95 1.995 1.947 2.01 1.957 1.987 1.955 1.945 1.925 1.862 1.897 1.9 1.937 1.98 1.992 1.927 1.857 1.845 1.877 1.942 1.992 1.925 1.912 1.875 1.857 1.91 1.92 1.9 1.94 1.895 1.915 1.877 1.865 1.89 1.91 1.92 1.892 1.89 1.955 1.952 1.962 1.932 1.915 1.942 1.917 2.027 1.982 1.987 1.987 2.022 2.022 2.067 1.975 1.992 1.927 1.86 1.82 1.835 1.775 1.817 1.84 1.82 1.802 1.842 1.935 1.962 2.03 1.917 1.932 2.012 2.022 1.942 1.972 1.925 1.965 1.895 1.955 1.952 1.887 1.897 1.907 1.805 1.855 1.822 1.885 1.9 1.937 1.895 1.89 1.927 1.922 1.855 1.93 2.017 1.947 1.94 1.945 1.89 1.987 1.91 1.88 1.86 1.84 1.802 1.827 1.8 1.872 1.832 1.822 1.85 1.905 1.845 1.9 1.987 1.935 1.877 1.942 1.93 2 2.03 2.07 2.025 2.087 2.017 1.97 1.89 1.88 1.915 1.932 1.967 1.927 1.932 1.802 1.807 1.917 1.87 1.9 1.88 1.805 1.835 1.855 1.83 1.815 1.887 1.807 1.9 1.882 1.947 1.932 1.92 1.902 1.945 2.015 1.947 1.902 1.962 1.905 1.89 2.017 2.02 1.942 1.9 1.897 1.822 1.825 1.877 1.797 1.807 1.8 1.845 1.847 1.825 1.815 1.937 1.892 1.935 1.947 1.935 1.865 1.905 1.952 1.917 1.96 1.94 1.892 1.837 1.887 1.86 1.85 1.852 1.885 1.902 1.827 1.847 1.812 1.75 1.827 1.87 1.877 1.955 1.91 1.927 1.96 1.932 1.91 1.897 1.865 1.88 1.857 1.892 1.937 1.935 1.875 1.93 1.92 1.947 1.88 1.957 1.972 1.96 1.995 1.932 1.937 1.895 1.842 1.825 1.825 1.82 1.86 1.869 1.889 1.922 1.869 1.867 1.824 1.842 1.829 1.719 1.844 1.882 1.849 1.842 1.884 1.827 1.837 1.797 1.872 1.814 1.844 1.892 1.892 1.874 1.852 1.927 1.842 1.869 1.904 1.854 1.849 1.844 1.914 1.892 1.912 1.904 1.864 1.849 1.857 1.797 1.764 1.859 1.847 1.797 1.872 1.842 1.857 1.844 1.832 1.864 1.822 1.797 1.792 1.887 1.869 1.897 1.839 1.862 1.769 1.837 1.819 1.812 1.944 1.937 1.849 1.857 1.824 1.857 1.817 1.857 1.822 1.802 1.792 1.822 1.859 1.909 1.937 1.984 1.944 1.934 1.889 1.804 1.837 1.892 1.879 1.864 1.892 1.892 1.799 1.879 1.822 1.822 1.867 1.872 1.882 1.867 1.842 1.847 1.844 1.764 1.837 1.859 1.899 1.757 1.779 1.762 1.787 1.824 1.842 1.917 1.874 1.842 1.852 1.902 1.904 1.934 1.904 1.887 1.852 1.812 1.794 1.829 1.867 1.829 1.837 1.812 1.827 1.857 1.859 1.872 1.939 1.912 1.882 1.879 1.797 1.802 1.867 1.899 1.914 1.927 1.859 1.919 1.904 1.884 1.884 1.804 1.794 1.799 1.869 1.872 1.892
1.965 1.905 1.885 1.892 1.897 1.997 2.03 1.915 1.87 2.025 1.995 2.027 1.967 1.935 1.952 1.955 1.847 1.922 1.932 1.912 1.925 1.957 1.942 2.04 1.985 1.955 1.945 1.927 1.94 1.947 1.962 1.985 1.92 1.905 1.945 1.865 1.935 1.97 1.957 2.012 1.912 1.992 1.95 1.92 1.882 1.875 1.812 1.771 1.691 1.701 1.643 1.672 1.643 1.62 1.735 1.775 1.898 1.917 1.917 1.897 2.027 2.087 2.022 2.015 1.942 1.997 1.91 2.02 1.962 1.902 1.95 1.895 1.905 1.885 1.85 1.797 1.837 1.837 1.825 1.877 1.907 1.87 1.88 1.83 1.942 1.827 1.815 1.902 1.95 1.902 1.872 1.81 1.862 1.922 1.915 1.892 1.88 1.922 1.947 1.965 1.985 1.885 1.935 1.952 1.917 1.892 1.89 1.902 1.875 1.845 1.86 1.992 1.932 1.947 1.915 1.975 1.942 1.987 1.982 1.935 1.927 1.94 1.99 1.967 2.03 1.935 1.985 1.967 1.94 1.967 1.907 1.86 1.927 1.935 1.987 1.952 1.947 1.935 1.91 1.95 2.022 1.94 1.877 1.92 1.85 1.825 1.897 1.872 1.852 1.89 1.865 1.852 1.937 1.825 1.905 1.927 1.985 1.875 1.917 1.922 1.97 1.932 1.917 1.972 1.98 1.967 1.967 2.005 1.985 2.005 1.912 1.94 1.957 1.91 1.832 1.857 1.842 1.812 1.85 1.787 1.767 1.77 1.87 1.88 1.907 1.882 1.92 1.897 1.927 1.907 1.932 1.94 1.972 2.032 1.99 1.89 1.875 1.942 1.907 1.892 1.882 1.877 1.93 1.89 1.852 1.88 1.902 1.885 1.89 1.91 1.937 1.917 1.907 1.945 1.925 1.87 1.882 1.912 1.882 1.897 1.902 1.88 1.9 1.91 1.842 1.845 1.932 1.912 1.88 1.84 1.877 1.895 1.932 1.93 1.9 1.9 1.905 1.98 2.005 2.042 2.08 2.05 2.04 2.055 1.922 1.905 1.91 2.017 1.907 1.902 1.845 1.855 1.847 1.77 1.837 1.88 1.847 1.855 1.852 1.812 1.825 1.84 1.795 1.772 1.865 1.882 1.832 1.82 1.962 1.9 1.945 1.975 1.932 1.97 1.945 1.935 1.975 2.027 1.977 2.037 1.927 1.865 1.89 1.84 1.885 1.887 1.912 1.832 1.88 1.757 1.877 1.85 1.877 1.825 1.922 1.995 2.042 1.98 1.907 1.907 1.865 1.865 1.967 1.982 1.892 1.86 1.8 1.825 1.792 1.81 1.862 1.835 1.917 1.855 1.79 1.82 1.792 1.81 1.85 1.88 1.927 1.912 1.937 1.922 1.892 1.905 1.867 1.867 1.85 1.932 1.952 1.98 1.917 1.967 1.93 1.967 1.917 1.935 1.947 1.975 1.957 1.945 1.92 1.972 1.867 1.842 1.797 1.807 1.83 1.8 1.844 1.967 1.867 1.892 1.924 1.869 1.827 1.839 1.852 1.869 1.809 1.864 1.827 1.792 1.882 1.874 1.892 1.939 1.882 1.947 1.947 1.924 1.944 1.829 1.852 1.827 1.859 1.934 1.914 1.854 1.827 1.929 1.797 1.887 1.882 1.822 1.789 1.892 1.837 1.832 1.824 1.854 1.794 1.864 1.842 1.889 1.852 1.872 1.794 1.804 1.804 1.789 1.854 1.779 1.829 1.849 1.824 1.784 1.829 1.802 1.892 1.924 1.934 1.912 1.847 1.834 1.789 1.782 1.784 1.814 1.804 1.824 1.857 1.864 1.959 1.957 1.934 1.907 1.912 1.939 1.867 1.907 1.889 1.899 2.002 1.924 1.872 1.862 1.874 1.829 1.827 1.859 1.887 1.867 1.819 1.844 1.832 1.899 1.867 1.869 1.897 1.872 1.769 1.804 1.789 1.884 1.874 1.969 1.977 1.849 1.819 1.814 1.859 1.859 1.914 1.877 1.847 1.797 1.837 1.852 1.889 1.849 1.834 1.837 1.859 1.844 1.864 1.987 1.892 1.897 1.874 1.887 1.834 1.862 1.809 1.902 1.872 1.862 1.832 1.822 1.827 1.902 1.849 1.859 1.819 1.827 1.817 1.922 1.889 1.792
1.915 1.857 1.91 2.07 1.952 1.967 1.942 1.947 1.99 2.037 2.04 1.945 1.955 1.93 1.975 1.957 1.925 1.952 1.967 1.962 1.897 1.922 1.855 1.965 1.972 2.042 1.94 1.9 1.95 1.86 1.862 2.012 1.927 1.907 1.932 1.855 1.837 1.932 1.942 1.947 1.857 1.997 1.987 1.907 1.977 2.007 1.94 1.892 1.88 1.94 1.927 1.9 1.91 1.877 1.855 1.825 1.937 1.92 1.915 1.925 1.967 1.97 1.967 1.882 1.975 1.925 1.922 1.87 1.86 1.85 1.85 1.917 1.865 1.902 1.94 1.98 1.905 1.842 1.907 1.94 1.932 1.937 1.835 1.857 1.885 1.875 1.907 1.925 1.857 1.817 1.84 1.8 1.867 1.932 1.922 1.902 1.897 1.95 1.93 2.035 1.937 1.912 1.892 1.857 1.852 1.825 1.835 1.835 1.847 1.8 1.945 1.982 1.93 1.982 1.965 2.002 2.005 1.967 1.995 1.96 1.992 1.94 1.995 1.985 1.89 1.99 1.957 1.97 1.97 1.92 1.947 2.012 2.035 1.957 1.942 1.922 1.907 1.89 1.917 1.887 1.88 1.85 1.782 1.847 1.85 1.782 1.81 1.827 1.91 1.935 1.952 1.925 1.917 2 1.94 2.032 2.022 1.947 1.932 1.835 1.947 1.955 1.927 1.947 1.927 1.93 1.932 1.945 1.945 1.88 1.905 1.89 1.912 1.872 1.9 1.952 1.88 1.85 1.92 1.832 1.812 1.842 1.902 1.882 1.93 1.947 1.92 1.875 1.887 1.942 1.957 1.995 1.98 1.982 1.967 1.912 1.892 1.91 1.862 1.837 1.872 1.855 1.907 1.847 1.87 1.902 1.86 1.827 1.815 1.905 1.95 1.922 1.9 1.922 1.875 1.892 1.872 1.887 1.987 1.817 1.797 1.885 1.832 1.88 1.875 1.855 1.85 1.877 1.857 1.875 1.88 1.825 1.837 1.965 1.957 1.932 1.93 1.987 1.985 2.032 2.037 2.05 2.042 1.942 1.942 1.86 1.975 1.862 1.865 1.895 1.865 1.88 1.82 1.82 1.862 1.837 1.902 1.872 1.832 1.8 1.822 1.89 1.835 1.84 1.867 1.935 1.877 1.857 1.852 1.95 1.947 1.95 1.927 1.917 1.917 1.925 1.955 1.975 1.932 1.912 1.922 1.902 1.895 1.917 1.887 1.85 1.825 1.82 1.862 1.812 1.865 1.89 1.905 1.937 1.945 1.94 1.892 1.88 1.952 1.942 1.832 1.815 1.877 1.887 1.835 1.825 1.745 1.79 1.77 1.837 1.905 1.84 1.917 1.87 1.89 1.857 1.985 1.877 1.89 1.897 1.975 1.902 1.947 1.882 1.897 1.865 1.917 1.915 1.895 1.937 1.927 2.01 1.942 1.995 1.967 1.96 1.945 1.92 1.97 1.992 1.937 1.917 1.887 1.867 1.895 1.857 1.91 1.877 1.81 1.792 1.844 1.872 1.882 1.847 1.879 1.839 1.799 1.842 1.857 1.912 1.922 1.872 1.934 1.889 1.879 1.822 1.837 1.899 1.972 1.919 1.849 1.869 1.912 1.882 1.887 1.929 1.912 1.914 1.842 1.812 1.817 1.782 1.857 1.832 1.889 1.817 1.887 1.874 1.889 1.929 1.822 1.817 1.804 1.884 1.899 1.899 1.919 1.849 1.844 1.797 1.839 1.822 1.834 1.834 1.872 1.877 1.859 1.839 1.854 1.897 1.902 1.979 1.904 1.864 1.787 1.749 1.777 1.759 1.789 1.792 1.884 1.869 1.907 1.904 1.977 1.969 1.919 1.939 1.882 1.927 1.932 1.947 1.952 1.929 1.929 1.897 1.897 1.882 1.852 1.837 1.884 1.872 1.872 1.897 1.849 1.849 1.807 1.847 1.869 1.862 1.862 1.762 1.824 1.774 1.837 1.932 1.894 1.892 1.859 1.802 1.807 1.754 1.832 1.884 1.902 1.857 1.832 1.872 1.897 1.844 1.984 1.912 1.887 1.844 1.867 1.902 1.899 1.982 1.914 1.917 1.877 1.894 1.892 1.882 1.859 1.867 1.897 1.847 1.822 1.829 1.852 1.817 1.769 1.869 1.859 1.887 1.929 1.924 1.867 1.842
1.87 1.892 1.927 1.995 1.945 1.987 1.967 2.02 1.822 1.94 1.992 2.035 2.03 1.897 1.912 1.865 1.877 1.895 1.947 1.947 1.997 1.917 1.885 1.945 1.977 1.907 1.837 1.9 2.015 1.915 1.872 1.865 2.002 1.907 1.937 1.92 1.9 1.882 1.9 1.957 1.862 1.9 1.93 1.897 1.885 1.905 1.957 1.89 1.862 1.942 1.947 1.902 2.027 1.867 1.882 1.802 1.87 1.945 1.955 1.902 1.855 1.91 1.907 1.917 1.885 1.905 1.932 1.957 1.912 1.897 1.927 1.887 1.895 1.86 1.925 1.99 1.985 1.895 1.937 1.942 1.882 1.94 1.877 1.91 1.76 1.927 1.967 1.922 1.92 1.822 1.84 1.885 1.897 1.93 1.962 1.917 1.947 1.922 1.897 1.932 1.97 1.91 1.815 1.907 1.845 1.845 1.892 1.845 1.85 1.927 1.967 2.005 1.975 1.997 1.94 1.967 1.93 1.972 1.967 1.925 1.92 1.922 1.967 1.93 1.88 1.917 1.905 1.887 1.945 1.985 2.092 2.052 1.997 2.007 1.91 1.9 1.89 1.957 1.945 1.885 1.885 1.905 1.85 1.957 1.83 1.827 1.805 1.837 1.842 1.98 1.835 1.912 1.977 1.965 2.005 1.977 1.895 1.907 1.917 1.927 1.927 1.96 1.937 1.94 1.94 1.937 1.892 1.922 1.922 1.842 1.845 1.812 1.855 1.912 1.88 1.882 1.945 1.87 1.942 1.892 1.855 1.912 1.945 1.965 1.962 1.985 2 1.977 1.982 1.972 2.03 2.032 2.03 1.942 1.945 1.92 1.905 1.92 1.83 1.822 1.86 1.84 1.805 1.832 1.842 1.842 1.802 1.852 1.88 1.872 1.862 1.865 1.96 1.93 1.915 1.932 1.86 1.85 1.87 1.85 1.897 1.79 1.86 1.842 1.905 1.845 1.865 1.897 1.922 1.89 1.892 1.895 1.915 1.97 1.985 1.942 1.955 1.99 2.037 1.98 1.975 1.875 1.885 1.87 1.872 1.83 1.792 1.865 1.837 1.945 1.862 1.85 1.765 1.832 1.842 1.802 1.912 1.945 1.842 1.79 1.732 1.857 1.857 1.875 1.895 1.937 1.937 1.842 1.802 1.85 1.847 1.865 1.845 1.87 1.93 1.88 1.872 1.927 1.91 1.9 1.907 1.867 1.93 1.88 1.85 1.842 1.92 1.847 1.82 1.88 1.887 1.872 1.842 1.915 1.912 1.897 1.862 1.895 1.945 2.022 1.847 1.85 1.817 1.817 1.765 1.76 1.802 1.835 1.83 1.83 1.895 1.892 1.942 1.9 1.922 1.875 1.89 1.912 1.902 1.945 1.907 1.93 1.88 1.905 1.905 1.947 1.91 1.96 1.95 1.965 1.985 1.895 1.947 1.945 1.885 1.907 1.94 1.945 1.997 1.972 1.89 1.842 1.965 1.837 1.855 1.892 1.932 1.842 1.815 1.782 1.897 1.964 1.887 1.882 1.874 1.864 1.904 1.864 1.917 1.934 1.892 1.927 1.869 1.874 1.894 1.849 1.854 1.877 1.932 1.884 1.854 1.857 1.884 1.859 1.964 1.952 1.954 1.859 1.907 1.764 1.817 1.867 1.842 1.879 1.932 1.879 1.957 1.894 1.869 1.894 1.839 1.869 1.934 1.877 1.969 1.862 1.837 1.829 1.799 1.799 1.837 1.854 1.832 1.889 1.917 1.919 1.869 1.874 1.939 1.912 1.924 1.924 1.867 1.807 1.764 1.772 1.799 1.849 1.832 1.832 1.884 1.937 1.954 1.969 1.922 1.909 1.934 1.949 1.927 1.929 1.937 1.909 1.922 1.929 1.889 1.909 1.902 1.842 1.852 1.947 1.837 1.852 1.859 1.872 1.902 1.842 1.897 1.879 1.892 1.897 1.869 1.907 1.854 1.854 1.842 1.837 1.822 1.937 1.844 1.797 1.832 1.829 1.904 1.949 1.902 1.867 1.872 1.949 1.992 1.949 1.967 1.882 1.937 1.829 1.912 1.909 1.917 1.887 1.939 1.887 1.989 1.897 1.864 1.807 1.862 1.819 1.874 1.814 1.872 1.964 1.852 1.797 1.897 1.914 1.929 1.964 1.979 1.872 1.874 1.862
1.992 1.93 1.902 1.872 1.922 1.937 1.905 1.977 1.975 1.96 1.957 1.96 1.925 1.89 1.875 1.877 1.825 1.957 1.932 1.902 1.88 1.952 1.86 1.862 1.887 1.937 1.982 1.965 1.935 1.997 2.007 1.915 1.91 1.95 1.975 1.927 1.885 1.895 1.947 1.97 1.987 1.902 1.9 1.885 1.942 1.902 2.002 1.995 1.97 2 2.05 1.925 1.97 1.87 1.855 1.847 1.865 1.965 1.9 1.887 1.887 1.885 2 1.955 1.945 1.91 1.96 1.872 1.857 1.947 2 1.935 1.962 1.947 1.85 1.97 1.937 1.945 1.905 1.885 1.91 1.877 1.88 1.902 1.815 1.987 1.935 1.887 1.902 1.872 1.892 1.887 1.927 1.932 1.972 1.892 1.92 1.862 1.872 1.945 1.967 1.902 1.867 1.942 1.795 1.9 1.86 1.89 1.865 1.875 1.925 1.95 1.94 1.9 1.862 1.902 1.927 1.887 1.82 1.862 1.887 1.917 1.907 1.875 1.94 1.88 1.932 1.902 1.897 1.982 1.962 2.057 2.015 1.957 1.885 1.925 1.952 1.947 1.857 1.927 1.85 1.867 1.88 1.915 1.86 1.827 1.87 1.82 1.942 1.947 1.89 1.872 2.05 1.905 1.947 1.885 1.885 1.902 1.872 1.972 1.892 1.932 1.98 1.952 1.922 1.967 1.875 1.83 1.842 1.917 1.847 1.815 1.84 1.88 1.89 1.857 1.927 1.82 1.917 1.995 1.947 1.847 1.907 1.917 1.937 1.927 1.942 1.935 1.96 1.97 1.955 2.027 1.965 1.93 1.955 1.907 1.897 1.842 1.82 1.892 1.91 1.845 1.852 1.895 1.852 1.807 1.82 1.91 1.917 1.957 1.942 1.882 1.967 1.927 1.882 1.875 1.852 1.847 1.837 1.865 1.96 1.86 1.81 1.86 1.905 1.895 2.012 1.915 2.015 1.882 1.872 1.92 1.942 1.932 1.93 1.912 2.007 1.98 1.99 1.955 1.885 1.862 1.842 1.82 1.805 1.86 1.867 1.845 1.85 1.9 1.857 1.842 1.915 1.86 1.922 1.847 1.865 1.872 1.875 1.877 1.92 1.955 1.855 1.897 1.912 1.9 1.87 1.837 1.837 1.81 1.892 1.84 1.907 1.882 1.865 1.98 1.942 1.832 1.9 1.905 1.897 1.892 1.89 1.862 1.867 1.867 1.865 1.857 1.86 1.867 1.835 1.837 1.855 1.915 1.832 1.872 1.827 1.887 1.892 1.91 1.852 1.875 1.837 1.79 1.807 1.815 1.78 1.902 1.855 1.91 1.882 1.895 1.945 1.912 1.865 1.845 1.872 1.832 1.872 1.89 1.87 1.895 1.935 1.932 1.89 1.885 1.892 1.89 1.975 1.997 2.007 2.005 1.937 1.97 1.92 1.942 1.94 1.945 1.902 1.855 1.782 1.76 1.79 1.807 1.855 1.842 1.882 1.825 1.862 1.935 1.979 1.939 1.964 1.974 1.902 1.919 1.894 1.879 1.892 1.879 1.862 1.862 1.777 1.784 1.847 1.904 1.812 1.854 1.889 1.824 1.817 1.862 1.914 1.917 1.999 1.939 1.952 1.892 1.822 1.922 1.902 1.939 1.962 1.924 2.017 1.949 1.899 1.852 1.872 1.832 1.857 1.949 1.872 1.922 1.897 1.839 1.894 1.857 1.809 1.799 1.862 1.859 1.972 1.934 1.919 1.859 1.892 1.882 1.919 1.947 1.909 1.834 1.827 1.789 1.804 1.847 1.814 1.837 1.834 1.869 1.952 1.974 1.939 1.994 1.912 1.899 1.932 1.897 1.902 1.899 1.912 1.937 1.934 1.969 1.864 1.907 1.879 1.927 1.874 2.002 1.914 1.864 1.874 1.857 1.784 1.892 1.887 1.947 1.857 1.882 1.914 1.849 1.932 1.842 1.839 1.862 1.907 1.807 1.802 1.834 1.879 1.922 1.942 1.952 1.912 1.879 1.889 1.929 1.852 1.907 1.894 1.882 1.907 1.917 1.889 1.844 1.857 1.949 1.917 1.917 1.837 1.897 1.834 1.864 1.927 1.879 1.844 1.909 1.902 1.919 1.944 1.912 1.904 1.882 1.907 1.912 1.922 1.894 1.862 1.892
1.997 1.915 1.87 1.852 1.94 1.877 1.912 1.987 2.012 1.965 1.942 1.922 1.92 1.88 1.94 1.915 1.867 1.94 1.9 1.885 1.877 1.875 1.832 1.842 1.887 1.967 1.94 1.84 1.88 1.93 1.907 1.96 2.007 1.977 1.91 1.922 1.97 1.83 1.902 1.952 2.01 1.96 1.932 1.93 2.072 1.995 1.957 1.997 2.015 2.067 1.98 1.892 1.95 1.89 1.85 1.852 1.862 1.877 1.85 1.887 1.875 1.837 1.852 1.887 1.995 1.942 1.947 1.89 1.912 1.947 1.935 2.11 1.92 1.937 1.955 1.9 1.902 1.847 1.93 1.875 1.967 1.977 1.882 1.957 1.92 1.862 1.877 1.782 1.842 1.8 1.822 1.892 2.002 1.86 1.96 1.875 1.885 1.865 1.842 1.87 1.845 1.877 1.9 1.91 1.935 1.907 1.847 1.855 1.855 1.92 1.937 1.947 1.917 1.86 1.845 1.862 1.882 1.927 1.882 1.83 1.877 1.812 1.957 1.952 1.922 1.967 1.91 1.942 1.91 2.062 2.02 1.992 1.947 1.977 1.887 1.847 1.917 1.945 1.837 1.872 1.847 1.887 1.857 1.89 1.92 1.932 1.905 1.872 1.885 1.91 1.985 1.975 1.922 1.882 1.952 1.857 1.857 1.847 1.847 1.922 1.897 1.905 1.895 1.932 1.837 1.975 1.887 1.887 1.86 1.912 1.965 1.937 1.97 1.945 2.057 1.95 1.945 1.955 1.905 1.897 1.907 1.865 1.87 1.852 1.917 1.877 1.967 1.867 1.972 1.937 1.962 1.967 1.922 1.917 1.835 1.867 1.84 1.81 1.867 1.872 1.92 1.857 1.847 1.897 1.857 1.857 1.805 1.87 1.907 1.95 1.952 1.91 1.98 1.937 1.9 1.895 1.947 1.862 1.855 1.92 1.885 1.925 1.96 1.915 1.967 1.917 1.952 1.902 1.91 1.872 1.892 1.96 1.952 1.985 1.987 1.905 1.99 1.962 2 1.907 1.93 1.865 1.895 1.86 1.93 1.9 1.947 1.92 1.937 1.92 1.867 1.975 1.982 2.005 1.972 1.902 1.91 1.857 1.88 1.855 1.935 1.92 1.875 1.887 1.89 1.83 1.797 1.807 1.847 1.732 1.845 1.862 1.9 1.902 1.855 1.92 1.892 1.872 1.877 1.945 1.852 1.92 1.885 1.915 1.832 1.895 1.907 1.832 1.897 1.892 1.852 1.835 1.82 1.847 1.887 1.84 1.847 1.887 1.882 1.882 1.865 1.83 1.817 1.812 1.9 1.825 1.817 1.9 1.917 1.907 1.875 1.957 1.902 1.905 1.882 1.872 1.905 1.902 1.942 1.95 1.93 1.94 1.96 1.895 1.912 1.895 1.982 1.955 1.95 1.98 1.955 2.015 1.945 1.992 1.93 1.915 1.892 1.89 1.857 1.797 1.762 1.807 1.84 1.847 1.962 1.882 1.885 1.952 1.99 2.007 1.952 1.939 1.907 1.872 1.867 1.844 1.822 1.862 1.869 1.814 1.817 1.787 1.789 1.829 1.827 1.784 1.907 1.872 1.829 1.839 1.872 1.947 1.972 2.004 1.974 1.944 1.902 1.872 1.874 2.004 1.922 1.942 2.002 1.962 1.949 1.904 1.857 1.869 1.839 1.874 1.899 1.914 1.904 1.964 1.904 1.834 1.804 1.839 1.914 1.909 1.854 1.884 1.864 1.914 1.864 1.854 1.922 1.854 1.864 1.857 1.879 1.812 1.814 1.842 1.837 1.842 1.844 1.847 1.919 1.877 1.949 1.932 1.897 1.914 1.919 1.899 1.869 1.904 1.897 1.889 1.937 1.939 1.902 1.939 1.904 1.992 1.934 1.907 1.904 1.949 1.944 1.914 1.882 1.842 1.872 1.864 1.912 1.934 1.924 1.892 1.874 1.889 1.839 1.942 1.857 1.864 1.879 1.892 1.874 1.914 1.939 1.939 1.904 1.867 1.889 1.939 1.872 1.907 1.859 1.844 1.872 1.827 1.864 1.884 1.894 1.872 1.879 1.869 1.839 1.894 1.852 1.897 1.842 1.849 1.889 1.907 1.829 1.857 1.877 1.879 1.899 1.882 1.924 1.914 1.872 1.887 1.917 1.867 1.827 1.932
1.882 1.935 2.062 2.01 2.02 1.917 1.952 1.935 2.037 2.025 1.957 1.925 1.925 1.902 1.895 1.892 1.882 1.842 1.922 1.85 1.855 1.86 1.822 1.905 1.94 1.947 1.98 1.96 1.937 1.942 1.937 1.98 1.94 1.9 1.907 1.922 1.92 1.855 1.87 1.945 1.91 1.895 1.905 1.94 1.98 1.9 1.83 1.877 1.9 1.93 1.92 1.877 1.987 1.862 1.89 1.91 1.835 1.845 1.967 1.867 1.88 1.93 1.957 2.015 1.962 1.93 1.932 1.885 1.895 1.9 1.937 1.955 1.87 1.907 1.937 1.882 1.942 1.867 1.825 1.92 1.902 1.905 1.98 1.952 1.897 1.872 1.855 1.842 1.78 1.852 1.92 1.867 1.86 1.87 1.89 1.912 1.917 1.845 1.877 1.82 1.895 1.982 1.912 1.927 1.885 1.832 1.837 1.932 1.915 1.865 1.87 1.877 1.895 1.88 1.815 1.842 1.87 1.922 1.877 1.902 1.952 1.845 1.927 1.94 1.94 1.905 1.965 2.022 2.03 2.052 2.032 1.937 1.917 1.68 1.94 1.962 1.975 1.947 1.877 1.87 1.89 1.925 1.912 1.912 1.91 1.902 1.885 1.907 1.922 1.97 1.957 1.95 1.94 1.902 1.895 1.825 1.887 1.91 1.872 1.885 1.902 1.895 1.935 1.857 1.875 1.902 1.867 1.877 1.88 1.98 2.047 1.995 2.022 2.01 2.015 1.955 1.975 1.995 1.92 1.88 1.892 1.952 1.875 1.89 1.895 1.87 1.882 1.93 1.932 1.912 1.87 1.895 1.87 2.01 1.802 1.795 1.782 1.77 1.84 1.85 1.84 1.812 1.785 1.785 1.82 1.83 1.842 1.87 1.915 1.895 1.91 1.912 1.925 1.912 1.877 1.922 1.882 1.862 1.93 1.945 1.942 1.947 1.875 1.87 1.94 1.895 1.88 1.86 1.945 1.867 1.905 1.945 1.887 1.932 1.947 1.967 2.057 1.927 1.922 1.93 1.912 1.99 1.932 1.965 1.98 2.005 2.057 1.98 1.91 1.952 2.035 1.952 1.962 1.942 1.905 1.872 1.92 1.917 1.92 1.875 1.917 1.885 1.81 1.817 1.78 1.755 1.747 1.787 1.75 1.857 1.745 1.83 1.865 1.907 1.932 1.95 1.9 1.887 2.075 1.95 1.922 1.92 1.93 1.865 1.812 1.862 1.805 1.867 1.907 1.85 1.902 1.915 1.862 1.875 1.9 1.872 1.862 1.927 1.88 1.857 1.835 1.862 1.872 1.787 1.807 1.82 1.862 1.83 1.852 1.857 1.89 1.865 1.892 1.842 1.872 1.95 1.932 1.985 1.95 2.022 2.002 1.942 1.897 1.852 1.857 1.887 2.032 1.93 1.932 1.897 1.922 1.925 1.875 1.922 1.917 1.88 1.887 1.867 1.872 1.812 1.792 1.862 1.87 1.875 1.952 1.922 1.972 1.937 1.95 1.93 1.914 1.909 1.882 1.907 1.859 1.879 1.879 1.907 1.852 1.789 1.764 1.799 1.749 1.812 1.804 1.794 1.869 1.799 1.894 1.929 1.859 1.959 1.967 2.037 1.929 1.907 1.874 1.882 1.879 1.927 2.009 1.997 1.959 1.944 1.947 1.932 1.952 1.924 1.837 1.922 1.897 1.914 1.897 1.832 1.837 1.837 1.829 1.894 1.859 1.879 1.869 1.834 1.857 1.869 1.867 1.817 1.909 1.889 1.854 1.859 1.797 1.802 1.874 1.889 1.899 1.862 1.884 1.892 1.937 1.927 1.927 1.994 1.982 1.957 1.904 1.914 1.924 1.882 1.969 1.917 1.944 1.919 1.899 1.874 1.867 1.917 1.929 1.922 1.854 1.849 1.939 1.899 1.839 1.812 1.914 1.867 1.954 1.907 1.862 1.902 1.909 1.892 1.894 1.919 1.884 1.909 1.889 1.889 1.904 1.889 1.932 1.937 1.854 1.844 1.849 1.907 1.887 1.912 1.832 1.894 1.877 1.804 1.859 1.862 1.882 1.937 1.877 1.874 1.807 1.874 1.854 1.872 1.849 1.864 1.869 1.854 1.844 1.882 1.849 1.834 1.822 1.859 1.902 1.912 1.904 1.882 1.854 1.849 1.884 1.929
1.917 1.892 1.945 1.927 1.942 1.937 1.997 2.015 2.012 2.032 1.915 1.887 1.882 2 1.942 1.927 1.912 1.91 1.882 1.897 1.905 1.845 1.877 2.002 1.902 1.972 1.977 1.972 1.987 1.995 1.987 1.997 1.887 1.877 1.907 1.84 1.85 1.9 1.945 1.927 1.92 1.915 1.91 1.89 1.932 1.932 1.885 1.902 1.845 1.83 1.96 1.852 1.915 1.862 1.925 1.94 1.92 1.837 1.897 1.945 1.947 2.032 1.907 1.877 1.902 1.88 1.935 1.877 1.927 1.912 1.967 1.91 1.905 1.982 1.872 1.85 1.887 1.907 1.847 1.877 1.87 1.857 1.93 1.905 1.88 1.887 1.827 1.865 1.91 1.96 1.89 1.87 1.867 1.94 1.842 1.877 1.955 1.812 1.84 1.802 1.94 2.017 1.892 1.945 1.955 2.02 2.05 1.98 1.947 1.92 1.907 1.91 1.917 1.907 1.865 1.87 1.88 1.857 1.897 1.902 1.91 1.927 1.94 1.912 1.952 1.957 1.955 2.015 1.965 1.995 1.935 1.927 1.892 1.892 1.982 1.955 1.91 1.945 1.93 1.955 1.967 1.962 1.955 1.93 1.892 1.92 2.017 2.005 1.96 1.95 1.99 1.915 1.945 1.945 1.892 1.975 1.982 1.92 1.967 1.9 1.935 1.905 1.975 1.917 1.932 1.927 1.922 1.95 1.98 2.02 2.07 2.095 2.045 2.032 1.955 1.957 1.932 1.865 1.85 1.907 1.825 1.892 1.93 1.905 1.91 1.932 1.895 1.937 1.972 1.955 1.895 1.967 1.907 1.777 1.85 1.867 1.875 1.86 1.8 1.787 1.747 1.81 1.765 1.742 1.907 1.87 1.86 1.872 1.98 1.942 1.925 1.905 1.917 1.95 1.867 1.887 1.855 1.865 1.895 1.875 1.877 1.945 1.897 1.9 1.91 1.84 1.825 1.85 1.807 1.86 1.92 1.912 1.867 1.97 1.982 1.92 1.952 1.94 1.877 1.952 1.925 1.962 2.04 2.01 2.082 2.097 1.927 1.947 1.995 2.007 1.935 1.952 1.957 1.905 1.927 1.895 1.915 1.87 1.852 1.857 1.825 1.812 1.792 1.795 1.755 1.74 1.712 1.735 1.8 1.837 1.82 1.86 1.882 1.872 1.937 1.952 1.932 1.972 1.957 1.917 1.935 1.947 1.93 1.847 1.777 1.787 1.767 1.845 1.81 1.795 1.82 1.815 1.845 1.83 1.802 1.907 1.912 1.837 1.895 1.855 1.889 1.889 1.824 1.814 1.817 1.852 1.842 1.877 1.807 1.874 1.847 1.877 1.894 1.867 1.894 1.952 1.917 1.962 1.897 1.874 1.877 1.887 1.857 1.839 1.854 1.919 1.907 1.897 1.832 1.874 1.892 1.874 1.864 1.857 1.852 1.862 1.829 1.807 1.852 1.852 1.832 1.862 1.859 1.924 1.944 1.962 1.902 1.904 1.929 1.827 1.819 1.857 1.909 1.894 1.864 1.832 1.807 1.854 1.812 1.747 1.769 1.802 1.789 1.822 1.862 1.842 1.827 1.862 1.932 1.954 1.989 1.982 1.984 1.967 1.944 1.874 1.919 1.907 1.939 1.992 2.069 1.994 1.917 1.907 1.892 1.847 1.877 1.867 1.852 1.904 1.927 1.902 1.922 1.867 1.817 1.844 1.879 1.857 1.932 1.807 1.872 1.862 1.877 1.877 1.829 1.919 1.874 1.907 1.854 1.929 1.877 1.827 1.852 1.844 1.877 1.884 1.852 1.897 1.902 1.892 1.899 1.959 1.937 1.942 1.869 1.924 1.889 1.919 1.947 2.017 1.904 1.909 1.862 1.892 1.887 1.932 1.944 1.912 1.894 1.882 1.834 1.814 1.847 1.919 1.937 1.977 1.947 1.812 1.824 1.849 1.842 1.839 1.837 1.879 1.944 1.914 1.877 1.852 1.817 1.837 1.922 1.899 1.884 1.902 1.942 1.889 1.974 1.922 1.892 1.812 1.879 1.889 1.879 1.914 1.957 1.952 1.907 1.839 1.802 1.799 1.829 1.872 1.889 1.869 1.917 1.819 1.899 1.852 1.814 1.869 1.902 1.874 1.902 1.914 1.894 1.842 1.872 1.922 1.867 1.897
1.93 1.895 1.925 1.885 1.992 1.98 1.957 1.937 2.027 1.977 1.942 1.945 1.915 1.942 2.007 1.932 1.9 1.917 1.912 1.92 1.947 1.882 1.87 1.952 1.947 1.877 1.9 1.985 2.055 2.05 1.952 1.905 1.867 1.95 1.932 1.892 1.865 2.015 1.937 1.9 1.85 1.94 1.887 1.88 1.885 1.87 1.905 1.94 1.812 1.735 1.907 1.855 1.832 1.832 1.887 1.887 1.845 1.907 1.89 1.892 1.927 1.872 1.925 1.885 1.905 1.882 1.845 1.805 1.912 1.925 1.945 2.01 1.935 1.86 1.827 1.945 1.912 1.935 1.857 1.772 1.93 1.902 1.807 1.875 1.86 1.885 1.885 1.855 1.835 1.9 1.895 1.847 1.83 1.865 1.847 1.892 1.865 1.932 1.947 1.877 1.952 1.955 1.82 1.92 1.982 1.92 1.935 1.905 1.91 1.867 1.9 1.885 1.932 1.895 2.015 1.952 1.91 1.92 1.925 1.885 1.895 1.977 2.005 1.982 1.937 1.985 1.99 1.992 1.977 1.955 1.925 1.86 1.892 1.975 1.955 1.977 1.96 1.947 1.902 1.927 1.962 1.89 1.925 1.915 1.897 1.895 1.902 1.92 1.935 1.957 2.022 1.922 1.897 1.91 1.87 1.945 1.9 1.902 1.88 1.897 1.935 1.88 1.88 1.935 1.917 1.945 1.97 1.99 2.007 2.015 2.057 2.065 2.035 1.997 1.947 1.875 1.862 1.83 1.82 1.805 1.895 1.875 1.885 1.962 1.9 1.957 1.987 1.992 1.957 1.955 1.98 1.92 1.967 1.862 1.88 1.917 1.902 1.93 1.905 1.817 1.825 1.842 1.862 1.872 1.915 1.857 1.91 1.89 1.952 1.87 1.855 1.93 1.875 1.875 1.837 1.927 1.902 1.922 1.925 1.827 1.87 1.862 1.862 1.9 1.887 1.837 1.827 1.92 1.822 1.882 1.887 1.89 1.905 1.997 1.975 1.96 1.927 1.88 1.872 2.037 1.947 2.075 2.035 2.005 2.025 1.975 1.92 1.937 1.965 1.952 1.96 1.96 1.905 1.907 1.927 1.9 1.912 1.862 1.905 1.847 1.8 1.805 1.715 1.82 1.785 1.787 1.765 1.792 1.815 1.887 1.86 1.88 1.937 1.947 1.912 1.975 1.977 2.01 1.957 1.985 2.002 1.935 1.847 1.835 1.81 1.79 1.787 1.787 1.767 1.782 1.812 1.8 1.822 1.902 1.827 1.897 1.865 1.805 1.865 1.88 1.877 1.869 1.804 1.809 1.804 1.802 1.929 1.867 1.882 1.824 1.867 1.822 1.827 1.829 1.852 1.889 1.897 1.924 1.829 1.827 1.812 1.807 1.817 1.862 1.897 1.944 1.912 1.884 1.857 1.789 1.874 1.897 1.874 1.869 1.884 1.834 1.874 1.854 1.864 1.834 1.894 1.832 1.864 1.944 1.917 1.927 1.952 1.877 1.894 1.842 1.807 1.824 1.847 1.884 1.852 1.877 1.869 1.819 1.752 1.699 1.742 1.779 1.804 1.847 1.857 1.924 1.854 1.859 1.894 1.952 1.967 1.997 1.979 1.984 2.014 1.949 1.997 1.934 1.949 1.969 2.012 1.992 1.912 1.872 1.877 1.879 1.894 1.872 1.852 1.837 1.867 1.857 1.874 1.884 1.809 1.842 1.927 1.899 1.852 1.824 1.947 1.874 1.889 1.869 1.879 1.909 1.952 1.912 1.874 1.874 1.872 1.834 1.827 1.854 1.902 1.884 1.944 1.909 1.894 1.907 1.929 1.914 1.959 1.879 1.874 1.897 1.959 1.899 1.949 1.984 1.932 1.922 1.909 1.899 1.887 1.969 1.897 1.882 1.882 1.864 1.879 1.879 1.869 1.902 1.954 1.897 1.927 1.847 1.782 1.852 1.837 1.814 1.849 1.942 1.922 1.834 1.829 1.862 1.897 1.897 1.974 1.914 1.897 1.842 1.959 1.907 1.932 1.862 1.812 1.899 1.874 1.932 1.987 1.924 1.912 1.799 1.817 1.804 1.847 1.872 1.804 1.842 1.927 1.859 1.844 1.799 1.914 1.819 1.842 1.887 1.942 1.952 1.904 1.879 1.857 1.837 1.857 1.902 1.964 1.882
