ncols 500
nrows 32
xllcorner    464000
yllcorner    91350
cellsize     2
NODATA_value -9999
1.923 1.953 2.005 1.885 1.915 1.885 1.923 1.96 2.003 1.92 1.828 1.803 1.828 1.915 1.945 1.978 1.965 1.905 1.833 1.77 1.798 1.895 1.89 1.89 1.823 1.868 1.85 1.848 1.863 1.833 1.855 1.945 1.88 1.893 1.873 1.848 1.83 1.785 1.813 1.823 1.888 1.843 1.828 1.888 1.883 1.945 1.968 1.968 1.87 1.833 1.85 1.923 2.03 2.005 1.993 1.925 1.908 1.925 1.933 1.94 1.93 1.94 1.99 1.885 2.053 2.028 2.045 2.01 1.973 1.873 1.87 1.945 1.968 1.983 1.903 1.865 1.788 1.75 1.81 1.848 1.868 1.878 1.863 1.843 1.855 1.868 1.96 1.915 1.863 1.835 1.815 1.783 1.835 1.838 1.94 1.943 1.955 1.915 1.878 1.92 1.953 1.941 1.873 1.916 1.931 1.953 1.953 1.956 1.953 1.851 1.873 1.858 1.931 1.931 1.941 1.931 1.901 1.858 1.788 1.851 1.926 1.886 1.871 1.861 1.903 1.941 1.908 1.908 1.956 1.923 1.871 1.888 1.968 1.981 1.893 1.828 1.828 1.836 1.968 1.931 2.016 2.061 2.053 1.986 1.908 1.858 1.861 1.868 1.873 1.998 2.023 1.983 1.946 1.908 1.893 1.871 1.896 1.956 2.013 1.956 1.921 1.871 1.881 1.956 1.996 2.001 2.011 1.973 1.966 2.016 1.983 1.933 1.908 1.998 2.021 2.058 1.998 1.903 1.906 1.956 1.986 2.011 2.081 2.001 1.881 1.836 1.886 1.876 1.911 1.893 1.801 1.903 1.896 1.856 1.803 1.826 1.918 1.928 1.891 1.846 1.836 1.883 1.963 1.991 1.866 1.941 1.871 1.928 1.908 1.956 1.883 1.841 1.886 1.851 1.858 1.838 1.916 1.883 1.758 1.768 1.786 1.893 1.943 1.908 1.853 1.778 1.803 1.866 1.976 1.961 2.008 1.958 1.878 1.831 1.788 1.931 1.856 1.953 1.983 1.961 2.023 2.021 2.068 2.093 1.993 1.953 1.906 1.916 1.848 1.856 1.866 1.858 1.971 1.948 1.986 1.883 1.788 1.781 1.846 1.883 1.926 1.941 1.856 1.898 1.921 1.911 1.991 1.946 1.878 1.988 1.963 1.881 1.908 1.801 1.803 1.891 1.926 1.956 1.896 1.848 1.861 1.881 1.871 1.846 1.798 1.866 1.918 1.923 1.881 1.941 2.001 1.938 1.898 1.871 1.773 1.801 1.886 1.946 1.931 2.021 1.928 1.881 1.798 1.846 1.868 1.978 2.016 1.973 2.091 2.056 1.996 1.936 1.788 1.786 1.746 1.893 1.918 1.918 1.988 1.928 1.883 1.901 1.903 1.923 2.001 1.933 1.903 1.888 1.918 1.943 1.978 2.016 1.976 1.901 1.911 1.996 1.963 1.963 1.891 1.826 1.816 1.851 1.893 1.951 1.863 1.816 1.823 1.793 1.821 1.816 1.811 1.891 1.811 1.881 1.961 1.941 1.936 1.851 1.838 1.916 1.933 1.966 2.003 1.993 2.028 1.888 1.826 1.943 1.956 1.976 1.963 2.008 1.933 1.831 1.821 1.868 1.951 1.893 1.903 1.818 1.851 1.848 1.783 1.781 1.868 1.896 2.046 2.063 2.053 2.021 1.936 1.896 1.883 1.933 1.911 1.883 1.996 1.971 1.966 1.876 1.981 1.946 1.943 1.873 1.901 1.921 1.946 1.926 1.938 1.996 1.978 1.911 1.881 1.896 1.933 1.916 1.873 1.903 1.898 1.888 1.883 1.878 1.903 1.951 1.931 1.983 1.993 1.978 1.956 1.913 2.016 2.036 2.093 2.061 1.921 1.853 1.886 1.876 1.938 1.981 1.901 1.888 1.868 1.873 1.981 1.988 1.978 1.951 1.953 1.978 1.833 1.778 1.836 1.918 1.856 1.853 1.878 1.841 1.841 1.838 1.903 1.928 1.973 1.976 2.021 1.956 1.863 1.831 1.836 1.918 1.958 1.956 1.998 2.011 1.926 1.908 1.963 1.851 1.833 1.853 1.893 1.858 1.838 1.781 1.753 1.876 1.971 1.913 1.878 1.846 1.816 1.778 1.866 1.963 1.888 1.848 1.933 1.788 1.806 1.858
1.928 1.96 1.965 1.928 1.958 1.895 1.963 1.955 1.99 1.888 1.783 1.79 1.88 1.935 1.93 1.945 1.873 1.8 1.725 1.748 1.92 1.9 1.87 1.83 1.845 1.853 1.9 1.88 1.883 1.863 1.9 1.893 1.825 1.76 1.753 1.795 1.798 1.788 1.81 1.843 1.898 1.848 1.923 2.008 2 2.028 2.003 1.938 1.865 1.853 1.855 1.985 1.978 1.973 1.953 1.978 1.948 1.965 1.963 1.893 1.903 1.86 1.88 1.863 1.98 1.973 1.943 1.963 1.92 1.87 1.995 2.015 1.995 2.015 1.873 1.83 1.828 1.875 1.785 1.975 1.925 1.933 1.905 1.938 1.953 1.883 1.87 1.848 1.76 1.793 1.763 1.84 1.908 1.883 1.96 1.898 1.918 1.935 1.923 1.915 1.933 1.958 1.928 1.978 1.956 1.931 1.901 1.843 1.808 1.761 1.831 1.831 1.956 1.926 1.938 1.896 1.811 1.791 1.796 1.868 1.903 1.913 1.898 1.913 1.863 1.886 1.926 1.916 1.918 1.888 1.863 1.953 2.001 1.933 1.923 1.803 1.883 1.936 1.963 1.978 2.033 2.061 1.978 1.928 1.826 1.913 1.923 1.943 1.916 1.986 2.033 1.998 1.951 1.973 1.971 1.988 2.081 2.056 2.023 2.023 1.951 1.888 1.886 2.008 2.096 1.988 1.978 1.891 1.923 1.938 1.966 1.931 1.896 2.021 2.008 2.008 1.956 1.916 1.916 1.993 1.993 2.063 2.041 1.958 1.851 1.816 1.871 1.906 1.883 1.881 1.956 1.941 1.886 1.793 1.826 1.978 1.923 1.868 1.828 1.833 1.866 1.943 1.896 1.871 1.793 1.866 1.881 1.831 1.906 1.923 1.841 1.818 1.788 1.798 1.776 1.811 1.851 1.806 1.768 1.693 1.921 1.878 1.948 1.833 1.838 1.961 1.993 1.946 1.943 1.931 1.903 1.903 1.903 1.811 1.821 1.913 1.906 2.018 1.948 1.973 1.953 2.011 2.026 2.006 1.971 1.821 1.806 1.863 1.936 1.908 1.896 1.983 1.926 1.961 1.958 1.843 1.786 1.866 1.811 1.956 1.926 1.871 1.951 1.943 1.971 1.943 1.916 1.913 1.903 1.958 1.916 1.908 1.858 1.811 1.771 1.916 2.033 1.938 1.868 1.823 1.833 1.903 1.833 1.861 1.883 1.901 1.926 1.948 1.913 1.888 1.946 1.991 1.963 1.863 1.883 1.883 1.921 1.946 1.903 1.921 1.886 1.816 1.776 1.836 1.893 1.993 2.053 2.026 2.018 2.006 1.861 1.828 1.721 1.783 1.778 1.868 1.953 1.963 1.973 1.921 1.886 1.903 1.963 1.986 1.953 1.908 1.908 1.976 1.956 1.946 1.951 1.956 1.941 1.908 1.926 1.926 1.858 1.863 1.826 1.781 1.773 1.838 1.921 1.913 1.836 1.863 1.796 1.831 1.813 1.876 1.863 1.916 1.936 1.963 1.948 2.046 1.928 1.823 1.821 1.828 1.851 1.988 2.083 1.993 1.896 1.846 1.938 2.003 2.016 2.011 1.961 1.981 1.878 1.881 1.848 1.923 1.893 1.973 1.911 1.836 1.798 1.826 1.858 1.908 1.981 2.053 2.081 2.086 2.011 1.931 1.868 1.836 1.866 1.941 1.938 1.866 1.931 1.943 1.961 1.878 1.913 1.973 1.918 1.878 1.908 1.928 1.986 1.941 1.973 1.866 1.921 1.863 1.918 1.908 1.943 1.968 1.873 1.873 1.891 1.898 1.858 1.858 1.888 1.928 1.933 2.001 1.981 1.861 1.911 1.913 1.993 1.983 1.963 1.916 1.876 1.748 1.828 1.951 2.036 1.996 1.978 1.841 1.861 1.898 1.933 1.938 1.923 1.888 1.943 1.823 1.741 1.808 1.886 1.893 1.941 1.943 1.853 1.828 1.873 1.848 1.866 1.938 2.026 2.013 2.016 1.926 1.858 1.901 1.876 1.988 1.986 1.996 1.998 1.953 1.958 1.933 1.898 1.826 1.838 1.898 1.933 1.876 1.818 1.758 1.841 1.981 2.038 1.888 1.858 1.803 1.786 1.828 1.976 1.933 1.886 1.856 1.886 1.866 1.848 2.003
1.978 1.958 1.925 1.935 1.903 1.913 1.993 1.988 1.983 1.86 1.783 1.885 1.938 1.928 1.9 1.908 1.805 1.79 1.77 1.81 1.843 1.863 1.768 1.873 1.845 1.833 1.935 1.983 1.925 1.873 1.893 1.945 1.843 1.75 1.728 1.78 1.803 1.843 1.88 1.96 1.893 1.913 1.965 1.99 2.005 2.08 1.985 1.908 1.878 1.988 2.005 2.053 1.998 1.923 1.853 1.868 1.875 1.898 1.878 1.89 1.95 1.83 1.833 1.81 1.908 1.908 1.903 1.893 1.828 1.89 1.998 1.953 1.928 1.88 1.83 1.825 1.858 1.885 1.908 1.988 1.963 1.903 1.895 1.895 1.873 1.855 1.82 1.795 1.768 1.778 1.833 1.95 1.98 1.993 1.998 1.975 1.963 1.945 1.933 1.945 1.948 1.941 1.966 1.933 1.918 1.888 1.896 1.863 1.786 1.733 1.856 1.878 1.961 1.948 1.863 1.823 1.713 1.806 1.876 1.898 1.891 1.918 1.943 1.893 1.848 1.891 1.863 1.876 1.868 1.848 1.836 1.911 1.946 1.928 1.873 1.841 1.923 1.931 1.981 2.003 2.018 1.991 1.868 1.828 1.838 1.851 1.886 1.943 1.986 2.056 2.028 2.028 2.006 1.983 2.018 2.073 2.083 2.121 2.033 1.923 1.921 1.841 1.886 1.978 1.976 1.933 1.858 1.878 1.896 1.888 1.948 1.868 1.881 1.996 2.003 1.973 1.933 1.893 1.986 1.958 1.983 1.981 1.908 1.858 1.811 1.851 1.888 1.868 1.886 1.941 2.006 1.988 1.918 1.838 1.928 2.021 1.943 1.893 1.816 1.803 1.828 1.838 1.821 1.791 1.776 1.781 1.811 1.908 1.931 1.911 1.883 1.833 1.881 1.841 1.818 1.863 1.928 1.886 1.781 1.868 1.908 1.973 1.923 1.853 1.876 1.896 1.958 1.976 1.941 1.923 1.931 1.886 1.848 1.796 1.826 1.941 2.023 1.988 2.031 1.966 1.971 1.996 2.013 1.896 1.841 1.753 1.866 1.846 1.956 1.911 1.898 1.958 1.928 1.951 1.926 1.776 1.833 1.828 1.928 2.008 1.968 1.901 1.943 2.018 1.933 1.896 1.903 1.926 1.938 1.986 1.961 1.871 1.773 1.748 1.801 1.928 1.966 1.908 1.898 1.893 1.951 1.893 1.868 1.871 1.958 1.978 2.006 1.941 1.946 1.893 1.973 1.896 1.871 1.808 1.826 1.908 1.908 1.923 1.923 1.883 1.816 1.828 1.906 1.858 1.946 2.046 2.028 1.953 1.963 1.896 1.801 1.768 1.783 1.896 1.893 1.946 1.976 2.028 1.986 1.838 1.841 1.941 1.958 1.983 2.028 1.936 1.881 1.993 2.013 1.976 1.951 2.053 1.903 1.946 1.931 1.881 1.871 1.808 1.756 1.758 1.821 1.911 1.956 1.901 1.823 1.848 1.856 1.886 1.941 1.928 1.963 1.973 1.963 1.913 1.936 1.911 1.881 1.763 1.851 1.846 1.916 1.958 1.981 1.941 1.881 1.878 1.961 2.126 2.023 1.946 1.916 1.921 1.793 1.793 1.878 1.948 1.923 1.988 1.886 1.796 1.848 1.868 1.833 1.923 1.958 1.946 1.958 1.948 1.886 1.823 1.768 1.821 1.948 1.976 1.958 1.976 2.003 2.003 1.966 1.971 1.966 1.973 1.858 1.926 1.918 1.898 1.933 1.881 1.878 1.938 1.876 1.888 1.941 2.006 2.013 1.923 1.903 1.878 1.908 1.856 1.903 1.808 1.931 1.963 1.953 1.958 1.881 1.908 1.861 1.963 1.988 1.973 1.926 1.861 1.788 1.828 1.858 1.973 2.036 1.996 1.913 1.833 1.893 1.928 1.953 1.923 1.843 1.863 1.998 1.838 1.781 1.746 1.838 1.888 1.833 1.921 1.918 1.818 1.891 1.988 2.006 2.078 2.043 2.106 2.023 1.906 1.891 1.916 1.978 1.986 1.971 1.968 1.931 1.923 1.893 1.886 1.921 1.821 1.856 1.951 1.918 1.891 1.876 1.848 1.971 1.968 1.946 1.871 1.831 1.806 1.831 1.938 2.016 1.896 1.858 1.948 1.963 1.911 1.988 1.976
1.95 1.903 1.855 1.805 1.83 1.893 1.928 1.945 1.923 1.81 1.83 1.913 1.905 1.883 1.908 1.905 1.81 1.813 1.8 1.9 1.878 1.845 1.815 1.86 1.888 1.945 1.923 1.915 1.898 1.85 1.88 1.815 1.743 1.723 1.755 1.828 1.89 1.89 1.918 1.968 1.965 1.96 2.065 2.025 2.01 2.065 1.95 1.875 1.863 1.92 2.005 1.943 1.918 1.893 1.888 1.95 1.968 1.928 1.958 1.898 1.943 1.883 1.905 1.923 1.973 1.943 1.913 1.84 1.825 1.878 1.933 1.913 1.888 1.84 1.848 1.83 1.88 1.91 1.923 1.963 1.918 1.883 1.91 1.875 1.848 1.775 1.78 1.765 1.808 1.898 1.933 2.043 2.018 1.95 1.915 1.883 1.868 1.918 1.928 1.98 1.921 1.913 1.921 1.928 1.838 1.848 1.828 1.806 1.783 1.821 1.926 1.938 1.956 1.891 1.828 1.746 1.701 1.801 1.898 1.976 1.966 1.921 1.888 1.876 2.001 1.951 1.903 1.956 1.953 1.878 1.921 1.931 1.946 1.958 1.818 1.843 1.926 2.001 2.011 1.983 1.981 1.888 1.911 1.838 1.833 1.983 1.963 2.021 2.013 2.048 2.053 2.003 1.956 1.991 1.986 2.001 1.928 1.963 1.928 1.871 1.906 1.891 1.933 1.988 1.926 1.906 1.888 1.891 1.913 2.021 1.948 1.906 2.003 1.981 1.983 1.928 1.898 1.921 1.953 1.933 1.911 1.901 1.901 1.823 1.793 1.793 2.003 1.956 1.906 1.973 2.041 2.006 1.878 1.888 1.978 1.978 1.938 1.831 1.833 1.771 1.771 1.866 1.866 1.791 1.803 1.811 1.863 2.011 1.976 1.928 1.848 1.836 1.828 1.801 1.821 1.896 1.928 1.901 1.933 1.956 1.931 1.918 1.811 1.843 1.876 1.923 1.981 1.981 1.998 1.946 1.921 1.853 1.831 1.811 1.881 1.908 2.013 1.958 1.938 1.943 1.961 1.968 1.943 1.826 1.748 1.768 1.851 1.988 1.961 1.821 1.941 1.931 1.918 1.913 1.851 1.831 1.878 1.956 2.031 1.991 1.916 1.881 1.891 1.928 1.901 1.838 1.956 1.938 1.991 1.973 1.943 1.801 1.766 1.798 1.878 1.973 2.013 1.976 1.888 1.931 1.881 1.961 1.968 1.988 1.973 2.008 2.001 1.921 1.983 1.926 1.968 1.898 1.893 1.803 1.883 1.918 1.996 1.908 1.906 1.881 1.821 1.916 1.913 1.908 2.063 2.016 2.016 1.968 1.948 1.868 1.796 1.796 1.966 2.023 1.953 1.966 1.988 2.016 1.878 1.856 1.848 1.906 1.981 1.998 1.986 1.931 1.928 1.921 1.971 1.943 1.986 1.906 1.876 1.856 1.866 1.898 1.886 1.783 1.846 1.858 1.848 1.901 1.953 1.866 1.823 1.838 1.873 1.863 1.906 1.913 1.956 2.018 1.961 1.921 1.983 1.926 1.813 1.871 1.936 1.978 1.968 2.033 1.881 1.868 1.841 1.966 2.056 2.136 1.986 1.913 1.863 1.816 1.786 1.801 1.868 1.928 1.883 1.863 1.763 1.751 1.811 1.883 1.908 1.916 1.873 1.948 1.986 1.923 1.821 1.778 1.723 1.966 2.096 2.081 2.001 2.011 1.996 1.953 1.946 1.986 1.921 1.911 1.843 1.888 1.976 1.918 1.928 1.928 1.946 1.928 1.961 2.026 2.071 1.933 1.903 1.896 1.903 1.878 1.871 1.831 1.848 1.961 2.016 1.913 1.948 1.913 1.933 1.963 1.968 1.948 1.941 1.946 1.943 1.816 1.758 1.856 1.936 2.046 2.058 2.003 1.903 1.861 1.903 1.948 1.951 1.898 1.931 1.876 1.873 1.828 1.816 1.881 1.926 1.946 1.931 1.921 1.918 1.898 2.003 2.068 2.043 2.026 2.018 1.966 1.856 1.891 1.818 1.941 1.988 1.968 1.956 1.911 1.963 2.006 1.956 1.863 1.821 1.763 1.871 1.853 1.893 1.878 1.841 1.841 1.881 1.978 1.976 1.896 1.848 1.818 1.856 1.933 1.926 1.901 1.866 1.916 1.883 1.868 1.928 1.993
1.963 1.91 1.875 1.91 1.955 1.945 1.983 1.913 1.825 1.813 1.858 1.873 1.873 1.88 1.848 1.86 1.82 1.813 1.843 1.905 1.933 1.898 1.925 1.898 1.895 1.908 1.99 1.89 1.893 1.85 1.79 1.785 1.703 1.688 1.83 1.93 1.958 1.898 1.898 1.968 1.965 2.018 1.99 1.968 1.97 1.88 1.848 1.848 1.818 1.93 1.963 1.923 1.88 1.878 1.883 1.945 1.925 1.928 2 1.938 1.94 1.905 1.92 1.975 2 1.943 1.95 1.865 1.833 1.943 1.963 1.973 1.975 1.908 1.898 1.938 1.92 1.953 1.958 1.965 1.878 1.843 1.838 1.84 1.81 1.77 1.795 1.813 1.903 2.018 2.01 1.995 1.98 1.958 1.895 1.855 1.848 1.933 2.023 1.99 1.913 1.913 1.961 1.938 1.873 1.896 1.841 1.783 1.793 1.813 1.961 1.978 1.913 1.848 1.768 1.761 1.811 1.933 1.931 1.968 1.963 1.908 1.891 1.968 1.978 1.971 1.961 1.933 1.841 1.818 1.913 1.881 1.968 1.938 1.891 2.001 1.956 1.948 1.986 1.928 1.906 1.831 1.893 1.883 1.923 1.981 1.956 1.956 1.991 2.026 2.013 1.923 1.878 1.981 2.018 2.038 2.001 1.983 1.906 1.896 1.878 1.848 1.953 1.986 1.951 1.916 1.873 1.963 1.976 2.023 2.033 1.986 2.048 2.046 2.016 1.986 1.881 1.833 1.888 1.916 1.886 1.821 1.806 1.821 1.831 1.938 2.018 2.013 2.031 2.006 2.023 1.963 1.901 1.908 1.981 1.906 1.806 1.753 1.758 1.793 1.783 1.823 1.833 1.796 1.903 1.891 1.911 1.936 1.953 1.896 1.806 1.781 1.836 1.778 1.848 1.888 1.908 1.941 1.948 1.908 1.903 1.911 1.868 1.911 1.921 1.996 2.041 1.998 1.911 1.876 1.896 1.856 1.848 1.883 1.948 1.938 1.976 1.956 1.971 1.908 1.856 1.843 1.783 1.773 1.728 1.843 1.908 1.998 1.916 1.871 1.903 1.941 1.923 2.053 1.906 1.858 1.921 1.971 1.968 1.918 1.898 1.886 1.968 1.921 1.976 1.883 1.998 2.006 1.991 1.916 1.848 1.771 1.781 1.898 1.983 2.093 2.093 1.986 1.906 2.013 1.988 2.008 1.963 1.936 1.941 1.926 1.923 1.863 1.811 1.873 1.878 1.863 1.876 1.936 1.881 1.966 1.973 1.938 1.908 1.876 1.868 1.893 1.913 1.951 2.031 1.973 1.933 1.946 1.871 1.831 1.798 1.903 2.061 1.966 1.953 1.956 1.941 2.003 1.863 1.821 1.958 2.018 1.993 1.903 1.936 1.881 1.931 1.911 1.906 1.971 1.873 1.816 1.861 1.938 1.908 1.933 1.848 1.811 1.893 1.846 1.881 1.848 1.808 1.798 1.833 1.848 1.818 1.993 1.991 2.006 2.028 1.858 1.856 1.913 1.906 1.846 1.861 1.846 2.021 2.026 2.026 1.983 1.923 1.903 1.936 2.041 2.076 2.123 1.963 1.876 1.858 1.801 1.823 1.853 1.921 1.906 1.871 1.906 1.778 1.786 1.923 1.878 1.941 1.848 1.896 1.971 1.996 1.848 1.806 1.808 1.856 1.981 2.076 2.021 1.906 1.871 1.888 1.866 1.908 1.943 1.826 1.788 1.831 1.891 1.971 2.008 1.973 1.986 1.911 1.911 1.993 1.973 1.986 1.926 1.896 1.928 1.908 1.881 1.921 1.856 1.901 1.951 1.893 1.876 1.886 1.903 1.936 1.908 1.846 1.908 1.916 1.938 1.908 1.803 1.943 1.923 2.178 2.081 2.031 1.911 1.856 1.898 2.016 1.941 1.916 1.801 1.826 1.863 1.818 1.783 1.838 1.838 1.968 2.018 1.938 1.918 1.908 1.863 1.973 2.083 2.041 1.946 1.893 1.868 1.843 1.861 1.921 1.968 2.026 2.016 1.938 1.878 2.013 1.988 1.913 1.858 1.821 1.826 1.996 1.956 1.906 1.861 1.853 1.888 1.953 2.048 2.016 1.901 1.851 1.891 1.921 1.906 1.858 1.836 1.821 1.853 1.878 1.923 1.941 1.923
2.055 1.99 1.923 1.903 1.99 1.988 2.013 1.903 1.873 1.878 1.933 1.938 2.003 1.923 1.915 1.92 1.92 1.888 1.913 1.94 1.92 1.928 1.978 1.965 1.91 1.928 1.963 1.92 1.905 1.923 1.855 1.868 1.868 1.883 1.968 1.998 1.97 1.865 1.863 1.905 1.933 1.955 1.923 1.89 1.84 1.768 1.81 1.78 1.855 1.923 1.918 1.908 1.88 1.87 1.89 1.915 1.948 1.975 1.993 1.95 1.933 1.925 1.978 1.983 1.988 1.92 1.868 1.82 1.853 2.068 1.963 1.953 1.928 1.928 1.945 1.883 1.905 1.945 1.998 1.898 1.83 1.823 1.823 1.838 1.77 1.818 1.803 1.89 1.948 1.988 1.898 1.968 1.95 1.918 1.853 1.89 1.908 1.91 1.933 1.95 1.861 1.878 1.923 1.931 1.883 1.888 1.858 1.798 1.856 1.938 2.001 1.973 1.818 1.746 1.708 1.811 1.926 1.946 1.943 1.908 1.866 1.831 1.833 1.928 1.943 1.948 1.856 1.878 1.813 1.818 1.906 1.918 1.963 1.888 1.911 1.928 1.928 1.976 2.008 1.931 1.901 1.803 1.873 1.926 1.998 1.953 2.013 1.966 1.991 1.986 1.916 1.906 1.876 1.921 1.963 1.943 1.968 1.908 1.871 1.921 1.976 1.943 2.006 1.953 1.933 1.991 1.906 1.941 1.958 1.991 1.928 1.956 1.961 1.903 1.933 1.891 1.848 1.853 1.833 1.988 1.831 1.811 1.806 1.863 1.986 2.006 2.033 2.013 1.956 1.971 1.931 1.891 1.903 1.908 1.786 1.858 1.748 1.753 1.838 1.798 1.856 1.828 1.883 1.878 1.901 1.883 1.951 1.951 1.868 1.836 1.756 1.848 1.908 1.848 1.871 1.886 1.891 1.968 1.966 1.876 1.833 1.871 1.843 1.903 2.016 2.113 2.006 1.916 1.811 1.803 1.861 1.913 1.861 1.983 1.996 1.993 1.991 1.978 1.901 1.876 1.868 1.793 1.758 1.743 1.771 1.956 1.976 1.986 1.948 1.856 1.861 1.966 1.911 1.946 1.901 1.933 2.001 2.001 2.016 1.961 1.951 1.961 1.931 1.918 1.863 1.901 2.008 2.016 1.961 1.843 1.816 1.758 1.878 1.978 2.126 2.133 2.091 1.908 1.851 1.996 2.046 1.971 1.968 1.943 1.956 1.941 1.891 1.908 1.861 1.856 1.958 1.903 1.946 1.921 1.911 2.023 1.991 1.926 1.763 1.856 1.893 1.878 1.893 1.953 1.976 1.978 1.893 1.881 1.888 1.866 1.928 2.001 2.113 2.018 1.898 1.956 1.921 1.891 1.823 1.856 1.986 1.961 2.053 1.961 1.903 1.946 1.968 1.943 1.996 1.926 1.888 1.916 1.983 1.983 1.948 1.893 1.873 1.883 1.846 1.918 1.896 1.808 1.781 1.796 1.838 1.916 1.971 2.111 1.926 1.926 1.911 2.006 1.876 1.931 1.958 1.823 1.888 1.986 2.091 2.003 2.003 1.971 1.918 1.921 1.988 2.066 2.136 2.001 1.896 1.846 1.833 1.878 1.923 1.898 1.971 1.903 1.803 1.808 1.771 1.773 1.903 1.933 1.948 1.951 1.936 1.941 1.923 1.821 1.831 1.876 1.958 2.011 1.988 2.033 1.843 1.866 1.858 1.871 1.956 1.826 1.806 1.871 1.901 1.988 2.058 2.008 2.013 1.968 1.893 1.893 1.883 1.953 1.923 1.978 1.968 1.918 1.966 1.948 1.893 1.881 1.941 1.866 1.838 1.921 1.963 1.933 1.908 1.853 1.851 1.883 1.906 1.921 1.833 1.853 1.961 2.096 2.023 1.958 1.963 1.896 1.908 1.933 1.936 1.841 1.958 1.848 1.788 1.738 1.691 1.813 1.956 1.951 1.991 2.031 1.958 1.916 1.931 1.951 1.961 2.023 1.961 1.881 1.868 1.838 1.946 1.931 1.973 1.928 2.028 1.978 1.793 1.803 1.973 1.896 1.886 1.846 1.823 1.888 1.958 1.966 1.978 1.906 1.896 1.973 1.968 1.998 1.906 1.853 1.861 1.893 1.893 1.851 1.936 1.818 1.858 1.868 1.896 1.911 1.918 1.903
2.023 1.938 1.9 1.965 2.003 2.008 1.903 1.845 1.873 1.903 1.965 1.935 1.938 1.873 1.883 1.92 1.84 1.875 1.905 1.918 1.928 1.96 1.963 1.94 1.895 1.915 1.915 1.895 1.91 1.91 1.903 1.858 1.893 1.915 1.95 1.935 1.878 1.835 1.923 1.94 1.845 1.855 1.818 1.835 1.84 1.79 1.833 1.833 1.93 1.975 1.935 1.918 1.903 1.928 1.93 1.958 2.023 1.975 1.96 1.965 2.028 1.938 1.908 1.96 1.95 1.893 1.863 1.84 1.965 2.043 2.008 1.95 1.903 1.91 1.898 1.863 1.923 1.938 1.915 1.828 1.785 1.783 1.785 1.783 1.78 1.788 1.838 1.925 1.91 1.875 1.91 1.975 1.9 1.898 1.878 1.883 1.893 1.918 1.935 1.903 1.886 1.908 1.978 1.916 1.851 1.838 1.796 1.808 1.918 1.963 2.026 1.896 1.756 1.758 1.808 1.813 1.916 1.958 1.893 1.843 1.803 1.773 1.906 1.941 1.966 1.898 1.856 1.868 1.816 1.843 1.883 1.926 1.941 1.913 1.903 1.931 1.961 1.971 1.933 1.878 1.883 1.868 1.946 2.021 1.991 1.978 1.988 2.043 2.018 1.928 1.851 1.801 1.888 1.918 1.998 1.961 1.941 1.926 1.923 1.928 1.891 1.881 1.968 1.976 1.933 1.913 1.878 1.926 1.946 1.946 1.953 1.913 1.881 1.863 1.821 1.816 1.833 1.826 1.888 1.893 1.851 1.861 1.911 1.983 2.043 2.016 2.006 1.963 1.978 1.911 1.923 1.866 1.848 1.891 1.868 1.816 1.796 1.806 1.906 1.866 1.846 1.946 2.018 1.888 1.878 1.978 1.971 1.863 1.866 1.816 1.821 1.821 1.878 1.866 1.916 1.926 1.956 1.988 1.981 1.838 1.818 1.793 1.806 1.901 1.891 1.933 1.868 1.828 1.813 1.843 1.823 1.838 1.933 2.001 1.998 1.993 1.953 1.863 1.843 1.816 1.828 1.858 1.791 1.851 1.988 2.053 2.043 1.963 1.856 1.816 1.891 1.878 1.876 1.941 1.991 1.951 1.943 1.971 1.933 1.911 1.948 1.971 1.918 1.848 1.901 1.836 1.928 1.933 1.868 1.863 1.796 1.851 1.966 1.993 2.106 2.041 1.921 1.858 1.946 1.963 1.958 1.851 1.878 1.906 1.978 1.981 1.921 1.893 1.891 1.921 1.986 1.928 1.951 1.843 1.951 2.008 1.988 1.898 1.823 1.863 1.861 1.873 1.901 1.953 1.958 1.923 1.923 1.903 1.921 1.951 1.946 2.046 2.006 1.898 1.891 1.881 1.891 1.863 1.906 1.886 1.988 1.948 1.928 1.998 1.896 1.953 1.971 1.953 1.958 1.906 1.853 1.928 1.898 1.901 1.838 1.846 1.876 1.858 1.866 1.903 1.823 1.883 1.838 1.871 1.906 1.906 2.046 2.023 1.946 1.961 1.923 1.901 1.916 1.928 1.878 1.871 1.888 1.988 2.056 2.036 1.941 1.906 1.948 1.903 2.011 2.051 2.033 1.921 1.793 1.778 1.821 1.878 1.888 1.858 1.871 1.831 1.796 1.763 1.738 1.823 1.913 1.956 1.903 1.916 1.943 1.901 1.866 1.828 1.878 1.871 1.968 2.041 2.001 1.973 1.846 1.843 1.871 1.891 1.878 1.811 1.818 1.938 1.963 1.966 1.958 1.928 1.943 1.888 1.921 1.871 1.918 1.941 1.996 1.983 1.971 1.988 2.011 1.901 1.881 1.896 1.923 1.716 1.833 1.866 1.948 1.896 1.923 1.803 1.826 1.921 1.953 1.956 1.933 1.978 2.008 2.051 2.011 1.943 1.873 1.838 1.791 1.881 1.956 1.893 1.851 1.878 1.783 1.803 1.888 1.951 2.023 2.081 2.078 2.036 1.908 1.876 1.926 1.888 1.981 2.026 1.966 1.881 1.911 1.906 2.026 2.083 2.008 1.931 1.893 1.826 1.776 1.773 1.883 1.848 1.878 1.881 1.878 2.011 1.993 1.978 1.828 1.838 1.858 1.898 1.941 1.928 1.928 1.803 1.896 1.903 1.808 1.853 1.911 1.836 1.863 1.878 1.901 1.883 1.848 1.793
1.868 1.8 1.865 1.905 1.943 1.923 1.883 1.87 1.925 1.94 1.918 1.913 1.86 1.828 1.905 1.858 1.83 1.833 1.875 1.903 1.933 1.998 2.003 1.905 1.938 1.925 2.008 1.933 1.895 1.885 1.825 1.86 1.878 1.905 1.89 1.84 1.79 1.81 1.845 1.84 1.84 1.848 1.94 1.883 1.895 1.793 1.825 1.918 1.958 1.993 2.01 1.913 1.923 2.01 2.015 1.995 2.025 1.973 2.003 2.008 1.958 1.918 1.928 2.03 1.963 1.893 1.875 1.87 1.96 1.958 1.983 1.87 1.833 1.785 1.73 1.848 1.883 1.94 1.858 1.808 1.718 1.758 1.798 1.88 1.903 1.875 1.99 1.968 1.963 1.928 2.025 1.97 1.93 1.863 1.848 1.878 1.83 1.933 1.95 1.89 1.983 2.015 1.963 1.923 1.91 1.865 1.878 1.94 2.01 1.985 1.905 1.86 1.758 1.748 1.765 1.838 1.89 1.86 1.828 1.813 1.843 1.888 1.955 1.88 1.988 1.858 1.853 1.84 1.875 1.88 1.913 1.97 1.953 1.898 1.938 1.89 1.948 1.918 1.91 1.913 1.915 1.903 1.955 2.005 1.908 1.895 1.93 1.938 1.883 1.785 1.77 1.755 1.868 1.953 2.025 1.993 1.893 1.903 1.903 1.918 1.838 1.963 1.993 1.928 1.898 1.868 1.84 1.96 1.9 1.895 1.89 1.898 1.893 1.843 1.875 1.868 1.888 1.963 1.968 1.905 1.853 1.88 1.973 2.045 1.993 1.975 1.925 1.895 1.885 1.915 1.898 1.9 1.868 1.845 1.873 1.873 1.838 1.813 1.895 1.903 1.908 1.89 1.868 1.85 1.938 1.978 1.95 1.875 1.838 1.775 1.793 1.86 1.848 1.888 1.915 1.973 2.038 1.958 1.908 1.763 1.77 1.8 1.823 1.95 1.928 1.915 1.82 1.8 1.885 1.86 1.908 1.965 2.003 1.99 1.935 1.895 1.853 1.823 1.84 1.833 1.745 1.77 1.885 1.983 2.025 2.065 2.003 1.908 1.855 1.87 1.9 1.905 1.91 1.935 1.97 1.875 1.875 1.905 1.885 1.88 1.893 1.91 1.868 1.815 1.923 1.89 1.988 1.915 1.818 1.855 1.84 1.868 2.09 1.995 2.013 1.94 1.815 1.853 1.99 1.945 1.975 1.925 1.92 1.938 1.978 1.915 1.89 1.883 1.86 1.91 1.948 1.953 1.995 1.87 1.918 1.898 1.873 1.825 1.768 1.8 1.88 1.903 1.968 1.95 1.893 1.923 1.893 1.92 1.97 1.98 2.073 1.96 2 1.868 1.843 1.855 1.9 1.833 1.863 1.878 1.96 1.99 1.975 1.96 1.948 1.985 1.985 1.998 1.918 1.835 1.848 1.855 1.858 1.863 1.81 1.8 1.858 1.913 1.898 1.858 1.81 1.855 1.963 1.978 2.003 1.96 1.983 2.065 1.935 1.933 1.92 1.868 1.868 1.893 1.88 1.928 1.99 2.043 2.023 1.933 1.96 1.893 1.97 2.025 1.99 2.003 1.903 1.8 1.773 1.738 1.843 1.798 1.863 1.88 1.858 1.833 1.805 1.905 1.793 1.915 1.928 1.978 1.878 1.908 1.818 1.868 1.888 1.875 1.863 1.933 2.02 1.993 1.985 1.85 1.895 1.905 1.845 1.875 1.843 1.85 1.925 1.965 2.023 1.96 1.975 1.998 1.905 1.913 1.898 1.92 2 2.063 1.97 1.885 1.95 1.958 1.963 1.908 1.813 1.873 1.813 1.848 1.95 1.898 1.898 1.935 1.968 1.93 1.898 1.995 1.988 1.963 1.955 2.015 2.008 2.08 1.96 1.875 1.845 1.94 1.873 1.958 1.935 2.088 1.928 1.845 1.913 1.848 2.015 2.085 2.006 1.963 1.961 1.906 1.818 1.866 1.918 1.986 2.026 2.046 1.991 1.908 1.868 1.953 1.936 1.906 1.913 1.928 1.936 1.781 1.866 1.843 1.878 1.928 1.901 1.871 1.873 1.918 1.913 1.918 1.846 1.881 1.916 1.901 1.913 1.863 1.858 1.853 1.906 1.836 1.833 1.838 1.831 1.903 1.928 2.036 1.883 1.876 1.828 1.771
1.765 1.763 1.828 1.88 1.968 1.88 1.845 1.888 1.875 1.863 1.873 1.793 1.798 1.845 1.855 1.873 1.838 1.875 1.855 1.953 1.9 1.925 1.923 1.848 1.853 1.918 1.958 1.893 1.908 1.89 1.873 1.885 1.853 1.83 1.81 1.748 1.76 1.81 1.89 1.91 1.828 1.895 1.843 1.858 1.823 1.79 1.853 1.97 1.998 1.998 1.938 1.895 1.93 2.008 1.985 1.968 1.925 1.898 1.95 1.995 1.953 1.94 1.975 1.985 1.955 1.87 1.845 1.94 1.958 1.973 1.883 1.813 1.768 1.793 1.795 1.943 1.91 1.95 1.838 1.78 1.813 1.805 1.875 1.95 1.913 1.938 2.003 1.963 1.953 1.965 2.018 1.963 1.878 1.873 1.858 1.923 1.945 1.958 1.94 1.895 1.943 1.955 1.958 1.84 1.828 1.83 1.88 1.918 2.003 1.928 1.838 1.788 1.758 1.818 1.813 1.905 1.833 1.873 1.853 1.898 1.913 1.933 1.995 1.885 1.905 1.865 1.853 1.848 1.865 1.92 1.923 1.993 1.948 1.945 1.93 1.853 1.88 1.915 1.895 1.888 1.91 1.958 1.948 1.975 1.908 1.953 2.008 1.91 1.865 1.825 1.833 1.853 2.015 1.973 1.985 1.953 1.953 1.948 1.933 2.023 2.023 2.008 1.978 1.935 1.895 1.855 1.83 1.938 1.928 1.893 1.948 1.948 1.873 1.855 1.933 1.948 2 1.958 1.975 1.89 1.85 1.965 1.965 1.98 1.973 1.988 1.863 1.893 1.838 1.873 1.893 1.93 1.873 1.868 1.875 1.828 1.863 1.895 1.88 1.89 1.855 1.868 1.848 1.893 1.938 1.928 1.91 1.868 1.808 1.88 1.908 1.878 1.888 1.933 1.948 2.018 2.088 1.965 1.803 1.73 1.828 1.915 1.903 1.978 1.923 1.945 1.918 1.868 1.9 1.9 1.985 2.015 1.995 1.948 1.95 1.848 1.863 1.82 1.838 1.795 1.745 1.94 2.023 2.085 2.035 2.068 1.94 1.895 1.92 1.913 1.9 1.905 1.928 1.983 1.89 1.865 1.843 1.848 1.888 1.918 1.933 1.898 1.868 1.838 1.938 2 1.96 1.903 1.868 1.93 1.92 2.038 2.033 2.025 1.995 1.858 1.788 1.805 1.898 2.008 1.96 1.95 1.88 1.913 1.948 1.905 1.895 1.863 1.903 1.95 1.94 1.893 1.943 1.88 1.89 2.025 1.838 1.825 1.873 1.923 1.948 1.945 1.95 1.958 1.923 1.873 1.913 1.955 2 1.968 1.963 1.888 1.875 1.82 1.87 1.835 1.818 1.79 1.89 1.905 1.953 1.99 1.99 1.918 2.028 1.93 1.95 1.843 1.825 1.765 1.803 1.853 1.9 1.838 1.913 1.838 1.97 1.94 1.873 1.938 1.965 1.97 2.03 2.105 2.07 1.95 1.918 1.953 2.01 1.95 1.898 1.905 1.93 1.94 1.933 1.988 1.97 1.983 1.973 1.96 1.978 1.895 1.955 1.993 1.995 1.868 1.783 1.693 1.66 1.723 1.865 1.805 1.853 1.845 1.873 1.858 1.838 1.805 1.915 1.903 1.958 1.905 1.813 1.848 1.858 1.805 1.835 1.793 1.903 2.073 2.05 2.005 1.843 1.813 1.795 1.835 1.85 1.86 1.778 1.838 1.905 1.983 2.005 2.03 1.993 1.963 1.93 1.938 1.93 1.965 2.055 2.043 1.98 1.928 1.893 1.88 1.863 1.833 1.823 1.773 1.805 1.855 1.995 1.948 1.968 1.893 1.833 1.913 1.958 1.978 1.998 1.938 1.913 1.958 1.993 2.02 1.893 1.813 1.745 1.818 1.883 1.923 1.975 1.913 1.92 1.918 1.913 2.008 1.958 1.925 1.953 1.931 1.873 1.826 1.831 1.913 1.963 2.048 2.043 1.961 1.946 1.843 1.866 1.936 1.913 1.931 1.916 1.953 1.856 1.766 1.786 1.853 1.913 1.951 1.936 1.911 1.948 1.876 1.896 1.898 1.926 1.906 1.906 1.953 1.963 2.003 1.828 1.818 1.858 1.751 1.841 1.826 1.871 1.911 1.923 1.881 1.898 1.988 1.828 1.763
1.783 1.873 1.885 1.92 1.89 1.875 1.9 1.875 1.855 1.823 1.835 1.805 1.805 1.87 1.888 1.885 1.928 1.895 1.895 1.953 1.923 1.898 1.905 1.84 1.918 1.995 1.958 1.913 1.943 1.86 1.868 1.845 1.803 1.81 1.753 1.713 1.805 1.843 1.858 1.85 1.898 1.873 1.868 1.888 1.868 1.888 1.863 1.955 1.97 1.98 1.933 1.913 2.005 1.983 1.968 1.888 1.853 1.933 1.99 1.99 1.92 1.94 1.935 1.948 1.895 1.85 1.905 1.953 1.95 1.89 1.805 1.768 1.808 1.83 1.9 1.915 1.87 1.898 1.81 1.768 1.838 1.925 1.983 1.955 1.935 1.895 1.893 1.908 1.988 1.978 1.955 1.92 1.845 1.84 1.878 1.915 1.968 2.063 1.963 1.943 1.928 1.925 1.84 1.83 1.883 1.89 1.905 1.913 1.963 1.835 1.795 1.728 1.76 1.833 1.905 1.89 1.88 1.89 1.898 1.903 1.925 1.975 1.933 1.873 1.92 1.83 1.798 1.778 1.898 1.875 1.915 1.99 1.905 1.918 1.888 1.885 1.875 1.908 1.923 1.9 1.91 1.943 1.905 1.873 1.913 1.918 1.918 1.895 1.858 1.81 1.868 1.97 2.025 2.02 1.943 1.908 1.955 2.013 2.038 2.033 2.01 1.978 1.91 1.913 1.865 1.86 1.888 2.013 1.965 2.038 1.99 1.915 1.865 1.93 1.943 2.06 1.938 1.948 1.995 1.91 1.913 1.953 1.983 1.973 1.89 1.883 1.868 1.848 1.888 1.938 1.95 1.89 1.845 1.855 1.815 1.885 1.828 1.918 2.038 1.91 1.903 1.89 1.818 1.885 1.925 1.885 1.818 1.868 1.86 1.878 1.863 1.86 1.833 1.883 1.95 1.973 1.948 1.813 1.728 1.768 1.845 1.893 2.015 1.955 1.888 1.93 1.863 1.94 1.91 1.995 1.988 2.06 1.923 1.905 1.885 1.833 1.828 1.893 1.888 1.95 1.935 2.02 2.015 2.073 2.023 1.953 1.895 1.885 1.915 1.915 1.945 1.94 1.938 1.888 1.86 1.795 1.838 1.82 1.913 1.95 1.97 1.96 1.945 1.943 1.928 1.988 1.98 2.033 1.908 1.938 2.045 2.013 2.01 2.015 1.928 1.8 1.795 1.978 1.99 2.07 2.018 1.963 1.975 1.993 1.948 1.958 1.933 1.935 1.93 1.98 1.983 1.918 1.905 1.885 1.92 1.91 1.853 1.953 1.933 1.908 2.02 2.03 1.96 1.928 1.95 1.918 1.948 2.02 1.998 1.975 1.948 1.883 1.87 1.88 1.843 1.805 1.793 1.82 1.89 1.99 2.028 2.073 1.98 1.903 1.923 1.935 1.833 1.74 1.788 1.778 1.855 1.843 1.9 1.823 1.915 1.935 2 1.945 1.893 1.908 1.92 1.935 2.053 2.02 1.945 1.925 1.933 1.995 1.93 1.9 1.86 1.985 2.058 1.998 2.038 1.968 1.943 1.95 1.93 1.873 1.893 1.908 1.973 1.965 1.938 1.815 1.71 1.758 1.745 1.768 1.905 1.888 1.883 1.815 1.773 1.775 1.763 1.74 1.84 1.9 1.9 1.908 1.775 1.765 1.788 1.828 1.845 1.905 1.945 1.96 1.973 1.905 1.815 1.798 1.823 1.805 1.91 1.91 1.905 1.925 1.998 2.023 1.968 1.958 1.88 2 1.96 1.988 2.04 2.043 2.103 1.995 1.98 1.9 1.858 1.853 1.88 1.805 1.815 1.888 1.905 1.893 1.933 1.92 1.935 1.888 1.885 1.895 1.9 2.018 1.99 1.918 1.893 1.868 1.945 1.898 1.853 1.815 1.853 1.928 2.003 2.045 1.988 1.885 1.928 1.863 1.848 1.953 2.055 1.908 1.956 1.988 1.903 1.826 1.958 1.933 2.041 1.943 2.023 1.883 1.876 1.896 1.936 1.966 1.928 1.918 1.856 1.938 1.816 1.823 1.806 1.961 1.943 2.036 1.993 1.898 1.913 1.941 1.981 1.991 2.008 1.986 1.971 1.953 1.998 1.931 1.773 1.806 1.883 1.846 1.823 1.801 1.938 1.898 1.981 1.908 1.853 1.766 1.808 1.783
1.835 1.915 1.935 1.96 1.895 1.913 1.84 1.85 1.803 1.808 1.843 1.85 1.858 1.935 1.95 1.923 1.948 1.9 1.85 1.885 1.903 1.933 1.95 1.918 1.958 1.96 2 1.958 1.978 1.933 1.865 1.863 1.778 1.785 1.798 1.785 1.845 1.89 1.895 1.865 1.823 1.885 1.853 1.928 1.893 1.9 1.91 1.965 1.988 1.983 1.91 1.913 1.93 1.948 1.903 1.94 1.958 1.935 2.033 1.943 1.873 1.905 1.935 1.885 1.865 1.875 1.855 1.915 1.95 1.89 1.783 1.808 1.858 1.878 1.898 1.9 1.938 1.88 1.83 1.83 1.908 1.985 2.005 1.885 1.805 1.838 1.838 1.86 1.855 1.898 1.858 1.853 1.79 1.87 1.92 1.93 1.968 1.95 1.893 1.913 1.945 1.95 1.838 1.92 1.925 1.91 1.9 1.885 1.94 1.818 1.725 1.708 1.813 1.925 1.9 1.873 1.9 1.888 1.88 1.87 1.903 1.925 1.87 1.88 1.895 1.855 1.93 1.935 1.895 1.928 1.928 1.955 1.915 1.845 1.878 1.893 1.938 1.938 1.93 1.95 1.93 1.91 1.855 1.885 1.888 1.888 1.913 1.86 1.85 1.905 1.945 2.05 2.123 2.083 1.963 1.928 2.013 2.02 1.998 2.035 1.993 1.92 1.85 1.863 1.928 1.908 1.938 1.978 1.97 1.97 1.935 1.908 1.96 1.93 1.973 2.008 1.985 2.013 1.963 1.953 1.933 1.958 1.913 1.87 1.86 1.82 1.863 1.88 2.035 2 1.963 1.903 1.893 1.893 1.943 1.973 2.043 1.988 1.99 1.923 1.87 1.863 1.835 1.863 1.873 1.808 1.773 1.933 1.81 1.845 1.833 1.858 1.825 1.843 1.918 1.855 1.738 1.788 1.768 1.855 1.903 1.983 2.028 1.913 1.89 1.825 1.818 1.878 1.913 2.01 1.933 1.898 1.91 1.933 1.865 1.855 1.833 1.843 1.94 2.003 2.058 2.025 1.98 2.023 1.928 1.913 1.798 1.833 1.865 1.895 1.898 1.948 1.968 1.933 1.863 1.863 1.87 1.925 2.063 2.003 2.02 1.98 1.863 1.855 1.89 1.978 1.978 1.895 1.895 1.93 2.003 2.023 1.975 1.93 1.898 1.888 1.97 2.105 2.025 2.045 2.005 1.983 2.043 2.003 1.943 1.895 1.925 1.99 2.02 1.995 1.943 1.948 1.87 1.94 1.898 1.838 1.84 1.94 1.905 1.908 1.953 1.948 1.893 1.895 1.96 1.945 2.005 2.02 2.01 1.923 1.948 1.86 1.86 1.808 1.82 1.853 1.855 1.91 2 2.053 2.035 2.02 1.97 1.77 1.883 1.908 1.788 1.715 1.808 1.93 1.913 1.958 1.89 1.848 1.905 1.955 1.908 2.015 1.878 1.88 1.933 1.998 2.008 1.995 1.92 1.878 1.93 1.97 1.835 1.905 1.92 1.998 2.085 2.075 1.988 1.973 1.94 1.875 1.883 1.875 1.878 1.913 1.925 1.868 1.833 1.825 1.728 1.765 1.79 1.868 1.953 1.88 1.793 1.71 1.708 1.765 1.793 1.815 1.893 1.96 1.97 1.898 1.683 1.755 1.813 1.845 1.833 1.898 1.878 1.883 1.893 1.838 1.89 1.775 1.79 1.855 1.963 1.925 1.908 1.913 1.998 2.073 1.938 2.003 1.973 1.993 1.985 2.023 2.1 2.13 2.073 2.01 1.908 1.913 1.93 1.918 1.888 1.75 1.845 1.963 1.898 1.915 1.938 1.903 1.928 1.903 1.898 1.87 1.913 1.998 1.978 1.885 1.86 1.935 1.925 1.96 1.893 1.898 1.955 2.033 2.038 2.045 1.938 1.86 1.853 1.878 1.903 1.95 1.965 1.925 1.933 1.943 1.878 1.876 1.931 1.936 1.948 1.913 1.881 1.793 1.793 1.886 1.978 1.906 1.833 1.908 1.821 1.866 1.858 1.853 1.893 1.906 1.976 2.046 2.033 2.021 2.023 2.168 2.106 1.998 2.003 1.968 1.878 1.973 1.926 1.801 1.823 1.893 2.006 1.851 1.846 1.836 1.903 1.883 1.908 1.848 1.816 1.773 1.728 1.801
1.96 1.965 1.993 1.888 1.855 1.898 1.925 1.918 1.875 1.868 1.85 1.855 1.873 1.86 1.905 1.943 1.893 1.84 1.805 1.86 1.92 1.973 1.95 1.94 1.97 1.985 1.938 1.945 1.898 1.89 1.833 1.86 1.803 1.788 1.798 1.83 1.925 1.94 1.87 1.82 1.845 1.9 1.875 1.9 1.908 1.855 1.893 1.973 1.968 1.938 1.885 1.903 1.928 1.943 1.918 1.883 1.875 1.935 2.023 1.98 1.98 1.913 1.92 1.945 1.845 1.873 1.86 1.915 1.905 1.87 1.798 1.958 2.013 1.93 1.905 1.888 1.848 1.825 1.788 1.843 1.91 1.96 1.885 1.833 1.81 1.833 1.87 1.86 1.835 1.873 1.858 1.875 1.863 1.965 1.933 1.995 1.983 1.888 1.86 1.908 1.943 1.885 1.898 1.878 1.868 1.86 1.895 1.873 1.835 1.783 1.75 1.795 1.92 1.97 1.94 1.943 1.86 1.905 1.833 1.78 1.835 1.855 1.898 1.88 1.885 1.848 1.923 1.89 1.905 1.918 1.92 1.913 1.865 1.9 1.91 1.865 1.92 1.923 1.91 1.95 1.89 1.91 1.9 1.878 1.875 1.94 1.93 1.92 1.97 1.938 2.008 2.083 2.048 1.898 1.855 1.838 1.96 2.063 1.928 1.978 1.93 1.908 1.893 1.84 1.918 1.913 1.993 1.985 1.935 1.955 1.938 1.92 1.955 1.915 1.988 1.993 1.97 1.953 1.963 1.94 1.893 1.885 1.858 1.853 1.843 1.863 1.9 1.923 2.055 2.028 1.988 2.003 1.978 1.945 1.968 1.978 2.008 2.023 1.913 1.858 1.773 1.8 1.843 1.833 1.845 1.788 1.755 1.825 1.865 1.85 1.84 1.848 1.89 1.91 1.918 1.863 1.778 1.795 1.793 1.905 1.998 1.998 1.973 1.97 1.845 1.85 1.833 1.9 1.93 1.948 1.86 1.795 1.89 1.87 1.815 1.905 1.888 1.96 1.955 1.94 2.02 2.02 1.938 1.898 1.873 1.83 1.748 1.888 1.885 1.893 1.95 1.94 2.065 1.963 1.83 1.918 1.93 1.98 1.96 1.955 1.94 1.895 1.868 1.83 1.865 1.96 1.92 1.9 1.908 1.963 2.025 1.995 1.945 1.9 1.915 1.968 1.96 2.085 2.068 2.065 1.99 2.01 2.01 1.93 1.953 1.85 1.973 1.955 1.928 1.983 1.89 1.86 1.928 1.843 1.89 1.825 1.843 1.903 1.948 1.935 1.935 1.96 1.923 1.973 1.965 1.97 2.028 1.988 1.953 1.923 1.973 1.898 1.853 1.865 1.885 1.893 1.918 2.003 1.985 2.075 1.973 1.955 1.89 1.888 1.865 1.883 1.898 1.85 1.918 1.878 1.95 1.848 1.82 1.883 1.908 1.933 2.023 1.9 1.85 1.903 1.95 2.055 1.99 1.9 1.878 1.983 1.96 1.853 1.853 1.91 2.025 2.013 2.003 1.983 1.91 1.905 1.87 1.9 1.925 1.883 1.928 1.9 1.89 1.86 1.78 1.703 1.763 1.813 1.883 1.955 1.905 1.91 1.798 1.785 1.788 1.918 1.87 1.905 1.968 1.905 1.873 1.843 1.745 1.805 1.848 1.983 1.86 1.928 1.915 1.945 1.92 1.948 1.928 1.9 1.858 1.95 1.98 1.96 1.94 2.05 2.03 2.033 2.023 2.008 1.993 1.955 2 2.035 2.07 2.045 1.973 1.883 1.888 1.925 1.898 1.938 1.913 1.88 1.915 1.985 1.915 1.973 2.035 1.91 1.87 1.88 1.883 1.915 1.988 1.973 1.96 1.928 1.933 1.96 2.008 2.033 1.96 1.893 1.963 1.943 2.05 1.915 1.798 1.86 1.913 1.883 1.908 1.938 2.023 1.925 1.968 1.913 1.846 1.871 1.913 1.946 1.918 1.853 1.796 1.806 1.833 1.911 1.908 1.898 1.886 1.903 1.846 2.031 1.991 1.993 2.046 2.003 2.076 2.066 1.991 2.001 2.006 1.943 2.078 2.001 1.916 1.898 1.888 1.981 1.863 1.798 1.918 1.866 1.948 1.876 1.853 1.856 1.881 1.826 1.806 1.851 1.791 1.773 1.813 1.901
1.913 1.953 1.918 1.853 1.87 1.903 1.865 1.89 1.87 1.838 1.815 1.843 1.858 1.895 1.868 1.868 1.81 1.775 1.795 1.883 1.935 2.03 1.995 1.965 1.943 1.99 1.95 1.958 1.908 1.898 1.83 1.848 1.803 1.86 1.855 1.805 1.903 1.893 1.793 1.793 1.823 1.883 1.95 1.935 1.86 1.883 1.87 1.938 1.973 1.883 1.898 1.895 1.945 1.865 1.863 1.9 1.89 1.89 1.998 1.9 1.905 1.88 1.873 1.918 1.873 1.81 1.868 1.943 1.915 1.878 1.888 1.913 1.913 1.918 1.863 1.873 1.813 1.825 1.863 1.86 1.873 1.91 1.878 1.84 1.85 1.828 1.813 1.85 1.873 1.893 1.903 1.9 1.925 1.955 2.068 1.97 1.888 1.86 1.86 1.913 1.933 1.915 1.843 1.878 1.863 1.885 1.9 1.865 1.808 1.785 1.835 1.925 2.028 1.978 1.983 1.978 1.92 1.89 1.838 1.82 1.855 1.888 1.87 1.883 1.88 1.818 1.853 1.82 1.893 1.865 1.845 1.79 1.845 1.898 1.868 1.88 1.885 1.863 1.913 1.918 1.915 1.983 1.91 1.83 1.87 1.903 1.93 1.933 1.898 1.95 2.018 2.025 1.953 1.823 1.813 1.808 1.928 1.923 1.923 1.908 1.895 1.855 1.868 1.893 1.963 1.93 1.985 2.03 1.948 1.93 1.943 1.99 1.978 1.95 1.99 2.013 1.975 1.943 1.893 1.843 1.89 1.885 1.928 1.893 1.905 1.905 1.99 1.985 2.06 2.04 1.95 1.96 1.99 1.915 1.98 1.953 1.985 1.948 1.828 1.74 1.748 1.775 1.788 1.798 1.818 1.803 1.833 1.863 1.91 1.915 1.835 1.823 1.895 1.9 1.868 1.793 1.793 1.788 1.92 2.04 2.01 1.968 1.918 1.865 1.828 1.823 1.848 1.848 1.888 1.855 1.893 1.853 1.833 1.893 1.84 1.913 1.945 1.968 2.033 2.005 1.985 1.928 1.97 1.878 1.835 1.718 1.813 1.95 1.95 1.973 1.965 1.995 1.923 1.858 1.863 1.93 1.948 2.005 1.948 1.943 1.823 1.823 1.825 1.84 1.923 1.905 1.983 1.99 1.95 2.048 1.973 1.93 1.88 1.92 1.933 1.973 2.073 2.223 2.11 2.09 1.998 1.958 1.965 1.865 1.945 1.968 1.975 1.92 1.913 1.893 1.855 1.82 1.79 1.863 1.848 1.845 1.873 1.983 1.935 1.945 2.02 1.923 1.93 1.895 1.963 2.065 2.078 1.975 1.875 1.89 1.9 1.878 1.933 1.868 1.908 1.983 1.888 2.003 1.94 1.995 1.895 1.913 1.858 1.848 1.905 1.858 1.838 1.828 1.938 1.995 1.948 1.878 1.8 1.878 2.043 2.01 2 1.853 1.863 1.953 1.975 1.955 1.958 1.86 1.898 1.99 1.978 1.943 1.968 1.975 2.035 1.975 2.01 1.93 1.895 1.87 1.868 1.91 1.983 1.958 1.908 1.9 1.895 1.758 1.78 1.738 1.735 1.84 1.968 2.033 1.905 1.928 1.848 1.763 1.868 1.93 1.995 1.975 1.988 1.935 1.79 1.768 1.805 1.858 1.91 1.858 1.88 1.82 1.913 1.853 1.88 1.84 1.808 1.948 1.923 1.91 1.89 1.948 1.925 2.123 2.023 1.998 2.113 2.035 1.963 1.98 2.03 1.945 2.043 1.988 2.048 1.978 1.945 1.95 1.905 1.873 1.87 1.893 1.903 1.908 1.953 1.913 1.9 1.88 1.915 1.96 1.898 1.953 1.993 1.955 2.005 1.873 1.953 1.938 1.988 1.923 1.873 1.87 1.965 2.04 1.983 1.853 1.875 1.855 1.858 1.918 1.96 1.988 1.938 1.928 1.953 1.883 1.803 1.848 1.938 1.873 1.878 1.828 1.786 1.868 1.901 2.001 1.961 1.901 1.946 1.981 1.943 1.926 1.946 1.963 1.956 1.893 2.013 2.026 1.946 2.068 1.938 1.883 1.923 1.951 1.906 1.943 1.876 1.908 1.848 1.826 1.881 1.851 1.858 1.888 1.886 1.796 1.768 1.791 1.831 1.906 1.881 1.808 1.886 1.948
1.905 1.945 1.883 1.848 1.855 1.895 1.925 1.858 1.868 1.83 1.863 1.888 1.873 1.91 1.878 1.853 1.808 1.805 1.838 1.958 1.958 2.045 2 1.95 1.983 2.02 1.998 1.978 1.905 1.865 1.84 1.785 1.853 1.89 1.853 1.86 1.925 1.85 1.783 1.808 1.873 1.913 1.898 1.84 1.823 1.835 1.908 1.943 1.908 1.803 1.83 1.853 1.875 1.865 1.858 1.88 1.92 1.938 1.995 1.933 1.94 1.9 1.885 1.88 1.87 1.928 1.958 1.975 1.945 1.923 1.898 1.905 1.855 1.895 1.923 1.88 1.843 1.855 1.873 1.905 1.875 1.965 1.94 1.845 1.898 1.833 1.87 1.873 1.898 1.955 1.885 1.85 1.893 1.945 1.99 1.925 1.875 1.898 1.908 1.955 1.873 1.815 1.838 1.933 1.948 1.903 1.863 1.915 1.85 1.878 1.933 2.02 1.988 1.95 1.978 1.923 1.88 1.898 1.85 1.833 1.888 1.873 1.87 1.878 1.845 1.88 1.838 1.935 1.97 1.85 1.783 1.83 1.903 1.908 1.845 1.878 1.878 1.89 1.93 1.893 1.905 1.915 1.913 1.88 1.945 1.943 1.965 1.89 1.938 1.925 1.908 1.913 1.825 1.798 1.83 1.85 1.955 1.885 1.893 1.948 1.95 1.925 1.905 1.928 2 1.975 2.01 1.935 1.963 1.965 1.988 1.983 1.99 1.993 2.028 1.988 1.935 1.9 1.843 1.83 1.828 1.905 1.91 1.973 1.908 2.005 1.945 2.025 2.055 2 1.965 1.965 1.975 1.985 1.938 1.883 1.883 1.853 1.778 1.768 1.82 1.78 1.833 1.853 1.908 1.888 1.853 1.838 1.82 1.808 1.813 1.9 1.89 1.873 1.858 1.803 1.803 1.875 1.988 2.123 1.993 1.913 1.898 1.835 1.858 1.77 1.81 1.858 1.863 1.878 1.8 1.805 1.865 1.875 1.86 1.965 1.958 2.003 1.998 1.958 2.025 1.908 1.858 1.788 1.75 1.79 1.813 1.905 2.073 2.025 2.01 1.975 1.895 1.82 1.89 1.973 2.003 1.978 1.928 1.855 1.865 1.815 1.865 1.88 1.945 2.025 2.055 1.965 1.973 2.01 1.87 1.81 1.81 1.835 1.95 2.03 1.998 2 2.048 1.99 1.998 1.94 1.935 1.963 1.95 1.943 1.958 1.935 1.89 1.92 1.87 1.885 1.83 1.893 1.98 1.83 1.895 1.873 1.91 1.958 1.91 1.838 1.888 1.903 2.055 2.063 1.983 1.933 1.828 1.828 1.855 1.835 1.91 2.003 1.93 1.92 1.878 1.975 1.915 1.88 1.825 1.835 1.835 1.78 1.82 1.918 1.868 1.833 1.888 1.918 1.985 1.855 1.88 1.945 2.048 2 1.933 1.848 1.868 1.953 1.903 1.993 1.97 1.913 1.975 2.043 1.995 1.97 1.965 1.963 1.953 2.01 1.985 2.005 1.913 1.83 1.87 1.91 1.898 1.93 1.863 1.84 1.76 1.748 1.783 1.823 1.81 1.925 1.998 2.015 1.91 1.978 1.795 1.785 1.885 1.925 2.045 1.953 1.893 1.843 1.84 1.888 1.825 1.828 1.863 1.903 1.875 1.808 1.918 1.815 1.818 1.933 1.878 1.973 1.923 1.928 1.968 2.003 2.003 1.998 1.97 1.938 2.023 2.023 1.965 2.045 1.978 2.008 2.065 2.018 1.95 1.968 1.953 1.945 2.05 1.9 1.878 1.915 1.905 1.925 1.88 1.893 1.845 1.89 1.85 1.92 1.945 1.998 1.965 2.025 2.003 1.945 1.905 2.008 1.983 1.88 1.84 1.858 1.903 1.878 1.928 1.883 1.885 1.883 1.955 1.96 1.91 1.935 1.97 1.998 1.913 1.873 1.858 1.928 1.933 1.918 1.873 1.846 1.841 1.893 1.958 2.011 1.896 1.873 1.918 1.946 1.946 1.943 1.968 1.961 1.966 1.933 1.926 1.903 1.981 1.996 1.921 1.881 1.926 1.853 1.888 1.906 1.863 1.901 1.821 1.798 1.883 1.866 1.833 1.916 1.831 1.808 1.813 1.808 1.826 1.863 1.838 1.831 1.896 2.018
2.013 1.955 1.865 1.818 1.85 1.878 1.873 1.863 1.883 1.873 1.855 1.858 1.893 1.93 1.893 1.845 1.81 1.85 1.885 1.995 2.01 1.983 1.983 1.975 1.988 1.958 1.963 1.905 1.82 1.805 1.798 1.838 1.86 1.893 1.853 1.87 1.875 1.828 1.778 1.893 1.933 1.915 1.87 1.833 1.788 1.885 1.9 1.935 1.873 1.843 1.82 1.845 1.92 1.845 1.863 1.913 1.885 1.993 1.968 1.98 1.94 1.9 1.873 1.868 1.903 2 1.985 1.98 1.908 1.985 1.928 1.923 1.93 1.928 1.938 1.85 1.795 1.77 1.833 1.845 1.918 1.963 1.903 1.845 1.783 1.77 1.815 1.89 1.973 1.933 1.86 1.905 1.953 1.903 1.905 1.92 1.89 1.89 1.92 1.948 1.903 1.895 1.995 2.013 1.93 1.903 1.835 1.865 1.855 1.843 1.935 1.94 1.925 1.893 1.843 1.788 1.8 1.77 1.78 1.85 1.863 1.905 1.868 1.87 1.815 1.908 1.93 1.908 1.893 1.845 1.85 1.91 1.905 1.93 1.853 1.828 1.9 1.938 1.913 1.895 1.883 1.938 1.895 1.905 1.925 1.87 1.918 1.903 1.9 1.848 1.855 1.878 1.848 1.848 1.858 1.93 1.958 1.945 1.98 1.978 1.965 1.898 1.963 1.983 1.96 1.98 1.958 1.968 1.958 1.975 1.943 1.995 1.985 2.01 1.998 1.975 1.868 1.823 1.795 1.833 1.905 1.993 2.04 1.97 1.953 1.968 1.963 2.07 2.05 2.053 1.983 1.983 1.923 1.955 1.92 1.883 1.888 1.86 1.785 1.82 1.828 1.805 1.885 2.018 2.01 1.92 1.87 1.868 1.89 1.875 1.935 1.925 1.885 1.863 1.855 1.898 1.823 1.918 2.035 2.023 1.9 1.84 1.848 1.813 1.765 1.755 1.863 1.865 1.82 1.823 1.828 1.833 1.835 1.865 1.97 2.028 1.985 2.028 1.988 1.98 1.933 1.848 1.833 1.815 1.86 1.873 1.96 2.045 1.988 2.035 1.988 2 1.853 1.933 1.935 1.99 2.023 1.945 1.928 1.943 1.86 1.863 1.87 1.913 1.96 1.975 2.033 1.955 1.935 1.915 1.87 1.878 1.825 1.915 1.94 2.025 1.938 2 2.123 1.97 1.908 1.975 1.945 1.92 1.868 1.903 1.903 1.9 1.85 1.91 1.91 1.98 1.93 1.895 1.89 1.835 1.878 1.875 1.848 1.918 1.868 1.883 1.928 2 1.97 1.94 1.87 1.88 1.768 1.815 1.883 1.883 1.888 1.908 1.955 1.905 1.908 1.875 1.878 1.845 1.815 1.838 1.81 1.735 1.873 1.858 1.835 1.868 1.945 1.96 1.848 2.01 1.968 1.985 2.038 1.953 1.86 1.868 1.865 1.965 2.043 2.048 1.93 1.933 1.953 2.013 1.945 2 1.983 2.01 2.043 2.073 1.98 1.895 1.87 1.845 1.94 1.945 1.873 1.873 1.858 1.773 1.788 1.833 1.88 1.935 1.895 1.988 1.96 1.965 1.85 1.85 1.808 1.87 1.875 1.828 1.93 1.843 1.81 1.845 1.798 1.738 1.838 1.893 1.85 1.85 1.853 1.915 1.83 1.8 1.85 1.913 1.9 1.915 1.98 1.93 1.92 1.988 2.018 2.02 1.923 1.955 1.963 2.003 1.953 1.99 2.005 2.025 2.003 1.943 1.92 1.913 1.978 1.998 1.96 1.84 1.825 1.898 1.953 1.845 1.853 1.933 1.88 1.93 1.955 1.883 1.933 2.023 1.978 2.023 1.945 1.933 1.955 2.015 1.925 1.883 1.808 1.85 1.888 1.893 1.928 1.868 1.925 1.828 1.87 1.953 1.94 1.91 1.843 1.855 1.923 1.883 1.851 1.943 2.043 1.946 1.888 1.861 1.906 1.968 2.028 1.931 1.861 1.898 2.003 2.026 1.971 1.951 1.966 2.043 1.976 1.891 1.963 2.001 1.968 1.963 1.946 1.898 1.901 1.873 1.878 1.868 1.936 1.876 1.786 1.788 1.828 1.858 1.778 1.801 1.893 1.853 1.798 1.803 1.936 1.901 1.836 1.871 1.963 1.968
1.958 1.883 1.848 1.848 1.868 1.865 1.86 1.848 1.878 1.933 1.903 1.92 1.935 1.87 1.87 1.825 1.863 1.865 1.973 2.043 2.015 1.92 1.9 1.9 1.943 1.943 1.933 1.825 1.8 1.778 1.813 1.883 1.855 1.858 1.81 1.863 1.835 1.773 1.813 1.915 1.92 1.893 1.875 1.828 1.788 1.855 1.94 1.965 1.865 1.823 1.845 1.858 1.868 1.82 1.91 1.925 1.96 2.013 1.98 1.98 1.9 1.858 1.875 1.94 1.973 1.95 1.925 1.868 1.885 1.968 1.838 1.875 1.87 1.903 1.938 1.775 1.795 1.86 1.888 1.913 1.985 1.968 1.895 1.85 1.74 1.78 1.915 1.98 1.963 1.863 1.93 1.943 1.965 1.918 1.898 1.908 1.953 1.905 1.938 1.955 1.973 1.933 1.96 1.935 1.92 1.878 1.815 1.865 1.903 1.91 1.865 1.89 1.813 1.753 1.763 1.76 1.713 1.815 1.828 1.885 1.858 1.87 1.975 1.855 1.795 1.905 1.915 1.923 1.858 1.845 1.823 1.875 1.88 1.915 1.868 1.898 1.955 1.983 1.94 1.948 1.89 1.868 1.91 1.933 1.895 1.903 1.938 1.83 1.818 1.853 1.833 1.893 1.9 1.918 1.93 1.96 1.978 2.015 2.088 2.063 2.013 1.948 1.99 1.988 2.005 1.965 1.928 1.925 1.933 2.015 1.955 1.99 2.023 2.008 1.975 1.853 1.805 1.788 1.798 1.9 2.058 2.035 2.053 1.985 1.94 1.89 2.003 2.055 2.08 2.05 1.973 1.97 1.93 1.89 1.895 1.853 1.923 1.855 1.855 1.885 1.898 1.885 2.028 1.98 1.983 1.918 1.838 1.873 1.93 1.965 1.965 1.978 1.865 1.83 1.8 1.843 1.873 1.973 2.03 1.978 1.86 1.78 1.833 1.758 1.78 1.758 1.765 1.823 1.843 1.87 1.898 1.89 1.975 1.973 1.965 1.995 2.005 1.988 1.988 1.895 1.788 1.818 1.84 1.878 1.888 1.933 1.965 1.995 2.04 2.043 1.953 1.858 1.825 1.95 1.995 2.02 1.963 1.878 1.865 1.933 1.868 1.868 1.908 1.995 1.993 2.103 2.053 1.93 1.908 1.865 1.798 1.905 1.878 1.88 1.925 1.923 1.855 1.883 1.945 1.908 1.873 1.88 1.985 1.943 1.855 1.898 1.945 1.93 1.94 1.935 1.93 1.898 1.945 1.898 1.863 1.845 1.848 1.87 1.87 1.96 1.948 1.965 1.903 1.995 2.065 1.978 1.915 1.878 1.863 1.828 1.908 1.938 1.85 1.918 1.898 1.903 1.915 1.898 1.818 1.835 1.825 1.825 1.878 1.83 1.82 1.885 1.875 2.003 1.985 1.913 1.885 1.913 1.98 2 2.038 1.858 1.89 1.933 2.015 2.028 2.078 2.04 1.943 1.988 1.965 1.898 1.933 1.953 2.003 2.03 2.008 1.985 1.928 1.885 1.933 1.925 1.97 1.913 1.89 1.905 1.953 1.813 1.798 1.87 1.903 1.985 1.88 1.925 1.9 1.873 1.828 1.815 1.808 1.83 1.855 1.913 1.873 1.803 1.795 1.758 1.76 1.78 1.843 1.925 1.833 1.868 1.833 1.923 1.845 1.83 1.823 1.878 1.95 1.933 1.9 1.943 1.955 1.958 1.97 1.973 1.983 2.045 2.063 1.99 2.015 1.998 1.973 2.005 1.975 1.915 1.893 1.88 1.92 1.93 1.913 1.828 1.853 1.878 1.98 1.903 1.91 1.993 2.04 1.89 1.998 1.94 1.953 1.928 1.973 1.94 1.918 1.905 1.89 1.92 1.89 1.82 1.803 1.833 1.985 1.95 1.885 1.828 1.848 1.863 1.94 1.935 1.913 1.858 1.845 1.825 1.948 1.893 1.946 1.938 1.856 2.068 1.946 2.011 1.976 2.051 2.003 1.891 1.931 1.958 1.956 1.981 1.998 1.921 1.896 1.948 1.976 2.018 1.956 1.931 1.921 1.938 1.926 1.903 1.871 1.871 1.833 1.861 1.881 1.823 1.868 1.853 1.878 1.843 1.823 1.856 1.881 1.826 1.808 1.966 1.896 1.901 1.918 1.923 1.986 2.063
1.863 1.89 1.843 1.86 1.855 1.9 1.863 1.895 1.858 1.838 1.87 1.878 1.87 1.83 1.883 1.83 1.935 1.938 2.058 2.073 1.963 1.905 1.895 1.865 1.938 1.933 1.878 1.86 1.805 1.813 1.82 1.893 1.808 1.82 1.838 1.833 1.793 1.845 1.878 1.923 1.915 1.845 1.858 1.763 1.808 1.908 1.943 1.915 1.838 1.823 1.873 1.898 1.885 1.925 1.895 1.97 1.995 2.003 1.91 1.903 1.865 1.84 1.893 1.935 1.935 1.895 1.863 1.928 1.928 1.865 1.813 1.788 1.808 1.843 1.853 1.805 1.833 1.833 1.89 1.96 1.99 1.975 1.868 1.778 1.853 1.883 2 1.948 1.9 1.89 1.918 1.96 1.94 1.955 1.958 1.915 1.933 1.925 1.945 1.97 1.92 1.913 1.895 1.878 1.89 1.858 1.853 1.985 1.905 1.928 1.905 1.853 1.793 1.755 1.793 1.778 1.813 1.853 1.928 1.933 1.928 1.895 1.925 1.85 1.888 1.908 1.848 1.823 1.798 1.788 1.783 1.93 1.913 1.943 1.908 1.978 1.983 1.913 1.933 1.938 1.913 2 1.953 1.938 1.908 1.925 1.893 1.888 1.895 1.925 1.918 1.928 1.965 1.928 1.993 1.94 1.978 2.005 2.013 1.953 1.94 1.973 2.013 1.933 1.923 1.89 1.92 1.915 1.955 1.96 2.01 1.935 1.948 1.898 1.89 1.795 1.765 1.79 1.87 1.95 2.013 2.008 1.94 1.868 1.888 1.935 2.033 2.063 2.09 2.018 1.948 1.97 1.958 1.925 1.83 1.825 1.893 1.863 1.818 1.878 1.855 1.89 2.115 1.973 1.94 1.868 1.803 1.84 1.988 2.015 1.923 1.938 1.868 1.843 1.835 1.898 1.91 1.94 1.995 1.855 1.793 1.863 1.818 1.798 1.86 1.81 1.793 1.87 1.883 1.983 1.958 1.913 1.93 1.963 1.995 2.028 1.975 1.95 1.863 1.783 1.745 1.75 1.87 1.893 1.943 1.933 1.938 1.998 2.005 1.975 1.883 1.908 1.955 1.968 1.943 1.97 1.96 1.945 1.875 1.863 1.923 1.923 1.913 1.96 2.053 2.003 1.935 1.905 1.87 1.823 1.83 1.905 1.943 1.948 1.87 1.848 1.913 1.903 1.993 1.915 1.928 1.985 1.965 1.948 1.97 2 2.04 1.925 1.948 1.93 1.87 1.855 1.835 1.85 1.82 1.933 1.843 1.853 1.93 1.983 1.975 1.92 2 1.963 1.945 1.87 1.848 1.793 1.835 1.918 1.905 1.958 1.87 1.968 1.918 1.968 1.893 1.895 1.783 1.815 1.855 1.805 1.968 1.918 1.89 1.865 1.925 1.995 1.92 1.915 1.868 1.885 1.895 1.958 1.925 1.908 1.888 1.953 2.085 2.063 2.018 2.013 2.008 1.993 1.955 1.883 1.933 1.925 2.015 1.943 1.955 1.943 1.9 1.968 1.928 1.895 1.88 1.858 1.898 1.878 1.933 1.913 1.963 1.955 1.923 1.888 1.855 1.9 1.893 1.773 1.79 1.838 1.875 1.778 1.87 1.9 1.833 1.875 1.795 1.845 1.765 1.79 1.9 1.888 1.82 1.83 1.838 1.815 1.83 1.815 1.895 1.853 2.005 1.935 2.043 1.903 1.933 1.898 1.89 1.973 2.103 2.098 2.03 1.968 1.993 1.963 1.96 1.98 1.938 1.84 1.9 1.955 1.988 1.973 1.995 1.955 1.923 1.975 1.935 1.83 1.913 1.995 1.95 1.975 1.98 2.025 1.958 1.98 2.033 1.978 1.88 1.96 1.96 1.84 1.83 1.758 1.85 1.93 1.973 1.96 1.905 1.848 1.843 1.973 1.91 1.9 1.893 1.833 1.883 1.885 1.941 1.941 1.988 1.956 1.928 1.943 1.906 1.928 2.026 2.066 1.921 2.008 1.956 1.938 1.941 2.021 1.971 1.906 1.898 1.981 1.993 2.026 1.966 1.933 2.006 2.038 1.828 1.863 1.871 2.006 1.888 1.888 1.943 1.841 1.836 1.843 1.831 1.893 1.906 1.878 1.956 1.861 1.833 1.881 1.883 1.933 1.953 1.938 2.053 2.018
1.89 1.915 1.843 1.893 1.995 1.918 1.825 1.88 1.865 1.86 1.875 1.835 1.875 1.835 1.94 1.923 2.03 2.025 1.99 1.893 1.833 1.875 1.82 1.87 1.935 1.828 1.838 1.818 1.828 1.818 1.868 1.925 1.848 1.858 1.87 1.888 1.818 1.888 1.965 2.013 1.938 1.838 1.8 1.77 1.823 1.918 1.93 1.895 1.86 1.875 1.938 1.898 1.913 1.96 1.958 2.03 1.998 1.933 1.908 1.91 1.898 1.843 1.878 1.89 1.95 1.82 1.873 1.88 1.885 1.84 1.785 1.83 1.843 1.845 1.79 1.76 1.79 1.893 1.888 1.973 1.953 1.898 1.833 1.758 1.818 1.933 2.015 1.918 1.838 1.885 1.885 1.95 1.915 1.968 1.95 1.918 1.893 1.91 1.96 1.865 1.873 1.9 1.893 1.933 1.968 1.915 1.815 1.833 1.858 1.858 1.873 1.858 1.805 1.835 1.878 1.873 1.883 1.965 2.008 1.93 1.908 1.878 1.935 1.855 1.965 1.978 1.873 1.855 1.865 1.83 1.888 1.928 1.935 1.95 1.943 1.97 1.94 1.875 1.855 1.863 1.9 1.958 1.915 1.875 1.828 1.853 1.835 1.855 1.93 1.95 1.953 2.005 1.963 1.888 1.885 1.918 1.923 1.983 1.985 1.933 1.965 1.963 1.953 1.888 1.925 1.913 1.888 1.888 1.948 1.943 1.965 1.958 1.91 1.823 1.828 1.803 1.848 1.87 1.953 2.045 2.073 1.99 1.86 1.81 1.958 2.063 2.078 2.128 2.02 2 1.935 1.87 1.843 1.828 1.8 1.863 1.835 1.848 1.765 1.788 1.808 1.87 1.965 1.97 1.85 1.808 1.83 1.918 2.01 1.978 1.915 1.9 1.953 1.893 1.875 1.875 1.873 1.925 1.903 1.83 1.825 1.79 1.828 1.843 1.958 1.865 1.91 1.978 2.06 2.018 1.963 1.93 1.91 1.89 1.918 1.995 1.91 1.855 1.813 1.843 1.825 1.85 2.01 1.91 1.933 1.953 2.018 2.025 1.985 1.928 1.88 1.95 1.938 1.945 1.953 1.973 2 1.995 1.883 1.888 1.855 1.82 1.98 2.038 2.05 2.015 1.915 1.843 1.84 1.898 1.94 1.888 1.888 1.913 1.885 1.845 1.908 1.97 1.963 1.908 2.02 1.94 1.968 1.945 1.988 2.103 2.035 1.92 1.868 1.955 1.858 1.85 1.923 1.895 1.853 1.97 1.843 1.938 1.945 1.968 1.945 1.93 1.98 1.868 1.918 1.878 1.858 1.94 1.928 1.988 1.963 1.955 1.89 2.025 1.968 2.038 1.885 1.925 1.778 1.845 1.853 1.918 1.985 2.088 1.938 1.918 1.895 1.953 1.89 1.905 1.968 1.953 1.945 2.048 2.005 1.945 1.875 1.953 2.08 2.015 1.973 1.918 2.008 1.893 1.855 1.955 1.94 1.928 1.988 1.945 2.008 1.96 1.903 1.928 1.955 1.913 1.845 1.938 1.923 1.92 1.958 2 1.953 1.943 1.935 1.863 1.84 1.855 1.86 1.78 1.755 1.87 1.858 1.863 2.013 1.93 1.83 1.8 1.768 1.768 1.783 1.86 1.88 1.898 1.843 1.84 1.828 1.895 1.798 1.838 1.868 1.93 1.953 1.92 1.915 1.948 2.005 1.988 1.985 2.035 2.083 2.14 1.958 2.013 1.968 1.988 2.043 1.968 1.953 1.905 1.93 1.975 2.04 1.998 1.935 1.983 1.99 2.013 2.02 1.94 1.808 1.9 1.925 1.948 1.92 2.015 1.935 1.985 1.985 1.975 1.885 1.845 1.855 1.855 1.858 1.83 1.898 1.913 1.925 1.875 1.818 1.855 1.83 1.893 1.943 1.918 1.863 1.835 1.863 1.945 1.988 1.968 1.976 1.916 1.931 1.991 2.098 1.936 1.968 1.953 1.971 2.003 2.003 1.966 2.031 2.023 2.058 1.966 1.933 2.008 1.976 1.948 1.988 1.976 1.958 1.838 1.811 1.856 1.898 1.966 1.911 1.886 1.846 1.831 1.898 1.898 1.878 1.873 1.848 1.888 1.961 1.898 1.893 1.908 1.948 1.968 1.871 1.956 2.078 1.996
1.843 1.848 1.895 1.955 1.873 1.888 1.9 1.853 1.868 1.888 1.863 1.875 1.875 1.875 1.935 1.965 1.975 1.945 1.888 1.75 1.768 1.778 1.848 1.92 1.983 1.943 1.903 1.84 1.82 1.845 1.95 1.953 1.933 1.88 1.865 1.925 1.89 1.95 1.973 1.918 1.865 1.86 1.793 1.778 1.833 1.865 1.908 1.868 1.933 1.948 1.94 1.978 2.018 2.015 1.995 1.998 1.928 1.93 1.885 1.918 1.88 1.845 1.903 1.913 1.908 1.843 1.88 1.9 1.88 1.84 1.795 1.915 1.925 1.895 1.873 1.863 1.855 1.898 2.008 2.003 1.878 1.795 1.763 1.825 1.883 1.953 1.878 1.843 1.803 1.9 1.92 1.913 1.96 1.985 1.908 1.908 1.928 1.96 1.918 1.89 1.908 1.94 1.955 1.91 1.895 1.88 1.79 1.838 1.893 1.923 1.893 1.82 1.775 1.875 1.908 2 2.01 1.973 1.915 1.87 1.868 1.845 1.92 1.908 1.988 2.008 1.868 1.808 1.833 1.888 1.99 1.998 1.955 1.928 1.9 1.938 1.915 1.865 1.823 1.908 1.888 1.95 1.92 1.845 1.83 1.87 1.91 1.843 1.89 1.948 1.948 1.883 1.87 1.823 1.898 1.945 2.053 1.985 1.99 1.97 1.993 1.965 1.893 1.898 1.875 1.84 1.89 1.855 1.873 1.883 1.948 1.938 1.898 1.84 1.83 1.863 1.84 1.94 2.04 2.065 2.038 1.953 1.868 1.86 1.95 2.133 2.143 2.108 1.99 1.925 1.823 1.868 1.84 1.808 1.858 1.885 1.915 1.843 1.845 1.875 1.85 1.925 2.055 1.96 1.838 1.865 1.84 1.938 1.93 1.988 1.905 1.915 1.893 1.87 1.923 1.898 2.015 1.915 1.855 1.863 1.82 1.875 1.958 1.893 1.96 2.008 2.005 2.03 1.98 1.923 1.923 1.888 1.938 1.913 1.988 1.955 1.9 1.825 1.84 1.843 1.888 1.965 1.94 1.928 1.92 1.995 2.023 2.02 1.975 1.94 1.9 1.953 1.958 1.983 1.978 1.975 1.898 1.925 1.915 1.873 1.875 1.945 2.06 2.073 1.993 1.968 1.858 1.808 1.83 1.805 1.903 1.995 1.92 1.873 1.82 1.918 1.953 2.023 1.99 1.93 1.97 1.978 1.998 2.048 2.048 2.018 1.918 1.933 1.955 1.895 1.843 1.88 1.938 1.898 1.895 1.88 1.89 1.97 2.048 1.955 1.89 1.858 1.905 1.818 1.85 1.863 1.888 1.965 2.045 1.94 1.975 1.923 1.963 1.955 1.943 1.895 1.783 1.733 1.743 1.788 1.923 2.003 2.033 1.92 1.908 1.96 1.85 1.908 1.84 1.95 1.978 1.893 1.985 1.983 1.933 1.873 1.873 1.923 2.09 2.038 1.913 1.855 1.863 1.873 1.945 1.98 1.985 2.02 1.945 2.003 1.915 1.91 1.875 1.863 1.923 1.79 1.918 1.855 1.913 1.973 1.97 1.928 1.838 1.918 1.863 1.81 1.768 1.803 1.778 1.835 1.845 1.795 1.848 1.893 1.98 1.863 1.74 1.77 1.853 1.723 1.715 1.773 1.87 1.848 1.833 1.788 1.76 1.768 1.898 1.875 1.93 2 1.948 1.965 1.995 2.013 1.998 1.875 1.97 2.025 2.07 1.988 1.913 1.965 1.975 2.035 1.953 1.98 1.993 1.988 1.943 1.978 1.993 1.955 1.94 1.97 1.943 1.94 1.888 1.79 1.788 1.875 1.915 1.925 1.973 1.988 1.988 2.01 1.93 1.858 1.848 1.845 1.863 1.868 1.865 1.903 1.893 1.908 1.915 1.85 1.82 1.758 1.84 1.928 2.04 1.898 1.96 1.815 1.945 1.92 1.943 2.001 1.936 1.951 1.923 1.966 1.921 1.943 1.991 2.036 1.951 2.011 1.976 2.043 1.976 1.941 1.936 2.031 1.908 1.883 1.926 1.981 1.948 1.911 1.926 1.856 1.921 1.966 1.871 1.893 1.893 1.856 1.808 1.911 1.891 1.888 1.848 1.901 1.903 1.926 1.901 1.878 1.928 1.888 2.041 1.891 1.848 1.968 1.988 1.918
1.813 1.823 1.845 1.823 1.833 1.768 1.855 1.86 1.923 1.895 1.84 1.87 1.84 1.878 1.935 1.97 1.958 1.803 1.783 1.785 1.82 1.828 1.928 1.97 2 1.953 1.943 1.87 1.833 1.88 1.958 1.988 1.993 1.885 1.898 1.838 1.848 1.855 1.88 1.845 1.753 1.75 1.73 1.813 1.918 1.915 1.89 1.883 1.885 1.935 1.903 1.948 2 2.02 2.015 1.918 1.935 1.923 1.898 1.915 1.89 1.908 1.975 1.99 1.908 1.923 1.883 1.91 1.893 1.828 1.828 1.908 1.858 1.875 1.908 1.873 1.895 1.963 2.043 1.995 1.855 1.8 1.815 1.873 1.933 1.91 1.845 1.773 1.825 1.86 2.03 2.058 2.013 1.965 1.903 1.895 1.9 1.903 1.885 1.86 1.91 1.945 1.988 1.868 1.823 1.82 1.863 1.86 1.955 1.89 1.87 1.838 1.803 1.838 1.938 1.935 1.96 1.918 1.833 1.803 1.86 1.868 1.873 1.945 1.963 1.978 1.828 1.83 1.928 1.963 1.93 1.983 1.895 1.835 1.873 1.928 1.858 1.788 1.83 1.883 1.858 1.833 1.833 1.823 1.888 1.945 1.865 1.865 1.913 1.968 1.938 1.873 1.88 1.85 1.978 1.938 1.99 1.968 1.96 1.96 1.963 1.928 1.863 1.863 1.873 1.83 1.828 1.888 1.96 1.93 1.958 1.843 1.86 1.853 1.815 1.873 1.933 2.055 2.093 2.055 2.008 1.905 1.808 2.018 2.093 2.178 2.065 2.033 1.918 1.88 1.84 1.86 1.96 1.915 1.928 1.94 1.97 1.915 1.87 1.888 1.908 1.975 2 1.865 1.93 1.808 1.858 1.958 1.97 1.973 1.92 1.913 1.945 1.833 1.855 1.893 1.918 1.883 1.873 1.845 1.913 2.005 2.013 2.013 1.983 1.92 2.028 1.963 1.89 1.843 1.865 1.823 1.845 1.845 1.898 1.888 1.87 1.843 1.835 1.883 1.923 1.948 2 1.983 2.028 1.97 1.998 2.013 1.895 1.888 1.913 2 1.965 1.938 1.89 1.91 1.893 1.903 1.855 1.875 1.933 2.033 2.068 2.103 1.98 1.958 1.818 1.745 1.863 1.928 2.015 2 1.925 1.83 1.885 2.018 2.018 1.94 1.94 1.933 2.058 2.033 2.075 2.145 1.968 1.988 1.88 1.915 1.845 1.848 1.873 1.905 1.905 1.953 1.913 2.018 1.983 2.078 2.035 1.955 1.878 1.898 1.873 1.975 1.988 2.018 1.975 1.96 1.968 1.913 1.938 1.91 1.875 1.898 1.853 1.768 1.743 1.715 1.92 1.928 1.97 2.103 1.97 1.94 1.933 1.87 1.853 1.89 1.935 2.015 1.89 1.915 1.988 2.003 1.843 1.868 1.978 1.985 2.095 2.01 1.825 1.893 1.875 1.905 1.98 2.028 2.02 1.945 1.923 1.95 1.983 1.93 1.908 1.925 1.953 1.895 1.893 1.935 1.96 1.993 2.005 1.92 1.883 1.86 1.82 1.783 1.77 1.81 1.895 1.883 1.973 1.85 1.898 1.91 1.955 1.8 1.74 1.718 1.723 1.638 1.673 1.805 1.89 1.878 1.878 1.71 1.738 1.793 1.968 1.93 2.005 1.945 1.93 1.963 2.008 1.968 1.905 1.87 1.978 2.043 1.99 1.9 2.003 1.988 1.975 2.058 1.953 2.038 2.03 1.975 1.958 1.948 1.925 1.93 1.84 1.935 1.855 1.86 1.878 1.813 1.808 1.883 1.908 1.998 1.968 1.953 1.978 1.96 1.938 1.835 1.848 1.873 1.87 1.883 1.99 1.885 1.97 1.935 1.988 1.833 1.793 1.913 1.973 1.985 1.98 1.895 1.895 1.808 1.978 1.99 2.046 1.953 1.888 1.951 1.891 1.998 1.931 1.938 1.968 2.053 2.088 2.016 1.978 1.986 1.918 1.936 1.943 1.986 1.898 1.931 1.846 1.898 1.918 1.866 1.911 1.983 1.911 1.856 1.871 1.771 1.858 1.783 1.851 1.958 1.868 1.868 1.893 1.916 1.916 1.913 1.901 1.886 1.923 1.891 1.886 1.863 1.953 2.001 1.931 1.876
1.793 1.848 1.88 1.905 1.883 1.82 1.885 1.938 1.975 1.883 1.83 1.855 1.825 1.888 1.935 1.903 1.848 1.768 1.835 1.75 1.813 1.898 1.963 2.043 2.063 1.963 1.993 1.938 1.923 1.965 1.995 1.948 1.898 1.86 1.825 1.835 1.788 1.823 1.83 1.778 1.748 1.74 1.788 1.888 1.995 1.993 1.948 1.933 1.913 1.935 1.928 1.955 2.038 1.973 1.925 1.885 1.875 1.918 1.913 1.89 1.913 1.928 1.94 1.923 1.86 1.868 1.885 1.923 1.888 1.858 1.865 1.928 1.9 1.925 1.93 1.953 1.975 1.993 1.983 1.905 1.843 1.838 1.893 1.97 1.99 1.89 1.833 1.805 1.88 1.965 2.048 2.058 1.978 1.893 1.858 1.858 1.948 1.83 1.833 1.878 1.958 1.995 1.998 1.888 1.79 1.87 1.873 1.865 1.97 1.915 1.883 1.825 1.873 1.92 1.938 1.868 1.858 1.865 1.828 1.84 1.88 1.863 1.933 2.015 1.998 1.963 1.94 1.943 1.945 1.975 1.99 1.893 1.86 1.83 1.848 1.905 1.91 1.835 1.865 1.878 1.898 1.87 1.845 1.803 1.89 1.935 1.883 1.855 1.913 1.96 1.85 1.945 1.938 1.895 1.92 1.89 1.923 1.995 1.985 1.99 1.885 1.843 1.828 1.84 1.888 1.835 1.88 1.908 2.04 1.905 1.853 1.863 1.825 1.873 1.85 1.898 2.073 2.05 2.023 2 1.948 1.92 2.023 2.003 2.013 2.118 2.1 1.92 1.898 1.83 1.86 1.9 1.878 1.99 1.993 2.01 1.935 2.04 1.87 1.883 1.913 1.988 1.89 1.84 1.903 1.825 1.893 2.015 1.978 1.87 1.898 1.923 1.888 1.828 1.878 1.893 1.873 1.853 1.858 1.898 2.003 1.973 1.985 1.973 1.955 1.978 1.9 1.808 1.828 1.808 1.813 1.843 1.825 1.853 1.828 1.855 1.845 1.883 1.925 1.938 1.95 2.013 1.99 1.97 1.975 2.008 2.055 1.873 1.82 1.828 1.913 1.968 1.983 1.92 1.925 1.85 1.848 1.853 1.875 1.863 1.975 2.02 2.088 2.05 1.973 1.795 1.743 1.798 1.92 1.995 2.043 1.885 1.84 1.813 1.893 2.02 1.965 1.943 1.953 1.965 2.015 2.03 1.985 1.983 1.955 1.935 1.885 1.903 1.885 1.883 1.95 1.965 1.898 1.888 1.873 1.945 1.968 2.018 2.03 1.93 1.855 1.87 1.94 2.008 2.025 2.005 1.985 1.95 1.943 1.84 1.928 1.92 1.93 1.91 1.855 1.78 1.778 1.858 1.955 1.958 1.993 2.013 1.95 1.815 1.828 1.853 1.923 1.925 2.01 1.938 1.9 2.075 2.055 1.98 1.905 1.908 2.018 2.12 2.028 1.84 1.838 1.958 1.958 1.963 2.108 2.063 2.03 1.955 1.923 1.923 1.935 1.91 1.928 1.945 1.94 1.843 1.878 1.98 1.988 1.948 1.893 1.803 1.82 1.798 1.833 1.84 1.845 1.85 1.883 1.875 1.873 1.92 1.958 1.913 1.91 1.78 1.738 1.688 1.683 1.738 1.768 1.84 1.828 1.813 1.755 1.715 1.705 1.878 1.915 2.045 1.973 1.985 1.983 2.035 2.065 1.998 2.015 1.913 2.01 1.965 1.945 1.89 1.938 2.013 1.945 1.888 2.02 1.993 2.04 2 2.01 2 1.93 1.93 1.965 1.993 1.97 1.89 1.855 1.805 1.803 1.875 1.935 1.963 1.94 1.995 2.018 1.91 1.903 1.86 1.895 1.945 1.928 1.985 1.99 1.945 1.96 1.975 1.953 1.88 1.888 1.958 2 1.965 1.875 1.883 1.875 1.975 2.015 2.015 2.013 1.951 1.936 1.823 1.861 1.916 1.911 1.953 2.026 2.033 2.031 1.941 1.901 1.991 1.963 1.963 1.943 1.973 1.968 1.928 1.848 1.831 1.926 1.931 1.898 1.818 1.791 1.908 1.883 1.811 1.898 1.913 1.923 1.911 1.901 1.861 1.831 1.906 1.938 1.973 1.893 1.946 1.861 1.953 1.943 1.948 1.973 1.946 1.973 1.921
1.913 1.898 1.948 1.893 1.87 1.863 1.923 1.955 1.943 1.918 1.883 1.883 1.838 1.928 1.953 1.87 1.838 1.773 1.795 1.775 1.858 1.92 1.985 2.058 2.04 1.948 1.87 1.908 1.913 2.025 1.94 1.818 1.745 1.79 1.748 1.73 1.748 1.778 1.775 1.745 1.738 1.78 1.785 1.94 1.995 1.95 1.89 1.905 1.925 1.913 2.015 2.028 1.978 1.953 1.87 1.878 1.953 1.925 1.933 1.92 1.955 1.983 1.945 1.918 1.885 1.868 1.928 1.933 1.883 1.908 1.88 1.92 1.915 1.978 1.948 2.005 2.058 1.968 1.943 1.833 1.775 1.85 1.94 1.988 1.933 1.87 1.823 1.91 1.978 2.078 2.073 2.045 2.033 1.948 1.91 1.895 1.863 1.853 1.895 1.978 2.01 2.005 1.92 1.785 1.775 1.878 1.9 1.9 1.903 1.915 1.838 1.8 1.805 1.948 1.893 1.923 1.94 1.855 1.868 1.888 1.933 1.97 1.988 2.003 1.96 1.913 1.94 1.935 1.963 1.933 1.908 1.825 1.838 1.788 1.828 1.865 1.8 1.82 1.848 1.835 1.835 1.853 1.808 1.865 1.923 1.88 1.888 1.933 1.925 1.878 1.795 1.878 1.895 1.883 1.945 1.98 1.94 1.918 1.94 1.915 1.82 1.795 1.83 1.888 1.985 1.88 1.935 1.978 1.935 1.88 1.893 1.915 1.853 1.828 1.893 1.96 2.085 2.045 1.99 1.993 1.95 1.91 2.023 2.03 2.078 2.063 1.97 1.853 1.853 1.835 1.935 1.983 1.935 1.973 1.95 1.93 1.893 1.878 1.913 1.93 1.96 1.91 1.878 1.855 1.878 1.933 1.953 1.975 1.94 1.908 1.895 1.898 1.85 1.833 1.853 1.898 1.858 1.813 1.848 1.848 1.92 1.92 1.92 1.95 1.895 1.843 1.78 1.78 1.773 1.775 1.805 1.818 1.91 1.88 1.933 1.95 1.98 1.905 1.893 1.93 1.988 1.965 1.943 1.955 1.905 1.93 1.868 1.828 1.83 1.908 1.955 1.925 1.853 1.815 1.873 1.85 1.813 1.86 1.878 1.925 2.003 2.04 1.99 1.885 1.815 1.783 1.813 1.83 1.975 1.983 1.925 1.848 1.815 1.845 1.91 1.95 1.958 1.948 1.98 1.965 2.045 2.02 1.985 1.9 1.865 1.953 1.935 1.93 1.925 2.025 2.008 1.86 1.903 1.908 1.935 1.97 1.99 1.96 1.94 1.88 1.88 1.868 1.9 1.983 1.973 1.985 2.038 1.985 1.828 1.828 1.893 1.883 1.865 1.783 1.845 1.82 1.863 1.95 1.985 1.993 1.948 1.83 1.868 1.803 1.865 1.913 1.91 1.89 1.97 1.923 1.88 1.94 2.043 1.963 1.858 1.945 1.975 1.975 1.935 1.868 1.958 1.945 1.94 2.05 2.14 2.133 2.025 1.938 1.898 1.91 1.943 1.885 1.92 2 1.94 1.865 2.01 1.968 1.91 1.945 1.85 1.86 1.835 1.853 1.853 1.81 1.84 1.843 1.84 1.843 1.845 1.95 1.925 1.893 1.86 1.833 1.768 1.665 1.69 1.815 1.875 1.905 1.87 1.795 1.745 1.835 1.843 2.115 2.088 2.02 1.985 1.945 1.995 2.06 2.035 1.998 2.048 1.965 1.933 1.995 1.948 1.985 1.948 1.99 2.005 1.993 2.008 2.018 2.03 1.955 1.96 1.953 1.935 1.923 2.005 2 1.945 1.93 1.823 1.83 1.838 1.933 1.965 2.115 1.948 1.97 1.903 1.913 1.835 1.87 1.883 1.958 1.985 1.975 1.978 1.903 1.935 1.94 1.885 1.833 1.868 1.918 1.87 1.943 1.905 1.87 1.948 1.938 2.113 1.97 1.901 1.901 1.903 1.891 1.996 1.976 1.956 2.018 2.051 2.033 1.921 1.891 1.871 1.941 1.953 1.946 1.886 1.888 1.868 1.806 1.831 1.973 2.028 1.953 1.951 1.881 1.961 1.928 1.853 1.841 1.918 1.943 1.913 1.901 1.906 1.946 1.903 2.038 2.023 1.993 1.941 1.908 1.971 2.011 2.098 2.078 1.981 2.013 2.003 1.826
1.983 1.973 1.968 1.863 1.89 1.853 1.938 1.975 1.953 1.843 1.825 1.843 1.87 1.935 1.918 1.918 1.868 1.858 1.85 1.873 1.968 1.993 2.038 2.04 1.948 1.86 1.868 1.923 1.908 1.92 1.86 1.768 1.75 1.75 1.745 1.82 1.82 1.895 1.91 1.828 1.79 1.795 1.88 1.935 1.913 1.885 1.883 1.853 1.858 1.898 1.92 1.898 1.858 1.83 1.845 1.91 1.933 1.96 1.945 1.91 1.958 1.938 1.913 1.883 1.803 1.873 1.943 1.935 1.905 1.943 1.855 1.91 1.885 1.958 1.953 1.938 1.918 1.888 1.855 1.765 1.83 1.928 1.988 1.938 1.848 1.818 1.888 1.883 2.063 2.058 2.005 1.968 1.868 1.848 1.883 1.918 1.833 1.885 1.898 2.035 2.03 1.978 1.845 1.775 1.75 1.89 1.903 1.925 1.905 1.9 1.825 1.778 1.825 1.92 1.925 1.923 1.855 1.813 1.875 1.955 1.923 1.913 1.96 1.985 1.905 1.9 1.925 1.865 1.878 1.8 1.778 1.748 1.78 1.8 1.795 1.85 1.855 1.88 1.838 1.838 1.87 1.883 1.895 1.853 1.845 1.828 1.875 1.875 1.91 1.933 1.85 1.833 1.875 1.96 2.033 1.943 1.91 1.875 1.923 1.883 1.798 1.858 1.893 2.028 1.938 1.913 1.99 1.958 1.855 1.885 1.91 1.858 1.828 1.9 1.948 2.1 2.088 2.038 1.978 1.983 1.963 1.9 2.043 2.038 2.08 1.943 1.84 1.838 1.883 1.885 1.938 1.96 1.928 1.955 1.965 1.933 1.955 1.953 1.905 1.963 1.938 1.898 1.885 1.865 1.898 1.905 1.935 1.908 1.898 1.95 1.883 1.898 1.84 1.978 1.87 1.893 1.888 1.855 1.888 1.903 1.943 1.97 1.903 1.868 1.845 1.8 1.81 1.778 1.78 1.845 1.828 1.923 1.91 1.94 2.02 1.965 1.895 1.93 1.94 1.96 2.038 2.045 1.913 1.92 1.973 1.843 1.83 1.78 1.913 1.963 1.945 1.925 1.883 1.853 1.82 1.833 1.873 1.898 1.98 2.005 1.978 1.993 2.093 1.86 1.835 1.825 1.895 1.935 1.97 2.018 1.933 1.875 1.858 1.888 2.005 1.973 1.913 1.97 1.955 1.988 1.978 1.943 1.955 1.98 1.933 1.985 1.955 1.985 2.025 2.028 1.913 1.835 1.913 1.938 2.008 1.963 2.02 1.965 1.853 1.83 1.843 1.925 2.015 1.973 1.943 1.878 1.915 1.89 1.895 1.865 1.915 1.88 1.843 1.775 1.77 1.813 1.888 1.91 1.958 2.023 1.878 1.908 1.828 1.793 1.84 2.035 1.985 1.94 1.95 1.878 1.868 1.933 1.985 1.9 1.968 1.945 1.973 1.965 1.91 1.915 1.913 1.993 2.045 2.16 2.115 2.118 1.985 1.898 1.895 1.908 1.983 1.908 1.99 1.973 1.898 1.88 2 2.01 1.95 1.89 1.885 1.868 1.85 1.838 1.758 1.8 1.863 1.865 1.878 1.853 1.92 1.883 1.895 1.84 1.81 1.765 1.733 1.79 1.768 1.838 2 1.978 1.923 1.833 1.798 1.858 1.935 2.113 2.143 2.025 1.99 1.978 2.07 2.028 1.978 2.018 1.975 1.965 1.988 1.973 1.925 1.97 1.998 1.985 2.035 1.983 1.975 2 1.923 1.888 1.925 1.945 1.93 1.953 1.98 2.073 1.955 1.925 1.848 1.878 1.878 1.988 2.005 2.048 1.9 1.935 1.843 1.903 1.875 1.858 1.913 1.963 1.94 1.973 1.915 1.863 1.888 1.853 1.858 1.81 1.89 1.905 1.923 1.85 1.908 1.845 1.968 1.955 1.92 1.945 1.853 1.961 1.888 1.941 2.098 2.076 2.043 2.031 1.993 1.921 1.821 1.786 1.876 1.918 1.928 1.891 1.893 1.791 1.843 1.826 1.911 1.923 1.931 1.886 1.813 1.933 1.881 1.951 1.931 1.923 1.821 2.023 2.051 1.933 1.978 1.953 1.986 2.073 1.963 1.916 1.866 1.883 1.918 1.916 1.961 1.976 1.981 2.026 1.941 1.906
1.95 1.913 1.91 1.79 1.848 1.915 1.943 1.993 1.928 1.825 1.85 1.858 1.958 1.983 1.925 1.908 1.913 1.915 1.933 1.96 1.975 2.03 2.08 2.008 1.903 1.865 1.89 1.915 1.938 1.815 1.773 1.76 1.878 1.805 1.803 1.923 1.998 2.05 1.955 1.83 1.795 1.8 1.888 1.915 1.925 1.885 1.868 1.893 1.868 1.938 1.9 1.953 1.858 1.873 1.893 1.893 1.948 1.958 1.94 1.958 1.963 1.953 1.893 1.855 1.85 1.915 1.973 1.98 1.973 1.913 1.823 1.84 1.93 1.935 1.968 1.933 1.933 1.795 1.79 1.815 1.888 1.928 1.918 1.875 1.86 1.85 1.918 2.058 2.073 2.018 1.933 1.88 1.808 1.86 1.9 1.873 1.825 1.91 1.95 2.02 1.965 1.873 1.795 1.758 1.838 1.865 1.893 1.893 1.888 1.825 1.86 1.873 1.89 1.923 1.91 1.815 1.835 1.918 1.895 1.848 1.88 1.888 1.908 1.918 1.835 1.81 1.85 1.878 1.86 1.76 1.733 1.763 1.818 1.91 1.928 1.905 1.935 1.825 1.87 1.905 1.898 1.853 1.885 1.878 1.89 1.888 1.825 1.943 1.948 1.898 1.865 1.863 1.828 1.943 1.96 1.943 1.878 1.863 1.895 1.825 1.838 1.878 1.948 1.988 1.965 2.068 1.93 1.85 1.823 1.843 1.815 1.838 1.865 1.863 2.008 2.03 1.998 1.898 1.928 1.973 1.928 2 2.065 2.12 1.97 1.92 1.87 1.9 1.905 1.945 1.955 1.993 2.01 2.043 1.963 1.945 1.963 1.905 1.903 1.9 1.908 1.965 1.855 1.855 1.875 1.87 1.94 1.958 1.958 1.898 1.908 1.943 1.933 1.895 1.888 1.823 1.908 1.878 1.883 1.94 1.973 1.9 1.94 1.915 1.878 1.823 1.748 1.77 1.833 1.928 1.89 1.908 1.955 2.003 1.995 1.965 1.92 1.903 1.873 1.903 1.955 1.903 1.933 1.865 1.823 1.76 1.8 1.86 1.923 1.96 1.915 1.88 1.898 1.888 1.918 1.938 1.96 1.965 2.015 2.015 2.015 1.935 1.893 1.79 1.87 1.883 1.985 2.033 2.005 2.018 1.895 1.848 1.873 1.883 1.878 1.935 1.948 1.998 1.988 2.028 1.963 1.988 1.973 1.89 1.963 1.993 2.015 1.938 1.965 1.895 1.895 1.908 1.943 1.918 1.948 1.985 1.918 1.858 1.803 1.825 1.823 1.948 1.943 1.975 1.928 1.898 1.895 1.868 1.923 1.88 1.87 1.833 1.833 1.773 1.825 1.905 1.96 1.96 1.888 1.89 1.815 1.81 1.813 1.82 1.865 1.985 1.978 1.968 1.9 1.85 1.865 2.008 1.96 1.895 1.913 1.938 1.955 1.9 1.93 1.9 1.953 2.125 2.15 2.095 2.105 1.945 1.823 1.89 1.915 1.948 1.988 2.01 2.033 1.923 1.858 1.803 1.95 1.885 1.893 1.793 1.79 1.79 1.818 1.818 1.785 1.918 1.905 1.945 1.873 1.873 1.893 1.898 1.975 1.838 1.858 1.77 1.785 1.798 1.91 1.98 2.083 1.913 1.915 1.858 1.823 1.895 2.158 2.133 2.003 1.91 1.908 1.998 2.113 2.05 1.953 2.053 1.905 1.99 1.973 1.935 1.888 1.893 1.933 1.905 1.95 1.933 1.988 1.93 1.88 1.853 1.918 1.925 1.88 1.9 1.935 2.018 1.958 1.938 1.87 1.883 1.985 1.988 1.965 1.895 1.803 1.888 1.853 1.858 1.948 1.92 1.913 1.953 1.96 1.948 1.953 1.903 1.94 1.898 1.893 1.925 1.978 1.968 1.933 1.943 1.905 1.883 1.978 1.993 2.018 2.073 1.906 1.983 1.976 2.013 2.088 2.166 2.018 1.951 1.903 1.773 1.723 1.841 1.956 1.878 1.986 1.848 1.893 1.833 1.846 1.866 1.971 1.988 2.026 1.953 1.871 1.868 1.886 1.911 1.903 1.913 1.868 1.916 2.033 1.948 1.871 1.841 1.916 1.973 1.906 1.806 1.881 1.988 1.898 1.911 1.938 1.968 2.048 1.963 1.866 1.871
1.923 1.945 1.873 1.808 1.838 1.918 1.983 1.995 1.91 1.828 1.828 1.908 2.005 2.065 2.008 1.99 1.933 1.948 1.95 1.965 1.995 1.953 1.928 1.89 1.878 1.808 1.83 1.813 1.838 1.768 1.773 1.815 1.908 1.958 1.918 1.95 2.01 1.995 1.82 1.735 1.8 1.833 1.888 1.973 1.875 1.865 1.858 1.815 1.843 1.89 1.915 1.863 1.908 1.943 1.905 1.928 1.998 1.965 1.968 1.96 1.955 1.928 1.843 1.81 1.888 1.963 1.99 1.935 1.915 1.845 1.898 1.863 1.91 1.97 1.928 1.938 1.823 1.77 1.833 1.815 1.873 1.888 1.875 1.865 1.873 1.888 1.948 2.013 1.998 2.005 1.945 1.843 1.81 1.913 1.94 1.895 1.835 1.948 1.995 1.968 1.923 1.855 1.795 1.855 1.918 1.86 1.86 1.865 1.9 1.873 1.843 1.865 1.928 1.948 1.878 1.82 1.84 1.823 1.87 1.843 1.89 1.885 1.923 1.848 1.84 1.873 1.903 1.875 1.798 1.768 1.798 1.875 1.92 1.978 1.903 1.903 1.878 1.885 1.835 1.888 1.87 1.843 1.878 1.87 1.845 1.808 1.853 1.893 1.86 1.818 1.8 1.833 1.885 1.908 1.865 1.83 1.785 1.8 1.828 1.858 1.845 1.918 1.993 2.025 1.975 1.963 1.865 1.808 1.835 1.825 1.828 1.948 1.943 1.935 2.008 1.995 1.863 1.853 1.885 1.948 2.02 2.043 2.03 1.99 1.975 1.895 1.868 1.883 1.965 1.998 2.068 2.065 2.033 1.968 1.93 1.848 1.853 1.85 1.833 1.793 1.855 1.845 1.81 1.808 1.875 1.91 1.888 1.9 1.865 1.913 2.008 2.003 1.95 1.87 1.885 1.858 1.863 1.92 1.925 1.985 2.03 1.983 1.923 1.913 1.84 1.803 1.775 1.89 1.928 1.993 1.988 2.055 2.08 2.055 1.985 1.96 1.908 1.885 1.838 1.923 1.925 1.913 1.8 1.783 1.763 1.868 1.87 1.9 1.913 1.875 1.873 1.818 1.823 1.915 1.973 1.898 2.04 1.973 1.96 1.998 1.913 1.868 1.85 1.83 1.853 1.885 1.918 1.95 1.993 2.015 1.88 1.758 1.77 1.838 1.848 1.963 1.993 2.01 1.91 1.948 2.048 2.023 1.955 1.955 1.988 1.938 1.935 1.935 1.925 1.903 1.88 1.923 1.978 1.968 1.96 1.983 1.948 1.838 1.748 1.785 1.963 1.953 2.023 1.97 1.92 1.915 1.938 1.92 1.91 1.885 1.885 1.87 1.893 1.895 1.885 1.953 1.958 1.945 1.87 1.863 1.788 1.78 1.798 1.865 2 1.955 1.915 1.93 1.885 1.848 1.853 2.015 1.948 1.92 1.913 1.953 1.93 1.913 1.975 2.018 2.118 2.11 2.118 2.163 2 1.945 1.875 1.88 1.988 2.008 1.965 1.923 1.918 1.983 1.81 1.85 1.9 1.91 1.85 1.748 1.763 1.805 1.83 1.81 1.885 1.933 1.925 1.85 1.808 1.828 1.913 1.925 1.933 1.865 1.823 1.733 1.743 1.845 1.968 1.998 1.938 1.848 1.773 1.813 1.86 2.063 2.108 2.118 1.888 1.875 1.875 1.973 2.035 1.968 1.843 1.798 1.863 1.868 1.913 1.895 1.918 1.888 1.953 1.925 1.895 1.963 1.968 1.928 1.915 1.943 1.97 1.89 1.958 2.015 1.955 1.963 1.878 1.855 1.858 1.895 2.05 2.028 1.983 1.945 1.883 1.828 1.865 1.96 2.003 2.015 1.945 2.05 2.045 2.058 1.895 1.895 1.895 1.92 1.918 1.95 2.028 2.015 1.96 1.978 1.938 1.923 2.043 1.993 2.015 1.963 1.973 2.018 2.016 2.028 2.066 2.088 1.921 1.858 1.793 1.781 1.806 1.896 1.896 1.943 2.006 1.926 1.866 1.848 1.873 1.911 1.943 2.028 1.976 1.848 1.881 1.963 1.923 1.926 1.968 1.888 1.968 1.943 1.963 1.883 1.893 1.803 1.846 1.843 1.768 1.863 1.958 1.881 1.906 1.921 1.966 1.993 1.943 1.958 1.918 1.921
1.968 1.985 1.895 1.838 1.845 1.938 2.003 1.963 1.868 1.815 1.913 2.003 2.09 2.11 1.995 1.935 1.913 1.938 1.928 1.915 1.908 1.858 1.863 1.855 1.835 1.81 1.883 1.775 1.798 1.81 1.823 1.928 1.955 1.968 1.923 1.945 1.96 1.833 1.748 1.745 1.775 1.873 1.905 1.915 1.88 1.853 1.885 1.863 1.898 1.948 1.953 1.943 2.003 1.94 1.91 1.923 1.953 1.97 1.93 1.933 1.943 1.915 1.84 1.833 1.925 1.978 1.963 1.883 1.853 1.795 1.848 1.858 1.955 1.97 1.943 1.853 1.805 1.828 1.803 1.835 1.83 1.9 1.975 1.91 1.915 1.955 1.948 1.983 1.888 1.873 1.818 1.795 1.84 1.885 1.943 1.878 1.878 1.988 2.015 1.973 1.853 1.773 1.808 1.868 1.888 1.95 1.908 1.86 1.888 1.85 1.845 1.875 1.958 1.92 1.863 1.823 1.833 1.815 1.92 1.868 1.86 1.84 1.843 1.855 1.935 1.898 1.933 1.898 1.8 1.808 1.87 1.998 2.005 1.975 1.895 1.838 1.825 1.858 1.895 1.838 1.86 1.863 1.863 1.838 1.82 1.893 1.863 1.9 1.908 1.76 1.735 1.838 1.88 1.888 1.825 1.79 1.75 1.895 1.855 1.88 1.93 1.945 1.988 2.003 1.908 1.798 1.823 1.795 1.81 1.828 1.903 1.893 1.985 2.003 2.048 1.94 1.798 1.825 1.83 1.913 1.978 1.96 1.985 1.973 1.948 1.848 1.888 1.958 2.003 2.078 2.098 1.998 2.003 1.93 1.83 1.875 1.828 1.795 1.823 1.895 1.87 1.915 1.868 1.923 1.94 1.928 1.86 1.905 1.9 1.92 2.083 2.068 2.003 1.948 1.948 1.94 1.965 1.96 1.955 1.94 1.93 1.898 1.825 1.855 1.773 1.865 1.858 1.898 1.935 2.083 2.065 2.068 2.01 1.993 1.888 1.868 1.873 1.86 1.885 1.87 1.885 1.863 1.803 1.77 1.77 1.855 1.93 1.95 1.863 1.903 1.813 1.883 1.983 1.96 1.95 1.923 2 2 1.965 1.895 1.855 1.798 1.788 1.82 1.88 1.925 1.94 1.978 1.893 1.798 1.75 1.723 1.82 1.823 1.828 1.935 1.91 1.943 1.948 1.998 2.048 2.003 1.948 2.07 2.07 1.993 1.915 1.99 2.01 1.973 1.925 1.95 2.018 1.948 1.935 1.87 1.86 1.738 1.703 1.845 1.92 1.998 2.028 1.96 1.94 1.965 1.88 1.863 1.893 1.958 1.818 1.838 1.878 1.873 1.915 1.993 2.013 1.898 1.805 1.828 1.768 1.845 1.838 1.905 2.045 1.933 1.908 1.95 1.828 1.918 1.998 2 1.955 1.908 1.955 1.998 1.973 1.953 2 2.033 2.103 2.203 2.073 1.983 1.893 1.94 1.843 1.85 1.965 1.975 1.93 1.928 1.85 1.853 1.908 1.823 1.885 1.853 1.783 1.78 1.83 1.815 1.873 1.805 1.975 2 1.885 1.853 1.8 1.79 1.855 1.86 1.823 1.81 1.76 1.778 1.813 1.883 1.998 1.958 1.85 1.825 1.84 1.888 2.008 2.058 2.063 2.008 1.868 1.86 1.915 1.95 1.915 1.825 1.828 1.908 1.888 1.918 1.93 1.865 1.87 1.978 1.97 2.023 1.983 2.043 1.993 1.998 2.048 2.043 1.943 1.938 1.993 1.983 1.965 1.988 1.873 1.853 1.948 1.96 2.03 2.025 1.935 1.863 1.825 1.8 1.933 1.958 1.968 1.988 1.96 1.98 1.998 1.865 1.86 1.853 1.855 1.91 1.895 1.99 2.053 2.02 2 1.945 1.913 1.988 2.138 1.975 2.018 1.97 1.971 2.036 2.008 1.993 1.978 1.896 1.801 1.791 1.763 1.868 1.926 1.958 2.038 2.006 2.001 1.931 1.861 1.838 1.896 1.906 2.023 2.053 1.966 1.893 1.878 1.886 1.973 1.916 1.866 1.846 1.881 1.931 1.906 1.848 1.858 1.976 1.838 1.911 1.963 1.908 1.986 1.933 1.963 2.033 2.018 2.023 1.983 1.973 1.886 1.931
2.02 1.93 1.875 1.868 1.9 1.993 1.995 1.92 1.86 1.85 1.955 1.963 2.063 2.045 1.915 1.85 1.863 1.888 1.893 1.94 1.89 1.865 1.875 1.845 1.8 1.79 1.855 1.845 1.845 1.863 1.903 1.95 1.988 1.928 1.928 1.958 1.978 1.79 1.773 1.75 1.745 1.925 1.893 1.938 1.8 1.8 1.783 1.855 1.968 1.963 1.97 1.97 1.975 1.873 1.87 1.953 1.975 1.973 1.905 1.953 1.888 1.868 1.853 1.898 1.998 2.013 1.928 1.825 1.768 1.79 1.853 1.903 1.963 1.955 1.888 1.823 1.813 1.895 1.855 1.895 1.93 1.995 1.993 1.93 1.965 1.92 1.895 1.97 1.955 1.885 1.833 1.855 1.895 2.008 2.003 1.935 1.983 1.983 1.965 1.893 1.75 1.77 1.785 1.85 1.918 1.9 1.885 1.873 1.833 1.848 1.898 1.948 1.9 1.87 1.798 1.835 1.8 1.9 1.838 1.838 1.873 1.905 1.925 1.915 1.968 1.933 1.89 1.835 1.815 1.82 1.883 1.99 1.96 1.885 1.843 1.808 1.858 1.845 1.838 1.838 1.815 1.84 1.833 1.83 1.83 1.843 1.795 1.823 1.818 1.783 1.8 1.823 1.903 1.9 1.835 1.778 1.815 1.85 1.905 1.933 1.993 1.998 1.975 1.87 1.77 1.75 1.808 1.848 1.873 1.895 1.96 1.965 1.938 1.913 1.908 1.825 1.765 1.8 1.905 1.923 2 1.935 2.028 1.928 1.92 1.908 1.998 2.043 2.045 2.108 2.078 2.03 1.928 1.865 1.868 1.953 1.838 1.88 1.925 1.883 1.935 1.933 1.908 1.963 1.915 1.945 1.845 1.915 1.893 1.995 2.033 2.023 2.003 1.893 1.848 1.89 1.93 1.905 1.963 1.933 1.9 1.84 1.885 1.865 1.865 1.835 1.843 1.883 2.04 2.113 2.07 1.995 1.958 1.93 1.835 1.835 1.795 1.763 1.793 1.808 1.898 1.793 1.81 1.793 1.825 1.905 1.945 1.893 1.868 1.81 1.853 1.918 1.975 1.983 2.033 1.988 1.935 1.975 1.908 1.858 1.823 1.835 1.78 1.788 1.87 1.853 1.9 1.938 1.853 1.7 1.728 1.758 1.84 1.915 1.898 2.025 1.988 1.993 2.005 2.03 2.033 2.008 1.98 2.09 2.115 2.06 2.02 1.945 2.038 1.953 1.985 1.96 1.98 1.925 1.885 1.883 1.803 1.735 1.803 1.96 2.043 2.01 1.913 1.905 1.958 1.9 1.85 1.835 1.878 1.893 1.878 1.875 1.91 1.963 1.97 1.96 1.938 1.898 1.833 1.823 1.853 1.863 1.885 2.08 2.065 2.015 1.94 1.87 1.898 1.993 2.033 1.96 1.943 1.968 2.058 2.055 2.003 1.998 1.975 2.04 2.065 2.058 2.023 1.953 1.93 1.755 1.825 2.008 2.075 1.953 1.955 1.915 1.838 1.883 1.905 1.965 1.965 1.91 1.928 1.918 1.87 1.94 1.953 2.045 2.105 1.905 1.845 1.815 1.775 1.83 1.88 1.893 1.838 1.748 1.73 1.835 1.868 1.918 1.98 1.925 1.813 1.825 1.85 1.915 1.99 2.055 2.033 1.878 1.893 1.873 1.973 1.97 1.938 1.833 1.828 1.885 1.925 1.923 1.915 1.903 1.945 1.965 1.988 2.008 2.055 1.965 2.008 1.94 1.978 1.913 1.87 1.865 1.91 2 1.913 1.84 1.835 1.82 1.93 2.028 1.983 2.083 1.868 1.84 1.815 1.818 1.865 1.96 2.01 2.05 1.933 1.955 1.933 1.88 1.903 1.883 1.885 1.94 2 2.013 2.078 1.978 2.028 1.96 1.925 1.993 2.068 1.983 1.92 1.935 2.021 1.913 1.951 1.963 1.988 1.826 1.848 1.856 1.906 1.838 1.851 2.001 2.066 1.961 1.946 1.913 1.878 1.871 1.921 2.018 2.003 1.898 1.853 1.856 1.853 1.948 1.953 1.931 1.891 1.926 2.028 1.963 1.898 1.843 1.846 1.953 1.931 1.956 2.058 1.911 1.901 1.963 1.993 1.983 2.031 2.113 1.886 1.878 1.873 1.928
2.078 1.935 1.858 1.905 1.99 2.013 1.945 1.885 1.85 1.84 1.943 2 2.093 1.87 1.893 1.793 1.838 1.813 1.84 1.873 1.87 1.863 1.89 1.868 1.81 1.913 1.883 1.895 1.85 1.873 1.91 1.985 1.928 1.918 1.903 1.868 1.913 1.775 1.78 1.77 1.91 1.918 1.89 1.86 1.765 1.745 1.85 1.885 1.918 1.928 1.983 1.938 1.888 1.798 1.845 1.925 1.993 1.895 1.89 1.883 1.9 1.885 1.93 1.955 2 1.935 1.853 1.833 1.82 1.905 1.918 1.995 1.968 1.883 1.88 1.855 1.863 1.87 1.858 1.945 1.963 2.03 1.99 1.96 1.913 1.92 1.895 1.935 1.91 1.883 1.865 1.95 1.968 2.063 1.98 1.985 1.973 2.068 1.955 1.858 1.765 1.798 1.86 1.925 1.913 1.918 1.9 1.885 1.83 1.848 1.91 1.93 1.903 1.815 1.83 1.82 1.855 1.86 1.858 1.868 1.91 1.998 2.048 2.01 2.013 1.898 1.86 1.865 1.883 1.86 1.895 1.963 1.835 1.785 1.82 1.838 1.825 1.86 1.803 1.808 1.873 1.848 1.815 1.82 1.825 1.815 1.843 1.833 1.755 1.778 1.775 1.885 1.928 1.883 1.853 1.81 1.878 1.968 1.983 2.035 1.998 1.968 1.863 1.793 1.778 1.828 1.79 1.875 1.853 1.955 1.975 1.918 1.95 1.883 1.768 1.788 1.87 1.9 2.008 2.015 2.023 2.018 2.038 1.965 1.968 1.978 2.065 2.12 2.095 2.07 2 1.945 1.873 1.86 1.855 1.893 1.88 1.923 1.953 1.928 1.97 2.023 1.925 1.905 1.893 1.895 1.923 1.908 1.863 2.008 2.02 1.898 1.92 1.84 1.858 1.88 1.955 2.015 1.893 1.868 1.885 1.855 1.95 1.835 1.853 1.85 1.91 1.983 2.075 2.075 2.02 1.875 1.803 1.843 1.795 1.83 1.82 1.93 1.903 1.893 1.898 1.898 1.845 1.835 1.898 1.89 1.888 1.863 1.93 1.893 1.878 1.935 2.003 1.98 1.99 1.915 1.898 1.813 1.833 1.818 1.868 1.83 1.915 1.873 1.88 1.918 1.913 1.893 1.748 1.718 1.728 1.865 1.88 1.983 1.93 1.955 2.035 2.038 2.03 2.07 2.065 2.025 2.005 1.983 2.01 2.01 2.008 1.885 2.013 1.943 1.968 2.033 1.913 1.828 1.84 1.863 1.808 1.823 1.903 2.065 2.09 1.975 2.025 1.853 1.84 1.883 1.898 1.908 1.948 1.865 1.893 1.91 1.91 1.91 1.955 1.92 1.78 1.853 1.85 1.783 1.8 1.81 1.945 2.098 2.058 1.985 1.89 1.93 1.94 1.995 2.025 1.998 2.045 1.95 1.975 2.043 2.008 1.995 2.01 2.03 2.063 2.02 2.01 1.873 1.81 1.793 1.975 2.11 2.02 1.945 1.87 1.843 1.828 1.88 1.9 1.918 1.94 1.933 1.878 1.875 1.965 1.948 1.943 2.038 2.028 1.88 1.79 1.745 1.82 1.905 1.928 1.863 1.843 1.743 1.775 1.933 1.958 1.963 1.968 1.993 2.043 1.905 1.98 1.93 2 2.015 2.068 1.898 1.97 1.93 1.968 1.943 1.89 1.888 1.863 1.955 1.998 1.953 1.903 1.95 1.928 2.018 2.023 1.948 2.023 1.95 2.015 1.968 1.948 1.928 1.865 1.933 1.958 1.988 1.97 1.833 1.988 1.915 1.945 1.973 1.945 1.975 1.855 1.77 1.843 1.823 1.96 2.01 1.918 1.855 1.885 1.883 1.905 1.99 1.885 1.9 1.923 2.043 2.048 1.95 2.033 1.945 1.963 1.978 1.963 1.925 1.943 1.958 1.905 1.91 1.941 1.906 1.873 1.933 1.933 1.813 1.823 1.846 1.891 1.901 1.848 1.938 1.916 1.963 2.033 1.908 1.838 1.878 2.098 2.021 1.941 1.783 1.873 1.848 1.903 1.996 1.926 1.923 1.988 1.956 1.998 1.918 1.986 1.841 1.876 1.981 2.031 2.013 1.951 1.961 1.968 1.966 1.921 1.903 1.906 1.916 1.938 1.901 1.853 1.946
2.03 1.823 1.835 1.908 1.97 1.895 1.838 1.815 1.825 1.91 1.99 1.993 1.983 1.895 1.798 1.773 1.8 1.795 1.845 1.868 1.9 1.903 1.86 1.86 1.858 1.905 1.913 1.928 1.888 1.93 1.955 1.973 1.913 1.868 1.85 1.815 1.815 1.718 1.69 1.773 1.86 1.885 1.85 1.815 1.788 1.793 1.81 1.883 1.94 1.98 1.978 1.935 1.838 1.783 1.823 1.853 1.9 1.898 1.87 1.823 1.868 1.855 1.92 1.985 1.98 1.898 1.908 1.91 1.935 2.005 2.053 2.03 1.903 1.893 1.818 1.843 1.918 1.94 1.903 1.903 1.953 1.965 1.95 1.918 1.93 1.89 1.925 1.885 1.878 1.828 1.85 1.935 1.948 2.055 1.958 1.948 1.935 1.955 1.89 1.788 1.75 1.83 1.94 2.028 1.98 1.943 1.883 1.77 1.835 1.865 1.9 1.898 1.875 1.885 1.893 1.885 1.958 1.955 1.958 1.948 1.94 1.963 2.025 2.038 1.93 1.893 1.863 1.938 1.888 1.903 1.865 1.888 1.795 1.775 1.788 1.76 1.8 1.89 1.83 1.81 1.858 1.88 1.85 1.818 1.845 1.895 1.873 1.833 1.775 1.78 1.83 1.928 1.96 1.928 1.835 1.825 1.92 2.113 2.058 2.038 1.943 1.878 1.795 1.773 1.73 1.773 1.843 1.9 1.9 1.975 1.98 1.893 1.925 1.793 1.795 1.9 1.915 1.963 2.083 2.038 2.063 2.118 2.058 2.005 1.96 1.995 2.03 2.113 2.053 1.96 1.853 1.773 1.798 1.87 1.828 1.875 1.9 1.943 1.988 2.05 1.978 1.958 1.873 1.858 1.828 1.835 1.86 1.878 1.91 1.938 2.005 1.885 1.87 1.865 1.873 1.895 1.945 1.89 1.825 1.885 1.88 1.988 1.958 1.875 1.898 1.95 2.053 1.968 2.048 1.938 1.903 1.8 1.83 1.73 1.805 1.818 1.94 2.005 1.988 1.943 1.925 1.915 1.873 1.898 1.95 1.93 1.975 1.935 1.853 1.888 1.963 1.948 1.958 1.955 1.943 1.908 1.89 1.808 1.828 1.893 1.908 1.848 1.948 1.945 1.92 1.915 1.943 1.87 1.755 1.728 1.87 1.928 1.93 2.078 1.978 2.023 2.058 2.053 1.983 2.023 1.995 1.95 2.018 1.985 1.955 1.97 1.925 1.93 1.968 1.935 1.903 1.913 1.863 1.81 1.928 1.965 1.905 1.94 2.048 2.048 2.098 1.958 1.888 1.88 1.923 1.915 2 2.08 2 1.935 1.89 1.968 1.943 1.885 1.895 1.945 1.825 1.813 1.808 1.82 1.833 1.92 2.023 1.985 1.928 1.91 1.905 1.95 1.958 2.005 2.068 1.88 1.96 1.98 1.97 2.028 1.97 1.978 2.008 2.065 2.103 1.993 2.005 1.823 1.873 1.93 2.153 2.085 1.968 1.898 1.875 1.868 1.89 1.953 1.943 1.835 1.898 1.908 1.855 1.87 2.035 1.985 1.915 1.885 1.858 1.775 1.8 1.75 1.795 1.873 1.92 1.9 1.823 1.835 1.88 2.03 2.073 2.013 1.925 1.91 1.865 1.84 1.88 1.893 1.953 1.983 1.925 1.865 1.848 1.883 1.973 1.97 1.895 1.99 1.975 2.008 2.038 1.948 1.893 1.878 1.94 1.965 2.033 2.005 2.023 1.97 1.9 1.9 1.915 1.985 1.958 1.938 1.898 1.938 1.93 1.978 1.845 1.883 1.998 1.953 2.04 1.79 1.783 1.71 1.938 1.915 2 1.97 1.893 1.868 1.87 1.915 2.043 2.005 1.96 1.918 2.005 1.943 1.97 1.94 1.993 1.953 1.978 1.953 2.013 1.933 1.93 1.9 1.758 1.888 1.886 1.873 1.916 1.951 1.828 1.841 1.908 1.878 1.908 1.918 1.991 2.068 2.128 2.046 2.038 1.978 1.861 1.946 2.036 1.941 1.856 1.806 1.803 1.861 1.931 2.001 2.016 1.891 1.908 1.956 1.951 1.963 1.998 1.993 1.986 1.953 1.956 1.983 1.926 2.018 1.956 1.953 1.938 1.908 1.933 1.873 1.876 1.941 1.883 1.923
1.898 1.765 1.833 1.908 1.873 1.793 1.738 1.813 1.87 1.93 1.965 2.033 1.89 1.79 1.798 1.763 1.86 1.85 1.89 1.933 1.935 1.878 1.833 1.81 1.933 1.978 1.985 1.905 1.92 1.95 1.93 1.86 1.828 1.813 1.833 1.815 1.805 1.753 1.755 1.845 1.863 1.903 1.813 1.843 1.773 1.803 1.828 1.898 1.933 1.975 1.958 1.848 1.78 1.755 1.905 1.93 1.94 1.905 1.91 1.905 1.895 1.888 1.965 1.985 1.933 1.888 1.925 1.925 1.973 2.04 2.045 1.953 1.87 1.81 1.838 1.848 1.905 1.903 1.858 1.87 1.915 1.893 1.915 1.885 1.895 1.835 1.838 1.833 1.875 1.855 1.958 2.123 2.068 2.025 1.903 1.89 1.925 1.86 1.825 1.778 1.8 1.93 2.005 2.003 1.958 1.883 1.783 1.78 1.855 1.9 1.918 1.935 1.893 1.868 1.965 1.975 1.99 1.94 1.835 1.923 2.015 1.978 2.068 1.96 1.89 1.85 1.895 1.87 1.868 1.798 1.903 1.868 1.815 1.85 1.793 1.818 1.913 1.9 1.87 1.9 1.895 1.888 1.825 1.835 1.873 1.883 1.898 1.818 1.808 1.843 1.87 1.96 1.998 1.9 1.843 1.898 1.908 1.998 2.153 1.913 1.858 1.763 1.763 1.803 1.863 1.835 1.923 1.915 1.983 1.93 1.885 1.888 1.855 1.795 1.895 1.943 1.945 2.018 2.058 2.043 2.028 2.025 1.973 1.975 2.03 1.943 1.998 1.985 1.888 1.798 1.788 1.758 1.848 1.848 1.958 1.955 1.983 2.01 2.093 1.968 1.883 1.878 1.91 1.853 1.85 1.88 1.923 1.913 1.935 1.955 1.933 1.905 1.848 1.82 1.893 1.863 1.855 1.815 1.825 1.89 1.953 1.958 1.933 1.943 1.913 1.983 1.908 1.995 1.958 1.87 1.79 1.74 1.74 1.808 1.788 1.858 1.935 2.03 2.025 1.903 1.868 1.848 1.813 1.845 1.938 1.943 1.93 1.863 1.835 1.853 1.913 1.955 1.945 1.883 1.865 1.86 1.753 1.815 1.838 1.935 1.878 2.015 1.908 1.91 1.903 1.86 1.863 1.793 1.783 1.805 1.91 1.94 1.96 2.098 2.013 2.028 2.018 2.02 1.98 2.01 1.965 1.888 1.958 1.953 1.965 1.983 1.94 1.94 2.078 1.988 2.005 1.9 1.828 1.943 1.963 2.03 1.965 1.948 1.895 2.05 1.995 1.935 1.833 1.873 1.95 1.873 1.89 1.883 1.915 1.938 1.993 1.948 1.865 1.858 1.888 1.885 1.773 1.823 1.9 1.873 1.905 1.968 1.995 1.938 1.93 1.873 1.94 1.988 1.895 1.905 1.958 1.885 1.915 1.998 1.973 1.983 1.998 2.043 2.04 2.063 2.06 1.943 1.873 1.888 1.868 1.993 2.14 2.03 1.84 1.795 1.885 1.933 1.895 1.938 1.875 1.855 1.888 1.858 1.943 1.985 2.023 1.93 1.848 1.828 1.835 1.82 1.853 1.79 1.823 1.918 1.955 1.918 1.86 1.95 1.94 2.083 2.018 1.975 1.898 1.813 1.868 1.878 1.895 1.903 1.933 1.918 1.86 1.828 1.815 1.88 1.998 1.963 1.9 1.948 2.023 2.013 2.025 1.98 1.89 1.948 1.938 1.993 1.928 1.885 1.923 1.898 1.94 1.918 1.855 1.918 1.893 1.89 1.875 1.935 1.885 1.875 1.853 1.96 2.02 1.923 1.798 1.775 1.76 1.83 1.87 2.03 1.978 1.958 1.88 1.935 1.928 2.045 2.053 1.968 1.97 2.01 2.02 2.01 1.925 1.953 2.035 2.063 1.91 1.908 1.988 1.99 1.935 1.868 1.858 1.943 2.021 1.881 1.913 1.946 1.903 1.913 1.986 2.003 2.018 2.031 1.963 1.976 2.073 1.916 1.971 1.861 1.891 1.973 1.896 1.803 1.806 1.856 1.861 1.946 1.993 1.978 2.003 1.863 1.858 2.011 2.013 1.923 1.898 1.953 2.006 2.003 1.953 1.861 1.946 1.991 1.951 1.926 1.846 1.843 1.771 1.858 1.928 1.946 1.948 2.038
1.87 1.865 1.865 1.865 1.82 1.775 1.765 1.875 1.875 1.965 1.99 1.985 1.815 1.745 1.818 1.938 1.925 1.955 1.898 1.93 1.95 1.85 1.863 1.873 1.945 2.018 1.975 1.89 1.933 1.923 1.93 1.87 1.868 1.863 1.85 1.893 1.853 1.825 1.81 1.888 1.92 1.883 1.815 1.81 1.753 1.805 1.928 1.988 2.025 2.035 1.97 1.868 1.795 1.898 1.955 1.985 1.938 1.905 1.895 1.923 1.92 1.903 1.95 1.975 1.935 1.885 1.89 1.933 1.968 1.995 1.953 1.883 1.8 1.79 1.843 1.838 1.875 1.87 1.875 1.86 1.868 1.893 1.863 1.86 1.91 1.905 1.888 1.86 1.875 1.918 1.973 2.05 2.08 1.998 1.905 1.885 1.863 1.825 1.768 1.86 1.885 1.993 2.073 1.998 1.928 1.895 1.778 1.8 1.945 1.953 1.948 1.94 1.898 1.865 1.945 1.995 1.93 1.893 1.915 1.978 1.988 1.983 1.973 1.928 1.87 1.86 1.905 1.878 1.92 1.853 1.828 1.898 1.868 1.858 1.878 1.928 1.915 1.915 1.913 1.958 1.918 1.938 1.9 1.893 1.908 1.903 1.813 1.845 1.803 1.838 1.86 1.953 1.943 1.86 1.845 1.905 1.958 1.875 1.873 1.833 1.758 1.783 1.805 1.885 1.878 1.89 1.888 1.91 1.928 1.845 1.91 1.84 1.835 1.835 1.953 1.935 2.013 2.088 2.038 2.008 2.033 1.988 1.935 2.013 1.945 1.953 1.948 1.965 1.883 1.793 1.793 1.758 1.815 1.87 1.943 1.993 1.97 1.985 1.978 1.963 1.925 1.843 1.87 1.853 1.808 1.903 1.913 1.958 1.983 1.925 1.923 1.898 1.825 1.845 1.86 1.863 1.805 1.813 1.903 1.9 1.938 1.963 1.923 2.003 1.93 1.923 1.915 1.913 1.895 1.855 1.763 1.728 1.78 1.91 1.868 1.94 2.028 2.048 1.955 1.855 1.825 1.785 1.865 1.805 1.85 1.863 1.873 1.865 1.825 1.863 1.93 1.82 1.935 1.845 1.83 1.845 1.805 1.873 1.928 1.933 1.938 1.895 1.89 1.908 1.895 1.825 1.85 1.81 1.828 1.865 1.985 2.038 2.058 2.1 2.023 1.988 2.01 2.005 1.95 1.915 1.988 1.968 1.983 1.99 1.965 1.95 1.883 1.973 2.005 2.01 1.918 1.845 1.838 1.905 1.95 2.04 1.995 2.005 1.963 1.868 1.903 1.818 1.788 1.95 1.858 1.825 1.868 1.898 1.898 1.925 1.98 1.878 1.873 1.9 1.838 1.823 1.908 1.968 1.903 1.918 1.863 1.928 1.94 1.875 1.85 1.855 1.853 1.878 1.9 1.973 1.895 1.88 1.895 1.87 1.908 1.955 1.965 2.043 1.973 1.93 1.975 1.9 1.888 1.925 1.908 2.028 2.095 2.02 1.85 1.83 1.87 1.895 1.878 1.893 1.888 1.925 1.825 1.845 1.873 1.853 1.848 1.808 1.89 1.878 1.82 1.835 1.863 1.85 1.875 2.035 1.988 1.968 1.955 2.065 2.163 2.06 1.893 1.89 1.925 1.78 1.83 1.81 1.958 1.888 2.013 1.975 1.903 1.82 1.963 2.068 1.94 1.85 1.82 1.945 2.143 2.043 2 1.893 1.9 1.933 1.928 2.008 1.903 1.925 1.945 1.908 1.91 1.843 1.863 1.898 1.935 1.973 1.988 1.993 1.898 1.838 1.995 1.965 1.938 1.85 1.758 1.853 1.875 1.868 1.865 1.98 1.948 1.948 1.973 2.038 2.015 1.928 2.063 2.02 2.02 1.915 1.89 1.968 2.005 2.093 2.033 1.913 1.898 2.005 1.933 1.988 1.915 1.82 1.943 1.79 1.838 1.843 1.918 1.893 1.948 2.013 1.988 1.986 1.988 2.061 1.991 1.983 1.923 1.736 1.876 1.786 1.908 2.008 1.876 1.841 1.938 1.858 1.896 2.003 1.966 1.991 1.906 1.991 1.936 1.953 1.963 1.933 1.861 1.858 1.948 1.978 2.008 1.946 1.943 1.948 1.876 1.853 1.886 1.836 1.841 1.876 2.016 1.986 2.051 2.076
1.823 1.815 1.895 1.903 1.863 1.873 1.865 1.91 1.963 2.003 1.988 1.933 1.78 1.845 1.935 2.013 1.968 1.985 1.97 1.893 1.888 1.848 1.9 1.878 1.948 1.975 1.895 1.885 1.9 1.91 1.92 1.893 1.875 1.903 1.903 1.875 1.818 1.828 1.86 1.893 1.918 1.873 1.82 1.76 1.78 1.948 1.975 2.048 2.04 1.978 1.925 1.88 1.9 1.975 2 1.995 1.93 1.955 1.883 1.88 1.913 1.91 1.98 1.99 1.978 1.888 1.9 1.918 2.03 1.985 1.868 1.795 1.79 1.815 1.828 1.925 1.92 1.905 1.88 1.888 1.918 1.905 1.848 1.86 1.89 1.868 1.9 1.88 1.88 1.968 2.018 2.03 2.01 1.89 1.853 1.885 1.93 1.918 1.908 1.923 2 2.03 2.093 2.008 1.838 1.79 1.82 1.83 1.988 2.018 1.94 1.92 1.878 1.868 1.9 1.978 1.868 1.86 1.938 1.983 1.973 2.013 1.978 1.875 1.9 1.913 1.895 1.848 1.8 1.888 1.965 1.925 1.843 1.855 1.865 1.865 1.883 1.945 1.915 1.9 1.868 1.868 1.858 1.9 1.885 1.848 1.815 1.823 1.773 1.873 1.925 2.003 1.94 1.858 1.823 1.908 1.905 1.868 1.898 1.888 1.853 1.785 1.873 1.895 1.89 1.88 1.893 1.858 1.89 1.918 1.838 1.83 1.835 1.953 1.98 1.983 2.013 1.995 1.983 1.998 2.008 1.95 1.895 1.933 1.94 1.905 1.895 1.89 1.863 1.805 1.813 1.903 2.018 1.97 2.03 2.09 2.073 1.985 1.975 1.913 1.858 1.758 1.87 1.835 1.813 1.87 1.928 1.945 1.933 1.915 1.928 1.935 1.853 1.843 1.858 1.855 1.875 1.92 1.948 1.978 1.943 2.058 1.988 1.983 1.925 1.943 1.86 1.915 1.885 1.835 1.798 1.845 1.885 1.938 2.035 2.12 2.123 2.073 1.905 1.79 1.738 1.745 1.805 1.83 1.893 1.89 1.863 1.818 1.758 1.833 1.925 1.908 1.943 1.918 1.905 1.895 1.88 1.85 1.898 1.903 1.895 1.84 1.87 1.81 1.833 1.885 1.833 1.82 1.875 1.948 1.993 2.035 1.995 1.99 1.875 1.965 1.945 1.928 1.938 1.928 1.938 2 2.068 2.01 1.96 2 2.04 2.063 2.058 1.98 1.938 1.853 1.935 1.973 1.995 2 1.968 1.83 1.745 1.865 1.725 1.725 1.818 1.908 1.81 1.795 1.885 1.875 1.825 1.875 1.883 1.89 1.878 1.91 1.898 1.9 1.905 1.91 1.888 1.89 1.93 1.95 1.853 1.818 1.808 1.825 1.945 1.94 1.933 1.97 1.878 1.85 1.948 1.975 1.995 2 2.025 1.978 1.995 1.995 1.98 1.873 1.91 1.868 2.01 2.023 1.97 1.915 1.788 1.753 1.793 1.838 1.858 1.935 1.865 1.9 1.918 1.868 1.89 1.885 1.83 1.885 1.965 1.943 1.905 1.915 1.943 1.958 1.973 2.013 1.943 1.895 1.923 1.96 1.978 1.79 1.843 1.9 1.75 1.82 1.84 1.893 1.933 2 2.08 2.063 1.91 1.938 1.943 1.975 1.888 1.855 1.955 1.99 1.963 1.978 1.96 1.91 1.893 1.933 1.923 1.993 1.898 1.825 1.93 1.925 1.948 1.94 1.96 1.903 2.05 2 1.99 1.993 1.923 1.845 1.923 2.01 1.885 1.77 1.753 1.835 1.82 1.818 1.948 2.013 1.953 1.89 1.888 1.905 1.975 2.003 2.02 1.945 1.953 1.965 1.918 2.03 2.02 2.045 2.005 1.908 1.973 1.943 1.988 2.01 1.96 1.843 1.858 1.843 1.848 1.913 2.046 1.931 1.956 1.986 2.038 2.006 1.961 1.968 1.953 1.731 1.798 1.831 1.811 1.813 1.956 1.961 1.906 1.898 1.941 1.938 1.921 1.971 1.963 2.008 1.891 1.841 1.891 1.948 1.953 1.933 1.883 1.931 1.926 2.053 1.978 1.963 1.953 1.886 1.946 1.898 1.911 1.951 1.956 2.013 2.023 1.938 1.978 1.911
