ncols 460
nrows 31
xllcorner    464038
yllcorner    88142
cellsize     2
NODATA_value -9999
0.752 0.597 0.755 0.725 0.75 1.102 0.8 3.917 3.997 0.995 0.85 0.757 0.77 0.95 1.175 2.935 5.412 0.71 0.782 0.867 4.422 7.407 6.062 3.6 8.407 6.082 2.785 8.182 10.165 3.745 1.01 1.037 1.457 1.272 1.185 1.132 1.222 1.32 1.512 1.595 1.88 2.222 2.692 4.225 4.412 2.855 2.867 4.69 6.122 4.235 4.57 5.19 5.675 5.932 6.88 6.732 7.52 7.647 7.405 8.04 8.927 7.76 7.95 7.967 8.237 8.615 8.98 9.29 11.45 12.067 11.575 10.697 10.105 10.355 10.185 10.587 10.995 11.237 11.307 11.4 12.447 12.83 12.875 12.067 12.065 13.487 13.572 14.942 16.777 23.257 16.122 14.595 14.795 14.932 15.302 16.065 15.452 15.675 15.962 16.227 16.487 16.737 16.992 17.367 17.765 17.917 18.212 18.505 18.837 19.152 19.455 19.735 20.02 20.312 20.782 21.6 21.952 22.052 22.147 22.215 22.265 22.305 22.35 22.427 22.532 22.802 23.09 23.875 28.265 27.965 25.195 23.873 23.933 24.048 24.145 26.678 27.998 24.93 26.213 27.395 25.8 24.773 24.66 26.023 25.313 27.33 25.153 25.178 25.208 25.253 25.258 25.393 25.468 25.563 25.645 25.433 25.82 25.415 25.728 25.595 25.565 25.793 28.883 29.415 28.75 28.443 28.478 28.473 27.57 26.448 26.358 26.193 26.368 26.54 26.155 25.778 26.635 27.6 28.915 27.228 25.55 25.54 25.438 26.855 25.643 25.933 26.038 25.498 25.463 25.903 29.175 31.233 31.43 30.98 30.33 28.888 27.143 26.69 25.988 26.01 25.308 25.273 25.275 25.288 25.288 25.283 25.29 25.24 25.198 25.175 25.31 27.94 34.228 32.08 29.703 29.72 29.015 28.195 26.48 26.825 24.853 24.698 24.595 24.488 24.34 24.39 24.368 24.383 24.328 24.29 25.17 24.858 24.33 29.283 30.503 29.715 30.363 30.518 29.773 27.848 29.91 29.18 29.91 26.96 24.143 24.148 23.89 23.675 23.66 24.208 24.39 23.955 24.575 23.758 23.185 23.115 23.053 23.525 23.76 23.148 23.173 24.923 25.64 25.713 24.703 24.28 23.7 22.185 22.148 22.125 22.13 22.493 23.858 23.148 22.303 22.028 24.013 25.505 26.495 26.968 26.238 25.255 22.883 21.943 22.21 21.58 21.94 22.693 25.68 24.89 23.453 22.73 21.975 21.435 22.505 22.528 23.465 23.92 24.38 22.955 21.468 21.365 21.378 21.358 21.35 21.235 21.095 20.905 20.92 20.913 20.89 20.873 20.84 20.845 20.805 21.01 21.515 23.675 21.993 21.675 22.33 24.953 26.775 27.013 24.398 20.81 20.618 20.52 21.583 22.03 22.398 21.781 21.408 21.401 20.576 20.288 20.206 20.278 20.891 20.086 20.111 20.483 19.786 19.766 21.603 23.548 25.471 25.433 25.676 21.438 31.111 32.531 32.666 27.013 23.243 21.046 19.353 19.333 19.288 19.293 19.903 19.158 19.126 19.108 19.193 20.498 20.866 22.526 23.563 23.496 22.513 19.768 18.878 18.851 18.811 19.098 18.946 18.706 18.683 21.721 24.066 19.783 18.716 18.726 18.678 18.608 18.696 18.616 19.816 20.953 22.273 23.393 23.488 22.516 21.711 19.821 18.623 18.613 19.728 21.168 21.351 19.266 18.776 18.886 20.208 21.401 18.548 18.516 18.456 18.471 18.453 18.423 18.393 18.543 18.516 18.501 18.511 18.538 18.541 18.533 18.531 18.501 18.481 18.468 19.401 19.376 18.818 18.746 18.403 18.383 18.318 18.306 18.271 18.266 18.748 19.366 19.598 18.798 18.141 18.076 18.348 18.563 18.783 18.373 18.486 21.691 20.648 19.836 21.101 21.446 19.488 18.598 21.401 20.293 20.751 20.156 20.461 18.131 17.726 17.728
0.752 1.062 0.775 0.57 0.98 0.767 1.955 6.417 1.147 1 1.047 0.717 0.775 0.755 1.25 1.645 1.042 0.91 1.345 1.07 4.002 3.85 7.622 7.475 11.94 6.872 2.467 6.205 10.062 3.512 1.365 1.355 1.402 1.502 1.155 1.337 1.292 1.347 1.525 3.005 5.2 2.18 2.007 4.577 2.92 2.72 3.035 5.052 6.507 5.142 5.887 7.74 5.892 6.08 6.432 6.667 6.985 7.362 7.572 7.51 7.642 7.775 8.017 8.307 8.38 8.672 8.777 8.897 9.34 9.802 11.21 11.037 10.132 10.29 10.292 11.232 11.805 11.665 13.342 13.652 11.642 16.52 17.997 12.537 12.227 12.497 12.982 13.587 19.825 20.857 18.835 14.642 18.677 14.86 15.247 15.637 15.467 16.077 16.07 16.247 16.465 16.677 16.985 17.372 17.58 17.905 18.172 18.485 18.797 19.132 19.43 19.727 20.032 20.342 20.932 21.737 21.987 22.095 22.13 22.225 22.27 22.297 22.372 22.452 22.567 22.835 23.09 23.567 26.595 27.575 24.217 23.875 23.915 24.033 25.015 28.533 28.618 25.005 24.233 24.318 24.418 24.508 24.568 24.61 25.14 25.388 25.205 25.203 25.203 25.225 25.225 25.27 25.308 25.328 25.345 27.94 27.605 26.148 25.513 26.333 28.973 27.685 27.553 27.653 28.158 29.003 29.203 28.843 27.36 27.16 27.668 28.83 28.828 28.948 28.283 28.455 27.715 28.38 29.02 26.17 25.49 25.44 25.633 25.788 25.495 27.508 27.938 26.685 25.76 26.713 31.075 31.373 31.065 31.313 30.495 28.438 27.853 28.265 28.088 30.125 25.915 25.298 25.275 25.3 25.3 25.303 25.303 25.265 25.22 25.233 25.253 28.813 27.923 28.2 28.648 29.4 29.805 26.915 26.345 25.233 24.845 24.74 24.66 24.575 24.47 24.358 24.308 24.325 24.295 24.303 24.53 25.285 25.168 25.118 28.5 30.398 30.393 29.725 30.545 30.448 29.72 30.565 30.43 26.848 24.22 24.113 23.973 23.728 23.745 23.85 23.973 24.5 23.305 23.26 23.22 23.133 23.28 24.318 23.673 22.88 23.008 24.365 24.08 24.055 23.423 24.618 24.208 22.598 22.248 22.143 23.053 24.028 22.895 22.67 22.255 22.01 23.068 24.708 25.64 26.58 26.873 26.118 24.963 22.613 22.36 21.538 22.118 23.425 22.698 23.273 21.603 21.465 21.388 21.405 23.408 24.5 24.603 24.638 23.978 21.345 21.348 21.365 21.388 21.385 21.38 21.373 21.208 21.088 20.918 21.045 20.91 20.86 20.848 20.83 20.935 22.57 23.06 22.845 21.493 23.803 26.648 27.603 27.958 27.533 26.015 21.323 20.403 20.818 20.533 20.548 21.628 23.336 22.898 21.811 20.373 20.256 20.683 20.528 20.358 20.993 20.031 19.901 19.843 20.438 25.036 27.888 26.468 21.358 20.166 20.073 26.951 34.821 34.926 28.096 22.941 21.466 19.686 19.388 19.318 19.553 20.296 19.161 19.148 19.143 20.156 21.751 22.598 23.563 23.453 22.431 20.451 18.876 18.851 18.836 18.818 18.791 18.806 19.141 18.721 19.496 20.866 19.278 20.411 18.753 18.743 18.638 18.618 19.181 19.011 18.758 20.713 22.616 23.398 22.673 21.793 19.176 18.593 18.533 19.756 21.126 21.063 21.543 20.341 20.031 21.921 19.238 19.301 21.021 19.898 18.578 18.456 18.473 18.541 18.521 18.633 18.483 18.531 18.548 18.528 18.508 18.768 18.518 18.483 18.411 19.003 19.563 19.623 18.983 18.741 18.378 18.363 18.316 18.286 18.281 18.368 19.906 19.198 18.258 18.086 18.201 18.208 18.066 18.231 18.238 18.341 20.023 21.391 21.291 21.678 21.038 18.158 18.083 18.256 18.546 17.931 18.043 18.498 18.811 19.013 17.716
3.945 2.625 2.1 0.62 0.825 0.687 0.715 1.007 1.822 1.007 0.777 1.067 1.372 0.662 0.662 0.827 0.837 0.792 0.765 0.772 0.772 1.47 6.465 9.1 5.567 5.782 0.997 9.035 9.005 1.717 1.317 1.495 1.597 1.35 1.18 1.362 1.397 1.395 1.615 3.35 6.115 2.87 2.67 3.727 2.462 2.777 3.225 3.74 6.367 9.717 8.652 9.532 6.657 7.565 6.495 6.825 7.07 7.525 7.392 7.535 7.737 7.98 8.065 9.245 8.695 8.972 8.81 8.882 9.107 9.435 10.042 10.565 10.245 10.93 10.83 11.72 12.572 11.665 12.515 12.512 11.642 12.772 20.967 16.825 12.465 12.617 12.96 13.71 13.847 17.882 21.28 20.437 17.63 15.017 17.562 15.23 15.585 16.13 16.142 16.3 16.53 16.827 17.047 17.297 17.562 17.85 18.142 18.465 18.787 19.1 19.422 19.722 20.027 20.395 21.127 21.817 22.03 22.11 22.165 22.237 22.29 22.335 22.412 22.46 22.59 22.872 23.105 24.415 30.015 28.36 25.16 23.872 23.92 24.022 23.982 28.2 27.16 24.4 24.242 24.3 24.397 24.535 24.575 24.612 24.837 25.38 25.195 25.205 25.195 25.212 25.245 25.275 25.312 25.325 25.962 30.755 32.302 30.487 27.48 26.757 29.412 28.5 27.057 27.697 27.38 27.582 28.48 26.975 26.11 27.505 27.542 26.912 27.322 28.69 28.445 28.34 27.95 27.135 26.925 25.495 25.47 25.415 25.347 25.467 26.767 27.992 28.815 30.572 27.95 27.932 30.462 31.425 31.092 30.825 28.73 28.31 29.197 28.822 27.547 30.942 27.417 25.272 25.305 25.302 25.292 25.317 25.327 25.307 25.252 25.487 26.062 29.482 29.455 28.495 26.802 28.29 27.787 25.515 25.042 24.922 26.38 26.765 24.777 24.7 24.497 24.385 24.287 24.3 24.295 24.327 24.927 24.23 24.908 24.673 25.678 29.833 29.788 30.705 30.37 29.808 30.67 30.393 26.798 24.183 23.998 23.905 23.968 23.77 23.68 24.053 24.52 23.565 23.273 23.235 23.19 23.905 24.133 22.93 22.918 22.988 23.85 23.66 23.103 22.833 22.878 23.84 24.075 23.28 23.218 23.533 23.878 23.213 22.868 22.303 22.223 22.093 22.355 23.935 23.658 25.763 26.688 26.498 23.598 24.108 21.728 21.993 23.475 23.753 23.085 22.14 21.558 21.405 21.498 21.344 22.496 25.821 25.655 25.6 25.354 22.299 21.717 21.543 21.426 21.418 21.398 21.408 21.25 21.323 21.308 21.6 20.903 20.928 20.863 21.31 21.29 21.8 23.715 21.688 23.02 24.143 26.418 27.483 27.033 25.853 23.908 20.93 20.395 20.415 20.42 20.955 20.685 21.558 22.348 20.903 20.35 20.345 20.363 20.363 20.218 20.345 19.968 19.92 20.26 22.988 28.52 28.995 26.728 20.76 19.743 19.64 25.08 34.348 32.773 24.103 23.94 21.8 21.048 19.35 19.318 19.288 19.258 19.21 19.148 19.115 20.93 22.5 23.44 23.46 22.533 19.96 18.933 18.868 18.82 18.818 18.81 18.76 18.718 18.693 19.498 18.913 18.82 19.15 19.22 18.768 18.738 18.805 18.628 18.598 18.638 18.653 19.12 21.338 22.325 20.908 19.318 19.013 18.648 18.718 21.863 21.97 21.183 18.72 21.625 22.018 20.593 18.62 20.615 21.945 22.345 21.78 20.353 18.61 18.653 18.458 18.638 21.653 20.155 18.51 18.518 19.83 20.845 18.813 18.445 18.363 18.533 18.398 18.373 18.575 18.46 18.503 18.385 18.335 18.303 18.69 21.655 26.383 21.205 18.22 18.05 18.223 18.39 18.315 18.18 18.29 18.295 18.32 20.048 21.895 21.305 19.22 18.123 18.088 19.098 17.95 17.853 17.8 17.753 18.313 20.215 19.193
4.165 3.11 2.572 1.387 5.412 2.617 1.887 1.745 1.137 0.892 0.975 0.937 1.722 0.765 0.707 0.872 0.835 0.807 0.897 0.82 0.842 0.667 2.382 2.535 4.37 5.322 1.062 1.405 1.202 1.217 1.56 1.572 1.547 1.295 1.337 1.452 1.447 1.472 1.617 2.822 5.365 2.082 2.77 3.222 3.387 5.765 4.692 4.04 5.982 10.687 10.405 6.22 6.072 8.415 6.867 7.315 7.002 7.222 7.552 7.702 7.842 9.205 9.717 9.525 8.48 8.872 8.932 9.367 9.257 9.52 9.86 10.232 10.097 10.385 10.502 10.877 11.067 11.29 11.572 12.582 11.927 14.077 18.355 14.215 12.55 12.525 13.01 13.59 13.942 14.407 16.69 18.66 16.122 14.95 19.677 15.547 15.79 15.897 16.097 16.347 16.61 16.852 17.082 17.31 17.5 17.797 18.087 18.427 18.772 19.08 19.387 19.707 20.02 20.48 21.315 21.862 22.022 22.105 22.167 22.235 22.302 22.372 22.445 22.502 22.627 22.882 23.175 25.92 28.38 25.275 24.212 23.84 23.872 23.96 24.905 29.782 28.535 26.232 24.232 24.305 24.402 24.535 24.595 24.622 25.317 25.442 25.195 25.192 25.195 25.192 25.25 25.275 25.27 25.335 28.087 31.505 32.445 30.73 28.76 30.127 31.3 30.555 26.81 26.04 26.025 26.022 26.445 26.3 26.165 28.04 28.537 28.482 28.645 28.737 28.807 28.597 26.907 25.647 25.507 25.527 25.5 25.452 25.615 25.662 27.007 28.1 30.615 31.62 31.367 29.965 28.08 29.782 31.07 28.935 26.832 27.745 28.585 29.195 29.667 29.722 28.785 27.062 25.847 25.355 25.332 25.322 25.35 25.327 25.295 25.615 27.72 27.355 31.097 29.04 27.182 26.475 25.195 25.125 25.16 27.845 31.17 31.42 26.42 24.79 24.652 24.447 24.277 24.22 24.242 24.25 24.22 24.11 24.18 24.405 24.403 25.888 30.043 30.348 29.898 30.753 30.225 27.018 24.37 23.923 23.86 23.838 25.068 24.085 23.898 24.265 24.48 23.838 23.268 23.218 25.14 25.02 23.49 22.98 22.968 23.948 23.883 23.125 22.955 22.93 24.023 25.953 25.815 26.065 24.1 23.8 22.745 22.29 22.603 22.603 22.548 22.148 22.033 21.928 21.903 24.778 24.935 24.073 26.648 24.678 21.575 21.693 22.638 22.398 23.583 22.533 21.455 21.371 21.51 21.429 23.557 26.442 24.174 26.134 28 27.755 23.735 21.896 21.42 21.394 21.388 21.348 21.245 21.18 21.165 21.973 21.843 21.923 21.17 22.628 22.143 22.598 23.275 21.268 21.875 23.448 24.048 25.978 23.395 20.66 22.465 21.56 20.725 20.37 20.34 20.695 22.545 22.813 21.453 21.39 21.368 21.24 21.603 23.345 21.045 20.12 20.295 20.285 23.14 27.445 26.175 26.715 23.623 21.308 20.1 19.683 22.605 28.973 29.408 21.07 24.095 22.683 21.615 20.983 20.265 19.313 19.27 19.248 19.213 19.133 20.678 21.955 22.823 22.503 19.83 18.968 18.913 18.878 18.845 18.788 18.773 18.743 18.73 18.693 19.035 19.133 18.69 19.295 19.073 19.46 19.67 19.548 18.985 18.59 19.693 19.08 18.663 19.35 20.413 18.668 18.61 18.528 18.548 19.493 21.23 21.92 20.613 18.483 19.333 20.655 18.685 18.588 21.5 22.098 22.303 21.845 20.145 18.765 18.488 18.475 19.345 24.863 24.15 22.823 20.96 19.663 20.26 18.478 18.418 18.36 18.395 18.45 18.443 18.423 18.453 18.498 18.413 18.378 18.478 21 23.77 25.413 20.065 20.108 18.833 18.703 18.475 18.45 18.283 18.26 18.355 18.868 19.558 20.923 20.308 19.435 18.263 18.563 18.098 17.97 17.825 17.775 17.735 17.758 18.668 20.293
1.65 0.787 2.167 6.92 11.952 5.355 1.772 0.575 0.785 0.705 0.665 2.042 6.577 4.645 1.545 1.725 1.22 2.51 2.28 0.965 0.815 0.757 0.675 1.347 1.367 4.625 1.26 1.577 1.05 1.29 1.51 1.41 1.327 1.282 1.307 1.51 1.545 1.575 2.057 3.445 2.767 3.185 2.755 2.47 2.805 4.85 4.96 4.41 6.815 9.595 8.032 6.36 6.115 6.615 6.915 7.222 7.082 7.375 7.642 7.687 7.88 8.475 9.45 8.52 8.455 8.695 9.437 9.295 9.362 9.767 10.09 10.245 10.285 10.37 10.447 10.86 11.597 11.405 11.482 11.627 11.832 11.832 12.325 14.482 12.165 12.502 13.352 13.632 13.805 14.725 14.39 14.507 14.845 15.382 19.83 16.997 19.01 16.665 16.745 16.78 16.712 16.965 17.092 17.3 17.52 17.805 18.082 18.417 18.7 19.047 19.385 19.695 20.007 20.635 21.487 21.882 22.015 22.12 22.182 22.255 22.342 22.412 22.455 22.525 22.667 22.897 24.102 27.095 27.802 24.795 23.9 23.805 23.842 23.962 26.61 32.127 32.997 28.872 24.29 24.362 24.44 24.522 24.575 24.64 25.932 25.252 25.18 25.19 25.162 25.202 25.212 25.227 25.285 25.295 30.427 32.487 31.855 29.625 25.755 31.367 31.692 26.387 25.895 25.907 26.855 26.472 26.17 25.992 26.197 26.297 26.907 28.472 28.685 28.76 28.917 28.825 26.015 25.57 25.52 25.517 25.472 25.625 28.17 29.682 27.06 27.77 30.767 31.765 32.072 31.57 30.697 28.855 28.105 25.972 27.1 25.917 26.36 28.6 29.115 29.545 29.862 28.925 26.707 25.402 25.317 25.347 25.367 25.367 25.322 25.34 30.092 30.415 30.377 26.552 26.527 26.065 25.13 25.1 28.982 31.557 31.852 30.945 30.95 26.625 24.712 24.705 24.432 24.255 24.21 24.24 24.215 24.25 25.178 24.208 24.55 24.383 25.643 29.8 30.725 29.763 26.128 25.293 24.428 25.038 24.563 26.275 26.415 25.71 23.998 25.35 24.268 23.698 23.273 23.568 23.298 23.608 23.088 23.075 23.895 23.913 23.398 22.795 23.635 23.195 23.905 26.013 25.03 24.49 24.45 25.523 24.888 22.668 22.768 23.37 22.86 22.168 22.09 22.005 21.878 22.223 22.525 25.803 26.67 23.345 21.65 21.688 21.668 21.663 21.865 21.643 21.43 21.344 21.402 23.207 25.198 24.958 23.281 24.288 26.83 27.613 22.056 21.392 21.37 21.346 21.379 21.302 21.223 21.62 23.008 21.813 21.865 21.408 21.448 22.363 22.188 21.223 21.118 22.42 21.468 20.975 20.773 21.95 21.66 21.328 21.838 20.91 20.715 20.395 20.345 20.443 21.515 22.818 22.47 21.968 22.813 23.768 22.885 22.648 20.163 20.348 26.35 25.985 25.438 25.238 26.248 25.17 20.238 22.868 20.238 19.713 20.078 22.835 22.105 20.935 19.63 20.318 21.163 22.123 22.395 20.208 19.275 19.258 19.24 19.61 21.29 21.625 21.833 20.76 19.39 19.07 18.945 18.918 18.86 18.808 18.778 18.768 18.748 18.685 18.753 18.94 18.673 18.665 20.085 20.828 19.953 19.448 19.035 18.623 18.583 18.61 18.633 18.635 18.628 18.633 18.6 18.53 18.405 18.39 19.048 20.143 18.815 19.478 19.01 18.56 21.383 22.318 23.008 22.645 22.193 21.655 19.323 19.228 18.553 18.553 22.725 25.208 25.235 24.785 24.335 22.668 19.133 18.438 18.378 18.365 18.418 18.46 18.465 18.438 18.43 18.513 18.463 18.463 18.375 19.77 23.823 23.813 23.205 24.313 18.64 18.42 18.293 18.32 18.43 18.303 19.153 18.773 18.655 21.24 20.983 18.81 18.613 18.46 18.153 18.128 17.983 17.785 18.078 17.995 18.253 18.398
0.912 1.515 3.682 4.73 8.01 8.497 4.28 0.685 0.637 0.635 0.74 3.255 6.442 2.437 2.502 0.792 2.19 3.482 3.055 0.915 0.972 1.522 0.867 1.347 0.937 1.645 1.895 2.287 1.252 1.96 1.68 1.382 1.297 1.365 1.415 1.42 1.57 1.69 3.197 2.515 2.352 2.417 2.897 2.632 2.852 3.24 4.287 4.78 4.887 6.702 7.495 7.785 6.372 6.472 6.607 6.95 7.067 7.35 7.622 7.782 8.022 8.425 8.682 8.5 8.585 8.792 8.945 9.365 10.28 10.192 10.352 10.23 10.567 10.425 10.647 10.997 11.247 11.452 11.557 11.71 11.825 11.837 11.912 12.047 12.305 12.65 13.192 13.632 13.68 14.122 14.45 15.645 19.587 20.92 16.69 22.292 23.772 23.802 21.187 21.387 17.895 17.547 17.147 17.282 17.59 17.812 18.107 18.357 18.677 18.987 19.355 19.71 20.08 20.797 21.58 21.905 22.012 22.117 22.205 22.265 22.355 22.45 22.522 22.56 22.692 22.852 24.6 27.107 27.872 26.135 24.715 23.817 23.92 24.012 24.932 29.225 28.99 24.55 24.342 24.407 24.477 24.552 24.64 24.747 25.842 25.372 25.167 25.232 25.65 25.442 25.202 25.217 25.23 27.052 31.897 33.43 31.527 28.355 26.635 28.775 27.72 26.937 25.92 26.317 27.655 26.92 26.225 25.93 26.055 26.82 27.382 27.092 28.035 28.472 29.027 26.622 25.64 25.53 25.56 25.51 25.477 25.467 28.207 30.525 30.417 27.322 26.902 29.685 31.48 31.33 29.727 27.4 27.505 26.86 26.71 25.647 26.507 26.23 28.555 29.047 29.312 29.287 26.645 25.567 25.377 25.357 25.67 26.142 26.217 25.87 33.702 30.08 25.992 25.965 25.237 25.145 25.165 28.125 31.587 31.992 31.807 31.695 31.762 27.752 24.78 24.67 25.137 24.365 25.012 24.49 24.165 24.16 24.568 24.448 24.173 24.525 24.228 26.065 28.998 25.098 24.495 25.1 29.83 29.73 29.638 29.36 26.773 25.6 24.215 24.143 23.465 23.628 24.143 24.11 23.148 23.13 23.345 24.263 23.355 22.923 22.965 23.283 23.203 22.66 22.61 23.55 24.808 22.93 24.018 25.71 26.04 23.758 22.71 23.083 22.248 22.173 22.12 22.058 21.935 21.835 21.85 25.21 23.868 21.678 21.953 22.083 21.78 21.684 21.537 21.45 21.589 21.483 22.255 25.261 25.361 23.914 23.575 24.773 24.63 23.793 23.388 22.05 21.276 21.36 21.276 21.238 21.331 22.908 24.225 23.438 21.625 21.243 21.338 22.115 21.918 20.933 20.988 20.993 20.818 20.62 20.65 21.273 21.76 20.958 20.563 20.928 20.653 20.453 20.403 20.37 20.34 21.028 20.463 21.253 22.543 26.953 21.078 21.128 20.253 27.01 28.805 29.343 28.565 23.888 25.875 22.988 21.1 22.133 19.938 20.103 21.5 21.438 23.275 21.383 19.388 21.555 26.833 24.378 26.95 22.923 19.573 19.283 19.265 19.243 19.788 21.143 19.808 19.548 19.548 19.035 18.948 18.93 18.875 18.81 18.778 18.748 18.738 18.668 18.815 18.83 18.68 18.673 18.753 20.84 20.715 19.138 18.865 19.29 18.563 18.548 18.72 18.585 18.573 18.6 18.568 18.5 18.29 18.308 18.368 18.443 18.59 19.408 19.333 18.513 23.863 24.868 24.515 24.158 23.83 22.195 19.548 19.048 20.525 21.918 22.943 24.305 24.873 25.298 25.223 23.125 18.503 18.47 18.355 18.393 18.428 18.458 18.47 18.45 18.443 18.473 18.503 18.533 18.485 18.61 22.258 23.133 21.625 19.983 19.168 18.908 18.563 18.63 18.863 20.103 18.673 18.518 18.645 19.103 21.255 22.298 28.685 22.853 19.04 21.495 19.998 19.273 18.38 18.193 17.998 18.843
0.602 0.827 0.692 0.637 4.747 10.09 6.75 0.752 0.792 0.83 0.822 0.705 0.697 0.715 1.15 1.27 1.735 1.83 0.967 0.772 0.972 1.077 0.882 1.282 1.752 1.707 1.002 1.092 1.195 1.777 1.48 1.242 1.455 1.445 1.495 1.475 1.562 1.75 3.762 2.872 1.92 2.11 3.017 2.94 3.462 3.605 4.23 4.7 4.965 6.402 5.927 6.385 6.335 6.56 6.677 6.95 7.202 7.307 7.557 7.767 8.197 8.27 8.45 8.787 8.865 8.935 9.085 9.27 9.765 10.462 11.42 11.532 11.11 10.515 10.715 11.085 11.282 11.447 11.557 11.692 11.842 11.872 11.977 12.13 12.262 12.395 16.427 14.09 14.032 13.987 14.26 15.665 20.312 20.145 15.86 18.197 24.105 23.902 25.947 26.702 23.555 17.125 17.177 17.39 17.62 17.77 18.062 18.317 18.68 19 19.355 19.705 20.175 20.99 21.627 21.905 22.045 22.132 22.2 22.287 22.367 22.455 22.54 22.615 22.717 25.105 29.117 36.962 30.595 25.452 24.245 29.435 30.012 24.542 24.067 24.11 24.197 24.265 24.375 24.447 24.517 24.592 24.687 24.885 25.91 25.192 25.082 25.217 25.155 25.285 25.207 25.217 25.345 28.607 32.842 33.027 30.66 28.147 25.572 25.917 25.995 26.032 26.005 27.345 28.015 27.3 26.012 25.912 25.967 28.052 31.555 31.677 28.092 26.992 27.925 25.807 25.577 25.562 25.575 25.53 25.527 25.935 26.775 29.432 29.785 27.807 26.58 26.762 27.422 30.28 28.155 28.102 27.557 25.802 26.542 28.327 29.862 26.145 26.207 27.975 28.915 28.107 27.162 27.32 28.322 26.692 25.34 27.82 30.585 30.237 32.805 27.782 25.71 25.405 25.242 25.232 29.54 31.735 31.63 30.952 31.887 31.73 28.835 25.187 24.642 25.66 24.75 24.577 24.307 24.572 24.117 24.128 24.113 24.043 24.888 24.535 24.543 24.148 24.463 24.31 25.828 30.015 31.763 32.328 30.878 29.79 29.318 25.74 23.863 23.628 23.553 24.678 23.735 23.673 23.463 23.705 24.703 23.67 22.983 23.158 23.853 23.04 22.698 22.658 22.868 22.673 22.938 22.76 22.813 24.375 25.803 23.218 22.738 22.408 22.19 22.183 22.145 22.078 22.038 21.993 22.63 24.363 21.81 21.71 21.78 22.425 21.911 21.637 21.5 21.925 22.497 22.75 24.677 25.401 25.299 23.885 22.011 23.495 22.974 21.366 22.312 23.366 21.84 21.258 21.204 21.174 21.148 21.691 23.199 22.878 21.003 20.988 21.558 22.46 21.675 21.008 21.08 20.853 20.888 21.783 21.183 21.188 21.91 21.055 20.758 20.84 20.49 20.455 20.435 20.41 20.453 21.845 21.293 20.525 20.5 22.655 20.203 20.11 24.178 30.1 30.67 30.218 29.995 28.855 26.088 24.658 20.168 20.18 19.843 20.498 21.283 21.253 22.113 20.32 19.385 28.398 29.548 28.958 28.408 22.948 20.428 19.305 19.273 19.273 19.238 19.19 19.095 19.525 20.025 18.998 18.948 18.885 18.85 18.82 18.97 18.795 18.685 18.668 19.015 18.76 18.658 18.645 18.643 19.035 19.703 19.055 19.218 19.403 18.57 18.498 18.548 18.708 19.095 18.455 18.448 18.345 18.183 18.238 18.29 18.443 19.265 19.953 18.955 19.498 24.848 25.178 25.32 25.155 24.828 21.013 20.29 19.318 22.028 22.803 22.265 22.438 23.498 24.425 24.878 21.72 18.423 18.32 18.588 18.358 18.385 18.44 18.505 18.493 18.508 18.495 18.51 18.873 19.148 18.403 18.645 27.415 31.095 31.628 23.128 19.17 18.635 19.085 19.643 18.405 18.343 18.598 18.448 18.61 20.163 28.945 31.16 28.755 21.408 22.23 20.848 18.505 17.813 19.37 18.708 18.298
0.675 1.95 2.902 1.63 7.002 8.382 3.667 2.882 3.807 0.7 0.595 0.757 0.777 0.825 0.695 0.747 0.74 0.897 1.527 0.81 1.08 0.775 0.945 1.38 2.192 2.882 1.807 1.015 1.687 1.21 1.36 1.37 1.522 1.485 1.527 1.5 1.675 1.985 2.977 2.567 2.982 2.57 3 3.012 5.387 4.207 4.465 4.73 5.102 5.62 6.102 7.047 6.42 6.497 6.642 7.1 7.23 7.372 7.51 7.635 7.907 8.315 8.852 9.54 11.505 9.417 10.18 9.66 9.955 10.14 11.187 10.762 10.565 10.705 10.9 11.787 11.295 11.442 11.555 11.687 11.747 11.885 12.055 12.172 12.357 12.542 16.017 14.89 14.62 13.937 14.29 17.027 16.015 18.592 17.527 17.76 23.942 21.192 25.152 27.077 25.595 19.51 17.185 17.43 17.795 17.81 17.992 18.302 18.682 19.015 19.385 19.72 20.192 21.067 21.68 21.937 22.055 22.145 22.212 22.292 22.357 22.47 22.58 22.62 22.735 22.857 27.132 38.747 35.695 29.707 38.97 41.232 32.94 28.005 24.107 24.147 24.235 24.322 24.415 24.507 24.555 24.622 24.69 25.49 25.847 25.225 25.182 26.255 25.165 25.28 25.717 25.857 25.647 31.332 33.345 32.162 29.202 27.002 25.637 26.122 25.987 25.995 26.43 26.61 27.93 27.342 26.272 25.987 26.085 31.302 32.317 33.02 32.125 28.462 25.912 25.647 25.547 25.582 25.585 26.122 25.815 26.52 25.7 26.03 25.797 26.77 28.092 26.42 26.192 26.475 26.387 28.035 26.555 25.757 25.8 27.992 28.957 25.755 25.66 25.78 27.072 27.142 26.01 28.43 31.06 32.967 26.065 28.545 30.827 32.71 26.862 26.455 25.375 25.282 25.237 26.395 29.137 31.437 30.905 31.75 31.635 28.757 24.902 25.225 27.01 27.895 26.455 24.337 24.347 24.187 24.09 24.09 24.065 24.075 24.795 24.578 24.17 24.138 24.008 24.228 29.368 31.868 32.298 31.233 30.675 31.145 28.215 25.523 24.673 23.713 24.595 23.985 23.493 23.485 24.133 24.953 23.64 23.093 23.31 23.665 22.953 22.77 22.688 22.813 23.243 22.638 22.635 22.688 22.828 24.578 26.925 24.608 24.723 23.31 22.773 22.185 22.15 22.115 22.168 22.02 24.335 23.265 21.72 21.738 21.75 21.808 22.163 21.906 21.942 22.798 23.708 24.881 25.362 25.219 24.963 23.589 21.405 21.316 21.447 22.957 22.595 22.119 23.626 22.313 21.26 21.097 21.185 21.255 21.495 21.215 20.968 22.193 21.45 22.913 22.63 22.705 21.26 20.913 20.878 20.733 20.745 20.563 20.613 20.62 20.528 20.505 20.46 20.438 20.418 20.468 20.46 21.933 21.193 21.765 21.248 20.375 20.12 20.395 25.523 31.58 31.953 31.35 29.475 29.033 24.113 25.808 22.155 20.118 19.855 20.4 20.94 21.658 21.828 21.323 21.7 25.74 24.528 26.778 21.358 21.815 22.02 19.668 19.29 19.325 19.44 19.395 19.623 19.473 19.043 19.005 18.935 18.88 18.883 18.86 18.965 18.785 18.725 18.835 18.833 18.693 18.7 18.655 18.633 18.623 18.668 18.735 19.215 19.245 18.548 18.48 18.415 18.633 19.153 18.138 18.228 18.158 18.053 18.128 18.238 18.423 19.295 20.413 21.728 23.038 23.73 24.215 24.528 24.898 24.7 19.948 19.965 21.23 22.565 22.625 21.45 18.923 18.793 20.025 21.81 18.9 18.373 20.053 21.05 19.078 18.34 18.45 18.505 18.543 18.523 18.518 18.54 18.523 18.573 18.63 20.25 30.775 34.343 34.45 29.023 20.765 19.76 18.338 18.438 18.348 18.335 18.235 18.63 18.503 18.655 21.273 27.488 24.815 20.873 19.513 18.388 18.225 17.89 18.053 17.89 18.198
0.777 6.76 7.115 1.577 2.78 4.422 4.8 5.197 3.917 0.647 0.61 0.765 0.665 0.627 0.625 0.737 0.752 0.862 0.882 0.727 0.702 0.685 0.925 0.917 1.21 1.33 0.952 1.16 1.177 1.155 1.257 1.435 1.587 1.55 1.442 1.515 1.867 2.2 2.495 2.71 3.56 3.585 2.705 3.08 4.797 5.287 4.582 4.875 5.327 6.282 6.172 6.27 6.517 6.53 6.77 7.22 7.322 7.412 7.55 7.747 7.992 9.66 9.31 9.395 10.497 9.912 9.275 9.782 10.062 10.63 11.217 11.755 10.492 10.695 10.98 12.455 11.832 11.44 11.58 11.66 11.712 11.82 11.975 12.067 12.317 12.857 19.165 16.48 14.69 13.857 14.212 17.572 14.915 15.092 15.437 15.697 18.435 16.177 16.395 24.852 20.39 18.915 17.235 17.447 17.682 17.82 18.027 18.335 18.75 19.037 19.345 19.652 20.16 20.927 21.59 21.935 22.08 22.18 22.255 22.325 22.375 22.472 22.585 22.645 22.752 22.81 36.93 34.96 32.185 40.28 43.18 39.287 36.992 33.457 24.077 24.147 24.247 24.355 24.44 24.515 24.587 24.68 24.75 25.437 27.2 26.152 25.247 25.197 25.175 25.407 25.837 25.92 27.612 32.167 33.412 31.032 26.047 25.837 25.922 26.245 26.115 26.042 29.71 29.245 26.307 26.51 27.552 26.55 28.09 31.927 32.882 32.762 31.775 27.87 26.055 25.837 25.607 25.607 25.682 26.26 26.082 25.665 25.87 27.012 26.017 26.042 27.607 27.33 27.357 27.907 26.565 25.772 25.967 25.697 25.622 25.61 25.945 26.285 28.282 27.965 26.127 25.907 25.817 26.232 29.535 27.922 30.87 30.475 30.992 34.367 25.44 25.325 25.307 25.282 25.245 25.865 27.8 29.167 31.812 31.542 28.932 25.86 26.11 30.272 30.987 31.405 30.582 25.7 24.905 24.772 24.17 24.028 24.045 24.075 24.178 24.015 23.893 23.948 24.008 23.998 28.363 32.205 31.075 30.705 31.833 32.253 26.95 24.818 23.918 23.958 23.913 24.94 25.285 23.933 24.893 23.343 23.288 23.603 23.975 23.098 22.86 22.77 22.743 22.918 22.66 22.643 22.735 22.703 23.148 22.768 26.373 26.933 25.245 22.87 22.418 22.168 22.14 22.193 22.13 22.998 24.393 22.065 21.89 21.75 21.778 21.81 22.351 21.959 22.474 23.714 24.298 24.706 25.148 25.136 25.217 24.013 21.715 21.29 21.303 21.727 21.864 21.212 21.826 23.584 21.828 21.107 21.133 21.421 21.451 21.098 22.163 24.233 22.548 21.168 22.455 23.59 21.695 20.835 20.953 21.208 20.793 20.563 20.575 20.608 20.55 20.53 20.508 20.48 20.473 20.488 20.468 20.503 20.8 21.928 20.82 20.173 20.098 23.235 30.668 32.158 31.513 31.133 28.55 25.663 21.545 23.878 22.055 20.023 19.895 20.08 22.215 24.05 22.615 21.16 19.623 20.52 21.488 22.315 20.6 21.393 21.065 19.5 19.335 19.468 19.253 19.223 19.18 19.57 20.12 19.47 18.95 18.928 18.89 18.863 18.81 18.755 19.02 18.928 18.67 18.703 18.7 18.67 18.643 18.608 18.653 19.158 18.82 18.595 18.555 18.478 18.36 18.255 18.18 18.153 18.125 18.135 18.125 18.125 18.198 18.355 18.838 20.53 22.313 22.858 21.568 19.675 20.168 22.405 23.303 19.745 20.048 20.21 22.233 22.133 19.435 18.445 18.42 18.428 18.453 18.925 19.485 21.558 22.123 21.515 19.798 18.368 18.445 18.5 18.525 18.515 18.495 18.54 19.23 19.758 18.408 26.948 33.128 34.783 32.903 22.455 18.863 18.593 18.568 18.345 18.478 18.26 18.205 18.203 18.16 18.615 18.96 19.228 19.68 19.695 19.433 18.143 18.015 17.903 17.785 18.283
0.972 6.635 6.465 1.152 0.745 0.697 1.007 2.232 1.425 0.772 0.825 1.402 1.045 0.82 0.647 0.975 0.715 0.87 0.935 0.97 0.925 0.61 0.72 0.765 0.83 1.43 1.275 1.325 1.652 1.047 1.385 1.557 1.477 1.507 1.575 1.78 1.997 2.7 2.122 4.9 8.787 5.68 3.407 3.517 3.97 6.24 4.65 5.027 5.51 6.097 6.11 6.285 6.532 6.695 6.922 7.24 7.312 7.555 7.725 7.847 8.152 8.667 9.077 9.482 9.97 9.405 9.51 9.78 10.2 11.047 11.355 10.887 10.572 10.772 11.07 11.227 11.342 11.497 11.502 11.717 11.672 11.79 12.172 12.21 12.455 12.617 13.812 14.165 13.695 13.862 14.272 14.64 14.872 15.052 15.392 15.665 15.892 16.21 16.392 17.132 19.985 18.807 18.67 18.127 17.665 17.835 18.042 18.427 18.88 19.205 19.357 19.645 20.055 20.73 21.365 21.772 22.052 22.185 22.287 22.345 22.38 22.457 22.567 22.66 22.76 22.81 29.425 34.967 37.077 39.972 37.9 42.2 38.807 34.575 24.8 24.197 24.27 24.367 24.442 24.552 24.61 24.695 24.885 26.727 27.34 26.662 25.902 25.532 25.422 25.455 26.022 25.94 29.84 32.945 32.77 30.447 25.705 25.7 25.707 25.795 26.125 29.295 30.28 31.242 29.267 26.267 25.912 27.195 31.502 32.547 33.09 32.145 30.812 26.5 25.995 26.592 25.65 25.54 25.52 25.74 25.665 25.68 28.97 32.102 30.372 26.837 28.807 28.99 27.87 27.902 28.11 26.882 26.232 25.715 25.677 25.647 25.597 26.072 29.135 29.807 26.485 25.77 25.782 25.8 26.192 31.56 26.635 28.57 29.715 29.11 25.415 25.32 25.327 25.245 25.252 25.21 26.502 27.837 29.12 27.207 25.725 26.22 31.05 30.822 31.63 31.86 31.52 30.17 25.857 24.662 24.31 24.068 23.973 23.988 24.013 24.003 24.478 24.42 24.605 24.653 23.913 28.58 30.75 31.91 32.208 31.015 27.168 24.075 23.808 23.738 26.238 27.768 26.378 25.563 25.568 23.465 23.63 24.483 23.043 22.973 22.88 22.845 22.795 22.688 22.688 22.713 22.853 23.153 22.918 22.785 24.168 28.135 27.883 26.075 26.305 23.848 22.188 22.128 22.365 24.375 22.52 24.07 23.585 22.14 21.795 22.029 22.559 21.959 22.092 23.91 24.091 23.687 23.081 24.851 24.768 22.828 21.389 21.561 21.478 21.294 21.241 21.24 21.246 21.507 23.354 21.76 22.019 21.917 21.425 21.649 23.891 25.295 26.605 25.043 21.69 23.653 22.538 20.823 20.805 20.943 20.83 20.6 20.553 20.583 20.553 20.518 20.555 20.52 20.5 20.485 21.383 22.655 21.655 21.738 20.865 20.155 22.408 28.928 31.855 31.51 31.75 30.535 28.863 24.413 22.935 23.395 20.83 20.4 19.91 19.843 21.295 24.083 20.928 21.68 21.633 19.395 19.363 20.833 20.33 20.24 21.983 20.748 20.213 19.36 19.22 19.235 19.215 19.145 19.125 19.698 19.1 18.925 18.883 18.883 18.845 18.935 18.948 18.715 18.69 18.69 18.713 18.685 18.648 18.645 19.26 19.11 18.7 18.998 18.733 18.52 18.388 18.29 18.268 18.225 18.203 18.19 18.148 18.155 18.203 18.895 19.995 21.398 22.718 22.645 20.595 18.533 19.295 19.338 19.13 20.22 19.13 18.79 19.055 19.995 18.608 18.433 18.425 18.435 18.568 19.113 20.858 22.35 23 22.505 21.83 20.57 19.163 18.51 18.405 18.438 18.48 18.57 18.715 19.02 18.46 22.44 30.665 32.575 29.228 20.488 18.868 19.065 18.745 18.518 18.435 18.273 18.183 18.143 18.128 18.133 18.208 18.713 18.9 19.963 19.26 18.713 18.255 18.09 17.895 17.813
1.692 0.772 0.882 1.142 0.635 0.6 0.597 2.752 3.315 3.07 1.542 0.842 0.722 0.677 0.52 0.597 0.677 0.702 0.867 0.725 0.752 0.682 0.705 0.625 0.892 2.575 1.417 1.305 1.227 1.212 1.327 1.55 1.555 1.62 1.77 2.217 2.305 2.6 2.037 10.075 9.185 4.26 3.93 3.595 4.12 5.457 4.725 5.692 5.72 6.1 6.23 6.385 7.192 6.752 7.115 7.382 7.395 7.545 7.592 7.855 8.24 9.092 8.745 9.497 9.987 9.677 9.585 9.797 10.252 10.84 11.385 11.322 11.007 10.962 11.175 11.54 11.477 11.442 11.41 11.585 11.64 11.79 12.037 12.475 12.875 12.112 12.615 15.155 14.562 13.832 16.015 14.575 14.945 15.217 15.617 15.79 15.885 16.19 16.677 19.192 22.895 22.552 19.585 18.707 17.795 18.765 18.182 18.542 19.065 19.615 19.437 19.657 19.975 20.5 21.055 21.53 21.915 22.12 22.222 22.315 22.345 22.437 22.542 22.612 22.67 22.807 24.042 40.75 42.187 39.52 41.615 38.455 38.417 32.252 24.137 24.237 24.312 24.395 24.46 24.59 24.937 25.012 25.292 27.265 27.375 26.16 25.662 25.8 25.807 25.237 25.655 26.725 31.525 33.432 31.905 28.13 25.712 25.7 25.74 25.772 25.805 28.137 30.077 30.292 29.705 26.335 26.495 30.227 32.217 33.252 32.595 31.53 27.722 25.835 25.76 25.97 25.63 25.58 25.607 25.892 25.775 28.085 31.792 32.47 31.27 28.482 28.35 28.81 28.605 28.035 27.912 28.125 27.68 25.932 25.635 25.617 25.635 25.792 26.077 27.272 26.16 25.772 25.767 25.777 26.517 27.437 28.102 33.99 33.94 30.96 25.537 25.325 25.422 25.312 25.25 25.255 25.382 26.252 25.467 24.842 25.58 26.345 29.885 31.705 31.442 30.94 31.915 31.057 27.037 24.582 24.465 24.168 24.058 23.93 23.955 23.985 24.003 24.315 23.943 25.373 24.865 24.443 29.92 32.168 30.203 26.523 23.985 25.565 28.358 26.78 29.91 29.428 27.23 25.813 23.493 23.97 23.755 23.293 23.02 22.973 23.178 22.79 22.735 22.728 22.723 22.735 23.473 23.703 22.81 22.838 22.868 24.095 27.838 28.335 28.138 24.648 22.188 22.075 24.345 23.53 23.423 24.845 24.863 23.095 21.882 21.95 22.374 21.803 21.705 22.402 23.255 22.922 24.3 24.615 23.997 22.256 22.663 22.934 22.422 21.35 21.265 21.305 21.279 21.239 21.981 23.442 23.037 21.758 21.138 21.613 23.181 24.83 27.535 27.368 24.783 21.363 22.595 23.653 23.235 20.908 20.705 20.648 20.538 20.57 20.578 20.54 20.678 20.63 20.5 20.658 22.993 22.47 21.585 21.22 20.253 20.19 27.31 29.05 28.03 31.863 31.628 30.255 25.213 21.825 22.36 21.18 20.528 20.385 19.895 20.283 21.243 21.048 23.358 26.628 26.118 20.373 20.31 20.028 19.98 19.35 20.593 23.27 21.2 21.443 19.213 19.19 19.233 19.19 19.09 19.258 19.74 19.418 18.89 18.878 19.698 18.9 18.765 18.738 18.688 18.72 18.713 18.68 18.758 18.93 19.093 18.943 19.998 20.685 19.765 18.65 18.463 18.445 18.38 18.308 18.278 18.25 18.225 18.19 18.2 18.81 19.045 19.833 21.013 21.88 19.98 18.528 18.83 19.26 18.79 18.625 18.555 18.54 18.513 18.455 18.45 18.428 18.405 18.455 18.43 18.958 20.853 22.06 22.768 23.145 22.805 22.145 21.483 20.223 19.828 18.4 18.463 18.545 18.615 18.528 18.59 18.545 23.04 25.935 20.08 19.028 18.9 21.073 18.71 18.438 18.353 18.178 18.163 18.153 18.115 18.148 18.135 18.125 18.683 20.798 20.04 19.658 18.28 18.128 18.078 17.968
4.552 1.847 0.722 2.655 0.72 0.63 1.142 1.762 1.767 1.892 1.62 1.085 0.705 0.742 0.74 0.59 0.57 0.597 0.782 0.802 1.48 0.907 0.72 0.692 0.7 1.042 1.22 1.127 1.162 1.365 1.382 1.587 1.59 1.7 1.83 3.3 4.047 3.22 2.11 3.642 5.462 3.447 3.912 5.327 4.472 5.02 6.147 6.082 7.07 6.237 6.325 6.42 6.54 8.395 8.155 7.235 7.347 7.5 7.652 7.92 8.17 8.74 9.662 9.492 9.24 10.412 10.267 10.307 10.567 10.592 11.48 11.55 11.29 11.165 11.227 11.627 11.485 11.497 11.517 11.5 11.557 11.68 11.867 12.122 12.147 13.43 14.495 21.857 16.71 16.072 14.752 15.332 15.047 15.26 15.577 15.767 16.005 16.235 16.8 19.79 22.755 21.55 20.412 19.652 18.55 20.707 18.94 18.612 19.03 19.307 19.51 19.725 19.935 20.287 20.715 21.2 21.62 21.93 22.117 22.192 22.282 22.392 22.505 22.562 22.635 22.915 31.222 32.505 31.632 37.997 40.845 35.755 32.367 25.472 24.145 24.27 24.39 24.44 24.492 24.592 24.75 25.207 26.62 27.342 26.42 25.425 25.362 25.492 25.96 27.73 25.735 28.207 31.627 33.245 30.195 26.465 27.815 26.85 26.352 25.95 25.815 25.85 27.47 27.95 28.012 26.502 27.965 31.817 32.787 32.842 31.892 29.63 26.892 25.747 25.652 25.662 25.757 26.05 27.115 25.857 27.162 31.252 32.455 31.425 30.515 29.385 28.49 28.412 27.99 26.372 26.102 27.697 27.25 25.73 25.607 25.657 25.865 25.835 25.88 26.39 27.44 26.772 26.025 25.79 25.78 25.842 27.615 32.292 31.672 26.437 25.352 25.272 25.262 25.492 25.517 25.187 25.117 25.08 24.845 25.457 27.042 26.535 29.47 31.247 30.88 31.747 31.212 26.822 24.855 26.287 25.412 24.47 24.108 23.988 23.928 23.928 23.895 23.883 24.555 24.338 23.948 23.94 24.7 29.508 26.878 23.843 24.928 30.715 31.318 30.505 29.368 29.613 29.198 24.578 23.793 23.988 23.235 23.078 23.11 23.898 22.923 22.853 22.793 22.775 22.765 22.948 23.653 22.84 22.713 22.69 23.435 24.623 24.758 29.07 26.26 22.275 22.223 23.075 24.32 22.058 24.088 24.97 24.18 22.454 22.016 21.95 21.854 21.725 21.829 22.053 21.791 22.295 24.47 24.863 24.514 23.478 24.621 24.37 23.105 21.61 21.384 21.281 21.279 21.394 22.623 24.072 23.323 21.681 21.154 21.141 21.207 21.51 24.853 27.573 28.155 27.178 22.28 22.225 23.42 21.265 20.698 20.578 20.623 20.558 20.58 20.563 20.558 20.575 20.493 20.645 23.355 21.573 21.563 20.278 20.24 20.91 26.51 25.105 30.673 33.765 33.173 32.338 30.455 23.59 20.13 20.493 19.948 19.88 19.985 20.713 24.795 25.815 26.845 26.618 23.198 21.55 25.04 22.108 22.138 20.863 19.325 22.028 21.548 21.568 19.94 19.198 19.183 19.175 19.14 19.035 19.055 19.728 19.91 18.89 19.373 18.813 18.793 18.75 18.89 18.703 18.665 18.673 19.098 19.653 20.158 18.978 20.638 21.185 21.018 20.75 18.838 18.543 18.45 18.428 18.43 18.298 18.253 18.22 18.228 18.32 19.623 19.923 18.605 18.468 18.738 18.475 18.663 18.993 20.698 19.258 18.593 18.565 18.52 18.483 18.843 18.473 18.47 18.495 18.44 18.418 18.658 19.83 21.733 22.418 22.975 23.013 22.465 21.768 20.148 18.363 18.403 18.47 18.548 18.593 18.548 18.558 18.558 18.938 18.418 21.565 25.223 21.943 18.418 18.373 18.245 18.178 18.17 18.153 18.125 18.153 18.163 18.123 18.145 18.405 18.563 20.15 19.32 18.213 18.155 18.113
3.44 1.632 2.575 0.705 0.697 0.655 0.705 0.625 0.757 0.745 0.68 0.775 0.782 0.695 0.707 0.7 0.852 0.665 0.56 0.612 2.157 2.902 0.91 0.695 0.795 1.187 1.142 1.087 1.282 1.442 1.542 1.732 1.707 1.937 4.19 10.61 5.43 2.18 2.117 2.69 3.005 3.385 4.602 4.487 4.307 4.857 5.955 5.865 6.06 6.217 6.27 6.51 6.552 7.36 7.452 7.822 8.012 7.442 7.65 7.967 8.827 8.502 8.73 9.037 9.762 9.567 9.932 9.93 10.122 10.417 10.695 10.822 10.857 11.032 11.18 11.417 11.382 11.53 11.502 11.5 11.555 11.71 13.15 13.812 12.28 17.382 14.962 20.32 14.425 15.077 15.77 16.225 15.345 15.812 18.937 24.17 16.655 17.182 18.792 18.355 23.072 23.312 24.845 19.217 22.782 23.067 21.097 19.42 18.995 19.285 20.245 20.055 20.015 20.255 20.495 20.797 21.262 21.642 21.922 22.062 22.175 22.355 22.455 22.507 22.587 25.6 33.832 32.282 27.492 24.952 26.447 27.357 24.09 23.987 24.14 24.307 24.48 24.482 24.525 24.595 24.687 24.935 25.997 26.77 25.64 25.377 25.535 26.235 29.422 29.125 25.872 27.645 28.202 28.797 28.45 26.557 28.622 27.415 26.08 25.91 25.852 25.875 25.89 25.897 26.27 26.145 29.665 32.45 33.03 32.275 30.637 26.595 26.307 25.655 25.667 25.63 25.975 25.79 28.165 26.192 27.765 32.507 31.725 30.592 30.015 27.325 28.452 28.4 28.132 26.047 26.055 26.51 25.987 25.627 25.607 25.655 25.84 26.315 25.747 26.225 26.52 26.757 28.085 26.745 27.747 26.225 25.632 27.742 29.245 26.902 28.242 27.667 25.712 25.817 25.6 25.187 25.107 25.052 25.4 27.675 27.72 28.995 30.277 30.137 31.447 30.97 26.722 25.522 29.43 31.68 27.895 24.65 24.533 24.055 23.888 23.848 23.845 23.843 23.948 24.238 23.613 23.768 24.298 23.875 23.85 26.965 30.298 31.433 31.075 30.025 30.113 29.495 25.575 24.653 23.983 23.33 23.203 23.3 24.36 23.648 22.925 23.065 22.955 23.153 22.803 22.87 22.728 22.713 22.68 23.445 24.918 25.025 25.328 25.76 23.848 23.558 23.385 24.073 23.008 23.473 22.455 23.863 22.285 22.061 22.05 22.013 21.938 21.813 23.518 24.3 22.368 21.801 22.419 24.351 23.804 22.046 24.09 25.142 24.132 22.748 21.469 21.278 21.289 21.881 22.64 21.717 21.624 21.873 21.635 21.454 21.128 22.275 26.283 28.065 29.043 28.973 25.44 21.298 22.185 21.818 21.29 20.6 21.073 20.895 20.598 20.573 20.568 20.54 20.548 21.083 22.055 21.893 20.435 20.323 20.268 20.37 23.433 27.29 32.495 34.165 33.725 33.37 31.88 29.663 23.363 22.178 19.955 21.133 21.623 23.518 25.97 27.188 26.885 25.605 22.25 20.735 26.748 24.738 25.863 21.888 20.345 19.445 20.05 21.538 21.68 19.97 19.138 19.13 19.14 19.078 19.015 18.94 18.92 18.913 18.888 18.835 18.815 18.785 18.743 19.273 18.938 19.333 19.063 19.103 19.498 20.003 18.988 20.328 22.053 21.998 20.823 18.908 18.58 18.723 18.64 18.495 18.35 18.248 18.275 18.28 18.548 19.215 20.158 19.913 19.743 18.445 18.885 19.43 21.21 18.685 18.625 18.608 18.543 18.615 18.94 18.488 18.528 18.658 18.498 18.478 18.51 18.485 19.27 21.275 22.108 22.79 22.563 21.605 19.643 18.398 18.433 18.43 18.738 18.553 18.545 19.16 19.54 19.185 18.463 21.278 23.423 19.145 18.443 18.24 18.255 18.163 18.155 18.138 18.125 18.145 18.16 18.145 18.135 18.465 18.27 19.88 21.21 19.428 18.478 19.565
1.01 2.475 7.255 1.227 0.667 0.64 0.74 0.7 0.72 0.612 0.59 0.695 1.642 0.8 0.822 0.88 0.862 1.1 0.52 0.775 0.745 0.792 0.792 0.755 0.827 0.9 0.995 1.102 1.395 1.305 1.487 1.742 1.76 2.192 7.365 10.927 6.532 2.34 2.16 2.775 3.167 3.422 3.795 4.517 4.492 5.205 5.7 5.715 6.042 6.277 6.372 6.785 6.542 6.982 7.027 8.027 9.24 7.805 8.867 8.702 8.402 8.605 8.995 9.46 9.597 9.62 9.84 9.832 10.17 10.415 10.515 10.657 10.85 11.015 11.132 11.272 11.292 11.412 11.502 11.682 11.982 12.085 17.2 20.167 12.73 13.782 13.515 14.882 14.062 14.332 14.687 15.012 15.28 17.182 22.972 24.677 16.702 17.08 17.237 17.312 17.082 18.462 18.69 18.032 19.9 21.122 21.592 20.672 19.092 19.72 20.727 20.4 20.085 21.832 20.587 20.807 21.072 21.41 21.745 21.93 22.082 22.252 22.362 22.512 22.57 30.202 32.982 30.45 23.927 23.63 23.735 23.782 23.935 24.027 24.195 24.325 24.44 24.477 24.525 24.605 24.69 24.762 24.817 25.932 26.185 25.687 26.652 25.34 25.89 25.922 25.395 25.83 27.34 27.927 27.777 28.36 28.007 25.997 25.89 28.327 28.752 26.39 26.055 25.927 25.897 26.212 26.412 30.027 31.78 31.457 27.332 27.022 25.917 25.715 25.642 25.592 25.585 28.185 29.09 28.482 26.942 27.677 30.192 30.072 27.655 25.92 26.885 27.34 26.757 25.9 25.87 25.862 26.11 26.055 25.61 25.62 26.057 26.525 26.177 26.42 26.942 26.212 29.347 29.185 28.15 26.965 25.48 28.205 33.632 33.332 32.547 26.037 26.237 25.532 25.252 25.23 25.072 25.27 24.892 26.285 27.722 27.455 28.922 29.88 28.325 27.2 25.18 28.522 31.875 32.497 30.947 27.458 24.758 24.323 23.93 24.415 24.298 23.815 23.81 23.795 23.603 23.58 23.693 23.858 24.71 29.328 31.403 30.855 29.973 30.603 31.393 28.17 23.89 23.605 24.8 25.463 25.265 25.64 25.365 23.48 22.945 23.063 23.228 22.858 22.878 22.78 22.81 22.888 22.728 23.053 24.833 25.115 25.193 24.32 22.955 24.358 25.665 22.603 24.18 24.985 23.8 22 22.04 22.085 22.054 22.005 21.964 22.561 24.523 25.769 24.29 22.565 21.758 22.176 22.206 23.555 25.083 25.056 24.901 24.324 22.794 21.392 21.291 21.548 21.457 21.207 21.222 21.256 22.665 22.357 22.675 26.654 28.005 28.985 28.918 27.973 27.438 24.998 21.08 23.04 22.95 20.8 20.885 21.543 20.72 20.59 20.558 20.6 22.4 23.015 21.843 20.66 20.335 20.313 20.288 20.265 21.568 26.098 30.078 32.245 33.273 33.303 31.883 28.888 23.045 22.43 20.28 20.673 22.663 24.23 26.71 28.043 27.778 26.353 25.23 21.31 27.803 27.97 24.948 22.298 22.048 19.9 20.03 21.04 21.903 20.775 19.328 19.148 19.11 19.09 19.048 18.973 18.945 18.908 18.92 18.89 18.833 18.943 18.978 19.81 19.198 19.643 18.788 19.028 19.765 19.048 18.938 18.983 21.915 22.483 21.89 19.483 18.815 18.793 18.825 18.635 18.56 18.42 18.34 18.305 18.318 18.34 18.355 18.915 19.028 18.418 18.453 19.673 20.585 18.555 18.55 18.593 18.575 18.603 18.733 18.54 18.725 18.585 18.528 18.55 18.618 18.558 18.535 18.868 20.935 22.243 21.92 20.178 18.453 18.39 18.435 18.495 18.793 19.643 21.338 21.66 21.17 19.43 18.475 21.073 21.678 19.253 18.795 18.32 18.34 18.13 18.123 18.133 18.11 18.118 18.15 18.138 18.123 18.088 18.445 18.808 20.605 20.625 18.53 18.428
0.737 1.86 7.572 7.547 1.585 0.605 0.73 0.742 0.817 1.315 0.797 1.502 0.82 0.847 2.835 1.04 0.667 0.632 0.61 1.105 0.81 0.817 0.84 1.012 0.95 0.92 0.962 1.202 1.372 1.297 1.487 1.717 1.727 1.995 3.805 4.395 3.857 4.495 2.975 2.437 2.965 3.285 3.857 4.38 4.572 5.475 5.63 5.7 7.135 6.452 6.402 8.145 7.125 8.565 7.157 7.307 7.412 9.78 8.915 9.282 8.337 8.687 8.982 9.262 9.33 9.467 9.785 10.105 10.3 10.342 10.562 10.642 10.877 10.96 11.115 11.155 11.217 11.417 11.51 11.882 11.672 11.952 13 18.61 12.952 13.065 13.265 13.795 14.192 14.52 14.812 14.965 15.352 15.682 18.87 21.312 17.445 17.635 17.455 18.48 18.405 17.34 17.885 18.407 18.595 19.18 21.275 20.062 20.947 23.502 22.09 24.315 23.137 23.442 20.667 20.822 21.04 21.28 21.572 21.815 22.012 22.147 23.11 22.57 22.58 28.66 32.152 29.13 23.855 23.627 23.72 23.82 23.95 24.082 24.232 24.367 24.455 24.485 24.525 24.61 24.71 24.775 24.84 24.987 25.752 26.667 25.655 25.427 25.447 25.435 25.422 25.475 25.737 26.695 27.952 28.387 26.377 25.93 27.05 31.697 32.85 30.585 27.217 26.227 25.91 25.975 25.965 26.06 26.355 29.042 26.807 26.292 26.037 25.822 25.615 25.545 26.195 31.212 31.87 28.927 28 26.875 27.005 28.527 26.51 25.897 25.915 25.91 25.897 25.912 25.88 25.815 25.905 26.215 26.05 27.895 26.475 25.667 25.915 25.777 26.582 26.375 28.04 31.462 30.932 28.975 25.487 28.072 31.577 33.66 27.785 25.622 27 26.485 25.65 25.26 25.232 24.89 24.692 24.687 25.992 25.052 24.822 27.07 26.702 25.507 29.46 32.027 31.64 31.532 32.235 31.495 25.853 24.275 23.958 23.95 24.563 23.808 23.768 23.76 23.668 23.558 23.535 23.92 23.635 24.87 30.415 29.978 30.768 31.515 30.688 27.738 25.795 24.773 28.858 29.71 26.785 25.365 23.633 23.108 23.503 23.433 22.92 22.825 22.933 22.783 22.87 23.158 23.12 22.845 23.168 25.315 25.005 23.615 22.795 23.13 22.845 23.32 24.94 24.775 23.258 22.093 22.113 22.112 22.081 22.035 22.118 24.238 25.479 24.667 24.612 24.645 22.181 21.872 22.387 24.726 25.449 24.414 23.43 24.2 24.034 21.727 21.266 21.188 21.176 21.195 21.211 21.387 23.363 23.244 23.148 27.621 28.988 28.978 27.908 27.005 27.6 24.44 21.143 21.495 23.095 21.898 21.438 20.933 21.01 20.78 20.6 21.418 25.745 24.51 20.953 20.35 20.32 20.275 20.26 20.248 20.26 21.578 25.525 30.963 31.838 32.355 30.778 26.933 22.368 22.2 20.818 19.955 20.873 21.62 26.113 27.46 28.338 26.943 25.248 22.735 24.148 27.453 28.705 25.26 21.425 21.908 20.365 22.588 20.535 21.935 22.39 20.13 19.108 19.085 19.243 19.11 18.975 18.945 18.913 18.883 18.84 19.823 19.555 19.623 19.378 18.845 18.743 20.16 21 19.188 19.01 18.643 19.48 21.773 19.688 18.79 19.105 19.738 19.258 18.698 18.655 18.58 18.533 18.448 18.418 18.388 18.38 18.448 18.433 18.44 18.463 18.463 18.523 18.493 18.55 18.543 18.56 18.563 18.595 18.758 18.918 18.605 18.6 18.645 18.673 18.625 18.558 18.488 21.818 22.155 21.065 18.593 18.418 18.925 18.928 18.535 19.623 21.533 22.818 23.063 21.47 20.918 18.538 18.453 18.753 19.078 19.978 18.63 18.438 18.415 18.093 18.098 18.103 18.12 18.128 18.105 18.105 18.095 18.383 18.673 18.84 18.425 18.403 18.25
0.72 0.867 4.882 3.07 0.5 0.77 0.895 0.73 1.592 0.857 0.825 0.825 0.8 0.715 0.685 2.367 3.6 2.145 1.335 1.37 5.172 0.78 0.88 0.927 1.105 0.905 1.042 1.172 1.372 1.402 1.565 1.597 1.74 2.14 3.337 3.927 4.002 4.255 3.282 2.49 5.47 5.225 4.827 4.51 4.915 5.21 5.677 7.44 11.312 7.887 6.647 6.582 6.852 7.025 7.312 7.207 7.33 11.577 11.902 8.812 8.535 8.652 9.132 10.227 9.727 10.197 9.827 10.042 10.322 10.325 10.532 10.645 10.795 10.9 11.047 11.107 11.37 11.395 11.607 11.785 11.945 12.265 12.605 12.912 13.012 13.2 13.572 14.205 15.42 17.647 20.317 15.09 15.367 15.812 16.27 17.035 17.722 18.622 19.587 21.205 18.157 17.455 17.695 17.947 18.2 18.535 19.222 19.702 21.462 20.762 22.11 22.932 25.41 21.28 20.7 20.832 21.07 21.332 21.547 21.75 21.952 22.045 22.29 22.535 22.622 25.207 29.092 25.78 23.517 23.625 23.702 23.87 24.01 24.127 24.25 24.387 24.457 24.51 24.54 24.647 24.732 24.842 24.89 24.937 25.145 26.322 26.567 26.882 27.3 27.535 26.31 25.522 25.615 25.635 26.542 28.03 26.36 25.915 29.087 32.542 33.122 32.092 28.687 27.167 26.57 25.992 25.972 25.987 26.425 26.615 25.957 25.845 25.83 25.63 25.6 25.56 30.135 33.002 33.64 33.102 30.772 28.22 28.06 28.247 28.742 26.702 26.05 25.947 25.897 25.907 25.852 25.827 25.83 27.305 27.082 27.565 27.075 25.925 25.82 26.037 25.945 26.035 30.577 32.305 30.457 26.74 26.012 25.502 25.46 26.565 25.625 26.895 27.367 27.32 25.797 25.167 25.195 24.78 25.08 25.082 24.995 24.86 24.837 25.347 25.077 25.155 29.875 31.512 31.735 31.41 31.655 29.453 24.555 24.81 24.055 24.548 24.165 24.038 23.888 23.728 23.67 23.598 23.54 23.753 24.265 23.595 24.87 30.358 31.508 30.43 27.023 27.825 30.7 29.653 29.608 29.168 29.163 24.833 23.228 23.48 23.905 22.933 22.86 22.865 22.873 22.788 22.728 23.22 22.973 23.028 23.073 23.903 24.355 22.81 24.293 24.35 24.715 23.315 24.148 23.805 22.043 22.078 22.125 22.137 22.097 22.1 23.724 24.974 23.541 24.072 24.518 24.223 23.721 22.17 21.922 21.679 21.945 22.391 21.482 21.596 23.83 22.477 21.261 21.196 21.177 21.196 21.529 21.379 22.281 23.886 23.15 24.691 28.953 27.94 26.825 24.713 22.493 21.105 20.993 21 21.153 22.215 22.043 21.023 20.815 20.958 21.155 21.273 21.755 20.668 20.453 20.4 20.675 20.925 20.693 20.28 20.25 20.53 21.383 24.038 29.105 29.465 25.818 21.913 20.455 20.2 20.09 19.903 19.875 25.498 27.273 27.845 26.818 25.39 23.255 22.48 21.443 26.055 26.83 24.463 20.02 21.44 19.938 20.843 19.378 19.565 21.105 20.605 20.11 19.045 19.148 19.073 19.098 18.985 18.933 18.893 18.86 19.248 18.985 19.085 18.875 18.783 18.793 18.935 19.323 20.69 21.788 20.863 19.045 19.135 18.678 18.708 18.745 18.883 19.665 18.775 18.745 18.678 18.65 18.62 18.573 18.525 18.488 18.483 18.47 18.48 18.515 18.49 18.49 18.5 18.538 18.61 18.588 18.6 18.638 18.64 18.608 18.65 18.68 18.703 18.743 18.708 18.628 18.55 18.525 20.068 19.563 18.62 18.473 18.703 18.9 19.823 21.983 22.995 23.563 23.075 22.083 19.068 18.555 18.52 18.418 18.348 19.965 19.513 18.683 18.185 18.083 18.075 18.1 18.08 18.088 18.083 18.093 18.098 18.425 18.34 18.72 18.135 19.198 18.81
1.515 0.722 1.775 0.575 0.62 0.63 0.845 0.832 0.727 0.772 0.77 0.82 0.742 0.68 0.642 1.24 1.427 3.055 4.69 0.88 2.55 1.082 1.322 0.927 1.05 0.982 1.132 1.247 1.36 1.522 1.652 1.587 1.89 2.07 2.72 3.422 2.577 2.912 2.455 2.63 3.032 3.72 4.27 7.875 7.417 5.612 6.027 7.39 6.825 6.887 8.152 6.482 6.8 7.077 7.217 7.43 11.987 13.597 11.915 8.62 8.97 10.572 10.267 9.427 9.485 11.652 9.922 10.092 10.157 10.285 10.46 10.642 10.792 10.922 11.002 11.195 11.822 11.557 11.76 11.975 12.205 12.505 12.802 13.01 13.122 13.225 13.662 14.672 20.06 21.267 19.115 15.985 15.557 15.79 15.965 16.495 17.015 17.877 20.067 19.55 17.345 17.58 17.827 18.05 18.31 18.54 18.822 19.835 22.047 21.075 21.59 22.405 25.882 21.885 20.73 21.01 21.297 21.417 21.55 21.747 21.932 22.115 22.305 23.505 26.35 29.077 25.695 24.427 23.537 23.65 23.755 23.935 24.045 24.165 24.272 24.367 24.437 24.492 24.555 24.662 24.9 25.025 25.107 25.062 25.027 25.132 25.895 26.307 25.987 27.505 26.902 26.062 25.615 25.665 25.745 26.187 26.007 28.272 31.707 33.122 32.44 30.642 28.972 28.815 27.672 26.757 26.005 25.98 25.972 26.335 25.962 26.677 25.692 25.632 25.545 26.85 32.602 33.795 34.17 34.017 33.157 32.382 28.865 26.882 26.655 26.13 26.165 25.95 25.857 25.867 25.832 25.837 25.847 26.685 26.965 26.472 25.782 26.182 26.132 25.71 25.61 26.202 31.062 30.172 27.102 25.64 25.932 25.855 25.725 25.467 25.577 27.22 27.527 27.697 25.63 25.07 25.062 25.072 25.965 25.062 24.912 24.915 25.42 24.962 24.82 29.47 31.392 31.102 32.122 31.537 28.172 24.83 27.573 30.843 26.44 24.213 25.298 24.233 24.87 23.75 23.655 23.645 23.62 23.523 23.583 24.575 23.735 25.448 30.423 27.25 28.83 30.858 31.343 30.288 29.373 29.733 28.335 24.145 23.48 23.578 23.198 22.863 22.87 22.893 22.868 22.85 22.808 23.025 23.118 23.075 24.245 24.938 22.73 22.558 24.265 24.733 25.19 24.615 23.04 21.983 22.003 22.075 22.115 22.142 22.178 23.541 25.14 23.669 21.986 22.297 22.859 22.18 23.772 23.237 21.786 21.602 21.624 21.617 21.609 21.617 21.686 23.064 22.397 21.214 21.187 22.354 23.683 22.052 23.387 25.11 24.117 22.783 24.828 26.52 24.3 21.558 21.058 21.018 21.003 20.968 20.928 20.935 21.145 22.205 23.335 21.458 21.875 21.488 20.573 20.473 20.463 21.383 22.578 22.325 21.39 20.828 20.498 20.22 20.235 20.233 25.973 28.278 25.535 22.723 20.353 21.268 21.32 20.465 19.845 22.848 26.61 26.56 24.98 23.19 22.983 22.515 20.408 20.058 21.61 20.775 22.533 22.88 19.215 19.215 19.193 19.195 19.173 19.273 21.61 23.233 22.52 19.388 19.065 19.055 18.95 18.893 18.838 19.205 19.055 18.883 18.85 18.823 18.83 18.823 19.668 22.18 22.895 22.488 21.795 19.61 18.688 18.768 18.785 18.8 19.095 19.618 18.898 18.74 18.73 18.698 18.655 18.638 18.645 18.615 18.618 18.57 18.573 18.508 18.548 18.573 18.61 18.605 18.665 18.708 18.663 18.675 18.693 18.675 18.728 18.738 18.725 18.743 18.735 18.723 18.675 19.228 19.515 20.138 18.843 18.538 20.815 22.325 23.22 23.53 22.875 21.985 20.128 18.67 18.595 18.623 18.488 18.36 18.308 18.398 19.138 18.3 18.123 18.2 18.143 18.115 18.098 18.068 18.09 18.105 18.133 18.35 18.173 18.44 19.293 19.225
0.702 1.762 0.615 0.842 1.94 1.19 0.707 0.712 1.247 0.727 1.035 0.937 0.8 0.735 0.672 0.68 0.7 3.157 4.8 1.06 0.785 0.78 1.045 0.862 1.02 1.245 1.182 1.247 1.455 1.447 1.54 1.717 2.195 1.832 1.905 1.99 2.095 2.56 2.525 2.747 4.242 3.775 4.715 7.607 6.12 6.207 5.665 6.57 6.305 7.057 8.582 6.665 6.655 7.667 7.16 7.442 12.145 9.982 8.135 9.987 13.742 15.955 12.272 9.612 9.722 10.83 10.215 10.1 10.197 10.822 11.812 10.97 11.182 11.432 11.872 11.342 11.92 13.057 12.165 12.265 12.52 12.7 12.947 13.172 13.357 13.662 13.752 14.517 19.112 20.257 21.985 19.862 15.942 16.19 16.025 16.172 17.425 19.725 21.227 21.555 17.597 17.812 17.925 18.145 18.402 18.615 18.89 19.125 19.767 20.132 20.395 24.545 25.467 24.842 21.537 21.082 22.182 21.44 21.575 21.745 21.935 22.16 22.33 22.527 27.275 25.925 24.2 23.575 23.585 23.682 23.797 23.945 24.102 24.225 24.315 24.4 24.45 24.515 24.577 24.747 25.067 25.585 25.577 25.175 25.175 25.112 25.152 25.895 25.837 27.027 27.357 26.057 25.642 25.685 26.35 26.55 27.13 26.377 30.745 32.8 30.897 30.452 28.315 29.047 28.847 28.107 27.307 26.537 25.892 25.785 25.842 25.762 25.66 25.615 26.982 32.202 33.48 34.162 33.352 33.81 34.187 33.735 32.905 29.65 26.84 27.197 26.55 26.082 25.975 25.902 25.855 26.097 25.957 26.032 26.01 28.542 26.995 27.852 27.115 25.905 25.897 26.867 28.912 26.72 25.702 25.607 25.82 25.615 25.765 25.7 26.3 28.27 27.472 26.037 25.097 25.102 25.052 25.877 26.752 25.122 24.985 25.242 25.105 24.662 25.567 29.71 31.237 31.237 30.075 27.162 25.155 26.425 30.695 32.175 30.318 24.78 24.6 23.995 24.073 23.693 23.613 23.605 23.585 23.873 24.275 23.978 24.055 24.225 25.983 28.38 30.983 31.308 30.198 29.955 31.005 27.61 23.495 23.778 24 23.528 23.303 23.073 23.4 22.883 22.85 22.9 23 24.033 23.183 22.86 22.915 23.388 22.6 22.64 22.975 23.078 22.7 23.328 24.868 22.71 22.11 22.068 22.095 22.219 22.907 24.718 24.76 22.063 22.003 22.883 23.138 22.045 22.473 23.599 23.125 21.696 21.604 21.516 21.506 21.544 21.592 21.813 23.038 22.132 21.453 22.451 23.886 24.124 25.253 26.654 26.974 24.623 22.585 22.598 21.838 21.138 21.568 21.085 21.02 20.968 20.923 20.878 20.965 22.555 24.693 22.445 22.823 20.908 20.508 20.568 20.57 20.988 20.975 20.35 20.575 20.528 21.123 20.963 20.42 20.213 21.435 24.62 25.228 24.15 22.068 21.643 21.948 20.763 19.953 20.098 24.01 23.098 21.005 22.618 22.255 20.72 19.97 19.723 20.32 20.278 20.333 21.218 19.433 20.08 19.965 19.323 19.193 19.15 19.553 22.758 27.453 21.698 19.05 19.17 19 19.268 19.055 18.988 19 18.91 18.873 18.885 18.858 18.818 20.768 22.745 23.478 22.698 20.955 18.77 18.743 18.758 18.843 18.858 18.813 19.19 20.135 18.813 18.778 18.755 18.738 18.748 18.73 18.708 18.698 18.655 18.595 18.56 18.508 18.553 18.66 18.675 18.72 18.723 18.738 18.745 18.758 18.745 18.738 18.743 18.745 18.795 18.82 18.805 18.828 18.828 19.258 20.453 18.738 18.5 20.663 23.335 23.43 22.708 21.783 19.97 18.585 18.64 18.868 18.593 18.508 18.378 18.318 18.275 18.613 18.458 18.48 18.4 18.338 18.095 18.088 18.06 18.065 18.09 18.08 18.15 18.195 18.428 18.853 18.555
0.727 0.615 1.122 1.24 0.78 1.242 1.317 1.007 1.402 0.7 0.765 0.86 0.822 0.772 0.585 0.685 0.635 1.42 1.42 0.922 0.952 0.872 0.865 0.815 1.147 1.242 1.09 1.175 1.305 1.535 1.465 1.74 2.647 2.032 2.665 2.687 2.46 5.04 3.6 4.172 4.745 4.305 4.422 6.902 6.84 6.757 5.655 6.552 6.195 6.255 7.007 7.607 6.942 7.357 8.322 7.897 7.507 8.087 7.83 9.617 14.342 15.49 11.042 12.732 14.492 14.2 11.15 10.625 11.737 12.26 11.895 13.352 11.605 11.752 11.502 11.64 11.9 12.44 12.432 12.45 12.77 12.947 13.187 13.38 13.757 13.852 14.445 15.79 15.755 16.235 20.37 19.81 15.83 16.057 18.77 16.945 17.182 17.977 18.365 18.142 17.692 17.885 18.09 18.267 18.502 18.71 18.96 19.215 19.445 19.735 20.055 23.705 21.5 24.96 22.385 25.432 21.35 22.455 22.355 21.745 21.977 22.167 22.395 22.56 25.105 27.42 24.56 23.425 23.65 23.74 23.872 23.992 24.152 24.307 24.372 24.44 24.475 24.532 24.685 24.865 24.932 25.16 27.335 26.547 25.45 25.262 25.207 25.26 25.272 25.55 26.67 26.53 25.66 25.937 26.227 25.887 26.272 27.502 26.925 27.817 29.057 32.065 30.992 30.962 30.622 29.01 28.747 27.405 26.212 25.767 25.78 25.737 25.695 25.635 28.972 32.93 34.005 33.687 32.572 32.552 33.365 33.545 32.092 28.537 27.812 26.637 26.88 26.377 26.252 26.415 26.79 29.19 27.415 26.02 26.002 26.585 26.895 27.73 28.095 29.757 30.022 28.52 27.335 25.712 25.662 25.517 25.592 25.552 25.817 26.087 27.31 27.25 25.402 25.175 25.125 25.102 25.047 25.027 24.97 25.065 25.515 25.765 25.017 24.705 26.707 27.71 29.912 27.562 25.655 24.922 27.802 31.335 32.075 31.968 32.043 31.223 25.223 24.435 24.283 23.963 24.293 23.7 23.595 23.568 23.805 23.613 24.37 24.255 24.558 28.565 31.205 30.068 30.138 31.183 31.133 28.558 23.68 24.168 25.608 24.855 23.153 24.275 25.165 23.015 22.878 22.965 24.248 23.603 22.908 22.885 22.88 22.785 22.695 22.723 22.725 22.89 24.67 24.813 23.71 23.295 22.815 22.675 22.57 22.623 24.359 25.016 22.36 21.97 21.974 22.026 22.131 22.084 21.81 22.921 24.984 23.55 21.675 21.565 21.579 21.544 21.553 21.518 21.808 23.151 22.895 21.485 23.796 25.246 26.644 27.416 26.43 24.9 22.605 21.545 22.81 21.28 21.828 22.38 21.168 20.935 20.915 20.885 20.835 20.99 21.368 22.31 21.788 20.57 20.55 20.61 21.105 21.758 22.59 21.213 20.323 20.528 21.713 21.88 20.86 20.53 20.163 22.113 25.245 25.765 24.258 20.938 21.393 20.485 20.26 19.88 20.078 19.713 19.698 20.52 20.673 19.853 19.785 19.685 19.458 19.398 19.328 19.258 20.48 22.093 20.985 21.255 21.36 20.115 19.7 23.625 21.145 19.395 19.023 19.06 19.72 19.945 19.1 19.053 18.928 18.918 18.905 18.903 18.85 19.655 22 23.253 23.178 22.128 19.768 18.79 18.77 18.805 18.818 18.813 18.84 18.858 19.293 19.685 18.97 18.808 18.808 18.81 18.793 18.76 18.763 18.69 18.628 18.573 18.555 18.583 18.653 18.733 18.775 18.758 18.74 18.763 18.743 18.77 18.798 18.788 18.783 18.763 18.79 18.828 18.82 18.845 19.343 20.47 19.333 18.918 18.905 21.698 22.813 22.878 21.885 19.005 18.565 18.6 18.8 19.22 18.573 18.583 18.505 18.285 18.283 18.883 20.465 18.46 18.52 18.105 18.093 18.085 18.063 18.08 18.078 18.08 18.065 18.173 18.088 18.65
0.552 0.65 0.685 0.585 0.76 0.71 1.422 0.765 3.01 1.425 0.627 0.67 0.787 1.112 0.97 1.552 0.695 0.805 0.855 0.895 1.28 0.907 0.917 0.837 0.912 1.265 1.072 1.135 1.135 1.29 1.602 1.742 1.732 1.732 2.84 3.115 2.77 2.925 4.49 10.917 10.99 7.385 4.22 5.765 5.012 5.31 5.67 5.865 6.19 6.03 7.35 6.627 6.71 7.45 7.222 6.95 7.255 7.48 8.445 13.085 12.845 9.402 8.99 10.2 16.757 16.5 12.167 12.945 12.06 12.95 12.07 11.125 11.252 11.46 11.667 11.827 12.005 12.337 12.457 12.797 13.005 13.225 13.395 13.722 14.19 14.132 15.247 15.782 15.567 15.087 15.887 18.31 15.812 16.56 25.832 20.385 19.947 18.79 18.63 18.292 17.822 17.91 18.125 18.397 18.582 18.78 19.04 19.285 19.512 19.777 19.985 20.322 21.14 22.6 25.84 26.792 23.455 21.675 22.157 21.775 22.012 22.24 22.415 22.61 23.93 26.84 24.777 23.477 23.602 23.715 23.905 24.07 24.222 24.345 24.417 24.455 24.487 24.537 24.825 24.865 24.925 26.29 28.505 29.187 28.887 26.645 25.255 25.247 25.3 25.437 25.982 25.705 25.64 26.567 27.56 27.062 25.962 25.99 26.2 28.107 32.12 32.175 32.302 32.955 32.617 31.245 29.357 28.622 25.907 25.8 25.765 25.762 25.692 25.692 28.915 32.992 33.887 34.082 33.465 32.665 32.307 32.522 28.532 26.922 27.955 25.932 27.22 27.6 26.487 27.3 27.735 30.395 29.23 25.967 25.947 25.835 25.867 26.73 27.865 27.68 28.877 28.057 25.615 25.592 25.52 25.547 25.505 25.48 26.035 26.98 26.515 25.545 25.177 25.132 25.122 25.092 25.072 25.03 25.232 25.437 25.022 24.97 25.077 24.915 25.375 26.872 27.717 25.787 24.505 24.515 29.9 31.99 30.905 31.405 32.238 30.745 26.04 24.418 23.933 23.788 24.475 24.115 23.558 23.585 23.528 23.655 23.873 24.078 23.613 23.748 27.555 30.183 31.25 31.065 29.528 25.45 26.44 28.08 25.913 25.523 25.165 25.135 23.343 22.898 23.003 22.945 23.048 23.32 23.773 22.955 22.895 22.83 22.753 22.758 22.778 22.758 24.393 23.713 23.348 23.585 23.97 24.48 23.565 24.323 25.025 23.216 21.998 21.983 21.992 21.973 22.125 22.049 22.033 23.928 24.294 23.87 22.397 21.661 21.529 22.036 21.623 21.386 21.441 21.919 23.416 23.245 25.26 26.973 27.354 26.778 25.77 23.609 21.77 21.133 22.398 21.458 21.888 21.403 20.955 20.918 20.89 20.87 20.828 20.81 20.808 20.653 20.595 20.605 20.548 20.48 22.065 22.578 23.935 23.318 21.28 21.843 20.568 20.453 21.49 21.983 20.473 20.263 22.193 23.025 25.31 22.573 21.768 21.248 20.553 20.055 19.835 19.718 19.678 19.673 19.79 19.835 19.57 19.503 19.465 19.42 19.335 19.248 19.855 19.603 20.475 20.98 22.383 21.728 19.715 19.535 19.22 21.475 19.34 19.098 19.718 19.303 19.073 19.005 18.968 18.938 18.918 18.89 18.795 21.313 22.85 23.48 22.628 21.115 18.848 18.795 18.793 18.843 18.835 18.84 18.85 18.858 18.853 19.563 19.213 18.908 18.938 18.88 18.84 18.833 18.765 18.718 18.66 18.628 18.583 18.625 18.7 18.79 18.8 18.768 18.753 18.763 18.788 19.998 20.345 19.35 18.898 18.778 18.708 18.768 18.785 18.808 18.858 19.375 20.2 20.168 19.275 19.38 21.52 22.508 20.38 18.57 18.56 18.58 18.588 19.595 19.355 19.46 19.113 18.45 18.293 18.775 20.173 20.7 18.445 18.185 18.068 18.06 18.055 18.088 18.05 18.043 18.035 18.06 18.04 18.28
0.49 0.597 0.68 1.13 0.697 0.715 0.75 1.1 0.712 1.925 1.115 0.667 0.785 0.9 1.252 0.95 0.682 0.825 0.967 1.047 1.147 0.852 1 0.94 0.99 1.1 1.112 1.142 1.187 1.327 1.775 1.875 1.802 1.795 2.462 4.19 2.857 5.417 4.687 5.862 11.18 9.497 4.572 4.495 4.807 5.265 5.642 6.79 6.84 7.347 6.435 6.222 6.51 8.032 9.187 8.122 7.147 7.472 7.905 8.215 8.295 8.482 8.85 9.295 12.362 12.642 13.687 14.692 12.652 11.755 11.76 11.177 11.345 11.482 11.675 11.892 12.14 13.88 12.632 12.847 12.98 13.287 13.87 13.865 14.21 16.582 19.04 16.425 15.022 15.175 15.562 15.957 16.125 16.395 17.9 18.337 17.86 20.372 18.59 17.99 17.772 17.867 18.145 18.395 18.667 18.912 19.162 19.325 19.59 19.84 20.047 20.23 20.492 20.827 24.182 25.475 22.42 21.585 21.637 21.852 22.082 22.262 22.422 23.507 26.63 24.935 23.447 23.595 23.63 23.765 23.945 24.137 24.232 24.35 24.427 24.465 24.512 24.58 25.2 25.075 25.325 28.065 28.955 29.407 28.93 28.242 25.71 25.32 25.355 25.422 26.01 25.632 25.632 25.78 26.82 27.692 27.122 25.942 26.015 31.475 32.147 32.22 32.715 33.712 33.665 32.987 31.922 27.95 25.862 25.8 25.732 25.737 25.697 25.72 25.88 29.732 32.442 33.507 34.185 33.915 32.797 30.92 28.347 27.982 26.277 26.005 26.077 26.49 26.322 26.035 26.122 27.68 27.577 25.87 25.902 25.817 25.707 26.415 26.7 26.57 27.56 25.882 25.707 25.61 25.497 25.557 25.472 25.447 25.5 26.797 25.92 25.215 25.205 25.18 25.155 25.11 25.075 25.622 25.447 24.93 24.945 25.212 26.127 25.127 24.67 25.277 25.63 24.495 24.447 27.115 31.267 30.87 31.458 31.97 29.955 25.608 27.228 28.935 24.793 23.873 23.883 23.73 23.528 23.558 23.538 23.515 24.01 23.448 23.758 24.095 23.853 29.22 30.893 28.245 24.355 26.535 31.298 31.725 27.935 25.805 25.62 24.563 22.938 22.948 22.96 22.968 23.303 30.64 30.053 24.315 22.918 22.878 22.778 22.76 22.733 22.685 22.585 22.538 23.053 24.155 23.788 24.128 24.493 25.156 23.885 22.086 22.006 21.966 21.953 21.919 21.857 21.848 22.856 23.872 24.682 25.254 22.967 22.509 21.892 21.514 21.414 21.358 21.372 21.886 23.678 23.04 24.96 27.417 26.746 25.474 23.855 23.364 22.148 21.46 21.123 21.698 23.018 21.075 20.91 20.9 21.175 20.84 20.858 20.748 20.68 20.635 20.805 22.06 24.65 21.043 20.855 21.82 24.433 24.718 24.933 21.403 20.373 20.36 20.29 20.755 21.67 20.373 20.268 24.318 26.985 25.048 23.618 20.548 23.583 20.41 19.93 19.703 19.663 19.64 19.638 19.603 19.558 19.52 19.483 19.423 19.36 19.338 19.258 19.193 19.343 19.498 20.54 19.595 19.198 19.153 19.138 20.785 20.565 20.148 20.025 19.495 19.06 18.985 18.958 18.953 18.92 18.835 19.4 22.338 23.265 23.38 22.81 21.9 19.045 18.745 18.823 18.855 18.858 19.038 19.773 18.848 18.833 18.84 18.853 18.888 18.933 18.913 18.89 18.888 18.798 18.728 18.693 18.608 18.605 18.7 18.745 18.778 18.795 18.76 18.753 18.81 18.798 20.85 22.785 22.703 20.86 19.98 18.703 18.708 18.725 18.768 18.81 18.845 19.013 20.09 19.93 18.665 18.96 19.175 18.58 18.798 18.558 18.568 19.435 19.96 18.83 18.543 19.18 19.208 19.733 18.555 19.58 21.418 19.083 18.385 18.12 18.095 18.063 18.068 18.045 18.03 18.055 18.055 18.045 18.185
0.582 0.602 0.732 0.782 1.37 1.867 0.957 2.47 1.48 2.127 0.777 0.782 0.9 1.575 2.515 2.345 1.807 1.122 1.227 1.212 0.917 0.87 0.825 1.07 1.092 1.14 1.062 1.125 1.322 1.605 1.81 1.927 1.865 1.962 2.27 3.847 5.915 5.482 3.23 4.502 4.427 4.655 6.1 5.405 4.775 5.142 5.75 5.722 7.672 8.755 6.755 6.907 7.585 7.06 9.77 7.355 7.157 7.975 8.04 7.947 8.872 8.46 9.032 8.915 11.18 13.372 11.397 12.24 11.475 11.792 13.615 11.267 11.357 11.54 11.587 11.867 12.092 13.105 14.13 12.792 13.755 13.257 13.62 13.867 15.757 15.017 17.365 15.732 15.062 15.182 15.577 15.79 16.012 16.747 17.027 18.147 25.98 29.105 20.137 17.597 17.65 17.902 18.147 18.385 18.73 19.065 19.222 19.427 19.675 19.935 20.082 20.275 20.45 20.64 22.735 27.075 25.21 24.48 22.825 26.175 22.065 22.295 22.457 24.475 26.277 24.145 23.537 23.795 23.727 23.825 24.007 24.16 24.267 24.347 24.422 24.49 24.557 24.785 26.425 27.082 26.52 28.687 29.322 29.182 28.482 26.6 25.332 25.4 25.417 25.557 25.67 25.677 25.652 25.672 25.785 26.047 26.485 26.2 29.9 32.15 32.177 32.5 33.435 33.657 33.317 33.697 31.95 26.282 25.855 25.8 25.725 25.672 25.722 25.74 25.727 25.787 26.875 31.957 33.245 33.582 32.397 28.422 27.082 28.202 26.265 25.865 25.832 25.897 26.41 26.767 26.115 26.012 25.962 27.272 27.042 26.045 27.345 28.17 26.692 28.922 26.577 25.615 25.6 25.492 25.512 25.502 25.477 25.6 26.44 25.992 25.217 25.24 25.207 25.337 25.165 25.12 25.417 25.392 24.912 25.172 25.527 26.142 25.362 24.885 24.832 25.037 26.417 25.812 25.162 30.777 30.795 31.248 31.265 29.54 25.428 28.898 31.983 32.258 27.075 24.05 24.748 23.72 24.133 24.258 23.495 23.458 23.443 23.625 23.7 23.42 23.41 24.308 27.165 24.985 27.788 31.608 32.33 30.91 30.18 27.085 26.343 25.345 23.243 22.968 22.975 24.53 30.76 31.978 31.975 28.93 23.613 22.86 22.793 22.765 22.71 22.628 22.575 22.51 22.613 23.24 23.403 26.37 26.558 24.432 22.338 22.239 22.038 21.956 21.967 22.063 22.446 22.332 22.065 23.624 25.05 24.011 22.23 22.276 21.881 21.584 21.467 21.383 21.742 23.655 24.322 25.686 24.395 24.999 24.942 22.989 21.978 21.74 21.373 22.085 22.105 21.203 21.368 21.133 20.903 21.08 21.523 21.108 20.855 20.693 20.678 20.705 22.255 24.843 25.62 21.77 20.463 20.535 23.213 23.055 21.135 21.168 20.38 20.385 20.448 20.263 20.765 21.385 20.123 23.723 27.27 24.63 25.733 22.813 20.15 19.908 19.928 19.738 19.655 19.615 19.593 19.598 19.578 19.52 19.463 19.408 19.37 19.488 19.258 19.2 19.123 19.348 20.51 19.528 19.17 19.063 19.07 20.913 20.043 19.745 20.9 19.118 18.988 18.978 18.955 18.93 18.898 18.835 19.87 22.033 22.598 23.115 23.373 22.22 18.768 18.775 18.835 18.875 18.865 18.91 19.243 18.938 18.838 18.823 18.835 18.845 18.883 18.928 18.875 18.855 18.795 18.758 18.713 18.63 18.648 18.745 18.77 18.793 18.775 18.743 18.768 18.815 18.813 21.913 22.983 22.503 20.525 20.183 19.043 18.72 18.733 18.738 18.733 18.785 18.783 18.845 19.903 20.315 18.763 18.555 18.545 18.553 18.59 18.98 20.093 18.88 18.695 18.628 18.713 19.915 21.315 21.57 19.45 18.728 19.423 18.498 18.405 18.065 18.075 18.048 18.05 18.04 18.045 18.055 18.275 18.265
0.65 0.822 0.845 0.642 4.367 3.812 1.825 1.587 0.777 0.837 1.382 1.78 1.207 1.065 1.267 1.435 2.622 1.677 1.11 1.185 0.767 0.79 0.89 1.025 1.217 1.147 1.077 1.2 2.71 1.552 2.155 2.512 2.222 2.01 2.12 3.002 3.267 3.662 5.532 4.932 3.972 5.68 6.212 6.627 6.21 5.387 5.17 5.747 6.45 6.285 6.3 6.565 8.412 6.715 7.405 7.625 8.12 7.915 7.627 8.002 8.192 10.822 8.65 8.852 9.262 9.677 10.032 11.7 11.685 11.225 16.48 11.97 11.442 11.547 11.842 12.1 12.962 13.372 14.43 13.185 14.085 13.332 13.655 13.88 14.25 15.122 15.527 14.827 15.05 15.252 15.495 15.685 16.347 17.522 16.657 18.24 22.255 28.647 20.65 17.575 17.642 17.962 18.21 18.482 18.8 19.112 19.225 19.542 20.052 20.165 20.157 20.317 20.52 20.79 22.082 24.18 26.14 25.502 28.857 26.865 22.905 22.37 22.562 24.662 25.465 24.042 23.552 23.662 23.782 23.895 24.082 24.21 24.332 24.4 24.445 24.52 24.595 24.755 26.092 27.755 28.397 29.087 29.387 28.78 27.575 25.33 25.425 25.442 25.627 27.027 25.705 25.675 25.67 25.68 25.717 25.752 25.847 25.9 26.015 29.862 32.275 33.022 33.797 33.02 32.227 32.817 27.287 25.877 25.837 25.76 25.702 25.922 30.63 27.587 25.972 25.765 25.79 26.78 28.755 31.935 32.945 31.22 26.397 27.49 26.742 25.972 25.865 25.822 26.225 26.955 28.042 27.05 25.985 25.85 27.357 27.125 25.957 26.335 26.74 27.852 27.495 26.1 25.532 25.555 25.55 25.537 25.51 26.445 26.492 25.28 25.285 25.24 25.762 25.587 25.095 25.117 25.142 24.9 24.87 25.567 26.585 25.287 24.895 24.91 25.032 25.6 26.872 24.95 24.397 26.415 31.132 27.778 24.725 25.46 29.888 32.07 32.425 32.36 30.753 28.56 24.74 24.215 23.665 25.605 24.4 23.463 23.473 23.508 24.148 23.435 23.503 23.363 23.425 27.748 31.795 32.64 32.033 32.035 32.198 29.693 25.98 23.63 22.96 22.97 25.913 31.718 31.983 32.033 32.035 31.935 28.805 23.52 22.81 22.725 22.648 22.63 22.6 22.55 22.53 22.593 24.053 24.545 23.615 22.201 22.696 24.53 23.198 22.179 23.001 23.327 23.724 23.753 23.969 25.195 23.034 21.859 21.67 22.232 23.133 21.795 21.431 21.725 23.456 24.151 25.587 27.153 27.673 25.029 23.658 23.776 22.679 21.397 21.423 21.49 21.68 22.285 21.135 20.983 21.235 22.078 21.378 20.883 20.768 20.715 21.25 20.98 25.025 25.573 24.493 20.71 20.498 20.463 21.238 21.868 22.193 22.553 20.935 20.423 20.4 20.205 20.193 20.715 21.19 20.145 24.495 28.675 28 26.913 25.813 23.22 22.393 20.678 20.3 19.638 19.638 23.753 21.775 19.52 19.463 19.428 19.375 19.328 19.263 19.22 19.173 19.088 19.27 19.055 19.048 19.045 20.215 22.088 19.62 19.28 19.413 18.998 18.97 18.975 18.943 18.92 18.895 18.793 18.908 19.375 21.715 22.173 22.415 19.283 18.813 18.828 18.855 18.833 18.833 18.818 19.478 19.328 18.793 18.813 18.825 18.788 18.81 18.87 18.863 18.905 18.83 18.765 18.68 18.648 18.685 18.765 18.833 18.813 18.75 20.865 22.223 21.195 20.54 22.153 23.05 22.27 19.633 18.8 19.54 19.145 18.783 18.8 18.77 18.74 18.74 18.775 18.855 19.385 20.23 19.125 19.455 18.543 19.14 21.898 22.163 18.848 18.905 19.053 18.398 18.975 25.473 27.61 24.045 18.655 18.91 18.698 18.955 18.14 18.065 18.04 18.055 18.05 18.02 18.198 18.788 19.03
0.647 0.605 0.537 1.79 2.637 1.082 0.745 1.99 0.98 1.407 0.715 0.925 1.03 1.465 1.41 1.185 1.867 1.337 0.855 0.86 0.855 0.887 1.08 1.127 1.302 1.207 1.17 1.217 6.105 5.185 1.56 2.322 3.942 2.535 2.607 2.547 3.705 3.515 6.162 3.907 4.605 5.587 5.59 5.017 5.89 6.337 5.532 5.39 5.937 6.485 6.76 6.655 6.59 8.54 10.025 7.94 7.285 7.557 7.625 8.007 9.072 11.28 8.72 9.08 9.36 9.5 10.397 10.962 13.49 10.822 10.935 11.155 11.677 12.342 12.785 12.617 13.677 17.452 16.495 13.622 14.05 13.7 14.63 13.967 14.347 14.772 15.855 15.767 16.297 16.732 15.552 15.8 16.122 16.752 16.357 16.635 18.142 21.155 21.95 17.402 17.717 18.077 18.31 18.56 18.817 19.06 19.262 19.775 20.137 20.277 20.257 20.41 20.617 20.912 21.052 21.525 22.3 22.947 28.525 27.145 27.7 23.387 27.03 28.482 29.475 29.327 23.625 23.727 23.895 23.952 24.105 24.27 24.357 24.417 24.465 24.53 24.62 24.685 25.337 27.832 28.83 29.405 29.042 28.172 26.12 25.355 25.457 25.595 27.552 28.155 27.792 25.957 25.705 25.785 25.782 25.757 25.805 25.91 25.97 26.967 31.455 32.587 33.07 32.51 27.822 26.685 25.882 25.875 25.792 25.707 25.702 32.232 33.64 32.892 30.602 26.52 25.755 25.825 25.87 26.875 30.615 28.545 26.235 26.87 27.022 26.302 26.372 25.937 27.187 27.822 27.637 28.29 28.66 26.56 27.137 28.982 26.02 25.69 26 27.307 26.717 26.08 26.107 25.642 25.705 25.582 25.79 26.567 25.357 25.455 25.34 25.785 25.587 25.135 25.58 25.135 24.965 24.935 25.422 25.547 25.06 24.835 24.832 24.927 26.135 25.34 25.602 24.607 24.367 24.347 26.85 25.485 27.41 26.123 30.178 32.098 31.06 31.763 32.385 32.21 27.438 24.215 23.688 23.95 24.318 23.435 23.4 23.41 23.515 23.32 23.513 23.73 23.548 24.69 31.19 31.71 32.57 32.22 30.633 26.778 23.218 22.993 23.01 24.895 30.68 31.993 32.023 32.01 31.98 31.248 28.165 25.938 22.883 22.685 22.793 24 24.418 23.445 22.553 22.725 23.11 22.39 22.228 22.236 23.322 26.081 24.624 22.113 22.137 23.296 22.981 24.638 25.54 22.722 21.977 21.878 21.994 23.085 24.035 23.795 21.906 23.602 24.105 25.449 27.214 27.887 28.275 27.827 25.559 24.546 24.333 21.606 21.24 21.428 21.703 22.11 22.61 21.28 21.138 21.385 20.893 20.773 20.748 20.795 22.74 21.91 24.233 24.868 22.288 21.043 21.21 21.035 20.433 22.22 22.898 23.258 22.52 20.69 20.395 20.26 20.183 20.158 21.753 21.06 22.075 28.398 27.383 27.263 26.418 26.778 23.73 22.045 23.653 22.56 27.815 31.295 26.875 20.215 19.483 19.448 19.4 19.345 19.303 19.235 19.19 19.145 19.013 19.01 19.028 19.11 19.445 20.62 19.323 19.8 19.24 19.15 18.943 18.928 18.935 18.903 18.95 18.875 18.768 19.563 21.693 21.335 19.695 18.86 18.815 18.88 18.853 18.938 19.098 19.098 18.965 18.888 18.805 18.818 18.825 18.793 18.82 18.86 18.898 18.893 18.823 18.713 18.695 18.693 18.745 18.803 19.368 18.775 18.74 24.038 24.918 24.66 24.38 24.095 22.113 21.288 18.925 18.79 18.91 19.695 19.115 18.838 18.848 18.78 18.725 18.745 18.738 18.863 19.495 20.735 20.678 19.31 19.13 20.508 20.065 18.743 18.863 18.525 18.568 20.49 27.85 28.333 27.198 20.778 18.183 18.378 18.568 18.44 18.118 18.043 18.045 18.078 18.508 18.463 19.185 19.038
2.567 1.152 0.62 0.795 0.74 0.697 1.245 0.67 0.64 0.762 0.712 0.802 0.857 1.112 1.352 2.06 1.455 1.48 0.767 0.802 0.982 0.982 0.982 1.225 1.165 1.275 1.247 1.157 3.77 4.9 2.022 4.457 7.127 7.555 3.705 4.245 3.96 3.51 3.905 4.142 4.69 5.04 4.845 4.947 5.417 5.71 6.205 5.912 7.355 7.495 7.447 6.837 7.432 11.792 9.165 9.837 9.185 8.307 7.72 7.952 9.7 9.677 8.997 8.787 9.1 9.695 9.975 10.825 10.54 10.742 10.862 11.11 11.422 11.695 11.99 12.25 13.102 14.71 15.222 13.475 13.522 14.332 17.367 16.82 16.227 14.8 15.412 18.09 21.662 18.272 15.672 15.882 16.315 16.262 16.352 16.562 16.802 17.332 17.622 21.075 23.857 18.147 18.382 18.652 18.92 19.13 19.297 19.605 20.035 20.19 20.25 20.45 20.742 20.967 21.227 21.347 21.5 21.737 25.142 26.795 29.217 27.902 29.59 28.532 33.24 28.032 24.16 23.81 24.117 24.075 24.15 24.275 24.355 24.42 24.48 24.582 24.627 24.892 27.15 28.597 29.28 29.287 28.602 27.892 27.527 25.89 25.462 26.325 28.062 28.122 27.487 25.842 25.855 25.99 26.07 25.822 25.832 25.905 26 26.05 26.74 28.865 30.865 29.98 26.517 26.022 25.875 25.817 25.742 25.69 26.202 31.092 33.347 33.62 33.247 31.99 28.455 26.88 26.34 25.825 26.272 26.94 26.855 26.265 26.195 26.992 26.407 27.032 27.675 29.02 26.525 27.097 29.14 28.882 26.205 25.717 25.705 25.695 26.152 25.992 25.85 26.025 27.927 29.907 28.902 26.027 26.84 25.395 25.357 25.362 25.485 25.217 25.18 25.56 25.262 24.952 24.952 25.267 25.095 25.077 24.825 25.047 24.925 24.777 24.792 24.705 24.552 24.45 24.527 25.695 26.19 27.433 28.01 25.063 29.025 31.028 30.863 32.113 32.565 30.408 26.395 23.883 23.76 23.993 23.598 23.413 23.388 23.43 23.395 23.328 23.3 23.845 24.885 24.283 26.438 30.325 31.93 32.525 30.268 24.708 23.02 22.993 27.428 31.97 32 32.025 32.023 31.968 30.335 25.935 24.683 22.885 23.168 23.615 25.505 24.673 23.613 23.363 22.683 22.578 22.353 22.305 22.278 22.68 24.268 23.526 23.657 22.383 23.042 23.15 25.007 24.825 22.698 23.402 22.127 21.647 21.704 21.638 23.212 24.182 23.502 22.797 25.099 27.2 27.874 28.29 27.827 27.171 25.197 23.627 23.84 22.538 21.603 22.543 23.123 23.645 24.323 23.608 20.853 20.843 20.85 20.81 21.365 21.008 21.963 23.49 22.293 21.568 22.993 21.948 23.133 23.335 21.753 22.088 23.293 23.9 23.49 21.84 20.69 20.305 20.235 20.163 20.388 21.73 20.883 20.838 25.843 25.47 23.498 25.343 26.568 20.72 25.143 29.183 30.473 31.805 28.225 19.64 19.465 19.453 19.425 19.373 19.31 19.275 19.205 19.115 19.078 19.008 19.015 19.998 19.423 19.02 19.098 22.353 19.128 19.255 22.1 19.28 18.905 18.98 18.955 18.855 18.84 19.075 19.348 19.31 18.995 19.453 19.173 18.745 18.768 18.855 19.765 22.165 21.988 20.64 18.778 18.775 18.773 18.75 18.773 18.82 18.873 18.89 18.758 18.685 18.713 18.725 18.738 18.758 18.77 18.75 18.975 24.965 25.423 25.5 25.425 25.263 21.983 18.735 18.723 18.778 18.785 19.388 20.178 19.85 19.39 18.895 18.795 18.793 18.798 18.808 18.863 19.873 19.923 19.22 18.84 18.41 18.383 18.745 18.868 18.723 18.585 18.755 29.188 28.205 28.645 25.933 20.625 18.305 18.605 19.07 18.383 18.628 18.273 18.518 18.16 19.828 19.65 18.245
1.127 2.445 0.895 0.657 0.695 1.365 1.025 0.72 0.785 1.502 1.5 0.827 0.892 1.417 2.365 1.337 1.85 1.067 0.902 0.86 1.017 1.067 1.2 1.025 1.07 1.2 1.157 1.192 1.247 4.4 2.177 1.862 1.917 2.23 2.392 2.937 3.145 3.61 4.075 4.375 4.522 4.665 4.81 4.92 5.19 6.357 6.445 7.107 9.195 8.427 5.93 6.09 7.107 10.39 12.167 13.19 8.805 8.447 8.702 7.98 8.095 8.55 10.487 8.63 9.02 10.485 10.442 10.532 11.975 10.8 10.907 11.122 11.37 11.615 11.98 13.107 13.007 13.355 15.765 13.78 13.757 14.782 16.192 20.217 17.905 14.777 15.027 16.975 18.597 16.087 15.787 16.225 17.332 16.327 16.31 16.475 16.837 21.325 20.997 28.59 22.71 18.187 18.427 18.675 18.907 19.137 19.397 19.585 19.82 20.022 20.297 20.737 20.805 20.972 21.202 21.325 21.562 21.755 21.917 24.627 28.525 27.965 26.332 27.497 28.76 26.157 23.785 23.872 24.035 24.06 24.205 24.34 24.42 24.467 24.532 24.602 24.68 25.1 27.78 28.955 29.41 28.807 28.205 28.05 28.037 26.9 25.742 26.465 27.152 27.6 26.155 25.755 25.9 25.86 25.902 25.812 25.9 25.977 26.045 26.075 26.065 26.09 27.272 26.502 26.112 25.955 25.867 26.03 26.072 26.977 27.892 25.917 32.545 33.6 34.552 33.262 30.855 26.712 27.815 26.905 25.84 25.877 26 26.06 26.867 26.56 26.585 27.135 28.182 27.597 26.345 26.107 27.282 28.7 25.872 25.7 25.725 26.035 26.637 25.647 25.597 25.597 29.192 31.797 30.515 28.43 26.28 25.607 25.267 25.367 25.232 25.142 25.482 25.242 25.007 24.972 25.01 25.462 24.982 24.92 25.055 25.68 24.887 24.725 24.715 24.715 24.637 24.542 25.412 27.26 26.24 27.065 25.885 28.36 31.07 31.16 31.468 32.315 30.57 25.8 25.323 28.33 26.468 24.043 24.013 23.505 23.39 23.393 23.373 23.358 23.635 24.238 23.783 24.11 23.29 25.875 30.975 29.218 24.323 23.07 23.283 27.735 31.858 32.013 32.005 32.02 31.96 29.4 24.295 24.675 23.418 23.083 23.733 24.123 24.838 25.4 23.34 22.745 23.143 22.485 22.38 22.338 22.225 22.173 24.632 23.676 22.874 22.303 22.921 24.157 24.497 21.982 21.81 23.298 22.037 21.81 21.6 21.663 21.659 23.483 23.206 23.202 25.957 27.853 28.299 27.818 27.18 25.236 22.8 22.294 22.78 23.585 23.248 23.475 24.03 23.34 23.348 22.888 20.898 20.84 20.848 20.858 21.725 21.503 22.765 22.27 23.77 24.783 24.445 23.37 23.793 23.838 23.348 23.52 24.053 24.385 24.023 23.395 22.173 21.565 20.745 20.22 20.163 20.108 21.963 20.293 23.665 25.125 21.443 22.275 23 26.313 26.54 28.253 28.84 28.068 24.848 19.888 19.455 19.448 19.435 19.405 19.353 19.29 19.21 19.203 19.118 19.053 18.975 20.293 20.205 19.213 20.233 22.333 20.995 19.76 19.988 19.013 18.898 18.893 18.893 18.838 18.818 18.758 19.275 20.323 21.113 22.155 21.075 18.713 19.093 18.735 20.078 22.315 22.18 19.918 18.805 18.8 18.765 18.748 18.748 18.718 18.783 18.72 18.73 18.738 18.735 18.75 18.753 18.745 18.743 19.81 20.26 24.225 24.268 24.7 24.95 25.208 20.203 18.77 18.753 18.775 18.785 19.318 19.408 20.888 19.37 18.938 18.915 18.883 18.858 18.788 18.843 18.953 20.525 19.698 18.44 18.39 18.405 18.345 18.39 18.648 18.77 18.768 27.155 27.798 26.818 27.36 26.003 21.95 18.393 19.268 18.935 19.175 18.763 18.278 18.593 18.47 18.28 19.47
1.415 1.06 0.652 0.622 0.61 0.545 0.597 1.007 0.692 0.775 1.227 0.877 2.187 2.835 1.89 1.05 1.085 0.82 1.045 0.897 0.972 1.127 1.18 1.177 1.155 1.36 1.427 1.362 1.432 1.705 2.652 1.882 1.952 2.167 2.58 3.2 3.467 3.862 4.257 4.44 4.597 4.77 4.852 5.502 6.142 8.185 8.08 6.137 8.002 7.962 6.45 6.26 6.322 6.525 9.847 10.95 8.017 7.792 7.957 7.91 8.27 9.702 8.402 10.942 10.312 11.997 11.752 12.18 12.892 11.145 11.582 11.135 11.557 11.767 11.942 13.205 16.47 13.107 13.162 13.6 15.012 16.35 14.882 17.987 17.15 16.565 15.24 15.462 15.765 15.887 15.972 16.157 16.217 16.267 16.377 16.482 17.98 19.032 24.167 22.207 18.047 18.26 18.477 18.727 18.98 19.202 19.425 19.68 19.975 22.842 27.19 22.775 20.937 21.12 21.267 22.387 22.782 21.845 22.022 23.407 29.52 26.385 23.46 26.475 25.687 23.955 23.7 23.847 23.972 24.077 24.187 24.337 24.412 24.505 24.57 24.622 24.707 25.512 27.895 27.302 28.552 28.412 28.055 28.035 27.585 25.64 26.602 26.257 26.33 26.647 26.9 26.46 26.395 26.435 25.877 25.892 25.955 26.027 26.102 26.085 26.08 26.125 26.11 26.09 25.957 25.892 25.842 26.605 26.502 31.587 32.605 31.367 33.21 34.262 33.847 32.94 31.497 26.817 26.23 27.65 26.237 25.935 25.882 25.967 26.327 26.632 27.9 27.757 26.177 26.617 26.182 26.24 26.682 26.57 26.392 26.072 26.307 26.732 25.677 25.565 25.545 26.322 29.587 31.27 30.735 27.312 25.515 25.52 25.42 25.372 25.325 25.655 25.347 25.1 25.07 25.27 25.18 25.125 25.007 25.492 25.587 26.907 24.815 24.772 24.772 24.742 24.637 24.605 26.362 25.952 24.842 24.365 27.575 31.058 30.853 29.083 28.855 30.105 25.045 25.22 29.62 31.268 30.663 26.02 23.86 23.783 23.445 23.35 23.315 23.365 23.353 23.815 23.688 23.218 23.365 23.295 25.663 23.635 23.605 26.618 29.565 31.943 32.005 32.025 31.978 31.993 30.623 24.225 25.128 25.633 24.79 23.985 25.493 25.4 24.39 23.62 22.943 22.77 22.955 22.718 22.475 22.325 22.248 22.22 22.423 22.672 23.049 22.669 24.607 24.515 22.204 21.812 21.829 21.691 21.727 21.684 21.675 21.66 21.946 22.016 23.45 24.368 23.439 27.15 27.838 27.094 24.86 24.043 23.318 22.293 23.265 22.778 23.578 23.693 23.69 23.348 22.578 21.158 20.91 21.098 21.158 21.893 23.493 23.193 22.123 20.825 22.478 23.855 21.8 23.24 23.865 24.193 23.873 24.103 24.33 24.063 24.313 24.238 23.963 23.39 22.008 20.543 21.038 21.898 23.515 22.573 20.07 20.878 21.805 22.265 21.113 25.043 22.83 24.128 21.263 21.148 21.008 19.48 19.428 19.413 19.43 19.408 19.358 19.293 19.253 19.195 19.165 19.08 18.98 19.155 19.205 19.578 21.443 25.515 19.748 23.478 24.985 21.155 18.99 18.868 18.883 18.835 18.853 19.56 21.04 21.885 22.853 22.85 21.685 18.883 18.708 18.728 19.818 20.743 21.448 19.93 18.803 18.8 18.778 18.758 18.75 18.725 18.72 18.725 18.715 18.74 18.755 18.785 18.775 18.76 19.03 19.243 19.16 19.2 20.02 20.658 20.933 22.975 19.198 18.788 18.788 18.768 18.805 18.848 20.298 22.278 21.14 18.868 18.84 18.893 18.85 18.785 18.79 18.838 19.598 20.63 18.835 18.35 18.778 19.158 19.11 18.848 18.605 18.565 21.795 29.1 28.328 28.438 26.97 21.85 18.145 18.143 19.858 19.103 18.913 18.12 18.813 18.428 20.515 24.68
0.712 2.61 0.725 0.612 1.442 0.602 1.27 2.122 0.745 0.877 0.892 1.157 2.67 2.702 2.507 1.042 0.812 0.82 0.827 0.947 0.957 1.135 1.322 1.402 1.45 1.452 1.787 1.567 1.58 2.21 2.315 1.882 2.027 2.335 2.825 3.437 3.78 4.087 4.305 4.43 4.645 4.785 5.205 6.287 6.182 5.702 6.072 6.205 7.14 9.012 7.737 6.597 8.1 7.052 7.415 7.502 7.69 8.525 7.96 8.31 8.545 8.77 8.505 10.705 11.23 13.047 11.432 13.047 14.657 13.93 13.42 11.882 12.49 12.382 12.007 13.887 19.68 16.165 13.412 13.682 16.332 15.957 16.217 16.45 17.435 15.71 15.447 15.645 16.797 19.647 19.01 16.547 16.11 16.237 16.522 16.657 19.515 19.275 18.71 17.907 18.065 18.315 18.565 18.782 19.037 19.217 21.187 21.805 23.277 29.92 31.137 27.35 21.02 21.2 22.335 26.567 25.71 22.202 22.125 22.252 23.17 23.42 25.112 26.12 25.082 24.237 23.935 23.837 23.962 24.06 24.202 24.33 24.41 24.507 24.59 24.635 24.757 25.062 26.412 27.825 27.57 26.925 28.012 27.982 26.152 25.717 27.147 26.55 25.942 25.93 26.005 26.177 26.51 27.387 26.122 25.927 25.99 26.057 26.14 26.162 26.127 26.135 26.125 26.002 25.957 25.905 26.132 26.127 28.6 33.457 33.657 33.255 33.95 34.157 33.13 32.872 32.885 31.972 29.442 29.46 28.18 26.655 26.002 25.915 25.935 27.702 28.002 26.105 26.062 26.052 28.562 29.802 31.605 27.717 26.527 29.36 28.517 26.167 25.597 25.577 25.555 25.807 26.727 28.797 28.112 26.79 25.567 25.535 25.485 25.58 25.587 25.292 25.162 25.127 25.097 25.132 25.127 25.11 25.08 26.885 25.6 25.05 24.835 24.782 24.715 24.665 24.66 25.44 25.962 26.415 24.865 24.36 26.535 30.395 28.673 26.505 26.335 24.5 25.698 30.29 31.153 30.815 31.563 30.805 26.313 23.78 24.02 23.408 23.325 23.318 23.298 23.308 23.6 24.108 23.555 23.515 23.05 23.033 24.835 30.653 31.965 31.993 32.015 32.003 31.968 28.933 24.525 26.418 26.158 25.853 25.613 25.855 26.345 26.133 25.205 23.523 23.155 22.833 22.785 22.645 22.4 22.315 22.268 22.23 22.14 22.21 23.006 25.232 23.558 22.557 22.37 21.814 21.781 21.828 21.725 21.668 21.592 21.699 22.336 24.156 24.687 22.798 24.106 23.911 25.93 24.056 21.879 22.825 21.643 21.303 21.495 21.408 22.505 23.715 23.383 22.77 21.34 20.943 20.978 22.385 21.278 21.49 23.218 24.513 24.323 22.065 21.653 22.193 21.848 22.188 23.373 23.995 24.353 24.325 23.845 23.5 24.013 24.6 24.538 23.933 23.31 21.78 22.17 21.555 23.258 22.925 20.908 19.923 21.045 25.278 20.84 21.523 22.13 20.465 21.358 21.193 19.905 19.6 19.458 19.413 19.413 19.393 19.373 19.31 19.263 19.238 19.175 19.075 19.023 18.928 18.89 18.908 21.283 23.778 23.815 21.878 24.445 19.663 19.765 19.225 18.883 18.873 18.873 19.64 20.378 21.613 22.975 23.2 22.125 21.44 19.513 18.748 18.778 18.78 18.785 18.768 18.813 18.863 19.905 19.235 18.77 18.745 18.753 18.718 18.755 18.77 18.785 18.788 18.763 18.773 19.548 20.398 19.445 20.103 18.958 18.793 18.765 18.775 18.803 18.83 18.828 18.853 19.253 21.073 22.475 23.23 23.323 20.853 19.003 18.853 18.795 18.785 18.77 18.78 18.81 20.23 19.268 18.905 18.835 18.35 18.318 18.29 18.28 18.265 18.255 22.788 28.343 28.013 26.403 21.86 18.14 18.108 18.528 18.985 19.203 18.435 18.073 22.24 24.803 26.165
0.612 0.895 0.815 0.63 0.857 0.58 1.135 0.842 0.562 0.9 0.91 1.067 1.182 1.325 1.077 0.81 0.712 0.902 0.92 0.987 1.055 1.092 1.165 1.23 1.475 1.515 1.62 1.647 1.625 1.907 1.83 1.882 2.17 2.672 3.145 3.56 3.955 4.157 4.347 4.467 4.675 4.972 5.3 5.6 5.537 5.817 6.665 6.135 6.432 7.182 7.052 7.255 10.152 8.985 6.975 7.375 7.502 7.5 7.882 8.265 8.955 10.147 9.252 8.94 11.21 11.322 12.93 15.01 14.822 14.015 13.185 11.48 11.595 11.912 12.442 13.467 14.18 13.402 13.495 13.805 14.097 14.32 15.462 16.455 16.832 15.29 15.965 15.712 17.04 18.132 17.602 16.235 16.25 16.372 16.532 16.762 20.16 17.562 17.73 17.745 18.472 18.607 18.667 18.955 23.832 22.547 28.51 25.085 22.39 30.247 31.3 27.66 22.147 21.33 21.49 23.172 24.682 24.465 22.332 22.39 22.465 25.162 29.69 29.625 25.302 23.655 24.035 23.93 23.937 24.052 24.172 24.302 24.395 24.517 24.622 24.687 24.777 24.915 24.987 25.652 25.98 25.275 25.39 26.997 27.437 27.237 26.43 27.525 25.96 26.005 26.012 26.14 27.282 26.957 26.685 26.117 26.04 26.115 26.132 26.212 26.292 27.372 26.315 25.975 25.972 25.987 27.045 27.895 26.53 29.212 33.075 33.67 34.247 33.455 32.877 32.357 32.667 32.76 30.9 28.96 27.812 27.61 26.137 25.855 25.917 30.377 28.505 26.525 26.395 28.375 32.042 32.235 32.54 31.247 28.27 27.957 26.345 25.737 25.6 25.6 25.582 25.552 25.735 27.447 26.112 25.585 26.467 26.087 25.615 25.605 25.5 25.222 25.152 25.525 25.215 25.162 25.147 25.157 26.077 26.297 25.147 24.89 24.905 24.737 24.672 24.612 25.012 24.875 25.407 25.26 24.627 24.368 24.37 25.808 26.58 26.345 24.278 24.205 26.455 31.238 30.523 30.373 31.178 30.25 27.643 25.558 23.95 23.653 23.375 23.26 23.265 23.338 23.315 23.498 23.07 23.343 23.013 23.048 27.708 31.988 31.98 32.013 31.985 31.948 27.895 25.475 26.918 26.763 26.453 26.03 25.9 26.395 26.395 26.005 25.033 24.64 23.925 22.775 22.73 22.545 22.4 22.315 22.248 22.215 22.188 24.2 25.7 23.116 22.463 23.146 23.306 22.337 21.744 21.742 21.758 21.676 21.581 21.599 24.146 24.936 24.979 22.906 23.886 24.03 22.99 21.388 22.03 21.37 21.266 21.303 21.308 21.303 21.273 22.463 22.633 21.158 20.995 21.008 21.518 20.943 21.208 22.988 23.42 23.525 24.478 23.785 23.64 23.485 21.858 21.808 22.888 24.255 24.258 23.76 23.03 21.94 23.44 24.065 24.663 24.5 23.853 23.003 21.225 20.868 21.81 21.7 20.203 19.945 19.913 19.848 20.243 19.94 21.773 21.51 20.175 19.768 19.658 19.593 19.465 19.403 19.388 19.39 19.365 19.338 19.313 19.258 19.2 19.133 19.055 18.953 18.895 18.925 21.263 26.7 25.938 21.655 23.255 21.948 24.448 21.69 19.108 18.863 18.908 18.883 18.758 19.253 22.45 23.263 22.81 22.978 22.305 18.86 18.785 18.798 18.77 18.788 18.82 18.815 20.078 19.42 18.965 18.775 18.855 18.753 18.765 18.743 18.788 18.83 18.785 18.805 19.693 19.538 18.755 18.928 18.773 18.805 18.823 18.86 18.96 19.638 19.058 18.885 20.935 22.575 23.253 23.25 22.543 21.533 19.02 18.79 18.748 18.77 18.763 18.785 18.78 18.855 20.363 19.135 18.965 18.3 18.295 18.263 18.238 18.255 18.245 18.205 19.013 22.6 22.668 19.458 18.93 18.195 18.07 18.86 19.845 19.22 18.243 19.31 24.81 26.553
1.17 0.635 0.48 0.522 0.66 0.577 0.82 0.635 0.652 0.95 2.422 1.285 0.845 0.862 0.892 0.87 0.887 0.912 1.042 1.25 1.18 1.1 1.125 1.217 1.33 1.527 1.565 1.647 1.8 1.97 1.842 2.017 2.322 2.812 3.382 3.745 3.93 4.6 6.42 5.81 4.78 5.937 6.127 5.88 5.547 6.73 6.332 6.6 8.352 8.522 6.87 6.887 7.6 7.225 8.615 8.102 8.122 7.822 7.825 8.047 8.375 8.9 9.247 11.187 15.317 14.387 16.66 14.715 14.66 14.292 14.515 15.69 11.9 12.845 15.12 15.832 13.012 13.215 13.522 13.792 13.997 14.295 18.98 15.305 16.89 15.487 16.27 16.032 16.137 26.08 19.217 16.49 16.222 16.532 16.725 16.902 17.237 19.122 18.807 18.715 19.565 20.66 20.555 28.297 32.46 32.287 25.23 20.732 27.565 30.832 27.297 24.465 22.21 21.55 21.575 21.76 22.952 24.935 23.687 22.822 22.765 25.542 28.747 28.3 24.33 23.575 24.52 24.465 24.677 24.122 24.267 24.302 24.455 24.595 24.655 24.747 24.812 24.947 25.04 25.087 25.14 25.217 25.317 26.957 27.607 27.062 26.212 27.262 26.08 26.002 26.105 26.73 28.592 28.42 27.755 26.935 26.242 26.132 26.18 26.222 26.662 28.252 26.232 25.975 25.917 26.18 28.34 32.24 30.99 28.235 28.622 32.12 33.387 32.675 32.737 33.325 32.625 31.827 29.647 28.247 26.322 27.065 27.332 25.947 25.88 26.747 26.395 26.875 28.492 32.515 32.91 32.845 32.067 28.987 28.28 29.142 27.832 26.23 25.612 25.597 25.58 25.62 26.487 27.437 25.62 26.322 27.957 26.067 26.157 25.385 25.472 25.212 25.547 25.522 25.185 25.185 27.377 27.812 25.185 25.072 26.042 25.595 25.602 24.715 25.647 25.787 27.78 25.462 25.402 24.682 24.482 24.803 24.385 24.335 25.718 25.748 26.415 25.413 29.035 29.928 30.815 31.105 30.418 26.83 25.048 25.778 24.968 23.715 24.24 23.74 23.918 23.26 23.303 23.215 23.12 23.013 23.023 23.003 23.038 29.46 32.04 31.998 31.958 31.933 30.52 30.92 30.533 27.023 26.558 26.03 26.4 26.338 25.908 24.935 22.923 23.57 23.47 22.783 22.663 22.545 22.42 22.32 22.258 22.573 25.38 26.003 22.89 21.891 22.202 22.666 23.016 23.971 22.102 21.756 21.744 21.635 21.894 22.341 24.998 24.941 24.161 21.706 22.746 23.116 21.361 21.785 21.629 21.394 21.253 21.275 21.253 21.268 21.22 21.208 21.078 21.048 21.003 20.965 20.945 21.508 23.415 23.515 22.863 21.338 21.98 22.13 23.528 23.703 23.125 22.363 21.298 20.895 23.69 22.893 20.818 20.565 21.74 23.513 24.163 24.665 24.39 23.785 23.04 22.548 21.935 20.535 20.075 19.963 19.87 19.83 19.823 21.515 21.19 22.558 20.63 20.388 19.6 19.723 19.41 19.41 19.388 19.38 19.363 19.34 19.335 19.285 19.208 19.145 19.088 19 18.898 18.855 20.128 23.833 24.213 23.34 24.69 22.37 22.885 23.145 20.413 19.753 18.885 18.908 18.858 18.785 22.068 23.163 23.18 22.943 22.64 19.383 18.798 18.803 18.788 18.83 18.92 18.758 18.755 19.465 18.983 18.803 19.495 18.875 18.778 18.778 18.808 18.83 18.835 18.848 19.19 18.88 18.853 18.855 18.865 18.903 18.92 18.938 19.76 20.473 20.795 21.415 22.665 23.348 23.243 22.49 21.27 19.13 18.755 18.77 18.778 18.778 18.758 18.773 18.773 18.765 20.338 19.105 18.413 18.308 18.265 18.263 18.283 18.203 18.195 18.173 18.13 18.663 19.993 19.523 19.74 19.9 18.185 18.098 19.263 19.3 19.05 18.163 19.778 25.215
0.535 0.525 0.742 0.655 0.77 0.72 0.797 0.872 3.082 0.99 0.915 0.872 0.772 0.792 0.93 0.895 0.937 1.007 1.005 1.217 1.177 1.035 1.207 1.29 1.317 1.45 1.535 1.692 1.7 1.777 1.93 2.16 2.602 3.092 3.572 3.827 3.93 5.465 6.43 4.795 6.282 7.212 6.265 6.1 6.08 5.917 5.925 8.355 8.91 8.095 6.68 6.682 7.675 7.345 8.557 8.985 7.965 8.122 8.945 8.365 8.705 8.632 9.1 9.337 10.41 10.26 12.372 11.872 11.372 13.212 12.22 13.257 12.107 12.67 14.185 16.53 14.295 13.282 13.557 13.855 14.035 14.872 15.32 17.892 17.005 16.452 16.427 16.43 16.337 18.975 16.407 16.355 16.362 16.667 16.845 17.585 17.367 19.157 19.997 21.047 21.057 20.695 23.5 31.452 31.94 28.085 22.572 21.69 28.157 24.635 23.012 22.48 21.532 21.617 22.025 21.797 22.02 22.31 22.602 22.942 22.93 24.56 27.025 26.352 23.487 23.597 24.307 24.012 24.017 25.382 25.097 24.57 24.577 24.697 24.815 24.837 24.887 24.957 25.022 25.1 25.2 25.295 25.385 26.027 26.635 26.312 25.892 26.095 25.847 26 26.2 26.365 27.085 28.57 31.865 30.837 27.632 26.837 26.837 26.425 27.47 26.777 25.987 25.962 25.905 26.625 30.627 32.522 32.835 31.997 28.78 27.155 29.672 28.392 27.84 32.355 32.46 29.815 28.38 26.24 25.972 26.252 27.167 26.472 25.835 25.872 25.907 25.97 31.877 32.422 32.672 32.032 27.787 29.16 30.057 29.045 27.165 25.852 26.462 26.29 26.12 26.362 26.487 28.17 26.542 26.7 26.592 25.417 25.395 25.407 25.415 25.51 26.5 26.022 25.205 25.197 25.897 26.342 26.045 25.205 25.597 25.372 25.285 25.117 24.827 24.8 25.507 24.665 24.65 24.885 24.535 26.173 25.67 25.568 25.863 26.43 27.023 28.36 29.52 29.638 30.308 30.315 26.093 25.435 26.318 30.198 29.933 25.265 25.145 23.748 23.59 23.243 23.238 23.25 23.17 23.13 22.985 22.995 23.015 24.38 29.343 31.94 31.983 31.72 31.245 32.283 31.068 29.898 26.913 26.44 26.308 25.935 24.998 23.033 24.175 23.983 22.978 22.988 22.925 22.64 22.435 22.34 22.475 24.83 25.555 22.793 21.88 21.845 21.828 22.041 22.565 27.147 23.101 21.716 21.753 22.766 25.085 24.71 24.237 23.97 23.961 22.102 21.807 21.851 22.395 21.662 22 21.323 21.283 21.26 21.265 21.838 21.19 21.155 21.108 21.055 21.39 21.495 20.988 21.95 23.56 23.383 21.5 20.72 20.783 20.683 21.25 23.335 24.145 22.533 22.453 21.703 21.178 20.613 20.385 20.375 20.408 22.485 23.628 24.225 24.695 24.333 23.66 22.078 21.625 20.31 20.853 20.01 19.935 19.823 19.788 23.528 23.385 21.068 22.915 21.418 20.095 21.305 19.405 19.398 19.385 19.363 19.35 19.343 19.318 19.27 19.235 19.143 19.098 19.008 18.923 18.858 18.825 19.278 21.138 26.47 29.21 27.16 25.415 27.515 25.168 22.805 18.89 18.893 18.878 18.78 21.085 22.36 22.075 21.675 20.61 19.633 19.095 20.14 18.823 18.8 18.813 18.745 20.57 19.693 18.95 18.808 18.828 18.845 18.845 18.835 18.858 18.883 18.898 18.95 20.23 18.943 18.925 18.945 18.94 18.933 18.955 19.228 19.578 19.43 21.658 22.625 23.338 23.148 22.395 20.978 19.098 18.825 18.783 18.77 18.793 18.793 18.793 18.78 18.71 18.715 19.068 20.255 18.598 18.355 19.138 18.328 18.308 18.185 18.158 18.158 18.155 18.14 18.238 18.108 18.865 19.32 19.215 18.318 18.18 19.453 19.695 19.065 18.258 21.568
