ncols 472
nrows 29
xllcorner    464004
yllcorner    89052
cellsize     2
NODATA_value -9999
-1.02 -0.917 -0.848 -0.97 -0.985 -1.029 -0.998 -0.938 -0.915 -0.865 -0.85 -0.855 -0.873 -0.855 -0.876 -0.864 -0.878 -0.898 -0.949 -0.974 -1.005 -1.009 -1.053 -1.03 -1.054 -1.051 -0.915 -1.154 -1.157 -1.165 -1.146 -1.193 -1.189 -1.139 -1.099 -1.072 -1.059 -1.005 -1.024 -0.981 -1.001 -1.015 -0.962 -0.918 -0.932 -0.937 -0.942 -0.947 -0.993 -0.999 -0.96 -0.927 -0.852 -0.831 -0.857 -0.821 -0.842 -0.862 -0.892 -0.899 -0.881 -0.899 -0.892 -0.904 -0.929 -0.995 -1.043 -1.066 -0.936 -0.891 -0.975 -1.276 -1.168 -1.205 -1.172 -1.187 -1.185 -1.119 -1.124 -1.099 -1.037 -1.04 -1.027 -1.041 -1.048 -0.96 -0.992 -1.004 -0.991 -0.992 -0.971 -0.955 -0.903 -0.934 -0.952 -0.942 -0.888 -0.982 -0.938 -0.908 -0.904 -0.9 -0.879 -0.853 -0.894 -0.72 -0.712 -1.007 -1.028 -1.079 -1.142 -1.144 -1.156 -1.182 -1.011 -1.209 -1.136 -1.003 -1.173 -0.974 -1.221 -1.241 -1.227 -1.245 -1.225 -1.213 -1.232 -1.271 -1.22 -1.204 -1.186 -1.18 -1.205 -1.198 -1.188 -1.196 -1.176 -1.194 -1.189 -0.957 -0.918 -1.139 -1.133 -1.179 -1.114 -1.119 -1.109 -1.09 -0.935 -0.915 -1.085 -0.922 -1.091 -1.084 -1.05 -1.118 -1.09 -1.111 -1.061 -1.015 -0.826 -1.041 -1.044 -1.05 -1.056 -1.041 -1.036 -1.045 -1.098 -1.053 -1.035 -1.107 -1.072 -1.104 -1.103 -1.116 -1.135 -1.132 -1.108 -1.114 -1.125 -1.161 -1.129 -1.147 -1.174 -1.178 -1.147 -1.186 -1.189 -1.273 -1.335 -1.317 -1.373 -1.353 -1.434 -1.177 -1.455 -1.431 -1.473 -1.505 -1.504 -1.515 -1.607 -1.609 -1.596 -1.639 -1.619 -1.647 -1.62 -1.644 -1.664 -1.676 -1.398 -1.501 -1.446 -1.465 -1.722 -1.719 -1.773 -1.772 -1.792 -1.827 -1.822 -1.589 -1.504 -1.572 -1.845 -1.871 -1.882 -1.865 -1.849 -1.856 -1.778 -1.81 -1.798 -1.626 -1.591 -1.642 -1.623 -1.88 -1.882 -1.902 -1.694 -1.67 -1.647 -1.7 -1.975 -1.985 -1.709 -1.77 -1.695 -2.027 -1.732 -1.604 -1.697 -1.65 -2.001 -1.942 -2.019 -9999 -9999 1.891 -9999 -1.695 -1.726 -1.725 -1.931 -2.058 -1.925 -1.97 -9999 -9999 -9999 -1.576 -9999 -1.553 -1.543 -1.543 -9999 -9999 -9999 -9999 -9999 -9999 -9999 -9999 -9999 -9999 -9999 -9999 -9999 -9999 -1.514 -1.512 -1.512 -1.508 -9999 -9999 -9999 -9999 -1.61 -1.626 -1.631 -1.612 -9999 2.111 -1.307 -1.535 -1.527 -1.536 -1.558 -1.565 -1.563 -9999 -9999 -9999 -9999 1.989 -1.396 -1.633 -1.633 -1.633 -9999 -9999 -9999 -9999 -1.701 -1.712 -1.718 -1.707 -1.69 -1.444 -1.426 -1.442 -1.694 -1.664 -1.633 -1.623 -1.617 -1.695 -1.797 -1.729 -1.752 -1.88 -1.891 -1.961 -2.006 -1.774 -2.072 -2.043 -2.091 -2.013 -9999 -2.049 -9999 2.331 -9999 -9999 -9999 -1.599 -1.612 -1.379 -9999 -9999 -9999 -9999 -1.637 -1.64 -1.65 -1.385 -1.349 -1.548 -1.533 -1.547 -1.574 -1.561 -9999 -9999 -9999 -9999 -9999 -9999 -9999 -9999 -9999 -9999 -9999 1.951 1.984 -9999 -9999 -9999 1.919 2.006 2.034 2.014 2.089 2.094 2.029 -9999 -9999 -9999 -1.447 -1.715 -1.697 -1.655 -1.423 2.046 -1.468 -1.507 -1.755 -1.72 -9999 -9999 2.056 2.074 2.091 -1.54 -1.513 -1.259 -1.173 -1.005 -0.826 -0.909 2.059 1.839 1.804 1.889 2.056 -9999 2.051 2.026 -1.037 -1.046 -1.233 -1.326 2.055 2.048 2.071 -9999 -9999 -1.653 -1.656 -1.418 -1.418 -9999 -9999 -9999 2.035 1.961 -9999 -9999 1.791 1.996 2.054 -9999 -9999 1.861 1.781 1.806 -1.386 -1.385 -1.385 2.091 2.184 -1.332 -1.328 -1.221 2.131 2.096 -9999 2.109
-1.041 -0.962 -0.895 -0.951 -1.045 -0.996 -1.007 -0.987 -0.926 -0.864 -0.823 -0.834 -0.841 -0.826 -0.843 -0.865 -0.866 -0.854 -0.891 -0.953 -0.974 -1.01 -1.009 -1.057 -1.051 -1.126 -1.163 -1.131 -1.086 -1.171 -1.171 -1.162 -1.104 -1.108 -1.096 -1.037 -1.053 -0.997 -0.968 -0.933 -0.958 -0.945 -0.936 -0.893 -0.886 -0.877 -0.87 -0.911 -0.934 -0.949 -0.905 -0.907 -0.895 -0.795 -0.786 -0.755 -0.781 -0.797 -0.758 -0.795 -0.836 -0.84 -0.8 -0.871 -0.875 -0.94 -0.968 -1.018 -0.904 -0.965 -1.201 -1.216 -1.193 -1.191 -1.158 -1.145 -1.163 -1.155 -1.183 -0.909 -1.037 -1.028 -1.08 -1.068 -0.855 -1.009 -0.991 -1.022 -0.971 -0.913 -0.969 -0.941 -0.942 -0.908 -0.956 -0.897 -0.92 -0.916 -0.9 -0.877 -0.897 -0.91 -0.847 -0.846 -0.858 -0.83 -0.877 -0.925 -1.054 -1.138 -1.129 -1.171 -1.191 -1.226 -1.134 -1.191 -1.169 -1.208 -1.227 -1.195 -1.257 -1.275 -1.248 -1.258 -1.203 -1.194 -1.258 -1.227 -1.227 -1.189 -1.224 -1.206 -1.201 -1.217 -1.19 -1.177 -1.123 -1.199 -0.957 -0.982 -1.147 -1.151 -1.102 -1.143 -1.144 -1.125 -1.12 -1.067 -1.114 -1.102 -1.123 -1.123 -1.101 -1.118 -1.115 -1.071 -1.066 -1.097 -1.059 -1.068 -0.835 -1.097 -1.046 -1.035 -1.057 -1.074 -1.058 -1.057 -1.035 -1.089 -1.078 -1.072 -1.098 -1.135 -1.114 -1.163 -1.085 -1.126 -1.137 -1.13 -1.154 -1.18 -1.101 -1.131 -1.127 -1.143 -1.148 -1.152 -1.221 -1.197 -1.277 -1.313 -1.346 -1.422 -1.198 -1.069 -1.223 -1.413 -1.484 -1.487 -1.536 -1.589 -1.546 -1.595 -1.622 -1.544 -1.674 -1.649 -1.635 -1.637 -1.599 -1.676 -1.698 -1.732 -1.686 -1.768 -1.734 -1.74 -1.75 -1.8 -1.837 -1.846 -1.818 -1.84 -1.604 -1.587 -1.936 -1.881 -1.946 -1.614 -1.632 -1.728 -1.763 -1.771 -1.727 -1.592 -1.865 -1.837 -1.598 -1.671 -1.902 -1.875 -1.644 -1.927 -1.937 -1.916 -1.934 -1.97 -1.959 -1.685 -1.928 -2 -1.631 -1.606 -1.68 -1.661 -1.986 -1.981 -2.009 -1.995 -1.75 -9999 -1.643 -1.454 -1.761 -1.75 -1.713 -9999 -9999 -9999 -9999 -9999 -1.592 -1.589 -1.58 -1.553 -1.532 -1.535 -9999 -9999 -9999 -9999 -9999 -9999 -9999 -9999 -9999 -9999 -9999 -9999 -9999 -9999 -1.513 -1.511 -1.51 -1.505 -1.494 -1.494 -1.508 -9999 -9999 -1.375 -1.62 2.061 2.055 -1.228 -1.226 -1.318 -1.543 -1.546 -1.321 -1.321 -1.55 -9999 -9999 -9999 -9999 -9999 -9999 -1.637 -1.636 -9999 -9999 2.168 -9999 -9999 -1.7 -1.748 -1.514 -1.728 -9999 -1.446 -1.435 -1.475 -1.735 -1.687 -1.663 -1.657 -1.654 -1.717 -1.791 -1.803 -1.69 -1.777 -1.861 -1.963 -1.751 -1.744 -1.72 -1.716 -1.683 -1.655 -1.643 -9999 -9999 2.185 -9999 -9999 -9999 -9999 -9999 1.901 -9999 -9999 -9999 -9999 -9999 -1.635 -1.645 -1.633 2.174 -1.547 -1.511 -1.499 -1.537 2.011 -9999 -9999 -9999 -9999 -9999 -9999 -9999 1.831 1.899 1.929 2.029 2.011 2.079 -9999 -9999 -9999 -1.405 -1.154 -1.379 -9999 -9999 2.091 -9999 -9999 -9999 -9999 1.981 -1.681 -1.664 -1.655 -1.422 2.054 -1.233 -1.505 -1.756 -1.726 -9999 -1.665 -1.43 -1.175 -1.284 -1.317 -1.51 -1.254 -1.004 -0.815 -0.673 1.939 1.946 1.959 1.941 2.019 2.061 2.031 2.106 2.191 -1.075 -1.029 -1.041 -1.087 2.004 2.031 2.114 -9999 -9999 -1.416 -1.421 -1.331 -1.43 -1.658 -9999 -9999 2.081 2.079 1.939 1.946 2.079 1.994 1.914 1.971 1.941 1.906 1.921 1.976 -1.276 -1.38 -1.61 -9999 2.211 -1.579 -1.566 -1.32 -1.586 -9999 -9999 -9999
-1.062 -0.984 -0.923 -0.947 -1.056 -1.001 -1.034 -0.957 -0.944 -0.826 -0.826 -0.826 -0.837 -0.853 -0.884 -0.86 -0.859 -0.868 -0.903 -0.957 -1 -1.011 -1.022 -1.056 -1.081 -1.138 -1.108 -1.146 -1.124 -1.114 -1.169 -1.18 -1.121 -1.063 -1.078 -0.889 -0.987 -0.978 -0.965 -0.909 -0.922 -0.879 -0.874 -0.887 -0.857 -0.832 -0.817 -0.841 -0.886 -0.897 -0.906 -0.904 -0.805 -0.75 -0.74 -0.727 -0.688 -0.715 -0.68 -0.72 -0.745 -0.741 -0.757 -0.817 -0.839 -0.859 -0.926 -0.961 -1.02 -1.131 -1.148 -1.154 -1.15 -1.179 -1.183 -1.163 -1.13 -1.132 -1.091 -1.133 -1.045 -1.05 -1.038 -1.015 -0.819 -1.007 -0.958 -0.813 -0.989 -0.956 -0.987 -0.964 -0.963 -0.904 -0.866 -0.972 -0.929 -0.891 -0.905 -0.96 -0.847 -0.883 -0.881 -0.917 -0.806 -0.842 -0.869 -0.972 -1 -1.101 -1.086 -1.155 -1.183 -1.133 -1.17 -1.182 -1.178 -1.235 -1.161 -1.203 -1.192 -1.213 -1.182 -1.245 -1.169 -1.185 -1.22 -1.218 -1.228 -1.21 -1.211 -1.197 -1.164 -1.17 -1.161 -1.176 -1.184 -0.929 -0.952 -1.193 -1.183 -1.125 -1.119 -1.11 -1.105 -1.107 -1.104 -1.099 -1.096 -1.053 -1.06 -1.053 -1.08 -1.071 -1.089 -1.074 -1.104 -1.077 -1.082 -1.062 -1.03 -1.074 -1.076 -1.063 -1.075 -1.078 -0.879 -1.068 -1.072 -1.093 -1.074 -1.067 -1.09 -1.079 -1.069 -1.124 -1.137 -1.123 -1.082 -1.17 -1.138 -1.133 -1.164 -1.126 -1.117 -1.165 -1.174 -1.161 -1.214 -1.186 -1.252 -1.315 -1.132 -1.154 -1.128 -1.132 -1.193 -1.472 -1.444 -1.54 -1.552 -1.606 -1.559 -1.626 -1.624 -1.303 -1.64 -1.634 -1.643 -1.609 -1.655 -1.705 -1.699 -1.7 -1.688 -1.719 -1.721 -1.809 -1.782 -1.775 -1.821 -1.816 -1.787 -1.852 -1.855 -1.841 -1.857 -1.625 -1.633 -1.62 -1.608 -1.692 -1.728 -1.711 -1.701 -1.589 -1.873 -1.853 -1.866 -1.593 -1.908 -1.901 -1.64 -1.646 -1.915 -1.888 -1.929 -1.937 -1.904 -1.963 -1.943 -1.915 -1.955 -1.754 -1.957 -1.969 -1.991 -1.694 -1.717 -2.011 -1.93 -1.65 -1.634 -1.653 -1.727 -1.74 -1.968 -1.931 -9999 -9999 -9999 -1.587 -1.593 -1.6 -1.591 -1.555 -1.528 -1.533 -9999 -9999 -9999 1.971 2.049 -9999 -9999 -9999 -9999 -9999 1.866 1.789 1.806 1.918 1.896 -9999 -9999 1.801 -1.271 -1.481 -1.497 2.011 2.076 1.956 2.066 2.114 2.011 -1.1 -1.243 -1.347 -1.326 -1.321 -1.222 -1.318 -9999 -9999 -9999 -9999 -9999 -9999 -9999 -9999 -9999 -9999 -9999 -9999 2.141 2.225 -1.427 -1.727 -1.745 -1.466 -1.447 -1.439 -1.659 -1.693 -1.677 -1.651 -1.655 -2.091 -2.017 -2.049 -1.78 -1.814 -1.784 -2.032 -2.073 -1.789 -1.653 -1.642 -1.644 -1.637 -1.678 -1.672 -1.258 -2.127 -2.141 -1.924 -9999 -9999 2.231 2.126 2.021 -9999 -9999 -9999 -2.186 2.101 -9999 -9999 -1.636 -1.38 -1.357 -1.538 -1.509 -1.497 -1.513 1.971 1.896 2.014 2.179 2.064 2.001 2.066 1.879 1.904 2.039 1.994 2.069 2.124 2.116 -9999 -9999 -9999 -1.404 -1.299 -1.38 -9999 -1.593 -1.348 2.129 -9999 -9999 -9999 1.956 1.969 1.969 2.101 2.121 2.106 2.049 1.981 2.056 -9999 -1.655 -1.406 -1.331 -1.154 -1.103 -1.236 -1.316 -1.2 -0.949 -0.728 -0.516 2.104 1.944 2.029 2.039 1.984 2.019 2.046 2.069 -1.297 -1.311 -1.222 -1.028 -0.843 2.061 2.044 2.104 2.091 -1.431 -1.332 1.931 -1.131 -1.316 -1.426 -1.657 -9999 2.066 1.936 2.016 2.091 2.146 2.021 2.014 2.039 1.901 2.186 2.144 2.056 -1.375 -1.614 -1.604 -9999 -9999 -1.578 -1.561 -1.32 -1.582 -1.609 -1.637 -9999
-1.054 -1.021 -0.975 -1.006 -1.05 -1 -0.94 -0.908 -0.981 -0.913 -0.896 -0.874 -0.863 -0.887 -0.909 -0.899 -0.897 -0.878 -0.913 -0.964 -0.97 -0.973 -1.019 -1.014 -1.07 -1.121 -1.114 -1.212 -1.126 -1.138 -1.091 -1.165 -1.085 -1.061 -1.068 -0.967 -0.972 -0.936 -0.892 -0.886 -0.838 -0.793 -0.766 -0.76 -0.777 -0.779 -0.792 -0.8 -0.816 -0.859 -0.844 -0.825 -0.751 -0.695 -0.685 -0.642 -0.668 -0.654 -0.651 -0.655 -0.689 -0.689 -0.615 -0.649 -0.668 -0.673 -0.879 -0.952 -0.975 -1.018 -1.06 -1.097 -1.153 -1.175 -1.176 -1.179 -1.131 -1.118 -1.108 -1.114 -1.066 -1.089 -1.056 -1.018 -1.058 -1.011 -1.011 -0.977 -1.043 -0.999 -0.962 -0.924 -0.937 -0.922 -0.893 -0.878 -0.936 -0.937 -0.914 -0.886 -0.845 -0.921 -0.911 -0.878 -0.885 -0.877 -0.855 -0.985 -1.056 -1.089 -1.109 -1.171 -1.15 -1.185 -1.197 -1.137 -1.136 -1.177 -1.199 -1.222 -1.242 -1.171 -1.226 -1.2 -1.203 -1.218 -1.195 -1.208 -1.203 -1.24 -1.215 -1.232 -1.208 -1.18 -1.16 -1.141 -1.149 -1.131 -1.141 -1.144 -1.175 -1.134 -1.106 -1.149 -1.121 -1.102 -1.085 -1.091 -1.098 -1.096 -1.033 -1.065 -1.035 -1.089 -1.066 -1.084 -1.104 -1.091 -1.068 -1.088 -1.041 -1.03 -1.091 -1.085 -1.078 -0.891 -1.044 -1.071 -1.047 -1.1 -1.033 -1.026 -1.05 -1.108 -1.054 -1.085 -1.099 -1.142 -1.119 -1.181 -1.125 -1.116 -1.165 -1.151 -1.156 -1.176 -1.176 -1.15 -1.193 -1.253 -1.212 -1.235 -1.291 -1.087 -1.375 -1.397 -1.442 -1.421 -1.447 -1.498 -1.564 -1.568 -1.375 -1.32 -1.397 -1.413 -1.655 -1.652 -1.636 -1.449 -1.669 -1.754 -1.701 -1.739 -1.659 -1.716 -1.785 -1.788 -1.769 -1.814 -1.757 -1.838 -1.622 -1.579 -1.856 -1.87 -1.862 -1.84 -1.62 -1.693 -1.669 -1.664 -1.85 -1.836 -1.619 -1.583 -1.882 -1.915 -1.856 -1.587 -1.864 -1.895 -1.61 -1.521 -1.614 -1.824 -1.811 -1.896 -1.911 -1.935 -1.993 -1.993 -1.97 -1.96 -1.96 -1.695 -1.67 -1.653 -1.933 -1.964 -2.04 -1.665 -1.653 -1.613 -1.658 -2.012 -2.043 -1.992 -2.062 -2.039 -9999 -9999 -1.585 -1.594 -1.588 -1.566 -1.548 -1.549 -9999 -1.595 -1.354 -1.266 2.086 2.105 1.706 1.756 2.126 -9999 2.026 -9999 -9999 1.781 1.731 1.929 2.051 2.091 -1.258 -1.249 -1.263 2.121 2.046 -1.612 -9999 -9999 -1.341 -1.34 -1.346 -1.578 -1.333 -1.228 2.051 1.981 -9999 -9999 -9999 -9999 -9999 -9999 -1.665 -1.668 -1.671 -1.654 -9999 -9999 -9999 -9999 -1.613 -9999 -9999 -1.677 -1.684 -1.426 -1.647 -1.65 -1.603 -1.566 -1.605 -1.622 -2.051 -1.722 -1.783 -1.814 -2.04 -2.019 -2.075 -1.79 -1.733 -1.687 -1.661 -1.625 -1.381 -1.284 -1.372 -9999 -9999 2.118 -9999 -9999 2.166 2.136 2.116 -9999 -9999 -9999 1.991 2.064 2.151 2.105 -1.403 -1.321 -1.291 -1.31 -1.479 -1.456 -1.488 -9999 1.921 2.011 -9999 -9999 1.948 1.981 1.994 2.056 2.249 2.031 -1.442 -1.697 -9999 -9999 2.035 2.004 -1.644 -1.406 -1.301 -1.377 -1.346 -1.334 -1.327 -9999 -9999 -9999 -1.556 -1.334 -1.092 2.054 2.074 2.044 1.951 -9999 2.126 2.069 -1.641 -1.371 -1.269 -1.121 -1.158 -1.119 -1.104 -1.048 -0.858 -0.664 2.006 2.189 2.004 1.934 2.006 1.996 2.011 2.056 -1.295 -1.517 -1.532 2.111 2.081 -1.076 -1.085 -1.332 -9999 -1.66 -1.685 -1.451 -1.203 -1.203 -1.421 -1.665 -1.664 1.881 2.014 1.969 2.061 2.099 2.106 2.076 1.986 1.934 1.936 2.119 2.159 2.016 1.956 2.039 2.001 2.075 2.094 -1.59 -1.589 -1.349 -1.605 -1.628 -1.647 -1.422
-1.057 -1.045 -1.052 -1.05 -1.063 -1.004 -0.943 -0.912 -0.951 -0.941 -0.938 -0.904 -0.894 -0.882 -0.887 -0.888 -0.904 -0.877 -0.891 -0.939 -0.963 -0.993 -0.996 -0.907 -1.003 -1.156 -1.13 -0.962 -1.151 -1.202 -1.124 -1.147 -1.065 -1.071 -0.994 -0.977 -0.961 -0.896 -0.854 -0.848 -0.783 -0.732 -0.717 -0.733 -0.741 -0.725 -0.77 -0.762 -0.797 -0.829 -0.788 -0.797 -0.722 -0.67 -0.658 -0.659 -0.622 -0.586 -0.582 -0.608 -0.615 -0.528 -0.572 -0.668 -0.586 -0.628 -0.841 -0.87 -0.932 -1.008 -1.059 -1.083 -1.138 -1.168 -1.125 -1.185 -1.118 -1.149 -1.085 -1.076 -1.106 -1.058 -1.068 -1.011 -0.996 -1.047 -0.941 -0.993 -0.95 -1.032 -0.928 -0.948 -0.903 -0.881 -0.944 -0.94 -0.931 -0.91 -0.901 -0.916 -0.843 -0.896 -0.921 -0.795 -0.867 -0.866 -0.937 -0.99 -1.08 -1.13 -1.156 -1.169 -1.123 -1.195 -1.188 -1.19 -1.196 -1.17 -1.266 -1.269 -1.246 -1.226 -1.219 -1.195 -1.231 -1.254 -1.258 -1.214 -1.208 -1.272 -1.169 -1.205 -1.171 -1.19 -1.188 -1.149 -1.124 -1.161 -1.143 -1.172 -1.14 -1.12 -1.099 -1.131 -1.085 -1.13 -1.112 -1.09 -0.876 -1.102 -1.111 -1.083 -1.093 -1.087 -1.065 -1.062 -1.069 -1.07 -1.062 -1.064 -1.078 -1.059 -1.042 -1.04 -0.861 -0.871 -1.033 -1.101 -1.042 -1.096 -1.078 -1.074 -0.907 -0.887 -1.12 -1.12 -1.093 -1.124 -1.154 -1.159 -1.113 -0.926 -1.136 -1.134 -0.916 -1.207 -1.188 -1.173 -1.183 -1.196 -1.206 -1.274 -1.3 -1.312 -1.322 -1.384 -1.37 -1.431 -1.196 -1.237 -1.502 -1.557 -1.322 -1.341 -1.376 -1.612 -1.396 -1.574 -1.594 -1.413 -1.488 -1.694 -1.69 -1.713 -1.722 -1.76 -1.719 -1.774 -1.745 -1.826 -1.77 -1.804 -1.824 -1.588 -1.795 -1.86 -1.852 -1.578 -1.61 -1.674 -1.66 -1.657 -1.869 -1.868 -1.627 -1.627 -1.836 -1.856 -1.902 -1.621 -1.861 -1.61 -1.561 -1.486 -1.613 -1.76 -1.634 -1.801 -1.902 -1.871 -1.961 -1.969 -1.991 -1.961 -1.922 -1.692 -1.71 -1.68 -1.95 -1.993 -1.983 -1.998 -1.699 -1.696 -1.987 -2.045 -2.002 -2.021 -2.017 -1.616 -1.591 -1.589 -1.595 -1.608 -2.044 -9999 -9999 -9999 -9999 -1.601 -1.61 -1.369 -1.821 -1.676 -1.726 -1.367 -1.364 -1.36 -1.355 -9999 -9999 1.861 1.914 -9999 -9999 -9999 -1.497 -1.494 -1.282 -1.318 -1.356 -1.634 -1.63 -1.588 -1.568 -1.569 -1.572 -1.582 -1.588 -1.329 2.119 2.059 -1.476 -1.48 -9999 -9999 -9999 -9999 -1.66 -1.451 -1.47 -1.433 -1.601 -1.569 -1.558 -1.57 -1.581 -1.599 -9999 -1.65 -1.663 -1.661 -1.421 -1.646 -1.654 -1.6 -1.576 -1.606 -1.677 -1.651 -1.773 -1.813 -1.824 -2.032 -1.8 -1.756 -1.714 -1.689 -1.927 -2.053 -9999 1.739 1.869 -9999 -9999 -9999 -9999 -9999 -9999 -1.391 -9999 2.121 1.991 -9999 -9999 -9999 -9999 1.921 -1.311 -1.337 -1.411 -1.317 -1.492 -1.469 -1.262 2.001 2.006 2.119 -9999 -9999 -9999 -9999 -9999 2.116 2.129 -1.439 -1.705 -1.712 -1.697 -9999 -9999 1.901 -1.659 -1.654 -1.413 -1.273 -1.347 -1.567 -1.56 -1.326 -1.545 -9999 -1.309 -1.224 -1.036 -0.864 -0.875 1.989 1.966 -9999 -9999 1.981 -1.631 -1.61 -1.362 -1.282 2.049 -1.353 -1.346 -1.253 -1.032 1.946 1.906 1.964 1.944 2.006 -9999 -9999 -9999 -1.552 -1.284 -1.486 -1.272 -1.339 -1.361 -1.326 -1.215 -1.316 -9999 -1.648 -1.682 -1.453 -1.207 -1.205 -1.427 -1.668 -9999 1.891 1.961 2.051 2.139 1.961 1.986 2.066 -1.358 -1.168 -0.931 -0.685 -0.778 -0.937 -1.079 -1.117 2.011 2.086 2.039 2.068 -1.373 -1.281 -1.388 -1.65 -1.4 -1.31
-1.108 -1.094 -1.087 -1.079 -1.089 -1.009 -0.946 -0.894 -0.963 -0.963 -0.964 -0.904 -0.852 -0.884 -0.88 -0.875 -0.876 -0.877 -0.911 -0.937 -0.939 -0.959 -0.95 -0.993 -0.895 -1.15 -1.157 -1.183 -1.188 -1.182 -1.166 -1.157 -1.034 -1.042 -1.026 -0.94 -0.907 -0.865 -0.855 -0.701 -0.643 -0.611 -0.672 -0.682 -0.702 -0.663 -0.703 -0.689 -0.707 -0.75 -0.716 -0.753 -0.677 -0.608 -0.585 -0.557 -0.519 -0.519 -0.474 -0.468 -0.528 -0.538 -0.574 -0.61 -0.674 -0.727 -0.829 -0.882 -0.896 -0.806 -0.996 -1.098 -1.094 -1.174 -1.166 -1.174 -1.086 -1.113 -1.051 -1.054 -1.029 -1.058 -1.051 -0.977 -0.996 -1.019 -1.008 -0.971 -0.971 -0.947 -0.926 -0.971 -0.947 -0.967 -0.944 -0.921 -0.878 -0.862 -0.866 -0.942 -0.875 -0.888 -0.92 -0.912 -0.886 -0.859 -0.905 -0.999 -1.028 -1.116 -1.2 -1.162 -1.141 -1.182 -1.214 -1.184 -1.223 -1.164 -1.194 -1.209 -1.216 -1.208 -1.221 -1.254 -1.221 -1.24 -1.235 -1.221 -1.227 -1.178 -1.2 -1.168 -1.154 -1.206 -1.171 -1.153 -1.141 -1.109 -1.14 -1.153 -1.106 -1.115 -1.116 -1.114 -1.098 -1.122 -1.08 -1.073 -1.108 -1.092 -1.084 -1.096 -1.12 -1.083 -1.105 -1.073 -1.063 -1.043 -1.066 -1.088 -1.089 -1.069 -1.057 -1.067 -1.113 -1.058 -1.07 -1.084 -1.08 -1.1 -1.044 -1.081 -1.073 -1.098 -1.115 -1.144 -1.095 -1.146 -1.149 -1.145 -1.163 -0.936 -1.151 -1.156 -0.96 -1.147 -1.24 -1.205 -1.203 -1.185 -1.208 -1.227 -1.311 -1.267 -1.331 -1.362 -1.353 -1.233 -1.445 -1.473 -1.479 -1.581 -1.57 -1.546 -1.608 -1.368 -1.354 -1.641 -1.389 -1.309 -1.431 -1.701 -1.725 -1.729 -1.68 -1.75 -1.711 -1.747 -1.746 -1.778 -1.792 -1.757 -1.83 -1.557 -1.845 -1.862 -1.845 -1.879 -1.627 -1.868 -1.806 -1.825 -1.808 -1.867 -9999 -1.634 -1.923 -1.874 -1.868 -1.571 -1.602 -1.477 -1.616 -1.611 -1.612 -1.773 -1.666 -1.778 -1.871 -1.883 -1.939 -1.952 -1.911 -1.898 -1.929 -1.711 -1.714 -1.694 -1.964 -1.995 -1.938 -1.92 -2.034 -1.972 -1.99 -1.914 -1.998 -1.982 -2.023 -1.628 -1.609 -1.606 -1.611 -1.625 -1.592 -1.363 -9999 -9999 -9999 -1.605 -1.612 -1.616 -2.053 -2.098 -9999 -1.599 -1.594 -1.593 -1.593 -9999 2.069 1.901 1.794 -9999 -9999 -1.501 -1.48 -1.473 -1.519 -1.556 -1.574 -1.446 -1.402 -1.334 -1.548 -1.554 -1.568 -1.579 -1.34 -1.556 -1.518 -1.247 -1.239 -1.465 -1.498 -1.56 -1.612 -1.636 -1.399 -1.65 -1.672 -1.416 -1.358 -1.552 -1.552 -1.564 -1.569 -1.573 -1.598 -1.4 -1.407 -1.412 -1.666 -1.435 -1.693 -1.649 -1.616 -1.627 -1.578 -1.682 -1.763 -1.789 -1.736 -1.642 -1.744 -1.724 -1.655 -1.632 -1.966 -2.094 -9999 -9999 -9999 -9999 -9999 -9999 -9999 -9999 -1.642 -1.633 -1.632 -9999 -9999 -9999 -9999 -9999 -1.613 -1.605 -1.398 -1.404 -1.628 -9999 -9999 -9999 2.008 2.014 2.091 2.004 2.208 -9999 -9999 -9999 2.081 2.101 2.081 -1.333 -1.456 -1.461 -1.69 -9999 1.981 1.886 -1.448 -1.703 -1.685 1.951 -1.357 -1.571 -1.558 -1.54 -1.32 -1.286 -1.194 -1.03 -0.904 -0.924 -1.063 2.024 1.969 1.896 1.941 1.881 1.858 -1.381 2.009 2.046 -9999 -9999 -1.579 -1.327 -1.235 1.874 1.979 1.941 1.921 1.931 -9999 -9999 -9999 -9999 -1.305 -1.277 -1.301 -1.637 -1.668 -1.55 -1.3 -1.308 -9999 -1.637 -1.656 -1.419 -1.214 -1.215 1.929 -9999 2.021 1.999 1.951 1.911 1.936 1.986 2.066 -9999 -1.462 -1.227 -1.029 -0.831 -0.65 -0.739 -0.8 -1.039 2.164 1.986 -9999 -9999 -1.391 -1.305 -1.443 -1.438 -1.309 -1.118
-1.185 -1.142 -1.12 -1.085 -1.072 -1 -0.897 -0.897 -1.01 -0.982 -0.937 -0.88 -0.873 -0.881 -0.849 -0.864 -0.86 -0.885 -0.92 -0.888 -0.906 -0.971 -1.012 -1.037 -1.112 -0.982 -0.978 -1.196 -1.194 -1.154 -0.955 -1.118 -1.046 -1.022 -0.943 -0.895 -0.879 -0.852 -0.805 -0.783 -0.697 -0.652 -0.625 -0.629 -0.613 -0.586 -0.608 -0.616 -0.681 -0.665 -0.676 -0.671 -0.66 -0.551 -0.517 -0.505 -0.472 -0.434 -0.399 -0.405 -0.423 -0.474 -0.497 -0.567 -0.633 -0.672 -0.783 -0.812 -0.878 -0.917 -0.837 -1.05 -1.072 -1.138 -1.15 -1.109 -1.086 -1.096 -1.069 -1.068 -1.085 -1.059 -1.004 -1.006 -0.977 -1 -0.955 -0.978 -0.903 -0.955 -0.96 -0.959 -0.919 -0.935 -0.936 -0.898 -0.925 -0.875 -0.945 -0.943 -0.892 -0.85 -0.857 -0.866 -0.834 -0.82 -0.922 -1.016 -1.131 -1.168 -1.14 -1.202 -1.174 -1.205 -1.204 -1.198 -1.135 -1.186 -1.178 -1.184 -1.205 -1.206 -1.243 -1.22 -1.265 -1.278 -1.221 -1.183 -1.208 -1.178 -1.187 -1.177 -1.149 -1.2 -1.089 -1.163 -1.149 -1.13 -1.121 -1.12 -1.12 -1.083 -1.051 -1.089 -1.083 -1.104 -1.094 -1.109 -1.077 -1.083 -1.084 -1.059 -1.101 -1.097 -1.122 -1.086 -1.061 -1.072 -1.091 -1.062 -1.055 -1.07 -1.042 -1.042 -1.025 -0.994 -1.037 -1.087 -1.052 -1.038 -1.024 -1.038 -1.091 -1.074 -1.104 -1.153 -1.148 -1.137 -1.144 -1.128 -1.148 -1.13 -1.188 -1.182 -1.172 -1.149 -0.975 -1.005 -1.169 -1.173 -1.183 -1.197 -1.224 -1.299 -1.329 -1.329 -1.373 -1.415 -1.47 -1.468 -1.485 -1.519 -1.538 -1.575 -1.36 -1.372 -1.246 -1.415 -1.421 -1.381 -1.598 -1.681 -1.657 -1.737 -1.65 -1.416 -1.722 -1.761 -1.765 -1.763 -1.767 -1.768 -1.845 -1.855 -1.808 -1.84 -1.873 -1.846 -1.649 -1.838 -1.887 -1.784 -9999 -9999 -9999 -1.569 -1.94 -1.88 -1.761 -1.849 -1.658 -1.617 -1.729 -1.724 -1.738 -1.612 -1.669 -1.906 -1.89 -1.878 -1.882 -1.93 -1.903 -1.886 -1.911 -1.691 -1.715 -1.716 -1.942 -1.907 -1.92 -1.967 -1.981 -1.988 -1.962 -1.979 -1.966 -1.741 -2.002 -1.597 -1.584 -1.624 -1.642 -1.62 -1.589 -1.599 -1.601 -9999 -9999 -1.606 -1.618 -1.622 -1.979 -1.956 -9999 -1.599 -1.595 -1.594 -1.598 -9999 1.911 1.886 -9999 -9999 -9999 -1.514 -1.48 -1.461 -1.521 -1.561 -1.583 -1.642 -1.313 -1.302 -1.551 -1.558 -9999 2.111 -9999 -1.525 -1.501 -1.263 -1.235 -1.457 -1.51 -1.607 -1.623 -1.635 -1.392 -1.627 -1.64 -9999 -1.334 -1.544 -1.543 -1.558 -1.557 -1.562 -9999 -1.643 -1.65 -1.658 -1.658 -1.666 -1.69 -1.628 -1.987 -1.652 -1.65 -1.697 -1.753 -1.976 -1.98 -1.932 -1.695 -1.697 -1.687 -1.724 -2.104 -9999 -9999 1.931 -1.449 -1.695 -1.696 -1.682 -1.658 -1.652 -1.647 -1.62 -1.624 -1.403 -2.059 -9999 -9999 -1.618 -1.589 -1.574 -1.599 -9999 -9999 -9999 -9999 -9999 2.094 -9999 -9999 2.151 2.189 -1.41 -1.421 -1.419 -1.308 -1.3 2.081 2.141 -1.412 -1.419 2.059 2.024 2.024 1.929 -1.446 -1.722 -1.702 -1.65 -1.366 -1.354 -1.575 -1.335 -1.225 -1.038 -0.984 -0.886 -0.901 -1.064 -1.259 2.029 1.954 1.871 1.896 1.984 -1.141 -1.153 -1.148 -1.377 -1.613 -1.607 -1.58 -1.549 -1.319 -1.322 -1.225 -1.021 -1.08 2.009 -9999 -9999 -9999 -1.585 -1.339 -1.087 -1.335 -1.628 -1.626 -1.289 -1.198 -1.227 2.011 -1.645 -1.406 -1.319 -1.164 -1.16 1.924 2.029 1.961 1.974 1.974 1.906 1.881 -9999 -9999 -9999 -1.464 -1.368 -1.175 -0.951 -0.708 -0.681 -0.894 -1.118 -1.391 -1.629 -1.626 -9999 1.969 -1.434 -1.719 -1.701 -1.421 -1.182
-1.254 -1.204 -1.2 -1.11 -1.046 -1.052 -1.012 -0.869 -0.923 -1.013 -0.963 -0.915 -0.896 -0.895 -0.889 -0.879 -0.87 -0.875 -0.895 -0.916 -0.934 -0.962 -1.002 -1.055 -1.157 -1.168 -0.988 -1.223 -1.226 -1.184 -1.167 -1.076 -1.044 -1.01 -0.927 -0.893 -0.904 -0.81 -0.784 -0.71 -0.633 -0.582 -0.532 -0.554 -0.539 -0.499 -0.56 -0.565 -0.622 -0.636 -0.65 -0.642 -0.603 -0.512 -0.445 -0.465 -0.372 -0.349 -0.34 -0.336 -0.364 -0.394 -0.433 -0.514 -0.576 -0.673 -0.771 -0.806 -0.848 -0.903 -0.978 -1.011 -1.064 -1.113 -1.139 -1.104 -1.088 -1.094 -1.055 -1.034 -1.07 -1.047 -1.025 -0.977 -1.043 -1.045 -0.97 -0.988 -0.934 -0.973 -0.906 -0.922 -0.901 -0.877 -0.877 -0.949 -0.897 -0.89 -0.941 -0.889 -0.881 -0.844 -0.917 -0.894 -0.862 -0.841 -0.984 -1.062 -1.096 -1.12 -1.153 -1.115 -1.162 -1.143 -1.094 -1.176 -1.167 -0.979 -1.187 -1.192 -1.209 -1.158 -1.233 -1.191 -1.111 -1.236 -1.156 -1.222 -1.173 -1.195 -1.186 -1.212 -1.178 -1.169 -1.102 -1.147 -1.181 -1.101 -1.148 -1.08 -1.096 -1.106 -1.073 -1.088 -1.11 -1.101 -0.861 -1.067 -1.054 -1.059 -0.886 -1.083 -1.058 -1.041 -1.068 -0.863 -0.867 -1.075 -1.057 -1.062 -1.088 -1.052 -1.063 -1.107 -1.062 -1.066 -1.06 -1.085 -1.093 -1.099 -1.059 -1.09 -1.118 -1.122 -1.127 -1.162 -1.133 -1.157 -1.16 -1.166 -1.11 -1.119 -1.171 -1.175 -1.169 -1.198 -1.213 -0.971 -1.004 -1.221 -1.172 -1.18 -1.232 -1.299 -1.284 -1.33 -1.344 -1.36 -1.439 -1.434 -1.467 -1.459 -1.484 -1.536 -1.593 -1.578 -1.345 -1.38 -1.676 -1.658 -1.645 -1.673 -1.68 -1.673 -1.714 -1.689 -1.692 -1.749 -1.693 -1.698 -1.511 -1.802 -1.807 -1.802 -1.854 -1.829 -1.849 -1.842 -1.631 -1.812 -1.819 -1.807 -1.942 -1.881 -1.89 -1.824 -1.891 -1.739 -1.743 -1.752 -1.862 -1.805 -1.739 -1.735 -1.863 -1.632 -1.532 -1.557 -1.87 -1.904 -1.85 -1.875 -1.914 -1.895 -1.866 -1.869 -1.954 -1.647 -1.938 -1.958 -2.051 -1.957 -1.926 -1.904 -1.91 -1.699 -1.721 -1.624 -1.694 -1.739 -1.767 -1.665 -1.652 -1.625 -1.626 -1.647 -1.615 -1.608 -9999 -2.034 -1.997 -2.045 -1.897 -1.994 -2.134 -9999 -1.976 -9999 -9999 1.881 -9999 1.996 -9999 -9999 -9999 -1.568 -1.565 -1.564 -1.567 -9999 -9999 -1.344 -1.206 -1.212 -1.336 1.921 2.006 -9999 -1.547 -1.524 -1.508 -1.48 -1.435 -1.209 -1.268 -1.638 -1.639 -1.638 -1.394 -1.627 -1.637 -9999 -1.561 -1.303 -1.526 -1.51 -1.526 -1.565 -1.619 -1.663 -1.671 -9999 -9999 -2.184 -2.082 -1.763 -1.98 -1.689 -1.709 -1.733 -1.743 -1.952 -1.901 -1.981 -1.685 -1.667 -1.663 -2.033 -1.924 -9999 -9999 2.025 -1.337 -1.453 -1.468 -1.453 -1.652 -1.656 -1.676 -1.636 -1.637 -1.422 -9999 -9999 -9999 -1.38 -1.585 -1.564 -1.597 1.941 -9999 -9999 -9999 2.101 -9999 -9999 -9999 -9999 2.044 -1.66 -1.677 -1.668 -1.404 -1.396 -9999 -1.647 -1.635 -1.611 -1.625 -9999 -1.367 -1.149 -1.406 -1.671 -1.669 -1.655 -1.402 -1.295 -1.399 -1.295 -1.07 -0.863 -0.817 -0.83 -1.03 -1.267 -1.384 -9999 1.986 1.976 1.979 -0.883 -0.937 -0.919 -1.169 -1.381 -1.615 -1.614 -1.595 -1.564 -1.566 -1.576 -1.347 -1.093 -1.024 1.946 1.841 -9999 -1.588 -1.594 -1.345 -1.091 -1.239 -1.352 -1.594 -1.329 -1.093 2.026 1.931 1.919 -1.326 -1.12 -1.093 -1.179 -1.21 1.811 1.991 2.054 2.069 2.079 2.049 1.975 -9999 -9999 -1.715 -1.467 -1.223 -0.982 -0.734 -0.683 -0.911 2.064 -1.291 -1.397 -1.394 1.921 1.819 -1.652 -1.666 -1.664 -1.409 -1.161
-1.286 -1.224 -1.191 -1.144 -1.073 -1.039 -1.011 -0.909 -0.932 -0.944 -0.972 -0.962 -0.961 -0.955 -0.918 -0.907 -0.89 -0.876 -0.942 -0.909 -0.929 -0.975 -0.982 -1.075 -1.127 -1.203 -1.191 -1.268 -1.203 -1.149 -1.096 -1.075 -1.022 -0.821 -0.865 -0.775 -0.844 -0.751 -0.723 -0.639 -0.55 -0.496 -0.477 -0.481 -0.456 -0.401 -0.476 -0.521 -0.581 -0.574 -0.542 -0.526 -0.513 -0.486 -0.446 -0.426 -0.308 -0.267 -0.28 -0.27 -0.307 -0.374 -0.431 -0.503 -0.563 -0.659 -0.761 -0.778 -0.848 -0.904 -0.923 -0.989 -1.035 -1.09 -1.095 -1.076 -1.098 -1.035 -1.07 -1.058 -1.032 -0.986 -0.996 -0.967 -0.985 -0.99 -1.039 -0.966 -0.973 -0.913 -0.962 -0.976 -0.895 -0.909 -0.905 -0.93 -0.896 -0.941 -0.864 -0.856 -0.858 -0.88 -0.896 -0.925 -0.92 -0.908 -1.003 -1.09 -1.087 -1.186 -1.182 -1.134 -1.162 -0.999 -0.935 -1.154 -1.151 -1.115 -1.116 -1.153 -1.15 -1.221 -1.171 -1.197 -1.006 -1.23 -1.17 -1.198 -1.147 -1.117 -1.203 -1.15 -1.121 -1.125 -1.144 -1.158 -1.189 -1.146 -1.088 -1.084 -1.098 -1.055 -1.044 -1.072 -1.072 -1.1 -1.112 -1.057 -0.848 -0.842 -0.834 -1.065 -1.052 -1.032 -1.043 -1.076 -1.028 -1.084 -1.091 -1.064 -1.027 -1.103 -0.86 -1.058 -1.103 -1.048 -1.066 -1.071 -1.101 -1.082 -1.1 -1.103 -1.081 -0.907 -1.138 -1.147 -1.157 -1.121 -1.152 -1.185 -1.144 -1.135 -1.161 -1.205 -1.174 -1.204 -1.176 -1.185 -0.964 -1.184 -1.17 -1.183 -1.276 -1.234 -1.304 -1.309 -1.306 -1.417 -1.442 -1.446 -1.468 -1.454 -1.486 -1.484 -1.303 -1.555 -1.387 -1.572 -1.648 -1.641 -1.658 -1.664 -1.643 -1.683 -1.636 -1.625 -1.611 -1.654 -1.722 -1.678 -1.481 -1.555 -1.775 -1.841 -1.86 -1.595 -1.55 -1.815 -1.571 -1.803 -1.872 -1.824 -1.789 -1.845 -9999 -1.838 -9999 -1.723 -1.748 -1.751 -1.811 -1.743 -1.766 -1.772 -1.757 -1.64 -1.529 -1.623 -1.835 -1.643 -1.633 -1.843 -1.907 -1.592 -1.615 -1.915 -1.872 -1.642 -1.874 -1.935 -1.941 -1.904 -1.951 -1.934 -1.907 -1.69 -1.661 -1.668 -1.962 -1.922 -1.728 -1.685 -1.963 -1.967 -1.645 -1.649 -1.64 -2.016 -1.983 -2.062 -1.675 -2.004 -2.039 -1.701 -2.009 -9999 -9999 -9999 -9999 -9999 -9999 -9999 -9999 -9999 -9999 -1.625 -1.651 -1.409 -1.379 2.085 2.041 1.951 -1.093 1.971 1.989 1.981 -1.593 -9999 -1.562 -1.549 -1.546 -1.475 -1.399 -1.432 -1.254 -1.339 -1.629 -1.647 -1.407 -1.644 -1.644 -9999 -1.593 -1.298 -1.518 -1.479 -1.518 -1.575 -1.626 -1.689 -1.682 -1.671 -1.682 -1.755 -1.706 -1.629 -1.693 -1.705 -1.718 -1.749 -1.733 -1.929 -2.034 -2.004 -1.68 -1.666 -1.64 -2.116 -9999 -9999 -9999 2.049 -1.194 -1.197 -1.206 -1.348 -1.391 -1.352 -1.633 -1.649 -1.428 -1.453 -1.721 -9999 -9999 -1.436 -1.659 -1.622 -1.621 -1.396 -9999 -9999 -9999 -9999 -9999 -9999 -9999 -9999 1.936 -1.657 -1.685 -1.668 -1.645 -1.638 -1.632 -1.647 -1.674 -1.603 -1.622 -1.63 -1.373 -1.11 -1.358 -1.621 -1.645 -1.66 -1.658 -1.418 -1.182 -1.127 -0.96 2.164 -0.619 -0.848 -1.125 -1.428 -1.67 -9999 2.011 2.016 2.024 2.016 -1.096 -1.165 -1.1 -1.272 -1.361 -1.627 -1.63 -1.369 -9999 -1.581 -1.336 -1.084 -0.9 1.856 1.916 -9999 -9999 -1.607 -1.375 -1.142 -1.062 1.996 1.991 1.959 -1.062 -0.934 -1.095 1.989 1.936 -1.144 -1.326 -1.433 1.775 1.841 1.926 2.036 2.056 2.021 -1.102 -1.329 -1.431 -1.68 -9999 2.081 2.054 2.044 -0.721 -0.733 -0.802 -0.948 -1.082 -1.157 -1.16 1.961 1.986 -1.594 -1.578 -1.6 1.955 -1.139
-1.315 -1.216 -1.169 -1.122 -1.087 -0.997 -0.99 -0.963 -0.988 -0.924 -0.96 -0.975 -1.061 -0.994 -0.947 -0.936 -0.899 -0.941 -0.95 -0.887 -0.9 -0.947 -0.984 -0.927 -1.126 -1.188 -1.18 -1.193 -1.19 -1.185 -1.087 -1.059 -1.01 -0.936 -0.914 -0.813 -0.785 -0.677 -0.638 -0.545 -0.487 -0.461 -0.422 -0.408 -0.399 -0.387 -0.445 -0.482 -0.545 -0.547 -0.488 -0.441 -0.409 -0.434 -0.465 -0.371 -0.237 -0.187 -0.211 -0.192 -0.289 -0.397 -0.422 -0.478 -0.524 -0.618 -0.678 -0.779 -0.819 -0.896 -0.933 -0.96 -1.004 -1.063 -1.087 -1.11 -1.142 -1.045 -1.012 -1.016 -1.021 -1.045 -1.032 -0.946 -0.96 -0.969 -0.952 -0.891 -0.92 -0.94 -0.949 -0.963 -0.863 -0.909 -0.922 -0.916 -0.977 -0.886 -0.889 -0.844 -0.876 -0.872 -0.934 -0.93 -0.885 -0.896 -1.041 -1.097 -1.113 -1.115 -1.142 -1.111 -0.963 -0.927 -0.991 -1.15 -1.161 -1.135 -1.196 -1.181 -1.178 -1.174 -1.144 -1.206 -1.169 -1.254 -1.123 -1.2 -1.123 -1.158 -1.114 -1.24 -1.164 -1.172 -1.156 -1.182 -1.123 -1.117 -1.095 -1.143 -1.026 -1.076 -1.075 -0.828 -0.833 -1.049 -1.064 -1.07 -0.814 -0.818 -0.862 -0.889 -1.081 -1.047 -1.061 -1.103 -1.106 -1.076 -1.105 -1.066 -1.127 -1.07 -0.867 -1.082 -1.091 -1.073 -1.033 -1.088 -0.85 -0.841 -0.871 -1.08 -1.124 -0.943 -0.937 -1.12 -1.136 -1.126 -1.15 -1.156 -1.153 -1.145 -1.171 -1.168 -1.192 -1.186 -1.175 -1.198 -1.206 -1.215 -1.195 -1.213 -1.254 -1.246 -1.277 -1.324 -1.332 -1.357 -1.416 -1.451 -1.439 -1.459 -1.484 -1.5 -1.546 -1.329 -1.38 -1.628 -1.638 -1.672 -1.617 -1.637 -1.616 -1.66 -1.675 -1.635 -1.681 -1.639 -1.683 -1.672 -1.734 -1.738 -1.493 -1.534 -1.575 -1.439 -1.548 -1.815 -1.83 -1.845 -1.855 -1.853 -1.842 -1.831 -1.892 -1.941 -9999 -1.725 -1.748 -1.5 -1.868 -1.761 -1.763 -1.768 -1.79 -1.593 -1.594 -1.858 -1.649 -1.616 -1.599 -1.604 -1.856 -1.895 -1.895 -1.892 -1.908 -1.65 -1.9 -1.879 -1.896 -1.926 -1.934 -1.932 -1.921 -1.675 -1.935 -1.894 -1.926 -1.909 -1.97 -2.03 -1.964 -1.942 -1.949 -1.647 -1.96 -1.989 -2.002 -1.645 -1.655 -1.635 -9999 -2.009 -1.614 -9999 -1.947 -9999 -1.607 -1.623 -1.633 -1.637 -9999 -1.64 1.856 -1.396 -1.402 -1.411 -1.4 1.981 1.975 1.869 1.966 -1.329 -1.332 -1.588 -1.376 -1.602 -1.355 -1.332 -1.309 -1.49 -1.451 -1.275 -1.211 -1.358 -9999 -1.655 -1.424 -1.663 -1.655 -1.649 -1.611 -1.311 -1.282 -1.252 -1.535 -1.644 -1.693 -1.67 -1.655 -1.67 -1.685 -1.685 -1.694 -1.638 -1.634 -1.727 -1.748 -1.985 -2.017 -1.984 -2.006 -2.077 -2.07 -2.082 -2.066 -9999 -9999 -9999 -9999 2.051 -1.313 -1.317 -1.428 -1.433 -1.307 -1.364 -1.619 -1.644 -1.449 -1.49 -1.745 -1.718 -1.464 -1.501 -1.775 -1.678 -1.365 -1.275 1.971 -1.733 -1.494 -1.751 -1.739 -9999 -9999 -1.631 -1.618 -1.63 -1.649 -1.645 -1.636 -1.373 -1.646 -1.673 -1.666 -1.647 -1.636 -1.639 -1.379 -1.091 -1.349 -1.612 -1.624 -1.64 -1.644 -1.4 -1.184 -0.973 -0.905 -0.742 2.076 2.094 -1.093 -1.35 -1.442 2.029 1.994 1.996 -1.132 -1.072 -1.269 -1.361 -1.249 -1.043 -1.264 -1.434 -1.686 1.941 1.968 -1.341 -1.219 -1.077 -1.08 1.896 2.056 -9999 -9999 -1.621 -1.389 -1.404 -1.271 2.024 1.964 2.019 -0.932 -0.767 -0.871 2.076 2.049 -1.204 -1.467 -1.706 -9999 1.869 1.854 1.949 2.021 -0.787 -0.979 -1.134 -1.327 -1.433 -9999 2.021 1.994 2.026 -0.964 -0.946 -0.876 -0.725 -0.823 -0.889 -0.894 -1.051 -1.244 -1.332 -1.556 -1.338 -1.366 -1.363
-1.366 -1.234 -1.168 -1.112 -1.108 -1.049 -1.068 -0.981 -0.971 -0.967 -0.91 -0.956 -0.989 -0.987 -0.978 -0.941 -0.907 -0.893 -0.879 -0.861 -0.92 -0.973 -1.004 -1.059 -1.095 -1.113 -1.195 -1.198 -1.206 -1.153 -1.141 -1.147 -1.013 -0.921 -0.879 -0.802 -0.754 -0.663 -0.62 -0.527 -0.463 -0.417 -0.353 -0.352 -0.378 -0.349 -0.411 -0.49 -0.554 -0.512 -0.437 -0.387 -0.312 -0.361 -0.367 -0.366 -0.239 -0.186 -0.217 -0.191 -0.281 -0.415 -0.401 -0.452 -0.519 -0.594 -0.689 -0.724 -0.782 -0.827 -0.907 -0.936 -1.035 -0.998 -1.042 -1.088 -1.082 -1.028 -1.027 -1.058 -0.986 -0.98 -0.972 -0.956 -0.961 -0.91 -1.004 -0.957 -0.928 -0.938 -0.919 -0.915 -0.902 -0.885 -0.921 -0.871 -0.849 -0.913 -0.886 -0.873 -0.831 -0.822 -0.882 -0.876 -0.925 -0.932 -1.063 -1.146 -1.164 -1.134 -1.116 -1.144 -0.927 -0.922 -0.935 -1.155 -1.17 -1.177 -1.219 -1.192 -1.239 -1.181 -1.148 -1.225 -1.193 -1.267 -1.207 -1.183 -0.938 -1.197 -1.074 -1.178 -1.133 -1.122 -1.111 -1.154 -1.078 -1.107 -1.072 -1.062 -1.03 -1.031 -1.072 -1.044 -1.051 -1.058 -1.094 -1.054 -0.869 -1.072 -1.063 -1.082 -1.087 -1.058 -1.06 -1.067 -1.093 -1.063 -1.058 -1.048 -1.037 -1.084 -1.054 -1.039 -1.06 -1.09 -1.051 -1.061 -1.097 -0.876 -1.133 -1.134 -1.107 -1.131 -1.098 -1.105 -1.124 -1.186 -1.138 -1.108 -1.184 -1.13 -1.15 -0.976 -0.97 -0.977 -1.165 -1.162 -1.205 -1.187 -1.187 -1.217 -1.23 -1.261 -1.278 -1.326 -1.359 -1.365 -1.401 -1.434 -1.442 -1.456 -1.515 -1.498 -1.54 -1.368 -1.346 -1.649 -1.616 -1.469 -1.672 -1.643 -1.642 -1.672 -1.645 -1.644 -1.668 -1.669 -1.702 -1.728 -1.76 -1.752 -1.488 -1.271 -1.444 -1.553 -1.563 -1.794 -1.806 -1.834 -1.856 -1.595 -1.563 -1.623 -1.55 -1.591 -1.657 -1.716 -1.727 -1.731 -1.861 -1.832 -1.755 -1.766 -1.601 -1.887 -1.612 -1.851 -1.619 -1.591 -1.572 -1.587 -1.885 -1.92 -1.877 -1.933 -1.891 -1.663 -1.898 -1.918 -1.909 -1.726 -1.725 -1.635 -1.579 -1.882 -1.895 -1.914 -1.932 -1.976 -2.029 -1.983 -1.957 -1.984 -1.972 -1.98 -1.99 -2.018 -1.672 -1.392 -1.626 -1.633 -1.642 -1.633 -1.655 -1.608 -9999 -1.592 -1.596 -1.617 -1.641 -1.642 -1.641 -1.419 -1.418 -1.411 -9999 -9999 -9999 -9999 -9999 -9999 -9999 -1.586 -1.572 -1.589 -1.629 -1.372 -1.276 1.921 1.994 2.009 1.871 -1.256 -1.141 -1.421 -1.664 -9999 -1.426 -1.423 -1.423 -1.689 -1.675 -1.322 -1.307 -1.297 -9999 -1.616 -1.638 -1.38 -1.627 -1.671 -1.708 -1.707 -1.991 -1.713 -1.651 -1.731 -1.753 -1.753 -1.716 -1.698 -1.972 -2.058 -2.097 -1.79 2.096 -9999 -9999 -9999 -1.609 -1.63 -1.664 -1.405 -1.659 -1.681 -1.432 -1.298 -1.403 -9999 -1.44 -1.365 -1.463 2.156 -1.449 -1.408 -1.552 -1.444 -1.262 -1.156 1.954 -1.488 -1.415 -1.526 -1.753 -9999 -1.402 -1.369 -1.355 -1.361 -9999 -9999 -1.381 -1.272 -1.647 -1.663 -1.643 -1.643 -1.642 -1.652 -1.42 -1.158 -1.396 -1.628 -1.61 -1.601 -1.377 -1.273 -1.089 -1.17 -1.127 -0.977 -0.785 2.026 -1.099 -1.315 -1.412 -1.326 -1.432 -1.403 -1.375 -1.257 -1.358 -1.59 -1.335 -1.228 -1.07 -1.37 -1.47 1.944 1.969 1.974 -1.349 -1.343 1.871 -1.21 -1.193 2.075 2.041 2.086 -9999 -9999 2.181 2.269 2.056 -0.802 -0.733 -0.776 -0.963 1.974 1.996 -1.207 -1.46 -1.704 -9999 1.884 1.964 1.926 1.984 -0.62 -0.79 -0.982 -1.151 -1.339 1.994 1.941 -1.139 -1.146 -1.188 -1.179 -1.101 -0.925 -0.717 -0.638 -0.769 -0.921 -1.036 -1.238 -1.349 -1.396 -1.652 -1.622
-1.455 -1.328 -1.205 -1.143 -1.115 -1.066 -1.064 -0.978 -0.968 -0.983 -0.911 -0.962 -0.992 -0.974 -0.936 -0.931 -0.914 -0.903 -0.891 -0.908 -0.922 -0.958 -0.99 -1.065 -1.101 -1.08 -1.096 -1.174 -1.225 -1.133 -1.117 -1.129 -1.01 -0.919 -0.864 -0.82 -0.784 -0.686 -0.594 -0.514 -0.466 -0.433 -0.317 -0.29 -0.311 -0.328 -0.39 -0.505 -0.545 -0.474 -0.421 -0.337 -0.275 -0.357 -0.282 -0.277 -0.249 -0.204 -0.232 -0.185 -0.239 -0.329 -0.401 -0.448 -0.534 -0.563 -0.671 -0.751 -0.788 -0.803 -0.898 -0.904 -0.947 -0.986 -1.052 -1.073 -1.085 -1.069 -0.999 -1.031 -0.998 -0.985 -0.961 -0.981 -1.011 -0.962 -0.945 -0.99 -0.858 -0.891 -0.942 -0.94 -0.939 -0.889 -0.902 -0.884 -0.867 -0.911 -0.913 -0.871 -0.846 -0.896 -0.913 -0.943 -0.926 -1.022 -1.112 -1.121 -1.154 -1.121 -1.165 -1.138 -1.148 -1.14 -1.15 -1.139 -1.161 -1.176 -1.137 -1.148 -1.221 -1.231 -1.187 -1.194 -1.167 -1.215 -1.167 -1.135 -0.922 -1.152 -1.103 -1.148 -1.122 -1.124 -1.102 -1.147 -1.078 -1.034 -1.101 -1.088 -1.057 -1.035 -1.075 -1.049 -1.043 -1.079 -1.072 -1.051 -1.019 -1.028 -1.052 -1.02 -1.062 -1.097 -1.091 -1.064 -1.103 -1.055 -1.08 -1.09 -1.093 -1.073 -1.055 -1.053 -1.039 -1.035 -1.076 -1.08 -1.072 -1.09 -1.118 -1.086 -1.182 -1.123 -1.13 -1.125 -1.144 -1.148 -1.188 -1.225 -1.128 -1.141 -1.17 -1.15 -1.161 -1.18 -1.142 -1.214 -1.182 -1.221 -1.224 -1.182 -1.187 -1.222 -1.249 -1.274 -1.299 -1.388 -1.368 -1.444 -1.436 -1.447 -1.502 -1.526 -1.538 -1.331 -1.322 -1.558 -1.33 -1.384 -1.41 -1.658 -1.654 -1.697 -1.674 -1.661 -1.62 -1.617 -1.686 -1.741 -1.706 -1.732 -1.537 -1.443 -1.489 -1.715 -1.577 -1.675 -1.671 -1.68 -1.583 -1.597 -1.591 -1.582 -1.579 -1.458 -1.624 -1.663 -9999 -1.754 -1.919 -1.873 -1.808 -1.842 -1.857 -1.931 -1.894 -1.642 -1.623 -1.597 -1.576 -1.924 -1.855 -1.89 -1.863 -1.878 -1.897 1.889 -1.92 -1.921 -1.715 -1.744 -1.774 -1.765 -1.597 -1.613 -1.59 -1.877 -1.967 -1.96 -1.614 -1.99 -1.906 -1.976 -1.651 -1.678 -2.021 -2 1.831 -1.642 -1.639 -1.648 -1.654 -1.635 -1.623 -1.616 -1.598 -1.589 -1.585 -1.604 -1.645 -1.643 -1.641 -1.415 -1.653 -1.409 -1.657 -9999 -1.652 -1.665 -1.667 -1.644 -9999 -1.59 -1.57 -1.337 -1.336 -1.254 -1.118 -1.127 1.994 -9999 -9999 -1.398 -1.33 -1.36 -1.446 -9999 -1.467 -1.356 -1.444 -1.669 -1.613 -1.522 -1.541 -9999 -2.059 -1.359 -1.348 -1.368 -1.631 -1.681 -1.706 -1.966 -2.013 -1.961 -1.938 -1.75 -1.801 -1.785 -1.671 -1.991 -2.003 -2.048 -9999 -9999 -1.772 -9999 -9999 -1.599 -1.581 -1.607 -1.662 -1.662 -1.667 -1.718 -1.723 -1.378 -1.626 -1.622 -1.629 -1.404 2.109 -1.631 -1.63 -1.417 -1.463 -1.327 -1.285 -1.395 2.006 -1.493 -1.511 -1.76 -1.509 1.986 -1.314 -1.129 -1.118 -1.239 -1.321 1.976 -1.268 -1.37 -1.608 -1.658 -1.678 -1.68 -1.398 -1.423 -1.373 -1.296 -1.422 -1.622 -1.621 -1.659 -1.395 -1.36 -1.253 -1.348 -1.28 -1.106 -0.905 1.904 -1.171 -1.405 -1.602 -1.416 -1.71 -1.669 -1.608 -1.348 -1.59 -1.593 -1.584 -1.341 -1.145 -1.43 -1.68 2.078 1.979 -1.38 -1.613 -1.615 -1.575 -1.29 -1.168 -1.063 2.099 2.104 -9999 -9999 2.041 2.031 -1.058 -0.998 -0.869 -0.883 -1.081 1.916 1.966 1.959 2.029 -9999 -9999 1.951 2.066 1.974 2.061 2.129 -0.975 -1.145 -1.381 -1.429 -1.312 -1.138 -1.155 -1.364 -1.459 -1.451 -1.318 -1.101 -0.872 -0.624 -0.59 -0.728 -0.897 -1.099 -1.32 -1.669 -1.677 -1.628
-1.502 -1.41 -1.255 -1.169 -1.114 -1.079 -1.061 -0.943 -0.972 -0.97 -0.866 -0.9 -0.983 -0.946 -0.935 -0.911 -0.911 -0.923 -0.909 -0.913 -0.916 -0.977 -1.022 -1.084 -1.085 -1.073 -1.142 -1.144 -1.21 -1.252 -1.098 -1.102 -1.014 -0.932 -0.915 -0.792 -0.77 -0.701 -0.619 -0.526 -0.49 -0.447 -0.36 -0.302 -0.306 -0.377 -0.389 -0.481 -0.526 -0.475 -0.388 -0.317 -0.212 -0.333 -0.237 -0.268 -0.297 -0.235 -0.266 -0.223 -0.201 -0.297 -0.37 -0.466 -0.548 -0.578 -0.68 -0.728 -0.742 -0.776 -0.857 -0.899 -0.935 -0.963 -1.026 -1.093 -1.075 -1.031 -1.067 -1.04 -1.001 -0.999 -0.965 -0.947 -0.956 -0.955 -0.888 -0.953 -0.948 -0.932 -0.902 -0.902 -0.892 -0.881 -0.901 -0.855 -0.903 -0.932 -0.86 -0.864 -0.874 -0.88 -0.894 -0.869 -0.942 -1.013 -1.138 -1.216 -1.151 -1.16 -1.152 -1.156 -1.165 -1.126 -1.158 -1.143 -1.156 -1.135 -1.162 -1.13 -1.157 -1.204 -1.215 -1.188 -1.172 -1.211 -1.164 -1.148 -1.123 -1.149 -1.08 -1.104 -1.113 -1.111 -1.068 -1.102 -1.059 -1.034 -1.027 -1.064 -0.858 -1.028 -1.061 -1.032 -1.024 -1.062 -1.025 -1.049 -1.026 -1.014 -1.007 -1.043 -1.015 -1.037 -1.019 -1.01 -0.829 -1.064 -1.037 -1.061 -0.862 -0.845 -1.053 -1.055 -1.068 -1.093 -1.087 -1.152 -1.051 -1.13 -1.127 -1.103 -1.147 -1.095 -1.111 -1.131 -1.094 -1.119 -1.185 -1.156 -1.216 -1.164 -1.169 -1.147 -1.141 -1.148 -1.182 -1.229 -1.212 -1.247 -1.22 -1.244 -1.21 -1.182 -1.252 -1.285 -1.319 -1.332 -1.389 -1.449 -1.431 -1.473 -1.475 -1.509 -1.505 -1.53 -1.546 -1.585 -1.612 -1.612 -1.649 -1.628 -1.619 -1.682 -1.643 -1.646 -1.676 -1.741 -1.699 -1.666 -1.727 -1.478 -1.547 -1.526 -1.777 -1.724 -1.535 -1.568 -1.544 -1.573 -1.569 -1.685 -1.663 -1.666 -1.868 -1.617 -1.606 -1.637 -1.66 -1.84 -1.883 -1.841 -1.749 -1.785 -1.759 -1.829 -1.932 -1.633 -1.622 -1.599 -1.588 -9999 -9999 -9999 -1.875 -1.954 -9999 -1.58 -1.9 -1.907 -1.728 -1.745 -1.757 -1.726 -1.732 -1.76 -1.87 -1.623 -1.668 -1.599 -1.608 -1.654 -1.899 -1.627 -1.628 -1.649 -1.646 -1.948 -1.766 -9999 -1.669 -1.681 -1.67 -1.393 -1.61 -1.603 -9999 -1.583 -1.587 -1.602 -1.627 -1.631 -1.392 -1.388 -1.636 -1.664 -1.659 -1.637 -1.632 -1.425 -1.697 -1.653 -9999 -1.601 -1.594 -1.341 -1.069 -1.246 -1.364 -1.381 -1.416 -9999 -9999 -9999 -1.435 -1.445 -9999 -1.698 -1.724 -1.755 -1.376 -1.407 -1.569 -1.558 -1.535 -9999 -9999 -1.347 -1.597 -1.38 -2.054 -2.024 -1.977 -1.957 -1.727 -1.945 -1.987 -1.782 -1.799 -1.793 -1.703 -1.722 -1.671 -1.625 -9999 -2.058 -1.649 -2.016 -9999 -1.609 -1.567 -1.601 -1.655 2.059 -1.685 -1.712 -1.699 -1.65 -1.372 -1.35 -1.35 2.021 -1.34 -1.587 -1.564 -1.585 -1.627 1.988 2.039 -9999 -9999 -9999 -1.758 -1.757 -1.74 -1.457 -1.185 -1.288 -1.338 -1.195 -1.046 1.974 -1.538 -1.605 -1.633 -1.676 -1.692 -1.703 -1.683 -1.661 -1.692 -1.743 -1.338 -1.396 -1.381 -1.651 -1.641 -1.605 -1.363 -1.606 -1.389 -1.162 -0.945 1.919 1.859 -1.404 -1.627 -1.671 -1.703 -1.672 -1.609 -1.572 -1.585 -1.593 -1.355 -1.244 1.906 1.866 -9999 -9999 1.941 -1.617 -1.621 -1.631 -1.577 -1.517 -1.257 -1.212 -1.073 2.124 2.105 2.076 2.115 -1.283 -1.271 -1.17 -0.983 -1.076 -1.105 1.834 -9999 -1.71 -1.729 -1.733 -9999 -9999 1.991 1.929 2.021 2.176 2.114 -1.341 -1.414 -1.623 -1.398 -1.313 -1.216 -1.476 -1.701 -1.701 -1.426 -1.186 -0.94 -0.685 -0.415 -0.631 -0.859 -1.041 -1.247 -1.43 -1.673 -1.631
-1.524 -1.429 -1.29 -1.207 -1.123 -1.098 -1.042 -1.016 -1.036 -0.993 -0.932 -0.829 -0.79 -0.872 -0.845 -0.865 -0.883 -0.889 -0.885 -0.883 -0.968 -0.989 -1.002 -1.035 -1.075 -1.077 -1.122 -1.157 -1.193 -1.209 -1.132 -1.119 -1.016 -0.965 -0.91 -0.842 -0.762 -0.704 -0.634 -0.533 -0.502 -0.458 -0.371 -0.293 -0.317 -0.385 -0.404 -0.48 -0.483 -0.436 -0.338 -0.206 -0.161 -0.298 -0.279 -0.269 -0.211 -0.23 -0.251 -0.248 -0.25 -0.302 -0.375 -0.448 -0.489 -0.557 -0.625 -0.704 -0.736 -0.79 -0.858 -0.901 -0.945 -0.958 -1 -1.029 -1.033 -1.057 -1.019 -1.019 -1.032 -1.039 -0.961 -0.937 -0.894 -0.946 -0.97 -0.925 -0.979 -0.882 -0.941 -0.909 -0.906 -0.887 -0.872 -0.912 -0.876 -0.89 -0.917 -0.905 -0.871 -0.871 -0.869 -0.87 -1.074 -1.084 -1.151 -1.119 -1.087 -1.109 -1.16 -1.13 -1.179 -1.114 -1.096 -1.146 -1.148 -0.91 -1.161 -0.917 -1.15 -1.175 -1.192 -1.152 -1.193 -1.143 -1.158 -1.122 -1.148 -1.111 -1.119 -1.112 -1.093 -1.066 -1.059 -1.079 -1.073 -1.039 -1.088 -1.112 -0.874 -0.832 -0.789 -0.829 -1.01 -1.021 -1.03 -1.009 -0.828 -1.048 -1.047 -1.026 -1.088 -1.07 -1.069 -1.033 -1.094 -0.833 -0.864 -1.07 -1.063 -1.07 -0.834 -0.883 -0.851 -1.099 -1.039 -1.106 -1.104 -1.129 -1.09 -1.09 -1.102 -1.123 -1.175 -1.137 -1.127 -1.127 -1.159 -1.163 -1.156 -1.176 -1.142 -1.15 -1.151 -1.145 -1.179 -1.221 -1.199 -1.219 -1.217 -1.222 -1.223 -1.227 -1.262 -1.287 -1.321 -1.34 -1.404 -1.353 -1.431 -1.457 -1.521 -1.506 -1.526 -1.543 -1.528 -1.558 -1.604 -1.619 -1.637 -1.657 -1.703 -1.667 -1.664 -1.692 -1.685 -1.724 -1.676 -1.487 -1.532 -1.508 -1.709 -1.764 -1.769 -1.704 -1.682 -1.544 -1.468 -1.535 -1.567 -1.668 -1.657 -1.661 -1.892 -1.647 -1.64 -1.639 -1.658 -1.871 -1.817 -1.89 -1.783 -1.815 -1.784 -1.703 -1.667 -1.627 -1.609 -1.577 -9999 -1.565 -1.562 -1.563 -1.577 -9999 -9999 1.906 -1.864 -1.911 -1.918 -1.72 -1.73 -1.703 -1.738 -1.76 -1.905 -1.677 -1.687 -1.671 -1.66 -1.637 -1.601 -1.575 -1.602 -1.624 -1.618 -1.607 -1.387 -1.395 -1.688 -1.747 -1.45 -1.607 -1.565 -1.569 -1.307 -1.321 -1.598 -9999 -9999 2.036 -1.271 -1.358 -1.61 -1.644 -1.635 -1.379 -1.356 -1.268 -1.403 -1.635 -1.613 -1.602 -1.617 -1.364 2.159 -1.358 -1.606 -1.635 -1.67 -1.653 -1.682 -1.459 -1.327 -1.418 -9999 -9999 -1.708 -1.733 -1.21 1.936 -9999 2.001 -9999 -9999 -9999 -1.594 -9999 -1.65 -1.707 -1.674 -1.685 -1.709 -1.666 -1.763 -1.758 -1.759 -1.78 -1.78 -1.695 -1.686 -1.624 -1.573 -1.599 -1.626 -1.647 -1.652 -1.655 -1.416 -1.633 -1.622 -1.643 -1.916 -2.064 -9999 -9999 -1.655 -1.598 -1.126 -1.102 -1.11 -1.331 -1.554 -1.556 -1.571 -9999 -9999 -9999 -9999 -9999 -9999 -9999 -9999 -1.493 -1.46 -1.453 -1.398 -1.55 -1.261 -1.03 -0.822 -1.421 -1.727 -1.644 -1.714 -1.737 -1.657 -1.659 -1.633 -1.669 -1.74 -1.703 -1.137 -1.389 -1.649 -1.627 -1.588 -1.588 -1.62 -1.408 -1.176 -0.922 -0.911 -1.164 2.056 -1.678 -1.719 -1.727 -1.681 -1.623 -1.57 -1.582 -1.582 -1.345 -1.112 -1.353 -1.609 -1.612 -1.614 2.006 -1.606 -1.599 -1.586 -1.565 -1.545 -1.549 -1.364 -1.178 -1.12 2.239 2.104 -9999 -1.535 -1.514 -1.26 -1.2 -1.323 -1.353 -1.377 -9999 -1.707 -1.761 -1.747 -1.707 1.971 -1.315 2.011 2.081 -0.899 -1.179 -1.442 -1.638 -1.61 -1.664 -1.402 -1.195 -1.438 -1.686 -1.691 -1.434 -1.183 -0.948 -0.685 -0.67 -0.685 -0.771 -0.904 -1.052 -1.299 -1.394 -1.359
-1.538 -1.494 -1.377 -1.309 -1.214 -1.149 -1.098 -1.079 -1.051 -1.031 -0.969 -0.876 -0.833 -0.84 -0.883 -0.886 -0.908 -0.917 -0.913 -0.883 -0.979 -1.031 -1.003 -0.998 -1.06 -1.09 -1.118 -1.168 -1.178 -1.166 -1.156 -1.083 -1.037 -1.01 -0.935 -0.902 -0.824 -0.725 -0.647 -0.583 -0.543 -0.483 -0.36 -0.28 -0.38 -0.431 -0.403 -0.512 -0.428 -0.38 -0.319 -0.206 -0.232 -0.313 -0.293 -0.285 -0.242 -0.251 -0.27 -0.269 -0.266 -0.315 -0.348 -0.401 -0.415 -0.514 -0.613 -0.694 -0.731 -0.769 -0.823 -0.887 -0.941 -0.922 -1.02 -1.094 -1.086 -1.048 -1.027 -1.017 -0.981 -1.025 -0.91 -0.942 -0.963 -0.977 -0.884 -0.896 -0.929 -0.88 -0.892 -0.894 -0.865 -0.865 -0.864 -0.947 -0.884 -0.889 -0.836 -0.878 -0.923 -0.891 -0.928 -0.965 -1.089 -1.127 -1.116 -1.155 -1.188 -1.117 -1.171 -1.14 -1.143 -1.134 -1.127 -1.098 -1.14 -0.961 -0.901 -1.115 -1.189 -1.183 -1.147 -1.175 -1.081 -1.137 -1.148 -1.06 -0.892 -1.108 -1.088 -1.105 -1.1 -1.141 -1.07 -1.084 -1.039 -1.019 -0.977 -1.045 -0.832 -0.831 -1.019 -0.821 -0.824 -1.005 -0.97 -1.006 -0.826 -0.835 -1.071 -1.035 -1.044 -1.046 -1.026 -1.081 -1.014 -1.013 -0.846 -1.094 -1.044 -1.047 -1.052 -0.847 -0.883 -0.892 -1.094 -1.067 -1.102 -1.13 -1.109 -1.165 -1.092 -1.112 -1.111 -1.156 -0.915 -0.905 -1.153 -1.138 -1.137 -1.207 -1.18 -1.142 -1.168 -1.175 -1.201 -1.176 -1.166 -1.218 -1.215 -1.207 -1.254 -1.295 -1.283 -1.074 -1.303 -1.36 -1.366 -1.428 -1.412 -1.432 -1.225 -1.495 -1.52 -1.51 -1.565 -1.58 -1.614 -1.604 -1.588 -1.625 -1.654 -1.684 -1.667 -1.392 -1.663 -1.69 -1.749 -1.485 -1.388 -1.478 -1.694 -1.761 -1.791 -1.654 -1.682 -1.543 -1.488 -1.615 -1.809 -1.874 -1.821 -1.864 -1.89 -1.77 -1.647 -1.646 -1.845 -1.828 -1.848 -1.847 -1.691 -1.722 -1.673 -1.569 -1.638 -1.624 -1.615 -1.905 -1.599 -1.565 -1.556 -1.55 -1.58 -1.616 -1.625 1.936 -1.921 -1.866 -1.882 -1.861 -1.798 -1.827 -1.643 -1.734 -1.717 -1.589 -1.677 -1.654 -1.65 -1.622 -1.558 -1.507 -1.514 -1.554 -1.574 -1.629 -1.621 -1.612 -1.634 -1.693 -1.669 -1.6 -1.567 -1.305 -1.191 -1.22 -1.363 -1.382 2.051 -1.299 -1.375 -1.59 -1.595 -1.608 -1.602 -1.595 -1.34 -1.334 -1.36 -1.362 -1.374 -1.339 -1.387 -1.357 -1.306 -1.326 -1.591 -1.651 -1.423 -1.356 -1.453 -1.397 -1.136 -1.362 -9999 -9999 -9999 -1.413 -1.109 -1.211 -1.545 -1.522 -1.541 -1.532 -1.316 -1.338 -1.603 -1.68 -1.667 -1.673 -1.724 -1.895 -1.61 -1.659 -1.664 -1.676 -1.666 -1.785 -1.773 -1.72 -1.612 -1.612 -1.619 -1.634 -1.624 -1.615 -1.674 -1.464 -1.696 -1.652 -1.886 -1.65 -1.416 -1.662 -1.429 -1.322 -1.576 -1.065 -1.102 -1.114 -1.326 -1.529 -1.547 -1.579 -1.601 -1.373 -1.649 -1.676 -9999 -1.768 -1.774 -1.523 -1.748 -1.72 -1.693 -1.626 -1.555 -1.292 -1.046 -0.803 -1.539 -1.841 -1.699 -1.746 -1.765 -1.661 -1.667 -1.636 -1.696 -1.715 -1.753 -1.174 -1.447 -1.674 -1.625 -1.582 -1.583 -1.626 -1.461 -1.198 -0.922 -0.877 -1.088 -1.293 -1.447 -1.49 -1.748 -1.739 -1.675 -1.63 -1.633 -1.357 -1.247 -1.039 2.044 -1.359 -1.357 -1.356 2.036 -1.348 -1.34 -1.326 -1.323 -1.546 -1.557 -1.395 -1.242 -0.962 -1.108 -1.267 -1.326 -1.314 -1.328 -1.23 -1.332 -1.587 -1.619 -1.373 -1.635 -1.697 -1.511 -1.485 -1.437 -1.334 -1.181 -1.136 -1.131 -1.074 -1.188 -1.467 -1.709 -1.719 -1.697 -1.46 -1.183 -1.426 -1.673 -1.702 -1.456 -1.207 -0.954 -0.891 -0.922 -0.922 -0.848 -0.72 -0.919 -1.085 -1.145 -1.118
-1.549 -1.534 -1.435 -1.383 -1.295 -1.234 -1.158 -1.027 -1.028 -1.004 -0.973 -0.93 -0.913 -0.922 -0.978 -0.921 -0.895 -0.915 -0.897 -0.903 -0.968 -0.998 -0.994 -1.003 -1.014 -1.045 -1.087 -1.137 -1.205 -1.211 -1.153 -1.114 -1.08 -0.985 -0.968 -0.914 -0.829 -0.766 -0.676 -0.577 -0.554 -0.496 -0.407 -0.339 -0.384 -0.5 -0.421 -0.468 -0.359 -0.323 -0.249 -0.235 -0.258 -0.299 -0.332 -0.311 -0.296 -0.144 -0.299 -0.31 -0.3 -0.239 -0.29 -0.402 -0.434 -0.519 -0.598 -0.709 -0.722 -0.778 -0.789 -0.848 -0.885 -0.968 -0.971 -1.03 -1.108 -1.071 -1.047 -1.026 -0.993 -1.014 -0.977 -0.912 -0.905 -0.975 -0.933 -0.966 -0.886 -0.883 -0.957 -0.854 -0.899 -0.843 -0.871 -0.87 -0.888 -0.903 -0.889 -0.892 -0.912 -0.934 -0.969 -1.009 -1.121 -1.121 -1.159 -1.115 -1.215 -1.202 -1.112 -1.146 -1.137 -1.164 -1.152 -1.121 -1.144 -1.129 -1.128 -1.135 -1.097 -1.139 -1.154 -1.164 -1.125 -0.93 -0.922 -1.129 -0.891 -0.899 -1.084 -1.053 -1.053 -1.023 -1.075 -1.014 -1.049 -1.002 -0.997 -1.001 -0.976 -1.046 -1.012 -0.979 -0.988 -0.993 -1.011 -1.019 -0.794 -0.815 -1.008 -1.001 -0.99 -1.058 -1.042 -1.099 -1.049 -1.053 -1.096 -1.064 -1.073 -1.069 -1.126 -1.078 -1.1 -1.104 -1.127 -1.109 -1.101 -1.101 -1.113 -1.132 -1.109 -1.139 -1.124 -1.13 -1.186 -1.161 -1.152 -1.178 -1.174 -1.14 -1.141 -1.156 -1.184 -1.164 -1.165 -1.154 -1.169 -1.213 -1.213 -1.249 -1.243 -1.249 -1.081 -1.083 -1.294 -1.312 -1.341 -1.372 -1.421 -1.409 -1.433 -1.471 -1.556 -1.524 -1.539 -1.564 -1.361 -1.342 -1.613 -1.612 -1.633 -1.606 -1.621 -1.412 -1.464 -1.672 -1.725 -1.439 -1.516 -1.792 -1.71 -1.759 -1.796 -1.707 -1.553 -1.58 -1.606 -1.585 -1.809 -1.809 -1.83 -1.899 -1.916 -1.689 -1.674 -1.838 -1.772 -1.847 -1.844 -1.592 -1.642 -1.629 -1.623 -1.631 -1.632 -1.633 -1.623 -1.641 -1.627 -1.594 -1.581 -1.573 -1.604 -1.632 -1.66 -1.67 -1.617 -1.665 -1.681 -1.847 -1.798 -1.843 -1.66 -1.586 -1.655 -1.526 -1.651 -1.649 -1.657 -1.615 -1.53 -1.456 -1.479 -1.528 -1.561 -1.606 -1.619 -1.578 -1.549 -1.562 -1.58 -9999 -1.556 -1.535 -1.299 -1.337 -1.615 -1.639 -1.413 -1.421 -1.39 -1.355 -1.35 -1.346 -1.592 -1.591 -1.585 -1.588 -1.602 -1.589 -1.587 -1.354 -1.561 -1.466 -1.475 -1.315 -1.574 -1.598 -1.332 -1.046 -1.154 -1.159 -1.026 -1.239 -1.404 -1.67 -1.652 -1.36 -1.189 -1.485 -1.517 -1.517 -1.161 -1.296 -1.216 -1.195 -1.349 -1.7 -1.649 -1.658 -1.735 -1.745 -1.904 -1.657 -1.525 -1.641 -1.771 -1.791 -1.754 -1.641 -1.647 -1.612 -1.675 -1.662 -1.628 -1.379 -1.661 -1.691 -1.435 2.056 2.024 -1.091 -1.286 -1.397 -1.336 -1.156 -1.617 -1.279 -1.349 -1.349 -1.327 -1.274 -1.575 -1.594 -1.361 -1.387 -1.655 -1.681 -1.737 -1.514 -1.528 -1.417 2.071 -9999 2.091 2.061 -1.33 -1.218 -0.987 -0.836 -1.503 -1.577 -1.618 -1.721 -1.743 -1.759 -1.756 -1.703 -1.733 -1.669 -1.668 -1.172 -1.441 -1.679 -1.648 -1.612 -1.595 -1.635 -1.374 -1.126 -0.869 -0.774 -0.928 -1.073 -1.195 -1.47 -1.762 -1.739 -1.688 -1.646 -1.387 -1.254 -1.051 -0.927 1.884 -1.132 -1.13 -1.116 -1.062 -1.113 -1.099 -1.103 -1.223 -1.314 -1.305 -1.283 -1.156 -0.926 2.121 -1.058 -1.081 -1.06 -1.07 -1.095 -1.343 -1.581 -1.566 -1.581 -1.613 -1.643 -1.682 -1.425 -1.165 -1.33 -1.415 -1.386 -1.34 -1.217 -1.102 -1.366 -1.465 -1.461 -1.467 -1.368 -1.14 -1.346 -1.456 -1.489 -1.412 -1.204 -1.023 2.006 2.086 -1.204 -1.125 -0.957 -0.739 -0.882 -0.936 -1.152
-1.542 -1.526 -1.47 -1.442 -1.345 -1.256 -1.192 -1.067 -1.034 -0.982 -0.972 -1.001 -0.971 -0.938 -0.946 -0.904 -0.875 -0.88 -0.866 -0.912 -0.894 -0.968 -1.01 -0.993 -1.001 -1.031 -1.082 -1.116 -1.159 -1.179 -1.135 -1.109 -1.098 -1.055 -1.066 -1.034 -0.892 -0.803 -0.74 -0.64 -0.568 -0.512 -0.444 -0.383 -0.389 -0.461 -0.491 -0.452 -0.383 -0.349 -0.269 -0.253 -0.279 -0.336 -0.338 -0.335 -0.343 -0.337 -0.343 -0.357 -0.357 -0.257 -0.314 -0.418 -0.456 -0.522 -0.593 -0.658 -0.746 -0.759 -0.786 -0.844 -0.9 -0.96 -0.982 -1.006 -1.044 -0.816 -1.054 -1.043 -1.021 -0.969 -0.988 -0.909 -0.907 -0.892 -0.929 -0.883 -0.917 -0.891 -0.924 -0.925 -0.864 -0.867 -0.887 -0.902 -0.879 -0.884 -0.83 -0.858 -0.945 -0.909 -0.975 -1.079 -1.101 -1.112 -1.177 -1.089 -1.211 -1.171 -1.133 -1.093 -1.133 -1.132 -1.154 -1.113 -1.145 -1.149 -1.137 -0.884 -1.161 -1.196 -1.161 -1.132 -1.128 -1.137 -1.115 -1.114 -1.103 -1.131 -1.094 -1.066 -1.075 -1.068 -1.006 -1.024 -1.03 -0.975 -0.981 -0.999 -0.968 -0.988 -1.015 -0.992 -0.951 -0.991 -0.988 -1.012 -1.063 -1.04 -0.992 -0.996 -1.032 -1.048 -1.068 -1.038 -1.036 -1.042 -1.048 -1.028 -1.055 -1.036 -1.064 -1.078 -1.056 -1.125 -1.092 -1.101 -1.108 -1.132 -1.115 -1.127 -1.15 -1.144 -1.151 -1.113 -1.125 -1.118 -1.114 -1.164 -1.158 -1.186 -1.19 -1.18 -1.171 -1.174 -1.145 -1.162 -1.191 -1.185 -1.226 -1.188 -1.243 -1.27 -1.318 -1.268 -1.308 -1.319 -1.367 -1.406 -1.397 -1.434 -1.426 -1.467 -1.504 -1.472 -1.534 -1.562 -1.577 -1.545 -1.352 -1.583 -1.614 -1.578 -1.64 -1.394 -1.654 -1.682 -1.675 -1.468 -1.744 -1.696 -1.721 -1.734 -1.778 -1.789 -1.754 -1.817 -1.713 -1.715 -1.718 -1.906 -1.817 -1.886 -1.688 -1.704 -1.712 -1.684 -1.881 -1.924 -1.702 -1.665 -1.636 -1.669 -1.735 -1.628 -1.639 -1.645 -1.653 -1.689 -1.679 -1.637 -1.615 -1.633 -1.674 -1.639 -1.671 -1.673 -1.66 -1.64 -1.655 -1.659 -1.867 -1.847 -1.581 -1.637 -1.615 -1.613 -1.655 -1.664 -1.668 -1.619 -1.545 -1.471 -1.498 -1.543 -1.557 -1.583 -1.576 -1.538 -1.516 -1.513 -1.53 -1.535 -1.539 -1.533 -1.296 -1.354 -1.639 -1.642 -1.441 -1.703 -1.652 -1.623 -1.357 -1.331 -1.59 -1.604 -1.596 -1.579 -1.575 -1.57 -1.583 -1.602 -1.553 -1.422 -1.46 -1.536 -1.33 -1.335 -1.225 -1.074 -1.096 -1.053 -0.938 -1.098 -1.342 -1.464 -1.393 -1.61 -1.303 -1.166 -0.993 -1.02 -1.062 -1.087 -1.1 -1.034 -1.6 -1.612 -1.61 -1.705 -1.724 -1.734 -1.757 -1.631 -1.473 -1.614 -1.767 -1.772 -1.755 -1.726 -1.678 -1.605 -1.662 -1.617 -1.586 -1.602 -1.396 -1.616 -1.446 -1.123 -1.075 -1.101 -1.146 -1.158 -1.186 -1.122 -1.316 -1.437 -1.622 -1.597 -1.604 -1.326 -1.342 -1.335 -1.612 -1.641 -1.402 -1.44 -1.509 -1.423 -1.268 -1.219 -1.394 2.026 2.071 2.011 -1.355 -1.344 -1.214 -1.004 -0.782 -0.522 -1.574 -1.633 -1.785 -1.749 -1.655 -1.733 -1.742 -1.689 -1.607 -1.638 -1.328 -1.44 -1.669 -1.658 -1.597 -1.609 -1.116 -0.88 -0.71 -0.602 -0.715 -0.819 -1.079 -1.299 -1.463 -1.701 -1.661 -1.391 -1.262 -1.001 -0.87 -0.763 -0.864 -0.893 -0.872 -0.841 -0.857 -0.913 -0.84 -0.889 -1.035 -1.094 -1.089 -1.057 -0.98 -0.784 2.134 -0.81 -0.825 -0.796 -0.811 -1.061 -1.334 -1.585 -1.58 -1.588 -1.351 -1.364 -1.395 -1.294 -1.161 -1.449 -1.66 -1.631 -1.594 -1.343 -1.165 -1.132 -1.197 -1.21 -1.231 -1.17 -1.025 2.071 2.046 -1.245 -1.215 -1.07 -1.165 -1.349 -1.497 -1.506 -1.422 -1.219 -0.954 -0.767 -0.925 -1.131
-9999 -1.515 -1.514 -1.502 -1.371 -1.261 -1.186 -1.119 -1.078 -1.016 -0.989 -1.012 -1.052 -0.97 -0.889 -0.886 -0.851 -0.9 -0.874 -0.897 -0.862 -0.871 -0.925 -0.94 -0.972 -1.025 -1.069 -1.079 -1.126 -1.15 -1.17 -1.131 -1.111 -1.084 -1.06 -1.04 -0.952 -0.811 -0.728 -0.669 -0.588 -0.553 -0.502 -0.447 -0.437 -0.514 -0.48 -0.391 -0.314 -0.343 -0.257 -0.214 -0.238 -0.358 -0.296 -0.312 -0.366 -0.297 -0.314 -0.319 -0.306 -0.26 -0.327 -0.437 -0.456 -0.513 -0.525 -0.611 -0.728 -0.771 -0.757 -0.845 -0.901 -0.935 -0.959 -0.971 -1.053 -1.023 -0.997 -1.017 -1.012 -0.926 -0.959 -0.916 -0.921 -0.897 -0.917 -0.95 -0.887 -0.866 -0.932 -0.896 -0.864 -0.896 -0.883 -0.788 -0.838 -0.828 -0.84 -0.886 -0.916 -0.905 -1.012 -1.09 -1.094 -1.113 -1.156 -1.167 -1.194 -1.135 -1.157 -1.091 -1.127 -1.135 -1.1 -1.082 -1.094 -1.119 -1.064 -1.104 -1.071 -1.177 -1.126 -1.14 -1.088 -1.113 -1.134 -1.134 -1.101 -1.073 -1.08 -1.054 -1.06 -1.046 -1.033 -1.032 -1.036 -1.018 -1.037 -0.936 -0.978 -1.069 -0.971 -1.007 -0.996 -0.985 -1.008 -1.013 -1.001 -0.986 -1.017 -1.039 -1.039 -0.997 -1.028 -1.069 -1.04 -1.017 -1.034 -1.04 -1.067 -1.11 -1.039 -1.086 -1.078 -1.091 -1.093 -1.128 -1.08 -1.094 -1.109 -1.13 -1.098 -1.11 -1.121 -1.127 -1.131 -1.157 -1.198 -1.17 -1.168 -1.175 -1.169 -1.182 -1.165 -1.192 -1.209 -1.177 -1.183 -1.193 -1.225 -1.243 -1.249 -1.273 -1.262 -1.323 -1.316 -1.361 -1.368 -1.162 -1.186 -1.418 -1.267 -1.503 -1.461 -1.534 -1.502 -1.548 -1.572 -1.595 -1.59 -1.56 -1.618 -1.599 -1.656 -1.417 -1.694 -1.772 -1.719 -1.434 -1.47 -1.483 -1.674 -1.746 -1.804 -1.824 -1.763 -1.77 -1.747 -1.75 -1.731 -1.846 -1.582 -1.626 -1.706 -1.711 -1.723 -1.685 -9999 -1.657 -1.671 -1.628 -1.655 -1.763 -1.745 -1.706 -1.662 -1.525 -1.678 -1.712 -1.689 -1.835 -1.653 -1.677 -1.669 -1.625 -1.653 -1.664 -1.6 -1.628 -1.632 -1.635 -1.824 -1.839 -1.877 -1.878 -1.897 -1.906 -1.673 -1.673 -1.673 -1.64 -1.575 -1.512 -1.537 -1.565 -1.561 -1.329 -1.561 -1.523 -1.512 -1.526 -1.536 -9999 -1.554 -1.539 -1.305 -1.614 -1.422 -1.666 -1.392 -1.654 -1.649 -1.651 -1.392 -1.259 -1.359 -1.377 -1.604 -1.335 -1.547 -1.543 -1.567 -1.585 -1.559 -1.57 -1.543 -9999 -1.314 -1.089 -1.211 -1.317 -1.309 -1.238 1.981 -1.109 -1.353 -1.491 -1.634 -1.615 -1.577 -1.593 -1.239 -1.252 -1.309 -1.312 -1.333 -1.587 -1.552 -1.542 -1.606 -1.708 -1.722 -1.723 -1.612 -1.534 -1.418 -1.557 -1.629 -1.604 -1.65 -1.645 -1.647 -1.648 -1.595 -1.557 -1.498 -1.512 -1.209 -0.85 -0.885 -1.534 -1.059 -1.272 -1.398 -1.426 -1.399 -1.287 -1.393 -1.638 -1.646 -1.649 -1.639 -1.342 -1.306 -1.564 -1.605 -1.616 2.141 -1.416 -1.484 -1.513 -1.401 -1.207 -1.182 -1.202 -1.187 -1.401 -1.612 -1.604 -1.293 -1.095 -0.847 -0.558 -0.313 -1.667 -2.109 -2.026 -1.649 -1.656 -1.666 -1.67 -1.618 -1.645 -1.704 -1.702 -1.755 -1.694 -1.59 -1.575 -0.853 -0.679 -0.557 -0.59 -0.756 -0.853 -0.909 -1.037 -1.299 -1.419 -1.413 -1.294 -1.061 -0.841 -0.685 -0.651 -0.621 -0.621 -0.59 -0.578 -0.634 -0.723 -0.654 -0.698 -0.812 -0.853 -0.817 -0.817 -0.764 -0.611 2.034 -0.568 -0.56 -0.533 -0.746 -0.991 -1.279 -1.371 -1.365 -1.368 -1.256 -1.114 -1.125 -1.078 -1.137 -1.401 -1.635 -1.635 -1.612 -1.362 -1.139 -0.894 -0.906 -0.954 -0.987 -0.938 -0.836 -0.928 1.949 1.971 -0.944 -0.978 -1.188 -1.413 -1.75 -1.795 -1.492 -1.351 -1.076 -0.837 -0.866 -1.072
-9999 -1.516 -1.505 -1.502 -1.446 -1.293 -1.21 -1.218 -1.168 -1.09 -1.035 -1.02 -1.025 -0.959 -0.897 -0.82 -0.82 -0.871 -0.878 -0.895 -0.85 -0.842 -0.882 -0.932 -0.976 -1.017 -1.029 -1.056 -1.129 -1.09 -1.107 -1.139 -1.107 -1.097 -1.048 -1.019 -0.951 -0.866 -0.798 -0.754 -0.661 -0.65 -0.602 -0.533 -0.528 -0.57 -0.476 -0.354 -0.294 -0.297 -0.278 -0.246 -0.297 -0.306 -0.234 -0.265 -0.322 -0.264 -0.276 -0.238 -0.215 -0.249 -0.328 -0.395 -0.448 -0.548 -0.524 -0.589 -0.663 -0.703 -0.767 -0.838 -0.87 -0.957 -0.978 -1.01 -1.062 -1.015 -0.967 -1.007 -1.025 -0.931 -0.947 -0.92 -0.911 -0.919 -0.918 -0.888 -0.907 -0.886 -0.86 -0.836 -0.791 -0.797 -0.838 -0.803 -0.683 -0.687 -0.859 -0.881 -0.903 -1.03 -1.106 -1.114 -1.095 -1.073 -1.134 -1.195 -1.117 -1.145 -1.187 -1.1 -1.084 -1.099 -1.124 -1.085 -1.094 -1.117 -1.067 -1.104 -1.096 -1.133 -1.155 -1.105 -1.095 -1.094 -1.105 -1.014 -1.079 -1.073 -1.043 -0.999 -1.032 -1.04 -1.011 -1.033 -0.971 -0.955 -0.961 -1.007 -0.982 -0.976 -1.001 -1.004 -1.003 -0.997 -0.978 -1.031 -1.034 -0.948 -1.026 -1.038 -1.021 -1.025 -1.069 -1.062 -1.045 -1.035 -1.056 -1.108 -1.085 -1.048 -0.853 -0.861 -1.058 -0.881 -0.911 -1.118 -1.131 -1.052 -1.133 -1.134 -1.146 -1.095 -1.138 -1.146 -0.886 -1.163 -1.121 -0.921 -0.988 -0.961 -1.195 -0.97 -1.159 -1.157 -1.145 -1.218 -1.217 -1.215 -1.199 -1.024 -1.067 -1.302 -1.248 -1.303 -1.295 -1.351 -1.365 -1.388 -1.404 -1.428 -1.436 -1.518 -1.544 -1.471 -1.54 -1.292 -1.59 -1.56 -1.61 -1.568 -1.629 -1.624 -1.638 -1.415 -1.738 -1.676 -1.694 -1.733 -1.737 -1.751 -1.701 -1.778 -1.762 -1.784 -1.793 -1.777 -1.707 -1.749 -1.728 -1.551 -1.705 -1.704 -1.697 -1.693 -1.687 -1.653 -1.624 -1.631 -1.659 -1.682 -1.656 -1.753 -1.734 -1.739 -1.7 -1.57 -1.667 -1.667 -1.65 -1.63 -1.633 -1.649 -1.648 -1.592 -1.602 -1.594 -1.602 -1.617 -1.621 -1.875 -1.849 -1.833 -1.559 -1.55 -1.622 -1.617 -1.646 -1.643 -1.665 -1.667 -1.629 -1.563 -1.312 -1.57 -1.565 -1.335 -1.325 -1.298 -1.549 -1.601 -1.352 2.048 2.076 -1.347 -1.374 -1.63 -1.704 -1.703 -1.567 -1.582 -1.638 -1.67 -1.43 -1.416 -1.297 -1.307 -1.385 -1.242 -1.284 -1.264 -1.314 -1.373 -1.358 -1.33 -1.319 1.941 -1.23 -1.085 -1.321 -1.558 -1.54 -1.334 2.064 -1.133 -1.359 -1.569 -1.623 -1.607 -1.569 -1.573 -1.599 -1.337 -1.555 -1.532 -1.548 -1.552 -1.561 -1.564 -1.581 -1.688 -1.607 -1.558 -1.604 -1.586 -1.558 -1.715 -1.608 -1.568 -1.589 -1.581 -1.601 -1.571 -1.54 -1.491 -1.439 -1.405 -1.414 -0.543 -0.604 -0.853 -1.124 -1.568 -1.621 -1.688 -1.603 -1.322 -1.238 -1.347 -1.41 -1.383 -1.351 -1.24 -1.297 -1.559 -1.58 -1.575 -1.345 -1.611 -1.667 -9999 -1.485 -1.269 -1.362 -1.443 -1.448 -1.442 -1.66 -1.589 -1.315 -1.106 -0.86 -0.595 -0.568 -1.866 -1.747 -1.752 -1.652 -1.556 -1.638 -1.708 -1.647 -1.72 -1.717 -1.703 -1.724 -1.701 -1.637 -1.606 -0.857 -0.892 -0.831 -0.779 -0.954 -1.049 -1.069 -1.011 -1.088 -1.183 -1.169 -1.08 -0.918 -0.717 -0.557 -0.417 -0.358 -0.36 -0.371 -0.39 -0.536 -0.647 -0.62 -0.56 -0.57 -0.616 -0.596 -0.576 2.074 -0.361 -0.268 -0.316 -0.33 -0.412 -0.63 -0.872 -1.066 -1.134 -1.144 -1.138 -1.048 -0.894 -0.846 -0.818 -1.044 -1.272 -1.409 -1.664 -1.648 -1.374 -1.119 -0.906 -0.682 -0.665 -0.743 -0.718 -0.601 -0.69 -0.72 -0.712 -0.699 -0.912 -1.15 -1.44 -1.768 -1.821 -1.741 -1.347 -1.034 -0.825 -0.797 -0.992
-9999 -9999 -1.499 -1.509 -1.488 -1.416 -1.263 -1.267 -1.216 -1.131 -1.062 -1.029 -1.011 -0.981 -0.919 -0.843 -0.843 -0.815 -0.83 -0.912 -0.899 -0.856 -0.876 -0.916 -1.017 -1.022 -1.028 -1.04 -1.087 -1.104 -1.105 -1.109 -1.107 -1.063 -1.031 -0.973 -0.908 -0.86 -0.81 -0.814 -0.758 -0.731 -0.679 -0.658 -0.609 -0.557 -0.45 -0.356 -0.289 -0.333 -0.3 -0.251 -0.289 -0.262 -0.25 -0.243 -0.302 -0.219 -0.199 -0.195 -0.205 -0.272 -0.393 -0.371 -0.448 -0.496 -0.551 -0.568 -0.644 -0.705 -0.774 -0.856 -0.902 -0.893 -0.967 -0.988 -1.031 -0.99 -0.958 -1.013 -1.04 -0.929 -0.955 -0.959 -0.911 -0.908 -0.892 -0.858 -0.856 -0.882 -0.839 -0.777 -0.842 -0.782 -0.775 -0.752 -0.672 -0.706 -0.885 -0.927 -0.948 -1.001 -1.088 -1.1 -1.09 -1.103 -1.132 -1.152 -1.092 -1.118 -1.074 -1.081 -1.055 -1.129 -1.109 -1.115 -1.128 -1.095 -1.062 -1.094 -1.093 -1.132 -1.06 -1.089 -1.091 -1.065 -1.097 -1.032 -1.066 -1.008 -1.011 -1.013 -1.027 -1.016 -0.998 -0.975 -1.003 -1.001 -0.93 -0.811 -1.003 -0.964 -0.974 -1.023 -0.979 -0.971 -0.998 -1.015 -1.008 -1.034 -1.032 -1.038 -1.021 -0.99 -1.034 -1.016 -1.068 -1.03 -1.041 -1.052 -1.039 -1.065 -1.083 -1.131 -1.077 -0.871 -1.087 -1.08 -1.104 -1.121 -1.103 -1.133 -1.135 -1.071 -1.108 -1.14 -0.95 -1.15 -1.179 -1.134 -1.152 -1.176 -1.192 -0.958 -1.192 -1.183 -1.182 -1.2 -1.22 -1.252 -1.157 -1.241 -1.026 -1.04 -1.261 -1.316 -1.314 -1.363 -1.376 -1.383 -1.412 -1.444 -1.435 -1.495 -1.515 -1.494 -1.557 -1.325 -1.596 -1.586 -1.609 -1.618 -1.394 -1.65 -1.643 -1.667 -1.727 -1.739 -1.713 -1.691 -1.645 -1.732 -1.7 -1.74 -1.747 -1.766 -1.764 -1.764 -1.739 -1.726 -1.725 -1.699 -1.698 -1.706 -1.708 -1.686 -1.659 -1.645 -1.625 -1.626 -1.652 -1.693 -1.658 -1.653 -1.645 -1.726 -1.713 -1.57 -1.667 -1.645 -1.627 -1.61 -1.631 -1.65 -1.635 -1.572 -1.549 -1.576 -1.604 -9999 -1.917 -1.813 -1.835 -1.87 -1.558 -1.555 -1.585 -1.573 -1.55 -1.526 -1.587 -1.665 -1.669 -1.596 2.139 -1.573 -1.329 -1.238 -1.103 -1.203 -1.306 -1.637 -1.387 2.029 -1.601 -1.612 -1.625 -1.643 -1.682 -1.649 -1.57 -1.555 -1.661 -1.451 -1.693 -1.717 -1.417 -1.16 -1.155 -1.153 -1.062 -1.007 -1.076 -1.134 -1.227 -1.348 -1.35 2.084 -1.271 -1.141 -1.408 -1.611 -1.604 -1.382 -1.108 -1.034 -1.231 -1.58 -1.607 -1.578 -1.575 -1.583 -1.335 -1.326 -1.584 -1.619 -1.593 -1.582 -1.564 -1.604 -1.678 -1.681 -1.589 -1.594 -1.723 -1.752 -1.73 -1.881 -1.72 -1.656 -1.57 -1.534 -1.543 -0.412 -0.456 -1.449 -1.497 -1.528 -1.545 -1.505 -0.642 -1.493 -1.578 -1.345 -1.69 -1.708 -1.6 -1.334 -1.071 -1.095 -1.152 -1.129 -1.126 -1.587 -1.275 -1.374 -1.598 -1.565 -1.308 -1.585 -1.613 -9999 -1.437 -1.209 -1.414 -1.684 -1.692 -1.458 -1.687 -1.642 1.914 -1.113 -0.877 -0.877 -0.837 -1.608 -1.642 -1.631 -1.594 -1.587 -1.654 -1.757 -1.735 -1.72 -1.708 -1.672 -1.641 -1.729 -1.742 -1.675 -1.647 -1.636 2.034 -0.96 2.121 -1.249 -1.327 -1.224 -1.084 -0.924 -0.899 -0.82 -0.682 -0.548 -0.36 -0.217 -0.096 -0.249 -0.421 -0.594 -0.723 -0.82 -0.813 -0.806 -0.696 -0.564 -0.395 -0.356 -0.272 -0.141 -0.026 -0.094 -0.161 -0.319 -0.495 -0.687 -0.772 -0.846 -0.864 -0.893 -0.831 -0.729 -0.618 -0.69 -0.916 -1.097 -1.329 -1.426 -1.407 -1.287 -1.058 -0.839 -0.637 -0.416 -0.468 -0.504 -0.447 -0.43 -0.444 -0.455 -0.698 -0.89 -1.105 -1.471 -1.734 -1.766 -1.478 -1.258 -1.012 -0.826 -0.728 -0.899
-9999 -9999 -9999 -1.539 -1.575 -1.593 -1.413 -1.281 -1.226 -1.153 -1.091 -1.059 -1.069 -1.041 -0.971 -0.901 -0.823 -0.835 -0.806 -0.902 -0.904 -0.926 -0.892 -0.909 -0.979 -0.959 -1.068 -0.939 -1.028 -1.036 -1.059 -1.112 -1.115 -1.059 -0.983 -0.918 -0.84 -0.791 -0.784 -0.822 -0.821 -0.814 -0.781 -0.738 -0.607 -0.558 -0.435 -0.364 -0.279 -0.379 -0.293 -0.237 -0.258 -0.196 -0.2 -0.222 -0.327 -0.22 -0.156 -0.173 -0.192 -0.241 -0.353 -0.37 -0.434 -0.505 -0.55 -0.587 -0.642 -0.7 -0.735 -0.861 -0.869 -0.92 -0.929 -0.968 -1.034 -1.035 -1.026 -0.965 -0.969 -0.973 -0.982 -0.901 -0.94 -0.914 -0.87 -0.824 -0.858 -0.821 -0.773 -0.757 -0.821 -0.763 -0.801 -0.764 -0.756 -0.827 -0.853 -0.89 -0.983 -0.977 -0.859 -1.085 -1.091 -1.121 -0.92 -0.923 -1.135 -1.123 -1.105 -1.129 -1.086 -1.118 -1.134 -0.993 -1.118 -1.065 -1.072 -1.074 -1.054 -1.09 -1.063 -1.069 -0.99 -1.078 -1.093 -1.055 -0.998 -1.005 -0.984 -1.023 -1.008 -1.018 -0.978 -0.973 -0.974 -0.984 -0.992 -0.949 -0.99 -0.985 -0.992 -0.958 -1.023 -0.928 -0.966 -0.974 -0.99 -1.004 -1.054 -0.999 -1.023 -1.032 -1.054 -0.979 -0.834 -0.847 -0.824 -1.06 -1.109 -1.066 -1.061 -1.044 -1.087 -1.051 -1.106 -1.13 -1.101 -1.102 -1.152 -1.148 -1.122 -1.126 -1.146 -1.072 -0.966 -1.165 -1.163 -1.179 -1.186 -1.187 -1.183 -1.197 -1.203 -1.176 -1.19 -1.185 -1.173 -1.231 -1.2 -1.257 -1.046 -0.994 -1.296 -1.272 -1.28 -1.322 -1.332 -1.427 -1.458 -1.207 -1.467 -1.452 -1.503 -1.545 -1.503 -1.545 -1.524 -1.562 -1.592 -1.34 -1.393 -1.375 -1.64 -1.595 -1.409 -1.701 -1.682 -1.711 -1.719 -1.49 -1.523 -1.56 -1.721 -1.726 -1.76 -1.746 -1.742 -1.795 -1.688 -1.654 -1.671 -1.692 -1.694 -1.678 -1.664 -1.653 -1.63 -1.617 -1.646 -1.699 -1.704 -1.707 -1.715 -1.6 -1.559 -1.505 -1.588 -1.689 -1.643 -1.633 -1.566 -1.603 -1.605 -1.572 -1.55 -1.612 -1.876 -1.893 -1.899 -1.776 -1.771 -1.849 -1.574 -1.541 -1.522 -1.607 -1.624 -1.583 -1.61 -1.566 -1.63 -1.629 -1.617 -1.609 -1.592 -1.585 -1.051 -1.045 -1.169 -1.328 -1.579 -1.35 -1.613 -1.606 -1.63 -1.658 -1.651 -1.595 -1.565 -1.611 -1.689 -1.464 -1.684 -1.695 -1.421 -1.312 -1.412 -1.395 -1.245 -1.041 -0.861 -1.111 -1.345 -1.593 -1.587 -1.592 -1.398 -1.166 -1.416 -1.642 -1.635 -1.402 -1.114 -0.839 -1.549 -1.577 -1.554 -1.578 -1.598 -1.601 -1.352 -1.336 -1.348 -1.641 -1.641 -1.652 -1.629 -1.63 -1.703 -1.699 -1.598 -1.876 -1.843 -1.861 -1.653 -1.678 -1.561 -1.56 -1.547 -1.526 -1.5 -0.653 -0.606 -0.745 -0.935 -1.599 -1.616 -1.593 -1.528 -1.547 -1.586 -1.277 -1.411 -1.712 -1.634 -1.237 -1.03 -1.517 -0.883 -0.913 -0.92 -1.092 -1.293 -1.401 -1.628 -1.592 -1.329 -1.596 -1.378 -1.38 -1.295 -1.17 -1.37 -1.675 -1.698 -1.465 -1.444 -1.431 -1.305 -1.093 -1.085 -1.142 -1.627 -1.611 -1.573 -1.539 -1.535 -1.656 -1.779 -1.732 -1.746 -1.663 -1.642 -1.615 -1.626 -1.711 -1.675 -1.611 -1.639 -1.634 2.001 1.929 -1.286 -1.383 -1.614 -1.37 -1.161 -0.963 -0.756 -0.57 -0.511 -0.392 -0.187 -0.073 -0.159 -0.376 -0.56 -0.688 -0.872 -1.021 -1.041 -1.042 -0.892 -0.723 -0.563 -0.359 -0.164 0.048 0.157 0.129 -0.001 -0.172 -0.311 -0.483 -0.538 -0.538 -0.582 -0.646 -0.624 -0.526 -0.351 -0.539 -0.725 -0.955 -1.134 -1.202 -1.156 -1.085 -0.921 -0.731 -0.613 -0.673 -0.671 -0.721 -0.662 -0.561 -0.423 -0.382 -0.68 -0.892 -1.104 -1.33 -1.463 1.989 -1.33 -1.075 -0.915 -0.707 -0.586 -0.78
-9999 -9999 -9999 -1.572 -1.586 -1.537 -1.408 -1.285 -1.243 -1.161 -1.125 -1.098 -1.058 -1.065 -1.083 -0.966 -0.841 -0.842 -0.831 -0.863 -0.864 -0.855 -0.878 -0.944 -0.964 -1.092 -1.095 -1.067 -0.997 -0.993 -0.998 -1.085 -1.146 -1.051 -0.961 -0.889 -0.858 -0.764 -0.752 -0.794 -0.786 -0.742 -0.814 -0.772 -0.601 -0.532 -0.423 -0.353 -0.263 -0.251 -0.247 -0.222 -0.23 -0.186 -0.188 -0.029 -0.248 -0.195 -0.157 -0.176 -0.181 -0.223 -0.338 -0.356 -0.433 -0.486 -0.556 -0.584 -0.608 -0.711 -0.766 -0.813 -0.828 -0.895 -0.924 -0.975 -0.999 -0.965 -0.918 -0.941 -0.95 -0.984 -0.983 -0.926 -0.87 -0.887 -0.839 -0.826 -0.776 -0.833 -0.772 -0.775 -0.77 -0.789 -0.775 -0.754 -0.779 -0.799 -0.843 -0.898 -0.967 -1.005 -1.016 -1.027 -1.039 -0.928 -1.093 -1.123 -1.129 -1.136 -1.073 -1.068 -1.099 -1.086 -1.086 -1.043 -1.097 -1.081 -1.03 -1.032 -1.021 -1.072 -1.069 -1.056 -1.042 -1.065 -1.061 -1.054 -0.801 -0.827 -0.992 -0.798 -0.8 -0.778 -0.991 -1.027 -0.975 -1.022 -1.026 -1.014 -0.978 -0.994 -0.979 -1.003 -1.036 -1.003 -0.944 -0.996 -0.983 -0.999 -0.996 -1.032 -0.996 -0.999 -1.026 -1.054 -0.823 -0.86 -0.893 -1.083 -1.051 -1.084 -1.057 -1.086 -1.141 -1.135 -1.075 -1.061 -1.105 -1.124 -1.117 -1.122 -1.117 -1.139 -1.133 -1.124 -0.936 -1.17 -1.18 -1.197 -1.184 -1.185 -1.149 -1.168 -1.202 -1.212 -1.185 -1.194 -1.234 -1.227 -1.202 -1.252 -1.281 -1.245 -1.288 -1.326 -1.298 -1.088 -1.38 -1.164 -1.204 -1.394 -1.442 -1.477 -1.237 -1.467 -1.549 -1.506 -1.509 -1.545 -1.549 -1.599 -1.595 -1.632 -1.686 -1.428 -1.69 -1.777 -1.776 -1.49 -1.455 -1.475 -1.439 -1.569 -1.557 -1.69 -1.605 -1.567 -1.723 -1.81 -1.693 -1.675 -1.667 -1.694 -1.684 -1.674 -1.651 -1.633 -1.621 -1.643 -1.65 -1.679 -1.711 -1.69 -1.681 -1.668 -1.543 -1.435 -1.514 -1.539 -1.533 -0.471 -0.598 -1.535 -1.601 -0.587 -0.745 -1.621 -1.81 -1.833 -1.801 -1.862 -1.606 -1.601 -1.579 -1.55 -1.573 -1.666 -1.682 -1.581 -1.716 -1.688 -1.628 -1.644 -1.627 -1.659 -1.605 -1.29 -1.279 -1.268 -1.271 -1.515 -1.525 -1.579 -1.625 -1.597 -1.667 -1.676 -1.646 -1.595 -1.579 -1.373 -1.418 -1.326 -1.444 -1.673 -1.317 -1.4 -1.65 -1.657 -1.399 -1.165 -0.914 -1.132 -1.374 -1.582 -1.579 -1.592 -1.395 -1.166 -1.341 -1.388 -1.369 -1.297 -1.109 -0.821 -1.528 -1.581 -1.608 -1.38 -1.367 -1.629 -1.62 -1.602 -1.623 -1.64 -1.731 -1.669 -1.634 -1.614 -1.633 -1.606 -1.731 -1.771 -1.834 -1.794 -1.555 -1.546 -1.506 -1.462 -1.46 -1.19 2.116 -0.875 -0.758 -0.963 -1.115 -1.61 -1.573 -1.643 -1.595 -1.578 -1.598 -1.572 -1.593 -1.663 -1.654 -1.653 -0.895 -1.588 -1.138 -1.172 -1.124 -1.158 -1.636 -1.639 -1.631 -1.377 -1.597 -1.612 -1.629 -1.37 -1.156 -1.111 -1.3 -1.421 -1.443 -1.359 -1.176 -1.178 -1.105 -1.134 -1.34 -1.67 -1.658 -1.645 -1.599 -1.501 -1.519 -1.697 -1.795 -1.797 -1.792 -1.793 -1.757 -1.728 -1.702 -1.622 -1.607 -1.585 -1.61 -9999 2.126 2.091 -1.375 -1.629 -1.631 -1.38 -1.291 -1.153 -0.878 -0.661 -0.435 -0.234 -0.142 -0.027 -0.291 -0.506 -0.709 -0.895 -1.004 -1.214 -1.34 -1.253 -1.065 -0.924 -0.717 -0.492 -0.283 -0.013 0.189 0.343 0.186 -0.016 -0.124 -0.27 -0.317 -0.323 -0.307 -0.361 -0.377 -0.318 -0.236 -0.392 -0.588 -0.748 -0.884 -0.964 -0.945 -0.861 -0.721 -0.757 -0.889 -0.929 -0.922 -0.922 -0.894 -0.79 -0.598 -0.384 -0.554 -0.773 -0.945 -1.122 -1.189 -1.182 -1.096 -0.945 -0.74 -0.523 -0.413 -0.599
-9999 -9999 -9999 -9999 -1.544 -1.511 -1.453 -1.311 -1.262 -1.213 -1.173 -1.148 -1.117 -1.087 -1.073 -1.004 -0.885 -0.876 -0.812 -0.84 -0.852 -0.879 -0.913 -0.969 -1.062 -1.069 -1.072 -1.033 -1.023 -1.009 -1 -1.026 -1.139 -1.052 -0.917 -0.842 -0.795 -0.684 -0.657 -0.652 -0.688 -0.702 -0.714 -0.705 -0.614 -0.554 -0.416 -0.326 -0.279 -0.233 -0.213 -0.196 -0.208 -0.18 -0.072 -0.115 -0.196 -0.161 -0.17 -0.186 -0.203 -0.226 -0.314 -0.345 -0.41 -0.425 -0.519 -0.56 -0.582 -0.684 -0.687 -0.752 -0.819 -0.901 -0.93 -0.947 -0.977 -0.99 -0.902 -0.963 -0.974 -0.989 -0.928 -0.905 -0.925 -0.897 -0.824 -0.797 -0.756 -0.789 -0.764 -0.711 -0.741 -0.748 -0.745 -0.78 -0.756 -0.788 -0.874 -0.873 -0.932 -1.01 -0.956 -0.999 -0.848 -1.092 -1.07 -1.078 -1.075 -1.12 -1.159 -1.055 -1.082 -1.122 -1.045 -1.11 -1.134 -1.061 -1.052 -1.037 -1.038 -1.037 -1.059 -1.041 -1.01 -0.954 -1.023 -0.801 -0.973 -1.015 -0.983 -0.993 -0.738 -0.747 -0.774 -0.801 -1.009 -1.022 -0.983 -0.937 -0.766 -1.066 -0.955 -0.981 -0.955 -0.983 -0.982 -0.991 -0.994 -0.981 -0.994 -1.02 -0.972 -1.065 -1.006 -1.046 -0.808 -1.027 -1.054 -1.069 -1.02 -1.047 -1.039 -0.869 -1.056 -1.097 -1.112 -1.073 -1.085 -1.105 -1.112 -1.15 -1.133 -1.154 -1.174 -1.127 -0.956 -0.975 -0.963 -1.16 -1.186 -1.158 -0.967 -1.21 -1.03 -1.188 -1.205 -1.161 -1.197 -0.978 -1.193 -1.19 -1.266 -1.255 -1.252 -1.295 -1.354 -1.344 -1.323 -1.156 -1.15 -1.399 -1.464 -1.491 -1.252 -1.509 -1.473 -1.515 -1.511 -1.51 -1.531 -1.588 -1.639 -1.619 -1.691 -1.663 -1.64 -1.673 -1.652 -1.695 -1.673 -1.535 -1.562 -1.714 -1.693 -1.697 -1.715 -1.703 -1.575 -1.597 -1.72 -1.712 -1.639 -1.721 -1.589 -1.581 -1.645 -1.637 -1.649 -1.651 -1.595 -1.597 -1.663 -1.674 -1.664 -1.65 -1.553 -1.453 -1.447 -1.457 -1.454 -1.48 -1.481 -0.888 -1.605 -1.696 -0.589 -1.636 -1.846 -1.862 -1.562 -1.843 -1.623 -1.597 -1.581 -1.573 -1.363 -1.686 -1.721 -1.618 -1.739 -1.732 -1.665 -1.714 -1.628 -1.599 -1.569 -1.521 -1.502 -1.502 -1.533 -1.509 -1.513 -1.58 -1.621 -1.401 -1.481 -1.44 -1.342 -1.582 -1.365 -1.301 -1.17 -1.123 -1.182 -1.646 -1.172 -1.375 -1.639 -1.664 -1.424 -1.193 -1.138 -1.073 -1.297 -1.334 -1.339 -1.377 -1.29 -1.102 -1.162 -1.133 -1.069 -1.083 -1.603 -1.578 -1.571 -1.562 -1.626 -1.676 -1.602 -1.612 -1.635 -1.65 -1.665 -1.71 -1.749 -1.687 -1.636 -1.528 -1.501 -1.54 -1.651 -1.75 -1.705 -1.781 -1.586 -1.524 -1.531 -1.482 -1.285 -1.432 2.171 2.176 2.116 -1.087 -1.274 -1.34 -1.576 -1.635 -1.655 -1.602 -1.627 -1.6 -1.602 -1.616 -1.682 -1.742 -1.727 -1.695 -1.38 -1.38 -1.267 -1.607 -1.596 -1.59 -1.618 -1.373 -1.583 -1.591 -1.603 -1.36 -1.143 -1.013 -1.148 -1.177 -1.166 -1.103 -0.932 -0.883 -0.906 -1.19 -1.463 -1.692 -1.691 -2.06 -1.632 -1.564 -1.53 -1.641 -1.663 -1.817 -1.839 -1.744 -1.805 -1.891 -1.704 -1.607 -1.573 -1.573 -1.609 -9999 2.086 2.169 2.108 -1.634 -1.637 -1.635 -1.361 -1.159 -0.914 -0.687 -0.461 -0.44 -0.388 -0.257 -0.369 -0.606 -0.818 -1.041 -1.225 -1.346 -1.617 -1.372 -1.274 -1.066 -0.824 -0.541 -0.364 -0.151 0.12 0.422 0.357 0.221 0.08 -0.074 -0.111 -0.136 -0.067 -0.091 -0.107 -0.096 -0.051 -0.251 -0.379 -0.529 -0.609 -0.672 -0.671 -0.64 -0.734 -0.962 -1.102 -1.164 -1.132 -1.143 -1.122 -0.964 -0.751 -0.534 -0.376 -0.579 -0.74 -0.884 -0.955 -0.933 -0.868 -0.752 -0.615 -0.409 -0.313 -0.488
-9999 -9999 -9999 -9999 -1.54 -1.554 -1.544 -1.441 -1.303 -1.258 -1.216 -1.173 -1.164 -1.099 -1.08 -1.014 -0.918 -0.874 -0.807 -0.869 -0.924 -0.943 -0.943 -1.007 -0.998 -1 -1.047 -1.035 -1.027 -0.971 -0.95 -1.007 -1.102 -1.038 -0.849 -0.771 -0.702 -0.605 -0.578 -0.609 -0.64 -0.635 -0.658 -0.65 -0.578 -0.508 -0.341 -0.319 -0.294 -0.207 -0.181 -0.171 -0.211 -0.178 -0.188 -0.155 -0.163 -0.176 -0.216 -0.201 -0.175 -0.2 -0.306 -0.318 -0.367 -0.419 -0.528 -0.552 -0.582 -0.647 -0.731 -0.758 -0.694 -0.878 -0.92 -0.908 -0.967 -0.969 -0.917 -0.924 -0.865 -0.932 -0.872 -0.861 -0.868 -0.834 -0.837 -0.756 -0.745 -0.791 -0.75 -0.72 -0.753 -0.757 -0.729 -0.803 -0.766 -0.786 -0.83 -0.883 -0.929 -0.99 -0.956 -0.929 -0.975 -0.997 -1.092 -1.082 -1.019 -1.08 -1.081 -1.115 -1.046 -1.075 -1.024 -1.043 -1.066 -1.049 -1.019 -1.051 -0.973 -0.991 -1.002 -0.961 -1.02 -0.865 -0.811 -1.002 -0.997 -1.002 -0.956 -0.939 -0.941 -0.979 -0.749 -0.783 -0.796 -0.752 -0.773 -0.795 -0.984 -0.996 -0.958 -0.961 -0.974 -0.977 -0.977 -0.987 -0.982 -1.018 -0.984 -1.062 -1.031 -1.111 -1.035 -1.034 -0.859 -1.069 -1.07 -1.107 -1.051 -1.053 -1.061 -0.84 -0.899 -0.879 -1.11 -1.103 -1.103 -1.104 -1.1 -1.103 -1.084 -1.142 -1.171 -0.942 -0.84 -0.945 -1.172 -1.178 -1.19 -1.198 -1.013 -0.988 -0.865 -0.954 -1.18 -1.197 -1.151 -1.154 -1.194 -1.217 -1.063 -1.236 -1.268 -1.299 -1.317 -1.355 -1.353 -1.14 -1.074 -1.19 -1.493 -1.494 -1.199 -1.484 -1.246 -1.238 -1.483 -1.284 -1.283 -1.355 -1.375 -1.373 -1.649 -1.667 -1.713 -1.678 -1.407 -1.444 -1.684 -1.579 -1.703 -1.708 -1.692 -1.697 -1.686 -1.683 -1.71 -1.588 -1.683 -1.68 -1.749 -1.745 -1.644 -1.557 -1.646 -1.582 -1.594 -1.598 -1.543 -1.578 -1.58 -1.588 -1.603 -1.643 -1.578 -1.559 -1.51 -1.5 -1.561 -1.563 -1.545 -1.102 -1.65 -1.663 -1.67 -1.601 -1.617 -1.57 -1.461 -1.552 -1.629 -1.616 -1.566 -1.304 -1.286 -1.599 -1.544 -1.589 -1.681 -1.71 -1.758 -1.734 -1.676 -1.572 -1.539 -1.524 -1.535 -1.508 -1.508 -1.519 -1.518 -1.598 -1.371 -1.244 -1.122 -1.107 -1.194 -1.308 -1.29 -1.129 -1.105 1.971 -1.141 -1.079 -1.102 -1.595 -1.622 -1.631 -1.419 -1.443 -1.353 -1.236 -1.336 -1.356 -1.256 -1.139 -1.087 -0.9 -0.846 -0.902 -0.89 -0.856 -1.666 -1.61 -1.577 -1.578 -1.62 -1.621 -1.598 -1.615 -1.672 -1.755 -1.732 -1.679 -1.679 -1.765 -1.664 -1.529 -1.458 -1.501 -1.551 -1.547 -1.805 -1.798 -1.906 -1.773 -1.591 -1.393 -1.5 2.066 2.166 2.104 2.101 2.086 -1.35 -1.567 -1.569 -1.624 -1.674 -1.621 -1.596 -1.636 -1.621 -1.652 -1.665 -1.735 -1.712 -1.649 -1.581 -1.561 -1.318 -1.577 -1.564 -1.577 -1.586 -1.575 -1.542 -1.314 -1.347 -1.262 -1.092 -0.908 -0.922 -0.943 -0.927 -0.871 -0.743 -0.742 -0.949 -1.103 -1.381 -1.428 -1.678 -1.678 -1.643 -1.593 -1.485 -1.528 -1.599 -1.661 -1.697 -1.67 -1.682 -1.614 -1.57 -1.582 -1.581 -1.658 -1.644 -9999 2.035 2.011 2.154 2.234 2.241 -1.405 -1.323 -1.129 -0.937 -0.661 -0.688 -0.674 -0.611 -0.488 -0.367 -0.591 -0.838 -1.098 -1.341 -1.597 -1.638 -1.705 -1.428 -1.118 -0.845 -0.548 -0.381 -0.154 0.087 0.341 0.486 0.367 0.225 0.196 0.175 0.136 0.153 0.115 0.087 0.128 0.081 -0.058 -0.198 -0.349 -0.431 -0.48 -0.476 -0.645 -0.875 -1.101 -1.287 -1.387 -1.372 -1.379 -1.29 -1.089 -0.849 -0.65 -0.399 -0.442 -0.529 -0.643 -0.707 -0.631 -0.597 -0.543 -0.421 -0.248 -0.418 -0.587
-9999 -9999 -9999 -9999 -9999 -1.522 -1.504 -1.476 -1.36 -1.299 -1.248 -1.257 -1.142 -1.106 -1.067 -1.003 -0.934 -0.909 -0.858 -0.894 -0.987 -0.976 -0.933 -0.977 -0.908 -0.937 -1.023 -1.003 -1.008 -0.994 -0.949 -0.956 -1.033 -0.999 -0.875 -0.717 -0.68 -0.611 -0.574 -0.578 -0.621 -0.59 -0.603 -0.597 -0.528 -0.441 -0.31 -0.305 -0.311 -0.218 -0.19 -0.187 -0.194 -0.155 -0.181 -0.165 -0.144 -0.163 -0.206 -0.195 -0.147 -0.159 -0.178 -0.244 -0.335 -0.447 -0.558 -0.556 -0.592 -0.646 -0.708 -0.731 -0.765 -0.843 -0.871 -0.969 -0.918 -0.951 -0.887 -0.888 -0.84 -0.845 -0.885 -0.823 -0.812 -0.821 -0.846 -0.743 -0.725 -0.76 -0.721 -0.731 -0.716 -0.739 -0.718 -0.764 -0.769 -0.798 -0.859 -0.854 -0.903 -0.947 -0.934 -0.914 -0.851 -0.994 -1.068 -1.067 -1.036 -1.079 -1.1 -1.121 -1.133 -1.077 -1.05 -1.041 -1.063 -0.824 -1.056 -1.066 -1.018 -0.968 -1.044 -1.032 -1.051 -1.032 -0.977 -0.981 -0.98 -0.965 -0.941 -0.951 -0.95 -0.997 -0.785 -1.006 -0.955 -0.746 -0.706 -0.79 -1.019 -1.02 -0.97 -0.914 -1.024 -0.923 -0.958 -0.979 -0.954 -1.021 -0.982 -0.968 -0.96 -1.052 -0.992 -1.039 -0.834 -1.053 -1.098 -1.09 -1.063 -1.063 -1.049 -1.04 -1.075 -0.834 -1.012 -1.096 -0.904 -1.102 -1.086 -1.114 -1.135 -1.168 -1.136 -0.952 -0.953 -1.151 -1.171 -1.172 -1.188 -1.222 -0.974 -0.911 -1.011 -1.18 -1.148 -1.193 -1.033 -0.996 -1.21 -0.977 -1.024 -1.284 -1.269 -1.292 -1.304 -1.337 -1.346 -1.176 -1.186 -1.419 -1.469 -1.497 -1.479 -1.491 -1.491 -1.52 -1.52 -1.287 -1.143 -1.139 -1.153 -1.295 -1.421 -1.621 -1.689 -1.46 -1.305 -1.331 -1.466 -1.455 -1.685 -1.751 -1.707 -1.665 -1.68 -1.693 -1.685 -1.679 -1.722 -1.69 -1.603 -1.597 -1.688 -1.685 -1.697 -1.694 -1.591 -1.539 -1.589 -1.661 -1.639 -1.606 -1.683 -1.647 -1.659 -1.631 -1.58 -1.572 -1.602 -1.605 -1.572 -1.564 -1.594 -1.631 -1.65 -1.676 -1.681 -1.868 -1.564 -1.485 -1.588 -1.584 -1.568 -1.572 -1.582 -1.543 -1.501 -1.533 -1.636 -1.701 -1.727 -1.717 -1.693 -1.586 -1.545 -1.511 -1.519 -1.535 -1.501 -1.535 -1.56 -1.643 -1.378 -1.033 -0.835 -0.854 -0.956 -1.041 -1.085 -1.106 -1.249 -1.337 -1.33 -1.238 -1.237 -1.597 -1.353 -1.369 -1.375 -1.616 -1.605 -1.343 -1.558 -1.612 -1.386 -1.151 -0.94 -0.756 -1.554 -1.659 -0.668 -1.724 -1.681 -1.619 -1.55 -1.582 -1.602 -1.609 -1.584 -1.601 -1.661 -1.763 -1.744 -1.681 -1.68 -1.622 -1.548 -1.464 -1.422 -1.521 -1.609 -1.642 -1.757 -1.76 -1.828 -1.788 -1.55 -1.388 -1.561 -2.024 -9999 2.096 2.151 2.096 -1.235 -1.305 -1.562 -1.401 -1.309 -1.064 -1.571 -1.587 -1.649 -1.692 -1.628 -1.716 -1.695 -1.652 -1.588 -1.521 -1.304 -1.314 -1.553 -1.562 -1.566 -1.557 -1.541 -1.316 -1.253 -1.08 -0.953 -0.952 -0.994 -0.903 -0.771 -0.634 -0.757 -0.951 -1.094 -1.305 -1.425 -1.291 -1.037 -1.649 -1.635 -1.567 -1.468 -1.456 -1.478 -1.496 -1.528 -1.511 -1.358 -1.338 -1.299 -1.539 -1.553 -1.605 -1.305 2.069 2.024 2.039 2.096 2.171 -1.167 -1.179 -1.152 -1.003 -0.796 -0.838 -0.91 -0.899 -0.83 -0.697 -0.572 -0.587 -0.812 -1.032 -1.25 -1.354 -1.379 -1.401 -1.292 -1.069 -0.807 -0.585 -0.359 -0.089 0.124 0.333 0.602 0.594 0.523 0.442 0.404 0.367 0.357 0.301 0.294 0.398 0.358 0.132 -0.003 -0.121 -0.273 -0.298 -0.459 -0.644 -0.922 -1.148 -1.404 -1.633 -1.627 -1.602 -1.351 -1.092 -0.859 -0.628 -0.42 -0.237 -0.355 -0.399 -0.414 -0.371 -0.41 -0.35 -0.209 -0.42 -0.635 -0.744
-9999 -9999 -9999 -9999 -9999 -9999 -1.531 -1.573 -1.45 -1.348 -1.279 -1.268 -1.153 -1.14 -1.153 -1.045 -0.986 -0.999 -1 -0.989 -1.061 -1.008 -0.912 -0.935 -0.912 -0.893 -0.98 -0.964 -0.97 -0.986 -0.96 -0.934 -0.942 -0.996 -0.876 -0.771 -0.678 -0.626 -0.534 -0.517 -0.513 -0.504 -0.531 -0.562 -0.527 -0.434 -0.335 -0.275 -0.213 -0.211 -0.184 -0.164 -0.179 -0.041 -0.187 -0.163 -0.143 -0.164 -0.19 -0.198 -0.197 -0.176 -0.153 -0.22 -0.328 -0.465 -0.561 -0.569 -0.602 -0.653 -0.716 -0.721 -0.789 -0.836 -0.869 -0.892 -0.968 -0.956 -0.88 -0.84 -0.784 -0.778 -0.794 -0.85 -0.816 -0.761 -0.734 -0.731 -0.68 -0.711 -0.714 -0.696 -0.696 -0.688 -0.656 -0.705 -0.755 -0.772 -0.856 -0.826 -0.868 -0.9 -0.915 -0.912 -0.97 -1.04 -1.01 -1.028 -1.028 -1.048 -1.065 -1.118 -1.087 -1.064 -1.057 -1.034 -1.022 -1.026 -1.013 -1.027 -0.97 -1.053 -0.999 -1.051 -0.978 -0.985 -0.987 -0.964 -0.965 -0.996 -0.964 -0.992 -0.977 -0.965 -0.931 -0.988 -0.985 -1.014 -0.716 -0.71 -0.964 -0.946 -0.969 -0.94 -0.977 -0.942 -0.998 -1.03 -1.045 -1.034 -1 -1.023 -0.978 -0.981 -0.98 -0.987 -1.005 -0.835 -0.862 -0.879 -0.843 -0.863 -1.033 -1.068 -1.121 -1.097 -1.117 -0.934 -1.104 -1.085 -1.106 -1.1 -1.169 -1.104 -1.156 -1.174 -1.138 -1.228 -1.166 -1.199 -1.196 -1.239 -0.996 -1.001 -1.182 -1.194 -1.172 -1.248 -1.24 -1.013 -1.02 -1.232 -1.233 -1.27 -1.078 -1.046 -1.053 -1.289 -1.338 -1.112 -1.371 -1.381 -1.391 -1.483 -1.444 -1.482 -1.499 -1.509 -1.528 -1.317 -1.076 -1.149 -1.164 -1.197 -1.397 -1.652 -1.457 -1.334 -1.353 -1.442 -1.348 -1.461 -1.696 -1.765 -1.667 -1.645 -1.677 -1.665 -1.736 -1.665 -1.692 -1.645 -1.642 -1.651 -1.599 -1.639 -1.668 -1.582 -1.726 -1.604 -1.606 -1.643 -1.632 -1.576 -1.623 -1.642 -1.659 -1.652 -1.658 -1.61 -1.638 -1.617 -1.59 -1.55 -1.598 -1.634 -1.658 -1.685 -1.666 -1.817 -1.606 -1.58 -1.6 -1.652 -1.576 -1.62 -1.603 -1.527 -1.518 -1.613 -1.567 -1.601 -1.74 -1.735 -1.729 -1.645 -1.576 -1.535 -1.532 -1.509 -1.531 -1.568 -1.618 -1.427 -1.286 -1.077 -1.04 -0.992 -0.909 -0.851 -0.922 -1.103 -1.302 -1.531 -1.549 2.018 -1.337 -1.574 -1.334 -1.328 -1.345 -1.615 -1.631 -1.327 -1.307 -1.337 -1.258 -1.086 -0.915 -0.7 -1.62 -1.681 -1.744 -1.715 -1.64 -1.587 -1.562 -1.585 -1.401 -1.619 -1.561 -1.572 -1.573 -1.598 -1.608 -1.586 -1.609 -1.573 -1.471 -1.326 -1.402 -1.457 -1.419 -1.633 -1.643 -1.493 -1.577 -1.563 -1.442 -1.523 -1.84 -1.986 -9999 2.176 2.094 2.009 2.024 -1.23 -1.359 -1.282 -1.053 -0.885 -0.708 -0.486 -1.802 -1.75 -1.716 -1.668 -1.677 -1.667 -1.63 -1.577 -1.561 -1.322 -1.543 -1.301 -1.552 -1.606 -1.543 -1.563 -1.346 -1.145 -1.097 -1.168 -1.188 -1.085 -0.952 -0.765 -0.967 -1.109 -1.293 -1.377 -1.634 -1.373 -1.108 -1.586 -1.585 -1.559 -1.504 -1.363 -1.388 -1.349 -1.445 -1.586 -1.623 -1.547 -1.449 -1.561 -1.601 -1.647 -1.646 2.059 1.986 2.019 2.009 -0.915 -0.937 -0.936 -0.908 -0.79 -0.926 -1.013 -1.099 -1.106 -1.042 -0.915 -0.754 -0.535 -0.737 -0.928 -1.09 -1.149 -1.128 -1.07 -1.055 -0.909 -0.688 -0.55 -0.336 -0.048 0.124 0.362 0.611 0.811 0.745 0.674 0.57 0.581 0.568 0.59 0.61 0.664 0.463 0.332 0.224 0.126 -0.013 -0.296 -0.392 -0.616 -0.909 -1.164 -1.455 -1.653 -1.634 -1.344 -1.22 -1.025 -0.826 -0.621 -0.407 -0.223 -0.16 -0.175 -0.166 -0.165 -0.118 -0.113 -0.349 -0.582 -0.797 -0.943
-9999 -9999 -9999 -9999 -9999 -9999 -1.509 -1.501 -1.477 -1.4 -1.322 -1.321 -1.217 -1.16 -1.153 -1.052 -0.975 -1.092 -1.064 -1.053 -1.112 -1.03 -0.944 -0.931 -0.855 -0.874 -0.951 -0.928 -0.942 -0.903 -0.874 -0.889 -0.899 -0.926 -0.878 -0.773 -0.656 -0.599 -0.505 -0.431 -0.463 -0.475 -0.508 -0.56 -0.533 -0.453 -0.371 -0.293 -0.187 -0.187 -0.175 -0.164 -0.182 -0.056 -0.085 -0.128 -0.162 -0.191 -0.183 -0.177 -0.181 -0.176 -0.155 -0.206 -0.332 -0.412 -0.56 -0.595 -0.581 -0.603 -0.697 -0.717 -0.759 -0.821 -0.858 -0.912 -0.979 -0.933 -0.867 -0.822 -0.785 -0.747 -0.751 -0.713 -0.779 -0.741 -0.688 -0.664 -0.684 -0.676 -0.712 -0.678 -0.669 -0.653 -0.626 -0.676 -0.746 -0.749 -0.796 -0.787 -0.794 -0.82 -0.883 -0.909 -0.946 -0.819 -0.925 -1.017 -1.028 -1.033 -1.04 -1.04 -1.084 -1.066 -1.047 -1.039 -1.026 -0.989 -0.983 -1.022 -0.955 -0.99 -0.959 -0.997 -0.999 -0.983 -0.895 -1.013 -0.962 -0.991 -0.962 -0.944 -0.945 -0.944 -0.924 -1 -0.965 -0.972 -0.984 -0.741 -0.922 -0.912 -0.943 -0.947 -1.012 -0.992 -0.979 -0.966 -1.024 -0.99 -1.057 -0.991 -0.994 -1.007 -0.963 -0.961 -1.017 -1.006 -0.799 -0.862 -0.801 -0.778 -0.899 -1.022 -1.066 -1.086 -1.12 -1.054 -0.927 -1.081 -1.11 -1.116 -0.899 -0.891 -1.122 -1.098 -1.138 -1.146 -1.171 -1.223 -1.187 -1.173 -1.171 -1.202 -1.012 -1.209 -1.2 -1.218 -1.233 -1.171 -1.258 -1.264 -1.24 -1.244 -1.254 -1.066 -0.967 -1.079 -1.095 -1.318 -1.332 -1.392 -1.432 -1.194 -1.224 -1.235 -1.469 -1.487 -1.311 -1.347 -1.352 -1.337 -1.353 -1.363 -1.421 -1.483 -1.491 -1.389 -1.616 -1.665 -1.401 -1.731 -1.738 -1.659 -1.555 -1.64 -1.573 -1.653 -1.661 -1.648 -1.659 -1.623 -1.634 -1.614 -1.525 -1.547 -1.562 -1.643 -1.647 -1.677 -1.57 -1.629 -1.631 -1.582 -1.61 -1.649 -1.704 -1.698 -1.617 -1.604 -1.619 -1.637 -1.641 -1.631 -1.68 -1.653 -1.672 -1.671 -1.658 -1.854 -1.657 -1.608 -1.658 -1.686 -1.627 -1.624 -1.503 -1.506 -1.59 -1.624 -1.61 -1.588 -1.609 -1.611 -1.635 -1.697 -1.618 -1.582 -1.563 -1.558 -1.589 -1.578 -1.628 -1.293 -1.356 -1.319 -1.284 -1.198 -1.114 -1.07 -1.087 -1.244 -1.313 -1.549 -1.56 -1.562 -1.326 -1.579 -1.572 -1.544 -1.33 -1.348 -1.36 -1.212 -1.061 -1.105 -1.054 -0.924 -0.908 -0.946 -0.944 -1.69 -1.667 -1.598 -1.627 -1.57 -1.563 -1.639 -1.492 -1.609 -1.551 -1.533 -1.534 -1.491 -1.491 -1.484 -1.481 -1.442 -1.346 -1.198 -1.293 -1.311 -1.333 -1.482 -1.522 -1.651 -1.596 -1.378 -1.291 -1.491 -1.789 -1.936 -9999 2.171 2.206 2.214 2.119 2.136 -1.103 -1.043 -0.884 -0.703 -0.558 -0.347 -0.36 -1.745 -1.628 -1.716 -1.685 -1.556 -1.598 -1.593 -1.349 -1.33 -1.532 -1.495 -1.541 -1.654 -1.602 -1.36 -1.289 -1.06 -1.254 -1.396 -1.398 -1.234 -1.069 -0.958 -1.118 -1.303 -1.402 -1.625 -1.636 -1.368 -1.623 -1.608 -1.632 -1.641 -1.469 -1.49 -1.389 -1.46 -1.543 -1.609 -1.829 -1.784 -1.562 -1.47 -1.372 -1.658 -9999 -9999 1.971 2.046 -0.953 -0.672 -0.728 -0.687 -0.66 -0.889 -1.09 -1.241 -1.32 -1.321 -1.226 -1.054 -0.848 -0.603 -0.626 -0.753 -0.845 -0.881 -0.847 -0.828 -0.807 -0.671 -0.502 -0.377 -0.176 0.033 0.232 0.443 0.615 0.821 0.94 0.963 0.789 0.771 0.759 0.651 0.661 0.631 0.551 0.577 0.436 0.336 0.09 -0.183 -0.397 -0.604 -0.859 -1.105 -1.367 -1.43 -1.367 -1.232 -1.016 -0.877 -0.721 -0.5 -0.347 -0.106 0.12 0.069 0.113 0.082 0.071 -0.218 -0.412 -0.643 -0.865 -1.14
-9999 -9999 -9999 -9999 -9999 -9999 -1.517 -1.524 -1.51 -1.458 -1.361 -1.343 -1.243 -1.145 -1.092 -1.048 -1.009 -1.07 -1.046 -1.048 -1.044 -0.989 -0.918 -0.895 -0.873 -0.86 -0.875 -0.876 -0.899 -0.867 -0.87 -0.902 -0.876 -0.87 -0.854 -0.797 -0.686 -0.614 -0.548 -0.493 -0.485 -0.485 -0.508 -0.582 -0.512 -0.432 -0.336 -0.285 -0.17 -0.212 -0.19 -0.166 -0.192 -0.191 -0.198 -0.153 -0.208 -0.231 -0.155 -0.138 -0.22 -0.219 -0.125 -0.232 -0.345 -0.428 -0.572 -0.614 -0.597 -0.637 -0.681 -0.721 -0.741 -0.808 -0.818 -0.914 -0.931 -0.706 -0.816 -0.761 -0.72 -0.727 -0.734 -0.707 -0.712 -0.667 -0.633 -0.61 -0.676 -0.702 -0.747 -0.679 -0.621 -0.635 -0.595 -0.629 -0.682 -0.697 -0.764 -0.75 -0.748 -0.857 -0.869 -0.915 -0.946 -0.928 -0.963 -0.989 -1.004 -1.034 -1.048 -1.072 -1.022 -1.044 -1.098 -1.031 -1.022 -0.982 -0.996 -0.987 -0.927 -0.913 -0.979 -0.918 -0.954 -0.987 -0.997 -0.962 -0.982 -0.928 -0.923 -0.943 -0.937 -0.76 -0.747 -0.979 -0.934 -0.989 -0.987 -0.932 -0.884 -0.953 -0.952 -1.034 -0.959 -0.977 -0.992 -1.024 -1.007 -1.005 -0.795 -0.995 -0.992 -0.991 -1.022 -0.99 -0.984 -1.018 -1.018 -1.029 -0.871 -0.872 -0.851 -1.121 -1.083 -1.081 -1.087 -1.079 -1.076 -1.11 -1.125 -1.146 -0.917 -0.913 -1.152 -1.137 -1.132 -1.145 -1.166 -1.173 -1.182 -1.165 -1.168 -1.198 -1.188 -1.226 -1.23 -1.215 -1.246 -1.229 -1.216 -1.221 -1.255 -1.283 -1.276 -1.268 -1.052 -1.01 -1.115 -1.385 -1.442 -1.384 -1.191 -1.193 -1.404 -1.481 -1.498 -1.537 -1.575 -1.575 -1.565 -1.592 -1.613 -1.658 -1.702 -1.708 -1.688 -1.616 -1.593 -1.655 -1.425 -1.618 -1.662 -1.696 -1.636 -1.639 -1.574 -1.61 -1.651 -1.651 -1.42 -1.469 -1.722 -1.397 -1.522 -1.189 -1.562 -1.615 -1.648 -1.662 -1.666 -1.629 -1.557 -1.579 -1.634 -1.682 -1.731 -1.465 -1.409 -1.369 -1.617 -1.669 -1.657 -1.682 -1.628 -1.62 -1.603 -1.614 -1.608 -1.64 -1.653 -1.62 -1.619 -1.638 -1.712 -1.623 -1.514 -1.533 -1.598 -1.642 -1.745 -1.643 -1.523 -1.602 -1.635 -1.641 -1.647 -1.553 -1.562 -1.586 -1.588 -1.564 -1.105 -1.357 -1.561 -1.578 -1.561 -1.344 -1.426 -1.325 -1.178 -1.386 -1.601 -1.584 -1.575 -1.571 -1.329 -1.599 -1.63 -1.595 -1.572 -1.578 -1.339 -1.314 -1.306 -1.253 -1.084 -1.557 -1.131 2.001 -1.15 -1.073 -1.553 -1.567 -1.56 -1.575 -1.553 -1.637 -1.402 -1.546 -1.55 -1.535 -1.493 -1.51 -1.576 -1.553 -1.502 -1.415 -1.311 -1.186 -1.146 -1.202 -1.319 -1.433 -1.666 -1.775 -1.607 -1.547 -1.264 -1.468 -1.542 -1.655 -1.772 2.109 2.079 2.209 2.166 2.161 2.131 -0.806 -0.67 2.151 2.061 2.036 2.029 -0.65 -0.882 -1.117 -1.635 -1.585 -1.582 -1.578 -1.605 -1.58 -1.544 -1.532 -1.57 -1.599 -1.312 -1.239 -1.082 -1.083 -1.291 -1.602 -1.644 -1.398 -1.225 -1.122 -1.31 -1.372 -1.607 -1.62 -1.635 -1.623 -1.646 -1.637 -1.699 -1.745 -1.666 -1.574 -1.435 -1.502 -1.625 -1.86 -1.873 -1.833 -1.833 -1.595 -1.578 -1.617 -9999 1.991 1.791 1.994 1.949 -0.681 -0.476 -0.478 -0.685 -0.937 -1.151 -1.354 -1.529 -1.542 -1.335 -1.123 -0.919 -0.678 -0.489 -0.567 -0.608 -0.626 -0.6 -0.568 -0.547 -0.48 -0.363 -0.192 0.028 0.178 0.209 0.312 0.411 0.605 0.837 0.716 0.541 0.48 0.526 0.465 0.355 0.325 0.291 0.342 0.448 0.402 0.16 -0.1 -0.32 -0.551 -0.742 -0.952 -1.138 -1.174 -1.1 -1.045 -0.895 -0.713 -0.535 -0.375 -0.217 -0.004 0.216 0.293 0.273 0.342 0.083 -0.157 -0.425 -0.655 -0.926 -1.214
-9999 -9999 -9999 -9999 -9999 -9999 -9999 -1.528 -1.531 -1.545 -1.434 -1.365 -1.28 -1.176 -1.139 -1.069 -1.004 -1.05 -1.024 -0.949 -0.985 -1.006 -0.916 -0.909 -0.884 -0.79 -0.79 -0.798 -0.847 -0.819 -0.852 -0.853 -0.851 -0.816 -0.78 -0.742 -0.676 -0.6 -0.536 -0.489 -0.5 -0.498 -0.501 -0.551 -0.507 -0.431 -0.309 -0.2 -0.234 -0.305 -0.209 -0.193 -0.177 -0.166 -0.148 -0.138 -0.182 -0.182 -0.153 -0.113 -0.217 -0.224 -0.173 -0.277 -0.343 -0.42 -0.533 -0.622 -0.657 -0.653 -0.688 -0.707 -0.751 -0.762 -0.824 -0.875 -0.857 -0.796 -0.753 -0.73 -0.686 -0.688 -0.698 -0.691 -0.663 -0.632 -0.566 -0.578 -0.639 -0.681 -0.671 -0.626 -0.6 -0.586 -0.586 -0.6 -0.637 -0.659 -0.716 -0.711 -0.727 -0.793 -0.835 -0.861 -0.913 -0.939 -0.963 -0.961 -1.011 -1.064 -1.042 -1.068 -1.032 -0.994 -1.011 -1.007 -0.968 -0.99 -0.936 -0.981 -0.92 -0.95 -0.924 -0.732 -0.955 -0.984 -0.952 -0.932 -0.879 -0.898 -0.922 -0.956 -0.963 -0.93 -0.964 -0.986 -1.011 -0.976 -0.958 -0.952 -0.969 -0.982 -0.954 -1.026 -0.994 -0.96 -0.962 -0.964 -0.996 -0.782 -0.988 -0.797 -0.784 -0.797 -0.801 -0.818 -0.765 -1.015 -1.049 -1.065 -0.85 -1.042 -0.873 -1.069 -1.062 -1.113 -1.114 -1.126 -1.135 -1.096 -1.107 -1.112 -0.861 -0.934 -1.16 -1.159 -1.16 -1.149 -1.158 -1.23 -1.237 -1.187 -1.219 -1.163 -0.953 -0.97 -1.194 -1.206 -1.222 -0.98 -1.234 -1.238 -1.235 -1.313 -1.274 -1.27 -1.314 -1.073 -1.122 -1.406 -1.404 -1.4 -1.443 -1.399 -1.441 -1.473 -1.492 -1.498 -1.567 -1.599 -1.566 -1.581 -1.567 -1.645 -1.636 -1.654 -1.749 -1.401 -1.616 -1.392 -1.65 -1.646 -1.684 -1.686 -1.651 -1.661 -1.629 -1.647 -1.653 -1.417 1.996 -1.59 -1.581 -1.342 -1.164 -1.214 -1.558 -1.609 -1.672 -1.672 -1.656 -1.614 -1.589 -1.642 -1.626 -1.428 -1.503 -1.749 -1.669 -1.62 -1.59 -1.638 -1.658 -1.656 -1.594 -1.508 -1.519 -1.579 -1.609 -1.635 -1.655 -1.604 -1.699 -1.724 -1.747 -1.549 -1.555 -1.696 -1.746 -1.728 -1.73 -1.612 -1.586 -1.74 -1.759 -1.745 -1.598 -1.634 -1.621 -1.55 -1.516 -1.526 -1.063 -1.324 -1.672 -1.619 -1.596 -1.606 -1.674 -1.434 -1.425 -1.411 -1.408 -1.347 -1.343 -1.568 -1.325 -1.352 -1.626 -1.597 -1.52 -1.582 -1.578 -1.526 -1.509 -1.326 -1.279 -1.256 -1.384 -1.36 -1.344 -1.231 -1.081 -1.567 -1.562 -1.569 -1.227 -1.37 -1.594 -1.554 -1.539 -1.519 -1.524 -1.542 -1.625 -1.653 -1.537 -1.535 -1.382 -1.306 -1.284 -1.297 -1.391 -1.463 -1.768 -1.926 -1.942 -1.615 -1.325 -1.49 -1.589 -1.572 -1.472 -1.389 1.976 2.071 2.131 2.166 2.109 2.161 2.281 2.129 2.111 2.091 2.106 -0.557 -0.773 -0.933 -1.579 -1.572 -1.567 -1.607 -1.668 -1.624 -1.568 -1.538 -1.548 -1.561 -1.094 -1.059 -0.933 -1.091 -1.321 -1.598 -1.375 -1.248 -1.118 -1.184 -1.399 -1.581 -1.563 -1.584 -1.664 -1.629 -1.593 -1.702 -1.72 -1.738 -1.7 -1.596 -1.454 -1.499 -1.572 -1.622 -1.888 -1.868 -1.845 -1.607 -1.557 -1.589 -1.599 1.964 1.734 1.874 1.734 1.834 -0.45 -0.43 -0.659 -0.936 -1.165 -1.404 -1.566 -1.534 -1.329 -1.138 -0.937 -0.696 -0.447 -0.37 -0.394 -0.392 -0.384 -0.366 -0.381 -0.278 -0.145 -0.154 -0.141 -0.07 0.053 0.125 0.27 0.409 0.59 0.471 0.346 0.258 0.165 0.137 0.075 0.054 0.074 0.154 0.26 0.387 0.143 -0.1 -0.24 -0.405 -0.639 -0.768 -0.869 -0.896 -0.908 -0.846 -0.73 -0.573 -0.385 -0.257 -0.103 0.102 0.268 0.509 0.544 0.387 0.187 -0.096 -0.415 -0.642 -0.9 -1.169
