ncols 455
nrows 31
xllcorner    464064
yllcorner    86014
cellsize     2
NODATA_value -9999
-1.234 -1.267 -1.305 -1.34 -1.38 -1.465 -1.497 -1.567 -1.442 -1.688 -1.659 -1.135 -1.131 -1.351 -1.561 -1.681 -1.851 -1.612 -1.581 -1.577 -1.755 -1.616 -9999 1.616 -9999 -1.505 -1.512 -9999 -9999 -9999 -9999 -9999 -9999 -9999 -9999 -9999 -9999 -9999 -9999 -9999 -9999 -9999 -9999 -9999 -9999 -9999 -9999 -9999 -9999 1.674 -9999 -9999 -9999 1.771 1.844 1.801 -9999 -9999 -9999 1.829 1.849 1.786 1.759 1.851 1.794 1.829 1.796 1.734 1.739 1.711 1.776 1.709 0.793 0.774 0.611 0.454 0.28 0.046 -0.112 -0.325 -0.439 -0.562 -0.584 -0.654 -0.722 -0.746 -0.688 -0.554 -0.443 -0.31 -0.147 0.023 0.115 0.276 0.418 0.639 0.712 0.808 1.007 1.174 1.356 1.501 1.426 1.419 1.436 1.526 1.479 1.509 1.437 1.26 1.092 0.995 0.895 0.754 0.659 0.606 0.54 0.423 0.412 0.443 0.47 0.502 0.474 0.43 0.15 0.009 -0.101 -0.196 -0.247 -0.344 -0.357 -0.368 -0.309 -0.236 -0.128 -0.086 0.012 0.129 0.246 0.359 0.511 0.688 0.848 1.01 1.046 1.282 1.534 1.662 1.759 1.702 1.737 1.779 1.767 1.817 1.712 1.767 1.807 1.889 1.902 1.857 1.914 1.799 1.924 1.892 1.929 1.999 1.984 1.887 1.954 1.754 1.832 1.867 1.739 1.709 1.727 1.804 1.869 1.822 1.749 1.657 1.597 1.594 1.587 1.532 1.527 1.472 1.517 1.507 1.572 1.325 1.104 0.865 0.644 0.455 0.258 0.082 -0.146 -0.32 -0.53 -0.739 -0.899 -1.085 -1.205 -1.405 -1.496 -1.527 -1.443 -1.257 -1.103 -1.112 -1.087 -0.967 -0.811 -0.613 -0.5 -0.351 -0.182 -0.035 0.193 0.416 0.554 0.704 0.942 0.951 0.896 0.857 0.844 0.907 0.876 1.004 1.015 1.139 1.213 1.284 1.364 1.434 1.452 1.432 1.407 1.422 1.437 1.502 1.527 1.469 1.529 1.617 1.664 1.549 1.494 1.464 1.572 1.579 1.609 1.609 1.644 1.599 1.552 1.554 1.652 1.607 1.662 1.569 1.589 1.649 1.609 1.632 1.702 1.712 1.654 1.729 1.662 1.624 1.639 1.604 1.594 1.597 1.717 1.649 1.687 1.702 1.654 1.754 1.564 1.532 1.517 1.512 1.607 1.609 1.547 1.519 1.497 1.467 1.544 1.552 1.579 1.569 1.519 1.417 1.479 1.522 1.477 1.429 1.409 1.439 1.544 1.532 1.554 1.529 1.562 1.557 1.619 1.639 1.637 1.744 1.704 1.669 1.662 1.677 1.642 1.657 1.639 1.567 1.612 1.612 1.632 1.594 1.644 1.644 1.679 1.614 1.634 1.634 1.634 1.689 1.699 1.714 1.772 1.877 1.767 1.757 1.789 1.694 1.719 1.769 1.794 1.777 1.654 1.757 1.729 1.802 1.722 1.647 1.669 1.714 1.744 1.747 1.754 1.759 1.704 1.752 1.764 1.777 1.814 1.677 1.729 1.687 1.632 1.624 1.604 1.669 1.757 1.612 1.617 1.627 1.602 1.547 1.587 1.597 1.602 1.672 1.694 1.722 1.617 1.734 1.837 1.709 1.667 1.634 1.627 1.692 1.794 1.777 1.734 1.752 1.654 1.692 1.769 1.722 1.752 1.827 1.827 1.932 1.907 1.944 1.904 1.849 1.847 1.889 1.804 1.704 1.789 1.837 1.737 1.722 1.739 1.694 1.694 1.669 1.644 1.602 1.704 1.747 1.647 1.759 1.682 1.707 1.787 1.747 1.699 1.744 1.819 1.754 1.767 1.792 1.774 1.799 1.784 1.722 1.752 1.749 1.619 1.457 1.328 1.324 1.473 1.516 1.261 1.542 1.58 1.582 1.677 1.632 1.699 1.724 1.787
-1.287 -1.29 -1.328 -1.377 -1.431 -1.505 -1.571 -1.381 -1.659 -1.735 -1.476 -1.363 -1.19 -1.419 -1.872 -1.919 -1.804 -1.781 -1.791 -1.581 -1.308 -9999 -9999 -9999 -9999 -1.451 -9999 -9999 -9999 1.474 -9999 -9999 -9999 -9999 1.539 -9999 -9999 -9999 -9999 -9999 -9999 -9999 -9999 -9999 -9999 -9999 -9999 -9999 -9999 -9999 -9999 -9999 -9999 1.786 1.849 1.819 1.769 -9999 -9999 1.789 1.814 1.704 1.754 1.846 1.796 1.834 1.724 1.714 1.694 1.679 1.696 1.686 1.621 0.944 0.742 0.552 0.387 0.252 0.077 -0.141 -0.225 -0.348 -0.423 -0.487 -0.543 -0.551 -0.466 -0.385 -0.323 -0.178 0.006 0.157 0.342 0.506 0.648 0.742 0.828 1.029 1.18 1.363 1.486 1.441 1.486 1.496 1.544 1.499 1.476 1.544 1.335 1.202 1.039 0.903 0.764 0.624 0.501 0.38 0.379 0.274 0.259 0.264 0.3 0.338 0.374 0.198 0.04 -0.117 -0.24 -0.375 -0.443 -0.563 -0.609 -0.622 -0.54 -0.409 -0.379 -0.304 -0.187 -0.095 0.023 0.169 0.333 0.506 0.659 0.895 0.952 1.17 1.282 1.582 1.723 1.694 1.719 1.719 1.709 1.737 1.794 1.767 1.759 1.862 1.929 1.879 1.847 1.849 1.934 1.899 1.927 1.902 1.862 1.902 1.884 1.834 1.827 1.734 1.702 1.717 1.679 1.687 1.727 1.722 1.682 1.557 1.599 1.712 1.587 1.487 1.512 1.497 1.442 1.402 1.512 1.329 1.035 0.895 0.636 0.442 0.236 0.016 -0.177 -0.38 -0.59 -0.771 -0.96 -1.181 -1.35 -1.523 -1.746 -1.778 -1.559 -1.317 -1.333 -1.346 -1.28 -1.175 -0.992 -0.839 -0.639 -0.51 -0.335 -0.148 0.076 0.27 0.403 0.628 0.817 1.055 1.115 1.096 1.083 1.106 1.115 1.177 1.221 1.297 1.355 1.474 1.489 1.499 1.484 1.499 1.449 1.407 1.452 1.417 1.574 1.544 1.544 1.552 1.529 1.524 1.474 1.527 1.519 1.549 1.584 1.577 1.589 1.549 1.624 1.597 1.654 1.634 1.622 1.639 1.704 1.684 1.659 1.587 1.727 1.579 1.589 1.782 1.697 1.589 1.619 1.624 1.612 1.619 1.734 1.564 1.559 1.599 1.579 1.637 1.602 1.557 1.642 1.517 1.507 1.502 1.564 1.544 1.464 1.484 1.554 1.549 1.542 1.524 1.609 1.489 1.474 1.494 1.514 1.482 1.437 1.457 1.492 1.474 1.502 1.482 1.542 1.547 1.629 1.627 1.772 1.564 1.717 1.664 1.694 1.734 1.637 1.604 1.584 1.642 1.579 1.617 1.622 1.547 1.604 1.732 1.674 1.672 1.562 1.729 1.654 1.652 1.639 1.704 1.647 1.659 1.697 1.692 1.684 1.679 1.692 1.677 1.654 1.657 1.639 1.779 1.737 1.712 1.684 1.677 1.687 1.779 1.817 1.719 1.669 1.682 1.629 1.674 1.762 1.754 1.682 1.637 1.637 1.747 1.684 1.562 1.614 1.649 1.647 1.564 1.589 1.532 1.542 1.637 1.632 1.537 1.504 1.519 1.564 1.617 1.599 1.552 1.617 1.657 1.627 1.639 1.597 1.622 1.647 1.622 1.634 1.642 1.569 1.619 1.709 1.719 1.757 1.797 1.827 1.729 1.724 1.834 1.797 1.919 1.882 1.859 1.794 1.849 1.842 1.849 1.844 1.797 1.769 1.772 1.672 1.659 1.674 1.722 1.629 1.744 1.717 1.759 1.682 1.754 1.854 1.832 1.772 1.909 1.767 1.809 1.732 1.744 1.754 1.659 1.762 1.664 1.629 1.523 1.144 1.042 0.969 0.935 1.243 1.261 1.258 1.281 1.284 1.371 1.416 1.521 1.684 1.762 1.742
-1.263 -1.311 -1.383 -1.415 -1.482 -1.501 -1.603 -1.436 -1.704 -1.799 -1.605 -1.436 1.609 -1.079 -1.643 -1.834 -1.784 -1.816 -1.831 -1.601 1.549 -9999 -9999 -9999 -9999 -9999 -9999 -9999 -9999 -9999 -9999 -9999 1.449 1.434 1.554 -9999 -9999 -9999 -9999 -9999 -9999 -9999 -9999 -9999 -9999 -9999 -9999 -9999 -9999 -9999 -9999 -9999 -9999 -9999 -9999 1.829 1.786 -9999 1.649 -9999 -9999 1.721 1.734 1.764 1.744 1.791 1.676 -0.411 -0.236 1.636 1.616 1.566 1.536 0.876 0.871 0.163 0.512 0.393 0.168 0.018 -0.078 -0.189 -0.256 -0.287 -0.282 -0.225 -0.225 -0.217 -0.128 -0.008 0.168 0.391 0.626 0.762 0.84 0.962 1.076 1.215 1.308 1.561 1.536 1.514 1.521 1.569 1.556 1.549 1.619 1.358 1.225 1.101 0.875 0.791 0.65 0.509 0.353 0.232 0.189 0.076 0.028 0.055 0.089 0.16 0.253 0.043 -0.115 -0.225 -0.403 -0.589 -0.696 -0.784 -0.826 -0.827 -0.762 -0.638 -0.591 -0.485 -0.386 -0.261 -0.15 0.005 0.195 0.349 0.503 0.595 0.714 0.939 1.194 1.432 1.665 1.652 1.704 1.732 1.637 1.669 1.709 1.784 1.784 1.769 1.812 1.807 1.899 1.867 1.957 2.012 1.812 1.824 1.802 1.759 1.792 1.774 1.717 1.654 1.629 1.657 1.617 1.642 1.627 1.587 1.557 1.589 1.534 1.427 1.482 1.519 1.494 1.412 1.352 1.402 1.517 1.256 0.955 0.821 0.651 0.434 0.236 0.043 -0.146 -0.385 -0.593 -0.838 -1.066 -1.27 -1.528 -1.841 -1.811 -1.806 -1.581 -1.563 -1.554 -1.536 -1.456 -1.254 -1.122 -0.95 -0.799 -0.64 -0.429 -0.201 -0.003 0.188 0.333 0.571 0.784 0.989 1.199 1.349 1.311 1.348 1.349 1.413 1.486 1.504 1.562 1.579 1.607 1.594 1.569 1.517 1.457 1.449 1.509 1.522 1.527 1.649 1.529 1.517 1.487 1.459 1.529 1.517 1.537 1.594 1.589 1.634 1.509 1.572 1.634 1.659 1.649 1.687 1.652 1.627 1.597 1.672 1.672 1.602 1.589 1.594 1.572 1.667 1.539 1.579 1.599 1.572 1.637 1.642 1.717 1.607 1.487 1.539 1.544 1.554 1.602 1.559 1.629 1.554 1.494 1.559 1.534 1.544 1.467 1.534 1.567 1.547 1.467 1.519 1.504 1.504 1.449 1.489 1.567 1.524 1.602 1.532 1.567 1.502 1.442 1.529 1.422 1.509 1.572 1.572 1.644 1.647 1.634 1.597 1.624 1.649 1.554 1.524 1.564 1.579 1.604 1.622 1.669 1.579 1.669 1.634 1.604 1.607 1.609 1.642 1.637 1.712 1.679 1.652 1.747 1.649 1.647 1.639 1.707 1.644 1.654 1.717 1.647 1.679 1.689 1.754 1.647 1.662 1.644 1.627 1.687 1.802 1.727 1.607 1.627 1.714 1.679 1.684 1.637 1.702 1.589 1.537 1.669 1.649 1.567 1.502 1.507 1.557 1.617 1.599 1.622 1.494 1.497 1.532 1.457 1.507 1.444 1.437 1.529 1.524 1.567 1.487 1.409 1.629 1.567 1.659 1.667 1.579 1.552 1.544 1.589 1.587 1.519 1.614 1.647 1.684 1.732 1.687 1.734 1.672 1.709 1.717 1.714 1.737 1.834 1.842 1.852 1.917 1.787 1.782 1.799 1.882 1.804 1.764 1.729 1.634 1.622 1.607 1.652 1.674 1.742 1.739 1.797 1.787 1.807 1.802 1.837 1.812 1.837 1.779 1.759 1.734 1.767 1.767 1.668 1.516 1.347 1.046 0.816 0.679 0.56 0.509 1.064 1.085 1.063 1.064 1.063 1.124 0.796 1.01 1.452 1.405 1.619
-1.303 -1.356 -1.39 -1.442 -1.499 -1.535 -1.622 -1.667 -1.737 -1.832 -1.566 -1.389 -1.01 1.659 -1.891 -1.869 -1.801 -1.6 -1.631 -1.521 1.609 1.634 -9999 -9999 -9999 -9999 -9999 -9999 -9999 -9999 -9999 -9999 1.484 1.476 1.516 -9999 -9999 -9999 -9999 -9999 1.479 -9999 -9999 -9999 -9999 -9999 -9999 -9999 1.809 -9999 -9999 -9999 1.874 -9999 -9999 -9999 1.831 -9999 -9999 -9999 -9999 -9999 1.739 1.696 -1.185 -0.897 -0.599 -0.42 -0.218 1.516 1.469 1.546 0.614 0.8 1.075 0.94 0.655 0.533 0.376 0.196 0.064 0.001 -0.032 -0.054 -0.095 -0.071 -0.025 0.026 0.122 0.231 0.381 0.624 0.791 0.93 1.078 1.153 1.239 1.408 1.559 1.546 1.574 1.506 1.576 1.574 1.541 1.599 1.477 1.284 1.073 0.884 0.769 0.654 0.483 0.362 0.206 0.104 -0.052 -0.106 -0.152 -0.156 -0.132 -0.06 0.063 -0.049 -0.211 -0.41 -0.571 -0.754 -0.92 -1.053 -1.099 -1.049 -0.914 -0.857 -0.772 -0.701 -0.562 -0.449 -0.331 -0.204 -0.051 0.015 0.175 0.4 0.595 0.816 1.063 1.212 1.499 1.6 1.692 1.644 1.649 1.662 1.664 1.729 1.722 1.729 1.729 1.807 1.762 1.842 1.854 1.867 1.834 1.762 1.687 1.804 1.702 1.614 1.537 1.572 1.577 1.702 1.667 1.587 1.594 1.547 1.517 1.652 1.557 1.437 1.422 1.512 1.512 1.407 1.344 1.442 1.407 1.172 0.974 0.815 0.654 0.532 0.278 0.044 -0.158 -0.39 -0.626 -0.901 -1.113 -1.314 -1.538 -1.821 -1.816 -1.813 -1.781 -1.781 -1.753 -1.738 -1.528 -1.4 -1.26 -1.107 -0.913 -0.735 -0.511 -0.305 -0.101 0.067 0.288 0.49 0.723 0.981 1.175 1.391 1.647 1.604 1.619 1.589 1.602 1.594 1.559 1.624 1.662 1.602 1.637 1.532 1.614 1.589 1.617 1.599 1.572 1.599 1.572 1.557 1.554 1.582 1.624 1.684 1.669 1.619 1.587 1.617 1.647 1.569 1.629 1.659 1.662 1.702 1.609 1.614 1.579 1.622 1.699 1.674 1.657 1.644 1.604 1.627 1.567 1.637 1.709 1.647 1.629 1.657 1.567 1.569 1.517 1.567 1.559 1.572 1.597 1.577 1.589 1.687 1.624 1.567 1.554 1.579 1.619 1.599 1.547 1.587 1.412 1.549 1.557 1.594 1.577 1.527 1.564 1.584 1.569 1.604 1.522 1.534 1.502 1.579 1.479 1.474 1.517 1.559 1.524 1.542 1.667 1.534 1.557 1.507 1.602 1.567 1.509 1.572 1.572 1.594 1.502 1.572 1.689 1.582 1.654 1.684 1.724 1.642 1.682 1.707 1.654 1.624 1.692 1.649 1.607 1.597 1.582 1.679 1.664 1.674 1.627 1.687 1.639 1.702 1.617 1.574 1.604 1.612 1.654 1.679 1.684 1.689 1.704 1.667 1.659 1.617 1.599 1.544 1.524 1.549 1.714 1.714 1.554 1.512 1.454 1.592 1.577 1.569 1.594 1.544 1.602 1.489 1.472 1.464 1.404 1.532 1.354 1.369 1.504 1.494 1.532 1.504 1.512 1.559 1.597 1.537 1.562 1.584 1.542 1.532 1.527 1.454 1.562 1.617 1.584 1.579 1.624 1.644 1.604 1.594 1.597 1.594 1.634 1.779 1.837 1.867 1.779 1.789 1.807 1.774 1.769 1.799 1.664 1.709 1.677 1.639 1.612 1.644 1.672 1.812 1.752 1.699 1.722 1.787 1.862 1.852 1.802 1.784 1.777 1.767 1.746 1.582 1.529 1.337 1.125 0.596 0.455 0.311 0.303 0.191 0.153 0.886 0.799 0.833 0.868 0.894 0.457 0.583 1.155 1.31 1.454
-1.359 -1.409 -1.381 -1.466 -1.512 -1.57 -1.655 -1.718 -1.752 -1.653 -1.492 -1.608 -0.881 -1.802 -1.7 -1.674 -1.638 -1.456 -1.579 -1.588 1.676 1.621 -9999 -9999 -9999 -9999 -9999 -9999 -9999 -9999 -9999 -9999 1.546 -9999 -9999 -9999 -9999 -9999 -9999 1.376 -9999 -9999 -9999 -9999 -9999 -9999 -9999 -9999 -9999 -9999 1.786 1.869 1.864 1.812 1.764 -1.537 -1.572 -1.844 -1.836 -9999 -9999 1.699 1.684 -1.304 -1.11 1.589 1.716 1.701 -0.174 -0.017 1.464 1.506 0.648 0.856 1.089 0.972 0.846 0.685 0.522 0.391 0.32 0.267 0.216 0.184 0.13 0.172 0.202 0.312 0.385 0.452 0.629 0.86 0.931 1.076 1.235 1.33 1.364 1.534 1.514 1.609 1.586 1.551 1.486 1.514 1.514 1.501 1.323 1.187 0.919 0.753 0.641 0.448 0.309 0.12 0.007 -0.11 -0.24 -0.277 -0.349 -0.377 -0.302 -0.255 -0.131 -0.119 -0.337 -0.576 -0.766 -0.906 -1.116 -1.249 -1.359 -1.329 -1.123 -1.037 -0.964 -0.901 -0.788 -0.662 -0.538 -0.45 -0.247 -0.108 0.076 0.256 0.483 0.722 0.89 1.071 1.257 1.414 1.614 1.637 1.589 1.499 1.684 1.677 1.752 1.787 1.747 1.759 1.709 1.722 1.722 1.707 1.762 1.629 1.602 1.667 1.664 1.542 1.487 1.579 1.514 1.527 1.644 1.549 1.494 1.444 1.524 1.499 1.497 1.427 1.409 1.414 1.402 1.317 1.369 1.367 1.362 1.254 0.969 0.755 0.594 0.419 0.19 0.058 -0.193 -0.389 -0.692 -0.918 -1.134 -1.308 -1.573 -1.771 -1.751 -1.756 -1.733 -1.532 -1.741 -1.708 -1.756 -1.498 -1.385 -1.266 -1.015 -0.818 -0.621 -0.377 -0.143 0.039 0.312 0.5 0.691 0.948 1.172 1.336 1.634 1.624 1.724 1.754 1.679 1.724 1.647 1.654 1.637 1.587 1.669 1.667 1.654 1.717 1.744 1.657 1.582 1.622 1.597 1.632 1.629 1.637 1.664 1.697 1.667 1.667 1.674 1.604 1.622 1.704 1.777 1.697 1.712 1.692 1.604 1.649 1.632 1.644 1.704 1.729 1.634 1.627 1.659 1.624 1.619 1.639 1.664 1.639 1.644 1.699 1.614 1.617 1.582 1.574 1.592 1.594 1.594 1.637 1.697 1.644 1.674 1.652 1.649 1.717 1.617 1.702 1.644 1.592 1.597 1.622 1.599 1.632 1.622 1.617 1.609 1.607 1.614 1.544 1.527 1.557 1.582 1.509 1.452 1.439 1.457 1.569 1.602 1.489 1.582 1.544 1.579 1.582 1.429 1.569 1.559 1.524 1.597 1.677 1.607 1.597 1.629 1.582 1.572 1.607 1.649 1.602 1.662 1.627 1.629 1.642 1.767 1.722 1.677 1.662 1.634 1.592 1.612 1.664 1.642 1.649 1.612 1.659 1.674 1.687 1.719 1.664 1.679 1.717 1.669 1.672 1.684 1.709 1.719 1.567 1.577 1.562 1.529 1.554 1.562 1.584 1.614 1.579 1.492 1.529 1.614 1.542 1.567 1.532 1.454 1.442 1.454 1.439 1.412 1.474 1.472 1.439 1.307 1.302 1.489 1.514 1.544 1.507 1.497 1.439 1.429 1.587 1.539 1.547 1.499 1.424 1.509 1.567 1.517 1.462 1.607 1.574 1.654 1.614 1.654 1.599 1.584 1.692 1.712 1.924 1.804 1.762 1.837 1.749 1.707 1.704 1.614 1.627 1.669 1.699 1.644 1.677 1.699 1.667 1.634 1.699 1.699 1.699 1.732 1.794 1.784 1.842 1.777 1.704 1.754 1.772 1.386 0.717 0.444 0.259 0.117 -0.014 -0.096 -0.186 -0.222 -0.173 -0.195 -0.184 0.614 -0.031 0.118 0.858 0.935 1.025 1.354
-1.411 -1.409 -1.464 -1.511 -1.532 -1.564 -1.706 -1.718 -1.811 -1.834 -1.589 -1.628 -1.15 1.596 1.641 -1.416 -1.443 -1.55 -1.821 -1.839 1.609 -9999 -9999 -9999 -9999 -9999 -9999 -9999 -9999 -9999 -9999 1.536 -9999 -9999 -9999 -9999 -9999 -9999 1.506 1.551 -9999 -9999 -9999 -9999 -9999 -9999 -9999 -9999 -9999 -9999 -9999 -9999 -9999 -9999 -1.536 -1.47 -1.586 -1.608 -9999 -9999 -9999 1.719 -1.359 -1.177 1.606 -0.818 1.701 1.591 1.561 1.489 1.489 1.516 0.68 0.93 1.131 1.206 1.054 0.876 0.699 0.607 0.505 0.52 0.482 0.465 0.507 0.446 0.42 0.486 0.586 0.675 0.887 0.966 1.075 1.258 1.379 1.56 1.556 1.556 1.529 1.674 1.526 1.491 1.569 1.539 1.509 1.406 1.168 1.025 0.904 0.621 0.454 0.31 0.16 -0.02 -0.149 -0.299 -0.447 -0.492 -0.554 -0.635 -0.533 -0.43 -0.379 -0.215 -0.463 -0.697 -0.936 -1.152 -1.291 -1.453 -1.597 -1.476 -1.296 -1.288 -1.211 -1.067 -0.97 -0.892 -0.751 -0.593 -0.435 -0.255 -0.017 0.126 0.372 0.602 0.743 0.916 1.08 1.287 1.634 1.582 1.547 1.572 1.692 1.687 1.664 1.672 1.684 1.639 1.622 1.642 1.654 1.639 1.582 1.602 1.604 1.612 1.554 1.532 1.447 1.557 1.542 1.522 1.524 1.432 1.382 1.489 1.377 1.364 1.384 1.382 1.367 1.357 1.357 1.319 1.377 1.419 1.309 1.198 1.048 0.825 0.632 0.453 0.231 0.043 -0.149 -0.377 -0.642 -0.854 -1.084 -1.281 -1.454 -1.569 -1.492 -1.706 -1.517 -1.435 -1.504 -1.713 -1.736 -1.703 -1.5 -1.352 -1.109 -0.836 -0.661 -0.312 -0.144 0.064 0.316 0.566 0.71 0.947 1.137 1.365 1.652 1.657 1.747 1.689 1.677 1.694 1.727 1.649 1.642 1.612 1.644 1.617 1.602 1.639 1.617 1.712 1.637 1.517 1.677 1.677 1.734 1.742 1.719 1.799 1.792 1.767 1.652 1.719 1.749 1.849 1.789 1.717 1.714 1.699 1.699 1.709 1.677 1.727 1.764 1.744 1.659 1.672 1.657 1.674 1.644 1.674 1.712 1.704 1.677 1.739 1.759 1.732 1.689 1.662 1.682 1.697 1.677 1.682 1.677 1.637 1.712 1.724 1.714 1.734 1.594 1.669 1.697 1.617 1.669 1.662 1.622 1.639 1.672 1.639 1.649 1.599 1.592 1.504 1.609 1.687 1.572 1.537 1.487 1.494 1.474 1.514 1.587 1.549 1.584 1.597 1.572 1.539 1.584 1.557 1.607 1.497 1.569 1.602 1.554 1.587 1.599 1.572 1.657 1.607 1.632 1.574 1.552 1.577 1.694 1.664 1.642 1.634 1.622 1.734 1.607 1.589 1.644 1.624 1.669 1.649 1.612 1.634 1.707 1.759 1.782 1.697 1.644 1.649 1.644 1.659 1.622 1.557 1.627 1.562 1.507 1.474 1.509 1.529 1.494 1.534 1.539 1.559 1.534 1.544 1.644 1.619 1.477 1.557 1.537 1.482 1.527 1.512 1.482 1.472 1.412 1.407 1.379 1.284 1.434 1.442 1.452 1.442 1.482 1.419 1.462 1.472 1.462 1.392 1.404 1.372 1.429 1.534 1.422 1.387 1.487 1.549 1.587 1.614 1.614 1.637 1.574 1.579 1.719 1.752 1.609 1.747 1.839 1.717 1.694 1.754 1.554 1.669 1.674 1.692 1.639 1.602 1.624 1.602 1.614 1.554 1.687 1.727 1.634 1.634 1.662 1.692 1.742 1.557 1.754 1.702 1.033 0.868 0.119 -0.029 -0.153 -0.267 -0.39 -0.488 -0.473 -0.481 -0.457 -0.441 -0.403 0.456 -0.161 0.725 0.792 0.924 0.722
-1.462 -1.5 -1.532 -1.544 -1.606 -1.64 -1.701 -1.713 -1.806 -1.841 -1.621 -1.73 1.589 1.684 1.824 -1.506 -1.645 -1.643 -1.644 -1.841 -1.588 -9999 -9999 -9999 -9999 -9999 -9999 -9999 -9999 -9999 -9999 -9999 -9999 -9999 -9999 -9999 1.699 -9999 -9999 -9999 -9999 -9999 -9999 -9999 -9999 -9999 -9999 -9999 -9999 -9999 -9999 1.776 -9999 -1.744 -1.804 -1.626 -1.824 -9999 1.762 1.756 1.836 1.726 -1.277 -1.112 1.631 -0.726 -0.482 -0.274 1.576 1.484 1.496 0.404 0.621 0.846 1.028 1.168 1.191 1.074 0.94 0.888 0.835 0.758 0.737 0.727 0.666 0.642 0.683 0.686 0.793 0.961 1.062 1.172 1.294 1.48 1.625 1.609 1.519 1.569 1.581 1.551 1.471 1.481 1.561 1.539 1.514 1.335 1.092 1.041 0.825 0.496 0.347 0.2 0.01 -0.153 -0.271 -0.453 -0.605 -0.726 -0.81 -0.862 -0.802 -0.709 -0.556 -0.403 -0.53 -0.802 -1.031 -1.24 -1.448 -1.509 -1.761 -1.513 -1.526 -1.539 -1.467 -1.327 -1.22 -1.124 -0.946 -0.756 -0.587 -0.371 -0.124 0.001 0.243 0.445 0.606 0.823 0.963 1.186 1.443 1.532 1.602 1.617 1.637 1.627 1.644 1.642 1.709 1.599 1.664 1.654 1.602 1.684 1.534 1.572 1.617 1.584 1.534 1.499 1.439 1.492 1.534 1.539 1.472 1.444 1.424 1.392 1.367 1.367 1.362 1.482 1.422 1.409 1.342 1.361 1.222 1.192 1.138 1.169 1.074 0.907 0.672 0.496 0.248 0.031 -0.116 -0.341 -0.559 -0.771 -0.981 -1.137 -1.247 -1.309 -1.416 -1.5 -1.422 -1.276 -1.496 -1.703 -1.723 -1.711 -1.534 -1.292 -1.064 -0.837 -0.633 -0.399 -0.196 0.101 0.309 0.532 0.713 0.929 1.207 1.458 1.684 1.717 1.759 1.757 1.699 1.689 1.692 1.669 1.667 1.574 1.612 1.572 1.527 1.562 1.639 1.614 1.554 1.617 1.679 1.812 1.804 1.767 1.702 1.824 1.767 1.739 1.757 1.777 1.799 1.817 1.762 1.742 1.774 1.777 1.752 1.714 1.759 1.772 1.789 1.719 1.667 1.654 1.649 1.727 1.664 1.719 1.747 1.747 1.694 1.759 1.762 1.719 1.727 1.767 1.797 1.764 1.769 1.854 1.739 1.687 1.769 1.762 1.829 1.767 1.657 1.699 1.622 1.694 1.692 1.707 1.637 1.649 1.642 1.629 1.617 1.689 1.704 1.637 1.649 1.664 1.547 1.587 1.579 1.512 1.532 1.492 1.519 1.567 1.564 1.524 1.577 1.604 1.567 1.559 1.539 1.474 1.564 1.637 1.529 1.544 1.559 1.579 1.582 1.549 1.602 1.542 1.517 1.592 1.627 1.464 1.682 1.634 1.619 1.597 1.572 1.557 1.667 1.644 1.687 1.617 1.709 1.667 1.667 1.619 1.579 1.682 1.709 1.649 1.612 1.564 1.462 1.472 1.497 1.494 1.484 1.504 1.514 1.497 1.512 1.539 1.557 1.574 1.502 1.542 1.544 1.537 1.489 1.459 1.459 1.459 1.464 1.499 1.519 1.532 1.542 1.374 1.407 1.407 1.434 1.402 1.402 1.507 1.417 1.434 1.432 1.477 1.452 1.394 1.424 1.404 1.352 1.417 1.384 1.347 1.394 1.477 1.489 1.614 1.599 1.564 1.557 1.592 1.757 1.654 1.672 1.734 1.739 1.839 1.704 1.767 1.584 1.719 1.707 1.649 1.594 1.602 1.622 1.689 1.614 1.552 1.574 1.724 1.554 1.552 1.574 1.634 1.467 1.366 1.329 1.015 0.798 0.71 0.644 -0.303 0.403 -0.565 -0.667 0.138 0.159 -0.716 -0.722 -0.71 -0.666 0.256 0.41 -0.219 0.723 0.843 1.005
-1.489 -1.549 -1.572 -1.606 -1.575 -1.625 -1.674 -1.739 -1.761 -1.801 -1.881 -1.833 -1.344 1.539 -1.407 -1.659 -1.889 -1.804 -1.784 -1.567 -9999 -9999 -9999 -9999 1.509 1.406 1.284 1.376 1.536 -9999 -9999 -9999 -9999 -9999 -9999 -9999 -9999 -9999 -9999 -9999 -9999 -9999 -9999 -9999 -9999 -9999 -9999 -9999 -1.771 -1.776 -9999 1.774 -1.841 -1.769 -1.746 1.734 -1.828 -9999 -9999 -9999 1.791 -1.359 -1.148 -1.024 -0.826 -0.59 -0.531 -0.446 -0.29 1.484 1.616 0.271 0.508 0.713 1.514 1.494 1.252 1.265 1.175 1.131 1.055 1.068 0.983 0.911 0.853 0.835 0.908 0.965 1.091 1.224 1.327 1.396 1.554 1.674 1.624 1.514 1.501 1.549 1.571 1.621 1.511 1.516 1.536 1.586 1.444 1.328 1.142 0.861 0.684 0.445 0.228 0.104 -0.119 -0.281 -0.436 -0.632 -0.808 -0.955 -1.069 -1.092 -1.045 -0.905 -0.723 -0.551 -0.534 -0.815 -1.094 -1.339 -1.588 -1.793 -1.776 -1.516 -1.783 -1.798 -1.57 -1.55 -1.437 -1.223 -1.052 -0.879 -0.678 -0.476 -0.275 -0.086 0.131 0.317 0.533 0.716 0.971 1.155 1.42 1.527 1.517 1.614 1.509 1.537 1.607 1.639 1.537 1.584 1.624 1.647 1.649 1.587 1.559 1.544 1.602 1.442 1.514 1.497 1.497 1.507 1.479 1.457 1.472 1.499 1.514 1.472 1.367 1.414 1.379 1.439 1.389 1.294 1.273 1.169 1.07 0.971 0.982 0.937 1.043 0.866 0.681 0.482 0.311 0.1 -0.076 -0.26 -0.488 -0.657 -0.813 -0.962 -1.039 -1.115 -1.233 -1.272 -1.218 -1.288 -1.494 -1.751 -1.718 -1.466 -1.411 -1.249 -1.051 -0.873 -0.621 -0.348 -0.125 0.063 0.293 0.535 0.738 0.977 1.237 1.464 1.707 1.732 1.792 1.739 1.702 1.734 1.639 1.692 1.679 1.634 1.604 1.552 1.597 1.587 1.549 1.652 1.649 1.667 1.704 1.832 1.812 1.792 1.764 1.817 1.802 1.779 1.829 1.802 1.842 1.817 1.882 1.789 1.827 1.779 1.742 1.744 1.754 1.732 1.814 1.844 1.749 1.777 1.762 1.757 1.717 1.797 1.787 1.742 1.787 1.799 1.884 1.849 1.799 1.814 1.812 1.919 1.779 1.937 1.887 1.837 1.794 1.767 1.824 1.819 1.719 1.772 1.677 1.789 1.762 1.757 1.697 1.729 1.747 1.697 1.594 1.697 1.684 1.682 1.642 1.677 1.632 1.597 1.657 1.562 1.532 1.549 1.529 1.489 1.522 1.597 1.519 1.519 1.527 1.519 1.617 1.557 1.462 1.454 1.492 1.517 1.522 1.502 1.527 1.564 1.557 1.544 1.539 1.534 1.549 1.557 1.554 1.557 1.597 1.579 1.577 1.569 1.662 1.639 1.587 1.632 1.734 1.599 1.524 1.554 1.699 1.599 1.697 1.619 1.479 1.509 1.522 1.457 1.539 1.494 1.604 1.497 1.432 1.512 1.579 1.574 1.507 1.354 1.552 1.547 1.612 1.539 1.509 1.457 1.552 1.507 1.572 1.539 1.502 1.532 1.567 1.389 1.469 1.459 1.394 1.407 1.379 1.377 1.427 1.557 1.412 1.397 1.357 1.394 1.382 1.402 1.387 1.397 1.384 1.297 1.369 1.512 1.434 1.442 1.534 1.544 1.567 1.612 1.682 1.584 1.609 1.664 1.689 1.764 1.697 1.812 1.782 1.742 1.717 1.622 1.614 1.629 1.624 1.709 1.669 1.619 1.519 1.592 1.574 1.492 1.569 1.599 1.649 1.037 1.043 0.931 0.746 0.614 0.517 -0.504 0.186 0.121 -0.891 -0.031 -0.081 -0.982 -1.017 -0.944 -0.869 0.101 -0.596 -0.494 0.54 0.702 0.824
-1.556 -1.607 -1.61 -1.615 -1.63 -1.634 -1.634 -1.705 -1.801 -1.799 -1.87 -1.582 -1.312 -1.341 -1.392 -1.634 -1.859 -1.814 -1.859 -9999 -9999 -9999 -9999 -9999 -9999 -9999 -9999 1.394 1.499 -9999 -9999 -9999 -9999 -9999 -9999 -9999 -9999 -9999 -9999 -9999 -9999 -9999 -9999 -9999 -9999 -9999 -9999 -1.811 -1.786 -9999 -9999 1.759 -1.871 -1.804 -9999 -9999 -9999 -9999 -1.836 -1.841 -1.646 -1.415 -1.148 -0.932 -0.904 -0.781 1.574 1.469 -0.446 -0.229 0.05 0.213 0.402 0.624 1.619 1.564 1.19 1.379 1.389 1.28 1.251 1.214 1.195 1.135 1.096 1.161 1.204 1.213 1.31 1.453 1.537 1.594 1.701 1.769 1.614 1.559 1.584 1.594 1.571 1.531 1.659 1.549 1.576 1.611 1.46 1.251 1.013 0.815 0.56 0.371 0.192 0.029 -0.229 -0.448 -0.603 -0.793 -0.922 -1.109 -1.309 -1.286 -1.21 -1.102 -0.9 -0.727 -0.557 -0.844 -1.109 -1.357 -1.628 -1.783 -1.544 -1.771 -1.821 -1.806 -1.756 -1.743 -1.516 -1.316 -1.159 -1.018 -0.829 -0.614 -0.381 -0.137 0.053 0.259 0.468 0.654 0.863 1.139 1.305 1.454 1.489 1.554 1.547 1.634 1.582 1.519 1.499 1.494 1.582 1.559 1.514 1.499 1.412 1.444 1.497 1.487 1.457 1.457 1.494 1.507 1.474 1.382 1.489 1.442 1.602 1.477 1.417 1.44 1.348 1.329 1.174 1.188 1.055 0.921 0.927 0.867 0.761 0.787 0.835 0.862 0.769 0.587 0.35 0.161 0.049 -0.141 -0.342 -0.496 -0.636 -0.746 -0.861 -0.989 -1.035 -1.075 -1.017 -1.248 -1.436 -1.511 -1.467 -1.361 -1.191 -1.088 -0.957 -0.761 -0.549 -0.351 -0.157 0.103 0.315 0.553 0.789 1.035 1.292 1.552 1.757 1.732 1.684 1.734 1.679 1.729 1.724 1.784 1.714 1.652 1.539 1.584 1.597 1.622 1.547 1.667 1.724 1.714 1.769 1.752 1.809 1.747 1.777 1.782 1.847 1.852 1.867 1.852 1.787 1.814 1.842 1.834 1.844 1.769 1.689 1.679 1.717 1.682 1.757 1.794 1.744 1.747 1.829 1.752 1.844 1.914 1.837 1.734 1.819 1.777 1.769 1.807 1.797 1.869 1.829 1.849 1.827 1.874 1.849 1.834 1.854 1.769 1.854 1.902 1.799 1.739 1.702 1.789 1.839 1.744 1.799 1.792 1.737 1.792 1.782 1.734 1.672 1.694 1.649 1.654 1.602 1.687 1.679 1.662 1.639 1.589 1.559 1.469 1.519 1.592 1.537 1.467 1.499 1.549 1.562 1.489 1.604 1.534 1.487 1.482 1.524 1.519 1.509 1.537 1.629 1.647 1.559 1.527 1.519 1.582 1.542 1.524 1.582 1.602 1.627 1.647 1.559 1.644 1.664 1.657 1.594 1.624 1.572 1.582 1.649 1.659 1.619 1.694 1.534 1.537 1.544 1.494 1.429 1.494 1.497 1.527 1.437 1.532 1.412 1.489 1.477 1.467 1.529 1.554 1.602 1.534 1.494 1.564 1.564 1.542 1.609 1.544 1.514 1.529 1.489 1.417 1.542 1.462 1.452 1.389 1.482 1.434 1.484 1.557 1.452 1.409 1.399 1.392 1.442 1.384 1.472 1.392 1.334 1.417 1.459 1.372 1.434 1.469 1.547 1.562 1.562 1.672 1.574 1.599 1.657 1.617 1.589 1.732 1.649 1.697 1.737 1.732 1.704 1.692 1.697 1.679 1.657 1.782 1.672 1.619 1.579 1.717 1.717 1.619 1.619 1.582 1.587 1.105 0.857 0.705 0.563 0.443 0.291 0.144 -0.01 -0.134 -1.099 -0.237 -0.296 -1.214 -1.212 -0.365 -0.246 -0.08 -0.787 -0.659 -0.497 -0.294 -0.033
-1.514 -1.612 -1.628 -1.627 -1.674 -1.675 -1.715 -1.749 -1.791 -1.826 -1.588 -1.553 -1.63 -1.632 -1.631 -1.631 -1.831 -1.851 -9999 -9999 -9999 -9999 -9999 -9999 -9999 -9999 1.439 -9999 1.476 -9999 -9999 -9999 -9999 -9999 -9999 -9999 -9999 -9999 1.789 -9999 -9999 -9999 -9999 -9999 -9999 -1.811 -9999 -1.791 -9999 -9999 -9999 -9999 -9999 -9999 -9999 -9999 -9999 -9999 -1.799 -1.607 -1.496 -1.313 -1.155 -1.148 -1.109 -0.968 -0.857 1.551 -0.494 -0.317 -0.09 0.111 0.298 0.556 1.544 0.924 1.154 1.216 1.278 1.391 1.432 1.414 1.37 1.381 1.324 1.383 1.414 1.484 1.57 1.705 1.674 1.641 1.669 1.581 1.536 1.634 1.666 1.609 1.609 1.456 1.599 1.574 1.654 1.566 1.437 1.165 0.936 0.728 0.564 0.332 0.138 -0.084 -0.311 -0.542 -0.74 -0.933 -1.078 -1.231 -1.486 -1.521 -1.392 -1.222 -1.132 -0.881 -0.706 -0.837 -1.115 -1.297 -1.46 -1.535 -1.54 -1.786 -1.791 -1.788 -1.781 -1.773 -1.554 -1.478 -1.315 -1.135 -0.898 -0.633 -0.391 -0.195 0.048 0.255 0.453 0.643 0.84 1.117 1.335 1.582 1.512 1.549 1.574 1.629 1.564 1.527 1.529 1.462 1.509 1.484 1.529 1.509 1.539 1.509 1.474 1.494 1.459 1.462 1.417 1.449 1.424 1.414 1.399 1.424 1.387 1.344 1.322 1.237 1.168 1.124 1.009 1.033 0.857 0.827 0.793 0.709 0.645 0.61 0.637 0.644 0.659 0.639 0.478 0.257 0.135 -0.039 -0.164 -0.339 -0.433 -0.548 -0.638 -0.751 -0.82 -0.817 -0.914 -1.092 -1.244 -1.282 -1.228 -1.205 -1.129 -0.956 -0.797 -0.645 -0.467 -0.239 -0.061 0.107 0.337 0.591 0.847 1.137 1.41 1.559 1.689 1.724 1.712 1.632 1.639 1.719 1.712 1.697 1.687 1.729 1.569 1.622 1.604 1.649 1.664 1.732 1.732 1.714 1.752 1.757 1.777 1.852 1.817 1.789 1.777 1.809 1.939 1.874 1.779 1.739 1.789 1.749 1.824 1.697 1.634 1.654 1.662 1.712 1.747 1.739 1.749 1.767 1.767 1.879 1.752 1.727 1.744 1.759 1.764 1.614 1.709 1.654 1.777 1.782 1.802 1.837 1.937 1.879 1.799 1.894 1.847 1.814 1.807 1.832 1.779 1.784 1.789 1.884 1.869 1.809 1.859 1.917 1.879 1.759 1.862 1.732 1.849 1.787 1.739 1.717 1.672 1.627 1.609 1.534 1.612 1.587 1.579 1.527 1.587 1.489 1.474 1.427 1.492 1.474 1.577 1.549 1.539 1.492 1.482 1.459 1.517 1.552 1.487 1.582 1.622 1.562 1.584 1.572 1.502 1.542 1.562 1.509 1.542 1.504 1.532 1.514 1.542 1.542 1.514 1.602 1.619 1.629 1.584 1.594 1.549 1.579 1.607 1.542 1.497 1.487 1.504 1.492 1.474 1.529 1.552 1.549 1.469 1.444 1.504 1.509 1.517 1.539 1.577 1.487 1.497 1.547 1.527 1.579 1.542 1.464 1.519 1.509 1.494 1.517 1.524 1.534 1.484 1.564 1.487 1.479 1.474 1.437 1.459 1.417 1.392 1.367 1.392 1.429 1.457 1.452 1.529 1.342 1.374 1.367 1.484 1.439 1.464 1.527 1.524 1.542 1.547 1.482 1.564 1.572 1.682 1.622 1.602 1.702 1.619 1.654 1.644 1.727 1.652 1.732 1.677 1.662 1.639 1.709 1.622 1.634 1.657 1.629 1.644 1.642 1.64 1.397 1.124 0.899 0.736 0.573 -0.275 -0.435 -0.711 -0.087 -0.261 -1.22 -1.287 -1.324 -1.316 -1.347 -1.366 -0.603 -0.537 -0.369 -0.98 -0.745 0.185 0.291 0.461
-1.553 -1.606 -1.649 -1.626 -1.676 -1.675 -1.774 -1.736 -1.896 -1.843 -1.625 -1.629 -1.876 -1.869 -1.881 -1.645 -1.614 1.474 -9999 -9999 -9999 -9999 -9999 -9999 -9999 -9999 -9999 -9999 1.654 1.779 -9999 -9999 -9999 1.966 -9999 -9999 -9999 -9999 -9999 -9999 -9999 -9999 -1.874 -9999 -9999 -9999 -9999 1.681 -9999 -9999 -9999 -9999 -9999 -9999 -9999 -9999 -9999 -9999 -1.764 -1.599 -1.381 -1.276 -1.325 -1.344 -1.272 -1.144 -1 -0.786 -0.601 -0.408 1.524 1.519 0.245 0.47 0.667 0.816 0.893 1.062 1.152 1.234 1.403 1.56 1.594 1.636 1.611 1.656 1.669 1.661 1.691 1.776 1.641 1.619 1.686 1.556 1.574 1.599 1.616 1.571 1.574 1.561 1.516 1.581 1.639 1.619 1.401 1.219 0.985 0.771 0.562 0.324 0.132 -0.102 -0.344 -0.592 -0.812 -1.088 -1.268 -1.446 -1.523 -1.731 -1.517 -1.429 -1.281 -1.022 -0.809 -0.79 -1.02 -1.169 -1.273 -1.341 -1.535 -1.758 -1.781 -1.569 -1.801 -1.778 -1.803 -1.585 -1.365 -1.155 -0.9 -0.67 -0.43 -0.233 -0.035 0.235 0.491 0.649 0.891 1.149 1.373 1.597 1.532 1.629 1.497 1.484 1.417 1.437 1.427 1.432 1.492 1.469 1.514 1.437 1.434 1.472 1.434 1.467 1.449 1.442 1.434 1.392 1.322 1.307 1.392 1.364 1.252 1.192 1.15 1.084 0.973 0.873 0.822 0.824 0.723 0.67 0.589 0.541 0.499 0.437 0.376 0.457 0.471 0.439 0.474 0.447 0.282 0.136 -0.022 -0.136 -0.232 -0.297 -0.451 -0.53 -0.609 -0.648 -0.789 -0.903 -0.99 -1.116 -1.082 -1.056 -0.954 -0.803 -0.603 -0.478 -0.305 -0.129 0.068 0.226 0.442 0.696 0.929 1.244 1.43 1.62 1.672 1.692 1.614 1.517 1.577 1.587 1.629 1.604 1.614 1.657 1.612 1.642 1.692 1.729 1.762 1.747 1.799 1.724 1.762 1.734 1.737 1.804 1.807 1.737 1.799 1.894 1.802 1.804 1.752 1.797 1.742 1.744 1.727 1.704 1.634 1.637 1.672 1.812 1.774 1.799 1.784 1.932 1.812 1.789 1.704 1.739 1.732 1.767 1.687 1.569 1.734 1.787 1.742 1.784 1.769 1.814 1.807 1.784 1.734 1.772 1.804 1.774 1.697 1.749 1.869 1.802 1.794 1.859 1.849 1.837 1.829 1.877 1.882 1.824 1.867 1.839 1.899 1.802 1.812 1.767 1.707 1.649 1.732 1.634 1.644 1.609 1.534 1.594 1.642 1.554 1.482 1.544 1.584 1.569 1.507 1.497 1.552 1.484 1.547 1.594 1.534 1.567 1.682 1.552 1.582 1.589 1.554 1.577 1.554 1.577 1.624 1.657 1.579 1.527 1.459 1.554 1.609 1.589 1.534 1.599 1.699 1.589 1.552 1.497 1.442 1.494 1.439 1.439 1.524 1.587 1.547 1.547 1.532 1.562 1.517 1.537 1.452 1.454 1.494 1.622 1.547 1.507 1.577 1.427 1.434 1.537 1.489 1.557 1.502 1.574 1.499 1.589 1.517 1.519 1.524 1.504 1.454 1.517 1.497 1.482 1.474 1.449 1.439 1.407 1.407 1.367 1.432 1.417 1.517 1.507 1.484 1.492 1.452 1.497 1.517 1.577 1.454 1.542 1.519 1.557 1.512 1.527 1.514 1.537 1.612 1.659 1.652 1.634 1.609 1.619 1.589 1.682 1.584 1.689 1.682 1.679 1.714 1.704 1.659 1.702 1.652 1.579 1.644 1.672 1.546 1.276 1.077 0.818 0.679 -0.158 -0.381 -0.653 -0.057 -1.099 -1.261 -1.331 -1.385 -1.441 -1.514 -1.528 -1.481 -0.809 -0.746 -0.599 -1.137 -0.937 -0.823 0.175 0.312
-1.565 -1.585 -1.641 -1.659 -1.724 -1.766 -1.776 -1.834 -1.811 -1.819 -1.786 -1.819 -1.879 -1.879 -1.894 -1.844 -1.591 -9999 -9999 -9999 -9999 -9999 -9999 -9999 1.511 1.546 -9999 -9999 1.714 1.791 1.814 -9999 1.806 1.844 -9999 -9999 -9999 -9999 -9999 -9999 -9999 1.839 -9999 -9999 -9999 -9999 -9999 -9999 -9999 -9999 -9999 -9999 -9999 -9999 -9999 -1.851 -1.861 -1.836 -1.836 -1.611 -1.522 -1.503 -1.604 -1.554 -1.481 -1.307 -1.122 -0.899 -0.689 -0.486 1.526 1.544 0.267 0.468 0.509 0.604 0.722 0.853 0.967 1.101 1.308 1.418 1.563 1.604 1.559 1.651 1.639 1.734 1.691 1.716 1.786 1.649 1.584 1.571 1.594 1.621 1.601 1.566 1.571 1.589 1.579 1.589 1.566 1.614 1.391 1.182 0.974 0.791 0.588 0.306 0.083 -0.154 -0.368 -0.604 -0.809 -1.087 -1.308 -1.508 -1.748 -1.738 -1.738 -1.574 -1.336 -1.111 -0.846 -0.682 -0.842 -0.995 -1.121 -1.364 -1.554 -1.758 -1.813 -1.588 -1.793 -1.791 -1.821 -1.56 -1.33 -1.152 -0.882 -0.65 -0.425 -0.226 -0.016 0.203 0.428 0.676 0.918 1.083 1.364 1.512 1.524 1.567 1.522 1.409 1.384 1.397 1.419 1.449 1.504 1.449 1.469 1.439 1.514 1.504 1.567 1.502 1.484 1.447 1.389 1.362 1.307 1.274 1.316 1.208 1.101 0.947 0.902 0.814 0.783 0.679 0.593 0.566 0.543 0.502 0.487 0.371 0.324 0.264 0.264 0.237 0.261 0.245 0.234 0.272 0.369 0.285 0.159 0.093 0.001 -0.123 -0.228 -0.261 -0.351 -0.464 -0.6 -0.692 -0.773 -0.837 -0.857 -0.884 -0.793 -0.652 -0.489 -0.295 -0.189 -0.01 0.186 0.369 0.57 0.8 0.971 1.234 1.407 1.735 1.602 1.589 1.567 1.557 1.547 1.554 1.564 1.524 1.592 1.642 1.702 1.702 1.742 1.807 1.754 1.759 1.767 1.777 1.767 1.749 1.739 1.844 1.727 1.792 1.819 1.614 1.722 1.809 1.797 1.777 1.722 1.747 1.737 1.687 1.704 1.644 1.652 1.894 1.864 1.794 1.762 1.849 1.842 1.772 1.809 1.839 1.709 1.667 1.682 1.617 1.764 1.792 1.647 1.644 1.709 1.599 1.719 1.694 1.697 1.744 1.792 1.779 1.749 1.864 1.864 1.857 1.889 1.862 1.867 1.824 1.839 1.869 1.729 1.754 1.767 1.847 1.822 1.879 1.817 1.867 1.879 1.794 1.734 1.679 1.667 1.727 1.577 1.554 1.582 1.644 1.589 1.622 1.637 1.614 1.519 1.547 1.644 1.534 1.539 1.527 1.592 1.559 1.574 1.489 1.464 1.577 1.529 1.584 1.627 1.577 1.557 1.539 1.557 1.494 1.494 1.459 1.609 1.542 1.549 1.567 1.592 1.562 1.569 1.594 1.452 1.454 1.439 1.462 1.514 1.517 1.539 1.529 1.517 1.547 1.522 1.457 1.479 1.592 1.569 1.607 1.567 1.404 1.487 1.479 1.484 1.509 1.482 1.572 1.532 1.552 1.492 1.592 1.584 1.542 1.532 1.532 1.512 1.582 1.519 1.569 1.544 1.454 1.449 1.429 1.314 1.432 1.494 1.477 1.442 1.534 1.562 1.504 1.452 1.504 1.529 1.474 1.434 1.474 1.514 1.599 1.522 1.489 1.479 1.472 1.654 1.552 1.479 1.492 1.547 1.557 1.597 1.672 1.584 1.564 1.639 1.654 1.629 1.737 1.667 1.749 1.759 1.689 1.704 1.777 1.486 1.076 1.019 0.789 0.047 -0.237 -0.554 -0.031 -0.161 -1.196 -1.351 -1.446 -0.827 -1.614 -1.65 -1.616 -1.628 -0.996 1.594 1.487 -0.571 -0.443 1.469 -0.743 -0.497
-1.574 -1.626 -1.656 -1.722 -1.737 -1.759 -1.819 -1.844 -1.793 -1.906 -1.746 -1.511 -1.866 -1.861 -1.839 -1.805 -1.789 -1.786 -9999 1.519 -9999 -9999 -9999 -9999 -9999 1.566 1.554 -9999 1.672 1.736 1.754 1.779 1.839 -9999 -9999 -9999 -9999 -9999 -9999 -9999 -9999 -9999 -9999 -1.806 -9999 -9999 -9999 -1.876 -1.896 -9999 -1.814 -9999 -9999 -1.826 -1.841 -1.869 -1.884 -1.864 -1.794 -1.791 -1.576 -1.599 -1.804 -1.766 -1.605 -1.415 -1.18 -0.952 1.526 -0.55 -0.307 -0.002 0.191 0.269 0.29 0.372 0.537 0.69 0.815 0.928 1.153 1.282 1.404 1.554 1.624 1.656 1.651 1.731 1.791 1.746 1.604 1.686 1.676 1.554 1.554 1.521 1.516 1.589 1.679 1.559 1.606 1.684 1.621 1.664 1.494 1.212 0.954 0.794 0.58 0.364 0.1 -0.145 -0.39 -0.582 -0.856 -1.054 -1.252 -1.437 -1.496 -1.763 -1.776 -1.594 -1.332 -1.108 -0.897 -0.678 -0.682 -0.885 -1.118 -1.331 -1.505 -1.561 -1.573 -1.599 -1.776 -1.771 -1.793 -1.554 -1.331 -1.112 -0.906 -0.661 -0.455 -0.226 -0.011 0.233 0.378 0.679 0.885 1.089 1.29 1.432 1.542 1.549 1.469 1.454 1.372 1.417 1.434 1.434 1.464 1.522 1.507 1.497 1.582 1.577 1.424 1.434 1.454 1.469 1.427 1.452 1.382 1.276 1.156 1.06 0.974 0.853 0.779 0.628 0.523 0.48 0.439 0.415 0.431 0.303 0.237 0.178 0.123 0.055 0.057 0.092 0.081 0.044 0.091 0.089 0.158 0.257 0.399 0.264 0.223 0.113 0.009 -0.01 -0.093 -0.283 -0.413 -0.494 -0.556 -0.623 -0.653 -0.644 -0.551 -0.458 -0.344 -0.181 -0.03 0.113 0.254 0.448 0.674 0.889 1.025 1.248 1.436 1.579 1.472 1.547 1.537 1.542 1.534 1.567 1.642 1.612 1.577 1.657 1.687 1.734 1.767 1.769 1.737 1.769 1.784 1.794 1.832 1.734 1.894 1.792 1.709 1.754 1.742 1.644 1.692 1.759 1.732 1.764 1.772 1.727 1.769 1.762 1.747 1.742 1.759 1.769 1.797 1.787 1.789 1.747 1.682 1.767 1.709 1.704 1.729 1.597 1.649 1.609 1.607 1.587 1.627 1.619 1.567 1.559 1.704 1.667 1.629 1.777 1.734 1.769 1.719 1.807 1.812 1.847 1.782 1.829 1.884 1.879 1.819 1.734 1.832 1.752 1.807 1.792 1.789 1.844 1.744 1.774 1.754 1.789 1.779 1.752 1.672 1.679 1.747 1.819 1.674 1.712 1.672 1.647 1.622 1.549 1.557 1.562 1.537 1.529 1.549 1.507 1.529 1.564 1.474 1.569 1.634 1.549 1.507 1.562 1.552 1.499 1.539 1.454 1.447 1.567 1.479 1.499 1.512 1.507 1.502 1.524 1.509 1.469 1.472 1.532 1.442 1.439 1.459 1.497 1.542 1.504 1.497 1.492 1.439 1.512 1.467 1.527 1.554 1.539 1.437 1.474 1.527 1.557 1.527 1.482 1.512 1.507 1.504 1.554 1.614 1.617 1.534 1.599 1.639 1.504 1.537 1.547 1.599 1.657 1.597 1.609 1.557 1.507 1.477 1.529 1.472 1.472 1.502 1.459 1.459 1.557 1.607 1.579 1.532 1.454 1.529 1.497 1.412 1.514 1.509 1.557 1.502 1.507 1.504 1.517 1.574 1.459 1.449 1.482 1.507 1.549 1.577 1.574 1.692 1.559 1.602 1.634 1.697 1.714 1.617 1.659 1.629 1.532 1.554 1.649 1.464 0.974 0.907 0.747 -0.073 -0.345 -0.663 -0.859 -0.229 -1.254 -0.708 1.559 -0.981 -1.145 -1.805 -1.776 -1.375 -1.182 1.544 1.549 -0.657 1.409 1.457 -0.059 0.131
-1.588 -1.652 -1.669 -1.685 -1.709 -1.761 -1.819 -1.85 -1.856 -1.686 -1.637 -1.546 -1.811 -1.829 -1.814 -1.844 -1.814 -1.794 1.514 1.541 -9999 -9999 -9999 -9999 -9999 -9999 1.599 -9999 -9999 -9999 1.799 1.831 -9999 -9999 -9999 -9999 -9999 -9999 -9999 -9999 -9999 -9999 -9999 -9999 -9999 -9999 -1.791 -1.856 -9999 -9999 -9999 -1.771 -1.809 -1.819 -1.791 -1.856 -1.906 -1.829 -1.809 -1.819 -1.826 -1.585 -1.569 -1.806 -1.629 -1.445 -1.192 1.556 1.506 -0.537 -0.28 0.012 0.056 0.071 0.119 0.172 0.329 0.492 0.62 0.721 0.965 1.155 1.261 1.523 1.626 1.626 1.621 1.739 1.706 1.709 1.724 1.671 1.579 1.651 1.609 1.551 1.551 1.669 1.614 1.604 1.689 1.616 1.641 1.731 1.511 1.284 1.073 0.863 0.613 0.342 0.159 -0.097 -0.322 -0.523 -0.766 -0.945 -1.121 -1.285 -1.472 -1.612 -1.625 -1.507 -1.29 -1.088 -0.908 -0.7 -0.651 -0.82 -1.033 -1.181 -1.321 -1.321 -1.339 -1.55 -1.753 -1.743 -1.786 -1.553 -1.324 -1.069 -0.848 -0.666 -0.417 -0.212 -0.041 0.194 0.412 0.644 0.862 1.04 1.185 1.407 1.462 1.419 1.464 1.524 1.392 1.402 1.489 1.532 1.654 1.707 1.544 1.594 1.444 1.412 1.419 1.454 1.424 1.404 1.427 1.407 1.437 1.23 1.081 0.918 0.807 0.703 0.635 0.534 0.377 0.325 0.285 0.232 0.297 0.212 0.106 -0.045 -0.095 -0.121 -0.096 -0.141 -0.123 -0.1 -0.083 -0.143 0.04 0.257 0.279 0.419 0.511 0.416 0.253 0.212 0.109 -0.065 -0.207 -0.294 -0.382 -0.421 -0.447 -0.422 -0.362 -0.269 -0.163 0.004 0.127 0.281 0.432 0.67 0.764 0.976 1.178 1.381 1.455 1.542 1.549 1.579 1.547 1.494 1.547 1.562 1.639 1.652 1.657 1.652 1.629 1.697 1.657 1.744 1.769 1.739 1.829 1.817 1.837 1.784 1.744 1.812 1.742 1.727 1.692 1.724 1.704 1.722 1.659 1.739 1.779 1.684 1.667 1.679 1.722 1.702 1.719 1.809 1.797 1.742 1.812 1.679 1.704 1.717 1.734 1.637 1.574 1.539 1.742 1.624 1.667 1.632 1.614 1.647 1.612 1.602 1.647 1.572 1.607 1.592 1.619 1.639 1.724 1.747 1.727 1.762 1.807 1.809 1.887 1.789 1.784 1.749 1.937 1.749 1.694 1.704 1.697 1.859 1.822 1.794 1.832 1.724 1.684 1.782 1.689 1.719 1.709 1.769 1.719 1.649 1.654 1.689 1.662 1.647 1.587 1.619 1.554 1.559 1.594 1.589 1.499 1.562 1.464 1.447 1.537 1.594 1.632 1.582 1.479 1.482 1.459 1.492 1.469 1.472 1.457 1.504 1.514 1.562 1.489 1.462 1.457 1.514 1.497 1.467 1.444 1.482 1.484 1.482 1.489 1.447 1.464 1.537 1.514 1.529 1.512 1.487 1.554 1.537 1.482 1.459 1.444 1.517 1.534 1.532 1.539 1.524 1.582 1.559 1.622 1.584 1.489 1.567 1.594 1.652 1.559 1.622 1.622 1.702 1.667 1.667 1.619 1.577 1.539 1.534 1.534 1.479 1.514 1.469 1.507 1.539 1.607 1.492 1.514 1.577 1.539 1.434 1.554 1.627 1.489 1.467 1.482 1.559 1.517 1.467 1.452 1.419 1.372 1.392 1.442 1.502 1.469 1.519 1.454 1.509 1.554 1.714 1.622 1.569 1.499 1.629 1.619 1.534 1.687 1.627 1.421 1.103 0.903 0.721 0.49 -0.457 -0.721 -0.114 -0.316 -1.294 -0.75 -0.957 -1.126 -1.715 -1.794 -1.804 -1.556 -1.272 -1.003 -0.795 -0.578 -0.391 1.489 -0.144 0.052
-1.604 -1.665 -1.686 -1.729 -1.801 -1.831 -1.818 -1.846 -1.801 -1.726 -1.496 -1.487 -1.616 -1.579 -1.796 -9999 -9999 -9999 1.576 1.616 1.666 1.749 1.674 -9999 -9999 1.804 -9999 -9999 -9999 -9999 1.866 1.832 -9999 -9999 -9999 -9999 1.786 -9999 -9999 -9999 -9999 -9999 -9999 -9999 -9999 -9999 -1.791 -1.851 -1.841 -9999 -9999 -9999 -1.824 -1.844 -1.756 -1.789 -1.849 -1.821 -1.839 -1.851 -1.879 -1.866 -1.591 -1.603 -1.558 -1.448 -1.193 1.566 1.554 1.561 -0.248 -0.263 -0.155 -0.165 -0.031 -0.008 0.134 0.266 0.416 0.613 0.836 0.971 1.131 1.376 1.485 1.686 1.649 1.666 1.699 1.681 1.649 1.711 1.669 1.606 1.616 1.621 1.659 1.621 1.606 1.686 1.716 1.614 1.634 1.761 1.542 1.323 1.107 0.957 0.649 0.37 0.174 -0.029 -0.261 -0.462 -0.625 -0.828 -0.979 -1.19 -1.334 -1.37 -1.373 -1.302 -1.193 -1.041 -0.845 -0.659 -0.581 -0.731 -0.873 -0.977 -1.062 -1.096 -1.314 -1.465 -1.539 -1.554 -1.55 -1.429 -1.232 -1.004 -0.821 -0.628 -0.399 -0.194 -0.022 0.207 0.417 0.609 0.82 1.027 1.13 1.427 1.542 1.482 1.517 1.484 1.492 1.512 1.529 1.589 1.632 1.599 1.544 1.569 1.469 1.432 1.472 1.404 1.447 1.402 1.494 1.449 1.377 1.269 1.04 0.861 0.71 0.577 0.511 0.33 0.237 0.164 0.139 0.101 0.097 0.034 -0.075 -0.218 -0.279 -0.35 -0.387 -0.348 -0.338 -0.304 -0.293 -0.256 -0.124 0.028 0.117 0.234 0.428 0.642 0.507 0.452 0.267 0.108 -0.043 -0.116 -0.141 -0.158 -0.168 -0.167 -0.138 -0.071 -0.018 0.175 0.263 0.443 0.628 0.769 0.902 1.079 1.299 1.467 1.557 1.592 1.512 1.537 1.542 1.569 1.634 1.592 1.624 1.702 1.724 1.679 1.674 1.719 1.629 1.749 1.787 1.757 1.814 1.934 1.887 1.799 1.769 1.714 1.702 1.719 1.692 1.717 1.747 1.734 1.669 1.689 1.672 1.634 1.624 1.714 1.709 1.657 1.729 1.699 1.832 1.697 1.772 1.694 1.627 1.577 1.547 1.572 1.514 1.552 1.519 1.612 1.624 1.649 1.622 1.604 1.547 1.637 1.614 1.569 1.617 1.599 1.567 1.577 1.702 1.732 1.667 1.637 1.812 1.897 1.899 1.602 1.712 1.682 1.729 1.669 1.697 1.699 1.717 1.737 1.759 1.727 1.777 1.792 1.797 1.747 1.739 1.749 1.704 1.824 1.817 1.677 1.667 1.657 1.702 1.642 1.717 1.682 1.547 1.564 1.629 1.542 1.514 1.529 1.587 1.494 1.547 1.607 1.622 1.584 1.517 1.527 1.422 1.444 1.422 1.442 1.419 1.604 1.529 1.634 1.504 1.487 1.479 1.397 1.472 1.564 1.462 1.482 1.457 1.469 1.469 1.529 1.547 1.552 1.469 1.469 1.497 1.499 1.517 1.532 1.527 1.512 1.547 1.529 1.547 1.594 1.602 1.579 1.644 1.582 1.589 1.584 1.439 1.659 1.679 1.597 1.627 1.642 1.679 1.759 1.707 1.832 1.634 1.572 1.584 1.559 1.552 1.544 1.534 1.512 1.507 1.544 1.599 1.517 1.579 1.564 1.542 1.522 1.529 1.547 1.519 1.514 1.464 1.442 1.342 1.377 1.349 1.352 1.394 1.419 1.472 1.507 1.462 1.389 1.399 1.407 1.454 1.732 1.729 1.609 1.597 1.622 1.602 1.572 1.534 1.537 1.368 1.06 0.846 0.711 0.418 -0.486 -0.742 -0.177 -0.332 -1.345 -1.458 -1.572 -1.683 -1.811 -1.798 -1.793 -1.597 -1.337 -1.622 -0.826 -0.607 -0.42 -0.311 -0.207 -0.736
-1.648 -1.684 -1.649 -1.73 -1.807 -1.613 -1.724 -1.796 -1.854 -1.769 -1.831 -1.645 -1.442 -1.793 -9999 -9999 -9999 1.599 1.646 1.681 -9999 -9999 -9999 -9999 -9999 -9999 1.769 -9999 -9999 -9999 1.819 1.821 -9999 -9999 -9999 1.734 1.736 1.681 -9999 -9999 -9999 -9999 -9999 -9999 -9999 -9999 -1.816 -1.866 -1.834 -1.778 -1.766 -1.799 -1.819 -1.841 -1.816 -1.801 -1.821 -1.846 -1.861 -1.836 -1.826 -1.871 -1.578 -1.594 -1.557 -1.391 -1.196 -0.908 -0.648 -0.478 -0.422 -0.443 -0.425 -0.38 -0.323 -0.203 -0.083 0.112 0.31 0.482 0.646 0.855 1.092 1.357 1.416 1.654 1.701 1.734 1.666 1.664 1.651 1.644 1.691 1.634 1.696 1.636 1.644 1.629 1.704 1.656 1.679 1.619 1.646 1.654 1.607 1.311 1.083 0.907 0.634 0.404 0.227 0.038 -0.133 -0.361 -0.54 -0.72 -0.86 -0.989 -1.105 -1.135 -1.126 -1.099 -1.014 -0.925 -0.741 -0.557 -0.41 -0.543 -0.641 -0.769 -0.859 -1.002 -1.142 -1.259 -1.32 -1.336 -1.322 -1.241 -1.121 -0.942 -0.731 -0.564 -0.37 -0.192 0.011 0.271 0.494 0.659 0.835 1.067 1.299 1.504 1.499 1.502 1.477 1.517 1.509 1.572 1.579 1.594 1.559 1.572 1.509 1.522 1.487 1.459 1.489 1.452 1.474 1.507 1.542 1.541 1.351 1.181 0.977 0.788 0.642 0.451 0.362 0.224 0.071 0.01 -0.054 -0.094 -0.093 -0.096 -0.231 -0.342 -0.486 -0.551 -0.582 -0.556 -0.54 -0.511 -0.489 -0.429 -0.353 -0.172 -0.034 0.116 0.313 0.482 0.724 0.65 0.448 0.316 0.225 0.135 0.061 0.114 0.1 0.091 0.096 0.169 0.241 0.376 0.507 0.68 0.758 0.939 1.118 1.268 1.466 1.589 1.434 1.499 1.582 1.692 1.549 1.549 1.624 1.647 1.747 1.754 1.687 1.682 1.754 1.719 1.694 1.802 1.764 1.704 1.707 1.962 1.904 1.809 1.702 1.632 1.737 1.734 1.699 1.709 1.729 1.682 1.632 1.607 1.582 1.599 1.759 1.659 1.657 1.577 1.652 1.572 1.564 1.609 1.734 1.604 1.532 1.484 1.537 1.602 1.557 1.607 1.567 1.642 1.627 1.612 1.574 1.664 1.527 1.524 1.577 1.609 1.609 1.619 1.619 1.584 1.659 1.657 1.697 1.627 1.634 1.819 1.807 1.559 1.662 1.647 1.624 1.647 1.657 1.622 1.674 1.679 1.529 1.779 1.769 1.872 1.787 1.792 1.819 1.742 1.844 1.897 1.862 1.804 1.709 1.704 1.742 1.814 1.687 1.667 1.599 1.564 1.609 1.564 1.484 1.567 1.527 1.482 1.654 1.534 1.594 1.507 1.422 1.434 1.482 1.522 1.497 1.524 1.447 1.509 1.529 1.542 1.441 1.523 1.282 1.096 1.145 1.085 1.031 1.238 1.348 1.314 1.376 1.357 1.443 1.514 1.529 1.539 1.552 1.497 1.444 1.564 1.552 1.474 1.602 1.552 1.524 1.554 1.554 1.614 1.629 1.532 1.517 1.659 1.629 1.677 1.704 1.677 1.664 1.677 1.717 1.709 1.762 1.819 1.717 1.689 1.702 1.684 1.647 1.572 1.552 1.609 1.579 1.522 1.529 1.642 1.642 1.592 1.547 1.567 1.557 1.512 1.492 1.494 1.447 1.492 1.409 1.332 1.327 1.427 1.412 1.267 1.314 1.432 1.382 1.354 1.474 1.449 1.452 1.654 1.649 1.549 1.597 1.559 1.512 1.539 1.579 1.534 1.315 1.074 0.806 0.65 1.467 0.319 0.176 -0.19 -0.343 1.554 -1.463 -1.548 -1.697 -1.769 -1.774 -1.856 -1.8 -1.715 -1.173 -0.894 -0.643 -0.452 -0.306 1.297 -0.094
-1.708 -1.727 -1.75 -1.776 -1.766 -1.606 -1.861 -1.595 -1.859 -9999 -9999 -1.584 -1.376 -1.016 1.674 1.624 1.581 1.626 1.704 1.691 -9999 -9999 -9999 1.724 1.769 -9999 1.754 1.739 -9999 -9999 -9999 1.716 1.716 -9999 -9999 -9999 1.676 1.676 -9999 -9999 -9999 -9999 -9999 -9999 -1.881 -1.836 -1.834 -1.889 -1.876 -1.819 -1.786 -1.841 -1.821 -1.766 -1.794 -1.819 -1.856 -1.879 -1.901 -1.849 -1.596 -1.632 -1.587 -1.796 -1.601 -1.377 -1.129 -0.933 -0.782 -0.674 -0.683 -0.678 -0.633 -0.606 -0.532 -0.396 -0.217 -0.012 0.112 0.325 0.538 0.702 0.921 1.114 1.325 1.57 1.744 1.624 1.714 1.679 1.626 1.619 1.629 1.614 1.626 1.561 1.604 1.574 1.686 1.671 1.696 1.681 1.654 1.634 1.616 1.347 1.166 0.966 0.736 0.584 0.306 0.197 -0.034 -0.217 -0.388 -0.568 -0.689 -0.787 -0.859 -0.923 -0.899 -0.902 -0.852 -0.777 -0.589 -0.397 -0.185 -0.333 -0.501 -0.539 -0.666 -0.834 -0.973 -1.081 -1.106 -1.101 -1.11 -1.044 -0.958 -0.802 -0.662 -0.478 -0.287 -0.1 0.102 0.313 0.527 0.722 0.969 1.139 1.379 1.488 1.527 1.537 1.522 1.602 1.599 1.629 1.627 1.564 1.587 1.589 1.544 1.554 1.494 1.502 1.529 1.517 1.547 1.607 1.584 1.479 1.272 1.069 0.983 0.743 0.572 0.353 0.229 0.105 -0.047 -0.14 -0.257 -0.283 -0.319 -0.304 -0.353 -0.536 -0.696 -0.784 -0.807 -0.809 -0.796 -0.748 -0.725 -0.689 -0.551 -0.365 -0.208 -0.003 0.208 0.416 0.579 0.741 0.582 0.557 0.45 0.389 0.26 0.29 0.31 0.31 0.282 0.412 0.479 0.668 0.762 0.905 0.945 1.1 1.174 1.408 1.567 1.672 1.539 1.587 1.637 1.659 1.602 1.639 1.677 1.749 1.827 1.737 1.824 1.694 1.719 1.732 1.704 1.654 1.709 1.734 1.692 1.702 1.742 1.742 1.742 1.852 1.722 1.674 1.709 1.767 1.727 1.599 1.579 1.537 1.584 1.644 1.524 1.532 1.547 1.589 1.639 1.482 1.482 1.514 1.467 1.417 1.419 1.457 1.502 1.549 1.464 1.542 1.504 1.459 1.479 1.462 1.479 1.562 1.554 1.517 1.534 1.622 1.642 1.617 1.587 1.564 1.612 1.637 1.599 1.642 1.609 1.784 1.772 1.634 1.674 1.619 1.677 1.634 1.624 1.599 1.612 1.679 1.672 1.742 1.809 1.864 1.842 1.859 1.869 1.784 1.837 1.822 1.804 1.749 1.714 1.669 1.672 1.642 1.689 1.664 1.732 1.607 1.619 1.522 1.507 1.589 1.557 1.504 1.579 1.522 1.454 1.412 1.442 1.437 1.482 1.509 1.619 1.567 1.447 1.494 1.424 1.34 1.256 1.189 1.074 0.702 0.697 1.038 0.998 0.997 1.059 1.052 1.138 1.218 1.232 1.308 1.433 1.492 1.509 1.409 1.417 1.514 1.489 1.519 1.564 1.589 1.589 1.604 1.644 1.607 1.587 1.634 1.644 1.682 1.692 1.624 1.597 1.652 1.734 1.684 1.659 1.737 1.799 1.762 1.707 1.657 1.739 1.699 1.722 1.649 1.554 1.622 1.634 1.557 1.547 1.617 1.594 1.687 1.619 1.552 1.519 1.484 1.432 1.489 1.389 1.404 1.359 1.417 1.267 1.292 1.359 1.294 1.354 1.444 1.289 1.387 1.402 1.479 1.559 1.547 1.544 1.497 1.524 1.577 1.537 1.502 1.637 1.529 1.366 0.911 0.527 0.186 0.652 0.432 -0.696 -0.048 1.459 1.517 -0.753 -1.558 -1.68 -1.726 -1.738 -1.776 -1.455 -1.304 -1.103 -0.879 -0.598 -0.493 -0.302 1.319 -0.038
-1.761 -1.787 -1.817 -1.541 -1.614 -1.836 -1.839 -1.784 -9999 -9999 -9999 1.576 1.619 1.614 1.609 1.589 1.599 1.651 -9999 1.789 1.776 1.919 1.984 -9999 -9999 -9999 1.781 -9999 -9999 -9999 -9999 -9999 1.679 -9999 -9999 -9999 1.699 -9999 -9999 -9999 -9999 -9999 -9999 -9999 -9999 -1.779 -1.801 -1.826 -1.859 -1.836 -1.806 -1.814 -1.894 -1.784 -1.736 -1.816 -1.824 -1.836 -1.819 -1.824 -1.881 -1.841 -1.826 -1.874 -1.594 -1.353 -1.083 -1.104 -0.991 -0.939 -0.916 -0.887 -0.899 -0.788 -0.658 -0.543 -0.352 -0.185 -0.049 0.177 0.384 0.554 0.769 1.052 1.262 1.486 1.69 1.729 1.796 1.771 1.734 1.661 1.629 1.601 1.659 1.661 1.571 1.526 1.626 1.594 1.501 1.509 1.462 1.4 1.384 1.366 1.185 1.062 0.907 0.659 0.438 0.246 0.083 -0.042 -0.224 -0.397 -0.491 -0.602 -0.649 -0.698 -0.705 -0.708 -0.632 -0.517 -0.376 -0.206 0.03 -0.141 -0.31 -0.32 -0.484 -0.661 -0.789 -0.873 -0.896 -0.887 -0.879 -0.862 -0.788 -0.631 -0.53 -0.365 -0.152 0.037 0.147 0.427 0.63 0.776 1 1.13 1.229 1.258 1.359 1.418 1.548 1.544 1.599 1.587 1.607 1.594 1.607 1.567 1.579 1.527 1.549 1.579 1.559 1.529 1.657 1.619 1.599 1.42 1.245 1.023 0.881 0.699 0.499 0.303 0.119 -0.047 -0.2 -0.306 -0.462 -0.512 -0.533 -0.523 -0.522 -0.702 -0.868 -1.004 -1.044 -1.022 -1.026 -1.03 -0.986 -0.874 -0.746 -0.542 -0.348 -0.133 0.093 0.235 0.451 0.63 0.767 0.704 0.6 0.612 0.516 0.452 0.425 0.468 0.499 0.63 0.761 0.878 0.954 1.106 1.115 1.246 1.387 1.533 1.499 1.727 1.547 1.642 1.614 1.839 1.659 1.639 1.639 1.699 1.674 1.659 1.674 1.662 1.764 1.737 1.724 1.744 1.657 1.599 1.582 1.707 1.614 1.659 1.712 1.662 1.594 1.652 1.652 1.547 1.732 1.617 1.534 1.539 1.492 1.487 1.449 1.517 1.559 1.499 1.519 1.439 1.529 1.459 1.379 1.384 1.424 1.437 1.572 1.539 1.437 1.457 1.474 1.374 1.482 1.422 1.474 1.667 1.522 1.514 1.612 1.719 1.629 1.569 1.554 1.534 1.609 1.584 1.717 1.634 1.572 1.617 1.589 1.659 1.664 1.599 1.534 1.532 1.539 1.612 1.634 1.647 1.632 1.747 1.734 1.747 1.822 1.872 1.854 1.829 1.832 1.934 1.799 1.752 1.624 1.649 1.679 1.684 1.674 1.692 1.609 1.634 1.597 1.599 1.619 1.594 1.529 1.559 1.507 1.484 1.422 1.477 1.509 1.479 1.539 1.609 1.639 1.599 1.542 1.343 1.258 1.158 1.067 0.979 0.954 0.841 0.31 0.858 0.808 0.78 0.805 0.911 0.952 1.075 1.06 1.114 1.19 1.32 1.422 1.407 1.457 1.644 1.492 1.442 1.482 1.437 1.449 1.442 1.599 1.689 1.637 1.682 1.669 1.634 1.639 1.749 1.772 1.672 1.664 1.727 1.714 1.704 1.822 1.812 1.744 1.727 1.679 1.652 1.667 1.689 1.642 1.627 1.722 1.584 1.642 1.624 1.617 1.607 1.574 1.497 1.482 1.519 1.532 1.479 1.509 1.392 1.377 1.369 1.267 1.359 1.402 1.299 1.354 1.399 1.332 1.337 1.399 1.452 1.464 1.507 1.449 1.452 1.444 1.414 1.529 1.544 1.529 1.524 1.405 0.969 0.58 0.246 -0.039 -0.271 0.271 -0.042 1.564 1.509 -0.673 -1.558 -1.047 -1.154 -1.754 -1.716 -1.693 -1.156 -1.04 -1.489 -1.393 -1.266 -0.264 -0.106 -0.652
-1.767 -1.794 -1.829 -1.564 -1.539 -1.814 -1.819 -1.834 -1.821 1.569 -9999 -9999 1.659 1.656 1.664 1.706 1.711 -9999 -9999 -9999 1.859 1.846 -9999 -9999 -9999 -9999 1.724 -9999 -9999 -9999 -9999 -9999 -9999 -9999 -9999 -1.791 -9999 -9999 -9999 -9999 -9999 -9999 -9999 -9999 -9999 -1.806 -1.846 -1.851 -1.836 -1.816 -1.799 -1.831 -1.846 -1.821 -1.764 -1.834 -1.826 -1.786 -1.801 -1.764 -1.809 -1.864 -1.836 -1.637 -1.532 -1.361 -1.305 -1.301 -1.167 -1.182 -1.132 -1.121 -1.083 -0.972 -0.779 -0.627 -0.544 -0.331 -0.127 0.062 0.254 0.456 0.708 0.967 1.094 1.401 1.562 1.679 1.721 1.731 1.731 1.648 1.548 1.457 1.497 1.37 1.455 1.39 1.434 1.333 1.304 1.313 1.277 1.123 1.158 1.181 1.174 1.19 1.014 0.788 0.569 0.408 0.201 0.049 -0.105 -0.216 -0.319 -0.402 -0.419 -0.472 -0.487 -0.474 -0.389 -0.296 -0.109 0.014 0.128 -0.066 -0.154 -0.253 -0.326 -0.431 -0.592 -0.639 -0.663 -0.653 -0.665 -0.643 -0.567 -0.431 -0.349 -0.206 -0.035 0.14 0.336 0.511 0.703 0.874 0.919 0.972 1.017 1.079 1.139 1.237 1.371 1.503 1.609 1.642 1.612 1.589 1.627 1.632 1.587 1.522 1.559 1.634 1.557 1.649 1.659 1.627 1.569 1.374 1.19 0.978 0.794 0.628 0.391 0.148 0.001 -0.201 -0.367 -0.502 -0.647 -0.733 -0.75 -0.728 -0.72 -0.831 -1.05 -1.215 -1.289 -1.237 -1.24 -1.271 -1.208 -1.078 -0.9 -0.662 -0.456 -0.234 -0.03 0.143 0.38 0.605 0.778 0.887 0.843 0.811 0.707 0.667 0.653 0.698 0.75 0.83 1.015 1.036 1.178 1.284 1.341 1.403 1.568 1.659 1.612 1.612 1.649 1.622 1.594 1.612 1.667 1.639 1.704 1.727 1.609 1.599 1.667 1.657 1.694 1.732 1.659 1.702 1.667 1.614 1.569 1.599 1.582 1.587 1.672 1.552 1.549 1.479 1.647 1.667 1.579 1.599 1.607 1.569 1.482 1.372 1.414 1.449 1.512 1.499 1.432 1.504 1.459 1.419 1.479 1.389 1.489 1.374 1.509 1.552 1.427 1.419 1.404 1.469 1.462 1.449 1.542 1.449 1.502 1.547 1.672 1.749 1.522 1.499 1.514 1.527 1.569 1.529 1.572 1.527 1.542 1.564 1.539 1.572 1.587 1.627 1.552 1.522 1.597 1.609 1.659 1.667 1.704 1.669 1.749 1.787 1.757 1.882 1.889 1.862 1.859 1.824 1.722 1.714 1.674 1.647 1.684 1.672 1.514 1.647 1.614 1.552 1.594 1.614 1.567 1.629 1.609 1.574 1.504 1.529 1.439 1.477 1.492 1.537 1.544 1.574 1.647 1.544 1.28 1.097 1.083 0.899 0.886 0.822 0.764 0.601 -0.05 0.609 0.634 0.641 0.709 0.681 0.751 0.863 0.977 0.931 1.049 1.228 1.345 1.42 1.492 1.649 1.554 1.437 1.459 1.454 1.434 1.437 1.589 1.524 1.567 1.612 1.639 1.607 1.587 1.642 1.684 1.634 1.562 1.555 1.495 1.436 1.507 1.762 1.505 1.197 1.456 1.466 1.514 1.569 1.656 1.639 1.587 1.624 1.682 1.669 1.642 1.574 1.612 1.577 1.569 1.547 1.589 1.487 1.512 1.402 1.269 1.404 1.322 1.342 1.359 1.282 1.349 1.404 1.419 1.432 1.412 1.472 1.492 1.479 1.392 1.384 1.472 1.457 1.532 1.592 1.597 1.637 1.679 1.479 0.707 0.341 0.039 -0.234 0.292 0.005 1.507 1.422 1.464 -1.503 -0.912 -0.993 -1.69 -1.626 -1.612 -1.004 -0.857 -1.434 -1.322 -1.183 -1.028 -0.798 -0.531
-1.794 -1.859 -1.615 -1.624 -1.613 -1.796 -1.819 -9999 -9999 -9999 -1.801 -9999 1.739 1.741 1.771 1.801 1.829 -9999 -9999 1.959 1.836 1.824 -9999 -9999 -9999 -9999 -1.533 -1.841 -9999 -9999 -9999 -9999 -9999 -9999 -1.841 -1.811 -1.766 -9999 -9999 -9999 -9999 -9999 -9999 -9999 -9999 -1.881 -1.854 -1.819 -1.784 -1.829 -9999 -1.846 -1.856 -1.869 -1.851 -1.816 -1.821 -1.796 -1.831 -1.789 -1.784 -1.831 -1.539 -1.5 -1.608 -1.574 -1.525 -1.535 -1.351 -1.362 -1.392 -1.364 -1.31 -1.191 -0.946 -0.797 -0.657 -0.407 -0.195 -0.042 0.226 0.388 0.65 0.896 1.022 1.202 1.385 1.561 1.671 1.585 1.416 1.384 1.274 1.195 1.113 1.143 1.156 1.123 1.099 1.14 1.151 1.11 0.971 0.881 0.942 0.976 0.999 0.99 1.039 0.908 0.742 0.598 0.38 0.183 0.082 -0 -0.082 -0.153 -0.17 -0.203 -0.202 -0.134 -0.101 -0.045 0.083 0.234 0.048 -0.126 -0.316 -0.447 -0.554 -0.652 -0.654 -0.655 -0.632 -0.551 -0.456 -0.377 -0.296 -0.187 -0.102 0.01 0.14 0.3 0.451 0.642 0.741 0.718 0.765 0.738 0.802 0.891 0.928 1.077 1.15 1.415 1.429 1.54 1.609 1.577 1.664 1.659 1.542 1.452 1.584 1.577 1.664 1.694 1.679 1.722 1.56 1.334 1.178 0.953 0.673 0.496 0.29 0.061 -0.136 -0.323 -0.498 -0.693 -0.846 -0.936 -0.942 -0.969 -1 -1.021 -1.223 -1.456 -1.587 -1.534 -1.497 -1.503 -1.407 -1.208 -0.991 -0.766 -0.529 -0.343 -0.165 0.06 0.277 0.509 0.729 0.957 1.06 0.968 0.898 0.911 0.884 0.955 1.004 1.071 1.182 1.27 1.346 1.486 1.608 1.647 1.629 1.707 1.712 1.752 1.639 1.664 1.719 1.704 1.664 1.697 1.837 1.749 1.729 1.629 1.662 1.637 1.662 1.689 1.614 1.662 1.724 1.617 1.619 1.559 1.659 1.607 1.657 1.589 1.612 1.564 1.554 1.647 1.574 1.554 1.584 1.509 1.399 1.314 1.407 1.429 1.507 1.502 1.349 1.442 1.412 1.412 1.414 1.424 1.369 1.414 1.432 1.429 1.422 1.474 1.437 1.504 1.517 1.494 1.559 1.457 1.537 1.602 1.489 1.522 1.487 1.385 1.394 1.31 1.287 1.327 1.307 1.291 1.319 1.344 1.403 1.465 1.467 1.544 1.579 1.619 1.674 1.632 1.687 1.607 1.709 1.587 1.662 1.759 1.722 1.809 1.914 1.777 1.779 1.829 1.762 1.754 1.697 1.709 1.784 1.722 1.707 1.684 1.644 1.622 1.629 1.659 1.697 1.629 1.729 1.709 1.594 1.597 1.574 1.492 1.567 1.512 1.547 1.552 1.545 1.294 1.157 1.036 1.497 0.809 0.686 0.591 0.488 0.451 0.423 0.389 0.436 0.461 0.591 0.578 0.559 0.699 0.772 0.799 0.883 1.025 1.156 1.271 1.403 1.439 1.464 1.519 1.599 1.472 1.544 1.537 1.629 1.572 1.619 1.632 1.589 1.602 1.587 1.639 1.588 1.457 1.323 1.089 1.021 1.35 1.244 1.203 1.729 1.268 1.277 1.305 1.315 1.344 1.416 1.488 1.589 1.724 1.674 1.617 1.669 1.672 1.599 1.569 1.634 1.622 1.592 1.469 1.494 1.419 1.387 1.364 1.359 1.322 1.317 1.507 1.514 1.432 1.434 1.497 1.524 1.409 1.482 1.497 1.519 1.504 1.624 1.569 1.494 1.559 1.574 1.534 1.527 1.562 1.173 0.442 0.738 0.55 -0.473 0.091 -0.09 -0.342 -0.498 -1.382 -1.45 -1.55 -1.577 -1.57 -1.533 -1.519 -1.426 -1.35 -0.419 -0.348 -0.131 -0.653 -0.415
-1.816 -1.608 -1.66 -1.881 -1.886 -1.814 -1.836 -9999 -9999 -9999 -1.741 -9999 -9999 1.789 1.809 1.829 -9999 -9999 -9999 1.791 -9999 -9999 -9999 -9999 -1.761 -1.771 -9999 -9999 -9999 -9999 -9999 -9999 -9999 -9999 -9999 -1.804 -9999 -9999 -9999 -9999 -9999 -1.831 -1.806 -1.759 -1.599 -1.704 -1.894 -1.824 -1.774 -9999 1.349 -9999 -1.851 -1.876 -1.894 -1.806 -1.796 -1.779 -1.809 -1.62 -1.583 -1.829 -1.577 -1.562 -1.846 -1.819 -1.809 -1.597 -1.588 -1.599 -1.564 -1.592 -1.473 -1.246 -1.105 -0.935 -0.731 -0.512 -0.334 -0.096 0.151 0.36 0.531 0.686 0.905 1.105 1.256 1.472 1.55 1.441 1.303 1.113 1.004 0.951 0.933 0.954 0.882 0.863 0.857 0.918 0.879 0.855 0.692 0.687 0.716 0.736 0.815 0.838 0.809 0.923 0.875 0.726 0.583 0.442 0.344 0.255 0.153 0.093 0.02 0.034 0.117 0.091 0.146 0.228 0.249 0.06 -0.118 -0.268 -0.485 -0.652 -0.753 -0.852 -0.874 -0.857 -0.838 -0.737 -0.608 -0.454 -0.271 -0.098 0.138 0.229 0.374 0.54 0.655 0.559 0.541 0.544 0.543 0.548 0.584 0.674 0.741 0.854 1.033 1.184 1.288 1.399 1.624 1.689 1.604 1.632 1.637 1.612 1.632 1.637 1.707 1.679 1.697 1.789 1.593 1.339 1.111 0.894 0.702 0.458 0.221 -0.002 -0.185 -0.379 -0.636 -0.896 -1.064 -1.201 -1.28 -1.226 -1.254 -1.293 -1.43 -1.529 -1.806 -1.773 -1.726 -1.773 -1.528 -1.292 -1.056 -0.834 -0.586 -0.417 -0.227 -0.025 0.239 0.397 0.601 0.857 1.097 1.226 1.159 1.193 1.248 1.189 1.243 1.312 1.378 1.468 1.478 1.628 1.694 1.739 1.729 1.727 1.749 1.749 1.737 1.707 1.714 1.709 1.694 1.777 1.799 1.732 1.719 1.687 1.644 1.587 1.612 1.609 1.529 1.602 1.647 1.652 1.649 1.634 1.612 1.609 1.644 1.652 1.647 1.612 1.512 1.554 1.507 1.547 1.537 1.474 1.499 1.467 1.479 1.489 1.447 1.407 1.419 1.454 1.509 1.522 1.554 1.437 1.429 1.509 1.519 1.504 1.544 1.527 1.479 1.472 1.524 1.532 1.532 1.514 1.522 1.547 1.419 1.365 1.249 1.251 1.177 1.194 1.137 1.155 1.082 1.025 1.057 1.125 1.147 1.268 1.412 1.514 1.579 1.727 1.742 1.584 1.607 1.609 1.669 1.672 1.672 1.667 1.622 1.697 1.679 1.697 1.654 1.687 1.797 1.779 1.592 1.674 1.729 1.712 1.704 1.747 1.724 1.772 1.814 1.654 1.549 1.659 1.632 1.652 1.589 1.562 1.567 1.514 1.572 1.679 1.647 1.566 1.237 0.883 1.022 0.883 0.785 1.537 0.472 0.346 -0.501 -0.565 0.168 0.166 0.196 0.243 0.213 0.282 0.353 0.45 0.534 0.69 0.682 0.895 0.964 1.166 1.417 1.469 1.467 1.514 1.502 1.554 1.639 1.662 1.617 1.562 1.579 1.579 1.552 1.602 1.564 1.652 1.342 1.298 1.247 0.789 0.689 0.574 1.072 1.017 1.707 1.674 1.752 1.081 1.117 0.661 0.816 1.325 1.433 1.539 1.622 1.574 1.599 1.607 1.624 1.614 1.657 1.637 1.592 1.504 1.537 1.559 1.457 1.394 1.317 1.377 1.399 1.444 1.504 1.509 1.549 1.539 1.547 1.564 1.627 1.554 1.612 1.589 1.574 1.519 1.509 1.629 1.639 1.452 1.514 1.534 1.118 0.593 0.777 0.57 0.363 0.228 0.068 -0.179 -1.152 -1.265 -1.312 -1.4 -1.447 -1.439 -1.402 -1.355 -0.555 -0.417 -0.276 -0.245 -0.033 -0.517 -0.261
-1.829 -1.901 -1.911 -1.881 -1.916 -1.921 -1.891 -9999 -9999 -9999 -9999 -9999 -9999 -9999 -9999 -9999 -9999 -9999 -9999 -9999 -9999 -9999 -9999 -9999 -9999 -9999 -9999 -9999 -9999 -9999 -1.901 -9999 -9999 -9999 -9999 -9999 -9999 -9999 -9999 -9999 -9999 -1.814 -1.851 -1.836 -1.606 -1.707 -1.926 -9999 -9999 -9999 -9999 -9999 -1.811 -1.834 -1.859 -1.826 -1.811 -1.849 -1.869 -1.866 -1.831 -1.801 -1.771 -1.516 -1.814 -1.821 -1.789 -1.568 -1.824 -1.774 -1.794 -1.814 -1.537 -1.379 -1.237 -1.018 -0.818 -0.588 -0.358 -0.127 0.051 0.279 0.418 0.57 0.78 1.022 1.202 1.344 1.339 1.185 1.067 0.944 0.834 0.88 0.805 0.722 0.676 0.654 0.672 0.718 0.639 0.631 0.484 0.455 0.516 0.577 0.522 0.522 0.642 0.744 0.68 0.615 0.539 0.528 0.571 0.536 0.46 0.376 0.328 0.305 0.334 0.337 0.378 0.346 0.141 -0.065 -0.288 -0.424 -0.619 -0.831 -0.989 -1.085 -1.101 -1.101 -1.061 -0.971 -0.752 -0.618 -0.397 -0.153 0.106 0.269 0.457 0.553 0.441 0.421 0.329 0.293 0.302 0.357 0.392 0.502 0.545 0.601 0.791 0.98 1.097 1.363 1.454 1.552 1.609 1.532 1.672 1.559 1.687 1.719 1.809 1.732 1.744 1.779 1.587 1.303 1.083 0.833 0.644 0.435 0.166 -0.089 -0.28 -0.506 -0.736 -1.014 -1.204 -1.423 -1.562 -1.549 -1.553 -1.533 -1.556 -1.763 -1.766 -1.756 -1.776 -1.763 -1.548 -1.328 -1.109 -0.935 -0.764 -0.551 -0.358 -0.145 0.075 0.286 0.563 0.73 0.991 1.205 1.369 1.482 1.441 1.39 1.473 1.511 1.669 1.658 1.739 1.757 1.744 1.799 1.807 1.737 1.797 1.782 1.789 1.774 1.794 1.759 1.777 1.809 1.784 1.839 1.792 1.692 1.672 1.702 1.697 1.629 1.609 1.622 1.672 1.647 1.604 1.749 1.604 1.519 1.559 1.549 1.468 1.35 1.343 1.268 1.255 1.194 1.27 1.245 1.332 1.348 1.435 1.274 1.181 1.222 1.216 1.206 1.259 1.291 1.271 1.333 1.442 1.557 1.664 1.527 1.579 1.497 1.492 1.509 1.497 1.414 1.549 1.497 1.539 1.458 1.302 1.155 1.074 1.103 1.004 0.999 0.902 0.881 0.89 0.852 0.826 0.966 1.022 0.717 1.255 1.287 1.411 1.647 1.634 1.582 1.607 1.584 1.594 1.594 1.674 1.582 1.607 1.657 1.622 1.609 1.589 1.652 1.717 1.634 1.579 1.622 1.614 1.707 1.692 1.682 1.709 1.714 1.814 1.772 1.769 1.712 1.677 1.714 1.654 1.664 1.682 1.659 1.694 1.759 1.767 1.331 1.034 1.065 0.889 0.718 0.634 0.395 0.31 0.176 -0.741 -0.798 -0.032 -0.065 -0.071 -0.021 0.045 0.093 0.174 0.252 0.333 0.461 0.606 0.847 0.886 0.987 1.482 1.514 1.462 1.539 1.539 1.597 1.552 1.412 1.502 1.527 1.644 1.542 1.552 1.627 1.47 1.436 1.075 1.02 0.976 0.334 0.22 0.208 0.836 1.642 1.644 1.747 1.717 1.712 1.744 0.983 1.068 1.177 1.295 1.366 1.281 1.61 1.592 1.619 1.629 1.722 1.539 1.574 1.519 1.489 1.537 1.589 1.567 1.474 1.492 1.547 1.522 1.474 1.447 1.524 1.512 1.567 1.547 1.559 1.549 1.614 1.557 1.647 1.559 1.689 1.562 1.507 1.502 1.504 1.517 1.367 1.054 0.822 0.4 0.698 0.521 0.351 0.139 0.003 -1.036 -1.121 -1.157 -1.202 -1.304 -1.292 -1.24 -1.171 1.494 1.592 1.529 -0.021 -0.574 -0.369 -0.08
-1.876 -1.902 -1.891 -1.871 -1.826 -1.884 -1.911 -9999 -9999 -9999 -9999 -9999 -9999 -9999 -9999 -9999 -9999 -9999 -9999 -9999 -9999 -9999 -9999 -9999 -9999 -9999 -9999 -9999 -9999 -1.871 -9999 -1.874 -1.818 -1.751 -9999 -9999 -9999 -9999 -9999 -9999 -1.801 -1.809 -9999 -1.854 -1.814 -1.602 -1.611 1.549 1.649 1.674 -9999 -1.766 -1.851 -1.874 -1.821 -1.821 -1.841 -1.626 -1.646 -1.876 -1.819 -1.776 -1.515 -1.457 -1.521 -1.789 -1.811 -1.621 -1.844 -1.869 -1.839 -1.799 -1.741 -1.502 -1.315 -1.114 -0.886 -0.641 -0.491 -0.307 -0.133 0.133 0.32 0.473 0.714 0.923 1.108 1.23 1.163 1.015 0.892 0.774 0.657 0.613 0.547 0.512 0.491 0.452 0.446 0.478 0.435 0.306 0.257 0.226 0.267 0.291 0.249 0.3 0.411 0.481 0.469 0.463 0.365 0.309 0.359 0.332 0.37 0.371 0.272 0.277 0.299 0.279 0.23 0.195 0.091 -0.143 -0.387 -0.598 -0.784 -0.97 -1.178 -1.269 -1.335 -1.323 -1.244 -1.069 -0.851 -0.683 -0.47 -0.283 -0.024 0.112 0.218 0.377 0.307 0.187 0.141 0.086 0.08 0.129 0.229 0.303 0.383 0.462 0.655 0.714 0.867 1.057 1.302 1.519 1.587 1.609 1.677 1.639 1.694 1.749 1.729 1.764 1.814 1.817 1.558 1.24 1.11 0.896 0.597 0.37 0.155 -0.119 -0.282 -0.56 -0.82 -1.047 -1.3 -1.551 -1.818 -1.821 -1.786 -1.801 -1.808 -1.838 -1.788 -1.766 -1.768 -1.736 -1.541 -1.474 -1.257 -1.061 -0.925 -0.682 -0.393 -0.2 0.041 0.304 0.55 0.75 0.955 1.231 1.548 1.709 1.729 1.692 1.744 1.742 1.714 1.824 1.789 1.792 1.737 1.847 1.769 1.832 1.844 1.842 1.879 1.809 1.777 1.862 1.879 1.837 1.809 1.684 1.724 1.659 1.682 1.609 1.537 1.521 1.451 1.428 1.387 1.42 1.466 1.472 1.411 1.437 1.315 1.31 1.258 1.156 1.082 1.085 1.052 1.003 0.984 1.13 1.223 1.229 1.08 1.007 0.966 1.045 1.053 1.043 1.094 1.15 1.098 1.244 1.267 1.425 1.457 1.547 1.524 1.539 1.564 1.494 1.507 1.534 1.612 1.535 1.385 1.237 1.099 0.967 0.921 0.844 0.814 0.733 0.68 0.616 0.64 0.626 0.677 0.748 0.852 0.922 1.028 1.106 1.231 1.408 1.522 1.539 1.594 1.609 1.609 1.567 1.609 1.597 1.569 1.594 1.577 1.557 1.484 1.664 1.639 1.599 1.597 1.542 1.612 1.692 1.659 1.649 1.652 1.637 1.772 1.762 1.789 1.852 1.824 1.774 1.829 1.837 1.897 1.802 1.754 1.769 1.719 1.469 1.26 1.092 0.752 0.553 0.464 0.252 0.197 0.012 -0.948 -1.01 -1.064 -0.266 -0.258 -0.227 -0.957 -0.884 -0.041 0.04 0.114 0.296 0.494 0.684 0.9 1.004 1.629 1.629 1.428 1.572 1.524 1.559 1.532 1.504 1.544 1.509 1.532 1.497 1.604 1.524 1.339 0.719 1.077 0.979 0.128 0.013 -0.099 -0.134 -0.168 -0.223 0.546 1.694 1.744 1.699 1.709 0.691 0.859 0.962 1.129 1.649 0.996 1.305 1.624 1.637 1.629 1.682 1.599 1.572 1.574 1.597 1.607 1.664 1.639 1.539 1.592 1.587 1.652 1.549 1.474 1.564 1.504 1.544 1.627 1.602 1.602 1.662 1.619 1.657 1.604 1.604 1.544 1.649 1.532 1.619 1.612 1.478 1.257 1.007 0.604 0.338 0.043 0.514 0.326 0.136 -0.882 -0.94 -1.005 -1.029 -1.088 -1.056 -1.064 -1.004 1.552 0.07 -0.685 -0.527 -0.387 -0.123 0.179
-1.859 -1.886 -1.896 -1.876 -1.804 -1.859 -1.874 -1.851 -1.848 -9999 -9999 -9999 -9999 1.779 1.739 -9999 -9999 -9999 -9999 -9999 -9999 -9999 -9999 -9999 -9999 -9999 -9999 -1.801 -1.804 -9999 -9999 -9999 -1.741 -9999 -9999 -9999 -9999 -9999 -9999 -9999 -1.818 -1.814 -9999 -9999 -1.566 -1.774 1.519 -9999 -9999 1.719 -1.816 -1.809 -1.819 -1.568 -1.791 -1.804 -1.829 -1.633 -1.916 -1.687 -1.864 -1.839 -1.729 -1.794 -1.824 -1.856 -1.841 -1.891 -1.615 -1.625 -1.821 -1.741 -1.719 -1.522 -1.336 -1.144 -0.987 -0.848 -0.647 -0.445 -0.231 -0.027 0.217 0.398 0.52 0.784 0.857 1.036 0.996 0.685 0.68 0.548 0.425 0.32 0.29 0.253 0.238 0.225 0.245 0.307 0.214 0.084 0.082 0.001 -0.001 -0.015 0.002 0.083 0.213 0.265 0.247 0.319 0.193 0.116 0.126 0.147 0.136 0.128 0.052 0.042 0.075 0.109 0.065 -0.026 -0.096 -0.235 -0.491 -0.722 -0.96 -1.166 -1.295 -1.483 -1.538 -1.545 -1.401 -1.186 -0.954 -0.749 -0.508 -0.324 -0.192 -0.037 0.109 0.203 0.004 -0.062 -0.128 -0.142 -0.109 -0.105 -0.003 0.068 0.165 0.286 0.464 0.644 0.728 0.949 1.17 1.304 1.478 1.622 1.659 1.684 1.712 1.724 1.769 1.749 1.847 1.877 1.509 1.339 1.091 0.861 0.594 0.334 0.038 -0.138 -0.341 -0.608 -0.836 -1.098 -1.341 -1.576 -1.793 -1.766 -1.761 -1.788 -1.838 -1.826 -1.803 -1.818 -1.761 -1.748 -1.731 -1.546 -1.316 -1.059 -0.868 -0.605 -0.406 -0.167 0.023 0.19 0.55 0.766 0.998 1.17 1.439 1.613 1.702 1.684 1.692 1.699 1.727 1.759 1.702 1.732 1.739 1.787 1.784 1.842 1.834 1.804 1.812 1.832 1.829 1.774 1.747 1.754 1.784 1.677 1.599 1.729 1.621 1.495 1.346 1.325 1.2 1.182 1.212 1.153 1.198 1.183 1.155 1.165 1.116 1.089 0.937 0.982 0.897 0.807 0.791 0.815 0.769 0.892 0.995 0.931 0.945 0.861 0.863 0.946 0.895 0.921 0.878 0.898 1.053 1.006 1.105 1.224 1.189 1.347 1.434 1.509 1.537 1.537 1.532 1.564 1.549 1.412 1.176 1.076 0.935 0.799 0.702 0.718 0.527 0.387 0.45 0.407 0.448 0.452 0.482 0.575 0.549 0.664 0.87 0.955 1.055 1.263 1.199 1.524 1.577 1.647 1.614 1.617 1.509 1.554 1.552 1.554 1.554 1.524 1.604 1.657 1.552 1.497 1.624 1.652 1.604 1.704 1.694 1.682 1.639 1.687 1.709 1.752 1.824 1.839 1.879 1.844 1.859 1.942 1.922 1.914 1.784 1.842 1.794 1.447 1.16 0.908 0.637 0.353 -0.478 0.109 0.052 -0.946 -1.085 -1.175 -1.216 -1.17 -0.447 -0.386 -0.396 -0.386 -0.306 -0.17 -0.009 0.132 0.337 0.461 0.735 0.899 1.642 1.599 1.314 1.474 1.469 1.482 1.514 1.464 1.422 1.567 1.547 1.524 1.544 1.328 1.188 1.073 0.885 0.757 1.569 0.448 -0.339 -0.388 -0.433 -0.439 0.417 0.337 1.617 1.629 0.448 0.468 0.661 0.737 0.856 1.011 0.709 1.057 1.343 1.699 1.639 1.667 1.539 1.489 1.507 1.627 1.662 1.654 1.694 1.654 1.607 1.684 1.622 1.599 1.534 1.589 1.537 1.559 1.694 1.652 1.672 1.702 1.724 1.729 1.632 1.567 1.644 1.632 1.622 1.669 1.527 1.479 1.397 1.119 0.849 0.607 0.907 -0.014 0.609 -0.381 -0.521 -0.617 -0.733 -0.857 -0.862 -0.847 -0.841 -0.78 -0.727 -0.625 -0.473 -0.254 -0.039 0.138 0.397
-1.772 -1.794 -1.839 -1.851 -1.814 -1.796 -1.771 -9999 -1.834 -1.776 -9999 -1.328 -9999 -9999 -9999 -9999 -9999 -9999 -9999 -9999 -9999 -9999 -9999 -9999 -9999 -9999 -9999 -1.801 -1.806 -9999 -9999 -9999 -1.771 -9999 -9999 -9999 -9999 -9999 -9999 -1.809 -1.834 -1.614 -1.635 -1.61 -1.789 -1.896 -1.804 -1.781 -1.781 -1.794 -1.839 -1.789 -1.784 -1.561 -1.826 -1.864 -1.871 -1.871 -1.829 -1.851 -1.871 -1.781 -1.729 -1.814 -1.866 -1.841 -1.869 -1.856 -1.579 -1.451 -1.568 -1.761 -1.746 -1.546 -1.344 -1.309 -1.184 -1.021 -0.767 -0.532 -0.32 -0.117 0.159 0.318 0.515 0.559 0.679 0.825 0.773 0.55 0.453 0.319 0.187 0.084 0.077 0.024 -0.005 -0.024 -0.039 0.039 0.022 -0.11 -0.145 -0.233 -0.261 -0.277 -0.23 -0.077 0.054 0.078 0.03 0.068 0.017 -0.024 -0.12 -0.079 -0.137 -0.129 -0.14 -0.155 -0.135 -0.068 -0.166 -0.263 -0.306 -0.32 -0.573 -0.833 -1.054 -1.276 -1.496 -1.555 -1.738 -1.733 -1.479 -1.246 -0.998 -0.801 -0.712 -0.513 -0.38 -0.152 -0.066 -0.041 -0.216 -0.304 -0.355 -0.374 -0.401 -0.355 -0.256 -0.17 -0.08 0.06 0.276 0.438 0.516 0.748 1.046 1.143 1.266 1.563 1.609 1.664 1.702 1.782 1.727 1.782 1.722 1.724 1.504 1.33 1.112 0.827 0.517 0.32 0.067 -0.137 -0.381 -0.634 -0.9 -1.125 -1.338 -1.581 -1.883 -1.808 -1.771 -1.763 -1.768 -1.783 -1.801 -1.768 -1.786 -1.811 -1.52 -1.459 -1.238 -1.048 -0.828 -0.579 -0.375 -0.157 0.05 0.292 0.473 0.684 0.957 1.119 1.364 1.608 1.669 1.674 1.687 1.709 1.724 1.679 1.704 1.779 1.697 1.797 1.692 1.792 1.819 1.844 1.824 1.909 1.837 1.682 1.644 1.807 1.669 1.629 1.47 1.464 1.398 1.248 1.153 1.128 1.006 0.981 1.03 0.986 0.923 0.947 1.006 1.015 1.026 0.901 0.808 0.708 0.615 0.58 0.571 0.642 0.665 0.649 0.81 0.741 0.724 0.724 0.673 0.703 0.66 0.714 0.682 0.714 0.741 0.755 0.816 0.885 0.954 1.054 1.176 1.392 1.49 1.537 1.517 1.532 1.343 1.247 1.027 0.807 0.749 0.669 0.5 0.459 0.347 0.203 0.218 0.205 0.219 0.293 0.282 -0.335 0.417 0.511 0.683 0.797 0.962 1.161 0.888 1.187 1.529 1.552 1.502 1.574 1.632 1.579 1.527 1.544 1.539 1.517 1.492 1.559 1.547 1.502 1.619 1.742 1.687 1.612 1.642 1.679 1.759 1.684 1.684 1.719 1.822 1.842 1.944 1.954 1.964 1.867 1.862 1.862 1.784 1.745 1.812 1.772 1.064 0.806 0.48 0.243 -0.634 -0.787 1.624 -0.295 -0.442 -1.322 -1.321 -0.637 -1.304 -0.598 -0.598 -0.548 -0.427 -0.314 -0.138 -0.016 0.16 0.338 0.584 0.809 1.105 1.2 1.181 1.539 1.609 1.479 1.504 1.497 1.487 1.587 1.499 1.529 1.414 0.817 1.532 1.447 0.674 0.514 0.228 0.186 -0.634 1.614 1.652 0.198 0.167 1.679 -0.013 -0.781 -0.691 -0.492 0.424 0.557 0.048 0.819 1.102 1.282 1.491 1.45 1.629 1.672 1.609 1.617 1.617 1.602 1.634 1.684 1.662 1.629 1.704 1.794 1.594 1.647 1.654 1.592 1.572 1.584 1.602 1.634 1.664 1.652 1.692 1.697 1.619 1.684 1.669 1.637 1.654 1.587 1.659 1.564 1.557 1.36 1.41 1.343 1.131 0.349 0.071 -0.085 -0.22 -0.337 -0.489 -0.561 -0.595 -0.593 -0.586 -0.526 -0.47 -0.382 -0.269 -0.075 0.174 1.068 1.278
-1.814 -1.896 -9999 -9999 -1.617 -9999 -9999 -9999 -9999 1.629 1.516 -9999 -9999 -9999 -9999 -9999 -9999 -9999 -9999 -9999 -9999 -9999 -9999 -9999 1.569 -9999 -9999 -1.821 -9999 -9999 -9999 -1.731 -1.789 -9999 -9999 -9999 1.579 1.591 -9999 -1.776 -9999 -1.636 -1.889 -1.859 -1.886 -1.966 -1.854 -1.841 -1.578 -1.804 -1.806 -1.766 -1.771 -1.563 -1.841 -1.874 -1.894 -1.796 -1.774 -1.796 -1.794 -1.746 -1.784 -1.811 -1.861 -1.841 -1.846 -1.796 -1.54 -1.303 -1.463 -1.514 -1.578 -1.618 -1.612 -1.515 -1.286 -1.102 -0.867 -0.614 -0.399 -0.132 0.051 0.155 0.255 0.33 0.502 0.704 0.627 0.455 0.281 0.116 0.016 -0.12 -0.148 -0.227 -0.258 -0.274 -0.273 -0.169 -0.157 -0.288 -0.424 -0.458 -0.482 -0.467 -0.374 -0.228 -0.093 -0.09 -0.173 -0.184 -0.216 -0.29 -0.314 -0.363 -0.368 -0.386 -0.403 -0.361 -0.31 -0.296 -0.361 -0.463 -0.577 -0.632 -0.591 -0.859 -1.087 -1.344 -1.536 -1.771 -1.718 -1.678 -1.471 -1.248 -1.008 -0.999 -0.881 -0.702 -0.522 -0.397 -0.303 -0.29 -0.418 -0.562 -0.631 -0.639 -0.596 -0.562 -0.473 -0.34 -0.213 -0.023 0.109 0.248 0.408 0.642 0.869 1.027 1.197 1.478 1.699 1.617 1.579 1.659 1.657 1.642 1.644 1.687 1.463 1.271 1.159 0.837 0.54 0.346 0.099 -0.141 -0.398 -0.609 -0.837 -1.027 -1.287 -1.481 -1.568 -1.788 -1.801 -1.826 -1.801 -1.836 -1.823 -1.793 -1.786 -1.761 -1.524 -1.328 -1.122 -0.93 -0.779 -0.603 -0.432 -0.217 -0.025 0.181 0.395 0.672 0.882 1.095 1.369 1.561 1.657 1.642 1.799 1.767 1.714 1.747 1.764 1.744 1.719 1.697 1.767 1.822 1.764 1.787 1.772 1.839 1.837 1.657 1.572 1.637 1.529 1.393 1.282 1.164 1.092 1.024 0.917 0.76 0.816 0.806 0.763 0.77 0.715 0.746 0.76 0.854 0.806 0.678 0.596 0.499 0.442 0.378 0.406 0.441 0.47 0.43 0.474 0.523 0.524 0.546 0.522 0.546 0.461 0.483 0.492 0.496 0.551 0.632 0.611 0.723 0.815 0.953 1.13 1.242 1.334 1.487 1.552 1.393 1.221 1.105 0.916 0.62 0.58 0.47 0.393 0.28 0.142 0.064 0.03 0.061 -0 0.015 0.052 -0.58 -0.493 0.43 0.54 0.669 0.734 0.836 0.982 0.865 1.191 1.529 1.444 1.529 1.557 1.622 1.687 1.532 1.697 1.547 1.524 1.572 1.599 1.667 1.697 1.807 1.692 1.659 1.689 1.797 1.707 1.709 1.702 1.737 1.774 1.864 1.934 1.954 1.894 1.834 1.864 1.822 1.757 1.716 1.466 1.237 0.928 0.66 0.48 0.285 0.13 -0.098 1.712 1.604 -0.528 -0.679 -0.767 -0.827 -0.79 -0.783 -0.794 -0.707 -0.535 -0.4 -0.289 -0.189 0.042 0.286 0.578 0.885 0.987 1.115 1.104 1.487 1.664 1.589 1.607 1.617 1.511 1.444 1.417 0.978 1.343 1.089 1.609 0.437 0.281 -0.422 -0.602 -0.776 -0.857 1.592 1.609 -0.101 -0.044 -0.982 -1.024 -0.998 -0.927 -0.745 0.297 0.401 0.618 0.737 0.863 1.153 1.298 1.475 1.633 1.624 1.557 1.622 1.802 1.699 1.692 1.754 1.749 1.682 1.652 1.679 1.669 1.692 1.647 1.682 1.674 1.717 1.682 1.682 1.612 1.714 1.674 1.672 1.677 1.689 1.667 1.709 1.772 1.732 1.769 1.619 1.569 1.567 1.594 1.482 1.273 0.637 0.419 0.224 0.08 -0.057 0.59 -0.272 -0.311 -0.268 -0.306 -0.244 0.583 -0.074 0.017 0.183 0.376 0.689 1.337
-1.889 -9999 -9999 -9999 -9999 -9999 -9999 -9999 1.719 1.651 -1.365 -9999 -9999 -9999 -9999 -9999 -9999 -9999 -9999 1.724 -9999 -9999 -9999 -9999 1.649 -9999 -1.856 -9999 -9999 -9999 -1.781 -1.789 -1.821 -1.811 -1.533 1.544 -9999 -9999 -9999 -9999 -9999 1.502 -1.889 -1.874 -1.841 -1.891 -1.796 -1.591 -1.545 -1.506 -1.744 -1.801 -1.819 -1.585 -1.849 -1.874 -1.849 -1.821 -1.796 -1.781 -1.764 -1.801 -1.806 -1.829 -1.834 -1.839 -1.824 -1.575 -1.455 -1.264 -1.271 -1.334 -1.629 -1.901 -1.874 -1.63 -1.352 -1.097 -0.904 -0.634 -0.466 -0.111 -0.143 0.031 0.062 0.132 0.267 0.446 0.458 0.274 0.109 -0.079 -0.171 -0.296 -0.379 -0.455 -0.487 -0.538 -0.504 -0.422 -0.342 -0.479 -0.596 -0.663 -0.719 -0.665 -0.545 -0.435 -0.321 -0.299 -0.38 -0.4 -0.425 -0.521 -0.586 -0.602 -0.61 -0.604 -0.571 -0.544 -0.565 -0.548 -0.568 -0.731 -0.834 -0.859 -0.851 -0.955 -1.14 -1.342 -1.551 -1.721 -1.753 -1.736 -1.486 -1.28 -1.271 -1.218 -1.071 -0.903 -0.716 -0.595 -0.479 -0.485 -0.623 -0.748 -0.828 -0.868 -0.873 -0.803 -0.646 -0.507 -0.371 -0.176 -0.051 0.134 0.387 0.529 0.768 0.952 1.253 1.376 1.589 1.589 1.647 1.679 1.604 1.634 1.622 1.667 1.461 1.242 1.035 0.851 0.569 0.391 0.176 -0.114 -0.278 -0.541 -0.771 -0.975 -1.156 -1.336 -1.551 -1.801 -1.763 -1.788 -1.768 -1.781 -1.574 -1.553 -1.559 -1.509 -1.418 -1.304 -1.251 -1.088 -0.868 -0.7 -0.531 -0.269 -0.092 0.139 0.362 0.647 0.857 1.058 1.324 1.473 1.687 1.649 1.739 1.679 1.797 1.782 1.737 1.722 1.732 1.757 1.777 1.807 1.797 1.754 1.714 1.787 1.678 1.447 1.401 1.374 1.354 1.268 1.122 1.011 0.899 0.841 0.693 0.634 0.627 0.531 0.562 0.473 0.499 0.578 0.594 0.646 0.647 0.559 0.436 0.346 0.309 0.283 0.276 0.262 0.258 0.247 0.286 0.354 0.34 0.327 0.328 0.348 0.299 0.336 0.273 0.335 0.299 0.434 0.421 0.52 0.639 0.796 0.897 1.097 1.19 1.363 1.547 1.353 1.169 0.975 0.771 0.614 0.449 0.293 0.198 0.07 -0.007 -0.098 -0.103 -0.093 -0.152 -0.163 -0.875 -0.806 0.032 0.169 0.302 0.462 0.604 0.713 0.921 1.078 1.018 1.42 1.557 1.624 1.527 1.632 1.722 1.729 1.594 1.517 1.557 1.594 1.564 1.654 1.642 1.709 1.699 1.689 1.674 1.742 1.779 1.794 1.712 1.659 1.704 1.839 1.789 1.807 1.812 1.862 1.829 1.729 1.626 1.585 1.421 1.151 0.916 0.612 0.414 0.243 0.044 -0.204 1.687 -0.603 1.749 1.752 -0.969 -1.006 -1.003 -1.053 -1.053 -0.964 -0.722 -0.564 -0.369 -0.274 -0.061 0.165 0.457 1.864 0.259 0.581 0.992 1.36 1.687 1.707 1.587 1.478 1.16 1.221 0.876 0.684 1.622 1.627 1.564 0.299 0.207 -0.564 -0.773 -0.934 -1.044 -0.217 1.699 -0.221 -0.223 -1.184 -1.194 -1.189 -1.105 -0.957 -0.798 -0.606 0.362 0.615 0.728 0.942 1.181 1.371 1.672 1.694 1.692 1.727 1.729 1.762 1.677 1.667 1.679 1.667 1.662 1.687 1.667 1.662 1.596 1.48 1.374 1.261 1.256 1.333 1.521 1.689 1.712 1.408 1.5 1.625 1.632 1.687 1.634 1.804 1.719 1.639 1.694 1.639 1.632 1.605 1.707 1.304 0.755 0.486 0.3 0.773 0.765 0.089 0.038 0.059 0.011 0.76 0.753 0.756 0.333 1.037 1.098 0.915 1.423
-1.856 -1.861 -9999 -9999 -9999 -9999 -1.921 -9999 1.709 1.676 1.611 -9999 -9999 -9999 -9999 -9999 -9999 -9999 -9999 1.699 -9999 -9999 -9999 -9999 -9999 -9999 -9999 -9999 -9999 -9999 -9999 -9999 -1.774 -1.591 1.451 -1.831 -9999 1.609 -1.546 -1.814 1.589 -1.637 -1.859 -1.799 -1.854 -1.809 -1.751 -1.756 -1.751 -1.749 -1.804 -1.635 -1.859 -1.766 -1.806 -1.779 -1.776 -1.771 -1.789 -1.806 -1.799 -1.814 -1.811 -1.806 -1.596 -1.568 -1.556 -1.527 -1.408 -1.325 -1.38 -1.389 -1.554 -1.599 -1.801 -1.582 -1.337 -1.094 -0.874 -0.639 -0.411 -0.373 -0.38 -0.26 -0.164 -0.079 0.108 0.264 0.323 0.189 -0.025 -0.253 -0.382 -0.487 -0.601 -0.662 -0.718 -0.74 -0.712 -0.642 -0.55 -0.677 -0.777 -0.848 -0.876 -0.81 -0.736 -0.632 -0.507 -0.539 -0.645 -0.65 -0.621 -0.732 -0.805 -0.818 -0.831 -0.818 -0.842 -0.842 -0.845 -0.793 -0.758 -0.941 -1.033 -1.07 -1.104 -1.127 -1.26 -1.433 -1.518 -1.763 -1.736 -1.708 -1.434 -1.488 -1.487 -1.414 -1.202 -1.107 -0.951 -0.753 -0.521 -0.651 -0.84 -0.986 -1.082 -1.107 -1.082 -0.986 -0.854 -0.694 -0.543 -0.359 -0.177 0.044 0.337 0.441 0.623 0.923 1.106 1.269 1.304 1.326 1.486 1.515 1.431 1.366 1.48 1.488 1.488 1.333 1.019 0.749 0.551 0.323 0.089 -0.111 -0.293 -0.545 -0.797 -1.014 -1.188 -1.324 -1.52 -1.589 -1.813 -1.811 -1.796 -1.786 -1.519 -1.3 -1.417 -1.508 -1.523 -1.518 -1.399 -1.218 -1.017 -0.826 -0.601 -0.397 -0.171 0.073 0.348 0.578 0.775 0.982 1.241 1.44 1.647 1.662 1.707 1.687 1.824 1.749 1.638 1.626 1.506 1.566 1.578 1.509 1.462 1.512 1.514 1.48 1.305 1.268 1.245 1.146 1.147 1.167 1.051 0.875 0.743 0.638 0.507 0.421 0.339 0.325 0.311 0.248 0.262 0.284 0.327 0.413 0.463 0.339 0.228 0.155 0.101 0.091 0.043 0.061 0.017 0.035 0.105 0.222 0.159 0.112 0.089 0.089 0.076 0.08 0.039 0.06 0.103 0.166 0.196 0.406 0.508 0.624 0.734 0.944 1.062 1.25 1.386 1.271 1.126 0.867 0.531 0.453 0.271 0.186 0.048 -0.127 -0.187 -0.281 -0.359 -0.335 -0.363 -1.14 -1.059 -0.242 -0.172 -0.043 0.156 0.255 0.48 0.598 0.776 0.975 0.961 1.436 1.624 1.567 1.514 1.564 1.597 1.602 1.479 1.534 1.564 1.564 1.639 1.652 1.582 1.622 1.724 1.804 1.852 1.642 1.717 1.654 1.764 1.727 1.724 1.712 1.709 1.712 1.718 1.688 1.548 1.486 1.108 1.064 0.791 1.081 0.816 0.596 0.462 0.155 -0.063 -0.3 -0.532 -0.7 1.644 1.714 1.749 -1.187 -1.239 -1.238 -1.172 -1.044 -0.889 -0.719 -0.498 -0.282 -0.115 0.101 0.399 1.709 0.734 1.075 0.926 1.498 1.659 1.522 1.458 1.381 0.733 0.632 0.953 0.9 1.589 1.599 1.569 0.196 -0.591 -0.744 -0.912 -1.07 -1.128 -1.255 -1.33 -1.373 -1.402 -1.365 -1.345 -1.337 -1.26 -0.177 -0.037 -0.784 0.219 0.477 0.64 0.829 1.114 0.861 1.21 1.713 1.684 1.674 1.744 1.724 1.802 1.734 1.682 1.632 1.637 1.682 1.643 1.451 1.227 1.066 1.031 0.916 0.952 0.947 0.881 1.692 1.247 1.275 1.058 1.221 1.302 1.481 1.497 1.565 1.51 1.717 1.724 1.769 1.629 1.679 1.707 1.572 1.13 0.824 0.697 0.568 1.003 0.443 0.416 0.387 0.413 0.989 0.945 0.985 1.092 1.15 1.219 1.392 1.544
-1.789 -1.794 -1.838 -9999 -9999 -1.801 -1.939 -1.904 -9999 -9999 -9999 -9999 -9999 -9999 -9999 -9999 -9999 -9999 -9999 1.619 -9999 -9999 -9999 -9999 -9999 -9999 -9999 -9999 1.409 -9999 -1.831 -9999 -1.781 -9999 1.451 -9999 -1.554 -1.408 -1.446 -1.609 -1.608 -1.653 -1.876 -1.844 -1.896 -1.836 -1.721 -1.756 -1.781 -1.779 -1.839 -1.861 -1.874 -1.816 -1.839 -1.826 -1.796 -1.801 -1.811 -1.841 -1.794 -1.744 -1.764 -1.796 -1.794 -1.839 -1.826 -1.819 -1.522 -1.572 -1.614 -1.591 -1.605 -1.468 -1.556 -1.454 -1.273 -1.074 -0.858 -0.659 -0.669 -0.588 -0.589 -0.503 -0.368 -0.215 -0.016 0.202 0.232 0.073 -0.167 -0.356 -0.534 -0.726 -0.823 -0.887 -0.92 -0.921 -0.897 -0.787 -0.675 -0.808 -0.948 -1.033 -1.075 -1.054 -1.006 -0.83 -0.675 -0.788 -0.859 -0.895 -0.849 -0.961 -1.042 -1.059 -1.056 -1.061 -1.137 -1.09 -1.068 -1.045 -0.972 -1.169 -1.263 -1.288 -1.332 -1.329 -1.444 -1.481 -1.666 -1.711 -1.688 -1.696 -1.688 -1.701 -1.741 -1.543 -1.405 -1.291 -1.034 -0.841 -0.634 -0.82 -1.003 -1.176 -1.276 -1.343 -1.281 -1.162 -1.002 -0.868 -0.683 -0.48 -0.291 -0.07 0.153 0.322 0.546 0.896 0.974 1.147 1.135 1.168 1.14 1.183 1.206 1.208 1.196 1.282 1.305 1.292 1.004 0.737 0.485 0.234 0.04 -0.166 -0.375 -0.561 -0.852 -1.104 -1.311 -1.49 -1.596 -1.766 -1.786 -1.771 -1.748 -1.711 -1.512 -1.279 -1.536 -1.758 -1.706 -1.711 -1.473 -1.327 -1.118 -0.85 -0.648 -0.44 -0.198 0.033 0.272 0.523 0.764 0.906 1.096 1.358 1.732 1.669 1.669 1.563 1.52 1.517 1.371 1.354 1.245 1.262 1.338 1.244 1.227 1.223 1.292 1.178 1.197 1.041 1.086 0.984 1.001 1.034 0.94 0.721 0.622 0.429 0.254 0.184 0.104 0.098 0.087 0.004 0.006 0.004 0.11 0.195 0.296 0.124 0.018 -0.012 -0.093 -0.147 -0.14 -0.152 -0.159 -0.161 -0.135 0.027 -0.034 -0.096 -0.156 -0.159 -0.126 -0.227 -0.223 -0.156 -0.114 -0.008 0.084 0.195 0.35 0.459 0.608 0.808 0.94 1.156 1.327 1.179 0.996 0.804 0.534 0.314 0.151 0.045 -0.186 -0.29 -0.345 -0.47 -0.605 -0.571 -0.628 -0.609 -1.236 -0.432 -0.295 -0.179 -0.01 0.221 0.349 0.534 0.691 0.879 0.811 1.164 1.336 1.492 1.512 1.582 1.607 1.584 1.649 1.589 1.512 1.537 1.587 1.627 1.664 1.637 1.584 1.604 1.569 1.687 1.799 1.594 1.657 1.692 1.639 1.664 1.699 1.572 1.41 1.37 1.273 1.156 1.181 1.187 1.041 1.036 0.837 0.635 0.363 0.116 -0.122 -0.368 -0.577 -0.708 1.687 1.689 1.729 -1.44 -1.449 -1.435 -1.245 -1.104 -0.951 -0.781 -1.3 -0.315 -0.126 0.094 0.35 0.509 0.719 1.055 0.892 1.239 1.48 1.38 1.22 1.147 1.647 0.919 0.795 0.764 1.697 1.652 0.332 0.09 -0.048 -0.884 -0.999 -0.197 -0.439 -0.683 -0.791 -1.469 -1.537 -1.541 -1.507 -1.461 -0.608 1.697 1.829 -0.937 -0.737 0.327 0.481 0.693 0.405 0.743 1.044 1.646 1.709 1.774 1.729 1.744 1.822 1.789 1.772 1.762 1.689 1.69 1.299 1.088 0.961 1.265 1.147 0.57 0.512 0.551 1.002 1.782 1.724 1.112 1.245 0.857 0.952 1.328 1.25 1.158 1.192 1.233 1.702 1.737 1.405 1.56 1.688 1.719 1.513 1.248 1.106 1.335 0.903 0.898 0.788 0.74 0.823 0.776 1.167 1.21 1.27 1.37 1.453 1.457 1.564
-1.746 -1.796 -9999 -9999 -1.806 -1.831 -1.889 -1.806 -9999 -9999 -9999 -9999 -9999 -9999 1.479 -9999 -9999 -9999 1.609 1.621 -9999 -9999 -9999 -9999 1.651 -9999 -9999 -9999 -9999 -1.801 -1.829 -1.871 -9999 -9999 1.544 1.546 -1.57 -1.48 -1.473 -1.629 -1.846 -1.876 -1.851 -1.796 -1.799 -1.814 -1.754 -1.769 -1.804 -1.806 -1.871 -1.831 -1.836 -1.824 -1.826 -1.819 -1.811 -1.801 -1.819 -1.799 -1.804 -1.806 -1.834 -1.839 -1.804 -1.836 -1.734 -1.736 -1.791 -1.861 -1.874 -1.846 -1.856 -1.563 -1.356 -1.34 -1.287 -1.146 -0.948 -0.864 -0.898 -0.848 -0.785 -0.695 -0.554 -0.408 -0.131 -0.021 0.161 -0.093 -0.249 -0.512 -0.655 -0.842 -0.969 -1.091 -1.136 -1.134 -1.074 -0.95 -0.795 -0.942 -1.15 -1.269 -1.309 -1.3 -1.207 -0.99 -0.838 -0.99 -1.076 -1.091 -1.085 -1.114 -1.249 -1.313 -1.329 -1.293 -1.362 -1.348 -1.326 -1.28 -1.144 -1.277 -1.453 -1.514 -1.538 -1.549 -1.486 -1.651 -1.658 -1.686 -1.688 -1.723 -1.718 -1.701 -1.753 -1.786 -1.547 -1.347 -1.101 -0.967 -0.858 -1.005 -1.155 -1.301 -1.453 -1.52 -1.433 -1.314 -1.189 -0.989 -0.82 -0.613 -0.385 -0.152 0.058 0.29 0.47 0.68 0.954 0.919 0.921 0.918 0.986 0.94 0.956 0.92 0.92 1.03 1.061 1.107 0.942 0.667 0.457 0.288 -0.011 -0.211 -0.447 -0.635 -0.904 -1.152 -1.367 -1.548 -1.783 -1.783 -1.773 -1.761 -1.743 -1.718 -1.544 -1.318 -1.541 -1.806 -1.751 -1.756 -1.539 -1.363 -1.131 -0.868 -0.609 -0.419 -0.257 -0.03 0.199 0.388 0.714 0.941 1.104 1.392 1.404 1.339 1.314 1.252 1.215 1.19 1.074 0.995 0.925 0.96 0.936 0.955 0.947 0.987 1.156 0.983 0.922 0.907 0.824 0.819 0.844 0.852 0.737 0.558 0.39 0.21 0.12 -0.004 -0.129 -0.169 -0.185 -0.142 -0.193 -0.165 -0.028 0.089 0.18 0.039 -0.066 -0.197 -0.355 -0.356 -0.373 -0.408 -0.345 -0.386 -0.31 -0.213 -0.327 -0.399 -0.43 -0.44 -0.444 -0.468 -0.41 -0.37 -0.326 -0.187 -0.084 0.015 0.166 0.292 0.487 0.705 0.853 1.061 1.166 1.057 0.976 0.724 0.561 0.266 0.086 -0.063 -0.295 -0.459 -0.596 -0.717 -1.392 -0.809 -0.85 -1.482 -1.434 -0.62 -0.487 -0.33 -0.149 0.045 0.261 0.455 0.594 0.861 0.643 1.3 1.326 1.405 1.532 1.579 1.512 1.527 1.527 1.494 1.562 1.466 1.504 1.469 1.395 1.327 1.349 1.3 1.409 1.488 1.536 1.579 1.599 1.579 1.554 1.582 1.619 1.602 1.128 1.042 0.964 0.89 0.826 0.822 0.823 0.83 0.745 0.529 0.305 0.111 -0.141 -0.373 -0.588 -0.799 -1.054 -1.711 -1.464 -9999 -1.651 -1.658 -1.419 -1.186 -0.934 -0.761 -1.295 -1.131 -0.179 -0.736 0.337 0.51 0.766 1.582 1.732 1.714 1.331 1.749 1.072 1.709 1.647 0.849 0.528 0.504 0.542 -0.3 -0.423 -0.624 -0.861 -1.002 -1.091 -0.374 -0.682 -0.831 -0.937 -0.971 -1.701 -1.696 -1.648 -1.573 1.677 1.684 1.782 -0.081 0.158 -0.568 0.392 -0.02 0.273 0.634 1.022 1.452 1.762 1.757 1.729 1.757 1.822 1.727 1.754 1.779 1.812 1.425 0.894 0.783 0.593 0.979 0.928 0.96 0.175 0.196 0.851 1.802 1.772 1.712 0.366 0.549 1.083 1.737 1.757 0.894 0.919 0.976 1.013 1.12 1.256 1.739 1.542 1.431 1.707 1.747 1.644 1.549 1.539 1.384 1.312 1.147 1.125 1.347 1.351 1.299 1.383 1.517 1.562 1.599 1.592
-1.846 -9999 -9999 -9999 -1.814 -1.774 -1.844 -9999 -9999 -9999 -9999 -9999 1.559 1.511 -9999 -9999 -9999 -9999 -9999 -9999 -9999 -9999 -9999 1.689 -9999 -9999 -9999 -9999 -1.791 -1.791 -1.796 -1.806 -9999 -9999 -9999 1.571 -9999 -1.611 -1.584 -1.839 -1.679 -9999 -1.834 -1.779 -1.806 -1.779 -1.754 -1.776 -1.794 -1.824 -1.826 -1.816 -1.769 -1.859 -1.779 -1.834 -1.856 -1.811 -1.771 -1.766 -1.791 -1.796 -1.786 -1.819 -1.794 -1.759 -1.746 -1.809 -1.869 -1.881 -1.859 -1.851 -1.621 -1.578 -1.582 -1.537 -1.437 -1.246 -1.13 -1.101 -1.107 -1.066 -1.008 -0.866 -0.69 -0.442 -0.349 -0.22 -0.107 -0.217 -0.372 -0.576 -0.788 -0.954 -1.171 -1.285 -1.337 -1.343 -1.246 -1.127 -0.954 -1.105 -1.252 -1.456 -1.538 -1.457 -1.289 -1.081 -0.969 -1.116 -1.289 -1.309 -1.29 -1.235 -1.464 -1.547 -1.529 -1.447 -1.526 -1.574 -1.565 -1.464 -1.323 -1.426 -1.494 -1.733 -1.716 -1.723 -1.693 -1.681 -1.731 -1.748 -1.738 -1.741 -1.738 -1.756 -1.558 -1.588 -1.49 -1.328 -1.282 -1.135 -0.963 -1.091 -1.299 -1.472 -1.543 -1.758 -1.549 -1.508 -1.328 -1.085 -0.882 -0.683 -0.394 -0.199 -0.01 0.204 0.503 0.724 0.83 0.764 0.76 0.751 0.718 0.729 0.767 0.738 0.759 0.793 0.879 0.955 0.935 0.671 0.432 0.311 0.067 -0.179 -0.454 -0.68 -0.888 -1.119 -1.334 -1.536 -1.771 -1.803 -1.793 -1.783 -1.781 -1.748 -1.538 -1.344 -1.567 -1.781 -1.786 -1.557 -1.479 -1.322 -1.077 -0.866 -0.647 -0.429 -0.191 0.024 0.192 0.463 0.658 0.907 1.158 1.181 1.091 1.084 1.124 0.983 1.048 0.879 0.838 0.815 0.767 0.704 0.716 0.746 0.769 0.788 0.84 0.69 0.699 0.636 0.559 0.597 0.601 0.652 0.584 0.38 0.225 0.051 -0.047 -0.175 -0.291 -0.367 -0.398 -0.391 -0.383 -0.323 -0.215 -0.105 0.03 -0.12 -0.314 -0.47 -0.527 -0.569 -0.589 -0.6 -0.56 -0.585 -0.519 -0.418 -0.527 -0.611 -0.656 -0.64 -0.643 -0.688 -0.603 -0.591 -0.494 -0.344 -0.263 -0.142 0.002 0.239 0.378 0.551 0.678 0.816 0.95 0.891 0.869 0.649 0.419 0.232 -0.002 -0.223 -0.412 -0.598 -0.783 -0.927 -0.986 -1.558 -1.622 -1.107 -0.991 -0.841 -0.678 -0.459 -0.294 -0.018 0.151 0.351 -0.105 0.228 0.341 1.03 1.223 1.298 1.364 1.531 1.403 1.164 1.285 1.337 1.348 1.057 1.011 1.219 0.811 1.148 1.204 1.122 1.11 1.203 1.29 1.372 1.602 1.507 1.519 1.35 1.237 1.587 0.953 0.835 0.746 0.636 0.562 0.555 0.539 0.562 0.603 0.556 0.256 0.073 -1.112 -1.294 -0.637 -0.799 -1.019 -1.271 -1.632 -9999 -1.696 -1.728 -1.519 1.584 -1.028 -0.788 -1.292 -0.45 -0.213 0.002 0.314 0.474 1.604 1.677 1.777 1.764 1.231 1.774 0.96 1.752 1.724 0.566 1.769 1.877 1.739 -0.485 -0.611 0.023 -0.96 -1.106 -0.313 -0.577 -0.843 -0.974 -1.256 -1.164 -1.117 -1.801 -1.752 -0.912 -0.731 1.567 1.597 -0.221 0.022 -0.701 -0.456 -0.151 0.828 1.074 1.328 1.33 1.777 1.739 1.834 1.737 1.799 1.739 1.669 1.532 1.782 1.302 1.257 0.522 0.28 0.837 -0.021 -0.121 -0.165 -0.198 -0.137 1.762 1.839 1.764 0.029 0.222 0.235 1.709 1.752 0.71 0.649 0.776 0.789 0.314 0.402 1.05 1.155 1.356 1.486 1.695 1.764 1.737 1.809 1.774 1.754 1.649 1.592 1.562 1.592 1.579 1.537 1.569 1.644 1.584 1.622
