ncols 430
nrows 31
xllcorner    464094
yllcorner    87560
cellsize     2
NODATA_value -9999
34.814 34.802 34.834 34.829 34.842 34.802 34.797 34.764 34.749 34.739 34.737 34.692 34.684 34.677 34.657 34.629 34.619 34.629 34.594 34.602 34.597 34.559 34.539 34.542 34.514 34.502 34.479 34.449 34.434 34.404 34.349 34.327 34.314 34.324 34.304 34.289 34.267 34.234 34.224 34.204 34.177 34.149 34.129 34.104 34.072 34.034 34.022 33.967 33.954 33.912 33.889 33.829 33.799 33.766 33.711 33.656 33.611 33.569 33.549 33.519 33.509 33.484 33.464 33.449 33.411 33.359 33.274 33.224 33.176 33.126 33.074 33.039 33.004 32.939 32.904 32.834 32.799 32.769 32.716 32.667 32.594 32.556 32.494 32.434 32.384 32.326 32.249 32.179 32.106 32.062 32.016 31.964 31.902 31.857 31.854 31.799 31.762 31.689 31.634 31.582 31.522 31.482 31.406 31.336 31.251 31.159 31.089 31.029 30.956 30.841 30.764 30.689 30.589 30.509 30.421 30.336 30.279 30.241 30.211 30.171 30.176 30.321 30.669 29.664 29.666 29.631 29.524 29.449 29.394 29.316 29.246 29.169 29.116 29.014 28.919 28.846 28.789 28.741 28.681 28.709 29.066 29.321 30.901 28.856 28.466 28.996 28.981 28.269 28.086 28.029 28.034 28.021 27.749 27.694 27.771 27.621 27.691 27.779 27.776 27.779 27.579 27.571 27.584 28.171 29.579 28.874 27.861 29.374 27.606 27.686 26.631 26.734 27.631 26.364 27.629 28.756 28.849 30.059 26.794 26.026 26.321 26.059 26.011 27.229 28.119 27.861 25.956 25.491 26.649 26.064 25.664 25.184 25.104 25.046 25.296 28.121 28.206 31.031 31.486 30.849 29.256 25.221 24.581 24.539 24.474 25.097 24.772 24.214 23.982 23.792 23.919 23.792 23.757 23.839 24.047 24.302 24.242 26.089 26.407 25.732 23.434 23.239 23.237 23.289 23.222 23.312 23.069 22.852 24.042 25.267 23.652 22.122 22.687 22.282 22.154 22.007 21.872 21.784 22.057 23.462 22.804 21.294 21.237 21.564 22.034 21.769 21.604 21.077 22.094 25.397 27.704 27.599 27.014 26.147 22.814 22.994 23.757 21.177 20.849 20.757 20.632 20.564 20.399 20.392 20.374 20.397 20.407 20.419 21.404 20.984 20.404 20.294 20.284 20.277 20.292 20.277 20.297 20.339 21.114 21.304 21.562 21.842 20.462 20.204 20.239 20.802 22.534 24.897 25.922 25.009 23.084 20.362 21.149 22.497 21.654 20.424 20.394 20.392 20.409 20.862 20.534 20.624 20.437 20.677 21.534 21.884 20.559 20.564 20.537 20.474 20.337 20.217 20.357 22.064 23.072 25.507 26.057 20.722 20.272 20.237 20.179 20.129 20.104 20.034 20.072 20.072 20.067 20.014 20.024 19.967 19.932 19.884 19.867 19.877 19.874 19.864 19.822 19.777 19.722 19.724 19.654 19.639 19.584 19.557 19.542 19.502 19.509 19.472 19.442 19.384 19.369 19.352 19.317 19.302 19.297 19.252 19.229 19.209 19.184 19.119 19.104 19.082 19.044 19.027 18.979 18.992 19.092 20.869 19.677 18.954 21.359 18.864 18.832 18.784 18.767 18.727 18.742 18.707 18.694 18.694 18.709 18.664 18.674 19.022 20.542 21.532 19.484 18.422 18.392 18.359 18.337 18.292 18.239 18.187 18.232 18.217 18.209 18.217 18.207 18.172 18.172 18.169 18.179 18.145 18.127 18.097 18.102 18.085 18.075 18.09 18.077 18.05 18.085 18.005 18.027 17.895 17.825 17.912 19.177 19.025 18.83 17.782 19.757 20.052 20.16 18.745 18.857 18.627 18.227 18.552
34.809 34.824 34.819 34.837 34.817 34.819 34.804 34.799 34.769 34.747 34.732 34.707 34.672 34.662 34.652 34.649 34.662 34.642 34.604 34.612 34.604 34.574 34.564 34.544 34.519 34.497 34.484 34.452 34.422 34.389 34.364 34.334 34.322 34.304 34.279 34.272 34.234 34.232 34.199 34.189 34.189 34.132 34.112 34.084 34.064 34.032 33.992 33.957 33.962 33.897 33.884 33.839 33.787 33.766 33.719 33.671 33.644 33.589 33.542 33.529 33.509 33.511 33.481 33.459 33.402 33.321 33.254 33.206 33.156 33.084 33.086 33.036 32.981 32.936 32.869 32.826 32.784 32.759 32.696 32.654 32.606 32.531 32.484 32.406 32.376 32.326 32.269 32.174 32.114 32.039 31.984 31.929 31.882 31.859 31.809 31.762 31.729 31.674 31.614 31.549 31.479 31.439 31.384 31.309 31.241 31.159 31.069 31.016 30.926 30.824 30.739 30.659 30.564 30.484 30.406 30.341 30.291 30.251 30.201 30.179 30.439 30.499 30.204 29.734 29.641 29.616 29.546 29.441 29.379 29.319 29.246 29.154 29.094 28.996 28.871 28.796 28.731 28.696 28.616 28.586 28.576 29.071 28.949 28.351 28.454 28.621 28.376 28.134 28.054 28.001 27.999 28.479 27.704 27.641 27.601 27.541 27.644 27.736 27.714 27.724 27.576 27.811 29.096 27.854 28.489 29.499 28.799 27.309 28.116 27.161 26.586 26.471 26.389 26.346 26.331 27.779 29.271 28.289 27.476 27.236 26.359 26.906 26.591 29.484 29.329 26.081 25.461 25.406 26.754 27.626 25.209 25.141 25.051 25.011 24.921 25.869 28.459 28.549 31.121 29.289 24.816 24.631 24.669 24.469 24.424 24.382 24.857 24.584 24.042 24.384 24.724 24.474 24.267 23.924 24.009 24.102 24.537 26.264 26.122 23.882 23.569 23.242 23.219 23.154 23.209 23.362 23.224 23.014 22.982 23.779 23.629 22.244 22.122 22.114 22.037 21.954 21.837 22.004 23.677 24.164 24.164 24.999 22.799 21.154 21.382 21.332 21.142 22.272 25.054 27.044 27.544 28.124 27.544 25.194 21.077 20.749 21.354 21.747 21.329 20.679 20.484 20.377 20.374 20.434 20.442 20.417 20.519 20.839 20.994 21.212 20.282 20.254 20.232 20.242 20.234 20.297 20.287 20.344 20.367 20.677 22.034 22.999 21.619 20.184 20.189 21.299 23.894 25.187 25.614 25.077 21.577 20.292 20.894 22.297 20.687 20.457 20.449 20.437 20.414 20.439 20.539 20.449 20.687 20.462 20.819 21.734 20.857 21.097 20.819 20.492 20.509 21.429 21.132 20.699 23.332 21.024 21.494 20.294 20.309 20.277 20.189 20.149 20.109 20.059 20.064 20.077 20.072 20.047 20.059 19.989 19.939 19.909 19.882 19.879 19.872 19.842 19.844 19.819 19.769 19.719 19.679 19.637 19.599 19.574 19.587 19.544 19.514 19.464 19.452 19.414 19.354 19.347 19.317 19.317 19.322 19.304 19.257 19.234 19.209 19.149 19.072 19.107 19.109 19.077 19.019 18.979 18.984 19.077 20.997 20.297 19.167 18.944 18.859 18.809 18.764 18.792 18.717 18.754 18.699 18.692 18.712 18.684 19.317 21.592 20.962 18.624 18.462 18.479 18.457 18.419 18.362 18.299 18.267 18.227 18.169 18.187 18.214 18.214 18.202 18.192 18.204 18.202 18.164 18.19 18.132 18.13 18.122 18.115 18.087 18.07 18.09 18.065 18.05 18.057 18.047 18.052 17.882 17.75 17.97 18.147 18.042 19.162 20.667 19.897 18.895 18.097 18.142 18.36 18.267 18.09
34.817 34.817 34.837 34.847 34.817 34.827 34.774 34.809 34.772 34.734 34.712 34.712 34.679 34.677 34.662 34.649 34.639 34.642 34.637 34.612 34.589 34.584 34.559 34.537 34.509 34.487 34.492 34.474 34.407 34.387 34.357 34.344 34.327 34.287 34.267 34.247 34.242 34.224 34.174 34.162 34.144 34.117 34.092 34.072 34.029 34.014 33.982 33.974 33.947 33.907 33.857 33.844 33.787 33.739 33.711 33.684 33.652 33.611 33.584 33.549 33.534 33.516 33.486 33.459 33.396 33.311 33.241 33.171 33.126 33.084 33.011 32.986 32.954 32.919 32.869 32.809 32.739 32.722 32.681 32.636 32.579 32.521 32.476 32.399 32.344 32.296 32.236 32.164 32.106 32.036 31.967 31.897 31.867 31.829 31.779 31.747 31.687 31.642 31.604 31.512 31.469 31.406 31.344 31.289 31.209 31.139 31.056 30.979 30.894 30.814 30.731 30.651 30.546 30.441 30.374 30.319 30.296 30.244 30.216 30.174 30.384 30.111 29.706 29.729 29.649 29.594 29.489 29.421 29.364 29.304 29.241 29.166 29.071 28.979 28.844 28.751 28.681 28.621 28.574 28.536 28.509 28.471 29.089 28.929 28.494 28.939 28.229 28.149 28.051 28.824 29.816 29.696 29.039 27.616 27.564 27.516 27.439 27.429 27.409 27.404 27.406 27.539 28.486 27.809 27.334 28.681 29.464 27.914 26.726 26.656 26.554 26.444 26.366 26.314 26.836 30.496 28.481 27.206 27.499 27.486 26.796 27.679 27.901 29.779 27.776 25.489 25.419 25.376 25.366 25.259 25.179 25.109 25.044 24.966 25.396 24.769 26.141 27.371 28.546 25.189 24.684 24.606 24.884 24.437 24.379 24.504 25.092 24.984 24.202 24.659 25.107 25.334 25.247 24.404 23.922 23.852 23.687 23.762 23.519 23.412 23.259 23.979 23.259 23.037 23.522 24.739 23.042 22.894 22.897 23.259 24.162 22.607 22.259 22.082 22.012 21.904 21.719 22.037 23.949 24.169 25.532 28.867 28.047 23.594 21.114 21.059 21.492 21.627 25.557 27.479 26.929 27.304 26.004 22.827 21.087 21.232 20.742 20.879 21.227 20.607 20.429 20.422 20.449 20.467 20.429 20.487 20.722 21.344 21.299 21.067 20.497 20.259 20.212 20.214 20.214 20.267 20.294 20.359 20.389 20.474 20.727 22.237 20.412 20.194 21.267 23.772 25.312 25.344 23.879 21.847 20.369 20.682 20.489 21.227 22.087 20.459 20.459 20.467 20.497 20.449 20.462 20.492 20.497 20.537 20.532 20.649 20.984 21.134 20.884 20.584 20.574 21.557 22.479 21.567 20.797 20.384 20.334 20.299 20.287 20.244 20.222 20.167 20.094 20.089 20.084 20.054 20.054 20.097 20.072 20.054 19.977 19.927 19.899 19.852 19.857 19.839 19.812 19.809 19.797 19.754 19.712 19.677 19.634 19.592 19.569 19.534 19.499 19.494 19.457 19.419 19.399 19.367 19.352 19.339 19.327 19.309 19.279 19.222 19.202 19.169 19.129 19.092 19.099 19.089 19.044 18.992 18.962 18.969 20.539 21.397 19.429 18.984 18.877 18.827 18.814 18.757 18.747 18.762 18.749 18.762 18.744 19.999 21.887 20.664 18.742 18.549 18.542 18.517 18.519 18.472 18.409 18.337 18.284 18.254 18.212 18.184 18.224 18.224 18.232 18.222 18.227 18.214 18.192 18.182 18.137 18.125 18.135 18.102 18.097 18.095 18.065 18.055 18.065 18.062 18.035 18.037 18.007 17.975 17.837 18.107 18.632 19.875 20.125 19.437 18.1 18.107 18.072 18.04 18.067 18.075
34.827 34.822 34.844 34.829 34.829 34.844 34.797 34.804 34.799 34.769 34.732 34.724 34.709 34.692 34.672 34.667 34.667 34.657 34.634 34.597 34.607 34.577 34.559 34.554 34.517 34.492 34.474 34.457 34.412 34.374 34.364 34.342 34.304 34.292 34.284 34.214 34.224 34.194 34.187 34.172 34.124 34.119 34.072 34.039 34.009 33.987 33.962 33.967 33.927 33.904 33.879 33.819 33.804 33.751 33.699 33.679 33.664 33.631 33.586 33.559 33.546 33.527 33.479 33.454 33.399 33.314 33.229 33.164 33.104 33.059 32.992 32.949 32.911 32.889 32.806 32.792 32.751 32.704 32.669 32.634 32.556 32.496 32.426 32.384 32.314 32.269 32.201 32.141 32.089 32.007 31.937 31.879 31.857 31.789 31.754 31.719 31.674 31.604 31.537 31.487 31.424 31.372 31.324 31.251 31.169 31.109 31.034 30.979 30.869 30.801 30.701 30.621 30.549 30.426 30.364 30.301 30.269 30.244 30.276 30.204 32.041 30.416 29.641 29.714 29.651 29.554 29.459 29.401 29.339 29.289 29.216 29.151 29.066 28.969 28.856 28.746 28.661 28.594 28.576 28.509 28.454 28.399 28.384 28.736 28.836 28.266 28.236 30.164 30.176 30.426 30.626 29.774 29.229 27.566 27.506 27.464 27.416 27.341 27.299 27.241 27.179 27.319 28.624 27.704 27.526 27.024 27.906 27.574 26.926 26.599 26.431 26.366 26.454 26.776 28.476 29.811 27.161 26.691 26.311 26.801 27.191 26.794 26.321 26.891 25.531 25.479 25.401 25.351 25.296 25.216 25.161 25.099 24.999 24.894 24.819 24.719 24.649 26.491 27.216 25.316 24.614 24.556 24.494 24.462 24.587 24.804 24.494 24.242 24.354 24.792 25.497 25.679 25.542 24.534 23.754 23.549 23.482 23.417 23.349 23.474 24.989 24.612 23.122 22.947 23.032 23.307 24.617 24.499 24.129 23.569 22.664 22.314 22.257 22.032 22.009 21.739 21.599 21.557 22.199 25.109 28.947 29.464 29.459 27.872 23.142 21.392 21.102 21.417 22.574 26.614 24.647 22.982 20.999 21.502 20.979 21.367 20.789 20.614 20.727 20.479 20.484 20.454 20.484 20.464 20.514 20.772 20.964 21.207 20.652 20.559 20.834 20.499 20.659 20.282 20.214 20.262 20.294 20.319 20.377 20.394 20.419 20.872 20.914 20.569 20.459 25.427 25.557 23.904 20.784 20.342 20.324 20.359 20.354 20.334 21.717 21.137 21.069 20.509 20.509 20.512 20.507 20.537 20.557 20.564 20.557 20.657 21.639 20.834 20.837 20.667 20.624 20.872 20.849 20.667 20.417 20.369 20.337 20.312 20.279 20.249 20.244 20.209 20.134 20.092 20.097 20.069 20.077 20.082 20.072 20.067 20.032 19.959 19.924 19.887 19.854 19.852 19.827 19.829 19.817 19.764 19.724 19.692 19.654 19.617 19.579 19.564 19.534 19.472 19.469 19.434 19.437 19.404 19.359 19.367 19.334 19.327 19.304 19.259 19.219 19.209 19.187 19.127 19.097 19.069 19.032 19.004 18.984 18.947 18.957 20.779 20.809 19.097 18.947 18.862 18.812 18.807 18.789 18.782 18.757 19.192 21.032 21.279 19.304 18.637 18.672 18.674 18.632 18.612 18.559 18.509 18.477 18.402 18.292 18.249 18.249 18.239 18.217 18.194 18.217 18.234 18.224 18.214 18.212 18.152 18.172 18.147 18.142 18.14 18.137 18.11 18.095 18.067 18.075 18.075 18.06 18.082 18.142 18.202 18.517 18.712 18.402 18.31 18.217 18.825 18.825 18.38 18.07 18.06 18.045 18.147
34.872 34.844 34.842 34.839 34.829 34.812 34.797 34.789 34.759 34.729 34.749 34.709 34.692 34.694 34.674 34.684 34.674 34.664 34.632 34.619 34.602 34.589 34.557 34.557 34.532 34.497 34.479 34.454 34.397 34.394 34.362 34.327 34.317 34.284 34.267 34.247 34.212 34.182 34.164 34.157 34.124 34.082 34.057 34.032 33.999 33.972 33.969 33.942 33.897 33.862 33.854 33.824 33.787 33.729 33.707 33.661 33.654 33.637 33.606 33.562 33.546 33.551 33.484 33.419 33.371 33.296 33.176 33.137 33.097 33.031 32.964 32.939 32.884 32.834 32.799 32.769 32.724 32.689 32.632 32.599 32.529 32.466 32.414 32.347 32.306 32.251 32.176 32.139 32.069 31.994 31.932 31.872 31.844 31.819 31.769 31.694 31.667 31.589 31.509 31.459 31.389 31.339 31.262 31.206 31.141 31.101 31.011 30.921 30.849 30.771 30.684 30.569 30.511 30.416 30.349 30.309 30.266 30.221 30.199 30.234 32.281 34.544 29.736 29.711 29.579 29.524 29.424 29.376 29.301 29.264 29.189 29.106 29.024 28.931 28.839 28.726 28.656 28.576 28.531 28.466 28.429 28.376 28.306 28.291 28.899 28.931 29.021 31.661 31.756 30.889 30.346 29.339 28.479 27.516 27.494 27.459 27.414 27.326 27.246 27.166 27.149 27.091 27.071 27.019 27.266 27.191 26.809 26.826 29.154 27.474 26.436 26.416 27.751 28.906 28.801 27.456 26.939 26.444 26.339 27.161 27.689 25.866 25.676 25.591 25.509 25.421 25.351 25.291 25.244 25.181 25.144 25.056 24.966 24.854 25.194 24.739 24.604 24.524 26.964 25.704 24.804 24.641 24.446 24.427 24.542 24.279 24.242 24.472 24.489 24.504 24.877 25.114 25.052 24.352 23.654 23.449 23.399 23.367 23.274 23.329 24.157 23.157 23.142 23.057 23.534 24.344 25.484 25.794 25.202 23.069 22.512 22.362 22.217 22.322 22.179 22.407 21.949 21.752 21.382 23.209 29.222 29.482 29.487 29.459 27.887 21.894 20.979 20.964 22.574 22.407 22.044 21.094 20.792 20.752 22.124 22.614 20.582 20.537 20.449 20.484 20.499 20.872 20.667 20.537 20.537 20.507 20.559 21.274 20.734 20.509 20.507 20.707 20.537 20.999 20.769 20.252 20.287 20.302 20.364 20.387 20.437 20.464 20.692 21.542 20.569 21.317 22.137 20.734 20.554 20.379 20.392 20.372 20.479 20.717 21.297 21.652 21.549 20.729 20.537 20.559 20.564 20.567 20.554 20.609 20.632 20.619 21.042 21.664 21.907 20.704 20.694 22.319 21.344 20.439 20.389 20.379 20.324 20.282 20.277 20.254 20.249 20.214 20.167 20.127 20.137 20.114 20.074 20.087 20.082 20.082 20.064 20.024 19.959 19.932 19.874 19.869 19.852 19.827 19.797 19.774 19.767 19.722 19.664 19.602 19.599 19.557 19.529 19.497 19.482 19.467 19.444 19.434 19.404 19.367 19.344 19.332 19.319 19.289 19.242 19.207 19.212 19.174 19.097 19.084 19.049 19.024 18.969 18.959 18.954 19.264 21.229 20.534 18.997 18.919 18.832 18.819 18.824 18.837 20.109 21.634 21.247 19.014 18.697 18.719 18.722 18.722 18.717 18.669 18.589 18.569 18.539 18.452 18.329 18.274 18.244 18.232 18.182 18.234 18.229 18.222 18.239 18.202 18.187 18.182 18.187 18.155 18.185 18.147 18.107 18.165 18.117 18.115 18.077 18.067 18.11 18.18 18.255 18.33 18.95 18.367 18.282 18.265 18.257 18.552 21.055 19.867 18.085 18.087 18.02 17.987
34.862 34.854 34.857 34.864 34.827 34.829 34.809 34.767 34.769 34.752 34.739 34.727 34.707 34.707 34.697 34.669 34.677 34.654 34.634 34.647 34.604 34.599 34.567 34.559 34.534 34.492 34.469 34.452 34.397 34.377 34.354 34.327 34.312 34.277 34.249 34.237 34.209 34.154 34.154 34.127 34.104 34.079 34.042 34.029 33.994 33.974 33.924 33.924 33.889 33.857 33.819 33.809 33.764 33.734 33.691 33.661 33.646 33.634 33.609 33.574 33.551 33.549 33.476 33.434 33.334 33.264 33.167 33.106 33.056 33.006 32.951 32.939 32.879 32.836 32.801 32.746 32.704 32.659 32.621 32.564 32.521 32.459 32.382 32.332 32.286 32.214 32.164 32.116 32.046 31.987 31.932 31.884 31.859 31.827 31.742 31.692 31.642 31.562 31.482 31.417 31.367 31.307 31.232 31.154 31.091 31.036 30.966 30.886 30.799 30.719 30.631 30.551 30.476 30.399 30.321 30.291 30.256 30.224 30.141 30.534 32.446 31.554 29.796 29.694 29.599 29.486 29.411 29.361 29.291 29.244 29.169 29.086 29.009 28.906 28.826 28.714 28.626 28.566 28.486 28.439 28.369 28.341 28.289 28.229 28.196 30.089 29.451 29.354 28.794 28.969 30.909 28.974 28.371 27.579 27.486 27.431 27.376 27.256 27.199 27.136 27.106 27.019 26.951 27.656 26.949 26.859 27.024 26.746 29.006 27.339 27.881 27.909 28.811 29.261 28.004 26.294 26.036 26.019 26.619 28.489 28.329 25.724 26.149 25.719 25.481 25.384 25.301 25.231 25.186 25.144 25.096 24.999 24.939 24.849 24.736 24.639 24.591 24.494 24.644 26.619 27.734 28.134 28.464 25.364 24.139 24.194 24.427 24.299 24.164 24.202 24.237 24.344 24.414 24.054 23.694 23.427 23.342 23.269 23.214 23.199 23.184 23.249 23.394 24.439 23.939 24.792 25.267 25.697 25.757 23.882 22.749 22.419 22.327 22.264 22.024 23.462 23.782 23.692 22.104 21.392 23.312 29.097 29.477 29.477 28.022 24.277 21.649 20.892 21.114 21.562 21.452 20.737 20.747 20.737 20.682 22.342 20.772 20.449 20.484 20.497 20.717 21.222 20.629 20.922 20.552 20.502 20.487 20.559 21.409 21.017 20.507 22.997 22.092 20.939 21.839 20.344 20.292 20.294 20.349 20.412 20.437 20.507 20.534 20.724 20.409 20.357 20.339 20.784 20.597 20.419 20.437 20.472 21.749 21.742 21.204 20.942 21.309 20.824 20.594 20.589 20.604 20.612 20.629 20.639 20.657 20.629 20.722 23.852 24.627 21.824 20.844 20.579 20.464 20.782 20.564 20.419 20.367 20.299 20.252 20.262 20.229 20.194 20.179 20.189 20.159 20.122 20.089 20.092 20.104 20.099 20.092 20.067 20.014 19.967 19.929 19.884 19.872 19.837 19.829 19.822 19.802 19.752 19.677 19.629 19.592 19.559 19.537 19.502 19.482 19.482 19.494 19.447 19.407 19.364 19.342 19.322 19.319 19.312 19.292 19.247 19.207 19.172 19.139 19.077 19.057 19.012 19.009 18.982 18.962 18.987 19.634 21.087 19.354 18.902 18.892 18.819 18.844 19.449 22.089 20.354 19.064 18.817 18.822 18.797 18.779 18.784 18.754 18.719 18.662 18.604 18.569 18.499 18.379 18.307 18.272 18.254 18.242 18.209 18.209 18.227 18.207 18.209 18.189 18.18 18.165 18.167 18.15 18.155 18.145 18.14 18.132 18.097 18.105 18.177 18.21 18.217 18.575 18.512 18.292 18.295 18.29 18.285 18.275 18.237 18.372 19.375 18.442 18.07 18.03 17.997
34.882 34.859 34.872 34.849 34.854 34.832 34.799 34.752 34.767 34.747 34.729 34.714 34.704 34.677 34.704 34.669 34.674 34.659 34.652 34.649 34.612 34.587 34.567 34.549 34.534 34.494 34.484 34.452 34.409 34.359 34.327 34.327 34.307 34.249 34.232 34.214 34.199 34.172 34.122 34.099 34.077 34.044 34.022 34.009 33.947 33.954 33.934 33.894 33.859 33.824 33.814 33.789 33.739 33.709 33.691 33.641 33.644 33.621 33.586 33.574 33.536 33.521 33.474 33.406 33.332 33.226 33.126 33.094 33.039 32.996 32.937 32.869 32.861 32.819 32.781 32.741 32.701 32.629 32.604 32.554 32.484 32.434 32.381 32.309 32.259 32.199 32.136 32.069 32.016 31.969 31.904 31.884 31.852 31.794 31.747 31.689 31.619 31.539 31.454 31.406 31.339 31.274 31.187 31.131 31.064 31.001 30.924 30.826 30.746 30.671 30.574 30.519 30.434 30.386 30.324 30.294 30.241 30.194 30.264 30.926 30.789 29.759 29.711 29.646 29.551 29.451 29.369 29.329 29.241 29.204 29.129 29.071 28.986 28.879 28.776 28.699 28.614 28.539 28.464 28.411 28.354 28.294 28.246 28.184 28.154 28.094 28.234 28.634 28.704 31.459 29.354 28.706 27.881 27.521 27.454 27.396 27.326 27.214 27.146 27.116 27.039 26.964 26.879 26.879 26.836 26.796 26.859 26.736 26.654 26.931 29.661 28.691 29.381 27.554 26.496 26.071 25.994 26.451 25.931 26.104 27.846 27.691 26.589 25.531 25.404 25.321 25.241 25.194 25.146 25.079 25.046 24.946 24.899 24.811 24.724 24.651 24.554 24.489 24.461 24.791 27.299 30.856 28.814 24.292 24.217 24.274 24.334 24.109 24.057 23.989 24.042 23.989 24.029 24.057 23.909 23.589 23.292 23.209 23.147 23.122 23.142 23.139 24.284 23.969 24.434 25.302 25.112 25.297 25.192 23.047 22.727 22.592 22.357 22.289 21.919 22.184 23.724 23.812 23.769 22.452 22.629 25.224 28.542 29.522 29.524 27.397 24.044 21.142 20.842 21.352 22.434 20.867 20.692 20.707 20.779 20.869 20.572 20.509 20.514 20.502 20.509 20.562 21.282 21.022 21.112 20.494 20.507 20.507 20.737 21.107 22.282 26.437 25.404 21.507 21.019 20.322 20.264 20.277 20.344 20.387 20.454 20.507 20.557 20.574 20.529 21.414 20.964 21.487 20.537 20.454 20.552 21.477 21.374 20.547 20.549 20.589 20.749 21.329 20.869 20.612 20.634 20.639 20.649 20.667 20.672 20.677 20.954 23.192 24.197 22.247 20.634 20.559 20.554 20.549 20.504 20.454 20.397 20.357 20.279 20.272 20.254 20.197 20.224 20.219 20.192 20.137 20.102 20.087 20.084 20.127 20.092 20.092 20.077 20.007 19.944 19.904 19.877 19.864 19.837 19.814 19.787 19.764 19.709 19.662 19.619 19.582 19.567 19.542 19.504 19.497 19.504 19.464 19.437 19.399 19.339 19.314 19.322 19.312 19.304 19.274 19.237 19.177 19.164 19.092 19.037 19.054 19.032 19.012 18.989 18.972 19.054 19.867 21.277 19.187 18.944 19.072 20.792 21.722 19.947 18.832 18.914 18.897 18.872 18.854 18.832 18.807 18.802 18.757 18.687 18.642 18.587 18.514 18.457 18.369 18.304 18.277 18.257 18.214 18.202 18.229 18.212 18.237 18.234 18.21 18.19 18.177 18.197 18.167 18.12 18.135 18.14 18.14 18.207 18.267 18.272 18.487 19.1 18.637 18.347 18.305 18.33 18.285 18.267 18.207 18.155 19.105 19.56 19.727 18.275 19.22
34.902 34.874 34.882 34.857 34.852 34.842 34.817 34.779 34.767 34.757 34.729 34.712 34.689 34.699 34.697 34.677 34.674 34.662 34.649 34.657 34.629 34.599 34.572 34.554 34.492 34.487 34.479 34.444 34.404 34.369 34.352 34.332 34.297 34.264 34.249 34.189 34.167 34.157 34.114 34.089 34.057 34.042 34.002 33.969 33.954 33.922 33.924 33.882 33.847 33.824 33.792 33.757 33.707 33.699 33.681 33.659 33.614 33.606 33.569 33.559 33.536 33.504 33.449 33.379 33.311 33.204 33.121 33.049 33.029 32.984 32.939 32.874 32.854 32.789 32.792 32.751 32.681 32.641 32.579 32.509 32.474 32.386 32.332 32.269 32.224 32.181 32.119 32.062 31.994 31.952 31.917 31.884 31.862 31.787 31.729 31.652 31.592 31.539 31.454 31.377 31.299 31.244 31.164 31.101 31.021 30.929 30.856 30.799 30.701 30.599 30.524 30.456 30.401 30.324 30.271 30.241 30.196 30.146 30.504 30.851 29.901 29.786 29.724 29.681 29.519 29.404 29.359 29.271 29.234 29.159 29.086 29.014 28.939 28.849 28.751 28.699 28.614 28.534 28.454 28.356 28.324 28.231 28.191 28.134 28.064 28.016 27.984 28.341 28.774 28.359 28.504 28.826 27.821 27.541 27.454 27.364 27.286 27.204 27.149 27.071 26.954 26.891 26.849 26.829 26.824 26.801 26.754 26.664 26.621 27.461 28.764 27.534 27.514 26.346 26.109 26.026 25.909 25.926 25.761 27.434 26.064 28.309 27.939 26.081 25.361 25.204 25.246 25.159 25.116 25.046 24.959 24.896 24.851 24.784 24.731 24.624 24.531 24.496 24.526 24.291 24.209 27.886 26.216 24.404 24.049 24.119 24.244 24.109 23.979 23.927 23.949 24.019 24.059 24.034 24.024 23.797 23.349 23.159 23.102 23.049 23.027 23.247 24.634 23.294 24.834 25.344 25.242 25.009 24.144 22.872 22.639 22.799 22.492 22.272 22.079 22.107 22.417 23.672 23.807 23.799 23.774 24.824 28.434 29.544 29.592 29.584 27.974 24.052 21.447 20.759 21.752 21.844 21.154 21.442 20.842 20.759 20.517 20.532 20.479 20.512 20.574 20.492 20.532 20.692 20.594 20.487 20.509 20.487 20.497 21.187 25.929 27.617 27.364 25.767 22.787 20.557 20.239 20.284 20.359 20.427 20.462 20.499 20.539 20.597 20.612 24.439 25.102 22.797 21.152 20.464 20.974 21.779 20.912 20.572 20.599 20.644 20.704 20.814 21.134 20.704 20.659 20.639 20.699 20.714 20.772 20.794 20.854 22.789 22.812 21.899 20.617 21.132 20.592 20.564 20.517 20.469 20.422 20.379 20.352 20.294 20.234 20.229 20.214 20.229 20.212 20.149 20.114 20.109 20.089 20.097 20.114 20.112 20.082 20.034 19.987 19.929 19.919 19.864 19.849 19.817 19.807 19.789 19.724 19.682 19.644 19.624 19.592 19.567 19.527 19.519 19.519 19.479 19.437 19.404 19.377 19.354 19.352 19.344 19.324 19.292 19.234 19.194 19.159 19.159 19.092 19.049 19.042 19.047 19.042 18.974 18.947 18.934 20.744 20.619 19.994 21.832 20.837 19.117 18.857 18.934 18.962 18.957 18.927 18.879 18.859 18.849 18.834 18.764 18.709 18.677 18.627 18.539 18.489 18.447 18.359 18.279 18.254 18.234 18.232 18.222 18.224 18.237 18.224 18.23 18.195 18.19 18.19 18.212 18.17 18.15 18.185 18.222 18.29 18.372 18.99 19.095 18.422 18.43 18.52 18.387 18.29 18.24 18.252 18.17 18.572 20.057 20.442 19.685 19.742 20.595
34.912 34.882 34.884 34.877 34.859 34.842 34.789 34.774 34.742 34.752 34.727 34.719 34.704 34.684 34.707 34.682 34.667 34.659 34.637 34.637 34.627 34.609 34.589 34.527 34.492 34.489 34.469 34.427 34.379 34.357 34.314 34.324 34.289 34.244 34.222 34.199 34.172 34.137 34.102 34.077 34.057 34.009 33.964 33.952 33.934 33.912 33.884 33.854 33.819 33.804 33.769 33.747 33.709 33.679 33.656 33.667 33.619 33.616 33.584 33.562 33.491 33.476 33.406 33.334 33.271 33.179 33.099 33.046 32.989 32.972 32.917 32.869 32.847 32.796 32.756 32.714 32.684 32.632 32.571 32.507 32.426 32.384 32.306 32.251 32.199 32.164 32.079 32.024 32.001 31.942 31.904 31.889 31.832 31.761 31.719 31.654 31.572 31.512 31.441 31.367 31.281 31.209 31.159 31.061 30.994 30.891 30.804 30.719 30.639 30.541 30.486 30.424 30.346 30.304 30.256 30.206 30.154 30.061 30.696 30.551 29.939 29.749 29.689 29.604 29.484 29.414 29.324 29.244 29.204 29.121 29.066 28.979 28.879 28.806 28.744 28.669 28.579 28.516 28.449 28.351 28.266 28.204 28.144 28.091 28.016 27.964 27.914 27.901 27.896 28.346 29.006 29.639 28.866 29.174 28.519 27.349 27.219 27.154 27.106 26.986 26.886 26.861 26.829 26.801 26.764 26.691 26.726 26.661 27.509 29.981 29.011 27.836 26.429 26.166 26.079 25.961 25.864 26.156 28.861 29.744 27.844 26.431 27.961 28.769 26.406 25.336 25.441 25.344 25.121 24.996 24.914 24.854 24.796 24.759 24.679 24.564 24.476 24.451 24.359 24.239 24.171 24.101 24.474 25.422 24.292 24.052 24.137 24.084 25.847 23.909 23.959 24.117 23.949 23.909 23.867 23.624 23.367 23.084 23.012 22.979 22.922 23.557 24.159 22.734 23.167 24.467 25.264 24.364 23.297 22.707 22.522 22.502 22.394 22.237 22.142 21.962 21.922 22.267 23.434 23.782 24.797 28.679 29.552 29.612 29.624 29.584 29.149 25.087 23.619 21.354 20.747 20.997 22.152 20.894 20.627 20.544 20.554 20.517 20.552 20.594 20.589 20.549 20.502 20.467 20.869 20.532 20.489 20.494 22.532 26.027 25.089 26.007 27.642 27.367 25.794 22.217 20.589 20.334 20.397 20.434 20.437 20.479 20.519 20.547 20.637 22.599 25.202 23.457 21.952 21.272 21.842 20.689 20.669 20.594 20.649 20.692 20.682 20.669 20.879 21.319 20.784 20.694 20.769 20.784 20.882 21.047 22.089 22.607 21.179 21.599 20.762 20.634 20.604 20.577 20.534 20.502 20.442 20.404 20.379 20.359 20.257 20.257 20.239 20.232 20.212 20.192 20.164 20.127 20.107 20.089 20.117 20.137 20.089 20.084 20.034 19.959 19.947 19.879 19.862 19.852 19.802 19.782 19.762 19.744 19.699 19.629 19.607 19.594 19.549 19.527 19.502 19.492 19.449 19.429 19.407 19.362 19.339 19.339 19.312 19.292 19.252 19.209 19.187 19.204 19.152 19.074 19.057 19.057 19.062 19.004 18.969 18.957 19.244 20.897 21.044 19.927 18.802 18.834 18.879 18.907 18.964 18.939 18.947 18.934 18.904 18.884 18.869 18.792 18.734 18.674 18.654 18.562 18.519 18.467 18.404 18.322 18.257 18.237 18.222 18.202 18.259 18.237 18.254 18.245 18.26 18.207 18.22 18.202 18.187 18.187 18.235 18.31 18.782 18.56 18.862 18.44 18.427 18.582 18.397 19.167 18.6 18.315 18.18 18.777 20.477 21.86 22.49 21.28 19.427 21.51
34.892 34.899 34.869 34.862 34.849 34.839 34.807 34.764 34.749 34.742 34.724 34.702 34.719 34.707 34.699 34.709 34.687 34.659 34.639 34.639 34.609 34.609 34.589 34.559 34.517 34.489 34.437 34.414 34.384 34.354 34.317 34.294 34.287 34.262 34.207 34.174 34.144 34.114 34.079 34.049 34.037 33.999 33.974 33.947 33.904 33.902 33.864 33.829 33.802 33.782 33.759 33.707 33.709 33.694 33.679 33.649 33.609 33.614 33.576 33.529 33.461 33.421 33.369 33.304 33.236 33.139 33.074 33.004 32.969 32.924 32.896 32.841 32.824 32.799 32.759 32.706 32.681 32.621 32.571 32.501 32.414 32.359 32.289 32.241 32.176 32.106 32.049 32.001 31.969 31.927 31.884 31.862 31.839 31.747 31.702 31.629 31.564 31.484 31.404 31.337 31.254 31.184 31.129 31.031 30.951 30.859 30.754 30.679 30.591 30.524 30.461 30.394 30.331 30.266 30.214 30.174 30.091 30.101 30.686 29.856 29.761 29.719 29.649 29.564 29.466 29.359 29.294 29.249 29.181 29.109 29.016 28.946 28.854 28.774 28.716 28.659 28.579 28.514 28.429 28.344 28.261 28.171 28.086 28.034 27.969 27.914 27.851 27.814 27.756 27.734 28.081 28.816 34.046 34.339 31.744 30.541 28.006 27.171 27.029 26.981 26.996 26.836 26.821 26.769 26.724 26.681 26.661 26.916 28.554 27.934 28.011 26.751 26.151 26.076 25.976 25.864 25.766 28.961 31.046 30.836 29.796 28.349 25.926 27.366 28.941 27.051 25.599 27.461 27.199 25.234 24.901 24.826 24.711 24.596 24.571 24.536 24.461 24.794 26.319 24.211 24.116 24.071 24.054 24.659 25.447 24.227 24.164 24.209 26.434 24.607 23.859 23.897 23.824 23.784 23.739 23.442 23.322 23.182 23.034 22.909 22.877 22.869 22.767 22.652 22.672 24.179 24.754 23.979 23.079 22.524 22.462 22.462 22.397 22.397 22.509 22.059 23.372 23.944 22.102 23.514 27.984 29.539 29.607 29.594 29.577 29.154 25.467 23.997 22.874 20.862 20.727 20.694 20.679 20.564 20.529 20.589 20.579 20.577 20.607 20.557 20.574 20.609 20.577 20.519 20.687 20.629 20.497 21.477 26.624 26.999 27.462 25.702 26.767 27.619 27.319 25.487 21.792 20.567 20.372 20.427 20.442 20.472 20.522 20.572 20.624 20.642 23.744 24.269 23.204 21.114 21.057 20.569 20.639 20.779 20.724 20.714 20.689 20.712 20.797 20.837 21.319 20.719 20.794 20.854 21.674 22.272 21.579 20.919 20.689 20.672 20.667 20.629 20.609 20.567 20.534 20.502 20.459 20.432 20.409 20.374 20.267 20.262 20.234 20.234 20.234 20.252 20.197 20.167 20.139 20.117 20.094 20.124 20.114 20.087 20.092 20.014 19.949 19.917 19.897 19.849 19.812 19.792 19.789 19.752 19.724 19.677 19.629 19.597 19.559 19.537 19.489 19.474 19.459 19.442 19.407 19.379 19.329 19.337 19.307 19.272 19.267 19.252 19.222 19.202 19.187 19.144 19.082 19.069 19.059 19.027 18.994 18.969 18.939 19.349 21.377 19.354 18.839 18.819 18.857 18.894 18.954 18.964 18.952 18.959 18.942 18.902 18.882 18.824 18.762 18.697 18.652 18.607 18.562 18.484 18.434 18.409 18.292 18.247 18.244 18.247 18.264 18.249 18.267 18.275 18.265 18.232 18.202 18.172 18.235 18.28 18.36 18.727 18.7 18.5 18.45 18.495 18.937 18.345 18.415 19.885 20.452 20.367 19.782 20.687 21.997 22.92 22.995 21.735 19.042 19.105
34.924 34.914 34.912 34.887 34.854 34.832 34.789 34.762 34.764 34.737 34.729 34.727 34.709 34.672 34.709 34.672 34.687 34.677 34.649 34.624 34.632 34.594 34.577 34.542 34.512 34.484 34.437 34.409 34.374 34.352 34.314 34.299 34.254 34.234 34.202 34.149 34.129 34.084 34.064 34.037 34.004 33.979 33.944 33.932 33.899 33.867 33.859 33.817 33.792 33.779 33.719 33.719 33.679 33.646 33.636 33.609 33.626 33.637 33.611 33.542 33.524 33.444 33.361 33.279 33.194 33.124 33.061 33.011 32.954 32.891 32.876 32.834 32.809 32.781 32.741 32.706 32.664 32.611 32.571 32.474 32.414 32.344 32.279 32.204 32.134 32.069 32.029 31.986 31.949 31.912 31.882 31.844 31.769 31.714 31.667 31.594 31.524 31.451 31.397 31.294 31.224 31.159 31.089 31.014 30.949 30.859 30.751 30.664 30.594 30.511 30.429 30.364 30.311 30.234 30.181 30.136 30.084 30.289 30.884 29.666 29.739 29.691 29.624 29.514 29.409 29.346 29.284 29.214 29.161 29.094 28.996 28.924 28.846 28.761 28.686 28.614 28.566 28.476 28.426 28.339 28.239 28.134 28.074 28.026 27.921 27.861 27.789 27.741 27.699 27.634 27.619 29.994 36.066 34.789 35.406 36.321 28.936 27.131 26.969 26.901 26.886 26.799 26.824 26.739 26.679 26.599 26.576 28.096 28.629 28.266 28.614 26.711 26.054 26.009 25.911 25.836 26.439 28.771 30.121 31.149 30.946 29.851 28.401 26.069 27.169 29.099 26.719 26.084 25.961 25.039 24.821 24.761 24.669 24.576 24.501 24.876 26.279 28.806 29.989 26.881 24.264 24.029 24.139 24.062 24.924 24.502 24.354 24.307 25.574 25.942 23.979 23.824 23.714 23.669 23.542 23.379 23.559 23.412 23.162 22.924 22.819 22.779 22.742 22.764 23.009 22.954 23.242 24.032 22.702 22.417 22.382 22.394 22.217 22.062 22.397 26.262 28.832 26.884 23.414 24.544 26.869 29.549 29.599 29.597 29.287 25.774 24.009 23.082 20.874 20.827 20.727 20.679 20.589 20.587 20.589 20.582 20.594 20.662 20.677 20.654 20.629 20.592 20.619 20.589 20.494 20.459 20.997 23.979 26.719 27.652 28.214 27.652 24.742 25.564 27.757 27.182 22.387 20.529 20.499 20.442 20.464 20.482 20.529 20.604 20.657 20.679 21.042 23.572 24.252 23.382 22.639 20.992 20.809 20.852 20.792 20.767 20.779 20.782 20.944 22.072 21.559 22.432 23.124 23.009 22.779 20.857 20.744 20.732 20.699 20.707 20.667 20.652 20.607 20.589 20.569 20.519 20.502 20.459 20.422 20.362 20.312 20.274 20.234 20.254 20.252 20.232 20.224 20.184 20.162 20.127 20.087 20.109 20.132 20.112 20.074 20.052 19.989 19.952 19.904 19.867 19.842 19.794 19.792 19.777 19.754 19.729 19.672 19.617 19.557 19.532 19.522 19.499 19.467 19.457 19.444 19.402 19.372 19.329 19.304 19.304 19.299 19.279 19.274 19.232 19.207 19.192 19.129 19.079 19.052 19.044 19.022 18.979 18.932 18.934 20.102 21.109 19.099 18.822 18.859 18.909 18.949 18.969 18.954 18.952 18.954 18.914 18.882 18.859 18.792 18.767 18.727 18.692 18.619 18.564 18.497 18.449 18.344 18.287 18.247 18.249 18.244 18.244 18.277 18.267 18.247 18.207 18.24 18.862 20.075 19.952 19.585 20.02 18.91 18.915 19.065 18.16 18.305 18.387 20.525 21.157 20.41 20.782 20.982 21.935 23.012 22.92 22.08 21.73 21.095 18.357
34.932 34.922 34.907 34.882 34.847 34.817 34.807 34.777 34.732 34.732 34.717 34.712 34.712 34.707 34.682 34.687 34.682 34.669 34.639 34.624 34.632 34.594 34.549 34.547 34.509 34.492 34.457 34.414 34.384 34.349 34.314 34.299 34.232 34.217 34.202 34.154 34.102 34.079 34.049 33.999 33.972 33.937 33.944 33.914 33.874 33.837 33.839 33.814 33.772 33.744 33.717 33.699 33.659 33.652 33.609 33.602 33.617 33.617 33.587 33.592 33.507 33.422 33.382 33.267 33.199 33.119 33.049 32.997 32.934 32.874 32.824 32.817 32.794 32.759 32.734 32.682 32.652 32.597 32.539 32.469 32.397 32.327 32.269 32.207 32.122 32.089 31.999 31.954 31.932 31.889 31.849 31.799 31.744 31.687 31.629 31.562 31.524 31.417 31.369 31.287 31.227 31.142 31.052 30.974 30.864 30.804 30.739 30.639 30.569 30.494 30.436 30.339 30.274 30.209 30.194 30.119 30.086 31.136 31.539 29.701 29.689 29.664 29.574 29.464 29.389 29.344 29.296 29.219 29.144 29.049 28.969 28.894 28.829 28.736 28.676 28.579 28.519 28.436 28.384 28.281 28.206 28.124 28.044 27.969 27.906 27.824 27.764 27.696 27.636 27.589 27.534 30.924 32.069 37.966 37.256 31.621 29.184 27.226 26.974 26.911 26.884 27.146 26.771 26.659 26.631 26.586 26.914 28.599 29.184 28.791 28.539 26.559 26.524 26.079 25.891 26.356 27.289 29.264 30.429 31.326 30.504 30.246 29.859 28.629 26.479 27.324 28.344 26.126 24.976 24.884 24.831 24.721 24.661 24.564 24.581 27.616 29.871 30.799 31.399 30.269 26.811 24.019 23.959 23.981 24.006 24.346 24.556 24.354 24.766 24.706 23.844 23.661 23.661 23.691 23.624 23.864 25.084 24.649 23.309 23.004 22.784 22.706 22.646 22.666 22.624 22.629 22.999 23.154 22.476 22.426 22.466 22.259 21.989 22.046 25.981 30.636 30.376 28.814 27.386 28.104 27.521 27.719 29.621 29.536 26.806 24.016 23.081 21.079 20.849 20.819 20.769 20.646 20.574 20.644 20.779 20.651 20.636 20.641 20.614 20.646 20.651 20.534 20.601 20.656 20.599 21.019 20.891 21.074 25.016 28.171 27.654 26.876 25.151 22.366 26.309 24.864 21.186 20.546 20.711 20.776 20.476 20.504 20.534 20.581 20.671 20.699 20.764 20.984 23.709 24.439 23.224 20.941 20.816 20.834 20.886 20.939 20.896 21.156 22.681 22.586 23.229 24.391 26.131 25.992 21.472 20.799 20.834 20.894 20.882 20.742 20.687 20.662 20.612 20.574 20.552 20.539 20.509 20.482 20.447 20.389 20.364 20.302 20.242 20.249 20.264 20.247 20.244 20.232 20.184 20.164 20.137 20.102 20.114 20.124 20.107 20.077 20.054 19.994 19.922 19.889 19.857 19.817 19.799 19.797 19.784 19.732 19.677 19.639 19.577 19.547 19.529 19.509 19.469 19.462 19.442 19.394 19.364 19.339 19.314 19.314 19.309 19.257 19.272 19.274 19.229 19.184 19.152 19.117 19.072 19.054 19.007 18.989 18.969 18.942 18.957 20.674 20.817 19.052 18.822 18.887 18.929 18.972 18.974 18.932 18.964 18.959 18.907 18.887 18.847 18.792 18.772 18.714 18.647 18.582 18.522 18.434 18.412 18.322 18.252 18.219 18.234 18.239 18.299 18.264 18.249 18.237 18.259 21.464 24.762 23.512 20.602 19.009 18.459 18.557 18.259 18.224 18.257 18.262 18.377 20.937 20.874 21.007 21.009 21.122 22.552 21.957 21.067 20.377 18.542 18.074
34.922 34.932 34.924 34.904 34.857 34.832 34.829 34.787 34.759 34.742 34.714 34.722 34.702 34.704 34.677 34.684 34.674 34.647 34.644 34.612 34.604 34.584 34.542 34.512 34.517 34.484 34.434 34.412 34.374 34.339 34.317 34.279 34.222 34.222 34.192 34.112 34.092 34.067 34.027 33.994 33.962 33.934 33.917 33.897 33.869 33.829 33.797 33.777 33.734 33.704 33.692 33.674 33.644 33.629 33.624 33.604 33.629 33.619 33.587 33.579 33.537 33.454 33.337 33.259 33.179 33.102 33.057 32.984 32.949 32.899 32.859 32.807 32.764 32.757 32.722 32.669 32.624 32.577 32.524 32.459 32.412 32.337 32.272 32.202 32.124 32.052 31.989 31.967 31.927 31.882 31.827 31.784 31.722 31.662 31.589 31.547 31.469 31.387 31.317 31.262 31.199 31.102 31.022 30.959 30.864 30.784 30.691 30.611 30.541 30.459 30.396 30.346 30.266 30.199 30.171 30.109 30.209 33.706 31.614 29.754 29.686 29.634 29.531 29.454 29.406 29.324 29.274 29.214 29.149 29.051 28.956 28.854 28.784 28.709 28.636 28.576 28.469 28.416 28.351 28.266 28.189 28.119 28.024 27.934 27.871 27.786 27.716 27.654 27.604 27.556 27.481 29.606 30.794 37.569 33.939 34.344 30.151 28.191 27.154 26.901 26.829 26.806 26.719 26.616 26.696 26.816 27.256 29.576 28.256 26.829 27.551 27.194 26.229 25.939 25.746 26.844 29.246 30.444 31.321 30.824 29.354 29.319 30.286 29.836 28.736 26.196 26.851 28.181 26.714 25.739 25.179 24.784 24.601 24.549 25.936 29.389 30.779 31.436 30.551 29.389 26.984 24.029 23.904 25.619 24.399 24.516 25.596 24.499 25.354 24.356 24.016 23.609 23.559 23.731 23.841 24.671 25.336 23.744 23.289 23.144 22.839 22.666 22.584 22.554 22.609 22.701 22.784 22.744 22.689 22.536 22.384 22.024 21.926 22.144 27.881 29.404 30.581 30.196 29.139 30.091 30.414 24.289 28.031 27.056 24.264 23.464 20.901 20.854 20.814 20.804 20.889 20.586 20.656 20.719 21.531 20.706 20.729 20.674 20.671 20.649 20.651 20.639 20.591 20.654 20.799 23.589 25.171 21.084 21.784 25.154 26.854 25.979 23.556 22.706 21.904 22.261 22.634 20.711 20.756 22.026 20.829 20.519 20.574 20.594 20.639 20.714 20.726 20.749 21.419 24.081 24.231 21.856 20.991 20.846 21.056 20.861 21.074 22.361 22.501 23.914 24.306 22.301 21.231 23.364 20.789 20.969 21.029 20.984 20.957 20.907 20.824 20.657 20.647 20.604 20.597 20.577 20.537 20.497 20.454 20.449 20.407 20.352 20.289 20.279 20.279 20.259 20.227 20.224 20.217 20.189 20.164 20.112 20.107 20.127 20.142 20.102 20.059 20.037 19.969 19.912 19.869 19.842 19.817 19.797 19.764 19.749 19.719 19.669 19.617 19.574 19.532 19.519 19.497 19.434 19.412 19.394 19.372 19.382 19.324 19.317 19.324 19.294 19.289 19.284 19.252 19.204 19.169 19.152 19.084 19.039 19.022 19.004 19.004 18.932 18.912 19.079 21.307 20.424 18.934 18.897 18.924 18.927 18.942 18.942 18.927 18.937 18.909 18.889 18.874 18.854 18.794 18.712 18.657 18.604 18.532 18.472 18.439 18.337 18.277 18.244 18.267 18.289 18.294 18.279 18.317 18.324 18.352 21.049 23.827 22.439 18.989 18.444 18.357 18.409 18.712 18.179 18.199 18.219 18.172 20.009 21.409 22.124 21.137 21.012 21.067 19.872 18.232 18.089 18.104 18.092
34.932 34.914 34.929 34.889 34.874 34.864 34.832 34.812 34.782 34.769 34.742 34.732 34.739 34.729 34.714 34.694 34.669 34.659 34.644 34.624 34.604 34.572 34.549 34.507 34.497 34.479 34.429 34.397 34.354 34.322 34.307 34.284 34.217 34.199 34.152 34.114 34.087 34.029 33.999 33.979 33.927 33.932 33.889 33.879 33.869 33.849 33.787 33.757 33.719 33.709 33.652 33.654 33.642 33.624 33.634 33.614 33.629 33.622 33.597 33.549 33.494 33.442 33.349 33.262 33.199 33.119 33.082 33.002 32.962 32.924 32.882 32.832 32.777 32.744 32.684 32.647 32.589 32.539 32.502 32.472 32.377 32.329 32.269 32.182 32.104 32.047 32.009 31.969 31.919 31.864 31.814 31.732 31.694 31.619 31.559 31.512 31.452 31.372 31.319 31.232 31.159 31.067 30.994 30.914 30.834 30.741 30.654 30.589 30.519 30.449 30.391 30.334 30.266 30.221 30.149 30.079 30.576 30.681 29.841 29.751 29.654 29.589 29.484 29.414 29.356 29.279 29.246 29.201 29.119 29.036 28.959 28.849 28.741 28.689 28.614 28.509 28.451 28.366 28.309 28.221 28.161 28.079 28.004 27.936 27.849 27.764 27.689 27.599 27.559 27.504 27.449 28.034 27.326 29.211 28.854 33.436 29.429 29.084 27.716 27.281 26.989 26.729 26.626 26.599 27.096 27.511 28.334 26.964 26.879 26.324 26.556 27.091 26.781 26.191 25.884 29.196 30.396 31.286 30.616 30.119 27.369 26.656 29.251 30.171 27.239 25.371 25.354 26.261 28.966 27.646 25.526 24.741 24.556 24.519 24.831 28.941 31.356 30.496 30.596 28.959 24.784 24.016 23.894 23.821 27.031 28.581 27.274 23.881 24.556 23.661 23.854 23.781 23.594 23.734 23.346 23.189 23.129 23.291 23.176 23.446 23.049 23.204 22.641 22.449 22.594 23.054 22.639 22.879 22.736 22.586 22.484 22.256 21.991 22.181 23.211 27.301 29.399 30.579 30.479 31.031 30.094 28.806 23.744 23.584 23.311 21.266 20.859 20.806 20.791 20.729 20.584 20.669 20.706 21.071 20.909 20.704 20.711 20.691 20.769 21.101 20.664 20.636 20.771 22.516 24.531 26.976 27.819 24.746 20.639 20.939 24.014 23.854 22.466 20.516 20.546 21.124 21.411 20.574 20.504 20.636 21.771 21.546 20.594 20.636 20.641 20.696 20.721 20.751 20.811 22.074 24.116 24.059 21.916 21.029 20.911 20.884 21.294 23.026 24.539 23.796 21.569 20.974 20.921 20.869 20.882 20.977 20.999 20.992 20.937 20.959 20.949 20.767 20.664 20.634 20.602 20.587 20.549 20.512 20.509 20.492 20.437 20.372 20.332 20.312 20.289 20.249 20.269 20.239 20.244 20.214 20.172 20.139 20.122 20.117 20.122 20.114 20.082 20.059 20.017 19.962 19.894 19.867 19.839 19.802 19.764 19.747 19.742 19.697 19.647 19.604 19.559 19.512 19.479 19.454 19.422 19.419 19.389 19.377 19.352 19.324 19.337 19.337 19.294 19.279 19.274 19.232 19.182 19.157 19.117 19.062 19.034 19.017 18.989 18.979 18.912 18.914 19.394 21.367 19.267 18.824 18.894 18.914 18.914 18.932 18.932 18.914 18.892 18.877 18.887 18.857 18.807 18.752 18.672 18.617 18.552 18.477 18.379 18.312 18.314 18.304 18.307 18.327 18.307 18.344 18.414 18.424 19.497 21.524 20.952 18.437 18.494 18.372 18.359 18.334 18.639 18.439 18.149 18.174 19.394 21.294 22.432 23.107 21.862 20.832 19.164 18.082 18.089 18.087 18.089 18.129
34.929 34.907 34.892 34.904 34.864 34.849 34.839 34.799 34.784 34.772 34.764 34.732 34.742 34.737 34.719 34.699 34.669 34.659 34.634 34.604 34.594 34.559 34.539 34.502 34.469 34.457 34.414 34.377 34.342 34.319 34.304 34.249 34.209 34.167 34.124 34.117 34.057 34.034 34.014 33.964 33.934 33.919 33.904 33.877 33.834 33.829 33.792 33.752 33.722 33.697 33.649 33.627 33.622 33.612 33.609 33.612 33.614 33.592 33.557 33.537 33.494 33.427 33.332 33.269 33.204 33.139 33.079 33.052 32.999 32.924 32.879 32.824 32.789 32.719 32.702 32.612 32.547 32.509 32.464 32.432 32.369 32.309 32.237 32.174 32.122 32.057 31.997 31.972 31.914 31.854 31.789 31.722 31.639 31.594 31.537 31.477 31.397 31.354 31.249 31.202 31.114 31.057 30.969 30.889 30.804 30.726 30.631 30.549 30.499 30.419 30.389 30.319 30.274 30.209 30.129 30.316 30.964 30.679 29.794 29.671 29.626 29.536 29.439 29.391 29.299 29.256 29.219 29.164 29.071 29.014 28.939 28.846 28.746 28.666 28.586 28.484 28.401 28.324 28.249 28.201 28.116 28.026 27.964 27.911 27.841 27.731 27.661 27.589 27.519 27.451 27.374 27.336 27.259 27.224 27.186 27.866 27.771 29.011 31.966 33.649 29.336 26.779 26.919 27.146 28.069 29.641 26.676 27.044 26.324 26.334 26.544 28.579 26.651 26.999 25.899 26.149 30.486 31.081 29.126 28.059 25.994 25.816 26.399 27.814 25.911 26.271 25.316 25.064 26.296 29.099 26.949 24.649 24.594 24.459 24.461 24.784 28.326 29.199 29.316 27.276 24.874 23.954 23.864 25.566 30.386 30.534 27.414 23.591 23.424 23.359 23.676 23.806 24.471 23.474 23.119 23.139 23.134 23.206 22.976 23.016 23.191 22.624 22.666 22.576 22.364 22.729 22.794 22.499 22.501 22.391 22.344 22.451 21.964 21.959 22.031 26.804 28.796 30.231 31.111 30.226 28.789 27.821 22.251 21.701 22.174 20.866 20.824 20.804 20.739 20.664 20.679 20.766 21.251 21.164 20.741 20.686 20.741 20.729 20.859 21.441 20.814 20.709 22.361 25.126 26.811 27.881 27.009 23.751 20.834 20.794 21.049 22.541 20.849 20.504 20.539 20.691 21.151 20.579 20.531 20.546 20.726 20.926 20.964 20.644 20.681 20.686 20.749 20.781 20.816 20.854 21.789 24.436 23.896 21.376 21.984 21.984 23.044 24.681 23.001 21.209 21.026 20.986 20.901 20.869 20.984 21.019 21.019 20.979 20.959 20.924 20.924 20.824 20.702 20.674 20.714 20.662 20.612 20.627 20.514 20.502 20.497 20.412 20.359 20.374 20.289 20.244 20.272 20.247 20.224 20.239 20.192 20.167 20.137 20.102 20.102 20.127 20.094 20.104 20.067 20.004 19.944 19.879 19.842 19.799 19.769 19.739 19.719 19.719 19.704 19.637 19.549 19.509 19.474 19.447 19.437 19.434 19.414 19.394 19.372 19.387 19.349 19.322 19.294 19.289 19.274 19.244 19.197 19.139 19.152 19.097 19.037 19.024 18.997 18.982 18.937 18.892 18.872 20.214 21.034 19.067 18.812 18.887 18.877 18.879 18.904 18.879 18.914 18.882 18.842 18.832 18.814 18.769 18.719 18.624 18.532 18.469 18.374 18.349 18.354 18.364 18.359 18.337 18.359 18.372 19.242 19.557 19.867 19.982 19.194 18.399 18.377 18.367 18.474 18.307 18.347 19.209 18.587 18.209 21.609 22.582 23.084 22.547 21.542 19.789 18.172 18.082 18.052 18.047 18.087 18.112
34.917 34.897 34.894 34.882 34.862 34.852 34.839 34.784 34.774 34.759 34.759 34.752 34.757 34.752 34.752 34.722 34.689 34.667 34.662 34.624 34.592 34.574 34.544 34.527 34.477 34.447 34.422 34.397 34.352 34.322 34.289 34.242 34.199 34.144 34.114 34.094 34.052 34.024 33.999 33.959 33.962 33.934 33.904 33.877 33.852 33.832 33.789 33.749 33.704 33.697 33.662 33.662 33.647 33.609 33.599 33.639 33.627 33.589 33.537 33.497 33.457 33.392 33.309 33.267 33.182 33.127 33.094 33.064 33.017 32.969 32.919 32.859 32.799 32.729 32.669 32.597 32.537 32.474 32.427 32.354 32.322 32.272 32.214 32.157 32.097 32.042 31.987 31.949 31.897 31.829 31.764 31.679 31.627 31.562 31.502 31.454 31.352 31.299 31.244 31.169 31.092 30.999 30.929 30.851 30.754 30.706 30.619 30.524 30.459 30.406 30.376 30.321 30.261 30.189 30.116 30.626 30.459 30.216 29.741 29.656 29.589 29.491 29.386 29.349 29.289 29.241 29.201 29.109 29.034 28.966 28.906 28.839 28.741 28.639 28.551 28.464 28.386 28.306 28.234 28.149 28.079 28.004 27.914 27.856 27.794 27.711 27.631 27.579 27.496 27.391 27.339 27.276 27.219 27.164 27.116 27.084 27.071 30.949 32.851 34.254 29.226 27.026 28.111 28.696 29.536 27.474 26.471 26.349 26.446 26.549 29.576 30.491 29.219 27.596 26.541 25.901 25.926 28.814 27.521 25.804 25.351 25.629 25.696 25.529 25.754 25.526 26.421 28.661 26.709 25.154 27.689 25.536 24.766 24.486 24.889 26.669 26.706 27.156 26.481 25.924 24.294 23.896 23.839 28.246 30.821 28.891 23.854 23.486 23.454 23.311 23.716 23.529 26.326 24.774 23.151 23.129 23.149 23.039 22.921 24.591 24.641 23.101 22.599 23.169 22.526 22.291 22.369 22.456 22.454 22.334 22.246 22.129 22.034 21.944 25.141 27.834 30.071 31.004 30.254 28.866 26.021 23.964 21.499 21.531 21.291 21.036 20.796 20.811 20.654 20.739 20.751 20.741 20.916 20.806 20.734 20.716 20.714 20.734 20.691 20.679 20.731 21.131 24.696 26.829 28.254 26.931 22.959 20.684 22.029 21.419 21.466 20.604 20.521 20.471 20.649 20.639 20.719 21.074 20.741 20.581 20.581 20.649 21.329 21.074 20.711 20.709 20.744 20.801 20.864 20.889 20.974 21.959 24.459 23.521 23.346 24.194 24.724 23.069 22.126 22.709 21.166 20.989 20.944 20.879 21.009 21.054 21.002 20.982 20.959 21.082 21.012 20.879 20.784 20.859 20.787 20.784 20.729 20.612 20.557 20.514 20.504 20.434 20.402 20.372 20.342 20.302 20.269 20.249 20.244 20.237 20.229 20.194 20.152 20.132 20.109 20.102 20.119 20.112 20.104 20.044 19.972 19.907 19.852 19.819 19.782 19.762 19.739 19.719 19.699 19.649 19.587 19.512 19.467 19.469 19.447 19.437 19.442 19.417 19.399 19.397 19.352 19.332 19.304 19.292 19.269 19.234 19.229 19.167 19.144 19.144 19.064 19.022 18.997 18.969 18.939 18.884 18.887 18.902 20.739 19.864 18.774 18.824 18.877 18.862 18.852 18.862 18.879 18.867 18.837 18.817 18.797 18.772 18.694 18.597 18.509 18.419 18.397 18.367 18.404 18.394 18.444 18.437 18.397 19.167 21.562 19.082 19.814 19.242 19.497 18.429 18.369 18.347 18.334 18.279 20.117 20.227 18.569 18.144 19.817 23.114 22.464 21.512 19.067 18.144 18.617 19.197 18.182 18.029 18.044 18.062
34.919 34.907 34.909 34.879 34.864 34.844 34.809 34.789 34.784 34.757 34.734 34.757 34.742 34.757 34.729 34.712 34.702 34.664 34.667 34.622 34.597 34.559 34.542 34.514 34.497 34.444 34.424 34.387 34.367 34.332 34.279 34.242 34.202 34.132 34.107 34.077 34.067 34.009 33.999 33.944 33.944 33.932 33.907 33.884 33.859 33.812 33.799 33.744 33.722 33.687 33.684 33.662 33.639 33.624 33.612 33.622 33.617 33.559 33.532 33.497 33.432 33.349 33.304 33.249 33.179 33.149 33.094 33.054 33.017 32.987 32.934 32.877 32.809 32.744 32.699 32.609 32.542 32.464 32.432 32.357 32.319 32.244 32.159 32.122 32.072 32.027 31.967 31.914 31.874 31.822 31.749 31.677 31.609 31.539 31.474 31.402 31.349 31.262 31.209 31.109 31.052 30.969 30.882 30.809 30.736 30.661 30.584 30.501 30.441 30.379 30.349 30.296 30.254 30.161 30.141 30.836 30.611 29.851 29.696 29.644 29.561 29.491 29.391 29.329 29.271 29.211 29.171 29.066 28.991 28.916 28.854 28.791 28.719 28.621 28.526 28.429 28.344 28.264 28.181 28.126 28.034 27.961 27.886 27.829 27.774 27.701 27.631 27.551 27.486 27.394 27.306 27.249 27.181 27.109 27.049 26.986 26.941 27.296 28.581 28.739 28.516 28.349 29.131 29.226 27.911 26.554 26.384 26.401 26.644 28.599 30.546 31.339 30.549 30.634 28.776 26.474 25.774 26.116 25.384 25.996 26.194 25.301 25.724 26.421 25.266 25.544 28.879 29.716 28.726 25.974 25.496 26.699 25.814 26.006 25.351 25.916 25.914 24.799 24.339 24.156 24.041 23.906 23.831 25.281 28.686 26.509 24.124 23.364 23.301 23.211 23.884 23.126 23.576 24.076 23.266 23.046 23.004 22.954 23.179 23.766 24.659 24.596 23.394 22.406 22.426 22.284 22.209 22.261 23.396 23.236 22.266 22.281 22.674 25.031 27.279 27.266 28.499 30.281 28.854 27.174 21.611 21.494 21.476 21.436 21.331 21.351 20.984 20.769 20.726 20.804 20.761 20.714 20.821 20.859 20.869 20.841 20.749 20.726 20.684 20.711 20.826 24.769 26.996 27.816 26.946 22.416 20.654 20.551 20.556 20.789 22.074 20.926 21.291 20.721 21.426 20.431 20.591 21.079 21.444 20.811 20.569 20.619 20.909 21.321 20.941 20.859 20.869 20.814 20.869 20.886 20.929 20.969 22.296 24.301 24.216 23.864 21.981 21.971 23.829 23.821 22.704 21.026 20.951 20.899 20.974 20.912 21.019 20.997 21.024 20.944 20.962 20.854 20.862 20.894 20.817 20.779 20.769 20.609 20.554 20.519 20.514 20.472 20.427 20.409 20.387 20.329 20.262 20.269 20.262 20.242 20.232 20.209 20.182 20.147 20.134 20.109 20.114 20.117 20.099 20.049 19.997 19.927 19.872 19.824 19.804 19.757 19.747 19.724 19.712 19.649 19.589 19.569 19.522 19.482 19.469 19.449 19.449 19.444 19.404 19.409 19.397 19.342 19.312 19.289 19.254 19.232 19.237 19.209 19.167 19.119 19.079 19.024 18.992 18.957 18.919 18.894 18.887 18.882 19.014 21.162 19.982 18.747 18.814 18.844 18.829 18.859 18.862 18.847 18.857 18.842 18.782 18.697 18.604 18.534 18.507 18.467 18.439 18.437 18.452 18.464 18.487 18.439 18.774 23.189 19.732 18.519 18.739 19.209 19.184 18.779 18.569 18.322 18.447 20.402 22.564 21.664 19.882 18.547 18.229 21.119 21.824 21.164 18.337 18.149 18.114 18.322 18.167 18.057 18.009 18.004
34.952 34.909 34.912 34.897 34.849 34.824 34.799 34.784 34.797 34.759 34.754 34.754 34.722 34.749 34.747 34.717 34.692 34.659 34.649 34.622 34.602 34.572 34.544 34.509 34.462 34.434 34.414 34.374 34.359 34.307 34.272 34.229 34.192 34.127 34.102 34.062 34.049 34.014 33.967 33.954 33.924 33.902 33.892 33.857 33.852 33.814 33.789 33.764 33.739 33.707 33.679 33.667 33.642 33.639 33.639 33.624 33.609 33.557 33.532 33.482 33.409 33.339 33.272 33.227 33.179 33.147 33.097 33.069 33.029 32.997 32.949 32.897 32.809 32.759 32.684 32.612 32.559 32.489 32.372 32.329 32.277 32.189 32.142 32.089 32.049 32.004 31.964 31.892 31.834 31.792 31.714 31.634 31.587 31.502 31.437 31.354 31.302 31.227 31.154 31.072 31.004 30.932 30.822 30.749 30.676 30.611 30.531 30.464 30.414 30.364 30.329 30.269 30.214 30.146 30.464 30.914 30.151 29.774 29.681 29.636 29.521 29.459 29.376 29.304 29.249 29.206 29.134 29.049 28.944 28.886 28.806 28.726 28.681 28.591 28.519 28.421 28.341 28.264 28.184 28.096 28.006 27.931 27.869 27.816 27.731 27.669 27.594 27.524 27.451 27.364 27.291 27.206 27.141 27.059 27.016 26.934 26.894 26.841 26.859 28.069 26.996 27.331 29.956 27.596 26.769 26.444 26.324 26.444 26.251 27.269 29.214 30.541 31.294 31.694 30.866 27.029 26.819 25.514 25.366 25.401 25.579 25.226 25.396 25.319 24.841 25.314 28.141 28.341 29.826 29.044 26.709 25.366 26.289 26.866 25.021 24.334 24.374 24.509 24.351 24.051 23.946 24.099 23.851 23.679 24.549 25.444 24.834 23.639 23.261 23.201 23.589 23.069 23.054 23.289 23.154 23.429 23.001 22.839 22.719 23.369 24.624 24.439 24.129 22.329 22.596 22.486 22.206 22.126 22.716 24.154 23.441 22.291 22.324 24.081 26.826 27.291 27.264 28.114 27.466 24.381 21.706 21.609 21.396 21.379 21.306 21.024 20.766 20.729 20.796 21.404 21.434 20.891 21.266 20.989 21.354 21.284 20.749 20.714 20.739 20.829 23.024 23.779 27.591 26.991 23.474 20.711 20.979 20.486 20.506 20.591 21.849 21.021 21.194 21.839 20.781 20.469 20.519 20.634 21.061 20.881 20.674 20.591 20.739 20.804 21.176 21.266 22.229 21.081 20.876 20.936 20.944 20.989 21.024 22.906 23.154 21.374 22.536 23.699 23.831 23.836 23.749 22.199 20.931 20.922 20.874 21.012 21.067 21.062 21.002 20.972 20.944 20.784 20.967 20.992 20.849 20.757 20.772 20.612 20.589 20.547 20.514 20.512 20.519 20.454 20.392 20.364 20.334 20.284 20.254 20.237 20.237 20.227 20.227 20.167 20.139 20.124 20.089 20.119 20.089 20.057 20.012 19.959 19.912 19.852 19.812 19.779 19.742 19.697 19.684 19.664 19.629 19.594 19.547 19.517 19.487 19.464 19.454 19.429 19.427 19.422 19.397 19.369 19.307 19.282 19.274 19.252 19.232 19.207 19.184 19.122 19.094 19.067 18.984 18.949 18.939 18.949 18.909 18.872 18.849 19.952 20.807 19.032 18.754 18.799 18.839 18.844 18.829 18.817 18.819 18.757 18.667 18.604 18.564 18.532 18.502 18.519 18.522 18.512 18.499 18.484 18.457 18.524 21.387 23.174 18.929 18.437 18.417 19.027 18.997 19.054 18.932 18.399 19.224 21.937 22.732 22.392 21.477 19.144 19.224 19.517 20.399 19.157 18.142 18.152 18.139 18.092 18.059 17.999 17.932 17.909
34.962 34.922 34.919 34.887 34.842 34.837 34.797 34.804 34.774 34.757 34.754 34.757 34.744 34.729 34.754 34.709 34.694 34.674 34.659 34.604 34.567 34.567 34.542 34.482 34.462 34.432 34.394 34.367 34.324 34.307 34.264 34.227 34.177 34.129 34.122 34.084 34.037 33.984 33.969 33.942 33.947 33.909 33.882 33.867 33.844 33.817 33.787 33.774 33.737 33.699 33.694 33.679 33.682 33.669 33.644 33.647 33.599 33.557 33.509 33.444 33.384 33.334 33.274 33.219 33.162 33.139 33.084 33.047 33.009 32.989 32.959 32.897 32.822 32.764 32.694 32.619 32.564 32.482 32.399 32.322 32.234 32.159 32.094 32.064 32.009 31.969 31.927 31.862 31.807 31.759 31.689 31.622 31.537 31.457 31.409 31.342 31.272 31.204 31.119 31.039 30.937 30.872 30.797 30.704 30.619 30.556 30.486 30.441 30.386 30.341 30.296 30.244 30.164 30.116 30.631 30.729 29.669 29.721 29.674 29.599 29.489 29.446 29.364 29.281 29.209 29.166 29.086 28.996 28.914 28.846 28.759 28.706 28.621 28.559 28.484 28.379 28.311 28.214 28.126 28.074 27.976 27.921 27.836 27.771 27.704 27.621 27.546 27.499 27.414 27.366 27.271 27.206 27.109 27.046 26.959 26.891 26.806 26.774 26.719 26.711 28.011 28.094 27.926 27.389 26.671 26.391 26.624 26.269 26.244 27.681 29.491 30.734 31.744 31.111 30.019 27.511 26.821 26.149 25.504 25.469 25.386 25.196 25.126 24.976 25.194 25.039 24.729 25.284 28.646 29.849 30.909 28.971 24.646 27.504 26.044 24.634 24.719 24.171 24.079 23.981 23.879 24.056 23.809 23.621 23.601 24.836 25.054 24.266 23.971 23.559 23.096 23.076 23.029 22.886 22.836 22.936 22.951 22.661 22.589 22.736 23.686 23.189 23.016 22.519 22.289 22.324 22.634 22.104 22.079 22.999 23.986 22.661 22.301 22.164 23.114 26.976 27.286 24.216 21.786 21.701 21.724 21.604 21.436 21.411 21.189 20.824 20.751 20.794 20.999 21.291 20.954 21.514 21.596 21.521 20.924 21.121 20.886 20.781 21.531 24.704 27.026 25.956 22.539 22.251 20.951 20.664 20.531 20.446 20.461 20.461 20.456 21.166 20.919 20.619 20.651 20.926 20.931 20.609 20.616 20.731 21.279 21.631 20.759 20.906 21.369 22.314 21.544 22.256 21.221 20.961 20.989 20.996 21.081 21.036 21.031 22.849 23.794 23.771 23.811 23.816 23.766 23.304 21.216 20.929 20.927 20.914 20.979 21.037 20.979 20.984 20.852 20.959 20.922 20.929 20.887 20.852 20.702 20.609 20.582 20.539 20.522 20.517 20.514 20.467 20.422 20.379 20.354 20.292 20.259 20.242 20.227 20.224 20.212 20.192 20.157 20.124 20.089 20.082 20.097 20.082 20.037 20.004 19.949 19.887 19.812 19.779 19.749 19.732 19.714 19.672 19.649 19.599 19.564 19.549 19.484 19.482 19.474 19.442 19.447 19.444 19.419 19.394 19.337 19.299 19.249 19.239 19.232 19.222 19.194 19.152 19.087 19.042 19.002 18.974 18.977 18.937 18.909 18.884 18.857 18.854 20.264 20.344 18.754 18.747 18.819 18.837 18.774 18.752 18.747 18.677 18.614 18.562 18.544 18.537 18.534 18.542 18.559 18.559 18.534 18.577 19.132 19.497 18.754 21.167 19.177 18.494 18.672 18.644 18.764 18.532 18.997 19.077 18.542 20.462 22.109 22.749 22.234 21.122 18.737 18.169 18.042 18.092 18.132 18.122 18.119 18.319 18.067 17.934 17.927 17.904
34.939 34.932 34.917 34.897 34.847 34.829 34.822 34.799 34.787 34.759 34.752 34.747 34.729 34.727 34.724 34.699 34.687 34.677 34.657 34.622 34.587 34.569 34.549 34.484 34.469 34.422 34.407 34.377 34.317 34.292 34.229 34.214 34.159 34.119 34.107 34.067 34.029 33.997 33.972 33.979 33.929 33.917 33.882 33.864 33.832 33.802 33.792 33.769 33.742 33.734 33.702 33.679 33.702 33.672 33.657 33.632 33.577 33.534 33.467 33.437 33.377 33.319 33.269 33.219 33.149 33.129 33.072 33.054 32.997 32.964 32.929 32.872 32.834 32.759 32.687 32.637 32.559 32.482 32.402 32.304 32.237 32.164 32.094 32.027 31.992 31.947 31.884 31.842 31.794 31.739 31.664 31.594 31.549 31.442 31.369 31.302 31.239 31.159 31.094 31.009 30.924 30.829 30.744 30.661 30.599 30.526 30.444 30.411 30.341 30.326 30.289 30.229 30.129 30.116 30.681 30.851 29.789 29.704 29.649 29.559 29.479 29.419 29.339 29.256 29.204 29.121 29.039 28.976 28.884 28.824 28.749 28.691 28.594 28.521 28.434 28.369 28.294 28.226 28.124 28.049 27.974 27.879 27.801 27.716 27.644 27.571 27.499 27.434 27.389 27.321 27.241 27.169 27.089 26.991 26.929 26.864 26.781 26.711 26.661 26.589 27.064 27.904 26.784 28.089 27.314 26.581 26.254 26.224 27.841 29.554 30.571 31.676 31.144 29.956 28.104 25.981 26.709 26.621 26.141 25.371 25.464 25.131 25.114 24.969 25.189 25.011 25.089 26.436 29.931 30.741 30.986 29.641 25.569 27.124 27.266 25.906 25.264 24.244 24.036 23.956 23.874 23.769 23.661 23.654 23.531 23.609 24.509 24.956 23.919 23.371 23.956 23.606 22.954 22.851 22.764 22.726 22.931 23.076 22.566 22.576 22.654 22.554 22.569 22.534 22.419 22.209 23.044 23.201 22.196 22.009 22.249 23.039 23.704 23.756 22.206 23.684 24.196 21.719 21.676 21.651 21.696 21.611 21.646 21.419 20.849 20.764 20.816 21.014 21.706 20.914 21.076 21.151 21.229 21.076 21.016 20.886 21.021 22.614 25.051 27.041 28.039 26.864 22.266 21.761 21.981 20.596 20.471 20.426 20.444 20.486 20.481 20.456 20.484 20.519 20.589 21.104 20.704 20.591 20.616 20.654 21.056 20.799 20.824 20.889 20.959 21.121 21.286 21.571 22.486 21.274 21.024 21.049 21.116 21.114 21.074 21.579 23.784 23.794 23.791 23.771 23.021 21.191 20.939 20.939 21.039 20.957 20.937 20.889 20.854 20.904 20.954 20.989 20.934 20.964 20.912 20.764 20.694 20.627 20.567 20.534 20.532 20.539 20.517 20.489 20.459 20.397 20.362 20.324 20.282 20.259 20.239 20.222 20.237 20.219 20.177 20.152 20.094 20.059 20.059 20.062 20.054 20.009 19.974 19.914 19.837 19.779 19.737 19.752 19.704 19.674 19.672 19.639 19.604 19.577 19.509 19.482 19.479 19.457 19.434 19.434 19.422 19.397 19.357 19.337 19.277 19.242 19.214 19.197 19.189 19.149 19.089 19.052 19.042 19.009 18.972 18.932 18.887 18.884 18.874 18.869 18.854 20.884 20.089 18.719 18.714 18.727 18.714 18.672 18.652 18.622 18.587 18.532 18.529 18.562 18.572 18.584 18.582 18.572 18.699 20.024 20.357 19.924 18.674 19.642 19.562 18.599 18.532 18.612 18.572 18.547 18.629 18.687 18.389 18.577 21.347 22.277 22.789 22.119 20.534 18.874 18.354 18.042 18.087 18.109 18.194 18.064 17.954 17.942 17.932 17.909
34.917 34.914 34.884 34.877 34.852 34.837 34.817 34.779 34.779 34.747 34.749 34.747 34.729 34.727 34.702 34.694 34.669 34.667 34.627 34.614 34.592 34.582 34.554 34.487 34.449 34.409 34.387 34.367 34.322 34.269 34.232 34.194 34.154 34.122 34.082 34.054 34.019 34.002 33.982 33.964 33.924 33.897 33.879 33.844 33.827 33.804 33.784 33.767 33.744 33.754 33.712 33.714 33.714 33.699 33.657 33.634 33.572 33.517 33.469 33.402 33.354 33.294 33.234 33.182 33.162 33.112 33.082 33.037 33.014 32.964 32.922 32.877 32.807 32.742 32.682 32.639 32.557 32.492 32.407 32.332 32.247 32.179 32.109 32.049 31.967 31.917 31.859 31.809 31.732 31.682 31.614 31.549 31.487 31.412 31.327 31.262 31.192 31.142 31.077 30.992 30.877 30.782 30.704 30.624 30.551 30.469 30.414 30.369 30.339 30.306 30.234 30.211 30.144 30.384 30.509 29.709 29.746 29.696 29.649 29.541 29.454 29.389 29.304 29.236 29.164 29.086 29.009 28.941 28.854 28.774 28.721 28.636 28.566 28.481 28.401 28.339 28.264 28.169 28.096 28.021 27.931 27.874 27.784 27.699 27.611 27.521 27.454 27.386 27.331 27.264 27.191 27.126 27.044 26.974 26.879 26.809 26.739 26.671 26.604 26.546 26.481 26.494 26.906 26.434 27.661 27.839 26.499 27.079 29.514 30.724 31.691 31.196 30.059 28.059 25.906 25.821 25.996 25.956 26.276 25.859 25.184 25.106 25.046 24.911 24.759 24.654 25.314 28.714 30.834 30.901 29.429 27.191 24.554 24.556 24.976 28.639 30.991 25.584 24.034 23.914 23.844 23.766 24.311 24.836 23.771 23.439 24.569 25.829 26.594 23.479 23.904 23.146 22.929 22.806 22.741 22.684 22.819 22.881 22.671 22.534 22.551 22.536 22.521 22.541 22.536 22.406 22.461 24.421 23.621 22.041 21.926 23.004 23.861 22.746 22.626 22.889 21.706 21.696 21.641 21.596 21.549 21.701 21.604 20.999 20.854 20.846 20.874 21.001 21.129 21.286 20.826 20.829 20.964 21.174 21.669 21.124 21.094 24.936 26.989 28.316 26.439 22.006 20.701 20.939 21.129 21.869 21.699 20.531 20.509 20.516 20.471 20.479 20.539 20.551 20.586 20.789 21.069 20.681 20.631 20.706 20.784 20.936 21.121 20.856 21.434 22.844 22.201 21.146 22.006 21.364 21.086 21.081 21.129 21.164 21.129 21.094 22.676 23.691 23.526 22.069 20.991 20.961 20.989 20.982 21.077 20.984 21.004 20.924 20.969 20.984 21.009 20.997 20.977 20.934 20.782 20.727 20.692 20.619 20.579 20.547 20.572 20.564 20.542 20.512 20.494 20.439 20.409 20.362 20.307 20.277 20.264 20.219 20.222 20.204 20.172 20.144 20.099 20.077 20.047 20.062 20.034 20.022 19.994 19.939 19.859 19.797 19.764 19.734 19.722 19.687 19.664 19.664 19.634 19.597 19.554 19.512 19.492 19.469 19.457 19.429 19.402 19.387 19.379 19.337 19.302 19.252 19.242 19.212 19.162 19.157 19.137 19.094 19.069 19.044 18.962 18.924 18.894 18.889 18.889 18.862 18.839 19.304 20.802 19.519 18.659 18.672 18.669 18.632 18.619 18.604 18.557 18.539 18.554 18.582 18.602 18.612 18.587 19.297 20.137 18.917 19.709 18.787 18.494 18.532 19.862 19.234 18.722 18.702 18.694 19.029 19.029 20.224 19.067 19.979 20.807 21.559 22.409 21.744 18.789 18.482 18.942 18.217 18.087 18.079 18.079 17.972 17.957 17.929 17.912 17.877
34.864 34.872 34.877 34.872 34.819 34.812 34.802 34.782 34.769 34.782 34.764 34.734 34.727 34.719 34.699 34.664 34.649 34.649 34.614 34.597 34.579 34.547 34.512 34.497 34.432 34.397 34.374 34.344 34.299 34.259 34.227 34.192 34.144 34.132 34.092 34.069 34.034 34.004 33.984 33.954 33.917 33.894 33.879 33.844 33.834 33.827 33.799 33.774 33.744 33.742 33.734 33.727 33.714 33.684 33.649 33.597 33.552 33.487 33.442 33.394 33.334 33.259 33.222 33.174 33.134 33.092 33.067 33.012 32.982 32.944 32.899 32.842 32.782 32.722 32.687 32.604 32.549 32.464 32.394 32.322 32.232 32.162 32.094 32.037 31.989 31.897 31.839 31.782 31.719 31.634 31.584 31.522 31.442 31.362 31.297 31.244 31.174 31.119 31.037 30.962 30.854 30.757 30.679 30.584 30.511 30.441 30.389 30.339 30.291 30.284 30.226 30.164 30.269 30.996 30.704 29.639 29.746 29.701 29.629 29.514 29.424 29.361 29.266 29.204 29.149 29.056 29.001 28.916 28.834 28.774 28.674 28.586 28.534 28.456 28.384 28.311 28.246 28.141 28.074 27.984 27.921 27.836 27.731 27.651 27.566 27.506 27.429 27.371 27.299 27.239 27.146 27.089 27.001 26.931 26.859 26.791 26.731 26.641 26.566 26.514 26.431 26.411 26.391 27.241 26.594 27.331 27.211 28.379 30.549 31.636 31.326 30.496 29.521 27.014 25.746 25.826 29.631 29.941 26.661 25.359 25.071 25.014 24.956 24.854 24.744 25.371 28.721 30.509 31.006 29.544 26.866 24.766 24.559 24.516 24.454 26.031 27.536 25.841 25.306 26.439 24.014 23.934 24.349 25.521 24.866 23.584 24.176 26.661 25.804 25.741 23.929 22.924 22.839 22.779 22.716 22.664 22.609 22.529 22.826 22.684 22.519 22.509 22.459 22.591 22.481 22.249 21.989 22.689 23.031 22.726 22.056 21.831 21.941 22.024 23.439 22.041 21.766 21.721 21.634 21.516 21.364 21.506 21.064 20.856 20.859 20.884 20.844 20.874 21.011 21.244 20.879 20.971 20.839 20.946 21.531 21.779 24.996 27.161 28.034 27.046 23.231 20.729 20.664 20.621 20.629 21.016 21.666 20.769 20.514 20.574 20.539 20.571 20.606 20.606 20.631 20.636 20.689 21.264 20.696 20.751 20.826 20.769 20.869 20.991 22.849 24.001 23.724 21.971 22.486 21.631 21.141 21.149 21.166 21.164 21.154 21.104 21.129 22.751 21.689 21.001 20.989 20.984 20.976 21.019 21.082 20.992 20.992 20.929 20.947 21.024 20.962 20.867 20.837 20.779 20.762 20.752 20.692 20.624 20.592 20.577 20.587 20.587 20.547 20.527 20.492 20.484 20.442 20.399 20.344 20.314 20.267 20.252 20.199 20.192 20.164 20.157 20.137 20.099 20.054 20.042 20.042 20.019 19.999 19.969 19.897 19.857 19.787 19.744 19.737 19.699 19.672 19.669 19.644 19.622 19.579 19.562 19.507 19.457 19.447 19.422 19.417 19.407 19.397 19.362 19.304 19.267 19.232 19.207 19.177 19.187 19.174 19.142 19.067 19.014 18.959 18.932 18.919 18.887 18.874 18.834 18.829 18.794 19.374 20.974 19.247 18.654 18.652 18.629 18.617 18.592 18.567 18.577 18.574 18.632 18.619 18.609 19.162 20.702 19.552 19.862 18.492 18.509 18.507 18.472 19.172 20.164 19.242 18.474 19.229 21.704 21.544 20.882 20.679 20.692 20.669 20.674 19.889 18.369 18.282 18.252 18.329 18.447 18.144 18.062 17.954 17.944 17.947 17.899 17.904 17.862
34.807 34.827 34.822 34.819 34.809 34.804 34.807 34.784 34.779 34.774 34.752 34.729 34.742 34.702 34.689 34.677 34.619 34.617 34.617 34.584 34.554 34.519 34.509 34.479 34.419 34.394 34.362 34.352 34.287 34.277 34.214 34.174 34.167 34.119 34.067 34.052 34.017 33.999 33.987 33.944 33.924 33.907 33.879 33.847 33.829 33.819 33.799 33.782 33.782 33.764 33.737 33.717 33.714 33.694 33.642 33.577 33.552 33.482 33.389 33.354 33.294 33.214 33.182 33.164 33.104 33.059 33.044 33.014 32.954 32.907 32.864 32.842 32.774 32.717 32.649 32.594 32.527 32.454 32.379 32.329 32.267 32.169 32.119 32.037 31.977 31.907 31.824 31.767 31.694 31.627 31.572 31.489 31.404 31.344 31.274 31.209 31.144 31.097 30.999 30.939 30.819 30.729 30.644 30.559 30.449 30.401 30.361 30.324 30.281 30.241 30.196 30.139 30.754 31.361 29.911 29.771 29.716 29.681 29.584 29.496 29.409 29.334 29.244 29.179 29.094 29.009 28.951 28.901 28.816 28.739 28.641 28.581 28.501 28.431 28.344 28.281 28.196 28.139 28.031 27.959 27.881 27.779 27.714 27.631 27.566 27.509 27.421 27.359 27.274 27.189 27.114 27.061 26.976 26.906 26.831 26.739 26.644 26.596 26.526 26.474 26.406 26.336 26.324 26.284 26.346 26.656 27.254 30.019 31.186 31.139 30.381 30.974 30.086 26.651 25.656 25.556 29.026 28.171 25.846 25.101 25.024 24.976 24.896 25.046 26.286 26.721 27.099 31.101 30.084 27.344 24.921 24.636 24.534 24.501 24.459 24.429 24.561 25.089 26.824 27.929 26.644 25.421 25.831 25.734 25.404 24.169 23.369 23.246 23.746 25.974 26.251 23.781 22.826 22.691 22.669 22.596 22.566 22.514 22.901 22.924 22.979 22.559 22.636 22.454 22.874 22.521 22.116 22.059 22.154 23.059 23.049 21.781 21.696 21.826 22.221 22.059 21.919 21.714 21.646 21.499 21.229 21.056 20.881 20.926 20.914 20.886 20.891 20.926 20.896 20.916 20.899 20.891 21.116 20.966 21.531 22.259 26.439 27.956 27.059 24.319 22.951 20.979 20.616 20.549 20.594 20.569 20.699 20.579 20.529 20.554 20.596 20.604 20.584 20.631 20.651 20.726 20.706 20.866 21.404 20.954 20.931 20.844 21.004 20.901 22.089 23.824 23.249 22.376 23.159 21.584 21.154 21.204 21.169 21.184 21.194 21.139 21.099 21.049 21.024 21.036 21.024 21.009 20.971 20.992 20.999 20.977 20.974 20.947 20.907 20.854 20.844 20.812 20.779 20.792 20.767 20.734 20.712 20.672 20.642 20.647 20.619 20.592 20.572 20.552 20.522 20.499 20.459 20.397 20.362 20.344 20.289 20.254 20.204 20.199 20.174 20.154 20.149 20.102 20.082 20.027 20.007 19.987 19.997 19.972 19.909 19.874 19.824 19.764 19.739 19.732 19.692 19.692 19.677 19.657 19.627 19.559 19.557 19.479 19.452 19.437 19.422 19.394 19.399 19.357 19.324 19.287 19.234 19.222 19.209 19.182 19.162 19.154 19.087 19.022 18.977 18.964 18.924 18.904 18.869 18.844 18.824 18.789 18.737 19.884 20.822 19.019 18.652 18.642 18.632 18.582 18.617 18.612 18.644 18.634 18.609 18.689 18.764 19.627 18.879 18.769 18.509 18.482 18.512 18.489 18.602 19.447 20.124 19.579 21.744 22.932 22.249 21.362 20.764 20.637 20.609 19.654 18.447 18.444 18.307 18.272 18.217 18.192 18.419 18.357 17.969 17.934 17.902 17.912 17.887 17.857
34.777 34.767 34.774 34.777 34.777 34.772 34.767 34.757 34.747 34.739 34.719 34.737 34.737 34.707 34.682 34.652 34.607 34.599 34.577 34.559 34.534 34.494 34.474 34.447 34.419 34.399 34.379 34.319 34.297 34.257 34.224 34.169 34.139 34.107 34.074 34.032 34.029 34.007 33.989 33.944 33.924 33.892 33.857 33.854 33.819 33.817 33.797 33.782 33.777 33.767 33.764 33.757 33.722 33.689 33.622 33.579 33.517 33.437 33.394 33.337 33.277 33.227 33.169 33.137 33.082 33.049 32.987 32.952 32.934 32.882 32.842 32.802 32.737 32.689 32.629 32.567 32.502 32.437 32.382 32.317 32.239 32.184 32.107 32.062 31.977 31.902 31.827 31.752 31.692 31.597 31.532 31.479 31.389 31.307 31.242 31.197 31.114 31.044 30.974 30.894 30.787 30.689 30.592 30.531 30.439 30.396 30.339 30.321 30.281 30.224 30.164 30.179 31.244 31.414 29.851 29.766 29.691 29.626 29.544 29.444 29.356 29.274 29.209 29.149 29.074 28.964 28.906 28.856 28.776 28.689 28.609 28.541 28.476 28.414 28.304 28.251 28.176 28.089 27.986 27.899 27.851 27.771 27.689 27.616 27.519 27.479 27.391 27.314 27.221 27.141 27.101 26.996 26.931 26.884 26.779 26.714 26.644 26.546 26.479 26.444 26.351 26.286 26.231 26.186 26.196 26.721 26.266 28.391 30.616 29.416 28.829 30.119 27.601 25.706 25.591 25.484 25.636 25.209 25.124 25.079 24.974 24.906 24.846 25.139 27.511 27.096 24.781 26.216 27.246 24.674 24.556 24.541 24.499 24.491 24.459 24.541 24.276 24.569 24.566 26.671 27.804 26.431 25.901 25.816 25.634 25.351 23.614 23.189 23.121 25.146 26.764 26.599 23.911 22.916 22.661 22.589 22.519 22.464 22.474 22.534 22.619 23.116 22.484 22.274 23.759 24.011 23.304 23.101 24.284 22.659 22.531 22.786 21.689 21.559 21.701 22.089 22.001 21.681 21.699 22.136 21.259 20.924 20.936 20.964 20.934 20.924 20.966 20.979 20.909 20.876 20.879 21.634 21.459 21.909 25.211 26.056 24.074 26.494 23.549 23.526 23.781 22.506 20.931 20.586 20.536 20.534 21.589 20.716 20.551 20.524 20.581 20.676 20.664 20.834 20.716 20.776 20.796 20.781 20.906 21.011 21.084 20.909 21.161 20.909 21.369 21.801 22.031 21.901 21.744 21.506 21.216 21.246 21.204 21.196 21.181 21.131 21.144 21.091 21.036 21.069 21.074 21.026 20.979 20.962 21.002 20.992 20.939 20.929 20.924 20.869 20.867 20.827 20.782 20.787 20.764 20.719 20.709 20.719 20.694 20.664 20.632 20.602 20.574 20.564 20.532 20.469 20.462 20.439 20.394 20.372 20.302 20.289 20.234 20.179 20.182 20.177 20.144 20.119 20.089 20.067 19.989 19.987 19.987 19.964 19.947 19.897 19.857 19.817 19.764 19.747 19.709 19.684 19.682 19.687 19.649 19.597 19.557 19.512 19.454 19.437 19.417 19.407 19.397 19.369 19.317 19.282 19.252 19.209 19.237 19.199 19.179 19.139 19.114 19.089 19.022 18.969 18.929 18.892 18.852 18.812 18.802 18.784 18.752 18.729 20.192 20.254 18.659 18.644 18.627 18.614 18.637 18.927 18.649 18.644 19.052 18.687 18.634 18.554 18.592 18.704 18.814 18.492 18.534 18.542 19.132 18.464 19.117 19.284 21.257 22.524 22.862 22.107 21.192 20.674 19.784 18.359 18.519 18.517 18.312 18.274 18.249 18.164 18.547 18.032 17.969 17.924 17.862 17.894 17.879 17.847
34.744 34.734 34.722 34.722 34.734 34.739 34.742 34.729 34.722 34.727 34.699 34.702 34.692 34.674 34.659 34.629 34.602 34.579 34.539 34.527 34.507 34.469 34.462 34.434 34.407 34.382 34.347 34.304 34.264 34.242 34.217 34.162 34.157 34.132 34.084 34.047 34.024 34.012 34.004 33.939 33.917 33.894 33.884 33.864 33.842 33.824 33.807 33.789 33.779 33.792 33.774 33.754 33.737 33.679 33.594 33.534 33.484 33.419 33.379 33.324 33.262 33.227 33.144 33.112 33.079 33.024 32.987 32.944 32.917 32.857 32.827 32.769 32.699 32.637 32.592 32.542 32.459 32.402 32.354 32.272 32.212 32.162 32.102 32.047 31.977 31.899 31.832 31.757 31.667 31.599 31.529 31.444 31.372 31.304 31.229 31.144 31.072 31.027 30.932 30.862 30.767 30.667 30.584 30.489 30.411 30.371 30.341 30.304 30.256 30.199 30.131 30.444 31.274 30.216 29.726 29.691 29.661 29.594 29.489 29.404 29.339 29.264 29.166 29.126 29.041 28.961 28.886 28.819 28.729 28.679 28.599 28.524 28.459 28.381 28.294 28.234 28.136 28.044 27.976 27.876 27.809 27.716 27.649 27.574 27.484 27.439 27.349 27.264 27.189 27.129 27.066 26.971 26.894 26.829 26.741 26.669 26.606 26.504 26.421 26.371 26.324 26.229 26.171 26.096 26.066 26.009 26.516 27.946 28.181 27.051 26.164 26.199 26.031 26.109 26.149 26.046 25.996 25.494 25.489 25.111 24.926 24.864 24.794 24.721 25.294 25.429 24.749 24.564 24.499 24.529 24.559 24.524 24.499 24.459 24.631 24.839 26.229 24.636 23.989 24.611 25.706 25.796 25.309 24.264 25.756 24.729 23.306 23.169 23.076 23.014 24.716 26.569 27.169 25.676 23.096 22.576 22.506 22.439 22.404 22.356 22.494 22.501 22.986 22.824 24.271 25.824 27.186 26.494 25.624 27.491 24.736 22.466 21.956 21.506 21.431 21.571 21.679 21.649 21.814 21.426 21.001 20.946 21.026 21.004 20.979 20.984 21.044 21.186 21.391 20.919 20.886 21.254 23.506 25.489 27.139 28.004 26.481 22.851 21.424 21.729 22.884 20.976 21.024 21.191 20.579 20.624 20.766 20.719 20.654 20.554 20.579 20.684 20.759 20.761 20.791 20.826 20.859 20.866 20.899 20.929 21.589 21.716 22.809 21.601 21.081 21.584 21.469 22.394 23.999 23.006 21.264 21.251 21.254 21.251 21.259 21.209 21.151 21.134 21.114 21.091 21.091 21.039 21.004 20.974 20.947 20.967 20.927 20.912 20.919 20.897 20.862 20.842 20.792 20.759 20.762 20.739 20.722 20.744 20.739 20.689 20.644 20.627 20.577 20.577 20.532 20.527 20.494 20.467 20.422 20.362 20.349 20.314 20.269 20.209 20.177 20.182 20.157 20.119 20.094 20.044 20.014 19.947 19.964 19.954 19.959 19.922 19.872 19.832 19.762 19.744 19.729 19.704 19.684 19.669 19.649 19.614 19.579 19.547 19.487 19.444 19.417 19.402 19.384 19.352 19.327 19.284 19.289 19.229 19.219 19.184 19.157 19.144 19.142 19.122 19.059 18.954 18.924 18.884 18.867 18.834 18.789 18.764 18.734 18.712 18.869 19.302 18.657 18.662 18.622 18.652 19.154 23.539 22.374 21.907 20.207 19.204 18.552 18.519 18.509 18.597 18.822 18.519 18.504 18.479 18.452 18.724 20.657 21.144 19.629 21.809 22.672 22.822 21.927 20.657 19.354 18.787 18.349 18.422 18.399 18.319 18.207 18.117 18.052 17.979 17.954 17.899 17.862 17.862 17.849 17.957
34.757 34.739 34.707 34.677 34.689 34.664 34.682 34.712 34.684 34.657 34.652 34.652 34.664 34.649 34.627 34.619 34.597 34.579 34.552 34.522 34.487 34.462 34.422 34.424 34.377 34.339 34.334 34.297 34.262 34.232 34.222 34.169 34.147 34.127 34.082 34.052 34.037 34.012 33.992 33.974 33.922 33.904 33.869 33.829 33.819 33.822 33.824 33.804 33.794 33.787 33.794 33.772 33.737 33.662 33.587 33.532 33.482 33.404 33.377 33.294 33.259 33.199 33.152 33.107 33.059 33.024 32.974 32.954 32.909 32.837 32.767 32.739 32.667 32.622 32.559 32.499 32.447 32.349 32.304 32.234 32.192 32.134 32.092 32.027 31.962 31.902 31.812 31.737 31.672 31.592 31.512 31.432 31.352 31.307 31.192 31.124 31.049 30.992 30.887 30.812 30.702 30.629 30.539 30.484 30.414 30.366 30.339 30.329 30.251 30.181 30.139 31.209 31.419 29.981 29.761 29.671 29.616 29.484 29.421 29.331 29.279 29.201 29.124 29.064 29.001 28.931 28.846 28.796 28.709 28.631 28.561 28.494 28.431 28.334 28.269 28.189 28.116 28.024 27.934 27.854 27.766 27.689 27.616 27.559 27.484 27.396 27.324 27.249 27.166 27.099 27.019 26.934 26.851 26.774 26.704 26.639 26.534 26.466 26.376 26.319 26.251 26.151 26.104 26.036 25.991 25.909 25.936 27.709 27.134 26.129 26.551 25.694 26.151 27.761 28.099 26.634 26.139 25.914 24.731 24.684 24.809 24.806 24.766 24.746 24.659 24.631 24.639 24.576 24.504 24.509 24.491 24.476 24.464 24.789 24.941 24.469 26.069 25.371 23.984 24.054 25.046 26.519 26.309 23.786 23.649 23.346 23.449 24.406 23.171 22.964 22.946 24.651 28.561 27.116 24.701 22.901 22.484 22.429 22.361 22.319 22.296 22.889 23.419 22.854 24.171 27.386 27.366 27.404 27.976 28.896 27.534 22.449 22.134 21.724 21.421 21.311 21.416 21.569 21.456 21.049 20.999 21.054 21.006 20.994 21.094 21.011 20.974 20.944 21.654 21.246 20.886 22.664 25.449 27.319 27.829 26.419 22.706 22.954 23.091 21.124 20.826 21.129 20.826 21.424 21.089 20.639 20.679 20.664 20.671 20.619 20.649 20.709 20.779 20.834 21.404 20.866 20.896 20.929 20.989 20.981 21.121 22.014 22.489 21.359 21.351 21.259 21.596 24.104 23.836 21.516 21.256 21.256 21.244 21.266 21.266 21.211 21.199 21.176 21.154 21.134 21.106 21.076 21.059 21.024 20.967 20.949 20.929 20.937 20.907 20.892 20.862 20.839 20.819 20.762 20.764 20.772 20.779 20.767 20.759 20.704 20.674 20.644 20.594 20.579 20.549 20.557 20.494 20.454 20.417 20.399 20.349 20.314 20.277 20.232 20.194 20.169 20.154 20.107 20.074 20.057 20.022 19.974 19.929 19.954 19.942 19.932 19.897 19.852 19.792 19.744 19.714 19.722 19.684 19.659 19.649 19.629 19.609 19.584 19.519 19.469 19.412 19.409 19.364 19.342 19.344 19.329 19.297 19.254 19.194 19.187 19.164 19.154 19.129 19.099 19.064 18.992 18.939 18.899 18.877 18.832 18.774 18.747 18.737 18.747 18.724 18.724 18.812 18.692 19.192 21.707 24.219 24.967 25.409 22.012 19.734 19.462 18.887 18.557 18.512 18.522 18.554 18.964 18.464 18.427 19.369 22.149 22.889 22.132 20.702 20.324 21.987 22.814 22.667 21.777 19.172 18.444 18.354 18.372 18.379 18.282 18.157 18.102 18.057 18.004 17.999 17.902 17.894 17.859 17.927 18.032
34.812 34.772 34.727 34.672 34.667 34.622 34.634 34.634 34.614 34.622 34.614 34.612 34.619 34.612 34.612 34.589 34.572 34.544 34.519 34.489 34.469 34.422 34.402 34.384 34.352 34.324 34.294 34.262 34.249 34.219 34.202 34.174 34.139 34.109 34.069 34.057 34.049 34.027 33.984 33.989 33.924 33.892 33.854 33.842 33.819 33.819 33.794 33.802 33.797 33.789 33.772 33.744 33.699 33.644 33.579 33.519 33.462 33.407 33.349 33.302 33.254 33.209 33.167 33.097 33.044 33.014 32.984 32.937 32.889 32.812 32.762 32.694 32.642 32.584 32.537 32.449 32.392 32.329 32.259 32.192 32.162 32.104 32.057 31.987 31.949 31.872 31.794 31.719 31.629 31.569 31.504 31.427 31.352 31.252 31.172 31.104 31.009 30.917 30.834 30.767 30.699 30.609 30.519 30.476 30.399 30.354 30.329 30.289 30.239 30.166 30.341 31.296 30.419 29.739 29.671 29.621 29.551 29.466 29.384 29.316 29.246 29.204 29.119 29.036 28.954 28.891 28.824 28.756 28.676 28.601 28.521 28.479 28.389 28.334 28.226 28.151 28.064 27.974 27.906 27.821 27.736 27.666 27.596 27.536 27.424 27.364 27.309 27.229 27.131 27.064 26.989 26.906 26.809 26.719 26.651 26.564 26.491 26.409 26.331 26.259 26.189 26.096 26.046 25.961 25.936 25.861 25.816 25.794 26.691 26.489 26.141 27.479 28.079 29.044 28.854 27.761 25.854 24.689 24.541 24.586 24.724 24.724 24.664 24.891 24.701 24.576 24.514 24.529 24.494 24.446 24.456 24.431 25.599 27.656 26.089 24.161 24.374 24.321 23.999 23.901 24.234 26.219 27.844 24.206 23.381 23.369 24.546 23.894 23.044 22.946 22.881 23.109 25.364 23.589 23.539 23.464 22.794 22.394 22.354 22.339 22.286 23.741 24.754 23.556 22.926 24.656 27.221 28.001 29.016 28.109 24.194 21.929 21.874 21.846 21.586 21.296 21.224 21.169 21.069 20.979 21.034 21.356 21.144 21.616 21.244 21.029 20.974 21.469 21.059 20.884 21.044 24.496 27.136 28.321 26.451 22.231 20.796 22.236 23.414 22.301 21.136 20.774 20.699 20.819 21.421 21.286 20.694 20.641 20.681 20.736 20.704 20.704 20.806 21.789 23.239 22.056 20.989 21.139 21.014 21.059 21.044 21.346 21.491 21.289 21.256 21.181 21.849 23.671 21.834 21.264 21.261 21.271 21.301 21.334 21.301 21.206 21.201 21.194 21.169 21.124 21.069 21.064 21.074 21.029 20.982 20.967 20.939 20.932 20.944 20.902 20.907 20.857 20.822 20.832 20.784 20.769 20.792 20.752 20.729 20.762 20.712 20.647 20.632 20.579 20.567 20.572 20.517 20.482 20.434 20.392 20.354 20.317 20.297 20.247 20.212 20.174 20.127 20.117 20.074 20.049 20.039 19.989 19.942 19.914 19.912 19.917 19.904 19.864 19.824 19.789 19.737 19.699 19.694 19.664 19.649 19.634 19.627 19.567 19.544 19.494 19.419 19.392 19.374 19.349 19.352 19.334 19.304 19.262 19.204 19.167 19.189 19.172 19.112 19.092 19.097 19.012 18.972 18.902 18.857 18.809 18.772 18.777 18.762 18.784 18.759 18.747 19.127 19.662 19.969 25.524 24.299 22.467 21.169 19.092 19.179 19.207 18.704 18.574 18.504 18.489 19.209 20.492 19.184 19.802 21.109 21.809 22.712 22.784 21.967 20.367 20.127 22.139 22.592 20.379 18.702 18.387 18.367 18.379 18.389 18.249 18.164 18.117 18.067 18.064 17.972 17.912 17.944 17.999 18.007 18.067
35.214 34.869 34.787 34.732 34.697 34.637 34.599 34.562 34.569 34.579 34.567 34.564 34.577 34.569 34.557 34.542 34.519 34.532 34.504 34.484 34.437 34.424 34.402 34.372 34.324 34.304 34.289 34.252 34.212 34.202 34.184 34.159 34.152 34.107 34.087 34.064 34.052 34.027 34.009 33.957 33.929 33.899 33.859 33.849 33.829 33.807 33.814 33.819 33.807 33.807 33.777 33.719 33.682 33.632 33.547 33.502 33.442 33.399 33.339 33.279 33.232 33.179 33.159 33.127 33.069 33.002 32.972 32.942 32.864 32.794 32.744 32.689 32.627 32.557 32.474 32.429 32.342 32.304 32.239 32.192 32.152 32.064 32.022 31.962 31.902 31.834 31.774 31.697 31.627 31.562 31.482 31.412 31.342 31.237 31.159 31.084 30.987 30.887 30.792 30.732 30.654 30.584 30.507 30.426 30.391 30.381 30.331 30.289 30.229 30.129 30.876 31.449 29.789 29.779 29.624 29.589 29.479 29.384 29.326 29.266 29.209 29.149 29.061 28.986 28.921 28.849 28.776 28.716 28.636 28.556 28.509 28.421 28.356 28.276 28.216 28.101 28.044 27.949 27.869 27.779 27.699 27.599 27.541 27.484 27.396 27.324 27.269 27.186 27.119 27.021 26.941 26.844 26.764 26.669 26.596 26.519 26.446 26.351 26.269 26.204 26.116 26.024 25.974 25.906 25.849 25.804 25.749 25.709 25.676 25.854 26.149 26.674 26.894 28.801 27.434 26.204 24.756 24.531 24.499 27.619 27.441 25.119 24.556 24.644 24.844 24.671 24.454 24.459 24.496 24.474 24.414 24.379 29.051 29.201 24.391 24.124 23.926 24.204 24.284 23.691 23.611 24.881 24.149 24.606 23.421 23.264 23.191 23.064 22.959 22.919 22.851 22.786 22.899 22.866 23.446 24.106 23.179 22.391 22.381 22.281 24.014 24.979 25.576 27.499 25.216 22.536 24.226 28.536 28.039 25.169 22.369 21.631 21.659 22.031 22.014 21.524 21.129 21.064 21.076 21.091 21.186 21.939 22.186 23.669 21.871 21.001 20.981 21.634 21.491 21.411 23.876 27.204 27.936 26.709 24.149 21.629 20.684 20.921 21.956 21.611 21.531 20.816 20.666 20.666 20.769 21.454 21.394 20.616 20.676 20.834 20.779 20.776 20.884 21.136 22.119 21.661 21.079 20.986 21.034 20.986 21.099 21.114 22.869 24.099 21.841 21.221 21.231 21.284 21.304 21.294 21.264 21.274 21.314 21.386 21.496 21.376 21.206 21.209 21.209 21.161 21.134 21.104 21.079 21.074 21.037 20.989 20.932 20.944 20.962 20.924 20.932 20.912 20.869 20.852 20.837 20.762 20.767 20.752 20.752 20.739 20.734 20.659 20.654 20.639 20.572 20.542 20.494 20.512 20.454 20.424 20.359 20.337 20.282 20.269 20.224 20.184 20.157 20.112 20.092 20.049 20.039 20.014 19.969 19.902 19.909 19.897 19.874 19.889 19.869 19.802 19.772 19.729 19.697 19.682 19.652 19.629 19.614 19.589 19.542 19.484 19.459 19.424 19.384 19.367 19.339 19.314 19.287 19.232 19.227 19.214 19.164 19.147 19.132 19.079 19.049 19.037 18.992 18.912 18.844 18.842 18.824 18.804 18.777 18.769 18.794 18.777 18.897 19.427 24.064 25.607 23.329 19.234 18.687 21.539 23.477 20.619 19.164 18.587 18.507 19.724 21.454 20.967 20.744 20.579 20.927 21.212 21.984 22.787 22.639 21.714 20.222 20.612 18.929 18.754 18.544 18.439 18.404 18.424 18.339 18.239 18.224 18.152 18.037 17.997 17.949 17.984 18.487 18.207 18.109 18.124
36.044 35.924 35.462 34.964 34.742 34.679 34.632 34.569 34.557 34.544 34.544 34.519 34.522 34.507 34.502 34.489 34.497 34.479 34.444 34.427 34.409 34.394 34.364 34.342 34.332 34.284 34.262 34.242 34.224 34.177 34.177 34.149 34.117 34.104 34.072 34.052 34.054 34.022 33.999 33.967 33.934 33.919 33.867 33.864 33.852 33.832 33.822 33.817 33.822 33.814 33.769 33.724 33.659 33.577 33.549 33.474 33.429 33.362 33.332 33.262 33.237 33.209 33.152 33.104 33.074 33.017 32.977 32.922 32.849 32.784 32.742 32.674 32.594 32.512 32.462 32.389 32.342 32.272 32.204 32.169 32.097 32.052 31.989 31.927 31.877 31.822 31.734 31.652 31.599 31.529 31.447 31.399 31.309 31.232 31.122 31.044 30.957 30.869 30.787 30.707 30.612 30.537 30.487 30.431 30.391 30.359 30.316 30.261 30.189 30.216 31.354 30.816 29.626 29.671 29.579 29.504 29.399 29.336 29.269 29.229 29.159 29.099 29.009 28.964 28.881 28.826 28.741 28.666 28.614 28.529 28.466 28.404 28.301 28.254 28.159 28.106 27.989 27.919 27.824 27.746 27.676 27.584 27.521 27.444 27.379 27.319 27.229 27.136 27.071 26.999 26.881 26.826 26.716 26.636 26.534 26.466 26.394 26.281 26.244 26.179 26.099 26.001 25.921 25.839 25.796 25.724 25.691 25.636 25.619 25.574 25.984 25.739 25.821 26.901 27.666 25.919 25.059 24.986 26.941 28.639 29.384 27.894 25.206 24.921 24.969 25.049 24.474 24.369 24.366 24.401 24.414 24.314 25.951 26.551 24.141 23.936 23.816 23.706 24.564 23.856 23.624 24.446 23.494 23.866 24.474 23.381 23.141 23.031 22.914 22.856 22.796 22.724 22.691 22.744 22.991 23.536 23.446 22.811 22.246 22.321 23.586 25.449 26.999 28.651 28.626 24.089 22.636 24.021 23.289 22.011 21.584 22.029 21.636 21.481 21.676 21.341 21.054 21.104 21.129 21.424 21.246 25.056 24.124 22.091 23.831 21.446 20.996 21.439 20.984 21.229 21.569 25.526 26.436 23.384 23.856 23.116 21.116 21.536 20.731 21.106 21.036 21.376 20.764 21.019 20.944 20.654 21.101 20.784 20.711 21.389 21.241 20.864 20.941 20.901 20.926 20.991 20.999 20.996 21.039 21.024 21.754 21.421 22.879 23.481 22.419 21.374 21.334 21.349 21.321 21.316 21.326 21.301 21.366 21.411 21.409 21.554 21.334 21.231 21.229 21.214 21.166 21.149 21.121 21.112 21.069 21.012 20.979 20.954 20.969 20.949 20.947 20.957 20.927 20.884 20.847 20.799 20.754 20.779 20.742 20.714 20.729 20.709 20.672 20.632 20.584 20.539 20.524 20.509 20.482 20.439 20.377 20.344 20.314 20.272 20.249 20.199 20.164 20.129 20.079 20.062 20.014 19.997 19.982 19.929 19.912 19.907 19.902 19.907 19.874 19.819 19.779 19.747 19.692 19.697 19.639 19.602 19.592 19.572 19.539 19.504 19.477 19.439 19.379 19.372 19.324 19.292 19.289 19.282 19.252 19.219 19.159 19.142 19.124 19.079 19.062 19.034 18.994 18.932 18.899 18.862 18.849 18.817 18.809 18.829 18.804 18.799 18.852 19.529 23.977 25.609 22.904 18.674 20.844 25.147 23.924 19.449 20.642 20.537 21.222 22.722 22.124 21.299 20.934 20.877 20.897 20.917 21.304 22.157 22.889 22.502 20.287 18.657 18.622 18.584 18.674 18.594 18.507 18.422 18.309 18.237 18.172 18.142 18.059 18.064 18.064 18.494 19.647 18.589 18.069 18.694
35.554 35.867 35.787 35.959 35.594 34.809 34.712 34.682 34.619 34.562 34.512 34.494 34.462 34.482 34.462 34.452 34.444 34.427 34.409 34.384 34.399 34.352 34.329 34.319 34.312 34.282 34.232 34.232 34.207 34.192 34.177 34.119 34.092 34.079 34.067 34.072 34.029 34.012 33.999 33.972 33.924 33.912 33.897 33.857 33.857 33.839 33.842 33.849 33.844 33.817 33.767 33.707 33.639 33.592 33.499 33.457 33.404 33.364 33.304 33.279 33.232 33.189 33.159 33.107 33.092 33.012 32.987 32.899 32.839 32.797 32.749 32.662 32.579 32.497 32.447 32.357 32.302 32.252 32.187 32.144 32.084 32.017 31.972 31.894 31.839 31.759 31.717 31.632 31.569 31.484 31.444 31.387 31.294 31.222 31.124 31.012 30.939 30.829 30.752 30.687 30.587 30.512 30.447 30.419 30.384 30.316 30.294 30.249 30.169 30.386 31.201 29.954 29.736 29.606 29.556 29.474 29.366 29.304 29.236 29.164 29.116 29.031 28.976 28.904 28.834 28.764 28.709 28.636 28.571 28.514 28.444 28.346 28.284 28.214 28.119 28.044 27.951 27.896 27.799 27.721 27.644 27.586 27.501 27.429 27.346 27.256 27.169 27.106 27.019 26.936 26.839 26.789 26.661 26.559 26.481 26.409 26.341 26.251 26.191 26.149 26.051 25.981 25.899 25.801 25.744 25.671 25.629 25.584 25.536 25.509 25.429 25.941 26.134 27.216 28.749 27.371 27.071 26.946 28.509 30.571 30.986 30.109 29.084 28.151 26.004 24.689 24.616 24.336 24.256 24.271 24.701 24.311 24.389 24.886 24.249 24.639 23.771 23.656 23.564 23.774 23.604 23.824 23.469 23.381 24.019 25.584 24.359 23.076 22.956 22.851 22.784 22.726 22.661 23.244 24.074 24.936 23.436 22.859 22.236 22.291 24.161 27.729 28.644 28.666 25.874 22.076 22.156 22.359 22.026 21.936 21.971 21.699 22.409 21.304 21.261 21.139 21.119 21.104 21.296 22.436 22.721 25.249 23.269 22.019 23.961 21.894 21.391 22.121 24.954 25.871 25.204 22.444 22.201 21.329 23.409 23.534 21.991 21.806 21.159 21.224 20.694 21.859 21.669 22.146 22.134 20.886 20.791 21.136 20.884 21.384 21.929 21.614 20.899 20.931 20.989 20.979 21.036 21.206 21.231 21.109 22.914 23.194 23.671 22.731 22.126 21.476 21.399 21.379 21.346 21.344 21.384 21.361 21.389 21.399 21.476 21.434 21.636 21.319 21.261 21.226 21.211 21.151 21.119 21.104 21.094 21.044 21.009 20.972 20.954 20.979 20.982 20.969 20.954 20.899 20.847 20.837 20.807 20.747 20.744 20.729 20.732 20.742 20.664 20.617 20.617 20.574 20.524 20.517 20.494 20.447 20.412 20.367 20.337 20.279 20.222 20.187 20.157 20.117 20.079 20.044 20.062 19.977 19.962 19.914 19.894 19.887 19.892 19.889 19.872 19.854 19.787 19.769 19.719 19.654 19.639 19.617 19.579 19.542 19.549 19.532 19.502 19.467 19.409 19.354 19.329 19.312 19.309 19.292 19.237 19.214 19.192 19.134 19.122 19.094 19.062 19.002 18.999 18.992 18.927 18.869 18.854 18.872 18.887 18.849 18.824 18.824 19.352 21.957 21.637 20.962 19.844 19.079 20.422 19.337 18.574 18.579 19.464 20.334 21.969 22.829 22.817 21.967 21.167 20.904 20.877 20.854 20.504 21.454 22.339 20.534 18.464 18.577 18.474 18.677 23.287 20.857 18.502 18.329 18.282 18.222 18.164 18.104 18.142 18.169 18.234 18.129 19.019 19.362 18.182 18.297
34.924 34.899 34.919 35.422 35.647 35.684 35.062 34.824 34.677 34.632 34.562 34.514 34.462 34.444 34.404 34.384 34.374 34.399 34.377 34.354 34.337 34.292 34.284 34.272 34.279 34.254 34.219 34.189 34.189 34.157 34.149 34.127 34.092 34.079 34.074 34.047 34.032 34.004 33.997 33.959 33.942 33.887 33.894 33.877 33.877 33.864 33.852 33.849 33.837 33.802 33.754 33.702 33.634 33.569 33.504 33.432 33.377 33.327 33.294 33.239 33.227 33.179 33.139 33.094 33.052 33.014 32.964 32.902 32.839 32.764 32.714 32.654 32.557 32.507 32.429 32.327 32.274 32.217 32.152 32.114 32.054 31.969 31.917 31.834 31.789 31.739 31.672 31.594 31.532 31.444 31.409 31.329 31.267 31.197 31.104 31.014 30.929 30.822 30.727 30.654 30.577 30.507 30.444 30.389 30.366 30.321 30.264 30.209 30.174 30.556 30.611 29.491 29.674 29.569 29.529 29.424 29.334 29.271 29.186 29.114 29.044 28.969 28.911 28.854 28.786 28.734 28.676 28.604 28.519 28.466 28.391 28.341 28.251 28.199 28.089 28.016 27.924 27.849 27.771 27.689 27.589 27.531 27.461 27.396 27.321 27.224 27.149 27.069 26.984 26.896 26.791 26.704 26.629 26.509 26.419 26.359 26.281 26.199 26.141 26.069 26.034 25.926 25.849 25.759 25.726 25.641 25.561 25.514 25.474 25.439 25.384 25.331 25.681 26.284 29.836 31.089 25.626 25.926 27.214 30.906 31.689 30.979 30.274 30.424 29.984 26.009 24.436 24.316 24.239 24.161 24.391 24.611 25.546 24.736 24.986 25.551 25.404 24.169 23.554 23.461 23.984 23.604 23.544 23.351 23.284 25.564 26.071 23.099 22.991 22.824 22.791 22.716 22.651 24.276 26.756 23.044 22.429 22.404 22.289 24.849 27.496 28.666 28.916 28.226 25.246 22.011 21.941 22.011 22.234 21.974 21.584 21.329 21.434 21.241 21.139 21.089 21.151 21.134 21.146 23.939 26.946 26.629 22.851 24.209 26.519 24.456 22.616 27.829 27.404 27.744 28.136 24.824 21.811 22.564 22.726 21.346 20.891 21.079 20.999 20.776 20.639 21.184 22.816 22.216 21.846 21.986 20.736 21.466 21.524 20.841 22.256 22.999 21.409 21.076 21.071 21.049 21.124 21.376 21.511 21.566 22.279 23.304 22.986 22.171 21.594 21.424 21.434 21.419 21.389 21.379 21.416 21.481 21.441 21.421 21.426 21.391 21.596 21.984 21.674 21.286 21.226 21.161 21.141 21.137 21.112 21.069 21.029 21.004 20.977 20.974 20.977 20.964 20.954 20.929 20.877 20.839 20.814 20.757 20.742 20.724 20.722 20.684 20.679 20.637 20.602 20.584 20.562 20.532 20.504 20.447 20.407 20.377 20.339 20.297 20.247 20.194 20.172 20.112 20.079 20.027 20.007 19.984 19.957 19.962 19.919 19.909 19.867 19.857 19.842 19.864 19.824 19.774 19.724 19.667 19.642 19.622 19.579 19.564 19.554 19.567 19.524 19.474 19.417 19.372 19.337 19.314 19.289 19.262 19.242 19.227 19.194 19.157 19.107 19.077 19.034 19.004 19.002 18.982 18.952 18.922 18.917 18.909 18.869 18.882 19.162 21.239 21.444 20.784 18.734 19.282 20.372 18.779 18.637 18.607 18.567 20.172 22.052 20.114 20.132 22.114 22.957 22.652 21.759 21.072 20.617 19.032 18.504 19.129 19.357 18.499 18.542 18.542 18.464 18.562 19.317 18.417 18.327 18.254 18.214 18.154 18.167 18.207 18.237 18.324 18.229 18.182 18.682 18.692 18.204 19.002
